-2.409722 -1.660260 4.289094
-2.448765 -1.687160 4.934981
-2.758545 -1.550778 1.537131
-2.733080 -1.536462 2.266639
-2.774246 -1.559605 2.826530
-2.791788 -1.569467 3.497936
-2.762669 -1.553097 3.844270
-2.823002 -1.587014 4.849829
-2.739136 -1.539867 5.331328
-3.127033 -1.381424 1.041705
-3.096598 -1.367979 1.894821
-3.119367 -1.378038 2.254232
-3.157712 -1.394978 3.015274
-3.152423 -1.392641 3.428351
-3.188183 -1.408439 4.135539
-3.214276 -1.419966 4.830512
-3.044632 -1.345022 5.087662
-3.478525 -1.168263 1.616938
-3.499967 -1.175464 1.989136
-3.531814 -1.186160 2.726753
-3.546102 -1.190959 3.133063
-3.530705 -1.185788 3.650460
-3.534779 -1.187156 4.250133
-4.059316 -0.937478 1.541989
-4.090344 -0.944643 2.386898
-4.125221 -0.952698 3.040752
-4.157070 -0.960053 3.551475
-4.157564 -0.960167 3.946509
-4.206193 -0.971398 4.627417
-4.111666 -0.949568 4.961122
-4.172665 -0.553104 1.850704
-4.202198 -0.557019 2.271690
-4.246389 -0.562876 3.035558
-4.249325 -0.563266 3.508818
-4.276303 -0.566842 4.101578
-4.346358 -0.576128 4.884352
-4.068286 -0.539268 5.169849
-3.968651 -0.147541 2.042847
-4.011922 -0.149150 2.861591
-3.985764 -0.148177 3.098750
-3.987840 -0.148254 3.560789
-3.927531 -0.146012 4.245798
-3.809584 0.206815 1.956608
-3.828672 0.207851 2.814194
-3.805498 0.206593 3.084896
-3.737889 0.202923 3.598963
-3.700936 0.200917 4.269852
-3.656323 0.535394 1.631753
-3.664880 0.536647 2.158952
-3.619118 0.529946 3.059992
-3.518388 0.515196 3.284142
-3.583520 0.524734 4.207592
-3.585462 0.525018 4.563494
-3.549151 0.519701 5.403628
-3.363399 0.830218 1.955294
-3.248700 0.801906 2.398989
-3.373289 0.832659 2.988324
-3.449289 0.851419 3.886291
-3.365328 0.830694 4.179720
-3.147697 1.103156 2.259863
-3.195764 1.120002 2.856905
-3.118730 1.093004 3.286953
-3.100140 1.086489 3.762892
-3.098586 1.085945 4.314044
-3.126895 1.095866 4.997580
-2.982712 1.367916 1.835536
-3.101730 1.422500 2.591002
-3.062829 1.404659 3.188875
-2.975429 1.364576 3.456486
-3.008518 1.379752 4.143159
-3.047895 1.397810 4.613402
-2.839179 1.302090 5.368649
-2.768865 1.597231 1.667447
-2.867091 1.653892 2.566857
-2.886152 1.664888 2.812537
-2.926442 1.688130 3.494115
-2.976624 1.717077 3.959569
-2.968702 1.712507 4.919952
-2.698321 1.556537 5.174735
-2.669286 1.912051 1.868335
-2.674553 1.915823 2.321005
-2.683072 1.921926 3.005741
-2.654592 1.901525 3.807022
-2.719191 1.947798 4.213401
-2.743989 1.965561 4.593254
-2.561665 1.834960 5.380749
-2.692957 2.312500 1.199913
-2.533756 2.175790 1.536416
-2.497852 2.144958 2.007706
-2.491215 2.139259 2.833600
-2.527603 2.170507 3.524465
-2.505705 2.151702 3.902235
-2.501809 2.148356 4.412415
-2.522060 2.165746 5.063099
-2.446916 2.557780 1.958527
-2.397763 2.506400 2.660040
-2.347461 2.453820 2.954947
-2.312533 2.417308 3.639048
-2.327725 2.433189 4.193572
-2.176372 2.730821 1.994377
-2.197108 2.756839 2.441981
-2.203594 2.764977 2.842668
-2.197282 2.757058 3.460479
-2.219991 2.785552 4.141500
-2.247741 2.820372 4.615962
-2.155220 2.704280 5.250389
-2.101791 3.211999 1.930812
-2.115062 3.232281 2.576327
-2.102870 3.213648 2.878581
-2.051756 3.135534 3.418402
-2.039173 3.116305 4.217818
-2.016001 3.080893 4.612551
-1.948160 2.977217 5.241214
-1.892439 3.636232 1.689553
-1.904450 3.659310 2.416929
-1.928958 3.706401 2.990263
-1.900626 3.651963 3.351469
-1.900561 3.651838 4.137524
-1.862316 3.578351 4.598761
-1.771849 3.404524 5.100728
-1.634888 3.954563 2.140974
-1.643296 3.974902 2.705741
-1.633427 3.951030 2.956280
-1.635502 3.956047 3.461257
-1.643846 3.976230 4.022378
-1.652694 3.997634 4.682832
-1.593780 3.855129 5.264623
-1.167113 3.864844 1.468651
-1.164815 3.857233 2.151339
-1.153182 3.818710 2.856012
-1.153465 3.819648 3.341687
-1.137016 3.765176 3.901982
-1.113653 3.687811 4.569579
-1.091763 3.615326 4.887364
-0.726047 3.510305 1.426233
-0.713236 3.448362 2.057793
-0.717248 3.467763 2.629003
-0.723655 3.498739 3.208327
-0.726280 3.511428 3.749988
-0.733780 3.547691 4.389527
-0.359664 3.355725 1.723185
-0.364887 3.404457 2.721607
-0.357996 3.340163 3.090746
-0.355587 3.317681 3.773053
-0.358972 3.349263 4.201749
-0.035276 3.194095 1.065978
-0.034659 3.138244 1.951795
-0.035132 3.181003 2.528138
-0.035148 3.182488 3.084005
-0.035456 3.210400 3.772206
-0.034891 3.159215 3.962724
-0.035009 3.169927 4.574171
-0.032158 2.911801 5.320636
0.252767 3.001478 1.935034
0.254240 3.018966 2.515859
0.256435 3.045028 3.071934
0.254687 3.024276 3.349930
0.253196 3.006571 4.217238
0.248316 2.948625 4.682493
0.238288 2.829539 5.341870
0.507488 2.854068 1.717229
0.511295 2.875476 2.407967
0.515389 2.898499 2.957666
0.506048 2.845971 3.626783
0.506539 2.848728 4.412388
0.757042 2.794945 2.409939
0.740875 2.735257 2.574010
0.731921 2.702200 3.266354
0.732266 2.703472 4.111521
0.742822 2.742446 4.572958
0.721618 2.664164 5.175393
1.053614 2.788266 1.355571
0.996277 2.636529 1.621545
1.001449 2.650218 2.565688
0.975957 2.582756 2.882860
0.965349 2.554681 3.764403
0.980641 2.595152 4.285020
1.312604 2.643881 1.265503
1.215069 2.447424 1.869048
1.174496 2.365701 2.362669
1.182099 2.381014 2.858765
1.207686 2.432552 3.639119
1.228512 2.474501 4.201621
1.435397 2.344238 2.455155
1.378722 2.251678 2.657825
1.412063 2.306130 3.538849
1.424675 2.326728 3.942886
1.440642 2.352804 4.696264
1.348280 2.201963 5.171025
1.689308 2.251265 1.546604
1.603167 2.136469 2.082827
1.601759 2.134592 2.394221
1.628161 2.169776 3.157379
1.657470 2.208836 3.599856
1.683474 2.243489 4.323205
1.907538 2.097892 1.462128
1.800976 1.980696 1.780089
1.801208 1.980952 2.502979
1.835030 2.018149 3.299382
1.871676 2.058451 3.969848
1.889799 2.078383 4.526696
2.081466 1.882296 2.224319
2.103220 1.901969 2.875823
2.079101 1.880158 3.299678
2.072536 1.874221 3.663606
2.104013 1.902686 4.369635
2.096794 1.896158 4.967359
2.367944 1.777122 1.913355
2.347341 1.761659 2.582194
2.346629 1.761125 3.109430
2.393402 1.796227 4.035177
2.418890 1.815356 4.613189
2.387076 1.791480 5.001241
2.812185 1.738376 1.357466
2.723344 1.683458 1.757894
2.728304 1.686524 2.542491
2.703213 1.671014 2.777164
2.663309 1.646347 3.531305
2.655479 1.641506 4.059928
2.724064 1.683903 4.940013
2.568607 1.587806 5.498071
2.992710 1.482455 1.536416
3.022586 1.497255 2.421522
3.032367 1.502100 2.832390
3.042174 1.506958 3.633028
3.035836 1.503818 3.974301
3.022545 1.497235 4.409696
2.977658 1.474999 5.054910
3.116728 1.190835 1.470939
3.115729 1.190454 2.259863
3.168453 1.210598 2.914100
3.188366 1.218206 3.357731
3.144918 1.201606 3.810823
3.236437 1.236573 4.679720
3.247856 1.240936 5.356330
3.158009 0.864383 1.194572
2.952793 0.808213 1.476140
3.009898 0.823843 2.400434
2.987424 0.817692 2.718042
2.993109 0.819248 3.283958
3.070775 0.840506 4.143785
3.010162 0.823916 4.413107
2.920491 0.799372 5.257771
2.711170 0.477573 1.792432
2.739716 0.482601 2.553204
2.787357 0.490993 3.077987
2.750949 0.484580 3.655273
2.824010 0.497450 4.229581
2.583626 0.219287 1.616703
2.611234 0.221630 2.077833
2.626500 0.222926 2.607572
2.690584 0.228365 3.505417
2.699162 0.229093 3.987864
2.730058 0.231715 4.571086
2.607156 0.221284 5.225561
2.529034 -0.035695 1.822401
2.548499 -0.035970 2.462749
2.622624 -0.037016 3.259821
2.668796 -0.037668 3.873980
2.664440 -0.037606 4.402811
2.443750 -0.273372 1.902653
2.456658 -0.274816 2.443465
2.470899 -0.276409 3.155194
2.509652 -0.280744 3.729971
2.555828 -0.285910 4.458985
2.491043 -0.278662 5.175044
2.394321 -0.495507 1.100901
2.208965 -0.457147 1.855593
2.273138 -0.470428 2.098072
2.328141 -0.481811 3.072466
2.359989 -0.488402 3.607015
2.372205 -0.490930 4.110939
2.309355 -0.477923 4.723154
2.068269 -0.428030 5.241232
2.313587 -0.708956 1.093356
2.070404 -0.634437 1.579483
2.053052 -0.629120 2.118387
2.149054 -0.658538 2.760177
2.236802 -0.685427 3.649530
2.219242 -0.680046 4.107192
2.262230 -0.693219 4.773858
2.008549 -0.615483 5.173068
1.969273 -0.803901 2.188205
1.981870 -0.809044 2.683915
2.048951 -0.836428 3.423560
2.017260 -0.823491 3.780516
2.069502 -0.844817 4.577061
1.971680 -0.804884 5.194529
2.096595 -1.104654 1.095123
1.871222 -0.985909 1.573494
1.930771 -1.017285 2.261214
1.930623 -1.017207 2.868819
1.935972 -1.020025 3.426293
1.972807 -1.039433 4.179729
1.904250 -1.003311 4.528428
1.732654 -0.912901 5.231812
1.884254 -1.232758 1.277657
1.776701 -1.162392 1.726801
1.776625 -1.162342 2.471075
1.783788 -1.167029 2.864889
1.843225 -1.205915 3.769012
1.843368 -1.206009 4.166069
1.896994 -1.511465 1.245173
1.693582 -1.349393 1.579483
1.700494 -1.354901 2.484135
1.700674 -1.355044 2.783811
1.728683 -1.377361 3.398085
1.751078 -1.395205 4.057650
1.716249 -1.367453 4.809003
1.507040 -1.200762 5.492824
1.550656 -1.484522 2.109878
1.579720 -1.512346 2.919814
1.613148 -1.544349 3.601823
1.603168 -1.534794 3.904884
1.577115 -1.509853 4.567339
1.449168 -1.387362 5.364518
1.507019 -1.731921 2.091290
1.501445 -1.725514 2.918957
1.504134 -1.728604 3.449246
1.497210 -1.720647 3.991881
1.507118 -1.732034 4.473009
1.435494 -1.649721 5.080265
1.404142 -1.975131 2.125063
1.417775 -1.994308 2.742497
1.421514 -1.999568 3.320415
1.450864 -2.040852 3.963208
1.457581 -2.050301 4.759426
1.368216 -1.924597 5.364641
1.278329 -2.191432 1.501696
1.261854 -2.163190 1.823877
1.254492 -2.150569 2.348928
1.280897 -2.195834 3.208927
1.302609 -2.233056 3.807878
1.317152 -2.257986 4.222033
1.087089 -2.364240 1.784434
1.091641 -2.374140 2.322677
1.098194 -2.388391 2.810819
1.115695 -2.426453 3.466427
1.139045 -2.477236 4.121525
1.153103 -2.507808 4.866972
1.063986 -2.313994 5.263335
0.953199 -2.713840 2.152393
0.956074 -2.722026 2.586424
0.960999 -2.736047 3.020641
0.969792 -2.761082 3.715109
0.974053 -2.773214 4.380341
0.779140 -3.146118 1.566162
0.790259 -3.191013 2.288213
0.789346 -3.187327 2.552587
0.791454 -3.195839 3.172217
0.798896 -3.225888 3.866264
0.806059 -3.254812 4.613402
0.794218 -3.207000 4.940232
0.498351 -3.400967 1.924297
0.495146 -3.379101 2.319546
0.499325 -3.407616 2.933727
0.506389 -3.455828 3.811348
0.504355 -3.441946 4.086667
0.164287 -3.118691 1.696318
0.166749 -3.165411 2.388246
0.168471 -3.198116 3.032138
0.168834 -3.204992 3.555481
0.168981 -3.207782 3.980875
0.168928 -3.206784 4.677303
0.158064 -3.000558 5.270318
-0.116839 -3.173760 1.239686
-0.110813 -3.010063 1.935034
-0.110515 -3.001979 2.184967
-0.111393 -3.025816 2.782643
-0.112840 -3.065128 3.413260
-0.114435 -3.108452 4.162238
-0.114022 -3.097229 4.770734
-0.105821 -2.874465 5.112993
-0.407054 -3.105091 1.373606
-0.384688 -2.934482 1.896779
-0.387692 -2.957393 2.236454
-0.392047 -2.990620 2.925589
-0.388626 -2.964522 3.396822
-0.378868 -2.890085 4.020160
-0.378696 -2.888776 4.715009
-0.352135 -2.686160 5.321652
-0.591692 -2.590023 2.842024
-0.583305 -2.553311 3.455280
-0.549808 -2.406685 4.079087
-0.580548 -2.541245 4.693873
-0.563111 -2.464918 5.154097
-0.975762 -2.917847 1.260303
-0.913914 -2.732901 1.851599
-0.935422 -2.797215 2.455742
-0.925854 -2.768605 2.692210
-0.884317 -2.644395 3.394058
-0.877615 -2.624353 4.048143
-0.881106 -2.634794 4.488679
-0.823826 -2.463508 5.263300
-1.154710 -2.590491 2.289081
-1.162419 -2.607786 2.815268
-1.123295 -2.520015 3.118885
-1.105577 -2.480265 3.842655
-1.114629 -2.500573 4.383811
-1.116027 -2.503710 5.212956
-1.361011 -2.457674 1.897794
-1.370173 -2.474221 2.507427
-1.327443 -2.397060 2.926947
-1.327056 -2.396360 3.831195
-1.336000 -2.412511 4.346898
-1.704753 -2.496940 1.179683
-1.620448 -2.373459 1.718637
-1.622450 -2.376392 2.495023
-1.549452 -2.269472 2.741016
-1.527456 -2.237255 3.580633
-1.568503 -2.297376 4.156541
-1.592925 -2.333147 4.796925
-1.464337 -2.144805 5.548717
-1.820566 -2.188573 2.087611
-1.756602 -2.111679 2.430118
-1.733169 -2.083509 3.132312
-1.766994 -2.124172 3.819749
-1.777167 -2.136401 4.318371
-2.036929 -2.008792 1.919638
-2.074440 -2.045786 2.625814
-2.095132 -2.066191 3.192366
-2.038354 -2.010198 3.604797
-1.998774 -1.971165 4.339864
-2.284378 -1.867529 2.138819
-2.258615 -1.846467 2.366473
-2.276755 -1.861298 2.924496
-2.237933 -1.829560 3.626783
-2.251866 -1.840950 4.342400
-2.681030 -1.794570 1.245849
-2.531145 -1.694243 1.659200
-2.534413 -1.696431 2.123537
-2.594583 -1.736706 2.981944
-2.595638 -1.737412 3.465368
-2.634638 -1.763517 4.229506
-2.656873 -1.778400 4.907124
-2.901123 -1.586988 2.212584
-2.923150 -1.599037 2.812537
-2.948643 -1.612983 3.107103
-3.009006 -1.646003 3.711628
-2.998434 -1.640219 4.369770
-3.339334 -1.413662 2.123871
-3.313355 -1.402664 2.411520
-3.344869 -1.416006 3.292134
-3.389770 -1.435014 3.902492
-3.343402 -1.415385 4.090651
-3.891924 -1.256060 1.938430
-3.924585 -1.266601 2.400989
-3.962960 -1.278986 3.096302
-4.004453 -1.292377 3.881717
-3.929699 -1.268251 4.046382
-3.948646 -1.274366 4.842149
-3.814346 -1.231023 5.343714
-4.295660 -0.934533 1.094654
-4.152292 -0.903343 1.688839
-4.175779 -0.908452 2.061686
-4.200730 -0.913880 2.681974
-4.192165 -0.912017 3.098965
-4.217521 -0.917533 3.746477
-4.291840 -0.933702 4.623510
-4.011119 -0.496743 1.556577
-4.048796 -0.501409 2.155663
-4.092447 -0.506815 2.947543
-4.029233 -0.498987 3.293270
-4.088960 -0.506383 4.161439
-4.067045 -0.503669 4.523330
-3.951479 -0.489358 5.051156
-3.851288 -0.094725 1.752237
-3.850076 -0.094695 2.115880
-3.824844 -0.094074 2.725639
-3.789927 -0.093215 3.576808
-3.685895 -0.090657 3.753668
-3.739949 -0.091986 4.504157
-3.687568 -0.090698 4.968393
-3.919299 0.266264 1.281116
-3.764227 0.255729 1.676031
-3.709022 0.251979 1.995544
-3.604720 0.244893 2.589977
-3.567206 0.242344 3.232688
-3.635218 0.246965 3.808558
-3.647532 0.247801 4.442568
-3.587244 0.243705 5.017373
-3.430120 0.563124 2.126415
-3.325950 0.546023 2.685259
-3.436790 0.564219 3.069787
-3.465969 0.569010 3.767500
-3.516079 0.577236 4.497985
-3.292806 0.858023 1.770754
-3.231248 0.841982 2.308972
-3.212574 0.837116 3.194163
-3.211291 0.836782 3.625679
-3.264060 0.850532 4.409696
-3.061160 1.097799 1.763192
-2.951309 1.058404 2.266639
-3.033347 1.087825 2.980343
-3.082154 1.105328 3.464688
-3.123029 1.119987 4.200498
-3.135425 1.124432 4.633576
-3.084723 1.106249 5.231463
-2.994767 1.416721 2.294507
-2.955393 1.398094 2.677774
-2.928098 1.385182 3.144620
-3.087202 1.460449 3.796355
-3.072500 1.453493 4.239123
-2.916315 1.747348 1.205947
-2.866697 1.717619 1.577335
-2.768873 1.659006 2.160594
-2.749425 1.647354 2.799536
-2.871076 1.720242 3.439741
-2.900034 1.737593 4.108395
-2.839172 1.701126 4.494355
-2.816028 1.687259 5.264265
-2.728046 1.992223 2.158036
-2.681121 1.957955 2.681530
-2.623844 1.916127 2.994300
-2.641492 1.929015 3.648078
-2.646860 1.932935 4.273043
-2.485495 2.192214 1.956896
-2.577844 2.273667 2.588847
-2.538013 2.238535 3.088183
-2.476422 2.184212 3.486411
-2.514592 2.217878 4.270673
-2.431352 2.608262 1.973134
-2.343132 2.513623 2.268671
-2.363142 2.535089 2.898689
-2.414428 2.590107 3.590582
-2.423430 2.599764 4.084627
-2.340009 3.004761 1.851888
-2.325076 2.985586 2.226078
-2.325793 2.986507 2.827002
-2.291148 2.942020 3.477822
-2.231250 2.865106 3.909013
-2.293933 2.945595 4.778400
-2.202141 2.827727 5.387394
-2.192177 3.436430 1.722929
-2.177330 3.413158 2.399139
-2.145763 3.363673 2.864019
-2.159607 3.385375 3.760871
-2.106948 3.302828 4.157525
-2.089174 3.274965 4.927317
-1.966482 3.082634 5.223888
-2.040868 3.977460 1.076070
-1.917703 3.737422 1.213510
-1.943224 3.787161 2.174547
-1.946947 3.794416 2.581174
-1.941913 3.784605 2.990550
-1.978006 3.854947 3.873127
-1.967257 3.833999 4.069902
-1.978297 3.855515 5.031401
-1.844322 3.594410 5.238866
-1.511218 3.819776 1.833119
-1.496419 3.782371 2.325235
-1.525326 3.855437 3.162661
-1.573545 3.977315 3.638704
-1.535642 3.881512 4.186221
-1.480572 3.742317 4.854600
-1.383673 3.497393 5.655892
-1.061456 3.609435 2.268301
-1.040429 3.537934 2.583470
-1.022517 3.477024 3.219185
-1.016483 3.456508 3.476174
-1.027821 3.495062 4.179786
-0.638773 3.354718 1.966722
-0.637761 3.349406 2.246067
-0.646181 3.393622 3.039733
-0.644461 3.384591 3.420196
-0.649884 3.413069 4.411438
-0.637154 3.346215 4.630301
-0.587548 3.085696 5.178756
-0.312864 3.232481 1.154519
-0.302876 3.129284 1.620784
-0.304335 3.144359 2.248302
-0.307266 3.174647 3.149814
-0.305239 3.153698 3.418522
-0.311770 3.221185 4.337571
-0.311987 3.223425 4.689894
-0.286679 2.961941 5.249747
-0.022478 3.195995 1.115320
-0.021200 3.014266 1.536487
-0.021242 3.020197 2.059120
-0.021546 3.063522 2.896012
-0.021708 3.086431 3.360945
-0.021767 3.094810 4.046755
-0.021716 3.087690 4.857175
-0.020462 2.909317 5.449508
0.270689 3.042869 1.335704
0.259674 2.919041 1.831975
0.264160 2.969476 2.536557
0.263066 2.957168 2.955246
0.265905 2.989087 3.706018
0.259858 2.921108 4.152922
0.531581 2.805792 1.836484
0.532013 2.808077 2.563593
0.528752 2.790861 3.177848
0.519410 2.741552 3.630272
0.523060 2.760819 4.178160
0.779333 2.730000 1.971136
0.773986 2.711267 2.399204
0.773862 2.710835 3.213744
0.769820 2.696676 3.746921
0.772559 2.706269 4.389834
1.081744 2.765070 1.065642
0.971015 2.482034 1.562559
0.953188 2.436466 2.364587
0.969928 2.479257 2.900612
0.977315 2.498139 3.346558
1.018488 2.603382 4.256554
1.176888 2.342768 2.094594
1.188493 2.365871 2.741564
1.203339 2.395423 3.329831
1.207838 2.404379 3.845766
1.252394 2.493074 4.734145
1.167421 2.323924 5.426918
1.593229 2.550423 1.387557
1.484453 2.376297 1.772847
1.443846 2.311293 2.473858
1.423596 2.278877 3.151579
1.430121 2.289322 3.497058
1.474403 2.360209 4.164877
1.634267 2.118608 2.149754
1.643046 2.129989 2.653514
1.656356 2.147244 3.149023
1.669928 2.164838 3.789452
1.712894 2.220538 4.663688
1.690121 2.191016 5.363145
1.914263 2.049995 1.822830
1.871103 2.003774 2.363345
1.837214 1.967483 2.948428
1.876651 2.009717 3.711287
1.899037 2.033689 4.343381
1.907114 2.042339 4.597036
1.821339 1.950482 5.380418
2.201405 1.960315 2.097366
2.193839 1.953578 2.891323
2.181428 1.942526 3.454956
2.204963 1.963484 3.922443
2.204128 1.962740 4.463258
2.135781 1.901878 5.013240
2.495925 1.850785 1.854446
2.529319 1.875547 2.439638
2.499987 1.853797 3.132867
2.496259 1.851032 3.952736
2.462456 1.825967 4.202094
2.476027 1.836030 4.824161
2.849821 1.711191 2.104312
2.856044 1.714927 2.523799
2.867487 1.721799 3.191519
2.848952 1.710669 3.450777
2.864649 1.720094 4.188851
3.199741 1.526555 1.086127
3.089418 1.473921 1.687670
3.090707 1.474536 2.105482
3.144900 1.500391 3.086076
3.140562 1.498322 3.498828
3.134685 1.495517 4.045932
3.122234 1.489577 4.480313
3.130144 1.493351 5.307443
3.120324 1.149301 2.120689
3.112953 1.146586 2.351843
3.120349 1.149311 3.003253
3.087941 1.137374 3.604084
3.037185 1.118679 4.161619
2.985371 1.099595 4.648231
2.738120 1.008525 5.208474
2.857813 0.765491 1.880203
2.827170 0.757283 2.157167
2.793728 0.748325 2.669496
2.890005 0.774114 3.631518
2.874859 0.770057 3.910960
2.866328 0.767772 4.571001
2.767758 0.741369 5.046497
2.614192 0.435193 2.143130
2.640391 0.439554 2.494614
2.708152 0.450835 3.229942
2.732869 0.454949 3.674922
2.750584 0.457899 4.385057
2.737762 0.184700 1.065182
2.507595 0.169172 1.528142
2.565176 0.173056 2.427183
2.579332 0.174011 2.882500
2.607552 0.175915 3.404992
2.628519 0.177330 3.997543
2.688928 0.181405 4.774535
2.512243 0.169485 5.389511
2.483160 -0.062460 1.901116
2.481412 -0.062416 2.247924
2.543952 -0.063989 3.234131
2.590666 -0.065164 3.858212
2.552315 -0.064199 4.144867
2.375847 -0.287596 1.627201
2.336221 -0.282800 2.197835
2.363334 -0.286082 2.842043
2.443763 -0.295818 3.396238
2.453789 -0.297031 3.907455
2.432749 -0.294484 4.493761
2.217231 -0.268396 5.055249
2.144515 -0.459478 2.055527
2.151712 -0.461020 2.499140
2.228779 -0.477532 3.339114
2.219620 -0.475569 3.700678
2.287317 -0.490074 4.596338
2.195565 -0.470415 5.279936
2.025227 -0.630362 2.445526
2.048872 -0.637722 2.743488
2.106047 -0.655518 3.355621
2.119124 -0.659588 3.904884
2.174807 -0.676919 4.692089
2.024895 -0.630259 5.292338
2.137304 -0.903531 1.113814
1.961417 -0.829176 1.837497
1.980340 -0.837175 2.494630
1.979944 -0.837008 2.786034
1.991799 -0.842019 3.420520
2.027933 -0.857295 4.157575
2.033408 -0.859610 4.893950
1.765233 -0.746240 5.432828
2.085536 -1.124146 1.078225
1.836160 -0.989728 1.489497
1.852525 -0.998549 2.224038
1.912469 -1.030860 3.032697
1.948116 -1.050074 3.423560
1.964097 -1.058688 3.998253
1.969857 -1.061793 4.594031
1.734441 -0.934899 5.150699
1.802335 -1.204336 2.048669
1.817666 -1.214580 2.628642
1.815532 -1.213154 3.143210
1.799827 -1.202660 3.661479
1.788092 -1.194819 4.337730
1.737360 -1.160919 4.947459
1.812380 -1.459483 1.283039
1.658561 -1.335614 1.837497
1.653902 -1.331863 2.137113
1.696001 -1.365764 2.817817
1.728545 -1.391972 3.698100
1.756728 -1.414667 4.366363
1.744936 -1.405171 4.940980
1.485778 -1.196475 5.381387
1.605865 -1.582725 2.221868
1.625130 -1.601713 2.859654
1.593912 -1.570945 3.420828
1.606803 -1.583651 3.995067
1.657440 -1.633558 4.849166
1.544613 -1.522357 5.424269
1.529758 -1.813239 2.111595
1.549735 -1.836919 2.525345
1.536078 -1.820730 2.858934
1.598932 -1.895232 3.556240
1.557870 -1.846561 4.249250
1.403797 -2.019544 1.911077
1.427055 -2.053004 2.483561
1.440746 -2.072701 3.032440
1.433357 -2.062070 3.390773
1.464401 -2.106731 4.237233
1.273895 -2.258104 2.383281
1.276800 -2.263252 2.754398
1.290949 -2.288332 3.301716
1.298216 -2.301214 3.860364
1.315254 -2.331416 4.486477
1.296975 -2.299014 5.359613
1.152772 -2.556515 1.330055
1.107990 -2.457201 1.661615
1.150399 -2.551251 2.451156
1.162719 -2.578574 3.061341
1.136339 -2.520070 3.405158
1.162900 -2.578975 4.133158
1.185351 -2.628766 4.847332
1.076133 -2.386552 5.233942
1.008356 -3.008248 2.090110
0.995205 -2.969016 2.532313
0.990240 -2.954204 3.165849
0.980871 -2.926254 3.578378
0.996699 -2.973474 4.343588
0.799140 -3.356112 2.111882
0.809234 -3.398502 2.657823
0.806170 -3.385638 3.045350
0.805033 -3.380860 3.672886
0.799806 -3.358908 4.081903
0.800484 -3.361758 4.622660
0.751092 -3.154327 5.178282
0.436844 -3.140418 1.652367
0.445447 -3.202264 2.548603
0.443487 -3.188175 2.673990
0.446169 -3.207453 3.369025
0.454179 -3.265035 4.228550
0.459796 -3.305412 4.833928
0.442715 -3.182619 5.301857
0.143185 -3.171016 1.198541
0.138169 -3.059941 1.948371
0.140253 -3.106076 2.567391
0.139104 -3.080651 2.844112
0.139731 -3.094515 3.459965
0.138822 -3.074385 3.914702
0.139455 -3.088415 4.721230
0.132348 -2.931011 5.445103
-0.147924 -3.167034 1.099783
-0.141848 -3.036945 1.983040
-0.143000 -3.061619 2.330067
-0.143011 -3.061843 2.912530
-0.146179 -3.129681 3.756800
-0.139824 -2.993614 4.068290
-0.136257 -2.917252 4.595037
-0.129577 -2.774239 5.275471
-0.427928 -2.879099 1.916496
-0.430258 -2.894781 2.482646
-0.433411 -2.915991 2.999124
-0.424450 -2.855702 3.804260
-0.415832 -2.797718 4.311378
-0.690425 -2.822868 2.217056
-0.696247 -2.846670 2.816670
-0.670581 -2.741734 3.474563
-0.635377 -2.597800 3.915812
-0.638960 -2.612447 4.399260
-0.655342 -2.679427 5.313096
-0.933408 -2.704269 1.919638
-0.937724 -2.716772 2.453469
-0.908867 -2.633169 3.133020
-0.896817 -2.598257 3.702942
-0.920558 -2.667038 4.261431
-1.182532 -2.581155 1.537018
-1.175335 -2.565446 2.089318
-1.128728 -2.463715 2.592872
-1.118436 -2.441249 3.371647
-1.149731 -2.509559 4.184937
-1.162301 -2.536995 4.572035
-1.121793 -2.448578 5.229711
-1.403614 -2.454276 1.779722
-1.396590 -2.441995 2.315935
-1.356021 -2.371059 2.835109
-1.358364 -2.375155 3.806150
-1.390921 -2.432083 4.476717
-1.643062 -2.312866 1.495414
-1.653791 -2.327969 2.212372
-1.583059 -2.228403 2.574065
-1.570564 -2.210814 3.605700
-1.580661 -2.225027 3.951237
-1.612535 -2.269895 4.530362
-1.551487 -2.183959 4.991453
-1.897964 -2.215516 2.366473
-1.899257 -2.217025 2.692210
-1.817905 -2.122062 3.216361
-1.812145 -2.115339 3.994856
-1.873574 -2.187045 4.660678
-1.839204 -2.146925 4.967359
-2.094707 -2.034268 2.057595
-2.122971 -2.061716 2.855807
-2.112195 -2.051251 3.208951
-2.108025 -2.047201 4.008593
-2.060527 -2.001074 4.440909
-2.102864 -2.042189 5.137905
-2.445504 -1.945990 1.225254
-2.381545 -1.895095 2.032633
-2.389638 -1.901535 2.181376
-2.413902 -1.920843 3.110683
-2.410431 -1.918081 3.528853
-2.430446 -1.934008 4.129249
-2.446559 -1.946829 4.783325
-2.236655 -1.779800 5.304300
-2.751525 -1.816192 2.073278
-2.775084 -1.831742 2.738852
-2.801039 -1.848874 3.297875
-2.756379 -1.819395 3.702434
-2.750449 -1.815481 4.731382
-2.664935 -1.759037 4.882453
-3.095062 -1.635041 2.116499
-3.104695 -1.640130 2.574243
-3.155425 -1.666929 3.397871
-3.139650 -1.658596 3.671861
-3.198608 -1.689742 4.522956
-3.782245 -1.570031 1.074076
-3.704129 -1.537605 1.879383
-3.698903 -1.535435 2.161171
-3.663549 -1.520760 2.615706
-3.712187 -1.540950 3.589776
-3.708153 -1.539275 3.948127
-3.740474 -1.552692 4.538962
-3.657320 -1.518174 4.922963
-4.103033 -1.273653 1.630482
-4.088494 -1.269140 2.164757
-4.129135 -1.281756 2.935390
-4.166584 -1.293380 3.716364
-4.138013 -1.284511 3.873127
-4.173433 -1.295506 4.481306
-4.120950 -1.279215 5.214236
-4.079835 -0.866903 1.629529
-4.024485 -0.855141 2.281415
-4.112990 -0.873947 3.003610
-4.238248 -0.900563 3.679980
-4.221227 -0.896946 3.931868
-4.209784 -0.894515 4.857221
-3.889702 -0.826502 5.167578
-3.858621 -0.432576 1.839160
-3.880887 -0.435072 2.168516
-3.877878 -0.434735 2.734807
-3.920309 -0.439491 3.598887
-3.809051 -0.427019 3.907081
-3.758393 -0.421340 4.605252
-3.646917 -0.408843 5.154816
-3.747895 -0.061642 1.685518
-3.787929 -0.062300 2.282514
-3.760553 -0.061850 2.560824
-3.671721 -0.060389 3.197615
-3.683040 -0.060575 4.108106
-3.655237 -0.060118 4.268883
-3.710906 -0.061033 5.247559
-3.700180 0.283539 1.452583
-3.699323 0.283473 1.882394
-3.576931 0.274094 2.584030
-3.443728 0.263887 3.270640
-3.415670 0.261737 3.877977
-3.560109 0.272805 4.546718
-3.351168 0.562466 1.689078
-3.321429 0.557475 2.356116
-3.250862 0.545631 2.964764
-3.308073 0.555233 3.712681
-3.327656 0.558520 4.242626
-3.361841 0.564257 4.646632
-3.178973 0.533565 5.359377
-3.403158 0.928923 1.274118
-3.132309 0.854993 1.672895
-3.018269 0.823865 2.175990
-3.080542 0.840863 2.667976
-3.150681 0.860007 3.390860
-3.129217 0.854149 3.834793
-3.221978 0.879469 4.690873
-3.162124 0.863131 5.087816
-3.031194 1.128532 2.250945
-2.965191 1.103959 2.314164
-3.104679 1.155891 3.360686
-3.179755 1.183842 3.616689
-3.149294 1.172502 4.144507
-2.889690 1.404304 1.501714
-3.026629 1.470852 1.970000
-2.952715 1.434932 2.544387
-2.998276 1.457073 3.540837
-3.017093 1.466218 3.912157
-2.990376 1.453234 4.425161
-2.949367 1.433305 5.096016
-2.732103 1.657584 1.651000
-2.772845 1.682302 2.365909
-2.838315 1.722023 3.194163
-2.767841 1.679267 3.360813
-2.836548 1.720951 4.200498
-2.858232 1.734107 4.547947
-2.722611 1.651825 5.425730
-2.573952 1.901646 1.733228
-2.659680 1.964981 2.212584
-2.719863 2.009445 3.063666
-2.639709 1.950227 3.530295
-2.686574 1.984851 4.180668
-2.709207 2.001572 4.711543
-2.566961 1.896481 5.322638
-2.545327 2.297215 1.785599
-2.590258 2.337767 2.608967
-2.598436 2.345148 2.993976
-2.622071 2.366478 3.723714
-2.565728 2.315628 4.106361
-2.533001 2.772062 1.798523
-2.514566 2.751887 2.140980
-2.431587 2.661078 2.492648
-2.426536 2.655549 3.427495
-2.447462 2.678450 3.884698
-2.443845 2.674492 4.215699
-2.409860 3.187349 1.093756
-2.347226 3.104508 1.564533
-2.350002 3.108179 2.048049
-2.365035 3.128062 2.935511
-2.377357 3.144360 3.574829
-2.282833 3.019339 3.733051
-2.258453 2.987094 4.528380
-2.289179 3.027734 5.149547
-2.189536 3.556035 1.222506
-2.195085 3.565048 2.243768
-2.203461 3.578651 2.442545
-2.212979 3.594109 3.154586
-2.237537 3.633994 3.760807
-2.239889 3.637815 4.164089
-2.216795 3.600307 5.008780
-1.996797 3.243008 5.222069
-1.867964 3.766641 2.146482
-1.863411 3.757461 2.339195
-1.864917 3.760498 2.932067
-1.884530 3.800046 3.554505
-1.904686 3.840689 4.267151
-1.873517 3.777839 4.635212
-1.757050 3.542991 5.187943
-1.379106 3.609587 1.509573
-1.382447 3.618333 2.405381
-1.363940 3.569894 2.677326
-1.375854 3.601075 3.479334
-1.357673 3.553490 4.066789
-1.353374 3.542237 4.826871
-1.323067 3.462914 5.365132
-0.944779 3.314104 1.653643
-0.955935 3.353238 2.273034
-0.950743 3.335022 2.651891
-0.969961 3.402436 3.566193
-0.960701 3.369954 3.702395
-0.960296 3.368532 4.432207
-0.927175 3.252352 4.952583
-0.603326 3.276365 1.364524
-0.588433 3.195484 1.713941
-0.588910 3.198078 2.472630
-0.595318 3.232878 3.123031
-0.592136 3.215597 3.423675
-0.595005 3.231175 3.962855
-0.614511 3.337103 4.866830
-0.564156 3.063649 5.463744
-0.271398 3.068318 1.822958
-0.270906 3.062756 2.121790
-0.272399 3.079635 2.926641
-0.274198 3.099971 3.583689
-0.272316 3.078694 3.820740
-0.277798 3.140672 4.627334
-0.267329 3.022313 5.146055
0.028182 2.979542 2.195045
0.028210 2.982457 2.553121
0.028697 3.033933 3.341662
0.027991 2.959298 3.778391
0.027089 2.863910 4.204641
2.313804 -0.110759 1.594363
2.262688 -0.108312 2.444560
2.261011 -0.108232 3.290167
2.284714 -0.109367 4.263206
2.345767 -0.112289 4.825291
2.371851 -0.330476 1.366768
2.210540 -0.308000 2.270630
2.103651 -0.293107 3.302110
2.206992 -0.307506 3.924871
2.124426 -0.296002 4.951336
2.589676 -0.578049 1.699525
2.168927 -0.484133 2.106281
2.191239 -0.489113 2.940059
2.100163 -0.468784 3.914804
2.091516 -0.667403 2.543645
2.058458 -0.656854 3.277836
2.044748 -0.652479 3.999359
2.015321 -0.643089 4.884347
1.902301 -0.781817 3.606867
1.978408 -0.813096 4.303499
1.948087 -0.992247 3.482992
1.928419 -0.982229 4.379646
1.902034 -1.171839 2.141543
1.843762 -1.135937 3.133007
1.843036 -1.135490 3.881196
1.826874 -1.346498 2.247159
1.767409 -1.302669 3.125680
1.690426 -1.245929 4.193229
1.760137 -1.297310 4.758222
1.709404 -1.505791 1.678003
1.722322 -1.517170 2.188583
1.644969 -1.449031 3.134072
1.701181 -1.498547 3.824341
1.653796 -1.456806 4.858853
1.797783 -1.864487 1.539264
1.553917 -1.611573 2.443016
1.543741 -1.601019 3.254632
1.606461 -1.666066 3.909936
1.816008 -2.241122 1.676755
1.474335 -1.819466 2.268952
1.436237 -1.772450 3.180298
1.500661 -1.851955 3.869511
1.535281 -1.894679 4.575159
1.440238 -2.115291 2.026639
1.406479 -2.065708 3.045695
1.454658 -2.136470 3.698955
1.448794 -2.127857 4.568286
1.320860 -2.324037 2.384928
1.315521 -2.314642 3.239482
1.304561 -2.295358 4.177726
1.346727 -2.369550 4.810582
1.368248 -2.984095 1.535958
1.154505 -2.517930 2.289686
1.225927 -2.673697 2.834018
1.207283 -2.633036 3.793936
1.195337 -2.606983 4.638801
1.083363 -2.993255 1.687415
1.078163 -2.978888 2.563954
1.097475 -3.032247 3.319059
1.086321 -3.001429 4.136053
0.925126 -3.387745 1.694685
0.900515 -3.297621 2.190092
0.908334 -3.326255 2.984720
0.908603 -3.327240 3.826341
0.896324 -3.282275 4.707254
0.569105 -3.175503 1.538726
0.565423 -3.154961 2.541579
0.582526 -3.250390 3.199124
0.576007 -3.214018 3.949524
0.569059 -3.175250 4.752156
0.294616 -3.009875 1.732046
0.297830 -3.042711 2.505305
0.291801 -2.981114 3.481678
0.294831 -3.012071 4.287361
0.294149 -3.005100 4.953546
0.012388 -2.878127 2.602323
0.012337 -2.866227 3.467246
0.012701 -2.950794 3.928974
0.012439 -2.890034 4.944053
-0.216116 -2.856850 2.322119
-0.205709 -2.719282 3.477817
-0.210580 -2.783681 4.131623
-0.214016 -2.829090 4.869438
-0.424218 -2.753250 1.770731
-0.423786 -2.750444 2.570586
-0.409720 -2.659152 3.635674
-0.416281 -2.701732 4.354668
-0.646190 -2.690953 2.051095
-0.634012 -2.640238 2.854063
-0.624567 -2.600906 3.811010
-0.638435 -2.658660 4.495842
-0.885623 -2.635507 2.451757
-0.874469 -2.602313 3.235072
-0.821548 -2.444826 4.268216
-0.839046 -2.496899 4.992143
-1.006964 -2.365905 3.664885
-1.068090 -2.509522 4.229793
-1.327273 -2.474927 2.326455
-1.299082 -2.422361 3.226831
-1.252254 -2.335042 4.152919
-1.274197 -2.375958 5.041917
-1.488831 -2.295983 1.817925
-1.460895 -2.252903 2.733808
-1.487523 -2.293966 3.394194
-1.487301 -2.293624 4.213302
-1.677566 -2.186969 2.075807
-1.679745 -2.189810 2.941060
-1.664232 -2.169586 3.796320
-1.670456 -2.177700 4.612091
-2.141686 -2.358214 1.449564
-1.928052 -2.122982 2.254469
-1.927405 -2.122270 3.073349
-1.923942 -2.118456 3.950792
-2.005446 -2.208201 4.616096
-2.225297 -2.047466 2.334108
-2.193264 -2.017993 3.255540
-2.176827 -2.002869 3.979023
-2.205726 -2.029459 4.649295
-2.507856 -1.935662 1.719913
-2.508972 -1.936523 2.622791
-2.486572 -1.919234 3.455697
-2.429197 -1.874950 4.387468
-2.800325 -1.819889 2.241950
-2.763111 -1.795705 3.215305
-2.682750 -1.743479 4.185698
-3.080424 -1.653913 2.021093
-3.083995 -1.655831 2.864075
-3.113787 -1.671827 3.551629
-3.005653 -1.613768 4.683070
-3.503231 -1.540381 1.274979
-3.490837 -1.534931 1.701514
-3.451812 -1.517772 2.562795
-3.425812 -1.506339 3.506832
-3.466838 -1.524379 4.193215
-3.861831 -1.301776 1.505943
-3.914679 -1.319591 2.316189
-3.864381 -1.302636 3.228504
-3.847942 -1.297095 3.981082
-3.944448 -1.329625 4.468460
-3.876493 -0.961505 1.729933
-3.984054 -0.988184 2.313521
-3.929205 -0.974580 3.234352
-3.950585 -0.979883 3.957436
-3.896644 -0.966503 4.854361
-3.742010 -0.602634 2.398867
-3.747512 -0.603520 3.125333
-3.795901 -0.611313 3.782229
-3.765146 -0.606360 4.679003
-3.562080 -0.263926 2.395906
-3.682617 -0.272857 2.985986
-3.540777 -0.262348 4.044017
-3.664259 -0.271497 4.553079
-3.439341 0.033611 1.847494
-3.431615 0.033536 2.709292
-3.415076 0.033374 3.577861
-3.498483 0.034189 4.107085
-3.471737 0.033928 4.952437
-3.317333 0.298137 2.081447
-3.323372 0.298680 2.927116
-3.352298 0.301279 3.698848
-3.370800 0.302942 4.331516
-3.177187 0.550322 2.559813
-3.273958 0.567084 3.150601
-3.211859 0.556328 4.031613
-3.150134 0.847423 1.813563
-3.177965 0.854910 2.656907
-3.148116 0.846881 3.495139
-3.077441 0.827868 4.357918
-3.451885 1.257865 1.703233
-3.190415 1.162585 2.179683
-3.089785 1.125916 3.231491
-3.094614 1.127676 3.810723
-3.003732 1.094558 4.686127
-2.962493 1.330024 2.569929
-2.991492 1.343044 3.189401
-2.903326 1.303461 4.160417
-2.912812 1.307720 4.914936
-2.872599 1.624135 1.791794
-2.858566 1.616201 2.673095
-2.774684 1.568775 3.739791
-2.873464 1.624624 4.131854
-2.743017 1.848965 2.070994
-2.790071 1.880682 2.737553
-2.774424 1.870135 3.549353
-2.678499 1.805476 4.596872
-2.761049 2.205374 1.418468
-2.605068 2.080785 2.375696
-2.632949 2.103055 3.103838
-2.615776 2.089337 3.944842
-2.662940 2.127009 4.479285
-2.497066 2.387250 1.933112
-2.502232 2.392189 2.703277
-2.552922 2.440649 3.362242
-2.451028 2.343237 4.454265
-2.481701 2.786643 1.583523
-2.382015 2.674707 2.679505
-2.388987 2.682536 3.283746
-2.361976 2.652206 4.109374
-2.381267 2.673867 4.946655
-2.313248 3.070358 1.352756
-2.337526 3.102582 2.075991
-2.275160 3.019804 3.033839
-2.263986 3.004972 3.785629
-2.236344 2.968283 4.724195
-2.147272 3.393641 1.973482
-2.158630 3.411593 2.701843
-2.149057 3.396464 3.557601
-2.176763 3.440251 4.223308
-1.863444 3.641800 1.474435
-1.913594 3.739808 2.166957
-1.896704 3.706800 3.031838
-1.857001 3.629208 3.941677
-1.868323 3.651335 4.625732
-1.449296 3.494065 1.421229
-1.472694 3.550474 2.163294
-1.452600 3.502028 3.009965
-1.434036 3.457273 3.833431
-1.458752 3.516860 4.485258
-1.017963 3.248574 2.281072
-1.035195 3.303566 2.952527
-1.024290 3.268766 3.751236
-1.028840 3.283284 4.464013
-0.710908 3.113520 2.322217
-0.724794 3.174332 2.988272
-0.705105 3.088103 4.061015
-0.712313 3.119669 4.678009
-0.438537 3.058156 1.593380
-0.421276 2.937789 2.709528
-0.430414 3.001511 3.391824
-0.435379 3.036135 4.181287
-0.431136 3.006545 4.830738
-0.168548 2.814292 2.301785
-0.169805 2.835287 3.071879
-0.175315 2.927292 3.703785
-0.175033 2.922585 4.549076
0.074908 2.845577 1.699027
0.072380 2.749547 2.771611
0.072983 2.772436 3.496582
0.074314 2.822989 4.257097
0.333486 2.990480 1.764717
0.309291 2.773515 2.121073
0.298196 2.674023 3.106006
0.305214 2.736957 3.746867
0.305863 2.742770 4.570892
0.511273 2.634685 1.993337
0.529655 2.729412 2.451757
0.504332 2.598915 3.608868
0.542506 2.795636 4.124906
0.733525 2.577326 1.881774
0.713830 2.508124 2.915720
0.740110 2.600463 3.535567
0.741035 2.603713 4.354122
0.945955 2.507809 3.130780
0.931755 2.470165 3.968884
1.121147 2.360313 2.585131
1.133329 2.385960 3.356437
1.145511 2.411607 4.170094
1.163028 2.448485 4.851828
1.351449 2.318297 1.873514
1.382069 2.370823 2.534128
1.373756 2.356563 3.343511
1.319560 2.263594 4.444054
1.942109 2.771991 1.554870
1.542228 2.201237 2.351890
1.547266 2.208428 3.156885
1.557814 2.223482 3.845804
1.597565 2.280219 4.505016
1.788245 2.152141 2.104616
1.821049 2.191621 2.794575
1.808396 2.176393 3.624464
1.847565 2.223532 4.291961
2.059497 2.072795 1.773999
2.103127 2.116707 2.423991
2.076775 2.090185 3.337363
2.053039 2.066295 4.234568
2.072239 2.085619 4.952731
2.777016 2.379428 1.508005
2.265888 1.941480 2.423991
2.401210 2.057427 2.890245
2.278556 1.952333 3.939085
2.370426 2.031050 4.388912
2.605679 1.886760 1.733063
2.602994 1.884816 2.584150
2.636076 1.908771 3.312473
2.576214 1.865424 4.234421
2.961667 1.756352 1.839443
2.835308 1.681418 2.957651
2.892205 1.715159 3.706921
2.881670 1.708911 4.632595
2.680644 1.327872 2.162368
2.749823 1.362140 2.917639
2.749675 1.362067 3.767664
2.774099 1.374165 4.528018
2.851556 1.119834 1.531217
2.594702 1.018965 2.188933
2.633162 1.034069 2.970285
2.623328 1.030207 3.924362
2.692969 1.057556 4.498833
2.515091 0.758199 1.697303
2.459079 0.741313 2.752396
2.595977 0.782582 3.317536
2.548752 0.768346 4.403161
2.910438 0.618627 1.659391
2.387362 0.507445 2.292519
2.370603 0.503882 3.228718
2.432974 0.517140 3.947922
2.529919 0.537746 4.535139
2.294978 0.280658 1.905348
2.280653 0.278906 2.686287
2.364809 0.289198 3.396490
2.330881 0.285049 4.314494
2.296541 0.089744 2.119921
2.190499 0.085600 3.134072
2.210567 0.086384 3.966796
2.276972 0.088979 4.649372
2.546916 -0.109700 1.449442
2.130429 -0.091761 2.436975
2.221099 -0.095666 3.058576
2.219824 -0.095611 3.941638
2.267559 -0.097667 4.674482
2.103021 -0.279755 2.462206
2.075301 -0.276067 3.377848
2.208854 -0.293833 3.924871
2.123277 -0.282450 4.884225
2.085527 -0.450761 2.497301
2.122601 -0.458775 3.184444
2.131102 -0.460612 4.050711
2.042059 -0.621892 2.686446
2.072974 -0.631307 3.329186
1.893868 -0.576762 4.893607
1.956385 -0.772839 3.693131
1.961359 -0.774804 4.530987
1.912994 -0.945019 2.497301
1.894838 -0.936049 3.395543
1.989190 -0.982660 3.950023
1.962724 -0.969585 4.900810
2.246160 -1.368896 1.869265
1.859754 -1.133406 2.206966
1.862882 -1.135312 2.962818
1.829258 -1.114820 3.940018
1.855360 -1.347374 1.765697
1.816138 -1.318891 2.683483
1.753292 -1.273252 3.737163
1.809136 -1.313805 4.329851
1.981822 -1.701227 1.670255
1.654717 -1.420435 2.388073
1.738612 -1.492452 2.959265
1.651961 -1.418069 4.059107
1.621033 -1.662548 2.439330
1.619342 -1.660813 3.351739
1.624079 -1.665671 4.230162
1.610611 -1.651858 4.867062
1.557976 -1.880063 2.043820
1.569997 -1.894570 2.814420
1.600341 -1.931187 3.553218
1.612868 -1.946304 4.334074
1.551216 -2.222428 1.695758
1.485970 -2.128950 2.311497
1.513552 -2.168467 3.086774
1.514710 -2.170126 3.952345
1.557443 -2.231349 4.603465
1.268724 -2.213105 1.923108
1.317871 -2.298835 2.816438
1.404159 -2.449351 3.440172
1.389863 -2.424413 4.405744
1.296086 -2.746662 1.528661
1.265222 -2.681255 2.591378
1.299990 -2.754934 3.292491
1.317135 -2.791268 3.925775
1.292499 -2.739061 4.781357
1.133532 -3.030349 1.403586
1.165776 -3.116548 2.148456
1.128839 -3.017803 3.260749
1.179315 -3.152743 3.764741
1.157971 -3.095682 4.753839
0.888261 -3.225311 1.753932
0.901144 -3.272088 2.547891
0.891200 -3.235983 3.392940
0.897522 -3.258935 4.134937
0.586588 -3.044562 2.103624
0.584911 -3.035854 2.927481
0.589207 -3.058155 3.653601
0.590322 -3.063939 4.462876
0.367026 -3.388820 1.447265
0.321254 -2.966200 2.119349
0.318869 -2.944181 2.978067
0.321818 -2.971409 3.697830
0.316648 -2.923666 4.730654
0.059325 -3.243705 1.616962
0.054694 -2.990470 2.102998
0.052702 -2.881573 3.166522
0.052553 -2.873424 3.851362
0.052555 -2.873528 4.622386
-0.170474 -2.751066 2.382185
-0.169371 -2.733262 3.251557
-0.170096 -2.744961 4.030533
-0.390088 -2.679801 2.429826
-0.377547 -2.593647 3.473383
-0.380965 -2.617127 4.236220
-0.398999 -2.741013 4.761402
-0.767593 -3.246420 3.639618
-0.701119 -2.965279 4.444563
-0.804745 -2.492337 3.017868
-0.825672 -2.557149 3.576844
-0.826104 -2.558489 4.403650
-1.054352 -2.517126 3.209031
-1.022988 -2.442247 4.227951
-1.038150 -2.478445 4.992301
-1.460613 -2.816420 1.592933
-1.266805 -2.442710 1.904705
-1.258948 -2.427561 2.745272
-1.196582 -2.307303 3.867212
-1.257895 -2.425530 4.429402
-1.470455 -2.330832 1.656821
-1.439785 -2.282217 2.514131
-1.417968 -2.247633 3.449670
-1.467425 -2.326028 4.030533
-1.488868 -2.360019 4.778161
-2.005198 -2.648082 1.455059
-1.621472 -2.141330 2.232526
-1.727659 -2.281561 2.829062
-1.698686 -2.243299 3.799168
-1.704141 -2.250502 4.472611
-1.955611 -2.186593 2.352620
-1.999465 -2.235626 3.080900
-1.974092 -2.207257 3.970840
-2.242488 -2.113224 1.669235
-2.194704 -2.068195 2.662276
-2.208777 -2.081456 3.516906
-2.193510 -2.067069 4.320029
-2.893598 -2.295587 1.604563
-2.518107 -1.997698 2.155484
-2.497556 -1.981394 3.083917
-2.569520 -2.038486 3.711093
-2.476731 -1.964873 4.709944
-2.817656 -1.886022 1.775257
-2.796163 -1.871636 2.862503
-2.865991 -1.918375 3.431378
-2.753593 -1.843141 4.517290
-3.163321 -1.739619 1.662851
-3.235900 -1.779532 2.431549
-3.163805 -1.739885 3.432973
-3.210099 -1.765343 4.098130
-3.235533 -1.779330 4.788036
-3.574758 -1.597363 1.378018
-3.550130 -1.586358 2.424543
-3.529242 -1.577024 3.343338
-3.628144 -1.621218 3.862847
-3.539609 -1.581657 4.865946
-4.400078 -1.553173 1.777475
-4.045747 -1.428098 2.036682
-4.031897 -1.423209 2.780967
-3.973406 -1.402563 3.546938
-3.923524 -1.384955 4.404351
-3.803801 -0.981210 1.295634
-3.731717 -0.962616 2.379926
-3.753246 -0.968170 3.065773
-3.796430 -0.979309 3.794836
-3.831111 -0.988255 4.515456
-3.679192 -0.626493 2.285536
-3.641251 -0.620032 3.109634
-3.637720 -0.619431 3.830557
-3.666248 -0.624289 4.506132
-3.561877 -0.313980 1.734946
-3.578431 -0.315440 2.655468
-3.560809 -0.313886 3.389614
-3.498856 -0.308425 4.140346
-3.546221 -0.312600 4.930028
-3.356463 -0.005120 1.906930
-3.432409 -0.005236 2.584344
-3.359046 -0.005124 3.583075
-3.477579 -0.005304 4.024386
-3.292603 0.273451 2.020082
-3.367326 0.279657 2.705269
-3.331058 0.276645 3.623458
-3.354267 0.278572 4.240862
-3.178531 0.525397 1.606244
-3.150421 0.520751 2.507092
-3.225139 0.533101 3.213694
-3.176445 0.525052 3.997078
-3.249109 0.537063 4.500361
-3.186997 0.812827 1.697659
-3.217941 0.820720 2.650809
-3.178089 0.810556 3.512750
-3.162633 0.806614 4.089354
-3.366934 1.149814 1.598367
-3.122378 1.066297 2.330887
-3.197855 1.092073 2.955006
-3.064976 1.046694 3.948419
-3.002312 1.025295 4.824716
-2.894854 1.276487 2.697842
-2.913343 1.284640 3.482836
-2.927307 1.290798 4.325439
-3.343985 1.824988 1.709465
-2.856977 1.559202 2.369201
-2.840190 1.550041 3.228310
-2.820463 1.539274 4.013304
-2.846078 1.553254 4.564441
-2.795076 1.851527 1.915006
-2.885484 1.911415 2.519940
-2.811423 1.862356 3.550785
-2.842732 1.883096 4.127930
-2.813816 1.863941 4.853055
-2.721985 2.141255 2.152208
-2.758058 2.169632 2.781737
-2.638800 2.075817 3.920613
-2.630286 2.069120 4.714028
-2.573928 2.415756 1.890022
-2.529177 2.373755 2.811892
-2.589642 2.430505 3.379942
-2.518778 2.363996 4.358465
-2.516642 2.753350 2.409983
-2.470569 2.702943 3.247276
-2.498648 2.733663 3.863902
-2.498164 2.733134 4.618761
-2.619625 3.426838 1.758724
-2.395913 3.134191 2.123676
-2.368738 3.098642 3.010263
-2.363392 3.091650 3.866162
-2.342678 3.064553 4.704652
-2.206124 3.427852 2.079377
-2.252316 3.499625 2.729573
-2.264735 3.518921 3.423438
-2.275038 3.534929 4.093985
-2.237591 3.476746 4.962095
-1.752749 3.337247 2.264118
-1.767730 3.365772 2.986100
-1.769277 3.368716 3.747355
-1.834412 3.492734 4.337902
-1.407530 3.298926 1.828501
-1.355866 3.177839 2.968621
-1.372732 3.217368 3.705693
-1.408076 3.300207 4.290170
-1.044662 3.134436 2.020082
-1.036591 3.110221 2.873090
-1.055821 3.167920 3.565511
-1.027110 3.081774 4.548230
-0.767165 3.171524 1.635781
-0.733581 3.032684 2.181320
-0.728451 3.011479 3.103473
-0.729302 3.014995 4.091646
-0.750113 3.101028 4.489347
-0.441546 2.882812 2.452873
-0.452531 2.954527 3.105422
-0.459088 2.997340 3.791029
-0.433101 2.827671 4.952039
-0.178227 2.837908 1.587495
-0.171073 2.723990 2.694168
-0.175322 2.791656 3.371923
-0.177704 2.829581 4.157768
-0.179693 2.861244 4.787311
0.047973 2.743708 1.921187
0.048580 2.778400 2.705719
0.048601 2.779644 3.480116
0.048851 2.793920 4.264665
0.260046 2.609543 2.500685
0.270797 2.717433 3.074381
0.271587 2.725358 3.921759
0.267342 2.682761 4.818606
0.476517 2.523079 1.061585
0.509262 2.696458 1.921187
0.500011 2.647477 2.903580
0.504222 2.669774 3.569649
0.490970 2.599603 4.519334
0.696540 2.552739 3.213421
0.702576 2.574859 3.894485
0.700581 2.567549 4.693956
0.907769 2.495038 2.740484
0.927829 2.550171 3.510812
0.907336 2.493846 4.569321
1.355004 2.956198 1.600753
1.097422 2.394234 2.288498
1.142442 2.492456 2.855605
1.117075 2.437112 3.727491
1.080450 2.357207 4.809565
1.320166 2.314456 1.854853
1.297084 2.273988 2.763741
1.308395 2.293818 3.558230
1.353768 2.373364 4.146670
1.807139 2.643387 1.706188
1.559157 2.280652 2.306158
1.542591 2.256421 3.133482
1.598918 2.338813 3.683068
1.537018 2.248268 4.669805
1.735584 2.140055 1.836610
1.790830 2.208176 2.557690
1.818082 2.241778 3.418010
1.805320 2.226042 4.357605
2.027973 2.080805 2.477462
2.068337 2.122220 3.296440
2.112750 2.167789 3.940068
2.343247 2.055662 2.248607
2.375941 2.084344 2.957007
2.295425 2.013710 3.941064
2.362399 2.072464 4.545564
2.694306 1.995483 1.796891
2.617443 1.938556 2.796492
2.664956 1.973745 3.489907
2.685987 1.989321 4.370991
2.743854 1.693952 2.012960
2.780533 1.716596 2.772190
2.716335 1.676963 3.930008
2.762303 1.705342 4.768912
2.532541 1.281959 2.320168
2.668416 1.350738 2.845564
2.660764 1.346865 3.714182
2.597121 1.314649 4.812580
2.439271 0.996291 1.620605
2.492526 1.018043 2.403257
2.510075 1.025210 3.317536
2.561735 1.046310 4.056024
2.611601 1.066677 4.621524
2.405285 0.740810 1.757116
2.445253 0.753119 2.522164
2.397072 0.738280 3.485776
2.517912 0.775498 4.052330
2.254000 0.502952 2.094834
2.301274 0.513500 2.800492
2.363769 0.527445 3.499456
2.380997 0.531289 4.499957
2.960092 0.407789 1.515412
2.317817 0.319308 2.088282
2.322512 0.319955 2.961768
2.292756 0.315855 3.909936
2.367201 0.326111 4.491044
2.157953 0.103020 1.937947
2.204772 0.105255 2.707263
2.187069 0.104410 3.610503
2.290975 0.109370 4.246474
2.555239 -0.076062 1.493227
2.222709 -0.066163 2.227063
2.127029 -0.063315 3.225461
2.223346 -0.066182 3.865595
2.241646 -0.066727 4.749859
2.248251 -0.254560 1.772088
2.107232 -0.238593 2.848783
2.019822 -0.228696 4.302503
2.591662 -0.541230 1.475381
2.157932 -0.450652 2.208625
2.163742 -0.451865 3.023888
2.089614 -0.436385 4.100685
2.110376 -0.612028 4.076353
2.002748 -0.764684 2.858412
1.917028 -0.731955 3.895884
2.056982 -0.785392 4.422089
2.563342 -1.255745 2.040952
1.910760 -0.936054 2.831961
1.933449 -0.947169 3.498961
2.039110 -0.998931 4.094529
1.880895 -1.112737 1.401427
1.849965 -1.094439 2.523962
1.900741 -1.124478 3.160311
1.906772 -1.128046 3.958409
1.871463 -1.107157 4.867322
2.277001 -1.613150 1.582713
1.862771 -1.319687 2.093047
1.767867 -1.252452 3.064728
1.881794 -1.333164 3.723939
1.764927 -1.507565 2.130057
1.750201 -1.494987 2.934173
1.791062 -1.529889 3.598617
1.728071 -1.476084 4.666111
1.762250 -1.765163 1.686393
1.669599 -1.672359 2.723970
1.692339 -1.695136 3.566125
1.729732 -1.732591 4.190339
1.956894 -2.316822 1.596491
1.603870 -1.898868 2.252692
1.611323 -1.907691 3.181142
1.670474 -1.977722 3.824976
1.688027 -1.998504 4.527222
1.524312 -2.134663 1.945817
1.554213 -2.176536 2.758587
1.571208 -2.200336 3.535567
1.620453 -2.269300 4.139853
1.456180 -2.454808 1.682601
1.498507 -2.526162 2.344430
1.474509 -2.485708 3.342898
1.495058 -2.520347 4.119083
1.474468 -2.485637 4.944053
1.395318 -2.881907 2.002495
1.410932 -2.914155 2.778411
1.347794 -2.783749 3.909479
1.400279 -2.892152 4.358716
1.231839 -3.179734 1.675866
1.254769 -3.238923 2.370702
1.214775 -3.135687 3.442905
1.277360 -3.297236 3.945264
1.229813 -3.174506 4.991702
0.909502 -3.117338 1.727489
0.916924 -3.142776 2.571948
0.902860 -3.094571 3.518062
0.874479 -2.997295 4.528652
