1.605776 1.195930 4.570959
1.672678 0.846602 5.273297
1.745208 -0.131588 7.501855
1.343224 -0.324711 8.256804
-0.082792 1.300316 0.336687
0.173586 1.382196 1.084550
0.417914 1.258139 1.866686
1.233163 1.120827 3.881075
1.778383 0.907511 4.898344
1.696857 0.602805 5.449599
1.437125 0.264227 6.152257
0.970824 0.042806 6.810051
0.945310 -0.139845 7.612044
1.208441 -0.444277 8.400881
1.041679 -0.660349 9.315340
0.182095 1.397693 0.757748
0.445809 1.260995 1.596335
0.684006 1.091588 2.477259
0.661487 0.816991 2.981178
0.996682 0.888828 3.606830
1.699078 0.857171 4.584066
1.624590 0.577523 5.111561
1.408082 -0.274568 7.339492
1.000123 -0.378460 8.126076
0.947937 -0.613562 9.012724
0.585712 -0.523245 9.768219
0.125088 1.296502 0.288590
0.364057 1.290136 0.999612
0.554852 1.165799 1.675583
1.328920 0.866769 3.841656
0.622879 -0.080033 6.875803
0.697832 -0.260591 7.820707
0.958198 -0.514468 8.315647
0.859610 -0.764922 9.295817
0.245968 1.177936 0.376227
0.553875 1.229120 1.239814
0.650478 1.007673 1.844354
1.199140 1.146901 2.748030
1.626352 1.138797 3.321207
1.546315 0.726598 4.030491
1.427360 0.376659 4.786666
1.175862 0.101853 5.527056
0.825940 -0.106889 6.473547
0.535162 -0.154447 7.164692
0.731056 -0.379805 7.946602
0.857187 -0.620509 8.516906
0.656387 -0.693216 9.336865
0.798126 0.883613 2.135222
0.839927 0.654798 2.843529
1.293584 0.559768 3.831986
1.530460 0.440590 4.324517
1.023464 0.089215 5.184058
0.695349 -0.297010 7.267362
0.664805 -0.459009 8.103833
0.725376 -0.787812 8.986320
0.485605 -0.707432 9.654253
0.420801 1.020545 0.425659
0.671586 1.047907 1.137349
0.834079 0.867589 1.921530
1.326205 0.906628 2.713808
1.769872 0.797218 3.382662
1.645446 0.406073 4.128501
1.497354 0.065575 4.949340
1.152477 -0.103032 5.540572
0.771686 -0.240276 6.478002
0.532629 -0.274500 7.248138
0.619283 -0.487414 8.016020
0.702981 -0.737560 8.567357
0.541055 -0.812674 9.320818
0.614336 1.122972 0.510191
0.760831 0.985024 1.137349
0.843892 0.747040 1.896597
1.410732 0.307523 3.915517
0.594472 -0.678375 8.400194
0.518706 -0.859197 9.127316
0.529163 0.823983 0.456282
0.890347 0.911074 1.261707
0.905113 0.604780 2.102535
1.211616 0.513024 2.842806
1.591213 0.407465 3.411823
1.611847 0.053476 4.283313
1.146543 -0.092415 4.801600
0.814064 -0.232867 5.659017
0.442732 -0.238267 6.614637
0.330057 -0.261571 7.376397
0.505768 -0.504099 7.796701
0.475664 -0.779710 8.767922
0.357211 -0.795406 9.316939
0.696772 0.888985 0.473693
0.810944 0.768592 1.064014
0.952914 0.597968 1.857926
1.427753 0.099785 3.800526
1.509318 -0.180066 4.547188
1.097521 -0.330814 5.304934
0.737827 -0.420035 6.279602
0.423032 -0.325138 6.914249
0.411237 -0.483083 7.783232
0.472621 -0.749442 8.332078
0.317762 -0.870646 9.229966
0.708512 0.876267 0.193349
0.823675 0.710855 0.909926
0.888743 0.571952 1.473181
1.366113 -0.054188 3.904622
0.372796 -0.332589 6.869773
0.350357 -0.428644 7.523490
0.395904 -0.765340 8.337762
0.243265 -0.733372 9.030639
0.643784 0.562970 0.526075
1.011443 0.595928 1.265279
1.009280 0.383642 1.947671
1.134194 0.146907 2.885859
1.348249 -0.034891 3.489021
1.436366 -0.230035 4.011312
1.109704 -0.454085 4.971959
0.624582 -0.406467 5.815413
0.345626 -0.322592 6.589611
0.336726 -0.440113 7.277661
0.378565 -0.672188 7.825140
0.253851 -0.879852 8.777647
0.105474 -0.882485 9.479058
0.883150 0.777708 0.173769
0.966554 0.639122 0.724500
0.930791 0.386201 1.494653
1.324224 -0.194273 3.635660
1.389470 -0.559042 4.569537
0.954356 -0.600161 5.347308
0.529761 -0.409497 5.817637
0.218405 -0.240971 6.616544
0.268673 -0.509887 7.631516
0.344393 -0.878068 8.022109
0.148799 -0.915682 8.929522
0.015042 -0.533967 9.604814
0.750471 0.502307 0.350233
0.881991 0.394567 1.029669
0.878454 0.248464 1.615568
1.151867 0.011270 2.671348
1.367465 -0.233420 3.368955
1.397933 -0.510813 4.085035
1.201237 -0.619300 4.608126
0.759485 -0.580299 5.383125
0.286926 -0.301128 6.122161
0.209175 -0.340421 7.011581
0.268200 -0.786524 7.863212
0.207996 -0.963475 8.319050
0.017517 -0.909097 9.161896
0.820253 0.334756 0.827457
0.950547 0.235102 1.408339
0.975630 0.019626 2.304132
0.941928 -0.146121 3.008970
1.176676 -0.403483 3.694103
1.424911 -0.755342 4.283313
1.033510 -0.796525 5.006140
0.496832 -0.585201 5.952170
0.202510 -0.355495 6.795055
0.216045 -0.501694 7.238362
0.198876 -0.940232 7.987483
0.046002 -0.939393 8.668547
-0.149436 -0.765625 9.748697
0.610035 0.293547 0.215383
0.761619 0.206534 0.956654
0.893627 0.055287 1.772404
0.807202 -0.090972 2.481264
0.928160 -0.273182 3.174087
1.202296 -0.693345 4.087003
0.184661 -0.451953 6.943353
0.165632 -0.885729 7.715301
-0.003564 -0.975979 8.495566
-0.154359 -0.847857 9.277986
0.788746 0.254913 0.428959
0.944703 0.094696 1.283031
0.887621 -0.117957 2.221408
0.848973 -0.195538 2.604401
0.991119 -0.448039 3.387868
1.110509 -0.809683 4.185901
0.828667 -0.911597 5.026319
0.427274 -0.593231 5.567157
0.185753 -0.394050 6.382744
0.144493 -0.735523 7.360287
0.011374 -1.104786 8.056892
-0.134618 -1.011564 8.679912
-0.199679 -0.721309 9.338730
0.440153 0.107881 0.364502
0.582290 0.069926 0.854040
0.888409 -0.085180 1.714019
0.827100 -0.226404 2.409622
0.555212 -0.275451 3.214968
0.657940 -0.464977 3.828703
0.773978 -0.810707 4.579304
0.409892 -0.637676 5.413011
0.148256 -0.324383 6.071251
0.141869 -0.534353 6.747711
0.015730 -1.021041 7.679183
-0.188659 -1.078893 8.456875
-0.320398 -0.913115 9.188305
0.321853 0.059204 0.257025
0.447428 -0.028948 1.261617
0.902186 -0.153506 1.664195
0.872044 -0.359365 2.560077
0.637295 -0.374319 3.145201
0.631489 -0.550705 3.894272
0.609872 -0.809326 4.721423
0.312223 -0.570491 5.369177
0.115206 -0.418323 6.372888
0.084865 -0.656494 6.920084
-0.039844 -1.042311 7.542702
-0.308488 -1.093084 8.518749
-0.376939 -0.838448 9.200797
1.082789 -0.021166 0.687317
1.035367 -0.148871 1.182542
0.856468 -0.280808 1.889160
0.770542 -0.392868 2.516760
0.625908 -0.523223 3.433507
0.534091 -0.662151 4.228408
0.440559 -0.762239 4.858005
0.199834 -0.555678 5.639251
0.061536 -0.395672 6.470379
-0.035960 -0.775837 7.242867
-0.218490 -1.059258 7.838543
-0.366074 -0.985453 8.487845
-0.494768 -0.731094 9.553630
0.874518 -0.380883 1.935090
0.798877 -0.496165 2.521205
0.663048 -0.613629 3.297503
0.574130 -0.707815 3.876422
0.393537 -0.846959 4.880424
0.223690 -0.626131 5.296938
0.048807 -0.503666 6.350028
-0.031125 -0.755751 6.881628
-0.246328 -1.053567 7.605282
-0.437593 -0.912403 8.538264
-0.453250 -0.677240 9.196528
0.624997 -0.054741 0.274505
0.816621 -0.170467 0.750641
0.919502 -0.433142 1.688627
0.771696 -0.506044 2.258748
0.631016 -0.613525 3.034752
0.543218 -0.740851 3.708451
0.381573 -0.865664 4.592004
0.178234 -0.756170 5.370227
0.056600 -0.532957 5.930101
-0.042001 -0.747497 6.569548
-0.258530 -1.057301 7.270499
-0.609398 -1.173160 8.220161
-0.688053 -0.931527 8.923154
-0.506208 -0.463384 9.879454
1.181008 -0.360331 0.771156
0.885078 -0.412698 1.340383
0.761846 -0.546671 2.091969
0.666004 -0.645603 2.688267
0.515972 -0.811202 3.635298
0.353595 -0.909642 4.430320
0.202640 -0.727517 4.865093
0.017389 -0.580198 5.892536
-0.114678 -0.685286 6.690741
-0.298679 -0.953480 7.207952
-0.638444 -1.093806 8.091087
-0.791144 -0.907770 8.901292
-0.668405 -0.567679 9.628260
1.011488 -0.387532 0.696996
0.932292 -0.537488 1.326939
0.718055 -0.538902 1.821055
0.586106 -0.689362 2.719331
0.471127 -0.854219 3.525981
0.326595 -0.946026 4.220479
0.126823 -0.781805 4.949571
0.010114 -0.555021 5.574369
-0.066009 -0.362822 6.435288
-0.295977 -0.664135 7.375095
-0.633574 -1.028379 7.830880
-0.824086 -0.875449 8.686652
-0.704509 -0.584245 9.284866
1.210999 -0.553616 0.605586
0.870970 -0.584073 1.260055
0.661928 -0.660175 2.043372
0.535982 -0.762468 2.746593
0.395543 -0.859194 3.479865
0.201327 -0.948818 4.381773
0.054870 -0.768009 4.972526
-0.062767 -0.556264 5.764887
-0.179095 -0.624875 6.445959
-0.556440 -0.922899 7.464568
-0.807136 -0.987637 8.018130
-0.840929 -0.772536 8.650268
-0.703657 -0.450047 9.472401
1.089828 -0.625800 0.616506
0.753730 -0.710220 1.561452
0.600016 -0.757202 2.148774
0.445985 -0.828810 2.863224
0.312999 -0.894598 3.499298
0.138102 -0.974377 4.291376
-0.073958 -0.808470 5.265297
-0.152231 -0.576914 5.990678
-0.210702 -0.504317 6.576145
-0.478505 -0.758971 7.208350
-0.851878 -0.916960 7.912199
-0.917657 -0.691461 8.679255
-0.799863 -0.372145 9.647730
0.341072 -0.217597 0.483380
0.491998 -0.457559 1.214599
0.579068 -0.754052 1.876801
0.423739 -0.817012 2.591040
0.302530 -1.014040 3.341817
0.084102 -1.121795 4.205753
-0.097823 -1.033709 4.905626
-0.193385 -0.845463 5.466245
-0.294093 -0.624744 6.388203
-0.583226 -0.794356 7.140024
-0.949067 -0.899564 7.818881
-1.069325 -0.741596 8.458611
-0.987090 -0.455506 9.250451
0.414415 -0.283750 0.255784
0.469132 -0.472431 1.018754
0.611357 -0.839143 1.619603
0.377933 -0.858893 2.492050
0.330450 -1.242968 3.087492
0.026018 -1.432890 4.042901
-0.242310 -1.313344 4.864604
-0.301397 -1.051614 5.292987
-0.356194 -0.709590 6.108358
-0.661300 -0.797325 7.009003
-0.884722 -0.828688 7.496721
-1.125729 -0.689706 8.322015
-1.159972 -0.415882 9.212617
0.553289 -0.591679 0.790181
0.642666 -0.959945 1.430400
0.378467 -0.922433 2.244304
0.169868 -1.368579 3.282578
-0.180167 -1.139069 4.437690
-0.345339 -0.842780 5.419777
-0.346744 -0.606436 5.993823
-0.620108 -0.670204 6.901962
-0.939892 -0.732881 7.521205
-1.267041 -0.611401 8.362342
0.660394 -0.895293 0.889943
0.559303 -1.131430 1.590099
0.284140 -1.014811 2.347726
-0.498780 -1.183373 5.038529
-0.469946 -0.752232 5.752455
-0.397223 -0.422834 6.620744
-0.787511 -0.496856 7.617269
-1.347656 -0.548316 8.239673
-1.386608 -0.337828 8.865556
-1.011584 -0.100272 9.569807
0.753831 -1.035795 0.577569
0.662040 -1.344588 1.253671
0.371220 -1.359312 2.016185
-0.869368 -0.655237 6.888068
-1.230682 -0.501930 7.915032
-1.400942 -0.313995 8.588704
-1.317008 -0.064437 9.344309
0.730220 -1.319963 0.707778
0.410932 -1.376039 1.563062
0.225640 -1.264318 2.023339
-0.171616 -1.729283 3.086277
-0.904773 -0.455561 7.275854
-1.203315 -0.391017 7.858594
-1.321669 -0.179970 8.593226
-1.290177 0.112553 9.546458
0.675378 -1.230362 0.393284
0.476400 -1.469503 1.137251
0.252245 -1.574876 1.747215
-0.206962 -1.926127 2.773688
-0.903978 -0.440574 6.984742
-1.182796 -0.305665 7.777275
-1.350993 -0.139708 8.373908
-1.382926 0.101673 9.110910
0.239840 -1.587213 1.421779
-0.322354 -1.974806 2.626289
-0.795344 -2.097674 3.390954
-0.995789 -0.320868 7.188335
-1.283797 -0.111906 8.075880
-1.484971 0.151348 8.818514
-1.516609 0.428868 9.531913
0.526749 -1.380118 0.248871
0.263593 -1.441020 0.976918
-0.008252 -1.593042 1.709055
-0.311085 -1.508537 2.497971
-0.676202 -1.890253 3.014877
-1.213352 -2.072541 3.705022
-0.883196 -0.310268 6.756440
-0.979185 -0.171599 7.431491
-1.337392 -0.005754 8.064726
-1.549900 0.374997 9.016361
-1.206306 0.454951 9.620367
0.479069 -1.685386 0.237424
0.196576 -1.776935 0.891984
-0.029641 -1.654156 1.400701
-0.568145 -1.880239 2.467747
-1.067046 -2.165704 3.073297
-1.527950 -2.025390 3.793677
-1.043132 -0.271926 6.699462
-0.997175 -0.102814 7.348787
-1.355809 0.073769 7.928765
-1.533982 0.443669 8.822757
-1.335731 0.654417 9.586900
0.112092 -1.403654 0.690615
-0.060838 -1.793633 1.129139
-1.340174 -1.753317 3.527114
-1.720909 -1.695583 4.052602
-1.862777 -1.175358 4.926544
-1.194004 -0.028559 7.289029
-1.412359 0.185750 7.883536
-1.540188 0.415825 8.398197
-1.413455 0.738048 9.312023
0.128530 -1.547431 0.315198
-0.318591 -1.698610 1.369186
-0.586069 -1.682148 1.956766
-0.861226 -1.474590 2.725089
-1.288711 -1.714298 3.144889
-2.060201 -1.624080 4.103124
-2.200457 -1.204422 4.768974
-2.134407 -0.781442 5.394771
-1.961512 0.338907 7.548821
-1.583431 0.564913 8.327279
-1.504366 0.923457 9.175164
-0.014968 -1.528053 0.353655
-0.345861 -1.658736 1.122871
-0.670461 -1.668935 1.813116
-1.203288 -1.672420 2.744885
-1.743574 -1.802798 3.271030
-2.204151 -1.536408 4.001722
-2.302700 -1.165539 4.560499
-2.204018 -0.674461 5.274878
-1.969234 0.481039 7.481638
-1.574741 0.704847 8.296666
-1.419918 1.069655 9.222622
-0.140178 -1.546420 0.315198
-0.557961 -1.656811 1.235243
-0.754609 -1.650764 1.641200
-1.195275 -1.675332 2.375922
-1.803504 -1.525731 3.322690
-2.093682 -1.346845 3.817807
-2.349051 -1.026922 4.430675
-2.312713 -0.520068 5.207507
-2.129032 -0.038699 6.054558
-1.689294 0.601260 7.581985
-1.633636 0.875121 8.186193
-1.381675 1.069131 8.906212
-0.378443 -1.815040 0.435598
-0.725146 -1.856779 1.084926
-0.993675 -1.616462 1.788995
-1.995040 -1.108725 3.765260
-2.436094 -0.810377 4.458500
-2.372760 -0.451926 5.000667
-2.115084 0.015988 5.824809
-1.859259 0.332073 6.546464
-1.762163 0.635112 7.238029
-1.619709 1.017796 8.112277
-1.362869 1.128358 8.688440
-0.901215 1.145584 9.667135
-0.780398 -1.774436 0.916477
-1.017981 -1.698177 1.406546
-1.316909 -1.372338 2.291671
-1.634005 -1.302751 2.799336
-2.067569 -1.159623 3.406654
-2.306462 -0.808437 4.077583
-2.470994 -0.194425 5.086431
-2.228398 0.094370 5.603208
-1.943625 0.531840 6.542134
-1.744809 0.834130 7.284513
-1.580598 1.105402 7.959220
-1.320080 1.409502 8.818878
-0.967209 1.390856 9.489555
-0.872774 -1.699917 0.813153
-1.216952 -1.598299 1.499804
-1.384982 -1.324125 2.119911
-1.678266 -1.115216 2.805404
-1.871193 -0.702863 3.700991
-2.107012 -0.474607 4.225819
-2.448370 -0.003957 5.052895
-2.116540 0.289954 5.647487
-1.887389 0.574879 6.315792
-1.771539 1.043975 7.258791
-1.539586 1.178589 7.778094
-1.219206 1.513367 8.765495
-0.882065 1.438471 9.368868
-0.991601 -1.631954 0.756431
-1.401821 -1.478783 1.583496
-1.468787 -1.257831 1.995582
-1.687747 -0.949413 2.764241
-1.927760 -0.585557 3.613514
-2.037939 -0.353251 4.093835
-2.121771 0.071752 4.899605
-2.053291 0.391664 5.519909
-1.934993 0.904878 6.509493
-1.737627 1.224468 7.224569
-1.461675 1.359522 7.804865
-1.108290 1.614247 8.721604
-0.808945 1.578581 9.304976
-1.471461 -1.499843 1.307457
-1.537693 -1.162953 1.891653
-1.805088 -0.780787 2.828326
-1.947723 -0.580841 3.288168
-2.128274 -0.117984 4.200688
-2.086980 0.284646 4.959533
-2.033622 0.512195 5.403154
-2.024072 1.019693 6.252570
-1.707739 1.338719 7.068492
-1.412460 1.420160 7.605402
-1.026725 1.766528 8.650094
-0.745533 1.679692 9.156049
-1.107959 -1.486762 0.445067
-1.368872 -1.409025 0.953572
-1.547210 -1.164448 1.559737
-1.780154 -0.863909 2.315031
-1.961863 -0.478296 3.146835
-2.079196 -0.150727 3.796493
-2.115135 0.298760 4.629723
-2.079971 0.566700 5.124995
-2.020656 0.981327 5.850792
-1.735822 1.479579 6.860699
-1.401426 1.653770 7.539657
-1.068038 1.807038 8.247434
-0.714143 1.926696 8.998223
-0.368515 1.561948 9.636863
-1.137785 -1.461242 0.208334
-1.521318 -1.284934 1.018907
-1.706284 -0.982651 1.719071
-1.921884 -0.620386 2.539588
-1.995921 -0.312163 3.156259
-2.071778 0.084212 3.921573
-2.058367 0.422734 4.557852
-2.074833 0.734692 5.089510
-1.991595 1.202879 5.875555
-1.735475 1.448776 6.495637
-1.315282 1.763783 7.453975
-1.026288 1.823364 8.000888
-0.552931 2.009195 9.010731
-0.242532 1.745794 9.644493
-1.319183 -1.195437 0.521943
-1.660862 -1.103352 1.103788
-1.778229 -0.840125 1.671881
-1.933022 -0.534493 2.341646
-2.013973 -0.134627 3.137411
-2.057743 0.317715 3.996837
-2.011624 0.581252 4.501437
-1.994835 1.055636 5.291844
-1.892862 1.392188 5.861995
-1.501932 1.766520 6.794846
-1.166016 1.851481 7.397717
-0.825641 1.939240 8.066702
-0.490925 1.980386 8.740959
-0.115665 1.735143 9.559018
-1.747443 -1.138513 0.799644
-1.823692 -0.831099 1.386674
-1.919001 -0.443255 2.173486
-1.974238 -0.066457 2.932135
-1.998072 0.351636 3.745441
-1.971462 0.562913 4.153279
-1.768370 0.972738 5.049180
-1.595383 1.353356 5.838379
-1.478851 1.686600 6.402031
-1.168720 1.852739 7.044707
-0.796654 1.931672 7.764040
-0.376003 2.001146 8.621839
0.042796 1.933985 9.515543
-1.940708 -0.794476 1.194630
-1.945297 -0.292588 2.135735
-1.943637 -0.083522 2.554529
-2.010809 0.289841 3.278748
-1.885764 0.763813 4.231634
-1.575130 0.963974 4.909911
-1.449666 1.317605 5.647486
-1.350659 1.815087 6.369378
-0.972331 1.946354 7.096638
-0.678259 1.917177 7.628294
-0.179835 2.139757 8.653966
0.095019 2.034718 9.224526
-1.914827 -0.237507 1.919999
-1.901379 0.147072 2.709506
-1.878969 0.516242 3.458216
-1.776345 0.878023 4.209412
-1.490284 1.017910 4.790169
-1.348322 1.361281 5.538116
-1.202175 1.914613 6.360020
-0.889664 1.976708 6.932143
-0.568392 1.956478 7.528740
-0.086577 2.108092 8.503660
0.250556 2.062554 9.183404
-1.919763 -0.444293 1.151773
-1.920688 -0.243134 1.550290
-1.973272 0.128478 2.296160
-1.920466 0.502570 3.045350
-1.752872 0.903425 3.913993
-1.471992 1.074538 4.546512
-1.359242 1.378693 5.177025
-1.126207 1.872685 6.083421
-0.821657 1.949697 6.669205
-0.446930 2.069033 7.422889
-0.169140 2.052324 7.968891
0.239792 2.016242 8.803631
0.529191 1.684001 9.653986
-1.916573 -0.319888 1.077049
-1.891624 -0.024815 1.675499
-1.832793 0.225142 2.209735
-1.842377 0.523625 2.813494
-1.679389 0.947701 3.746770
-1.396554 1.211024 4.552739
-1.227862 1.548791 5.277145
-1.081209 1.844702 5.811251
-0.660984 2.096784 6.701836
-0.338815 2.063017 7.300676
-0.041211 2.041563 7.893568
0.456178 2.025642 8.882159
0.761107 1.774452 9.689508
-1.562940 -0.121785 1.069611
-1.860731 0.138884 1.657774
-1.798262 0.456334 2.342314
-1.690284 0.779709 3.065780
-1.538460 1.017799 3.669600
-1.308716 1.282807 4.429594
-1.126656 1.597909 5.135567
-0.918263 1.925739 5.783074
-0.530825 2.107336 6.570536
-0.163459 2.102812 7.267302
0.107134 2.022004 7.818207
0.626477 1.994863 8.838314
0.889633 1.695795 9.632807
-1.819691 0.260678 1.602129
-1.683461 0.699175 2.592159
-1.552722 1.027484 3.342621
-1.376624 1.230953 3.918571
-1.094615 1.284227 4.477109
-0.924616 1.652643 5.231711
-0.571452 2.097540 6.162844
-0.283173 2.077477 6.702166
0.080472 2.086717 7.409344
0.400328 1.970053 8.089489
0.728274 1.801565 8.866109
0.779773 1.269201 9.689209
-1.835009 0.063912 0.824386
-1.792593 0.393491 1.535813
-1.654402 0.713195 2.288782
-1.521217 1.020085 3.011132
-1.324141 1.339873 3.799454
-1.039651 1.370491 4.337700
-0.700951 1.788856 5.411346
-0.577599 2.052154 5.773681
-0.203529 2.071693 6.490561
0.288337 2.099068 7.432286
0.703081 2.005988 8.251013
0.894517 1.814778 8.775365
1.095120 1.401205 9.701444
-1.677552 0.136164 0.685216
-1.774802 0.426191 1.289448
-1.631185 0.804163 2.163931
-1.478452 1.050002 2.793145
-1.230266 1.332835 3.615352
-0.978245 1.497571 4.281007
-0.672825 1.781482 5.133448
-0.464710 1.896745 5.609721
-0.053782 1.949231 6.466467
0.327159 1.926865 7.260487
0.652078 1.888124 7.923570
0.950316 1.762661 8.590185
1.222066 1.430005 9.509865
-1.772013 0.374376 0.824979
-1.688236 0.641035 1.432619
-1.568386 0.843427 1.947277
-1.379956 1.125852 2.700268
-1.086135 1.422767 3.627425
-0.826294 1.623645 4.344307
-0.493969 1.703486 5.104306
-0.191859 1.849162 5.809676
0.173432 2.032253 6.537484
0.483738 1.978317 7.164625
0.779573 1.798575 7.872524
0.966271 1.596221 8.453470
1.334643 1.294840 9.525942
-1.603917 0.279693 0.352646
-1.701128 0.642569 1.090413
-1.538151 0.932177 1.813116
-1.353854 1.122578 2.396522
-1.119739 1.370141 3.160015
-0.766454 1.654549 4.151721
-0.511810 1.608107 4.670648
-0.266327 1.808673 5.299762
0.150815 2.111009 6.124679
0.538268 1.967158 6.928577
0.911444 1.793820 7.761661
1.054796 1.580365 8.275052
1.197117 1.315325 8.928491
-1.744050 0.642419 0.710184
-1.586784 0.907885 1.365260
-1.326142 1.257826 2.306093
-1.128822 1.427068 2.868980
-0.879347 1.573101 3.501573
-0.474379 1.777663 4.486437
-0.150606 1.781354 5.199196
0.080554 1.840055 5.705505
0.408383 1.888823 6.372014
0.824800 1.751436 7.293960
1.124724 1.539174 8.083915
1.242310 1.290429 8.672900
1.319384 0.938526 9.499710
-1.408298 0.669808 0.754517
-1.444949 1.042986 1.462115
-1.308974 1.119177 1.788506
-1.000883 1.348133 2.679456
-0.766317 1.501647 3.340364
-0.433573 1.701464 4.217598
-0.121741 1.719967 4.936914
0.223572 1.849921 5.682521
0.602540 1.920902 6.396153
0.900567 1.707989 7.147148
1.065706 1.483389 7.733682
1.243513 1.262890 8.385821
1.474423 0.946671 9.320930
-1.331474 0.759978 0.688161
-1.411914 1.023872 1.111763
-1.181067 1.219565 1.799299
-0.876418 1.431319 2.669939
-0.587397 1.591090 3.445013
-0.268043 1.737591 4.236589
-0.005488 1.710928 4.841851
0.382449 1.820550 5.663587
0.730648 1.836437 6.334664
0.971079 1.609001 7.019780
1.188156 1.336534 7.791986
1.383427 1.085373 8.540031
1.407835 0.820131 9.149852
-1.326405 0.759024 0.363213
-1.319963 1.222166 1.252440
-1.117280 1.305572 1.712462
-0.765662 1.459748 2.605175
-0.420726 1.624215 3.514096
-0.233663 1.659680 3.966745
0.193378 1.765914 4.948882
0.290302 1.499400 5.316321
0.680308 1.462665 6.292842
1.010804 1.541584 6.839906
1.313299 1.226308 7.829930
1.428805 1.011029 8.401174
1.506862 0.726125 9.118152
-1.295616 1.074291 0.685216
-1.136827 1.298777 1.312164
-0.738244 1.418968 2.263765
-0.545174 1.432200 2.729168
-0.209284 1.551123 3.641213
0.130177 1.706049 4.464419
0.325148 1.738271 4.891934
0.569418 1.383876 5.762236
0.851047 1.255286 6.596887
1.131708 1.261712 7.116524
1.345474 0.969836 8.011267
1.495665 0.714588 8.756809
1.371617 0.432614 9.404961
-1.367777 1.054423 0.218587
-1.124242 1.331057 1.054768
-0.793349 1.385301 1.775833
-0.546817 1.460866 2.419805
-0.318750 1.603437 3.056988
-0.109220 1.400921 3.551240
0.209551 1.464401 4.426006
0.542951 1.730276 5.030698
0.777606 1.323359 5.991709
0.890432 1.126199 6.572428
1.257764 1.010901 7.461449
1.343314 0.777618 8.106094
1.447089 0.486214 8.952395
1.162669 0.178747 9.775720
-0.931833 1.088324 0.670957
-0.795048 1.514856 1.550841
-0.586387 1.440281 1.940748
0.417223 1.824320 4.338105
0.776091 1.879492 4.979634
0.973328 1.558137 5.677086
1.105739 1.188597 6.488005
1.214823 0.956167 7.136957
1.351871 0.713360 7.890329
1.434018 0.450329 8.653372
1.318344 0.185693 9.392376
-1.150046 1.220153 0.161797
-0.860859 1.425953 0.999917
-0.507307 1.380310 1.763024
-0.244815 1.418195 2.485919
0.071506 1.533981 3.345104
0.430373 1.835883 4.038778
0.650028 1.947769 4.382310
1.059733 1.632124 5.407489
1.133808 1.315835 5.986505
1.189854 0.977975 6.721140
1.242306 0.733387 7.377821
1.362228 0.504115 8.119064
1.356652 0.217085 8.960720
-0.885027 1.150929 0.191576
-0.658387 1.479575 1.125284
-0.386688 1.390475 1.716374
-0.106690 1.410884 2.497272
0.129572 1.583919 3.109055
0.446224 1.893231 3.668538
0.773027 1.888277 4.278729
1.013817 1.590719 5.010497
1.035897 1.120311 5.786862
1.092567 0.739349 6.763529
1.212779 0.600230 7.316407
1.478250 0.331037 8.276068
-0.897849 1.386487 0.180961
-0.602798 1.524768 0.962523
-0.240194 1.453305 1.810891
-0.085070 1.419272 2.227135
0.242671 1.251751 3.243732
0.595678 1.534247 3.921943
1.050690 1.783935 4.514083
1.182727 1.485366 5.095624
1.212295 0.962729 6.068143
0.962258 0.513120 6.897745
1.133905 0.361499 7.632588
1.399971 0.259012 8.105523
1.349473 -0.023832 8.966887
-0.580844 1.165671 0.269351
-0.373161 1.366858 1.045428
-0.127354 1.337784 1.730862
0.870755 1.490761 4.182591
1.171854 1.566580 4.605837
1.412898 1.181719 5.549949
1.260172 0.737963 6.290686
0.990823 0.362709 7.105899
1.090391 0.241531 7.648402
1.258065 0.073647 8.285354
1.151157 -0.193220 9.260506
-0.357286 1.442173 0.813551
-0.091731 1.330510 1.509842
0.876251 1.501927 3.853788
1.253325 1.459911 4.552441
1.279452 1.124912 5.143721
1.520595 0.204843 7.568349
1.157865 -0.052074 8.400857
0.245889 1.223313 2.247834
0.484387 1.111296 3.103673
0.847817 1.273167 3.780217
1.079968 1.285684 4.207583
1.149438 0.959752 4.939774
1.200912 0.201705 7.153632
0.922720 -0.029333 8.047047
1.070457 -0.231571 8.774529
0.847078 -0.384121 9.728725
0.349234 1.196640 2.228565
0.582769 1.063011 3.103673
0.927596 1.204715 3.694188
1.279433 1.130555 4.435894
0.958562 0.673564 4.956129
0.830254 0.332097 5.951136
0.555068 0.154661 6.459204
0.522298 0.029614 7.376072
0.904792 -0.097834 7.988699
1.094981 -0.398955 8.952127
0.807724 -0.455791 9.719003
-0.009641 1.158910 0.734158
0.223502 1.336489 1.422330
0.396570 1.122108 2.125572
0.745949 1.367957 2.736777
1.144808 1.442544 3.392382
1.196533 1.109564 4.020044
1.201390 0.677167 4.995601
1.019965 0.368275 5.720629
0.624267 0.130657 6.377365
0.486585 -0.005451 7.322041
0.815389 -0.177395 8.108056
0.981844 -0.331265 8.532428
0.881916 -0.509156 9.382382
0.084526 1.080268 0.716354
0.228249 1.223535 1.137349
0.436449 1.069529 1.953221
0.807159 1.318342 2.574402
1.237731 1.381266 3.266878
1.364133 0.939864 4.229622
1.290787 0.629016 4.860513
1.041512 0.340163 5.470906
0.688227 0.074500 6.397989
0.530957 -0.053286 7.302271
0.739998 -0.221597 8.060545
0.889038 -0.411563 8.617904
0.814184 -0.583804 9.417868
0.069876 1.250348 0.260099
0.262051 1.184319 0.906722
0.486009 1.012924 1.828922
1.151380 0.814847 3.841576
0.739918 -0.335585 8.236199
0.734458 -0.518058 9.019528
0.348130 1.288314 0.759364
0.531421 0.982215 1.693554
0.630170 0.866351 2.229900
0.650372 0.595430 3.054221
1.039885 0.709484 3.595204
1.621794 0.582744 4.559483
1.224939 0.223667 5.290126
0.691485 0.027969 5.954683
0.126028 -0.012614 6.642515
0.259535 -0.074918 7.386582
0.677789 -0.356353 8.144181
0.722370 -0.578175 8.919800
0.481962 -0.589280 9.869317
0.339778 0.950483 0.756666
0.519855 0.945204 1.394705
0.701100 0.783384 2.308976
0.801726 0.612331 3.072664
1.096875 0.651909 3.515667
1.386703 0.476229 4.320703
1.090135 0.148111 5.163561
0.658508 0.006163 5.749082
0.192075 -0.033827 6.599307
0.332987 -0.147114 7.594007
0.646397 -0.410556 8.144181
0.554077 -0.470136 8.741283
0.445230 -0.601038 9.725957
0.420561 1.022848 0.570759
0.543721 0.975421 1.044674
0.690222 0.792742 1.881228
0.866937 0.737014 2.478099
1.159000 0.610233 3.347252
1.434440 0.460470 4.024766
1.414830 0.271769 4.518511
1.137633 -0.072908 5.592760
0.694149 -0.135008 6.193669
0.460568 -0.199967 7.144936
0.607011 -0.411473 7.884696
0.676225 -0.624389 8.478004
0.516015 -0.683907 9.258506
0.452610 1.167026 0.163767
0.601322 1.021826 0.810853
0.697753 0.798760 1.560355
1.306846 0.375771 3.837402
0.437530 -0.203534 6.913826
0.436656 -0.280351 7.479442
0.606704 -0.637357 8.415659
0.828288 1.052645 0.961175
0.793558 0.742027 1.578614
0.886659 0.566033 2.318664
0.693221 0.294236 3.016034
1.569507 0.076238 4.356224
1.135748 -0.082268 4.901617
0.552429 -0.161845 5.863085
0.218921 -0.114185 6.743510
0.432507 -0.312559 7.302271
0.612163 -0.658100 8.052551
0.459039 -0.715534 8.824804
0.292693 -0.646053 9.484863
0.538571 0.698194 0.623051
0.760090 0.753169 1.152663
0.795658 0.527059 1.944805
1.009332 0.437035 2.646084
1.310658 0.333420 3.265688
1.492270 0.115895 3.938680
1.403592 -0.146160 4.678370
0.925106 -0.251744 5.402552
0.362242 -0.186732 6.367366
0.338339 -0.239578 6.957523
0.565076 -0.616419 7.770145
0.512072 -0.785660 8.443067
0.314636 -0.829565 9.375348
0.460370 0.533331 0.479372
0.883014 0.659049 1.345354
0.813823 0.445640 1.917003
0.776226 0.230202 2.785459
1.093662 0.165895 3.317788
1.550824 -0.141750 4.241647
0.453858 -0.423629 7.101040
0.540214 -0.781667 7.938913
0.447063 -0.960694 8.629317
0.212916 -0.870883 9.508251
0.480376 0.446959 0.587795
0.831642 0.514024 1.369507
0.816906 0.337397 2.026767
0.915793 0.188655 2.785474
1.212677 0.055898 3.395277
1.512229 -0.288287 4.301988
1.242285 -0.396872 4.819932
0.659614 -0.368808 5.723508
0.286568 -0.246526 6.627311
0.371442 -0.435934 7.243257
0.468151 -0.778626 7.866554
0.311962 -0.866518 8.693905
0.133825 -0.740444 9.452542
0.894507 0.615621 0.822822
0.826771 0.377937 1.528032
0.884331 0.244029 2.171235
0.951399 0.058484 3.008970
1.151655 -0.093724 3.566695
0.239084 -0.261654 6.774656
0.330415 -0.528088 7.488548
0.395984 -0.919053 8.049939
0.222415 -0.880927 8.748469
0.025617 -0.691298 9.709701
0.769134 0.641436 0.106717
1.016685 0.606693 0.733640
0.882159 0.309488 1.546402
0.894160 0.183181 2.093434
0.893696 0.003470 2.896423
1.012699 -0.153882 3.511358
0.720526 -0.585665 5.695897
0.220766 -0.259670 6.562653
0.322213 -0.594399 7.375380
0.352338 -0.918660 7.860108
0.139636 -0.963811 8.804538
-0.014488 -0.802375 9.543758
0.513611 0.272287 0.598838
0.665847 0.215827 1.301812
0.929182 0.178885 1.789357
0.909696 0.025714 2.445164
0.848239 -0.194600 3.477418
0.888946 -0.313561 3.932032
0.846901 -0.561705 4.928441
0.507304 -0.439340 5.506300
0.325999 -0.444964 6.463619
0.347126 -0.753515 7.252450
0.305908 -1.028498 7.799820
0.156508 -1.043180 8.394878
-0.039242 -0.882591 9.261967
1.129604 0.430731 0.733122
0.941400 0.171898 1.477325
0.890546 0.014481 2.143560
0.892387 -0.089313 2.612313
0.803046 -0.248723 3.431117
0.769972 -0.416769 4.225469
0.681653 -0.506165 4.812665
0.380963 -0.468092 5.878688
0.222224 -0.389216 6.594100
0.253437 -0.716598 7.286898
0.204901 -1.093355 7.862169
0.019375 -1.047709 8.580880
-0.140026 -0.815599 9.443157
0.994741 0.282132 0.736749
1.046481 0.120279 1.385999
0.960069 -0.052615 2.071079
0.879890 -0.158305 2.573391
0.777571 -0.307147 3.382387
0.732647 -0.451844 4.098877
0.648068 -0.607661 4.916406
0.373644 -0.490690 5.645188
0.211018 -0.428660 6.476864
0.221934 -0.783047 7.174445
0.089917 -1.150514 7.934056
-0.060772 -1.105159 8.505247
-0.174174 -0.828551 9.219536
0.874539 -0.098203 1.958628
0.863348 -0.240182 2.602582
0.813317 -0.430103 3.472571
0.763458 -0.608017 4.223424
0.631900 -0.680468 4.841541
0.373133 -0.570488 5.574831
0.209261 -0.478249 6.296538
0.194707 -0.801044 6.969718
0.090018 -1.174249 7.574678
-0.149630 -1.091991 8.485900
-0.238538 -0.769695 9.261296
0.947465 0.130675 0.602314
0.902424 -0.057423 1.411304
0.863496 -0.193678 2.046234
0.812711 -0.364150 2.857497
0.767554 -0.527949 3.589237
0.652179 -0.698997 4.472265
0.414722 -0.620969 5.165122
0.212471 -0.433302 5.757055
0.191657 -0.749138 6.565039
0.019296 -1.203901 7.458140
-0.220356 -1.321386 8.185659
-0.412837 -1.169838 8.943381
-0.346236 -0.702919 9.569725
0.916936 -0.258996 1.915661
0.810470 -0.374041 2.553929
0.736804 -0.524329 3.307231
0.642757 -0.680965 4.100045
0.440544 -0.668724 4.829096
0.255204 -0.566883 5.513879
0.129663 -0.566981 6.346841
0.059345 -0.790017 6.935472
-0.135384 -1.072010 7.717034
-0.385200 -1.069978 8.630940
-0.411724 -0.803246 9.236232
0.773314 0.069995 0.097629
1.156164 -0.077383 0.724500
0.904704 -0.196865 1.322820
0.836688 -0.373339 2.151785
0.759407 -0.509893 2.845777
0.654296 -0.616476 3.513914
0.543174 -0.761840 4.307081
0.321312 -0.644822 4.979404
0.131463 -0.472529 5.806265
0.022103 -0.811148 6.769969
-0.140742 -1.165375 7.313383
-0.345265 -1.191182 7.975493
-0.483080 -1.034701 8.650268
-0.539503 -0.732245 9.556893
0.926664 -0.034567 0.262492
1.091271 -0.217579 0.899614
0.899560 -0.334818 1.545318
0.805686 -0.426466 2.073982
0.697731 -0.613522 3.020795
0.599527 -0.770869 3.780955
0.472139 -0.851389 4.410902
0.248602 -0.731803 5.171319
0.091061 -0.545021 5.876928
0.004898 -0.811751 6.497510
-0.204436 -1.154681 7.182858
-0.513042 -1.213442 8.089535
-0.609642 -1.033527 8.677005
-0.581448 -0.664237 9.553630
0.854225 -0.457044 1.739552
0.704791 -0.589697 2.571592
0.605770 -0.740645 3.331757
0.498242 -0.786448 3.825121
0.383973 -0.938704 4.533931
0.183444 -0.843020 5.267754
-0.016838 -0.745190 6.267601
-0.225557 -0.993747 7.052632
-0.506450 -1.167490 7.776161
-0.638113 -1.107057 8.250768
-0.829116 -0.885556 9.238211
1.170718 -0.385067 0.655497
1.028124 -0.509851 1.227526
0.784074 -0.647086 2.155460
0.541237 -0.649503 2.919957
0.504250 -0.909559 3.666449
0.432314 -1.273106 4.355187
0.221009 -1.006366 4.847471
-0.013722 -0.751436 5.854495
-0.063742 -0.439778 6.432017
-0.328635 -0.756546 7.477018
-0.721645 -1.080959 8.123989
-0.806843 -0.962974 8.591730
-0.799736 -0.672751 9.385694
0.689433 -0.235282 0.391055
0.770060 -0.392591 0.964389
0.899333 -0.653749 1.587175
0.605863 -0.725611 2.589228
0.690088 -1.154892 3.188834
0.536849 -1.416922 3.878527
-0.192223 -1.061090 6.139542
-0.301064 -0.910341 6.742071
-0.721449 -1.082958 7.790024
-0.962019 -1.003893 8.508306
-0.962380 -0.768366 9.109957
0.863648 -0.336765 0.213883
0.793980 -0.559059 1.185037
0.854033 -0.797611 1.729793
0.586160 -0.755211 2.383464
-0.232734 -0.872039 6.149910
-0.364634 -0.837453 6.770823
-0.726569 -1.020955 7.568617
-0.976207 -0.953134 8.291324
0.911081 -0.475308 0.300534
0.772919 -0.623802 1.096875
0.824070 -0.971962 1.840449
0.723198 -1.115616 2.348815
0.055446 -1.435940 4.489765
-0.199391 -1.072818 5.441876
-0.263863 -0.792187 6.051215
-0.371202 -0.711208 6.721196
-0.756342 -0.878804 7.608887
-1.058946 -0.884368 8.247205
0.949346 -0.558963 0.154788
0.789037 -0.756208 1.084117
-0.075105 -1.461104 4.496172
-0.296872 -1.141776 5.359157
-0.407266 -0.864015 6.160845
-0.365810 -0.572511 6.744277
-0.652926 -0.711365 7.417180
-1.166032 -0.774856 8.333566
-1.228347 -0.548180 9.049938
-0.921630 -0.267004 9.741570
0.871199 -1.229037 1.454533
0.680600 -1.318689 2.011892
-0.835233 -0.743909 7.415605
-1.073646 -0.692650 8.027757
-1.251440 -0.492259 8.845472
-1.258272 -0.349372 9.296225
1.048820 -0.968757 0.316323
0.857349 -1.384759 1.382643
0.732675 -1.443167 1.717369
-0.689040 -0.676936 6.911885
-1.098767 -0.640245 7.887481
-1.399224 -0.531867 8.523074
-1.431345 -0.350254 9.047560
0.968466 -1.048354 0.249225
0.754928 -1.258349 1.063091
0.602005 -1.472455 1.661353
0.283661 -1.246481 2.332888
-0.766967 -0.623755 6.897417
-0.948029 -0.525755 7.614961
-1.389374 -0.494603 8.214819
-1.631780 -0.196174 9.105420
0.923709 -1.373394 0.514294
0.691740 -1.577593 1.217120
0.433587 -1.562810 1.784098
-0.869668 -0.600067 6.854089
-1.138568 -0.422125 7.859813
-1.543738 -0.251803 8.587674
-1.641692 -0.019440 9.197495
0.546347 -1.661392 1.254239
-0.571594 -2.128565 3.498994
-1.387842 -0.318639 7.994493
-1.600156 -0.133256 8.547156
-1.575622 0.178302 9.375720
0.693514 -1.389583 0.343852
0.432981 -1.612615 1.133195
0.246007 -1.669527 1.590011
-0.239073 -1.911988 2.641419
-1.561611 -0.137947 8.172939
0.268919 -1.753401 1.253339
-0.898339 -2.034615 3.449625
-1.487761 -0.024778 8.161286
-1.680721 0.155246 8.567412
-1.533555 0.398186 9.273858
0.333755 -1.495047 0.621264
0.018327 -1.956020 1.435886
-0.165624 -1.792432 1.841567
-0.530038 -1.822145 2.586580
-1.049620 -2.108309 3.248039
-1.767143 0.237169 8.323045
-1.648142 0.598850 9.229026
-0.225688 -1.874240 1.590366
-0.615666 -1.782736 2.425781
-0.703955 -1.436019 2.935185
-1.833684 0.189736 7.809476
-1.743759 0.635789 8.827911
-1.398728 0.711340 9.410834
-0.194834 -2.011695 1.168957
-0.556991 -1.772917 1.990428
-1.160284 -1.898820 2.920393
-1.513627 -1.803048 3.493136
-1.866439 -1.462320 4.304073
-2.132852 -1.310579 4.731809
-1.940778 0.404530 7.857546
-1.773770 0.590775 8.362397
-1.519228 0.959256 9.390366
-0.129450 -2.004398 0.707116
-0.536499 -1.885736 1.539732
-0.779093 -1.723221 2.121437
-1.327559 -1.647110 3.100178
-1.607937 -1.433371 3.741355
-1.805539 -1.267447 4.191608
-2.145487 -1.004909 4.855078
-2.109090 -0.505002 5.690363
-1.861311 0.633639 8.010264
-1.676612 0.853175 8.620326
-1.357032 0.989915 9.340322
-0.483621 -2.162279 0.993540
-0.672865 -1.840161 1.511412
-1.090687 -1.604297 2.478971
-1.441804 -1.455240 3.191651
-1.677856 -1.237164 3.796493
-1.941595 -0.884592 4.610938
-2.087932 -0.633477 5.130693
-2.116517 -0.220140 5.899977
-2.116561 0.128657 6.561124
-2.017898 0.597553 7.484567
-1.870290 0.897496 8.143973
-1.655790 1.102884 8.743796
-1.221707 1.153701 9.534188
-0.507971 -1.817615 0.870501
-0.849173 -1.926761 1.420269
-1.113387 -1.623195 2.154611
-1.373070 -1.408066 2.828326
-1.683264 -1.217988 3.492838
-1.940026 -0.896861 4.247650
-1.913410 -0.643163 4.693502
-2.127872 -0.238425 5.521397
-2.213225 0.084730 6.107180
-2.075228 0.463041 6.852548
-1.846165 0.792833 7.633685
-1.628321 1.071639 8.373161
-1.300092 1.293014 9.238239
-0.355056 -1.868475 0.198578
-0.692997 -1.914502 0.819642
-1.005445 -1.712152 1.538621
-1.174618 -1.508809 2.053742
-1.493738 -1.280530 2.837764
-1.741575 -1.003171 3.566385
-1.918008 -0.734008 4.181524
-1.860235 -0.360619 4.893454
-2.059182 0.088512 5.804906
-2.200828 0.468453 6.439479
-1.979589 0.884014 7.303911
-1.774706 1.101162 7.873022
-1.481288 1.458636 8.791283
-1.129640 1.364269 9.295484
-0.482872 -1.813445 0.141944
-0.954243 -1.832159 0.997876
-1.204034 -1.585952 1.661243
-1.482228 -1.353880 2.369928
-1.760164 -1.118691 3.045986
-1.956967 -0.825990 3.697083
-2.097460 -0.370029 4.582759
-2.153764 0.003904 5.278923
-2.209459 0.256124 5.719681
-2.128235 0.753261 6.612629
-1.851834 1.034285 7.323689
-1.632105 1.227156 7.893568
-1.356266 1.449812 8.624516
-0.907051 1.427751 9.480041
-0.761620 -1.581257 0.512822
-1.193529 -1.603708 1.254671
-1.468845 -1.334860 2.011574
-1.617025 -1.158405 2.465969
-1.802949 -0.898035 3.090287
-1.964599 -0.546227 3.839640
-1.981255 -0.140076 4.640275
-2.100990 0.238642 5.352298
-2.203086 0.774042 6.211112
-1.681250 1.355823 7.620111
-1.444299 1.544262 8.204031
-1.108897 1.718240 8.960561
-0.785407 -1.649409 0.189531
-1.145832 -1.740663 0.724395
-1.457790 -1.389556 1.612918
-1.674666 -1.023873 2.448869
-1.869055 -0.798473 3.012705
-1.959988 -0.539051 3.544979
-2.050188 -0.114325 4.382310
-2.124664 0.210980 4.984151
-2.156562 0.643336 5.724936
-1.974185 1.072776 6.556467
-1.692071 1.267140 7.168190
-1.370791 1.601020 8.066702
-1.017827 1.809793 8.882159
-0.706854 1.622763 9.387391
-1.028010 -1.659867 0.273830
-1.259919 -1.596494 0.716025
-1.542262 -1.217476 1.634126
-1.733863 -0.907409 2.363907
-1.845256 -0.687134 2.856640
-1.969942 -0.373322 3.519249
-2.073934 0.052687 4.350936
-1.975772 0.369570 4.992628
-2.006160 0.697850 5.572337
-1.951586 1.215719 6.430260
-1.642525 1.423876 7.087257
-1.281285 1.615665 7.869174
-0.927856 1.906373 8.750750
-0.629745 1.884848 9.328801
-1.530022 -1.389187 1.026109
-1.618843 -1.146801 1.500888
-1.797906 -0.767911 2.335583
-1.845306 -0.521775 2.841850
-1.987907 -0.043324 3.835733
-1.971400 0.287824 4.495519
-1.984138 0.586850 5.051362
-2.008271 1.029430 5.762376
-1.740138 1.446793 6.640704
-1.393096 1.692500 7.416472
-1.081812 1.839730 8.070398
-0.820794 1.848025 8.565311
-0.420740 1.744137 9.380881
-1.649653 -0.827553 1.753687
-1.791636 -0.574478 2.359555
-1.930505 -0.127950 3.316539
-1.893973 0.039451 3.664347
-1.794891 0.529145 4.723154
-1.822331 0.812961 5.235657
-1.797852 1.163293 5.830033
-1.465903 1.612242 6.861555
-1.171820 1.823675 7.539657
-0.904798 1.871725 8.053585
-0.464321 2.023952 8.982509
-0.115195 1.809402 9.732657
-0.961211 -0.985347 0.115192
-1.612308 -1.034824 1.002211
-1.838877 -0.713246 1.785131
-1.863877 -0.479061 2.252224
-1.923054 -0.023666 3.193707
-1.909913 0.217464 3.690073
-1.726205 0.588330 4.555989
-1.713719 1.001977 5.333752
-1.780290 1.346393 5.766516
-1.405118 1.775335 6.776504
-1.102294 1.843066 7.327881
-0.783316 1.964083 7.985840
-0.307588 2.070670 8.948002
-0.056722 1.802636 9.510727
-1.256235 -0.955012 0.343606
-1.801596 -0.805416 1.236705
-1.766369 -0.467003 1.878152
-1.797398 -0.218022 2.421532
-1.825935 0.217510 3.363964
-1.778499 0.602069 4.183643
-1.516579 0.777725 4.794306
-1.463671 1.010747 5.307300
-1.496077 1.496761 5.979392
-1.120254 1.895363 6.974083
-0.792383 1.947692 7.593319
-0.462280 2.024909 8.262659
-0.129082 1.985075 8.944826
-1.522103 -0.776298 0.713251
-1.771392 -0.478398 1.526339
-1.846884 -0.130281 2.285499
-1.870469 0.231097 3.044660
-1.772533 0.514390 3.679072
-1.635824 0.818038 4.401168
-1.619310 1.146225 4.986768
-1.402676 1.645572 5.952075
-1.139456 1.775613 6.504737
-0.881390 1.895796 7.055374
-0.489877 2.028103 7.863616
-0.133908 1.971369 8.586777
0.256040 1.785261 9.510727
-1.763290 -0.534601 1.061213
-1.876130 -0.249944 1.694417
-1.884933 0.119524 2.463621
-1.860178 0.522026 3.288196
-1.739785 0.830124 3.966861
-1.490755 0.932115 4.439079
-1.405156 1.289419 5.152358
-1.319933 1.670131 5.754894
-0.918671 1.931108 6.655064
-0.535005 2.048027 7.422889
-0.206753 1.995225 8.070635
0.237813 1.987318 8.991978
0.502111 1.739390 9.723176
-1.827026 0.011204 1.878152
-1.788829 0.393265 2.705875
-1.703860 0.696403 3.382909
-1.591524 0.949360 3.975391
-1.267546 1.131576 4.756264
-1.152242 1.396805 5.350940
-0.939556 1.918949 6.237416
-0.673938 1.909455 6.725899
-0.300255 2.008908 7.500481
0.110222 2.014652 8.336685
0.497409 1.887461 9.196675
-1.820715 0.241784 2.048704
-1.748565 0.552489 2.734299
-1.661790 0.751033 3.202884
-1.493918 1.111293 4.051136
-1.161710 1.247116 4.794306
-0.939309 1.568115 5.620237
-0.882058 1.930868 6.016979
-0.520750 1.982174 6.721122
-0.089539 2.023337 7.590609
0.236976 1.963249 8.276515
0.709680 1.848068 9.300500
-1.983669 -0.134134 0.905722
-1.751756 0.102001 1.406190
-1.752621 0.518746 2.306093
-1.638270 0.815322 2.992181
-1.437858 1.082818 3.722276
-1.167024 1.377206 4.606655
-0.943637 1.660113 5.335728
-0.695889 1.920150 5.992214
-0.446477 1.955875 6.495002
-0.013682 1.980352 7.383182
0.327221 1.911698 8.116026
0.580063 1.768412 8.746034
0.832376 1.462045 9.635972
-1.769066 -0.188499 0.436539
-1.988472 0.043640 0.934019
-1.734934 0.288070 1.501146
-1.654648 0.754818 2.535290
-1.500917 1.041957 3.240791
-1.349423 1.237544 3.776473
-1.089825 1.456081 4.518077
-0.848743 1.590260 5.129129
-0.518714 1.926110 6.010193
-0.279806 1.988369 6.504429
0.186357 1.963327 7.463912
0.442632 1.870211 8.040441
0.688901 1.689952 8.704765
0.817138 1.307188 9.500271
-1.753403 0.186332 0.911612
-1.792759 0.501254 1.563110
-1.596176 0.778742 2.280934
-1.443270 0.974910 2.837153
-1.253504 1.136956 3.406962
-1.016557 1.363167 4.176060
-0.690109 1.447081 4.973521
-0.433042 1.718786 5.746138
-0.127552 2.017913 6.443276
0.147707 1.854712 7.053142
0.605589 1.777223 8.070668
0.755727 1.617117 8.543564
0.888865 1.308533 9.264315
-1.550080 0.115033 0.458463
-1.745875 0.406496 1.062740
-1.651520 0.703656 1.746723
-1.370221 1.066470 2.770650
-1.160469 1.227952 3.378422
-0.973993 1.394401 3.963922
-0.641194 1.650951 4.910919
-0.434945 1.741327 5.411662
-0.100636 1.867538 6.168427
0.235944 1.841489 6.906197
0.583619 1.728545 7.724206
0.821039 1.548415 8.410671
0.935197 1.315349 8.991054
-1.794252 0.164320 0.170701
-1.798489 0.588221 1.050228
-1.580162 0.852909 1.756208
-1.373098 0.951786 2.201810
-1.105924 1.165362 3.021022
-0.996958 1.385055 3.549631
-0.717172 1.623198 4.369490
-0.395000 1.651479 5.105678
-0.009385 1.817365 6.011723
0.234164 1.822782 6.546263
0.527444 1.652078 7.306666
0.836074 1.495984 8.138838
0.986183 1.317481 8.709188
1.081347 0.899393 9.763792
-1.470907 0.426577 0.602150
-1.546976 0.763944 1.293156
-1.263811 1.009107 2.147759
-1.028827 1.224426 2.935185
-0.890691 1.417383 3.476026
-0.635534 1.638019 4.227094
-0.289288 1.794422 5.059137
-0.068606 1.564316 5.564698
0.286236 1.522993 6.501693
0.515937 1.657388 6.940085
0.791731 1.474664 7.737716
0.978506 1.249605 8.470841
1.076072 0.986754 9.194177
-1.467626 0.511536 0.448912
-1.418689 0.894528 1.342598
-1.249918 0.944601 1.681633
-0.973720 1.170142 2.595354
-0.810034 1.446962 3.314181
-0.671720 1.768902 3.875132
-0.339763 1.901480 4.609134
0.058224 1.875425 5.447451
0.396502 1.737286 6.242867
0.668668 1.536421 7.021374
0.770628 1.340747 7.505764
1.033791 1.208191 8.268380
1.117005 0.938325 8.990111
-1.253188 0.578237 0.518344
-1.227903 1.000417 1.508684
-1.095176 1.143369 1.996625
-0.904614 1.250894 2.545742
-0.494140 1.172274 3.477158
-0.324286 1.518441 4.203445
-0.024460 2.001767 4.936062
0.277010 1.806807 5.620237
0.516436 1.539149 6.350042
0.668943 1.369948 6.902702
0.984889 1.238656 7.787992
1.098654 1.021834 8.431107
1.110610 0.708610 9.241785
-1.538104 0.842747 0.417860
-1.405098 0.977003 0.836860
-1.033955 1.031101 1.542798
-0.780515 1.200438 2.380504
-0.582040 1.485234 3.175838
-0.357616 1.937125 3.895118
0.047911 2.093660 4.692812
0.250327 1.890609 5.152358
0.504008 1.638571 5.853448
0.703203 1.328195 6.658908
0.927451 1.112854 7.526715
1.184806 0.982524 8.270325
1.333859 0.718591 9.108267
-1.105832 0.784078 0.547527
-1.020310 1.103658 1.368455
-0.816588 1.172316 1.918910
-0.029842 1.833506 4.237005
0.330669 2.046945 4.906644
1.049324 1.427537 6.863889
1.119871 0.957356 7.872595
1.320099 0.783649 8.574519
1.172086 0.526415 9.116727
-0.989834 0.931344 0.739618
-0.871424 1.131392 1.371379
-0.527253 1.281005 2.431870
-0.449536 1.553362 2.847300
-0.142227 1.987754 3.644409
0.197057 2.009448 4.310076
0.561764 1.842506 5.110889
1.323926 1.175830 7.358496
1.155734 0.715960 8.160795
1.223464 0.503304 8.861174
-0.959588 0.919817 0.451796
-0.900822 1.123023 0.968031
-0.593798 1.271943 1.920273
0.144887 1.744561 3.958276
0.434933 1.917577 4.489303
0.758257 1.714536 5.273297
0.828599 1.262669 5.995922
1.237238 0.534192 8.437345
1.213619 0.294937 9.177412
-0.751336 1.043475 0.818186
-0.717018 1.348493 1.348364
-0.411419 1.243514 2.031526
-0.179005 1.836545 2.876395
0.039767 2.109470 3.309260
0.404525 1.753714 4.164170
0.687395 1.600999 4.885915
0.944760 1.321527 5.770572
0.894131 0.461443 7.845017
1.175200 0.305184 8.734878
1.126053 0.087604 9.508326
-0.255339 1.214648 2.141846
0.296212 1.351527 3.825097
0.754990 1.812914 4.470426
0.961613 1.481028 5.221878
1.154707 0.666715 7.220323
0.936865 0.318660 8.113696
1.082079 0.133137 8.960832
0.781963 -0.034697 9.758458
-0.697663 1.130877 0.413347
-0.531475 1.230364 0.990003
-0.221838 1.285395 1.935344
0.499678 1.509191 3.870281
0.497196 0.318338 6.811817
0.644797 0.242138 7.679300
0.999436 0.187258 8.342455
1.073787 0.004240 9.098994
-0.084737 1.229815 1.997286
0.216244 1.256137 2.952735
0.539605 1.470280 3.650761
0.776934 1.384869 4.286353
0.656937 0.528708 5.949617
0.453398 0.282254 6.507354
0.390227 0.147352 7.356677
0.834886 0.147573 8.053816
1.130264 -0.050880 8.919595
0.887863 -0.131006 9.414273
-0.281806 1.023726 0.862142
-0.228181 1.277289 1.222331
0.040830 1.136611 2.080249
0.297173 1.378413 2.767645
0.727392 1.627986 3.561013
0.953911 1.368590 4.324836
0.828256 0.895380 4.939555
0.750253 0.537089 5.816548
0.420113 0.235063 6.354363
0.388193 0.115921 7.297502
0.831958 0.064607 8.108056
1.024725 -0.076755 8.708998
0.867435 -0.198179 9.385080
-0.379136 1.299953 0.441870
-0.166146 1.256006 1.049886
0.043063 1.142789 1.731013
0.775556 1.257999 3.766437
0.935574 -0.092238 8.452785
0.960864 -0.243426 9.078802
-0.151209 0.893252 0.573977
0.079355 1.280032 1.483107
0.264523 1.112123 2.176886
0.557751 1.203051 2.967794
0.949610 1.392620 3.590225
1.077817 1.206854 4.118250
1.007168 0.692810 5.135915
0.826893 0.402190 5.797102
0.520936 0.153149 6.556493
0.430908 0.048428 7.312271
0.741675 -0.078617 8.169269
0.804153 -0.199663 8.737092
0.754641 -0.350032 9.556811
-0.142926 1.017884 0.329617
0.128526 1.144247 1.333798
0.215975 1.020646 1.726202
0.519038 1.158481 2.565673
0.844838 1.215709 3.292434
1.063469 1.036473 4.056327
1.112892 0.705020 4.916104
0.913850 0.389345 5.625848
0.526034 0.157882 6.160252
0.383261 0.032165 7.065693
0.691687 -0.077822 7.831369
0.839708 -0.271430 8.641435
0.777562 -0.435782 9.488790
-0.030656 1.078579 0.435640
0.179954 1.131742 1.179216
0.362891 0.990949 1.958727
0.524558 1.034031 2.428065
0.806170 1.069541 3.121574
1.093844 0.949027 3.953839
1.163440 0.642189 4.816547
0.957994 0.325916 5.583152
0.577053 0.109629 6.234569
0.396171 -0.006052 7.124902
0.734176 -0.175944 7.982414
0.849350 -0.339464 8.561609
0.744521 -0.468327 9.346147
0.198823 1.070195 0.929282
0.296098 0.934160 1.427754
1.006327 0.848841 3.667074
1.287380 0.723818 4.406863
1.065633 0.368991 5.179295
0.600372 0.086080 6.049541
0.289858 -0.009165 6.837929
0.545059 -0.097283 7.400535
0.829890 -0.314956 8.116461
0.728077 -0.457390 8.967227
0.428626 -0.349579 9.578731
0.079632 1.023631 0.164810
0.295545 0.947327 1.067763
0.382969 0.878325 1.506466
1.039244 0.727883 3.691504
0.441324 -0.055975 6.849568
0.614717 -0.225039 7.758350
0.821020 -0.446781 8.320711
0.681876 -0.575949 9.197313
0.332017 1.032078 0.745392
0.528288 0.842290 1.748036
1.176922 0.625587 3.820888
1.521248 0.434634 4.636206
1.219416 0.142538 5.342033
0.723754 -0.043529 6.150312
0.413858 -0.092367 6.873944
0.566455 -0.261348 7.734216
0.862209 -0.591712 8.356125
0.710446 -0.644546 8.952589
0.299362 -0.381915 9.807844
0.282775 0.832832 0.477033
0.439415 0.835007 1.108133
0.562692 0.757175 1.731055
0.778348 0.664861 2.632272
1.051582 0.634037 3.277228
1.348695 0.562516 3.845722
1.334724 0.303443 4.547281
0.887320 0.020361 5.433266
0.332094 -0.050556 6.247595
0.430699 -0.174786 7.213747
0.807133 -0.494703 7.807210
0.792930 -0.725173 8.584693
0.540399 -0.605690 9.083057
0.294153 0.693920 0.410321
