-1.079907 -0.344100 9.945086
-1.442722 -0.312278 1.219037
-1.406058 -0.304342 1.459839
-1.312441 -0.284078 1.910520
-1.323418 -0.286454 2.611444
-1.695056 -0.366895 4.152982
-1.934958 -0.418822 4.820865
-0.727284 -0.157421 7.508661
-1.041178 -0.225363 8.231417
-1.027890 -0.222487 8.676079
-0.995381 -0.215450 9.196588
-0.838102 -0.181408 9.780314
-1.482888 -0.172015 1.028985
-1.403063 -0.162755 1.440203
-1.347989 -0.156367 2.093434
-1.330186 -0.154301 2.179925
-1.663176 -0.192928 3.934874
-1.881697 -0.218277 4.773009
-0.573610 -0.066539 6.486219
-0.563534 -0.065370 7.246510
-0.758995 -0.088043 7.487434
-1.005233 -0.116607 8.060536
-1.146789 -0.133027 8.902466
-1.041012 -0.120757 9.354507
-0.879258 -0.101994 9.925239
-1.178210 -0.020287 0.566642
-1.235671 -0.021276 0.841176
-1.309119 -0.022541 1.792601
-1.253508 -0.021583 1.711334
-1.241833 -0.021382 2.494386
-1.402685 -0.024152 3.260822
-1.598895 -0.027530 3.939357
-1.631393 -0.028090 3.820441
-1.798405 -0.030966 4.805408
-0.677522 -0.011666 7.270749
-0.902264 -0.015535 7.696277
-1.036117 -0.017840 8.138900
-1.006469 -0.017330 8.698983
-1.108732 0.087111 1.442766
-1.215193 0.095475 1.557453
-1.213819 0.095367 2.225804
-1.539613 0.120964 3.912070
-1.681066 0.132078 4.011269
-0.685426 0.053852 7.400118
-1.052464 0.082690 8.117230
-1.126479 0.088505 8.673705
-1.048819 0.082403 9.216759
-0.942554 0.074054 9.943299
-0.713531 0.128833 0.389126
-0.925803 0.167159 0.986710
-1.162212 0.209845 1.325330
-1.116372 0.201568 2.418857
-1.039504 0.187689 2.648778
-1.049779 0.189544 2.978697
-1.277417 0.230646 3.424619
-1.601173 0.289102 4.270607
-1.696237 0.306266 4.676127
-0.485651 0.087687 7.165214
-0.664867 0.120046 7.450175
-1.102874 0.199131 8.073661
-1.173602 0.211901 8.464481
-1.059106 0.191228 8.905442
-0.933484 0.168546 9.738302
-0.887812 0.250796 0.135883
-1.089254 0.307700 0.709634
-1.187419 0.335431 1.379319
-1.018167 0.287619 2.117706
-0.911935 0.257610 2.811490
-0.809661 0.228719 2.757604
-0.945429 0.267072 3.873886
-1.358547 0.383772 4.494455
-1.474702 0.416585 4.458980
-0.510671 0.144258 6.505335
-0.787188 0.222371 7.309469
-0.953846 0.269450 7.732254
-0.994740 0.281001 8.046047
-1.073772 0.303327 8.631123
-0.745130 0.285257 0.186830
-1.010389 0.386807 0.710997
-1.053986 0.403497 1.278213
-0.915586 0.350513 2.088096
-0.855245 0.327413 2.496923
-0.847763 0.324549 3.330807
-0.794352 0.304101 3.659193
-1.059018 0.405423 3.873200
-1.413958 0.541305 4.779756
-0.398225 0.152452 6.499933
-0.807766 0.309236 7.567356
-0.938236 0.359184 7.689527
-0.932801 0.357103 8.017761
-0.904869 0.346410 8.584840
-0.648958 0.329971 0.554844
-0.987605 0.502160 1.364660
-0.993856 0.505338 1.492463
-0.786118 0.399712 1.771880
-0.749012 0.380844 2.214834
-0.758137 0.385484 2.843675
-0.595007 0.302538 3.221982
-0.857977 0.436249 4.389155
-0.456855 0.232293 6.103215
-0.408078 0.207493 6.523142
-0.701601 0.356738 7.101710
-0.956503 0.486346 7.831923
-1.010136 0.513616 8.280241
-0.975527 0.496019 8.725051
-0.746255 0.468144 1.757554
-0.697502 0.437560 2.310269
-0.682348 0.428053 2.892156
-0.796189 0.499469 3.384842
-0.808597 0.507252 3.856120
-0.828681 0.519851 4.481957
-0.820040 0.514431 4.852021
-0.680206 0.426710 5.562106
-0.407880 0.255873 5.850640
-0.408573 0.256308 6.725594
-0.671121 0.421010 7.216081
-0.827505 0.519114 7.504227
-0.881216 0.552808 8.067408
-1.012432 0.635123 8.943923
-0.800666 0.502277 9.214344
-0.500104 0.313727 9.633106
-0.340495 0.266750 0.743292
-0.420506 0.329432 0.798573
-0.648349 0.507928 1.646050
-0.626137 0.490527 1.965503
-0.626196 0.490573 2.551889
-0.619544 0.485362 2.952400
-0.669567 0.524551 3.659193
-0.708886 0.555354 4.164404
-0.686765 0.538024 4.603407
-0.607386 0.475837 5.156766
-0.513277 0.402111 5.926924
-0.300978 0.235792 6.094645
-0.284640 0.222992 6.655133
-0.558961 0.437900 7.199846
-0.902584 0.707101 7.987971
-0.865570 0.678103 8.173759
-0.881157 0.690314 8.954166
-0.721639 0.565345 9.579531
-0.235458 0.222761 0.321869
-0.311426 0.294633 1.297988
-0.578236 0.547055 1.604495
-0.573324 0.542408 2.204653
-0.532814 0.504082 2.427080
-0.607160 0.574420 3.551593
-0.629265 0.595332 3.942370
-0.662478 0.626754 4.235965
-0.667217 0.631237 4.994498
-0.491255 0.464765 5.190393
-0.382682 0.362046 5.939694
-0.275866 0.260991 6.195131
-0.469339 0.444030 6.761205
-0.735522 0.695860 7.355355
-0.869334 0.822456 8.065594
-0.815055 0.771104 8.409042
-0.760584 0.719570 9.202525
-0.592353 0.560411 9.738782
-0.529596 0.603735 2.066097
-0.539288 0.614784 2.245654
-0.510940 0.582467 2.597454
-0.536828 0.611979 3.386492
-0.594589 0.677827 4.171561
-0.609374 0.694681 4.461795
-0.545169 0.621489 4.774346
-0.369774 0.421539 5.250701
-0.256279 0.292156 5.893965
-0.308954 0.352205 6.566803
-0.506331 0.577213 7.029797
-0.729380 0.831487 7.767842
-0.480187 0.547409 10.075240
-0.074709 0.105116 0.604284
-0.198408 0.279163 1.558752
-0.457144 0.643208 1.879257
-0.463306 0.651878 2.326826
-0.438609 0.617129 2.671882
-0.447266 0.629309 3.253064
-0.465803 0.655390 3.687637
-0.522344 0.734944 4.171561
-0.477604 0.671995 4.619214
-0.321097 0.451787 5.086403
-0.239338 0.336751 5.652028
-0.301614 0.424375 6.569376
-0.433584 0.610058 6.857915
-0.621594 0.874590 7.476663
-0.607762 0.855129 7.839115
-0.531740 0.748165 8.427628
-0.529523 0.745046 9.201178
-0.439074 0.617782 9.727346
-0.101204 0.174790 0.507084
-0.210542 0.363627 1.108512
-0.385055 0.665029 1.562855
-0.401052 0.692656 2.334011
-0.372266 0.642941 2.527908
-0.417841 0.721653 3.537242
-0.441143 0.761898 4.035516
-0.475990 0.822082 4.464746
-0.460235 0.794872 4.994498
-0.347977 0.600990 5.652870
-0.266044 0.459484 6.183086
-0.217888 0.376314 6.428482
-0.410875 0.709621 7.316649
-0.507430 0.876382 7.263096
-0.513955 0.887651 7.760791
-0.519152 0.896628 8.468276
-0.485963 0.839307 9.133535
-0.372015 0.642507 9.757598
-0.293710 0.653009 1.522566
-0.306588 0.681640 2.302428
-0.342934 0.762448 3.157797
-0.342060 0.760506 3.537242
-0.337114 0.749507 3.633924
-0.370200 0.823069 4.333020
-0.335398 0.745693 4.724093
-0.265435 0.590144 5.549739
-0.185750 0.412979 6.178219
-0.188519 0.419136 6.530420
-0.323657 0.719588 7.108898
-0.413922 0.920277 7.525853
-0.413265 0.918815 7.960548
-0.479293 1.065617 8.866033
-0.131103 0.381850 0.590841
-0.271959 0.792111 0.897205
-0.283657 0.826182 1.642929
-0.242625 0.706670 1.990821
-0.231436 0.674082 2.189279
-0.261972 0.763020 3.329034
-0.255699 0.744752 3.375304
-0.259725 0.756478 3.834862
-0.254852 0.742284 4.537289
-0.248639 0.724188 4.993782
-0.207633 0.604753 5.634407
-0.126722 0.369092 5.901262
-0.109465 0.318827 6.964776
-0.217547 0.633628 7.521956
-0.331985 0.966943 7.661102
-0.379800 1.106208 8.393669
-0.339210 0.987985 8.733811
-0.095138 0.408347 1.086646
-0.128021 0.549490 1.494947
-0.171481 0.736026 1.758702
-0.172220 0.739198 2.141977
-0.183672 0.788353 2.928071
-0.187478 0.804686 3.479827
-0.187381 0.804271 3.662638
-0.197191 0.846377 4.125329
-0.182239 0.782201 6.248714
-0.100663 0.432061 6.464899
-0.174294 0.748098 7.222683
-0.232129 0.996339 7.839183
-0.235043 1.008844 8.053168
-0.233000 1.000074 8.439788
-0.038496 0.281236 0.791420
-0.077031 0.562749 1.051559
-0.116351 0.850004 1.787901
-0.104709 0.764957 1.988942
-0.104088 0.760419 2.772617
-0.142198 1.038832 3.247872
-0.184334 1.346659 4.903289
-0.057884 0.422871 7.011521
-0.095510 0.697748 7.551187
-0.135493 0.989847 7.846368
-0.142487 1.040940 8.432102
-0.021644 0.498482 0.305235
-0.028634 0.659464 1.417105
-0.039812 0.916911 1.546830
-0.036372 0.837682 2.193311
-0.033723 0.776670 2.357791
-0.048013 1.105799 2.887822
-0.068229 1.571388 3.765088
-0.063114 1.453573 4.148297
-0.051701 1.190729 4.686183
-0.005110 0.117697 6.606239
-0.047102 1.084813 8.045539
-0.043724 1.007015 8.132084
0.025110 0.423750 0.349819
0.035060 0.591654 1.043330
0.054094 0.912861 1.489603
0.050555 0.853145 2.083699
0.045708 0.771339 2.575877
0.087879 1.482993 4.481552
0.012109 0.204341 6.952130
0.030102 0.507982 7.317102
0.061405 1.036242 8.060288
0.061336 1.035069 8.389390
0.123770 0.815310 0.358940
0.140118 0.923002 0.772278
0.162824 1.072571 1.401507
0.144865 0.954271 1.888232
0.132627 0.873656 2.680779
0.259477 1.709261 3.247713
0.248131 1.634519 3.795883
0.229449 1.511457 4.438023
0.042391 0.279243 6.542714
0.072606 0.478279 7.128864
0.147034 0.968560 8.125239
0.149828 0.986964 8.268252
0.159710 1.052059 8.869885
0.121379 0.799562 9.278473
0.194114 0.747408 0.000000
0.167477 0.644847 1.004278
0.240482 0.925943 1.343942
0.277202 1.067329 2.049744
0.383986 1.478482 3.800319
0.082832 0.318933 6.935526
0.197060 0.758752 7.824802
0.289420 1.114371 8.336975
0.282259 1.086798 8.731307
0.363810 1.012304 0.426632
0.402761 1.120686 0.984382
0.435501 1.211785 1.447187
0.397303 1.105498 1.652539
0.401182 1.116291 2.435467
0.483068 1.344140 2.837973
0.594906 1.655330 3.286090
0.599225 1.667347 3.742878
0.206065 0.573377 7.305090
0.238186 0.662753 7.551187
0.363933 1.012647 8.510348
0.341283 0.949622 8.626962
0.539025 1.117337 1.499438
0.539742 1.118824 1.527697
0.724188 1.501160 3.715782
0.166938 0.346044 7.046109
0.286400 0.593675 7.665735
0.378251 0.784071 8.025747
0.451809 0.936550 8.719573
0.488905 0.811303 -0.035725
0.451820 0.749763 0.408411
0.586308 0.972936 1.420103
0.688747 1.142926 2.123615
0.856237 1.420864 3.291975
0.901035 1.495203 4.657751
0.256504 0.425650 7.461254
0.528718 0.877369 8.267839
0.569754 0.945465 8.674510
0.602553 0.999893 9.168045
0.505794 0.839329 9.386949
0.817258 1.108145 1.237836
0.747664 1.013780 2.129765
1.083400 1.469014 3.763206
0.831620 1.127618 5.245414
0.382763 0.519000 7.795346
0.489567 0.663819 7.961296
0.668313 0.906185 8.896376
0.724345 0.795913 0.455071
0.825466 0.907025 1.230895
0.877969 0.964716 1.290769
0.882590 0.969794 1.820784
1.232329 1.354088 3.628405
1.458830 1.602968 3.851731
0.388578 0.426971 7.470021
0.568371 0.624528 8.025877
0.694030 0.762603 8.289208
0.776525 0.853249 8.744624
0.779454 0.856468 9.291073
5.757706 5.261098 -0.290218
1.024407 0.936051 0.892510
1.107643 1.012107 1.652885
0.979732 0.895229 1.685265
1.034930 0.945666 2.826673
0.959841 0.877053 2.816442
1.647058 1.504998 4.092728
1.613641 1.474463 4.562976
1.581701 1.445278 5.250789
0.406420 0.371366 7.650026
0.725334 0.662773 8.218320
0.871069 0.795938 8.586277
0.815280 0.604033 0.955382
0.959325 0.710754 1.062241
1.072269 0.794434 1.388082
1.087647 0.805827 2.051232
1.380572 1.022853 2.728799
1.831654 1.357055 4.231157
1.795389 1.330186 4.821398
1.657338 1.227905 4.854649
0.794877 0.588916 8.239723
0.928993 0.688282 8.187145
1.084021 0.803140 8.930235
1.052946 0.780117 9.563714
1.187132 0.705317 0.667684
1.265733 0.752016 1.135022
1.142150 0.678592 1.706388
1.142028 0.678519 2.344017
1.316232 0.782020 2.621760
1.547992 0.919716 3.217472
1.761445 1.046536 3.736975
1.930709 1.147102 4.181034
1.962712 1.166116 5.065742
0.883565 0.524957 8.360903
1.053649 0.626009 8.485011
1.095534 0.529842 1.011721
1.314764 0.635870 1.402386
1.358314 0.656933 1.778758
1.264479 0.611551 2.061309
1.264409 0.611517 2.613428
1.321429 0.639094 3.373626
1.644701 0.795441 3.600787
2.044719 0.988905 4.330356
2.040878 0.987047 4.450036
2.118980 1.024820 5.517852
0.814266 0.393810 7.703434
1.147758 0.555100 8.064504
1.160344 0.561187 8.597205
1.158614 0.560350 9.572393
1.205805 0.437175 0.733758
1.470171 0.533023 1.459730
1.477814 0.535794 1.956684
1.395047 0.505786 2.111316
1.343670 0.487159 2.349003
1.491756 0.540849 2.905182
1.488079 0.539516 3.479154
1.697275 0.615361 3.964175
2.163908 0.784543 4.639885
2.198782 0.797187 5.450218
1.338739 0.485371 7.520465
1.398813 0.507152 8.321740
1.349910 0.489421 8.798249
1.298406 0.470748 9.681631
1.353428 0.351431 0.238752
1.660508 0.431167 1.485863
1.524165 0.395764 1.186399
1.407513 0.365475 1.712158
1.480917 0.384535 2.847963
1.813602 0.470919 3.748964
2.194323 0.569778 4.590205
2.208883 0.573558 5.306499
1.970823 0.511744 5.351829
1.731793 0.449677 5.854351
1.499193 0.389280 6.456570
1.593246 0.413702 7.478192
1.572391 0.408287 7.841133
1.418833 0.368414 8.004987
1.512242 0.392669 8.934616
1.362131 0.353691 9.392413
1.474894 0.239784 1.063964
1.801091 0.292816 1.631983
1.641835 0.266925 1.837879
1.516071 0.246479 2.416746
1.523503 0.247687 2.966694
1.665548 0.270780 3.684405
1.723105 0.280138 4.222270
2.015624 0.327695 4.879940
2.175415 0.353673 5.053509
1.996569 0.324597 6.592733
1.691683 0.275029 7.262869
1.622212 0.263735 7.645410
1.696732 0.275850 8.384961
1.656970 0.269385 8.964183
1.880694 0.111434 0.771861
1.836737 0.108829 1.471671
1.761861 0.104393 2.171843
1.635966 0.096933 2.920406
1.577910 0.093493 3.068425
1.739900 0.103091 3.718816
1.808732 0.107170 4.005635
1.832044 0.108551 4.591404
1.835615 0.108763 5.012627
1.954357 0.115798 5.916822
1.749072 0.103635 5.804585
1.764390 0.104542 6.504602
1.651334 0.097844 6.860635
1.749239 0.103645 7.999367
1.696712 0.100532 8.245388
1.752232 0.103822 9.030726
1.599322 0.094762 9.487443
1.337144 -0.046023 0.901280
1.726497 -0.059424 1.241840
1.872641 -0.064455 1.614983
1.781273 -0.061310 2.079801
1.714959 -0.059027 2.707994
1.647553 -0.056707 3.003866
1.722058 -0.059272 4.083664
1.747840 -0.060159 4.086626
1.781250 -0.061309 4.579578
1.739709 -0.059879 5.032055
1.849654 -0.063663 5.898306
1.954792 -0.067282 6.434341
2.014371 -0.069333 7.043484
1.777668 -0.061186 7.124787
1.747248 -0.060139 7.818278
1.760046 -0.060579 8.432536
1.535547 -0.195149 0.188494
1.874762 -0.238259 0.944078
1.853277 -0.235528 1.525373
1.867466 -0.237332 2.363196
1.755306 -0.223077 2.961560
1.650154 -0.209714 3.326727
1.734825 -0.220475 3.583643
1.753583 -0.222859 3.715195
1.798558 -0.228574 4.467099
1.778355 -0.226007 4.906901
1.732954 -0.220237 5.189396
1.876347 -0.238460 5.852520
1.948796 -0.247668 6.366365
1.962538 -0.249414 7.187357
1.811627 -0.230235 7.470389
1.772708 -0.225289 7.942860
1.887278 -0.239849 8.846768
1.861094 -0.433655 0.833039
1.804044 -0.420362 1.235741
1.802737 -0.420057 1.651071
1.827189 -0.425755 2.294288
1.871193 -0.436008 3.370053
1.722684 -0.401404 3.165260
1.778618 -0.414437 4.095428
1.827337 -0.425789 4.812115
1.824715 -0.425179 5.185053
1.743228 -0.406191 5.274321
1.905205 -0.443934 6.018759
1.903404 -0.443514 6.222926
1.867975 -0.435259 6.878266
1.898644 -0.442405 7.621132
1.876142 -0.437161 8.133946
1.715966 -0.399839 8.355458
1.309663 -0.437650 0.667684
1.644662 -0.549597 0.776442
1.779292 -0.594586 1.206955
1.780116 -0.594861 1.663226
1.812390 -0.605646 2.117765
1.843823 -0.616150 2.948149
1.835096 -0.613234 3.081731
1.767452 -0.590629 3.849190
1.772120 -0.592189 4.770759
1.828826 -0.611139 5.202518
1.782898 -0.595791 5.457234
1.802909 -0.602478 5.669245
1.961720 -0.655548 6.369216
1.999602 -0.668207 7.187182
1.837989 -0.614201 7.318017
1.832647 -0.612416 7.904904
1.799400 -0.601305 8.601946
1.576586 -0.696120 0.249605
1.725064 -0.761678 0.826975
1.733970 -0.765611 1.925005
1.729717 -0.763733 1.863023
1.736221 -0.766604 2.257602
1.731591 -0.764560 3.149790
1.690358 -0.746354 3.569672
1.650938 -0.728949 3.794527
1.696825 -0.749210 4.559355
1.711375 -0.755634 5.171268
1.815802 -0.801743 5.700856
1.803505 -0.796313 5.754450
1.958285 -0.864654 6.839545
1.781808 -0.786733 6.892309
1.835901 -0.810617 7.723663
1.902877 -0.840189 8.440575
1.742007 -0.769159 8.622601
1.175012 -0.670272 0.534687
1.519658 -0.866871 1.178289
1.670146 -0.952715 1.598037
1.624556 -0.926709 1.559841
1.711585 -0.976354 2.736457
1.693919 -0.966276 2.780391
1.754699 -1.000948 3.538370
1.649342 -0.940848 3.914297
1.560205 -0.890001 4.220985
1.646979 -0.939500 5.044236
1.665012 -0.949786 5.391647
1.712456 -0.976850 5.754450
1.872470 -1.068129 6.703758
1.845376 -1.052673 7.152993
1.712817 -0.977057 7.345382
1.669049 -0.952090 7.870515
1.730164 -0.986952 8.569699
1.666653 -0.950722 9.042409
1.471124 -0.839186 9.374544
1.271237 -0.890556 0.502623
1.417437 -0.992975 1.304226
1.532548 -1.073615 2.239150
1.578408 -1.105742 2.303523
1.602228 -1.122429 2.835355
1.605008 -1.124377 3.078697
1.545278 -1.082533 3.486926
1.514711 -1.061120 3.921957
1.715213 -1.201580 5.841537
1.630024 -1.141901 5.945414
1.690450 -1.184232 6.552685
1.728067 -1.210585 7.371843
1.753151 -1.228157 8.064885
1.721180 -1.205760 8.425768
1.748898 -1.225177 9.126752
1.182437 -1.023365 0.921335
1.376780 -1.191563 1.569827
1.427211 -1.235209 1.427439
1.456267 -1.260356 2.289768
1.533580 -1.327269 3.223391
1.405833 -1.216708 2.867230
1.394254 -1.206686 3.542072
1.394382 -1.206797 3.887458
1.352277 -1.170357 4.471441
1.267801 -1.097245 4.965386
1.418189 -1.227401 5.783624
1.486470 -1.286497 5.951164
1.525428 -1.320214 6.572176
1.568590 -1.357569 7.159898
1.509542 -1.306465 7.689376
1.613250 -1.396221 8.597636
1.466799 -1.269472 8.572076
1.113647 -1.163931 0.835973
1.315822 -1.375235 1.253954
1.339486 -1.399967 2.136300
1.342646 -1.403269 2.461664
1.367325 -1.429063 3.020760
1.366029 -1.427708 3.209163
1.375003 -1.437087 4.160696
1.284675 -1.342681 4.288653
1.268650 -1.325932 4.862891
1.334119 -1.394358 5.568924
1.393987 -1.456929 5.838009
1.421752 -1.485948 6.219475
1.496166 -1.563722 7.200643
1.464975 -1.531122 7.577295
1.378205 -1.440434 7.765310
1.358810 -1.420164 8.334144
1.359024 -1.420387 9.025539
1.278544 -1.336273 9.647644
1.191931 -1.509539 1.149543
1.193390 -1.511385 1.991893
1.194530 -1.512830 2.803766
1.168084 -1.479337 2.641245
1.198156 -1.517422 3.270502
1.110775 -1.406756 3.711574
1.109564 -1.405223 4.186414
1.092366 -1.383442 4.611713
1.215443 -1.539315 5.821853
1.249569 -1.582535 5.838009
1.300017 -1.646425 6.383558
1.303993 -1.651460 6.989184
1.254293 -1.588518 7.255889
1.224961 -1.551369 7.710415
1.212413 -1.535477 8.306670
1.237389 -1.567109 9.037683
1.156221 -1.464313 9.760050
0.564514 -0.887988 0.512439
0.872670 -1.372721 1.225841
1.028374 -1.617647 1.501721
1.037931 -1.632679 2.101923
1.045933 -1.645267 2.273765
1.074795 -1.690668 3.226573
1.097571 -1.726494 3.541729
1.024601 -1.611711 3.821019
0.955554 -1.503100 4.429941
0.942581 -1.482693 5.360693
0.965752 -1.519141 5.561323
1.150875 -1.810343 6.161329
1.100383 -1.730918 6.300801
1.164111 -1.831163 7.309800
1.143534 -1.798794 7.618237
1.109213 -1.744808 8.164003
1.116986 -1.757034 8.829916
0.816580 -1.592213 0.933983
0.861173 -1.679162 1.420550
0.882874 -1.721475 2.101923
0.929018 -1.811450 3.083294
0.946726 -1.845977 3.384381
0.940972 -1.834759 3.476679
0.894959 -1.745039 3.989079
0.862769 -1.682275 5.016688
0.806193 -1.571958 5.034120
0.927743 -1.808964 6.123636
1.007896 -1.965250 6.413286
1.008203 -1.965849 6.806158
0.939139 -1.831185 7.009467
0.989941 -1.930240 8.153487
0.911982 -1.778232 8.194077
0.912180 -1.778617 8.743731
0.675166 -1.687219 1.009052
0.713395 -1.782752 1.556761
0.725119 -1.812050 2.003667
0.737770 -1.843664 2.644570
0.729411 -1.822777 2.897175
0.773442 -1.932808 3.787987
0.758157 -1.894611 4.011584
0.697879 -1.743977 4.405847
0.633215 -1.582384 4.844850
0.707631 -1.768349 5.798700
0.813540 -2.033011 6.237054
0.856685 -2.140830 6.874521
0.821010 -2.051678 7.357201
0.811309 -2.027435 8.035923
0.819880 -2.048855 8.580059
0.761029 -1.901787 8.657525
0.402513 -1.404902 0.854890
0.514830 -1.796926 1.055318
0.529103 -1.846744 1.570520
0.552215 -1.927412 2.587111
0.559758 -1.953737 2.840665
0.541136 -1.888743 3.119906
0.531678 -1.855729 3.789772
0.561980 -1.961494 4.738305
0.520406 -1.816388 4.610035
0.490766 -1.712933 5.110233
0.536146 -1.871324 5.644546
0.590193 -2.059967 6.046303
0.602532 -2.103034 6.629564
0.589085 -2.056100 7.112028
0.593056 -2.069959 7.940557
0.601921 -2.100903 8.671243
0.564958 -1.971887 8.817694
0.301932 -1.615009 1.029928
0.360485 -1.928205 1.409471
0.355815 -1.903225 1.797473
0.378985 -2.027161 3.093930
0.368485 -1.970997 3.240287
0.355634 -1.902258 3.284254
0.369675 -1.977363 3.988112
0.354470 -1.896035 4.404136
0.348952 -1.866517 5.058008
0.355197 -1.899918 5.582677
0.378781 -2.026072 5.697967
0.393181 -2.103095 6.242357
0.397470 -2.126035 7.105190
0.379284 -2.028759 7.303693
0.390734 -2.090005 8.182651
0.375676 -2.009463 8.490768
0.379006 -2.027271 9.145621
0.346092 -1.851220 9.666300
0.150977 -1.826811 1.347427
0.158444 -1.917163 1.156421
0.163785 -1.981790 2.145800
0.167649 -2.028540 2.868060
0.165489 -2.002399 2.628247
0.158746 -1.920810 3.019841
0.157216 -1.902295 3.814137
0.158918 -1.922891 4.106973
0.164056 -1.985065 5.139354
0.156063 -1.888350 5.526119
0.165128 -1.998038 5.898533
0.172764 -2.090429 6.071719
0.182121 -2.203650 6.812958
0.170542 -2.063543 7.146222
0.160570 -1.942882 7.621132
0.166546 -2.015197 8.345846
0.176492 -2.135540 9.147212
0.152186 -1.841440 9.286471
-0.018787 -1.605135 0.640959
-0.020220 -1.727546 0.526915
-0.022241 -1.900197 1.191993
-0.023160 -1.978733 2.029141
-0.023564 -2.013312 2.420105
-0.023583 -2.014881 2.683083
-0.023615 -2.017601 2.932582
-0.023485 -2.006485 3.792338
-0.023929 -2.044423 4.624182
-0.023884 -2.040619 4.873094
-0.022111 -1.889117 5.009800
-0.021776 -1.860501 6.048894
-0.022687 -1.938381 6.052071
-0.026251 -2.242863 6.928489
-0.025186 -2.151852 7.248475
-0.024873 -2.125101 7.851899
-0.025137 -2.147685 8.562245
-0.022731 -1.942066 8.578949
-0.159333 -1.514704 0.209642
-0.196519 -1.868215 0.565153
-0.216665 -2.059729 1.094847
-0.207250 -1.970227 2.056594
-0.210428 -2.000441 2.399542
-0.215130 -2.045139 3.046038
-0.209858 -1.995024 3.247143
-0.207010 -1.967947 3.775477
-0.200231 -1.903503 3.848547
-0.208745 -1.984441 4.633240
-0.218347 -2.075725 5.469697
-0.205102 -1.949806 5.475748
-0.213555 -2.030165 6.157874
-0.230007 -2.186572 6.955499
-0.221173 -2.102583 7.207664
-0.213196 -2.026751 7.654217
-0.212020 -2.015572 8.200034
-0.210110 -1.997420 8.771158
-0.328467 -1.564322 0.250833
-0.370318 -1.763634 1.231269
-0.400971 -1.909623 1.651429
-0.405307 -1.930270 1.946767
-0.405847 -1.932842 2.777649
-0.393893 -1.875914 3.139815
-0.393540 -1.874229 3.686588
-0.377670 -1.798648 3.676726
-0.435559 -2.074345 4.617420
-0.471888 -2.247363 4.746169
-0.489477 -2.331129 6.484048
-0.433240 -2.063301 7.187182
-0.402415 -1.916496 7.476243
-0.416012 -1.981253 8.193184
-0.422390 -2.011628 8.678056
-0.473091 -1.529863 0.459842
-0.540077 -1.746481 0.545557
-0.596038 -1.927444 1.509486
-0.580861 -1.878365 1.864372
-0.588708 -1.903741 2.193823
-0.602974 -1.949874 2.915991
-0.556213 -1.798661 3.067129
-0.567069 -1.833764 4.045067
-0.619417 -2.003045 4.044689
-0.691793 -2.237094 4.716497
-0.738585 -2.388406 5.598294
-0.554315 -1.792522 7.194144
-0.566364 -1.831485 7.939909
-0.534636 -1.728886 8.179224
-0.533940 -1.726633 8.725227
-0.604637 -1.425992 0.293209
-0.644937 -1.521037 0.500659
-0.756312 -1.783706 1.424618
-0.756160 -1.783349 1.417743
-0.787811 -1.857994 2.468080
-0.752382 -1.774439 3.019841
-0.876250 -2.066573 4.741967
-0.906568 -2.138074 4.475087
-0.963566 -2.272499 5.457052
-0.915650 -2.159494 5.818591
-0.827286 -1.951094 6.160486
-0.717643 -1.692509 6.479080
-0.748444 -1.765150 7.600852
-0.764763 -1.803637 8.153754
-0.721842 -1.702412 8.380318
-0.749022 -1.766514 9.042409
-0.684297 -1.613865 9.534010
-0.770745 -1.430671 0.382833
-0.788667 -1.463938 1.440134
-0.842700 -1.564235 1.225563
-0.934707 -1.735019 1.926170
-0.870589 -1.616004 2.117134
-0.804865 -1.494005 3.195365
-0.855239 -1.587510 3.950353
-0.960992 -1.783811 3.754359
-1.140877 -2.117717 5.040788
-1.124066 -2.086511 4.991735
-1.127894 -2.093617 5.625981
-0.805242 -1.494704 7.387712
-0.836213 -1.552193 7.950332
-0.856037 -1.588992 8.641105
-0.858788 -1.287075 0.062832
-0.981702 -1.471288 1.045648
-1.110907 -1.664930 1.214707
-1.074900 -1.610965 1.410868
-1.113559 -1.668903 2.344699
-1.036021 -1.552697 2.705901
-1.191334 -1.785465 4.485681
-1.347948 -2.020185 5.029056
-1.362612 -2.042162 5.396464
-0.912882 -1.368147 7.736087
-0.988645 -1.481694 8.649173
-0.954346 -1.430290 9.004440
-0.872340 -1.307386 9.332425
-0.894885 -1.083317 0.638957
-0.961980 -1.164540 0.825262
-1.175237 -1.422701 1.561381
-1.195252 -1.446931 2.301180
-1.171786 -1.418524 2.918362
-1.064670 -1.288852 2.987047
-0.916473 -1.109451 3.534439
-1.538132 -1.862010 5.088009
-1.497378 -1.812674 4.897102
-1.425054 -1.725121 5.337316
-1.240055 -1.501168 5.760020
-1.193208 -1.444456 7.629061
-1.026272 -1.242369 8.051398
-1.002595 -1.213707 8.424962
-1.062725 -1.066809 0.664446
-1.047159 -1.051183 0.770079
-1.215204 -1.219874 1.589881
-1.220890 -1.225582 2.342510
-1.077634 -1.081775 2.318947
-1.050017 -1.054052 2.689837
-0.969244 -0.972969 3.421798
-1.642688 -1.649001 4.642064
-1.259122 -1.263961 7.678712
-1.045320 -1.049337 7.885184
-1.018653 -1.022568 8.506954
-1.322931 -1.081366 0.763331
-1.359288 -1.111084 1.302945
-1.230140 -1.005518 2.165853
-1.187064 -0.970308 2.642717
-1.402649 -1.146528 3.103806
-1.699207 -1.388934 4.878541
-1.043262 -0.852764 7.436049
-0.966947 -0.790384 8.064881
-1.164341 -0.951734 8.994317
-1.423346 -0.959017 0.985292
-1.432025 -0.964864 1.666145
-1.310926 -0.883270 2.068258
-1.278776 -0.861609 2.726524
-1.616891 -1.089422 4.075470
-1.713786 -1.154708 4.464731
-1.041731 -0.701894 7.746150
-1.053426 -0.709774 8.540771
-1.161259 -0.782429 8.771244
-1.205292 -0.655957 0.035145
-1.168648 -0.636015 0.654899
-1.316701 -0.716590 1.631902
-1.303384 -0.709342 2.111316
-1.264766 -0.688325 2.185530
-1.245856 -0.678034 2.746776
-1.254011 -0.682472 3.257681
-1.619749 -0.881518 3.887458
-1.882996 -1.024785 4.023082
-0.977586 -0.532033 7.250520
-0.923392 -0.502539 8.102999
-1.048202 -0.570464 8.385983
-1.224871 -0.666613 9.357307
-1.159609 -0.631095 9.873667
-1.154015 -0.486773 0.522636
-1.202399 -0.507182 0.634391
-1.296876 -0.547033 1.348959
-1.262642 -0.532593 1.576579
-1.302147 -0.549257 2.166595
-1.291495 -0.544764 2.585345
-1.382304 -0.583068 3.611578
-1.734898 -0.731795 4.284473
-1.808985 -0.763045 4.002815
-1.075772 -0.453770 7.533958
-0.926682 -0.390882 8.124955
-1.128501 -0.476011 8.720709
-1.045883 -0.441162 8.845738
-1.068187 -0.450571 9.515034
-1.286957 -0.402207 1.161649
-1.312108 -0.410067 2.000055
-1.368429 -0.427669 2.652980
-1.682317 -0.525767 3.850396
-1.910142 -0.596968 4.525887
-1.102670 -0.344612 7.491438
-0.970556 -0.303323 8.160592
-1.167960 -0.365017 8.949918
-1.099980 -0.343772 9.125523
-1.066305 -0.333247 9.902508
-1.074855 -0.221881 -0.127872
-1.069209 -0.220715 1.009489
-1.325029 -0.273524 1.260138
-1.373035 -0.283434 1.680380
-1.404823 -0.289996 2.405105
-1.437355 -0.296711 3.174379
-1.158258 -0.239097 3.109009
-1.371845 -0.283188 3.797598
-1.862586 -0.384491 4.394668
-1.068355 -0.220539 7.264334
-1.029576 -0.212534 8.102999
-1.190311 -0.245714 8.771123
-1.046044 -0.215933 9.187100
-0.920880 -0.190096 9.498086
-1.242075 -0.133618 0.324895
-1.308225 -0.140734 0.979645
-1.339869 -0.144138 1.973848
-1.287644 -0.138520 1.942413
-1.279038 -0.137594 2.433180
-1.240274 -0.133424 2.793607
-1.367335 -0.147093 3.435855
-1.644445 -0.176903 3.966502
-1.744017 -0.187615 4.420393
-1.556807 -0.167475 4.784543
-0.638567 -0.068695 7.140730
-1.054057 -0.113391 8.131460
-1.131585 -0.121732 8.458708
-1.005638 -0.108183 8.634090
-1.186301 -0.010029 0.856958
-1.263684 -0.010684 0.925073
-1.287227 -0.010883 1.440135
-1.257885 -0.010635 2.108585
-1.254937 -0.010610 2.364920
-1.388003 -0.011735 3.141436
-1.432109 -0.012107 3.292747
-1.708391 -0.014443 4.449782
-1.806309 -0.015271 4.710943
-0.764673 -0.006465 7.580636
-0.879397 -0.007435 7.617514
-1.058525 -0.008949 8.210076
-1.126656 -0.009525 8.975457
-0.946131 0.082685 0.364380
-1.102994 0.096393 1.350458
-1.304941 0.114042 1.396471
-1.168656 0.102132 1.987198
-1.014530 0.088662 2.767863
-1.015656 0.088761 3.005747
-1.293143 0.113011 3.424619
-1.686525 0.147390 4.209645
-1.844114 0.161162 4.945699
-0.563464 0.049243 6.542902
-0.681384 0.059548 7.199199
-1.049180 0.091690 8.024455
-1.100681 0.096191 8.273621
-1.085660 0.094879 8.789859
-0.908491 0.163472 0.214550
-1.112836 0.200241 1.320784
-1.258537 0.226458 1.277907
-1.152911 0.207452 2.272586
-0.967547 0.174098 2.411340
-0.828789 0.149130 2.764778
-1.071444 0.192793 3.365629
-1.566829 0.281931 4.212024
-1.626760 0.292715 4.273433
-0.542685 0.097649 6.484895
-0.677704 0.121944 7.120508
-1.032238 0.185738 7.924632
-1.049489 0.188842 8.067140
-1.178220 0.212006 9.101885
-0.933947 0.267586 1.973902
-0.884315 0.253366 2.539841
-0.845304 0.242188 2.637801
-0.906631 0.259759 3.210205
-1.255220 0.359634 4.165159
-1.455962 0.417149 4.203252
-0.352799 0.101081 6.980401
-0.820253 0.235011 7.882310
-1.142979 0.327475 8.207955
-1.179918 0.338059 8.806474
-0.945977 0.271032 8.944902
-0.870000 0.249264 9.836034
-7.680221 3.007452 -0.180393
-0.660691 0.258716 0.807744
-0.857835 0.335914 1.123553
-0.985516 0.385912 1.374392
-0.819845 0.321038 1.750391
-0.820121 0.321146 2.652128
-0.829526 0.324829 3.194805
-0.900240 0.352520 3.766824
-1.114865 0.436563 3.957859
-0.372592 0.145901 6.808420
-0.610773 0.239169 7.191314
-0.983321 0.385053 7.775020
-1.057612 0.414144 8.451615
-0.952792 0.373098 8.669719
-0.924446 0.361998 9.713749
-0.654498 0.329656 0.749355
-0.945190 0.476072 0.761483
-0.965896 0.486501 1.337536
-0.758670 0.382125 1.658833
-0.714263 0.359759 2.326826
-0.706330 0.355763 2.755630
-0.628096 0.316358 3.503422
-0.750618 0.378070 3.938905
-0.396446 0.199681 5.912341
-0.447228 0.225259 6.798286
-0.587461 0.295891 7.004993
-0.938875 0.472891 7.846232
-1.013118 0.510285 8.365894
-1.045892 0.526793 9.103076
-0.748783 0.477898 1.469538
-0.749254 0.478199 2.477810
-0.733472 0.468126 2.544660
-0.683011 0.435920 2.935254
-0.700345 0.446984 3.698525
-0.762955 0.486944 4.031720
-0.860491 0.549194 4.997168
-0.739995 0.472289 5.553777
-0.480201 0.306480 5.785729
-0.368435 0.235148 6.543646
-0.549642 0.350800 6.983319
-0.861010 0.549525 7.568611
-0.982142 0.626836 8.215492
-0.894102 0.570646 8.381743
-0.810292 0.517156 9.032521
-0.579302 0.369730 9.459389
-0.314080 0.244921 0.240729
-0.443121 0.345547 0.884828
-0.656491 0.511934 1.782422
-0.619092 0.482770 1.821748
-0.623491 0.486201 2.501580
-0.641056 0.499898 3.175139
-0.659112 0.513978 3.551593
-0.678048 0.528745 3.899362
-0.646169 0.503885 4.442674
-0.574805 0.448236 5.067937
-0.433185 0.337799 5.691471
-0.377362 0.294268 6.502662
-0.393452 0.306816 6.891710
-0.618121 0.482013 7.373184
-0.829415 0.646781 7.760788
-0.892040 0.695617 8.437427
-0.733930 0.572322 8.708366
-0.642758 0.501226 9.665511
-0.364190 0.349920 0.646758
-0.514918 0.494743 0.944718
-0.619445 0.595174 1.392082
-0.573173 0.550715 1.958317
-0.597156 0.573759 2.628443
-0.573015 0.550563 2.791565
-0.581080 0.558312 3.321851
-0.637233 0.612265 4.057004
-0.600567 0.577036 4.521632
-0.504998 0.485212 4.916561
-0.432957 0.415993 5.809373
-0.284935 0.273771 6.038037
-0.312833 0.300575 6.737823
-0.519120 0.498781 7.235887
-0.766083 0.736067 7.796363
-5.388918 6.244144 -0.175239
-0.277224 0.321220 0.335244
-0.513842 0.595389 1.439183
-0.577819 0.669519 1.397922
-0.533916 0.618648 2.238474
-0.525457 0.608847 2.377117
-0.545099 0.631607 3.143446
-0.533693 0.618391 3.408035
-0.590595 0.684323 4.185875
-0.526740 0.610334 4.363677
-0.447674 0.518720 4.971654
-0.409015 0.473926 5.925150
-0.328329 0.380435 6.389137
-0.257802 0.298715 6.786535
-0.406399 0.470895 7.161702
-0.667960 0.773966 7.661102
-0.194933 0.273498 0.855755
-0.332294 0.466220 1.160276
-0.439754 0.616990 1.368585
-0.437519 0.613855 2.077205
-0.437129 0.613308 2.367216
-0.441906 0.620010 2.947987
-0.482217 0.676568 3.698525
-0.535394 0.751177 4.300343
-0.466237 0.654147 4.497131
-0.340521 0.477763 5.253101
-0.274615 0.385295 5.928762
-0.313689 0.440117 6.649221
-0.379288 0.532154 6.790109
-0.525259 0.736958 7.154449
-0.661771 0.928488 8.052070
-0.584016 0.819395 8.375654
-0.520041 0.729636 8.919068
-0.414281 0.581250 9.384911
-0.357230 0.628485 1.637879
-0.371216 0.653090 2.345621
-0.346694 0.609949 2.619230
-0.388539 0.683567 3.558282
-0.435047 0.765391 4.196976
-0.436124 0.767286 4.365745
-0.416959 0.733568 5.135202
-0.282981 0.497857 5.436847
-0.221273 0.389292 6.156378
-0.200487 0.352722 6.830300
-0.382426 0.672812 7.430276
-0.554803 0.976080 7.909939
-0.529747 0.931998 8.252752
-0.302073 0.662314 1.717139
-0.302702 0.663692 2.086370
-0.293535 0.643593 2.676919
-0.335753 0.736159 3.723554
-0.342165 0.750217 3.831261
-0.354139 0.776471 4.186581
-0.355995 0.780540 5.206914
-0.281526 0.617264 5.814997
-0.198489 0.435198 6.287364
-0.128554 0.281862 6.443092
-0.272160 0.596727 6.997769
-0.420438 0.921836 7.540108
-0.434966 0.953689 8.260296
-0.406932 0.892223 8.620527
-0.107054 0.312452 0.658318
-0.220408 0.643290 0.642511
-0.238733 0.696772 1.441909
-0.249386 0.727865 1.952976
-0.250740 0.731816 2.314641
-0.233394 0.681191 2.799465
-0.219514 0.640680 3.683312
-0.228603 0.667207 4.210167
-0.236808 0.691154 4.516956
-0.273896 0.799399 5.396073
-0.231943 0.676956 5.867311
-0.168600 0.492079 6.246849
-0.083096 0.242527 6.541296
-0.170321 0.497103 7.187768
-0.290604 0.848163 7.496269
-0.358490 1.046298 8.359346
-0.354791 1.035502 8.804070
-0.127620 0.532196 0.065286
-0.134943 0.562733 0.586976
-0.162757 0.678722 1.639426
-0.179665 0.749231 1.967363
-0.182181 0.759725 2.662174
-0.160626 0.669836 3.190102
-0.185131 0.772029 3.425618
-0.228589 0.953256 4.188334
-0.243240 1.014350 4.845472
-0.108586 0.452821 6.962455
-0.148245 0.618208 7.212324
-0.241014 1.005069 7.960386
-0.245478 1.023685 8.274529
-0.231420 0.965060 8.656198
-0.059525 0.434942 0.947256
-0.081413 0.594877 1.224344
-0.111317 0.813378 1.602976
-0.111054 0.811461 2.260014
-0.084338 0.616249 2.575991
-0.125445 0.916610 3.060086
-0.074764 0.546289 6.692747
-0.080526 0.588398 6.859431
-0.100034 0.730934 7.300728
-0.152270 1.112617 8.330417
-0.155505 1.136261 8.565769
-0.024183 0.723879 0.331481
-0.025220 0.754911 0.655086
-0.032620 0.976414 1.693787
-0.029398 0.879970 1.750391
-0.027838 0.833284 2.135909
-0.025486 0.762861 3.181125
-0.051844 1.551848 3.625546
-0.015911 0.476264 6.804467
-0.023578 0.705750 7.185426
-0.029054 0.869671 7.403159
-0.033789 1.011409 8.060536
-0.034323 1.027397 8.683966
0.027204 0.450708 0.480540
0.040311 0.667862 1.076490
0.059351 0.983303 1.815095
0.052364 0.867551 1.945593
0.048352 0.801076 2.623743
0.075896 1.257403 3.121273
0.025252 0.418356 7.177396
0.045375 0.751755 7.630737
0.056829 0.941512 7.746428
0.068681 1.137877 8.859924
0.136810 0.860188 1.118528
0.151288 0.951219 1.465347
0.169824 1.067764 2.646253
0.212140 1.333824 3.038964
0.260287 1.636553 3.278073
0.112552 0.707672 6.208376
0.086032 0.540922 6.979794
0.114957 0.722791 7.465449
0.143234 0.900583 7.903733
0.170055 1.069216 8.610564
0.244734 0.942586 0.292657
0.265326 1.021895 0.668988
0.307630 1.184825 1.181411
0.271418 1.045357 1.737093
0.289744 1.115937 2.610324
0.376439 1.449842 3.007426
0.467007 1.798662 3.814712
0.436498 1.681158 3.677244
0.395365 1.522734 4.401594
0.176468 0.679660 7.543976
0.224991 0.866545 7.760603
0.279671 1.077141 8.380648
0.273369 1.052871 8.861836
0.288819 0.800323 0.437485
0.243397 0.674458 1.024007
0.336771 0.933197 1.020493
0.417258 1.156230 1.720051
0.519426 1.439339 3.067397
0.101037 0.279976 6.811124
0.238308 0.660354 7.723714
0.330194 0.914973 8.017953
0.351505 0.974026 8.547229
0.365684 1.013318 9.287888
0.261567 0.724807 9.543331
0.335588 0.697774 0.330854
0.442344 0.919748 1.590821
0.555022 1.154035 2.078340
0.537465 1.117531 2.195407
0.462352 0.961350 2.978697
0.741584 1.541946 4.606777
0.192755 0.400787 7.272107
0.409075 0.850573 8.261892
0.399219 0.830081 8.355637
0.417877 0.868876 8.808395
0.438037 0.910793 9.545227
0.488225 0.812052 0.128608
0.471061 0.783505 0.944728
0.595301 0.990149 1.739194
0.640070 1.064612 1.527697
0.850206 1.414127 3.222455
0.899292 1.495771 4.514764
0.292451 0.486427 7.527541
0.445205 0.740498 7.918155
0.532668 0.885973 8.461155
0.547295 0.742482 -0.100124
0.581021 0.788236 0.606686
0.675405 0.916280 0.915352
0.768107 1.042044 1.935363
0.753315 1.021976 1.937230
0.801743 1.087675 2.583306
0.999280 1.355662 3.091232
1.295463 1.757475 4.261547
1.210169 1.641762 4.004737
0.574789 0.779781 8.340459
0.601105 0.815482 8.397038
0.738504 1.001883 9.236221
0.616965 0.836998 9.405673
0.721904 0.794657 0.270208
0.846214 0.931496 1.370930
0.928126 1.021663 1.731199
0.925001 1.018223 2.311385
1.250243 1.376243 3.821608
0.515319 0.567253 7.853501
0.682739 0.751546 8.239339
0.902640 0.993609 9.137963
0.855001 0.941168 9.457946
5.856675 5.338934 -0.325038
1.074702 0.979696 1.283286
1.002446 0.913828 2.086401
1.048783 0.956069 2.753793
0.947656 0.863881 2.647214
1.607032 1.464967 3.732188
1.587522 1.447182 4.351793
1.503142 1.370262 4.704066
0.569422 0.519084 8.040573
0.742746 0.677085 8.289643
0.844094 0.769475 8.551587
6.127634 4.619454 -0.249609
0.939908 0.708571 0.502903
1.128606 0.850825 0.912698
1.175692 0.886322 1.605484
1.067388 0.804674 1.826066
1.084224 0.817367 2.390992
0.949191 0.715569 2.714035
1.782893 1.344074 3.946059
1.866838 1.407358 4.829463
1.768551 1.333262 4.980571
0.538855 0.406228 7.629912
0.853630 0.643528 8.159912
1.032877 0.778658 8.689745
1.036446 0.781348 9.384409
6.639897 4.089755 -0.211072
1.097059 0.675719 0.917128
1.226218 0.755273 0.960887
1.235544 0.761017 2.015276
1.165918 0.718132 1.929764
1.180652 0.727207 2.430838
1.086547 0.669244 2.826205
1.892902 1.165908 3.884898
1.986138 1.223335 4.669135
1.903207 1.172254 4.955294
0.663500 0.408674 7.896656
0.921089 0.567333 8.116912
1.249648 0.769704 9.117249
1.103475 0.679670 9.305414
1.209410 0.585786 1.056107
1.332895 0.645596 1.738495
1.354918 0.656263 1.729812
1.268746 0.614525 2.124485
1.723527 0.834801 3.855428
2.006962 0.972085 4.085933
2.031880 0.984154 4.676217
1.960818 0.949735 5.179247
1.105741 0.535573 8.413645
1.334863 0.646549 8.782061
1.217051 0.456088 0.359513
1.489674 0.558253 0.976193
1.431569 0.536479 1.272559
1.326991 0.497288 1.897966
1.391338 0.521402 2.902480
1.756504 0.658247 3.762748
2.140107 0.802002 4.551774
2.107134 0.789646 5.030002
1.362462 0.510581 7.625625
1.369282 0.513137 8.160076
1.317780 0.493836 8.635883
1.362981 0.356324 0.772329
1.727301 0.451568 1.391585
1.644531 0.429930 1.988789
1.412934 0.369383 1.803234
1.418892 0.370941 2.954318
1.854900 0.484927 4.031306
2.242963 0.586378 4.727938
2.085473 0.545206 4.674237
1.388241 0.362928 6.814493
1.559332 0.407656 7.799361
1.479205 0.386709 8.039027
1.542390 0.403227 9.025263
1.468615 0.241489 0.910039
1.809713 0.297577 1.770071
1.629570 0.267956 1.664097
1.526950 0.251082 2.535454
1.519084 0.249788 2.931780
1.678103 0.275936 3.774641
1.656759 0.272427 3.799147
1.899459 0.312334 4.525416
2.096326 0.344706 4.778998
2.007479 0.330096 6.538461
1.653378 0.271870 7.033993
1.572581 0.258585 7.387720
1.542868 0.253699 7.898050
1.527054 0.251099 8.503464
1.883474 0.113435 0.861419
1.860350 0.112043 1.449535
1.793846 0.108037 2.252682
1.633299 0.098368 2.667241
1.580756 0.095204 2.877298
1.622065 0.097691 3.601107
1.569000 0.094496 3.758113
1.683209 0.101374 4.467977
1.787604 0.107661 4.763925
1.844146 0.111067 5.659503
1.852185 0.111551 6.445295
1.811616 0.109108 6.588244
1.703165 0.102576 6.861519
1.741489 0.104884 7.720914
1.651746 0.099479 8.022460
1.736588 0.104589 8.911573
1.908920 -0.059170 0.798628
1.911825 -0.059260 1.819896
1.855676 -0.057520 1.733843
1.740737 -0.053957 2.712276
1.618038 -0.050154 2.965024
1.667941 -0.051700 3.729679
1.604058 -0.049720 3.810213
1.722837 -0.053402 4.676127
1.831378 -0.056766 5.107262
1.688326 -0.052332 5.280801
1.800117 -0.055797 6.121654
1.939625 -0.060122 6.673122
1.716525 -0.053206 6.806477
1.803732 -0.055910 7.831217
1.730757 -0.053648 8.181474
1.608729 -0.049865 8.451969
1.643660 -0.211286 1.335875
1.838265 -0.236301 1.256435
1.898782 -0.244081 2.159055
1.800886 -0.231496 2.453091
1.743953 -0.224178 2.864649
1.691902 -0.217487 3.264758
1.740678 -0.223757 4.277677
1.795882 -0.230853 4.595866
1.740326 -0.223712 4.706232
1.755219 -0.225626 5.655116
1.795621 -0.230820 5.834909
1.934723 -0.248701 6.311410
1.851000 -0.237938 6.685422
1.858860 -0.238949 7.456240
1.940468 -0.249439 8.306670
1.837372 -0.236187 8.547951
1.355337 -0.311707 0.976803
1.776593 -0.408590 1.604359
1.852123 -0.425961 1.640929
1.861168 -0.428041 2.104000
1.863292 -0.428529 2.659292
1.805750 -0.415296 3.028758
1.687441 -0.388086 3.458926
1.744093 -0.401116 4.478356
1.745284 -0.401390 4.485271
1.760257 -0.404833 5.588969
1.848274 -0.425076 6.091291
1.915860 -0.440619 5.951164
1.924188 -0.442535 6.605423
1.910050 -0.439283 7.304179
1.835268 -0.422084 7.746594
1.806429 -0.415452 8.233649
1.830206 -0.420920 9.002623
1.619842 -0.372540 9.433537
1.582030 -0.529381 1.035868
1.822144 -0.609728 1.936864
1.801827 -0.602929 1.634044
1.847202 -0.618113 2.759775
1.840537 -0.615883 2.920655
1.775614 -0.594158 3.187350
1.656545 -0.554315 3.569790
1.707857 -0.571485 4.397995
1.742501 -0.583078 5.005725
1.753467 -0.586747 5.666402
1.904887 -0.637415 6.129558
1.970922 -0.659512 6.607392
1.787522 -0.598143 6.658365
1.788625 -0.598512 7.228595
1.771219 -0.592687 7.781503
1.772589 -0.593146 8.519270
1.410543 -0.624959 1.026981
1.648547 -0.730409 1.252004
1.733560 -0.768075 1.572074
1.729674 -0.766354 1.876798
1.824481 -0.808359 3.164852
1.688656 -0.748180 3.379984
1.709871 -0.757580 4.208667
1.701125 -0.753705 4.302445
1.902689 -0.843010 5.895075
1.830023 -0.810815 5.993426
1.864253 -0.825981 6.654378
1.794460 -0.795058 7.132430
1.800835 -0.797883 7.772684
1.761269 -0.780352 8.133946
1.861850 -0.824916 9.147337
1.648265 -0.730284 9.381465
1.455852 -0.832591 0.500168
1.616260 -0.924327 0.862271
1.662131 -0.950560 1.847422
1.654354 -0.946112 2.055819
1.653514 -0.945632 2.333334
1.660238 -0.949478 3.105410
1.565337 -0.895205 3.238207
1.610081 -0.920793 3.956447
1.707244 -0.976360 4.752214
1.514182 -0.865949 4.787013
1.546380 -0.884363 5.355528
1.712747 -0.979507 5.761315
1.757947 -1.005356 6.402079
1.773234 -1.014099 6.954714
1.800106 -1.029467 7.770542
1.705883 -0.975582 8.091135
1.635701 -0.935445 8.406911
1.044432 -0.733719 0.465691
1.359591 -0.955120 0.855187
1.551162 -1.089699 1.565187
1.488520 -1.045693 1.542200
1.558199 -1.094643 2.820297
1.568272 -1.101719 2.457214
1.622593 -1.139880 3.452666
1.493335 -1.049076 3.586976
1.439317 -1.011128 4.148950
1.556033 -1.093121 5.071778
1.558185 -1.094633 5.451956
1.572889 -1.104963 5.650010
1.722229 -1.209875 6.309115
1.637634 -1.150447 6.510478
1.644656 -1.155379 7.297108
1.737988 -1.220946 8.175827
1.551398 -1.089866 8.120964
1.699185 -1.193686 9.256816
1.577098 -1.107920 9.641555
1.281111 -1.091830 0.750192
1.438369 -1.225854 1.468768
1.438981 -1.226376 1.482544
1.453938 -1.239122 2.110883
1.528126 -1.302349 3.260855
1.490846 -1.270577 3.071828
1.434738 -1.222760 3.824762
1.465439 -1.248924 4.667463
1.492847 -1.272282 4.988341
1.430279 -1.218959 5.334871
1.536953 -1.309872 5.960223
1.682017 -1.433503 6.616346
1.560667 -1.330082 6.600077
1.521574 -1.296765 7.077667
1.576309 -1.343413 7.846356
1.547091 -1.318513 8.456531
1.482028 -1.263062 8.823360
1.443003 -1.229803 9.488174
0.864561 -0.902254 0.353146
1.177932 -1.229288 1.243060
1.332439 -1.390532 1.646186
1.343224 -1.401787 2.454790
1.334658 -1.392847 2.324156
1.310658 -1.367800 2.953958
1.335066 -1.393273 3.431956
1.329522 -1.387487 4.058826
1.256917 -1.311717 4.766217
1.218604 -1.271733 5.381463
1.266542 -1.321762 5.583584
1.431934 -1.494364 5.955523
1.444188 -1.507152 6.342563
1.431007 -1.493397 6.859331
1.425858 -1.488023 7.557584
1.355052 -1.414130 7.821284
1.402501 -1.463648 8.672528
1.132551 -1.429138 1.154095
1.183786 -1.493790 1.723540
1.195720 -1.508850 1.985015
1.229492 -1.551465 2.818833
1.207930 -1.524257 2.955022
1.170066 -1.476477 3.466259
1.181063 -1.490355 4.536716
1.126923 -1.422037 4.616593
1.144076 -1.443682 5.400420
1.160730 -1.464697 5.524570
1.302960 -1.644173 6.281795
1.308795 -1.651536 6.812004
1.217173 -1.535921 7.029506
1.223105 -1.543406 7.600163
1.251651 -1.579428 8.325288
1.344876 -1.697067 9.208554
0.770143 -1.208399 0.743529
0.978239 -1.534913 1.078125
1.018374 -1.597886 1.551415
1.043883 -1.637912 2.191293
1.042011 -1.634974 2.427294
1.014712 -1.592141 2.898858
1.022253 -1.603972 3.934952
1.006991 -1.580027 4.378280
0.963812 -1.512276 4.499100
0.959912 -1.506156 5.130984
1.018359 -1.597863 5.526119
1.198824 -1.881022 6.596346
1.140099 -1.788880 6.574177
1.125176 -1.765465 7.043743
1.081535 -1.696990 7.482582
1.065692 -1.672132 8.146054
1.028605 -1.613940 8.573243
0.438013 -0.855634 0.857240
0.735241 -1.436253 0.912572
0.868909 -1.697364 1.322791
0.876292 -1.711787 1.957501
0.907544 -1.772837 2.699457
0.919442 -1.796079 2.932582
0.924036 -1.805053 3.411621
0.989854 -1.933624 4.488077
0.877826 -1.714783 4.241728
0.832286 -1.625824 5.447076
0.837046 -1.635121 5.495402
0.941746 -1.839648 5.833535
0.983565 -1.921338 6.418925
0.989114 -1.932178 7.132439
1.018689 -1.989952 7.951823
0.924010 -1.805002 8.040796
0.938895 -1.834078 8.768371
0.918884 -1.794989 9.092532
0.866885 -1.693411 9.785478
0.725863 -1.817164 1.320174
0.712609 -1.783985 1.570520
0.719824 -1.802047 2.170672
0.733470 -1.836208 2.562216
0.765594 -1.916631 3.490360
0.764352 -1.913522 3.644379
0.739481 -1.851257 4.188137
0.692135 -1.732728 4.756971
0.679157 -1.700239 5.100359
0.760768 -1.904548 5.765117
0.792649 -1.984361 6.127232
0.858447 -2.149083 7.179420
0.788591 -1.974202 7.337492
0.805520 -2.016582 8.160299
0.750484 -1.878803 8.269481
0.780623 -1.954254 9.114837
0.681413 -1.705887 9.329606
0.563301 -1.975788 1.273885
0.531518 -1.864310 1.445242
0.530995 -1.862476 1.804348
0.538941 -1.890346 2.445500
0.576894 -2.023466 3.596219
0.584623 -2.050576 3.787337
0.539191 -1.891223 3.861610
0.496945 -1.743046 4.317741
0.465495 -1.632734 4.810153
0.507884 -1.781414 5.448716
0.622195 -2.182361 6.448336
0.596524 -2.092318 6.385469
0.574727 -2.015865 6.866400
0.553849 -1.942638 7.420647
0.558978 -1.960625 8.075040
0.579288 -2.031865 8.842094
0.297829 -1.583580 0.849900
0.362123 -1.925436 1.768220
0.362123 -1.925436 1.768220
0.376219 -2.000385 2.868060
0.376654 -2.002699 2.888603
0.365708 -1.944495 3.229755
0.364309 -1.937057 4.050883
0.357873 -1.902839 4.148229
0.355013 -1.887629 4.910671
0.338299 -1.798762 5.222722
0.386597 -2.055565 6.152797
0.402465 -2.139936 6.290793
0.407785 -2.168224 6.982709
0.397103 -2.111428 7.501473
0.382810 -2.035428 7.846356
0.385659 -2.050575 8.537452
0.367840 -1.955834 8.870004
0.366407 -1.948215 9.715032
0.176775 -2.134188 0.982477
0.162009 -1.955916 1.816299
0.162386 -1.960471 2.189128
0.163455 -1.973377 2.333294
0.171176 -2.066591 3.377543
0.167236 -2.019024 3.579479
0.161920 -1.954847 4.299409
0.160932 -1.942920 4.521001
0.156414 -1.888377 4.908561
0.153710 -1.855733 5.374517
0.175599 -2.119990 6.296185
0.184722 -2.230139 6.623522
0.175842 -2.122929 6.989286
0.168828 -2.038243 7.592182
0.171961 -2.076072 8.371106
0.161547 -1.950345 8.466727
-0.032144 -1.572789 0.216207
-0.033386 -1.633556 0.772538
-0.037389 -1.829426 1.285293
-0.041223 -2.017022 2.461227
-0.040053 -1.959747 2.106715
-0.041480 -2.029603 2.820117
-0.040760 -1.994327 3.353262
-0.040664 -1.989652 4.167556
-0.040274 -1.970570 4.354345
-0.042047 -2.057312 5.211478
-0.040137 -1.963881 5.374331
-0.041827 -2.046552 5.968144
-0.045130 -2.208173 6.413286
-0.046306 -2.265687 7.193307
-0.042299 -2.069646 7.235177
-0.041921 -2.051146 8.033174
-0.039260 -1.920977 8.280110
-0.039986 -1.956468 8.850843
-0.040030 -1.958640 9.724035
-0.189143 -1.818883 0.573176
-0.219882 -2.114489 1.639983
-0.209773 -2.017278 2.018273
-0.200570 -1.928774 1.838722
-0.203939 -1.961175 2.507297
-0.200579 -1.928857 2.906906
-0.200328 -1.926444 3.662350
-0.209078 -2.010594 4.352676
-0.211847 -2.037214 4.779379
-0.213723 -2.055263 5.003115
-0.218844 -2.104506 5.599470
-0.216465 -2.081629 6.464919
-0.223156 -2.145970 6.900900
-0.214118 -2.059057 6.770708
-0.209832 -2.017839 7.537400
-0.206403 -1.984866 8.104067
-0.219607 -2.111842 8.946024
-0.395775 -1.885067 0.447115
-0.428775 -2.042245 0.854603
-0.398906 -1.899979 1.493362
-0.398551 -1.898290 1.845596
-0.417591 -1.988978 2.840665
-0.412809 -1.966197 3.637857
-0.393492 -1.874193 3.855428
-0.357730 -1.703857 3.874932
-0.425139 -2.024929 5.016794
-0.496840 -2.366437 5.461104
-0.494062 -2.353204 6.949034
-0.419965 -2.000285 7.324375
-0.396938 -1.890606 7.649001
-0.384585 -1.831770 8.045179
-0.388835 -1.852012 8.665126
-0.455567 -1.487600 0.663151
-0.565184 -1.845540 0.632806
-0.609958 -1.991745 1.340974
