2.068721 -0.733717 3.433372
2.007825 -0.719042 4.019260
2.063723 -0.921242 1.573191
2.026859 -0.913699 2.260871
1.990014 -0.903582 2.772490
2.013675 -0.925555 3.639569
1.877617 -0.871130 4.332118
2.009412 -1.122942 1.383998
2.033488 -1.145649 2.028606
2.027540 -1.152231 2.723085
1.929706 -1.106770 3.477728
1.875752 -1.083841 4.091438
1.969301 -1.339247 1.492874
1.988413 -1.360720 2.033487
1.979134 -1.364449 2.679867
1.928320 -1.341293 3.465137
1.822858 -1.277863 4.169849
1.982882 -1.639029 1.819130
1.943923 -1.615542 2.315451
1.931366 -1.620065 3.166503
1.905729 -1.611139 3.892164
1.698040 -1.442724 4.388373
1.905393 -1.898225 2.109561
1.917446 -1.925236 2.831875
1.873574 -1.891213 3.330686
1.823732 -1.857224 4.161714
1.928675 -2.278376 1.558307
1.901068 -2.266198 2.378296
1.886619 -2.260693 2.849807
1.873432 -2.663659 1.472879
1.835956 -2.622374 1.867654
1.820823 -2.618889 2.462574
1.867720 -3.215618 1.138361
1.833378 -3.184377 1.823169
1.816844 -3.179586 2.409680
1.789246 -3.148859 2.846733
1.770172 -3.153469 3.791470
1.696060 -3.042499 4.347288
1.573876 -3.419614 1.629768
1.556469 -3.412839 2.250235
1.544118 -3.417485 2.880733
1.503414 -3.352908 3.403452
1.453413 -3.277431 4.160133
1.233156 -3.403493 1.177772
1.222704 -3.399644 1.601256
1.215714 -3.431456 2.456414
1.198034 -3.427353 3.217417
1.132734 -3.270525 3.754437
1.047971 -3.072553 4.646823
0.879511 -3.389784 1.362635
0.862981 -3.379003 2.050829
0.843998 -3.359430 2.760332
0.810759 -3.279272 3.452428
0.762476 -3.124983 4.031140
0.554856 -3.308229 1.423167
0.524099 -3.197549 2.102658
0.495539 -3.122302 3.033434
0.486753 -3.142225 3.712573
0.453363 -2.976987 4.204618
0.238757 -3.275243 1.526247
0.215190 -3.150151 2.364181
0.202612 -3.127454 3.008337
0.192863 -3.137939 3.615069
0.173544 -3.032177 4.405903
-0.046497 -3.090812 1.681519
-0.054980 -3.070959 2.205047
-0.070631 -3.136517 3.044813
-0.083655 -3.117440 3.839490
-0.085789 -2.864767 4.447083
-0.292656 -3.129125 1.121805
-0.297651 -3.058412 1.810690
-0.301072 -3.012071 2.290674
-0.311187 -2.993382 3.019537
-0.325267 -3.014139 3.738295
-0.318107 -2.835741 4.542328
-0.580874 -3.137063 1.047299
-0.563722 -2.971942 1.849986
-0.567561 -2.923264 2.644072
-0.591404 -2.983641 3.358049
-0.837710 -2.997573 0.949277
-0.845042 -2.961827 1.938580
-0.846296 -2.927784 2.574192
-0.854210 -2.922174 3.127039
-0.859803 -2.906097 3.729147
-0.772163 -2.575654 4.442252
-1.124558 -2.942547 1.322356
-1.095953 -2.844572 1.821182
-1.120459 -2.868656 2.663629
-1.135550 -2.875331 3.353067
-1.413732 -2.914457 1.009369
-1.364876 -2.782046 1.827599
-1.359635 -2.746935 2.471769
-1.373817 -2.756784 2.967150
-1.403628 -2.783656 3.830366
-1.779160 -2.952865 1.247261
-1.718048 -2.826047 1.970942
-1.699953 -2.765880 2.860832
-1.709073 -2.762053 3.410834
-1.707742 -2.742353 3.937225
-2.106983 -2.879261 1.116552
-2.109053 -2.867881 1.540663
-2.109026 -2.839104 2.409798
-2.031294 -2.695856 3.663315
-1.941787 -2.561529 4.216149
-2.464878 -2.777031 1.605365
-2.458318 -2.705843 3.695999
-2.342026 -2.562565 4.257031
-2.875780 -2.693994 2.085289
-2.885637 -2.682921 2.756469
-2.922410 -2.691266 3.606398
-2.855996 -2.617427 4.051267
-3.350366 -2.644100 1.110506
-3.387127 -2.650581 1.832594
-3.400117 -2.637180 2.592920
-3.373280 -2.604464 2.986852
-3.356191 -2.571714 3.640663
-3.654302 -2.363241 1.847334
-3.675920 -2.351421 2.720698
-3.626107 -1.887363 2.405225
-3.599435 -1.861109 2.889982
-3.593804 -1.538061 1.515439
-3.587831 -1.519776 2.177599
-3.621919 -1.517105 2.892144
-3.479590 -1.147049 0.987531
-3.490373 -1.134324 1.742416
-3.478269 -1.118638 2.292986
-3.526123 -1.115714 3.138411
-3.463312 -1.080192 3.890319
-3.455801 -0.796310 1.216479
-3.464889 -0.784874 1.884119
-3.460648 -0.770970 2.526907
-3.384889 -0.738783 3.315700
-3.288636 -0.705172 3.995031
-3.448033 -0.484035 0.722073
-3.435454 -0.463660 1.680767
-3.440061 -0.454800 2.169749
-3.417002 -0.433804 3.107965
-3.278834 -0.409915 3.469260
-3.139755 -0.376705 4.398733
-3.337356 -0.159792 1.069784
-3.394622 -0.148715 1.802197
-3.297862 -0.130062 2.600425
-3.246586 -0.118094 3.162999
-3.486382 0.145167 1.010825
-3.450268 0.151118 1.400823
-3.295733 0.159587 2.244718
-3.173816 0.165652 2.940111
-3.182799 0.176846 3.555070
-3.127092 0.187440 4.365520
-3.288350 0.424313 1.052449
-3.355745 0.451500 2.029864
-3.234941 0.443012 2.466140
-3.103101 0.438759 3.275138
-3.100933 0.450355 3.967191
-2.795782 0.414058 4.527260
-3.251158 0.739942 1.533022
-3.116672 0.722004 2.242347
-3.079686 0.722718 2.767034
-3.108478 0.745117 3.637001
-3.038285 0.736515 4.116118
-3.206475 1.022596 1.050867
-3.149155 1.013023 1.506959
-3.052081 0.998544 2.415246
-3.032439 1.005097 3.122213
-3.024330 1.010496 3.564174
-2.857050 0.965927 4.241227
-3.188946 1.345137 0.894202
-3.175564 1.348130 1.310496
-3.044486 1.307467 2.070725
-2.922914 1.267777 2.737656
-2.957565 1.301884 3.725235
-2.881473 1.279446 4.325829
-3.136666 1.664355 1.333560
-3.143884 1.686009 2.127205
-3.066508 1.657407 2.722163
-2.998566 1.638997 3.585503
-2.950355 1.621688 4.022200
-3.058152 1.971432 0.979299
-3.032262 1.971575 1.682150
-3.047663 2.002312 2.537238
-2.980796 1.965236 2.833036
-2.946589 1.965235 3.800042
-2.967692 2.332508 1.297648
-2.978884 2.354141 1.771562
-2.992623 2.388248 2.622033
-2.994899 2.409795 3.340819
-1.978069 2.680115 1.460501
-1.942870 2.649627 2.026891
-1.932662 2.657162 2.729484
-1.605782 2.645861 1.187393
-1.589242 2.647259 2.066443
-1.573080 2.635291 2.526595
-1.557256 2.633328 3.282448
-1.285368 2.620586 1.156885
-1.275782 2.615624 1.561783
-1.275104 2.646496 2.444275
-1.248509 2.618783 3.205253
-1.226909 2.598257 3.895567
-1.117917 2.382899 4.393220
-1.045142 2.706729 0.413244
-0.969570 2.533673 0.969855
-0.960433 2.534517 1.571052
-0.948089 2.534497 2.358996
-0.925051 2.505790 3.161861
-0.912585 2.497435 3.779831
-0.780006 2.159436 4.522291
-0.693206 2.447470 1.160487
-0.678803 2.429108 1.812515
-0.670311 2.448868 2.800056
-0.660470 2.430138 3.138643
-0.649337 2.441345 4.152265
-0.491152 2.463404 0.938425
-0.483332 2.454985 1.385219
-0.466414 2.439997 2.411818
-0.457696 2.426044 2.862014
-0.448509 2.445268 3.808511
-0.400935 2.228060 4.469427
-0.256378 2.511908 0.259997
-0.236211 2.400076 0.931863
-0.226141 2.409274 1.771262
-0.218978 2.425759 2.433967
-0.207022 2.368927 2.972970
-0.034857 2.403090 1.417238
-0.024646 2.394747 2.202775
-0.018625 2.377437 2.663171
-0.009301 2.341436 3.390461
0.001889 2.243494 4.310317
0.176230 2.433806 1.052199
0.183443 2.391821 1.847119
0.192289 2.404342 2.454377
0.198988 2.351523 3.322690
0.386716 2.333095 1.045181
0.394901 2.348159 1.483549
0.403833 2.340228 2.278999
0.408477 2.316501 2.965803
0.419982 2.311851 3.937186
0.602212 2.322809 1.324047
0.623452 2.372866 1.928171
0.619485 2.331110 2.454377
0.598470 2.217497 3.187336
0.603915 2.193018 4.154469
0.804237 2.248200 0.969837
0.810483 2.242935 1.567466
0.849069 2.313711 2.488003
0.843799 2.279888 3.005886
0.829806 2.212376 3.831720
0.722994 1.908367 4.498491
1.018043 2.202524 1.369642
1.012361 2.175318 1.856439
1.040511 2.206232 2.808256
1.032237 2.168360 3.488059
0.969360 2.020328 4.082582
1.245337 2.155408 1.022773
1.249968 2.148474 1.581479
1.265817 2.156762 2.289272
1.305620 2.197732 3.275529
1.519425 2.168702 1.277361
1.515049 2.146839 1.909040
1.530556 2.147481 2.773348
1.523239 2.123442 3.344835
1.857548 2.183096 1.085067
1.858823 2.164721 1.914799
1.847121 2.135227 2.591417
1.826105 2.101117 3.021268
1.820625 2.072877 3.992927
2.150367 2.136877 0.713595
2.155613 2.126250 1.391338
2.175791 2.128144 2.160970
2.195638 2.128036 2.996777
2.178137 2.100719 3.452041
2.103415 2.008591 4.385464
2.528673 2.104824 1.035086
2.485524 2.051244 1.802594
2.474353 2.024770 2.562708
2.437670 1.982942 3.099519
2.427102 1.958216 3.839490
2.477018 1.690323 1.291662
2.453362 1.659256 2.055810
2.461079 1.650481 2.774375
2.442800 1.623875 3.526501
2.331891 1.540386 4.082129
2.362710 1.334740 0.997557
2.413479 1.351472 1.688600
2.423788 1.342275 2.558372
2.398990 1.319908 3.071860
2.381945 1.298263 3.811232
2.057815 1.110380 4.649763
2.342145 1.057201 1.187455
2.325597 1.040199 1.820466
2.291718 1.016781 2.382184
2.314491 1.014269 3.231503
2.316982 0.813750 0.679304
2.314732 0.803713 1.340723
2.341730 0.799950 2.272350
2.311329 0.782065 2.817564
2.271292 0.757236 3.658420
2.083583 0.686885 4.316546
2.305441 0.573569 1.352993
2.352625 0.578923 1.827144
2.366312 0.569971 2.743089
2.232469 0.532523 3.168640
2.210801 0.515650 4.117052
2.225977 0.360902 1.460891
2.237485 0.354481 2.135970
2.233637 0.346182 2.766463
2.189243 0.332109 3.374672
2.040370 0.302097 4.065602
2.518838 0.177783 0.278568
2.306269 0.154761 0.925246
2.202613 0.140928 1.509879
2.239112 0.130864 2.541823
2.226667 0.124647 3.004694
2.195661 0.112089 3.935581
1.871246 0.089695 4.568417
2.281544 -0.047757 1.506587
2.233001 -0.052903 2.025156
2.211130 -0.061373 2.789223
2.151741 -0.067933 3.513445
2.013090 -0.071642 4.291227
2.236124 -0.236929 1.301772
2.194926 -0.241027 2.017256
2.162829 -0.244970 2.659939
2.212120 -0.260671 3.505829
2.102560 -0.251931 3.887738
2.404565 -0.471893 0.316405
2.193662 -0.438163 0.945999
2.176537 -0.445195 1.809725
2.190495 -0.456067 2.466918
2.179700 -0.459982 2.976596
2.130754 -0.458926 3.766794
1.778700 -0.388423 4.353784
2.191960 -0.645334 1.572046
2.167609 -0.644431 2.070472
2.159408 -0.649898 2.700954
2.087942 -0.638796 3.567182
1.935920 -0.598981 4.184531
2.108888 -0.838718 1.188570
2.084772 -0.837129 1.808410
2.073421 -0.845520 2.815291
2.067678 -0.849837 3.334773
1.989568 -0.828367 4.207048
2.111464 -1.049103 0.774608
2.157641 -1.085165 1.678114
2.184909 -1.107681 2.274012
2.122368 -1.086968 3.047567
2.100352 -1.087020 3.850379
1.896258 -0.989001 4.476183
2.116429 -1.319558 1.171485
2.069779 -1.299428 1.751352
2.089957 -1.325872 2.627510
2.055917 -1.315875 3.380605
2.040698 -1.529430 1.336797
2.041785 -1.541950 2.015299
2.060330 -1.569955 2.814492
2.002867 -1.532211 3.175790
1.946247 -1.502558 4.009501
2.096271 -1.905885 1.519253
2.062018 -1.888958 2.213896
2.021628 -1.866555 2.940491
1.974083 -1.836829 3.663449
1.869725 -1.754128 4.449225
2.048155 -2.216771 1.721885
2.055595 -2.244390 2.519331
1.984641 -2.182692 3.191346
1.942875 -2.153406 3.911063
2.037186 -2.639060 1.523957
2.003310 -2.613554 2.144892
1.988890 -2.610703 2.684091
1.943081 -2.571646 3.413379
2.023541 -3.180822 1.737128
1.994657 -3.162318 2.431068
1.968383 -3.140872 2.956817
1.937457 -3.115431 3.585547
1.876275 -3.042168 4.271275
1.704561 -3.284826 1.327508
1.695779 -3.295343 1.938321
1.679041 -3.285462 2.443727
1.628626 -3.223026 3.273787
1.585851 -3.171497 4.046196
1.426631 -2.870330 4.532005
1.355046 -3.323092 1.620460
1.337334 -3.302369 2.055191
1.316844 -3.293475 2.853188
1.265641 -3.203099 3.600885
1.191848 -3.048505 4.282541
1.029426 -3.358283 1.597092
1.013755 -3.349072 2.231256
0.965174 -3.221176 2.750527
0.914804 -3.096511 3.467945
0.883806 -3.035233 4.195085
0.686190 -3.223308 1.198455
0.659102 -3.170150 2.066295
0.637497 -3.100549 2.473524
0.617880 -3.077040 3.320731
0.610391 -3.087853 3.873105
0.375064 -3.157398 1.430658
0.355395 -3.099243 2.174394
0.339176 -3.044099 2.766149
0.334091 -3.116268 3.523889
0.312808 -3.017660 4.183218
0.112635 -3.063094 1.042080
0.095924 -3.030723 1.978059
0.089334 -3.060363 2.426076
0.076806 -3.075296 3.197805
-0.161444 -3.096674 1.342589
-0.172500 -3.060706 2.113675
-0.185635 -3.028729 3.017297
-0.191187 -2.979791 3.548769
-0.196137 -2.902026 4.189508
-0.454531 -3.110677 1.149155
-0.446756 -2.987271 1.767638
-0.465365 -3.015488 2.619904
-0.477643 -3.035437 3.161263
-0.475998 -2.966815 3.722755
-0.434635 -2.629691 4.643016
-0.697255 -2.965154 1.216596
-0.708942 -2.967396 1.866893
-0.718430 -2.971480 2.362098
-0.730225 -2.972584 3.033336
-0.746598 -2.970971 4.012584
-0.654126 -2.573487 4.569028
-1.004586 -2.987965 1.377044
-1.013641 -2.962664 2.347706
-1.017500 -2.938772 3.019703
-1.005312 -2.881584 3.458624
-0.972858 -2.757839 4.113018
-1.301724 -2.992559 0.981360
-1.290139 -2.940092 1.566077
-1.276957 -2.880165 2.263929
-1.270279 -2.827136 3.177173
-1.285706 -2.842765 3.626880
-1.660224 -3.018322 1.174988
-1.653449 -2.976598 1.928847
-1.621991 -2.897332 2.535002
-1.631310 -2.877979 3.505549
-1.988649 -2.947252 1.441621
-1.994981 -2.930887 2.173851
-1.946446 -2.838723 2.798552
-1.911502 -2.764214 3.527483
-1.901801 -2.726152 4.285231
-2.372155 -2.922430 0.993479
-2.362405 -2.892586 1.532505
-2.392564 -2.901191 2.384482
-2.378696 -2.867927 2.891877
-2.777821 -2.885618 1.430874
-2.815259 -2.892983 2.391171
-2.842632 -2.901251 2.996394
-2.832392 -2.868843 3.680783
-2.747348 -2.771007 4.074925
-3.287066 -2.850050 1.310068
-3.262639 -2.809438 1.911799
-3.293860 -2.812815 2.634884
-3.334866 -2.818748 3.527287
-3.580899 -2.554756 1.791829
-3.520742 -2.471556 3.143004
-3.518663 -2.447250 3.919778
-3.481219 -2.021115 1.830433
-3.486376 -2.013369 2.240302
-3.490130 -1.999930 2.838937
-3.493883 -1.983502 3.556512
-3.386524 -1.622718 1.432897
-3.419971 -1.624848 2.023328
-3.454738 -1.623351 2.784856
-3.489831 -1.620227 3.611217
-3.403157 -1.280163 0.889478
-3.453025 -1.284906 1.525866
-3.437019 -1.267385 2.057953
-3.431672 -1.247262 2.898454
-3.426480 -1.231193 3.561313
-3.271099 -1.165554 4.064343
-3.395477 -0.935703 1.235426
-3.440307 -0.930815 2.073196
-3.364209 -0.898286 2.677044
-3.298651 -0.869095 3.284509
-3.195701 -0.830669 3.901211
-3.442391 -0.612139 1.218319
-3.409906 -0.599132 1.590475
-3.419308 -0.582946 2.505545
-3.285587 -0.551674 2.972286
-3.232383 -0.526253 3.885961
-3.029993 -0.481144 4.634442
-3.451358 -0.316337 1.056733
-3.430242 -0.301742 1.718176
-3.309481 -0.282424 2.197696
-3.232328 -0.259845 3.099377
-3.199937 -0.249813 3.525128
-3.030207 -0.222195 4.415048
-3.366993 0.019802 1.096147
-3.452140 0.035365 1.880783
-3.296329 0.039391 2.199345
-3.226736 0.051345 2.926633
-3.243085 0.067712 3.834328
-3.027287 0.074144 4.528114
-3.251988 0.295124 1.044947
-3.158036 0.299697 1.796184
-3.094683 0.303866 2.395089
-3.160129 0.328865 3.454902
-3.328083 0.601851 0.733306
-3.195644 0.588168 1.300227
-3.063101 0.578238 2.137899
-3.113631 0.600561 2.858137
-3.120407 0.612913 3.482224
-3.101063 0.625281 4.407844
-3.150301 0.868066 1.117612
-3.149165 0.879489 1.745404
-3.117307 0.883920 2.467986
-3.073492 0.884000 3.158622
-3.055230 0.893198 3.961301
-3.246549 1.201598 0.921292
-3.229605 1.214146 1.844652
-3.116773 1.181907 2.369962
-3.059654 1.176246 3.206040
-3.024765 1.170327 3.604318
-2.882500 1.126932 4.268345
-3.187767 1.525360 0.811088
-3.179264 1.535031 1.442711
-3.174600 1.553051 2.373759
-3.078575 1.518724 2.981457
-3.019960 1.503391 3.645208
-3.005250 1.507180 4.188284
-3.171151 1.889287 1.067491
-3.114491 1.863793 1.420381
-3.109230 1.883378 2.384559
-3.083435 1.882793 3.028704
-2.980757 1.833874 3.649605
-2.908599 1.802779 4.263408
-3.088394 2.266041 1.438555
-3.136367 2.324308 2.284525
-3.113268 2.316879 2.644790
-3.086247 2.319699 3.501441
-2.968171 2.640482 2.538941
-2.031146 2.554279 0.981360
-2.008950 2.548592 1.755802
-1.989697 2.538538 2.258860
-1.967649 2.530474 2.965219
-1.688433 2.525893 0.978841
-1.680698 2.536287 1.711460
-1.685410 2.569904 2.581414
-1.650539 2.534713 3.184259
-1.391526 2.563692 1.101815
-1.357007 2.509995 1.407786
-1.342897 2.510315 2.219823
-1.323016 2.495673 2.915588
-1.293411 2.467871 3.793629
-1.218553 2.345313 4.476512
-1.085964 2.516272 1.061409
-1.056886 2.464166 1.479788
-1.033072 2.434211 2.186696
-1.028908 2.457576 3.087889
-1.018288 2.458471 3.798328
-0.926298 2.258451 4.474748
-0.893336 2.707502 0.377072
-0.788292 2.407792 0.807780
-0.786981 2.447713 1.791312
-0.796918 2.500984 2.271634
-0.772408 2.451235 2.872198
-0.751017 2.427446 3.849368
-0.659210 2.149400 4.347763
-0.626099 2.601604 0.360540
-0.586100 2.467471 0.909890
-0.582419 2.499873 1.707851
-0.565766 2.472118 2.436137
-0.548006 2.444063 3.261739
-0.536757 2.426362 3.799215
-0.454618 2.087301 4.457401
-0.364163 2.451181 0.530041
-0.347517 2.392773 1.136804
-0.339792 2.394436 1.743319
-0.329731 2.390732 2.473009
-0.318563 2.363147 3.047567
-0.127094 2.398830 1.389281
-0.119118 2.374487 1.913752
-0.106764 2.365222 2.851720
-0.098819 2.340295 3.399796
-0.084923 2.225669 4.179215
0.091194 2.445064 1.247660
0.100546 2.430654 2.004071
0.107872 2.400739 2.670549
0.113188 2.370554 3.199046
0.289600 2.312504 0.672454
0.303317 2.337374 1.503295
0.313035 2.346755 2.167071
0.319368 2.324806 2.900470
0.330053 2.327233 3.719744
0.303206 2.094104 4.297700
0.518655 2.366648 1.276514
0.524977 2.363728 1.799203
0.532534 2.344914 2.689186
0.537565 2.328113 3.366889
0.740530 2.344861 0.828166
0.755431 2.350924 1.759372
0.746321 2.303124 2.219795
0.773766 2.346816 3.171133
0.766955 2.296300 3.900674
0.650428 1.935132 4.306982
0.954854 2.284486 1.358339
0.954657 2.262935 1.974694
0.967119 2.264832 2.787601
0.957753 2.222193 3.420328
1.147835 2.162381 1.284886
1.171374 2.187087 1.973249
1.230344 2.267324 2.983460
1.229295 2.248149 3.584149
1.468450 2.258575 1.164614
1.477489 2.255608 1.793975
1.480190 2.242517 2.443912
1.491495 2.236153 3.337484
1.753582 2.232872 1.012275
1.797128 2.269282 1.755846
1.795609 2.252472 2.346837
1.788624 2.227621 2.996199
1.765549 2.180902 3.744799
2.114629 2.246518 0.867795
2.152930 2.272549 1.451039
2.167505 2.271678 2.099835
2.153783 2.242163 2.716408
2.131258 2.203623 3.346420
2.417638 2.174220 1.354753
2.384146 2.125144 2.160426
2.370850 2.104561 2.537295
2.327285 2.050912 3.204558
2.351680 1.762933 1.009276
2.324134 1.727219 1.774215
2.329153 1.716307 2.521385
2.317913 1.695680 3.161671
2.273465 1.651639 3.781632
2.029689 1.462444 4.551889
2.322159 1.430299 1.385310
2.312950 1.413291 2.043368
2.307740 1.395684 2.889394
2.310337 1.384626 3.635732
2.217122 1.320161 4.183295
2.271119 1.137666 1.049118
2.268968 1.128912 1.551314
2.274578 1.118499 2.417572
2.246729 1.093215 3.196697
2.240987 1.081124 3.827103
1.912608 0.914558 4.526389
2.507852 1.000023 0.249423
2.366745 0.930574 1.141927
2.293018 0.895086 1.601243
2.286407 0.882741 2.292624
2.239951 0.856297 2.914889
2.193216 0.828487 3.663741
1.948495 0.725454 4.598760
2.271879 0.665300 1.119811
2.279257 0.658163 1.820488
2.229184 0.634509 2.536285
2.191661 0.615045 3.236419
2.137562 0.592007 3.885895
2.208596 0.431993 1.348575
2.200566 0.420805 2.137523
2.193218 0.412335 2.721647
2.181289 0.401830 3.412150
2.037554 0.367539 4.131475
2.658785 0.291829 0.231118
2.320222 0.247487 0.803187
2.246924 0.230669 1.545118
2.178015 0.216974 2.112499
2.181715 0.208727 2.847507
2.137996 0.197622 3.457119
1.923121 0.170176 4.224899
2.673142 0.067128 -0.036979
2.333795 0.047598 0.840537
2.251976 0.039264 1.395375
2.224345 0.028294 2.279606
2.189253 0.021589 2.819377
2.146122 0.014059 3.447730
1.931783 0.004904 4.234346
2.520302 -0.158188 0.297139
2.287470 -0.153828 1.131613
2.173017 -0.149415 1.417182
2.154063 -0.159839 2.434754
2.173861 -0.167996 3.009052
2.164253 -0.177739 3.919661
1.840092 -0.155020 4.360147
2.271846 -0.358538 0.261715
2.188643 -0.355764 1.124718
2.220933 -0.370508 1.902017
2.173093 -0.367794 2.346876
2.140254 -0.372180 3.198909
2.182038 -0.555198 1.376655
2.147007 -0.556040 2.176555
2.158730 -0.565782 2.721647
2.154077 -0.574386 3.524562
1.986731 -0.537562 4.238006
2.183818 -0.772461 1.093420
2.152600 -0.767740 1.581397
2.124385 -0.768382 2.418339
2.079623 -0.760813 3.109958
2.045258 -0.756392 3.776173
1.755531 -0.655155 4.375960
2.133163 -0.974359 1.204642
2.112601 -0.974459 1.897867
2.118250 -0.984547 2.441078
2.107844 -0.994662 3.533030
2.058840 -0.980390 4.201234
2.142693 -1.228884 1.200246
2.150746 -1.246726 2.056920
2.100711 -1.227877 2.733779
2.057314 -1.211527 3.348243
2.155665 -1.508222 1.472712
2.114466 -1.489370 2.060166
2.123634 -1.512139 3.009065
2.094437 -1.503572 3.732518
1.934168 -1.396026 4.235695
2.173982 -1.842430 1.850424
2.147855 -1.835704 2.619028
2.132100 -1.836720 3.343645
2.088423 -1.812823 4.048251
2.181433 -2.216395 2.019275
2.159581 -2.213428 2.818880
2.110293 -2.179468 3.525222
2.033827 -2.115517 4.195594
2.183090 -2.611031 1.901710
2.142419 -2.570760 2.196047
2.140170 -2.592023 3.024408
2.146775 -3.080615 1.423947
2.143213 -3.103626 2.185911
2.109958 -3.069605 2.576269
1.779195 -3.188331 1.338504
1.763458 -3.199988 2.292986
1.759555 -3.211169 2.725766
1.713342 -3.164006 3.629645
1.650531 -3.079661 4.428491
1.466707 -3.262833 1.368546
1.448582 -3.256958 2.082198
1.417279 -3.222635 2.837312
1.364957 -3.122342 3.248332
1.300539 -3.015695 4.170434
1.144023 -3.232511 1.410918
1.102873 -3.159499 2.196047
1.068017 -3.100565 2.949501
1.045344 -3.070200 3.604318
1.000676 -2.967760 4.161722
0.862530 -3.332189 1.093673
0.838918 -3.289200 1.738862
0.788409 -3.122535 2.186100
0.747037 -3.005631 2.873660
0.741222 -3.044119 3.745458
0.684910 -2.855805 4.409755
0.491084 -3.041080 1.453206
0.482516 -3.045246 1.993382
0.474384 -3.072627 2.716408
0.464816 -3.082381 3.359700
0.449712 -3.044320 3.918278
0.220243 -3.044450 1.381160
0.206870 -3.001795 2.006992
0.194542 -3.007577 2.779414
0.182496 -3.038965 3.625820
0.169925 -2.935417 4.036618
-0.053552 -3.110703 0.903650
-0.063970 -3.013310 1.639522
-0.075023 -3.026151 2.290674
-0.093683 -3.085478 3.307409
-0.102467 -3.029185 3.951531
-0.095951 -2.677579 4.368316
-0.329809 -2.989839 1.511381
-0.342743 -3.002058 2.208330
-0.352650 -3.013715 2.722475
-0.363079 -3.002351 3.433743
-0.366940 -2.935418 4.183333
-0.612698 -3.074499 0.857381
-0.618060 -3.029212 1.690650
-0.626631 -3.016350 2.342074
-0.644835 -3.044884 3.047080
-0.664511 -3.072358 3.836640
-0.607679 -2.770572 4.413554
-0.906411 -3.028900 1.586645
-0.881302 -2.912523 2.151826
-0.900656 -2.935546 2.857526
-0.902141 -2.909653 3.403769
-0.883879 -2.821215 3.960306
-1.233958 -3.091110 1.397039
-1.185115 -2.946845 1.869051
-1.192811 -2.935740 2.519075
-1.208606 -2.941568 3.233839
-1.520703 -3.086235 1.048495
-1.511426 -3.027477 1.993660
-1.482964 -2.955985 2.353596
-1.490132 -2.931656 3.314984
-1.491117 -2.912228 3.858717
-1.881629 -3.085929 1.007007
-1.895336 -3.081573 1.700125
-1.925915 -3.107145 2.319918
-1.911186 -3.051507 3.165899
-1.844080 -2.931274 3.544011
-1.790596 -2.822960 4.236728
-2.278942 -3.070155 1.268878
-2.283006 -3.060211 1.698754
-2.290613 -3.045795 2.389793
-2.066144 -2.686247 4.396515
-2.759095 -3.086368 1.628854
-2.753345 -3.037365 2.858990
-3.242515 -3.028509 1.561225
-3.283881 -3.026082 2.738551
-3.264593 -2.993808 3.165954
-3.360044 -2.620705 1.552092
-3.344555 -2.578809 2.537175
-3.358023 -2.570180 3.167916
-3.366301 -2.556228 3.846424
-3.228455 -2.441359 4.228044
-3.315230 -2.131720 1.665583
-3.349959 -2.131561 2.512269
-3.360909 -2.121990 3.138948
-3.333179 -2.089782 3.709825
-3.276234 -1.729050 1.417151
-3.322367 -1.734694 2.205477
-3.317429 -1.713947 2.981445
-3.332290 -1.707465 3.586376
-3.319493 -1.385398 1.232625
-3.318250 -1.375119 1.683424
-3.356600 -1.371132 2.593073
-3.349892 -1.353321 3.291764
-3.253388 -1.305992 3.703718
-3.331140 -1.053682 1.146152
-3.345071 -1.042608 1.905005
-3.319568 -1.015693 2.850616
-3.256247 -0.984901 3.440796
-3.353270 -0.735953 0.777391
-3.330786 -0.717373 1.484344
-3.258693 -0.686129 2.324634
-3.166647 -0.654651 2.999377
-3.179272 -0.646129 3.613407
-3.060225 -0.607565 4.460004
-3.385266 -0.439067 0.985986
-3.385078 -0.419207 2.028338
-3.285514 -0.394503 2.709298
-3.167576 -0.374219 3.067592
-3.198612 -0.360493 4.049333
-2.848627 -0.315552 4.447083
-3.189482 -0.130417 1.101921
-3.304069 -0.119503 1.952797
-3.270220 -0.107442 2.556967
-3.162036 -0.090872 3.318261
-3.405760 0.171950 0.859376
-3.384351 0.185506 1.639323
-3.310761 0.190133 2.116076
-3.169703 0.195752 2.912788
-3.148979 0.208426 3.724449
-3.087596 0.213385 4.268345
-3.334392 0.467833 1.096147
-3.259258 0.468463 1.707793
-3.172484 0.467364 2.351553
-3.181535 0.486807 3.367901
-3.203456 0.502171 4.037230
-2.832955 0.450061 4.465467
-3.327073 0.784178 1.130666
-3.314759 0.788123 1.484344
-3.243330 0.789034 2.433412
-3.150594 0.773674 2.833565
-3.158502 0.791926 3.722459
-3.019574 0.765629 4.228688
-3.275073 1.086519 1.328562
-3.217074 1.074267 1.684570
-3.191171 1.082008 2.522147
-3.129445 1.075272 3.267151
-3.291782 1.426932 0.953799
-3.295995 1.448043 1.836311
-3.198159 1.412338 2.186155
-3.128937 1.402823 3.209742
-3.136544 1.418721 3.811470
-3.000564 1.365925 4.270278
-3.228231 1.771381 1.481019
-3.233092 1.790327 2.172966
-3.248222 1.814275 2.829166
-3.179980 1.789154 3.397046
-3.167648 1.801297 4.225729
-3.269788 2.149678 0.962219
-3.268609 2.171277 1.809336
-3.271278 2.188215 2.380699
-3.276084 2.212659 3.176930
-3.221033 2.185371 3.561174
-3.094494 2.476247 1.602060
-3.096203 2.496520 2.261514
-3.068525 2.492539 2.907730
-2.994412 2.450839 3.581720
-2.642047 2.527781 1.464190
-2.496336 2.418285 2.595816
-2.120226 2.423088 1.748021
-2.099070 2.411083 2.205939
-2.063373 2.390823 2.996984
-1.760675 2.422514 1.181780
-1.738570 2.408061 1.761105
-1.730003 2.419383 2.598259
-1.690025 2.377054 3.101933
-1.450044 2.421987 1.270777
-1.435607 2.424003 2.147825
-1.403222 2.391150 2.892238
-1.374923 2.361338 3.528896
-1.312013 2.268969 4.103124
-1.281360 2.631322 0.431289
-1.158891 2.396599 0.943542
-1.128212 2.352692 1.547899
-1.118355 2.362145 2.467830
-1.111787 2.370057 3.129465
-1.093101 2.344888 3.581529
-0.962414 2.085259 4.332133
-1.002591 2.616875 0.478940
-0.928119 2.444856 1.046807
-0.919566 2.444095 1.594210
-0.908893 2.451099 2.477091
-0.877437 2.395336 3.219863
-0.855147 2.355312 3.759285
-0.743617 2.066524 4.335297
-0.650873 2.355865 1.173203
-0.643931 2.372401 2.011910
-0.639680 2.382242 2.515908
-0.621565 2.355770 3.334060
-0.593214 2.280278 3.993180
-0.436235 2.360732 1.352005
-0.424413 2.357579 2.212096
-0.415697 2.347630 2.747094
-0.406182 2.363560 3.695702
-0.363718 2.149386 4.204014
-0.264694 2.588138 0.426190
-0.237248 2.372663 0.848634
-0.225274 2.351752 1.624592
-0.216834 2.379244 2.484137
-0.205076 2.322374 3.014656
-0.001544 2.409002 1.547687
0.005900 2.390142 2.128202
0.016524 2.401189 2.952167
0.022892 2.374641 3.471945
0.029838 2.185503 4.250908
0.197018 2.392601 1.352005
0.206746 2.383541 2.165490
0.213987 2.361084 2.889032
0.219584 2.340550 3.483803
0.210361 2.162904 4.147732
0.424155 2.383322 1.220632
0.425784 2.354799 1.735272
0.436713 2.355157 2.568032
0.448551 2.366658 3.308540
0.632384 2.348239 1.500003
0.632666 2.323738 2.014853
0.637212 2.302130 2.803033
0.649204 2.304498 3.658420
0.604568 2.116334 4.372794
0.865650 2.319363 1.349040
0.859568 2.277580 2.032002
0.867721 2.273263 2.733779
0.883786 2.287416 3.492287
1.072926 2.253691 1.227247
1.089393 2.271528 1.756796
1.104209 2.281550 2.417572
1.120493 2.284149 3.407872
1.379772 2.336072 0.979089
1.391855 2.344966 1.376079
1.401930 2.344494 1.977262
1.399147 2.318668 2.721064
1.694762 2.399950 0.972586
1.728610 2.422525 1.871064
1.735046 2.412303 2.561606
1.712984 2.365826 3.147824
2.129862 2.439489 0.982097
2.144221 2.445273 1.372927
2.135139 2.412615 2.204291
2.103069 2.362017 2.757922
2.240944 2.201744 1.085336
2.225940 2.166257 1.955390
2.190611 2.117803 2.565049
2.117101 2.036081 3.053777
2.139171 2.037573 3.941970
2.236712 1.818519 1.507816
2.218720 1.788786 2.265809
2.147922 1.724078 2.670948
2.125622 1.692898 3.381201
2.079758 1.642777 4.137132
2.181590 1.483406 0.981257
2.175787 1.464984 1.825718
2.164899 1.448834 2.347418
2.183299 1.447553 3.147985
2.149607 1.416231 3.695432
2.162684 1.196801 1.246747
2.171299 1.191631 1.898866
2.182120 1.184927 2.729788
2.140543 1.154163 3.287509
2.089365 1.115098 4.095808
2.154181 0.948555 1.428642
2.189924 0.954737 2.109558
2.220589 0.957522 2.856881
2.129806 0.911291 3.392925
2.002815 0.845097 4.357188
2.166065 0.737036 0.982023
2.150194 0.721903 1.741610
2.148193 0.711893 2.474483
2.157060 0.702846 3.416564
2.253098 0.540454 1.112104
2.235122 0.527378 1.805779
2.203072 0.511774 2.455769
2.182981 0.499152 3.107705
2.179406 0.319786 1.406779
2.155577 0.310218 1.924927
2.201063 0.304943 2.911025
2.144775 0.291775 3.379559
2.060593 0.271381 4.197333
2.618931 0.163760 0.074067
2.251250 0.133743 0.655209
2.250431 0.124296 1.432813
2.206804 0.114673 2.045370
2.165085 0.103144 2.858953
2.157512 0.094542 3.579147
1.933692 0.078031 4.262686
2.373944 -0.067108 0.251816
2.294895 -0.076969 1.234445
2.195166 -0.080348 1.811040
2.192655 -0.089066 2.564266
2.263599 -0.101956 3.388497
2.243245 -0.281769 1.591906
2.177841 -0.280990 2.225013
2.208231 -0.293922 2.976596
2.152272 -0.291969 3.454621
1.975796 -0.274995 4.130962
2.403490 -0.487320 0.483904
2.242158 -0.461286 1.019422
2.246506 -0.471818 1.787084
2.203778 -0.469541 2.334110
2.183066 -0.477159 3.325408
2.342996 -0.709777 1.284886
2.265491 -0.692504 1.755196
2.191729 -0.680307 2.566176
2.145428 -0.673965 3.210687
2.135420 -0.678949 3.864360
2.171065 -0.873574 1.055280
2.143873 -0.870639 1.654993
2.179627 -0.894979 2.373985
2.138655 -0.888073 3.119629
2.126012 -0.894471 3.998976
1.822618 -0.771024 4.410624
2.260753 -1.153866 0.984147
2.266642 -1.170805 1.885417
2.260797 -1.179156 2.621748
2.183440 -1.146062 3.115328
2.114353 -1.120642 3.875548
2.279293 -1.440993 1.238526
2.234774 -1.423223 1.852130
2.253646 -1.449421 2.676853
2.182725 -1.412490 3.205887
2.309228 -1.781978 1.699475
2.303239 -1.785293 2.095580
2.307676 -1.806585 2.980386
2.249115 -1.772412 3.580289
2.102831 -1.668274 4.208052
2.325634 -2.151594 2.152931
2.290044 -2.138361 2.999218
2.302035 -3.053107 1.805938
2.278746 -3.034548 2.157432
1.901099 -3.055569 1.277589
1.894474 -3.072333 1.998149
1.879193 -3.069215 2.568058
1.828121 -3.018678 3.454936
1.767182 -2.932639 3.868574
1.586891 -3.132165 1.570043
1.569315 -3.123461 2.177135
1.548550 -3.113988 2.922827
1.488575 -3.020692 3.590879
1.400846 -2.877526 4.495603
1.244272 -3.089913 1.460501
1.198691 -2.997962 1.911726
1.196430 -3.030155 2.695186
1.171421 -2.999796 3.386093
0.896348 -2.988134 1.177384
0.872682 -2.956590 1.984249
0.868226 -2.986114 2.725534
0.865543 -3.008376 3.238658
0.628648 -3.083339 1.788411
0.611393 -3.042333 2.303820
0.591397 -3.017986 3.188670
0.584438 -3.045552 3.906246
0.523958 -2.778542 4.536463
0.345104 -3.109776 1.414557
0.330636 -3.025066 1.720604
0.311358 -2.985864 2.632955
0.301058 -3.000835 3.351389
0.062745 -3.118293 1.735008
0.053040 -2.994347 2.182501
0.041803 -2.996366 2.873056
0.031142 -2.982864 3.521288
0.018495 -2.790307 4.251014
-0.210395 -3.047065 1.426867
-0.219076 -3.067549 1.856368
-0.234615 -3.095027 2.652520
-0.245949 -3.066936 3.456058
-0.474470 -3.006880 1.161734
-0.490534 -3.051992 1.681519
-0.501107 -3.058036 2.239922
-0.507144 -3.016152 3.005917
-0.519742 -3.026979 3.641406
-0.486225 -2.766841 4.398381
-0.737227 -3.035466 1.286856
-0.745505 -3.018023 2.001023
-0.756927 -3.026422 2.531958
-0.768477 -3.017260 3.323202
-1.081986 -3.172339 1.359750
-1.057333 -3.073297 1.846685
-1.047062 -3.011495 2.444365
-1.076117 -3.050115 3.274482
-1.429748 -3.206946 1.570043
-1.400992 -3.116773 2.127810
-1.388760 -3.053044 2.942883
-1.408646 -3.065299 3.645208
-1.782703 -3.195294 1.518049
-1.789702 -3.189393 1.959218
-1.793054 -3.132485 3.501079
-2.174545 -3.190196 1.553442
-2.693003 -3.248858 2.493062
-3.129111 -3.128453 2.547841
-3.234699 -2.741471 1.632656
-3.191541 -2.687887 2.185823
-3.191957 -2.664791 2.951859
-3.220799 -2.666742 3.672758
-3.152602 -2.597246 4.124156
-3.173841 -2.227402 1.365031
-3.194106 -2.231120 1.757253
-3.198624 -2.215710 2.455645
-3.212127 -2.207468 3.119405
-3.247096 -2.206417 4.062927
-3.218719 -1.855763 1.650171
-3.196458 -1.834394 2.011549
-3.203218 -1.821866 2.705765
-3.227234 -1.818002 3.445702
-3.239495 -1.498758 1.161557
-3.233556 -1.487945 1.531659
-3.229144 -1.471027 2.218884
-3.184299 -1.432511 3.076230
-3.074899 -1.373110 3.590879
-3.160888 -1.136085 1.522812
-3.196126 -1.136638 2.129411
-3.257537 -1.142492 2.915994
-3.137823 -1.087093 3.623461
-3.069726 -1.051790 4.258464
-3.295241 -0.888120 0.958857
-3.226265 -0.857046 1.614600
-3.144919 -0.823460 2.266258
-3.092703 -0.799520 2.837800
-3.181661 -0.805857 3.728762
-3.000908 -0.748075 4.445047
-3.374229 -0.586946 1.311484
-3.333093 -0.567743 1.948402
-3.236826 -0.538158 2.675012
-3.157086 -0.511892 3.415925
-3.416110 -0.293593 0.560469
-3.235290 -0.266288 1.218432
-3.222682 -0.260044 1.510353
-3.236516 -0.248911 2.193553
-3.232699 -0.232805 3.081197
-3.197466 -0.215443 3.931057
-2.941598 -0.189757 4.492300
-3.422337 0.028397 1.248202
-3.256075 0.039593 1.955727
-3.156250 0.050886 2.685024
-3.200463 0.064926 3.443229
-3.473343 0.331517 1.001802
-3.473196 0.344163 1.652434
-3.341847 0.344692 2.386300
-3.180516 0.336598 2.883312
-3.260275 0.360092 3.710603
-3.114401 0.351729 4.179961
-3.356513 0.626262 1.013115
-3.208771 0.610861 1.681825
-3.169691 0.621064 2.660831
-3.155521 0.626015 3.092595
-3.168420 0.640143 3.734327
-2.923105 0.604019 4.580607
-3.319518 0.938086 1.301463
-3.269856 0.934863 1.856479
-3.196059 0.928520 2.634744
-3.153812 0.928781 3.305907
-3.196650 0.958320 4.191412
-3.282051 1.247842 0.901869
-3.271084 1.253822 1.389692
-3.356478 1.305316 2.260494
-3.407875 1.342056 3.024128
-3.278222 1.299170 3.427900
-3.143481 1.260570 4.185156
-3.362252 1.620939 0.752444
-3.361053 1.641186 1.648917
-3.366975 1.658951 2.286038
-3.388348 1.685986 2.985866
-3.356309 1.686455 3.693791
-3.412261 2.064326 0.960010
-3.404125 2.075529 1.574173
-3.385624 2.091832 2.627838
-3.391026 2.106465 3.056593
-3.353873 2.099740 3.689212
-3.122709 2.286781 1.186680
-3.096948 2.284181 1.795637
-3.075487 2.292736 2.711322
-3.041544 2.286951 3.453149
-2.151121 2.266965 1.323344
-2.131191 2.262494 1.991897
-2.116360 2.260792 2.561234
-1.839585 2.347194 1.494185
-1.815414 2.325949 1.863285
-1.788812 2.309965 2.565407
-1.753603 2.280993 3.216812
-1.530549 2.339714 1.216450
-1.498368 2.309434 1.911245
-1.473649 2.289649 2.589841
-1.457908 2.284530 3.307329
-1.220883 2.256270 1.057622
-1.236438 2.302089 1.631256
-1.219749 2.285845 2.134310
-1.191354 2.256278 2.948535
-1.178157 2.250657 3.614614
-1.077461 2.074981 4.260516
-0.986087 2.326762 1.384204
-0.973863 2.328410 2.259740
-0.953243 2.296886 2.776270
-0.938072 2.293398 3.734134
-0.882950 2.178880 4.363197
-0.756447 2.323121 1.145280
-0.749960 2.338198 1.965390
-0.738584 2.325164 2.489822
-0.719839 2.302520 3.345807
-0.526985 2.342145 1.352005
-0.520322 2.357202 2.108018
-0.515586 2.357645 2.473009
-0.494598 2.317866 3.425310
-0.468336 2.222078 3.908341
-0.323249 2.338705 0.905236
-0.318615 2.360130 1.492874
-0.310240 2.394020 2.482325
-0.299374 2.363153 3.019595
-0.286990 2.359285 3.952981
-0.237133 1.974194 4.284876
-0.109542 2.394980 1.268127
-0.099507 2.411320 2.098702
-0.094386 2.413553 2.500956
-0.082264 2.388873 3.376211
-0.069316 2.305267 4.207539
0.103208 2.390665 1.137636
0.109615 2.386312 1.651374
0.119360 2.382097 2.428199
0.124592 2.349748 2.975136
0.135340 2.339381 3.881181
0.120848 2.000146 4.407462
0.323733 2.401088 1.276514
0.332035 2.387565 2.052121
0.341964 2.402419 2.649977
0.340064 2.344388 3.152409
0.544094 2.395038 1.480298
0.565866 2.451014 2.129723
0.565758 2.416247 2.711194
0.576651 2.405630 3.696938
0.542315 2.238111 4.179503
0.754471 2.349369 1.125840
0.739576 2.288783 1.463829
0.758099 2.308458 2.350171
0.774259 2.322256 3.192061
0.754493 2.244945 3.651753
1.004762 2.389517 1.112449
1.014723 2.389027 1.780731
1.042282 2.419108 2.736327
1.050338 2.417095 3.314620
1.332863 2.477059 1.621661
1.309703 2.423812 1.948137
1.325029 2.425641 2.790828
1.330260 2.413021 3.507858
1.645057 2.530430 1.135148
1.658657 2.529640 1.849986
1.681710 2.542494 2.583334
1.669713 2.509833 3.074453
2.037289 2.578985 0.917082
2.012602 2.490738 2.928818
1.945612 2.397732 3.316541
2.085274 2.211151 1.015422
2.076189 2.186091 1.657826
2.059319 2.152708 2.321565
2.074516 2.145857 3.289759
2.062543 2.118114 3.960306
1.789171 1.829466 4.412123
2.082684 1.852029 1.604433
2.069196 1.830578 2.077240
2.082119 1.821450 3.106480
2.085117 1.810457 3.796419
1.924735 1.662755 4.291506
2.091369 1.539103 1.242180
2.074356 1.517461 1.772766
2.090064 1.518197 2.395491
2.104433 1.511771 3.375089
2.038905 1.458350 3.768576
2.085548 1.275068 1.182510
2.088782 1.262412 2.134404
2.071574 1.246062 2.528901
2.078640 1.237005 3.411013
2.009229 1.184265 4.213830
2.419501 1.199287 0.314087
2.208342 1.085943 0.902591
2.174539 1.057294 1.734004
2.145623 1.034070 2.381579
2.134940 1.018650 3.115095
2.125622 1.005711 3.729077
1.828752 0.858525 4.338347
2.556595 1.010541 0.083019
2.175360 0.849147 0.877886
2.129457 0.822749 1.525290
2.131707 0.817235 2.012861
2.139304 0.809950 2.792505
2.110196 0.786853 3.739910
1.962569 0.725310 4.310197
2.470724 0.727500 0.333789
2.174861 0.631504 1.038878
2.145969 0.617051 1.527512
2.165612 0.613069 2.296671
2.172083 0.606086 3.002515
2.078960 0.573700 3.550990
1.860939 0.504809 4.407499
2.224691 0.434556 1.104371
2.106416 0.403671 1.776115
2.150175 0.399996 2.791245
2.165007 0.394448 3.489620
2.104173 0.374540 4.266433
2.263296 0.231081 1.338240
2.256419 0.220322 2.164038
2.258044 0.212024 2.860028
2.233088 0.200307 3.646298
2.079866 0.179836 4.272581
2.575105 0.040678 0.315246
2.230939 0.030653 0.702514
2.238919 0.019309 1.658612
2.259713 0.010195 2.427697
2.256698 0.003051 3.021233
2.162519 -0.003692 3.607301
1.963868 -0.012217 4.489303
2.370880 -0.177794 0.494293
2.233486 -0.174250 1.058361
2.195774 -0.181615 1.932903
2.181626 -0.187056 2.498632
2.184261 -0.194899 3.149718
2.194358 -0.377441 1.377657
2.207567 -0.389181 2.156249
2.209395 -0.394418 2.560547
2.179017 -0.398813 3.384042
2.128291 -0.400017 4.291511
2.253725 -0.580385 1.392328
2.276281 -0.598505 2.336657
2.242890 -0.596826 2.893240
2.208659 -0.596622 3.603619
2.051892 -0.563228 4.391653
2.348769 -0.835174 1.134309
2.278909 -0.819615 1.808517
2.305198 -0.836127 2.311235
2.258140 -0.828425 2.998760
2.212640 -0.825610 4.039834
2.293491 -1.054156 1.309922
2.330054 -1.084580 2.200793
2.334081 -1.098441 2.983460
2.309446 -1.098754 3.772355
2.152591 -1.033411 4.453280
2.358029 -1.362373 1.283771
2.371169 -1.386031 2.217166
2.356894 -1.386583 2.737519
2.265215 -1.345985 3.557779
2.147350 -1.285147 4.164583
2.414877 -1.706229 1.973307
2.415330 -1.723311 2.820202
2.353589 -1.690864 3.428103
2.019103 -2.960169 1.503511
2.021177 -2.996991 2.449286
2.001462 -2.978378 2.749947
1.949456 -2.930420 3.601796
1.823653 -2.758379 4.149183
1.722177 -3.028750 1.526111
1.704023 -3.020750 2.142665
1.643117 -2.936481 2.777697
1.591892 -2.871574 3.508169
1.566782 -2.847795 4.100851
1.411175 -3.094015 1.330566
1.391431 -3.069870 1.758280
1.339296 -2.993894 2.656854
1.289372 -2.906109 3.224732
1.283055 -2.928643 4.079653
1.053099 -2.998907 1.403337
1.021046 -2.945854 2.147023
0.993757 -2.900455 2.802702
1.000355 -2.970146 3.754577
0.938491 -2.807863 4.201667
0.756423 -2.977088 1.233962
0.734533 -2.954170 2.170114
0.728748 -2.954942 2.519331
0.714970 -2.958356 3.376338
0.700400 -2.957768 4.228947
0.490479 -3.053981 1.132612
0.468271 -2.986446 1.813388
0.450079 -2.913373 2.231596
0.446345 -2.986404 3.129360
0.438183 -3.011290 3.838897
0.386177 -2.711119 4.435753
0.217777 -3.163461 1.212063
0.204947 -3.176999 1.996546
0.184023 -3.025004 2.676740
0.172131 -3.048950 3.476906
-0.066766 -3.045299 1.216596
-0.075421 -3.043090 1.738892
-0.082910 -2.999129 2.264910
-0.098210 -3.020550 3.156811
-0.103685 -2.986059 3.567088
-0.104456 -2.717445 4.288076
-0.341121 -3.130512 1.295011
-0.354561 -3.121497 2.127188
-0.359354 -3.067630 2.773224
-0.364586 -3.038425 3.291588
-0.376390 -3.025153 4.097852
-0.622329 -3.071403 0.811785
-0.629765 -3.029186 1.736303
-0.638480 -3.017160 2.387741
-0.670519 -3.102437 3.170086
-0.680530 -3.104988 3.703466
-0.644981 -2.882593 4.538147
-0.943064 -3.166650 1.416235
-0.925313 -3.059309 2.196837
-0.937190 -3.068016 2.699218
-0.973432 -3.127063 3.665203
-0.943672 -3.006472 4.113065
-1.292158 -3.280595 1.334569
-1.283535 -3.218869 2.097522
-1.282386 -3.175645 2.891067
-1.291106 -3.162923 3.576461
-1.260413 -3.067049 4.019142
-1.691882 -3.311075 2.135478
-1.666127 -3.208866 3.318730
-3.065657 -2.830102 1.228820
-3.012552 -2.757662 1.978270
-3.011767 -2.740057 2.522314
-3.040406 -2.741133 3.324290
-3.067046 -2.347863 1.589125
-3.067462 -2.329936 2.261243
-3.091961 -2.326126 3.086107
-3.084101 -2.305472 3.637990
-3.114158 -1.964261 1.472049
-3.116445 -1.955233 1.903911
-3.089676 -1.925292 2.456414
-3.117451 -1.922688 3.286796
-3.107023 -1.630142 1.515942
-3.177701 -1.649179 2.316193
-3.168972 -1.628744 3.033279
-3.046793 -1.553992 3.612628
-3.225636 -1.347380 1.200278
-3.209378 -1.327941 1.807156
-3.209513 -1.313692 2.496516
-3.073377 -1.246648 3.083364
-2.972584 -1.194321 3.700711
-3.237433 -0.987406 1.539770
-3.273584 -0.986243 2.154936
-3.170547 -0.944977 2.700226
-3.104844 -0.910156 3.531593
-3.048186 -0.883595 4.091795
-3.262781 -0.695486 0.897577
-3.340873 -0.698306 1.610961
-3.197860 -0.659547 2.101084
-3.131494 -0.627870 3.113110
-3.092914 -0.614006 3.466589
-2.966430 -0.575455 4.286981
-3.468128 -0.443691 1.218319
-3.401223 -0.422482 1.882201
-3.251353 -0.391122 2.593292
-3.152513 -0.369292 3.170086
-3.410595 -0.123344 0.958857
-3.247771 -0.111258 1.309315
-3.155564 -0.090041 2.355068
-3.178734 -0.080173 2.958325
-3.242520 -0.070230 3.604318
-3.169749 -0.060862 4.064468
-3.243608 0.173942 1.272963
-3.160016 0.183926 2.107379
-3.190508 0.199029 2.865108
-3.210848 0.209029 3.358805
-3.154148 0.216142 3.991583
-3.407529 0.490231 1.111743
-3.340942 0.495197 1.885035
-3.213069 0.482503 2.238995
-3.221119 0.497596 3.006222
-3.243605 0.514569 3.746919
-3.075451 0.502450 4.618468
-3.375958 0.802809 1.183129
-3.332678 0.806658 1.909318
-3.270895 0.809263 2.832031
-3.209464 0.801926 3.258080
-3.274167 0.834686 4.121796
-3.434269 1.143642 1.168785
-3.431009 1.154802 1.745060
-3.449121 1.177291 2.510298
-3.363225 1.163247 3.251719
-3.498156 1.525999 1.072368
-3.536510 1.592812 3.184200
-3.460842 1.568973 3.634577
-3.302376 1.511932 4.327749
-3.526390 1.932863 1.207873
-3.528294 1.990900 3.400343
-3.182541 2.134674 0.732295
-3.149568 2.127937 1.332410
-3.111054 2.121058 2.087502
-3.043853 2.093180 2.813379
-2.970436 2.060515 3.555013
-2.924607 2.044624 4.226275
-2.599286 2.080627 1.424237
-2.206484 2.161015 1.626731
-2.212736 2.185696 2.404215
-1.880683 2.201798 1.774215
-1.836244 2.166438 2.479122
-1.814970 2.156642 3.129522
-1.621125 2.239025 1.651721
-1.581311 2.203984 2.451348
-1.543133 2.164723 3.023151
1.432065 -0.290358 0.111101
1.003585 -0.203482 0.111101
2.081960 -0.422128 0.111101
0.922840 -0.187110 0.111101
0.908037 -0.184109 0.111101
0.249198 -0.050526 0.111101
0.945011 -0.191606 0.111101
2.142816 -0.434467 0.111101
0.527478 -0.106949 0.111101
0.311102 -0.063077 0.111101
1.874548 -0.367878 0.111101
1.849022 -0.362868 0.111101
1.575019 -0.309095 0.111101
1.686438 -0.330961 0.111101
1.355998 -0.266113 0.111101
0.234942 -0.046107 0.111101
2.252734 -0.442096 0.111101
0.752395 -0.147656 0.111101
1.136907 -0.223117 0.111101
0.763791 -0.149893 0.111101
2.232601 -0.352344 0.111101
1.555002 -0.245407 0.111101
1.929278 -0.304474 0.111101
1.140235 -0.179949 0.111101
1.579420 -0.249260 0.111101
0.217453 -0.034318 0.111101
1.688451 -0.266467 0.111101
0.937723 -0.147989 0.111101
0.422943 -0.066748 0.111101
1.081451 -0.170672 0.111101
0.982620 -0.141675 0.111101
1.615694 -0.232952 0.111101
1.179339 -0.170038 0.111101
2.436897 -0.351354 0.111101
0.974445 -0.140496 0.111101
1.717762 -0.247668 0.111101
0.157883 -0.022764 0.111101
0.364694 -0.052582 0.111101
1.938181 -0.279449 0.111101
0.167806 -0.024194 0.111101
0.933926 -0.070036 0.111101
1.940204 -0.145497 0.111101
1.060763 -0.079547 0.111101
2.052519 -0.153920 0.111101
0.034342 -0.002575 0.111101
2.169934 -0.162725 0.111101
0.919910 -0.068985 0.111101
1.946378 -0.145960 0.111101
1.666781 -0.124993 0.111101
1.804562 -0.135325 0.111101
0.710609 -0.044602 0.111101
1.075583 -0.067510 0.111101
1.327940 -0.083349 0.111101
2.032846 -0.127593 0.111101
2.355352 -0.147835 0.111101
1.751939 -0.109962 0.111101
0.614864 -0.038592 0.111101
2.173956 -0.136450 0.111101
2.092660 -0.131347 0.111101
1.897849 -0.119120 0.111101
1.730267 -0.048912 0.111101
0.520050 -0.014701 0.111101
0.970310 -0.027429 0.111101
1.109868 -0.031374 0.111101
0.793811 -0.022440 0.111101
2.347343 -0.066356 0.111101
1.870048 -0.052863 0.111101
1.070123 -0.030251 0.111101
1.898133 -0.053657 0.111101
1.310373 -0.037042 0.111101
1.611610 0.025458 0.111101
2.490631 0.039344 0.111101
0.648222 0.010240 0.111101
1.356564 0.021429 0.111101
2.002386 0.031631 0.111101
0.003383 0.000053 0.111101
2.279860 0.036014 0.111101
1.083181 0.017111 0.111101
2.526944 0.039917 0.111101
0.549145 0.008675 0.111101
0.978893 0.024582 0.111101
0.488968 0.012279 0.111101
0.860960 0.021620 0.111101
2.388687 0.059984 0.111101
0.768424 0.019297 0.111101
1.579414 0.039662 0.111101
2.160622 0.054257 0.111101
0.137889 0.003463 0.111101
0.277114 0.006959 0.111101
0.150369 0.003776 0.111101
1.977628 0.055774 0.111101
1.424664 0.040179 0.111101
1.130970 0.031896 0.111101
2.042840 0.057613 0.111101
0.185548 0.005233 0.111101
1.770108 0.049921 0.111101
1.473100 0.041545 0.111101
2.342298 0.066058 0.111101
2.341285 0.066030 0.111101
0.120875 0.003409 0.111101
0.468331 0.029284 0.111101
2.214709 0.138484 0.111101
1.579231 0.098748 0.111101
0.939062 0.058719 0.111101
2.564054 0.160329 0.111101
0.470104 0.029395 0.111101
0.923671 0.057757 0.111101
0.138177 0.008640 0.111101
2.412283 0.150838 0.111101
0.031921 0.001996 0.111101
1.473070 0.103971 0.111101
2.141071 0.151120 0.111101
0.734064 0.051811 0.111101
2.281439 0.161027 0.111101
0.101396 0.007157 0.111101
1.449738 0.102325 0.111101
1.422179 0.100379 0.111101
1.744068 0.123099 0.111101
0.641658 0.045289 0.111101
0.125538 0.008861 0.111101
0.798179 0.087608 0.111101
0.179725 0.019727 0.111101
0.123483 0.013554 0.111101
1.660410 0.182247 0.111101
1.319736 0.144855 0.111101
0.614359 0.067432 0.111101
2.200074 0.241481 0.111101
0.989947 0.108657 0.111101
1.561002 0.171336 0.111101
1.134839 0.124560 0.111101
0.656136 0.136752 0.111101
0.770970 0.160685 0.111101
1.538594 0.320674 0.111101
1.718278 0.358123 0.111101
0.438871 0.091469 0.111101
1.875540 0.390900 0.111101
0.564624 0.117679 0.111101
0.505616 0.105380 0.111101
0.125994 0.026260 0.111101
2.207248 0.460034 0.111101
2.257779 0.664799 0.111101
1.399583 0.412105 0.111101
1.621489 0.477445 0.111101
0.742478 0.218621 0.111101
2.334923 0.687514 0.111101
1.554441 0.457702 0.111101
1.382107 0.406959 0.111101
0.372479 0.109676 0.111101
2.112770 0.622101 0.111101
0.719994 0.212001 0.111101
0.663051 0.262083 0.111101
1.825596 0.721600 0.111101
1.181770 0.467116 0.111101
0.760424 0.300571 0.111101
0.342989 0.135573 0.111101
2.419372 0.956301 0.111101
0.277980 0.109877 0.111101
0.020178 0.007976 0.111101
1.315066 0.519804 0.111101
2.162791 0.854883 0.111101
1.196697 0.477191 0.111101
1.740193 0.693913 0.111101
2.325698 0.927388 0.111101
0.487596 0.194432 0.111101
1.955842 0.779905 0.111101
0.845088 0.336984 0.111101
1.096511 0.437241 0.111101
2.297795 0.916261 0.111101
1.086313 0.433174 0.111101
0.170834 0.068121 0.111101
1.998661 0.808515 0.111101
2.497792 1.010428 0.111101
1.988516 0.804411 0.111101
1.807727 0.731277 0.111101
1.489957 0.602730 0.111101
2.291031 0.926787 0.111101
1.691627 0.684311 0.111101
0.527731 0.213482 0.111101
2.177262 0.880764 0.111101
0.137561 0.055647 0.111101
1.653884 0.819790 0.111101
0.673315 0.333746 0.111101
1.407938 0.697880 0.111101
2.097210 1.039535 0.111101
0.210560 0.104369 0.111101
1.960025 0.971536 0.111101
0.634061 0.314288 0.111101
2.235094 1.107881 0.111101
1.187510 0.588620 0.111101
0.018729 0.009284 0.111101
-0.110918 1.086739 0.111101
-0.203727 1.996052 0.111101
-0.241059 2.361815 0.111101
-0.051917 0.508664 0.111101
-0.173118 1.696149 0.111101
-0.032680 0.320187 0.111101
-0.016252 0.159230 0.111101
-0.235305 2.305437 0.111101
-0.105124 1.029969 0.111101
-0.125828 1.232819 0.111101
-0.165855 1.621706 0.111101
-0.158403 1.548836 0.111101
-0.063598 0.621847 0.111101
-0.135789 1.327727 0.111101
-0.185632 1.815084 0.111101
-0.172879 1.690383 0.111101
-0.105706 1.033577 0.111101
-0.051447 0.503042 0.111101
-0.040319 0.394230 0.111101
-0.197455 1.930680 0.111101
-0.536056 2.227450 0.111101
