2.246658 0.162648 8.183569
2.103906 -0.051972 1.827771
2.104932 -0.051998 2.672942
2.158139 -0.053312 3.331968
2.112066 -0.052174 4.125066
2.111779 -0.052167 4.948720
2.182130 -0.053905 5.621127
2.273113 -0.056152 6.488775
2.353550 -0.058139 7.455713
2.260797 -0.055848 8.223987
2.016703 -0.233180 1.841617
2.065425 -0.238814 2.654428
2.120679 -0.245203 3.344339
2.079385 -0.240428 4.394565
2.088748 -0.241511 5.063652
2.245276 -0.259609 5.795577
2.288503 -0.264607 6.514739
2.277914 -0.263383 7.405043
2.202322 -0.254642 8.138390
2.109815 -0.243946 8.852479
1.574037 -0.337529 0.102811
1.777963 -0.381258 0.807834
1.991586 -0.427066 1.423734
2.025943 -0.434433 2.155262
2.069226 -0.443715 3.131390
2.109982 -0.452454 3.843354
1.887813 -0.404813 4.713775
1.920097 -0.411736 5.508524
2.249471 -0.482366 6.048032
2.241058 -0.480562 6.871263
2.187049 -0.468980 7.753376
2.163689 -0.463971 8.575128
1.999800 -0.428828 9.269478
1.955027 -0.608814 2.166869
1.973487 -0.614563 2.828894
2.011470 -0.626391 3.582235
1.880050 -0.585466 4.409223
1.920947 -0.598202 5.138173
2.173239 -0.676768 5.896592
2.162787 -0.673513 6.584030
2.148445 -0.669047 7.571414
2.059575 -0.641372 8.215265
1.969902 -0.613447 9.028074
1.943275 -0.814523 1.878500
1.941891 -0.813943 2.672942
1.974802 -0.827738 3.415298
2.004793 -0.840308 4.220843
1.957535 -0.820500 4.833891
2.001712 -0.839017 5.705908
2.113253 -0.885769 6.444084
2.134256 -0.894573 7.254043
2.100000 -0.880215 8.061733
2.075316 -0.869868 8.950645
1.654499 -0.693483 9.702225
1.736800 -0.923112 0.733318
1.826070 -0.970559 1.575134
1.816207 -0.965318 2.319275
1.837835 -0.976813 3.011674
1.836872 -0.976301 3.820614
1.655422 -0.879860 4.668991
1.700375 -0.903752 5.243590
1.995240 -1.060474 6.106621
2.013838 -1.070359 6.946525
1.946056 -1.034332 7.718022
1.932513 -1.027134 8.580759
1.794700 -0.953886 9.423937
1.718119 -1.137959 1.952131
1.749921 -1.159023 2.918338
1.765225 -1.169159 3.427728
1.729475 -1.145481 4.232136
1.709418 -1.132197 5.050074
1.822616 -1.207171 5.807169
1.812110 -1.200212 6.495906
1.728137 -1.144595 7.322457
1.748408 -1.158020 8.175327
1.740386 -1.152708 9.022185
1.549531 -1.240264 -0.081430
1.496537 -1.197847 0.734300
1.612841 -1.290939 1.524352
1.605279 -1.284886 2.309115
1.616741 -1.294060 2.879673
1.637024 -1.310295 3.736885
1.537300 -1.230474 4.409223
1.611238 -1.289655 5.327819
1.738488 -1.391508 5.904454
1.712950 -1.371067 6.753411
1.589285 -1.272084 7.519986
1.624338 -1.300141 8.445431
1.562835 -1.250913 9.301897
1.497775 -1.452057 0.324845
1.593328 -1.544693 0.839677
1.472022 -1.427090 1.738781
1.505622 -1.459665 2.551178
1.497651 -1.451936 3.358970
1.505770 -1.459808 3.983022
1.447452 -1.403270 4.589411
1.442222 -1.398200 5.470713
1.570644 -1.522702 6.430866
1.494936 -1.449305 6.973249
1.469404 -1.424552 7.941760
1.456297 -1.411845 8.553551
1.275975 -1.237028 9.434042
1.308923 -1.525117 0.091548
1.412889 -1.646254 0.850937
1.318076 -1.535781 1.709443
1.280500 -1.491999 2.468080
1.325478 -1.544406 3.353299
1.314174 -1.531235 4.176770
1.312635 -1.529442 4.785766
1.230432 -1.433662 5.686447
1.161367 -1.353189 6.290295
1.258780 -1.466692 6.990673
1.226068 -1.428576 7.891393
1.233004 -1.436658 8.745814
1.021597 -1.190334 9.628846
1.061475 -1.504561 0.705119
1.200235 -1.701244 1.289854
1.161091 -1.645759 2.015775
1.140475 -1.616538 2.979017
0.962800 -1.364697 3.479291
1.077083 -1.526685 4.617943
1.264423 -1.792225 5.350609
1.150031 -1.630083 5.878786
1.111013 -1.574778 6.823031
1.094718 -1.551681 7.600669
1.087769 -1.541831 8.382123
0.993710 -1.408510 9.218945
0.962885 -1.678051 0.020385
1.003989 -1.749685 0.752677
0.945581 -1.647895 1.735572
0.922443 -1.607572 2.270418
0.957094 -1.667958 3.219544
1.095985 -1.910008 4.022980
1.168079 -2.035649 4.814968
1.046025 -1.822943 5.415617
0.922617 -1.607874 6.257469
0.902702 -1.573168 7.034105
0.875463 -1.525698 7.789182
0.834430 -1.454188 8.472357
0.718141 -1.251528 9.540018
0.754398 -1.618970 0.327463
0.823499 -1.767263 1.059873
0.774180 -1.661422 1.902588
0.911576 -1.956281 4.304728
0.941172 -2.019793 4.871567
0.833255 -1.788201 5.569623
0.756936 -1.624417 6.636459
0.712464 -1.528977 7.302495
0.745188 -1.599204 8.291389
0.719345 -1.543744 8.920141
0.600771 -1.680594 0.071633
0.622269 -1.740733 1.021845
0.619723 -1.733610 1.533553
0.607509 -1.699442 2.293899
0.480015 -1.342790 2.971115
0.785650 -2.197774 4.714150
0.726333 -2.031839 6.969572
0.592528 -1.657536 7.917182
0.546784 -1.529570 8.581349
0.456855 -1.278003 9.506600
0.429353 -1.683128 0.420118
0.482215 -1.890352 1.100625
0.451935 -1.771651 1.810601
0.520091 -2.038832 2.652650
0.567813 -2.225910 3.472234
0.554316 -2.173002 4.161835
0.559210 -2.192184 5.124262
0.508270 -1.992492 7.367922
0.399246 -1.565102 8.195034
0.365709 -1.433632 9.060393
0.268136 -1.692649 0.553686
0.263376 -1.662605 1.334488
0.242089 -1.528225 2.175300
0.163117 -1.029702 2.875221
0.356415 -2.249922 4.669984
0.318127 -2.008224 5.290700
0.255187 -1.610910 5.978250
0.221916 -1.400878 6.958633
0.223094 -1.408318 7.782887
0.229799 -1.450645 8.573380
0.194521 -1.227944 9.358817
0.102997 -1.607819 0.328990
0.112140 -1.750544 1.208936
0.097731 -1.525608 1.825076
0.109828 -1.714454 2.855403
0.133469 -2.083490 3.379272
0.131474 -2.052350 4.295921
0.118771 -1.854049 4.930627
0.111208 -1.735989 7.569070
0.093772 -1.463807 8.335443
0.088527 -1.381938 9.094027
-0.051323 -1.791792 0.767448
-0.044786 -1.563566 1.493333
-0.051998 -1.815350 3.692796
-0.058650 -2.047566 4.441077
-0.048509 -1.693534 5.213302
-0.037396 -1.305577 6.317007
-0.025991 -0.907393 7.084882
-0.029587 -1.032926 7.983270
-0.038269 -1.336026 8.668670
-0.031975 -1.116298 9.367830
-0.174902 -1.424728 0.237561
-0.188742 -1.537465 1.040323
-0.174041 -1.417711 1.819571
-0.212799 -1.733434 2.554629
-0.261739 -2.132087 3.210374
-0.228126 -1.858279 4.224096
-0.145500 -1.185223 5.060313
-0.111836 -0.910997 7.538704
-0.125647 -1.023506 8.332939
-0.150351 -1.224738 9.108238
-0.360278 -1.649284 0.513015
-0.296768 -1.358549 1.531274
-0.353801 -1.619637 3.615098
-0.347034 -1.588657 5.947423
-0.196107 -0.897744 6.866525
-0.200236 -0.916644 7.893971
-0.246007 -1.126173 8.535644
-0.243511 -1.114749 9.361875
-0.484190 -1.509428 0.195469
-0.455907 -1.421258 0.773584
-0.366889 -1.143748 1.778405
-0.506302 -1.578361 2.344130
-0.624632 -1.947243 3.178333
-0.545276 -1.699859 4.119958
-0.427870 -1.333853 4.707103
-0.310626 -0.968354 5.424294
-0.160595 -0.500642 6.501074
-0.146908 -0.457975 7.251254
-0.287682 -0.896828 8.155336
-0.494756 -1.161848 0.487683
-0.542198 -1.273256 1.355464
-0.456576 -1.072187 2.061650
-0.450547 -1.058031 2.626561
-0.624200 -1.465823 3.725135
-0.640557 -1.504236 4.126055
-0.439804 -1.032801 5.091012
-0.375874 -0.882674 6.052652
-0.290325 -0.681776 6.865784
-0.272290 -0.639425 7.571527
-0.378657 -0.889210 8.270394
-0.399447 -0.938030 9.071254
-0.624956 -1.150965 -0.031089
-0.617447 -1.137136 0.839878
-0.572475 -1.054313 1.747227
-0.707922 -1.303762 2.365319
-0.857789 -1.579768 3.220039
-0.768301 -1.414959 4.128776
-0.547590 -1.008482 4.696284
-0.389082 -0.716561 5.774478
-0.160175 -0.294990 6.576655
-0.200820 -0.369846 7.471212
-0.446247 -0.821842 8.123944
-0.492228 -0.906524 9.013305
-0.296417 -0.545904 9.859325
-0.824391 -1.234809 0.051576
-0.774240 -1.159692 0.858349
-0.645042 -0.966172 1.436326
-0.626949 -0.939073 2.303871
-0.693374 -1.038567 3.256699
-0.821291 -1.230166 3.840602
-0.699062 -1.047086 4.577266
-0.462722 -0.693085 5.375398
-0.264611 -0.396346 6.356992
-0.304280 -0.455764 7.337233
-0.509769 -0.763555 7.919949
-0.529457 -0.793044 8.899293
-0.404958 -0.606564 9.675058
-0.717243 -0.880206 0.239443
-0.758415 -0.930732 1.101926
-0.654506 -0.803214 1.984901
-0.677808 -0.831812 2.600430
-0.856877 -1.051567 3.341335
-0.964448 -1.183578 4.283945
-0.741288 -0.909714 5.094805
-0.403752 -0.495487 5.779348
-0.279408 -0.342892 6.755046
-0.395054 -0.484814 7.475681
-0.602697 -0.739634 8.448374
-0.562353 -0.690124 8.958159
-0.883175 -0.898234 -0.031130
-0.749168 -0.761943 0.823991
-0.680914 -0.692525 1.673894
-0.718182 -0.730428 2.226374
-0.855567 -0.870156 3.217283
-1.046737 -1.064585 3.974695
-1.015996 -1.033320 4.690618
-0.689446 -0.701203 5.365096
-0.302372 -0.307528 6.233835
-0.309880 -0.315165 7.039370
-0.572622 -0.582386 7.798686
-0.677415 -0.688966 8.731218
-0.519665 -0.528526 9.515715
-0.793211 -0.668081 0.427944
-0.801413 -0.674989 1.001923
-0.749082 -0.630913 1.851614
-0.818542 -0.689415 2.558718
-1.094655 -0.921971 3.334757
-1.237571 -1.042343 4.200735
-0.903602 -0.761058 4.766024
-0.392993 -0.330997 5.614331
-0.127517 -0.107401 6.627124
-0.392349 -0.330455 7.420607
-0.747625 -0.629686 8.082230
-0.688357 -0.579768 8.889646
-0.768041 -0.535073 0.324416
-0.904884 -0.630407 1.177754
-0.721634 -0.502742 1.856439
-0.546639 -0.380828 2.511660
-0.907169 -0.631999 3.342423
-0.432650 -0.301415 6.805671
-0.603879 -0.420706 7.388857
-0.769255 -0.535919 8.254738
-0.726591 -0.506195 9.047685
-0.617919 -0.353445 0.410526
-0.739012 -0.422709 1.133018
-0.758332 -0.433760 1.730667
-0.621015 -0.355216 2.497892
-0.962092 -0.550309 3.373677
-0.425987 -0.243661 6.594045
-0.658419 -0.376611 7.373641
-0.838932 -0.479863 8.270394
-0.684178 -0.391345 9.070605
-0.443583 -0.198953 0.338808
-0.478209 -0.214483 1.057975
-0.736468 -0.330316 1.912559
-0.574038 -0.257464 2.704807
-0.866068 -0.388443 3.556485
-0.312003 -0.139938 6.761543
-0.583758 -0.261823 7.418216
-0.881673 -0.395442 8.150138
-0.774881 -0.347545 9.111596
-0.269421 -0.092952 0.159636
-0.349903 -0.120719 0.902786
-0.684648 -0.236209 1.747936
-0.507391 -0.175054 2.445756
-0.785317 -0.270941 3.355897
-1.317092 -0.454407 4.215317
-1.051396 -0.362740 4.816996
-0.474505 -0.163708 5.875612
-0.199852 -0.068951 6.740267
-0.494818 -0.170716 7.341883
-0.907165 -0.312979 8.118766
-0.779403 -0.268900 8.896062
-0.738700 -0.177320 0.021026
-0.650178 -0.156071 0.832608
-0.690841 -0.165831 1.411153
-0.632037 -0.151716 2.248144
-0.695317 -0.166906 3.175174
-0.973635 -0.233714 3.836347
-0.916617 -0.220027 4.668401
-0.443466 -0.106451 5.384905
-0.177676 -0.042650 6.262745
-0.537447 -0.129010 7.226917
-0.944054 -0.226613 8.050867
-0.825660 -0.198194 8.779949
-0.424839 -0.101979 9.534581
-0.282399 -0.041146 0.234132
-0.367019 -0.053476 0.934643
-0.721541 -0.105131 1.853155
-0.731299 -0.106553 2.475241
-0.570192 -0.083079 3.314245
-0.788493 -0.114886 4.047865
-0.868371 -0.126524 4.953101
-0.383114 -0.055821 5.784459
-0.253661 -0.036959 6.557186
-0.590891 -0.086095 7.327934
-0.965078 -0.140615 8.071777
-0.767534 -0.036455 0.819943
-0.717486 -0.034078 1.611133
-0.656169 -0.031166 2.364105
-0.500799 -0.023786 3.011689
-0.593929 -0.028210 4.037098
-0.696269 -0.033071 4.719658
-0.409022 -0.019427 5.412987
-0.179111 -0.008507 6.241404
-0.568794 -0.027016 7.180080
-1.039336 -0.049365 7.894694
-0.896072 -0.042561 8.537851
-0.464261 -0.022051 9.437946
-0.633393 0.026616 1.952883
-0.622062 0.026139 2.609863
-0.660453 0.027753 3.423804
-0.659152 0.027698 4.403605
-0.451654 0.018979 5.169615
-0.336710 0.014149 5.954955
-0.633318 0.026612 6.689161
-0.941537 0.039564 7.533887
-0.790187 0.033204 8.286285
-0.580612 0.024398 9.063646
-0.833635 0.116157 0.734425
-0.661509 0.092173 1.602680
-0.648720 0.090391 2.332481
-0.593695 0.082724 2.982839
-0.647833 0.090268 3.881765
-0.639646 0.089127 4.501344
-0.470849 0.065607 5.522615
-0.262801 0.036618 6.304136
-0.533323 0.074312 7.010976
-1.000975 0.139474 7.748529
-0.902385 0.125737 8.600692
-0.576187 0.080285 9.599886
-1.204137 0.279814 0.342646
-0.935376 0.217360 1.402019
-0.618542 0.143735 1.973977
-0.549525 0.127697 2.847417
-0.613176 0.142488 3.628683
-0.613757 0.142623 4.364245
-0.411569 0.095639 5.324715
-0.259341 0.060265 6.151132
-0.554377 0.128825 6.754773
-0.903970 0.210062 7.460632
-0.918150 0.213357 8.396067
-0.656487 0.152553 9.130867
-0.446293 0.149327 0.921652
-0.584372 0.195527 1.562545
-0.596873 0.199710 2.323439
-0.586086 0.196101 3.215029
-0.636924 0.213111 3.805515
-0.554499 0.185532 4.829884
-0.323014 0.108079 5.639395
-0.045915 0.015363 6.372123
-0.340523 0.113937 7.142185
-0.900015 0.301140 7.946285
-0.800700 0.267909 8.758971
-0.405620 0.135718 9.705624
-0.546795 0.236234 1.669136
-0.469818 0.202977 2.447330
-0.500344 0.216166 3.242383
-0.548879 0.237135 4.068770
-0.354123 0.152993 5.048858
-0.273365 0.118103 5.863000
-0.623075 0.269190 6.800815
-0.868886 0.375389 7.424478
-0.917672 0.396466 8.186735
-0.786459 0.339778 9.143058
-0.550518 0.301699 1.826307
-0.542296 0.297193 2.546558
-0.586323 0.321322 3.508114
-0.554995 0.304153 4.161097
-0.400146 0.219291 5.201404
-0.287038 0.157305 5.891179
-0.621695 0.340707 6.828063
-0.858766 0.470628 7.591798
-0.849525 0.465564 8.280851
-0.635537 0.348292 9.018943
-0.159806 0.107971 0.800171
-0.533825 0.360673 1.635350
-0.599159 0.404815 2.613655
-0.589005 0.397955 3.419392
-0.513289 0.346798 4.034505
-0.305012 0.206078 4.910834
-0.183966 0.124294 5.863487
-0.440072 0.297329 6.532802
-0.695886 0.470168 7.129965
-0.841198 0.568346 8.139743
-0.778085 0.525704 8.836521
-0.498293 0.409065 1.645894
-0.447144 0.367075 2.697733
-0.446062 0.366187 3.324808
-0.557457 0.457635 4.279377
-0.336888 0.276563 4.848449
-0.165450 0.135823 5.810184
-0.437673 0.359300 6.439986
-0.712950 0.585284 7.298895
-0.759175 0.623232 7.983027
-0.735131 0.603494 8.888833
-0.591075 0.586113 1.322645
-0.461546 0.457671 2.248144
-0.590191 0.585237 3.060002
-0.697955 0.692095 3.648256
-0.713306 0.707318 4.554898
-0.563853 0.559120 5.273842
-0.360034 0.357011 6.232543
-0.524816 0.520411 6.996425
-0.720645 0.714596 7.769417
-0.819523 0.812643 8.655599
-0.627895 0.622624 9.469305
-0.437097 0.522558 1.897692
-0.472862 0.565316 2.443684
-0.740732 0.885560 3.327660
-0.864988 1.034111 4.031786
-0.645733 0.771987 4.777284
-0.368603 0.440672 5.853822
-0.335060 0.400571 6.479920
-0.565899 0.676543 7.219746
-0.672816 0.804365 8.056323
-0.636784 0.761288 8.956351
-0.119417 0.172923 0.191931
-0.126449 0.183106 1.002200
-0.469137 0.679340 1.774896
-0.726377 1.051839 2.669837
-0.967012 1.400293 3.548788
-0.837363 1.212553 4.258625
-0.560417 0.811519 5.013486
-0.325335 0.471105 5.670561
-0.364940 0.528456 6.590016
-0.541311 0.783851 7.455861
-0.594570 0.860974 8.165852
-0.544609 0.788628 8.920212
-0.519743 0.929335 0.625836
-0.512846 0.917003 1.106262
-0.332535 0.594594 1.897692
-0.839061 1.500296 3.464438
-0.632750 1.131398 4.467646
-0.368551 0.658994 5.172112
-0.247260 0.442116 6.069901
-0.336759 0.602146 6.864016
-0.464976 0.831407 7.455861
-0.544662 0.973890 8.369072
-0.476324 0.851697 9.103689
-0.491355 1.110253 0.581827
-0.643564 1.454180 2.823727
-0.689482 1.557934 3.569299
-0.472216 1.067007 6.083892
-0.342022 0.772822 7.020539
-0.428842 0.968999 7.738614
-0.474083 1.071225 8.618869
-0.410575 0.927725 9.370766
-0.411430 1.225185 0.767306
-0.408736 1.217161 1.359036
-0.242760 0.722906 2.020168
-0.572811 1.705756 3.777090
-0.433695 1.291485 4.386460
-0.331148 0.986115 5.410351
-0.228918 0.681686 6.133726
-0.244939 0.729397 7.023496
-0.322190 0.959440 7.628721
-0.364004 1.083955 8.494016
-0.341017 1.015502 9.180239
-0.285095 1.228575 0.342421
-0.323089 1.392305 1.219393
-0.302548 1.303788 2.021141
-0.397547 1.713173 2.728746
-0.444633 1.916081 3.431311
-0.390833 1.684240 4.292160
-0.316931 1.365770 5.106364
-0.205960 0.887554 5.738700
-0.154266 0.664789 6.821884
-0.201929 0.870183 7.543521
-0.262155 1.129719 8.217822
-0.292341 1.259801 9.247632
-0.184660 1.323690 0.372813
-0.214835 1.539991 1.235963
-0.201724 1.446006 1.952568
-0.255018 1.828034 2.886804
-0.283667 2.033394 3.546389
-0.249670 1.789694 4.314333
-0.196949 1.411775 5.092696
-0.132147 0.947263 5.871012
-0.098208 0.703979 6.838589
-0.126575 0.907320 7.658728
-0.159038 1.140025 8.295945
-0.168777 1.209832 9.056312
-0.056409 1.337607 0.559208
-0.061713 1.463395 1.507607
-0.054360 1.289025 2.054904
-0.090147 2.137629 3.660940
-0.073126 1.734011 4.561525
-0.062118 1.472984 5.443737
-0.041194 0.976833 6.167667
-0.032894 0.779998 6.945477
-0.044331 1.051200 7.827055
-0.052779 1.251528 8.524193
-0.050824 1.205174 9.312838
0.063830 1.308484 0.165806
0.066667 1.366639 0.807181
0.076441 1.566994 1.606554
0.063184 1.295240 2.574797
0.107619 2.206124 4.083692
0.078680 1.612882 4.805841
0.067359 1.380826 5.678834
0.046929 0.962024 6.234392
0.036702 0.752358 7.211286
0.054381 1.114786 7.889957
0.216115 1.497402 0.494787
0.246382 1.707112 1.066253
0.300363 2.081132 3.265414
0.328752 2.277831 4.237005
0.289348 2.004815 5.053432
0.185042 1.282104 8.253711
0.211324 1.464204 8.842547
0.393567 1.643772 0.646388
0.398567 1.664658 1.425886
0.509935 2.129796 2.443119
0.592468 2.474503 2.843051
0.570994 2.384814 3.772281
0.557056 2.326600 4.369453
0.491542 2.052975 5.124525
0.370264 1.546447 6.195822
0.266390 1.112607 6.987491
0.298794 1.247943 7.833815
0.373352 1.559343 8.488830
0.352852 1.473725 9.313777
0.466174 1.357687 0.247890
0.517612 1.507494 0.833252
0.576293 1.678396 1.731129
0.580927 1.691892 2.438694
0.706823 2.058554 3.248730
0.799057 2.327175 3.852682
0.777005 2.262951 4.778308
0.409222 1.191818 7.968463
0.512966 1.493962 8.721519
0.407309 1.186248 9.609636
0.799709 1.787420 1.324741
0.917296 2.050236 3.721898
1.006724 2.250114 4.126682
0.934654 2.089032 4.945834
0.774755 1.731645 5.737466
0.518256 1.158347 6.547265
0.563535 1.259548 7.555462
0.714983 1.598048 8.111961
0.650875 1.454761 9.000425
0.770605 1.361628 0.607362
0.928458 1.640548 1.378430
1.080279 1.908810 3.696529
1.189966 2.102622 4.356453
1.097576 1.939372 5.242371
0.901419 1.592771 6.114420
0.868193 1.534062 7.033085
0.895035 1.581491 7.574708
0.876102 1.548038 8.470865
0.776554 1.372140 9.353272
0.864714 1.241446 0.494787
1.103121 1.583721 1.233887
1.102110 1.582269 1.805776
1.269052 1.821942 2.522400
1.330418 1.910045 3.255828
1.306941 1.876339 4.105777
1.342173 1.926920 4.825048
1.184030 1.699879 5.721094
1.039210 1.491964 6.347516
1.065085 1.529112 7.162295
1.109781 1.593281 8.166756
1.020743 1.465453 8.835675
1.286861 1.517532 2.027302
1.392188 1.641740 2.628829
1.349687 1.591619 3.369121
1.367146 1.612209 4.135210
1.479297 1.744462 4.935738
1.350008 1.591998 5.822623
1.287392 1.518158 6.465005
1.273277 1.501513 7.311205
1.312115 1.547313 8.329005
1.211636 1.428822 8.879752
1.439443 1.415186 2.097137
1.451814 1.427348 2.749476
1.489419 1.464319 3.389423
1.566050 1.539658 4.413203
1.459154 1.434564 5.019590
1.484585 1.459566 5.948346
1.524986 1.499287 6.585631
1.415686 1.391829 7.265691
1.432183 1.408048 8.237479
1.332446 1.309992 8.859332
1.583529 1.291734 2.095733
1.573050 1.283187 2.668150
1.632129 1.331379 3.305998
1.676492 1.367567 4.129685
1.499326 1.223048 4.941223
1.511946 1.233342 5.760452
1.731189 1.412186 6.693913
1.672525 1.364331 7.368784
1.619863 1.321373 8.144880
1.514216 1.235194 9.108464
1.544353 1.037039 0.204257
1.759160 1.181283 0.831798
1.678650 1.127220 1.668769
1.739784 1.168272 2.530881
1.754790 1.178348 3.100960
1.801221 1.209527 3.954784
1.659205 1.114163 4.850004
1.707460 1.146566 5.453298
1.934964 1.299336 6.229627
1.843240 1.237743 7.031168
1.780251 1.195446 7.920916
1.777414 1.193540 8.816284
1.457406 0.978654 9.450378
1.655744 0.901133 0.173503
1.885477 1.026165 0.942724
1.795591 0.977245 1.606678
1.869406 1.017418 2.640733
1.894569 1.031113 3.311705
1.941995 1.056925 4.103927
1.746219 0.950374 4.768593
1.797954 0.978531 5.558558
2.056183 1.119071 6.290125
1.997236 1.086989 7.178071
1.920223 1.045075 7.996715
1.853968 1.009016 8.577362
1.615905 0.879451 9.679488
1.803714 0.773944 0.478712
2.072779 0.889394 1.243375
1.891884 0.811775 1.911498
1.898074 0.814432 2.808581
1.958502 0.840360 3.303785
2.035522 0.873408 4.359675
2.043593 0.876871 5.026570
2.125401 0.911974 5.808029
2.099281 0.900766 6.403700
1.982284 0.850565 7.232253
1.986597 0.852415 8.001979
1.994191 0.855674 8.937871
1.916395 0.619466 0.569610
2.000141 0.646537 1.136796
1.993639 0.644435 2.123372
2.007005 0.648755 2.723669
2.016443 0.651806 3.448013
2.030427 0.656326 4.523457
2.163120 0.699219 5.019854
2.269678 0.733663 5.786329
2.180550 0.704853 6.589751
2.191569 0.708415 7.455510
2.147595 0.694201 8.203779
2.093388 0.676678 9.166526
1.715616 0.391321 0.000000
2.091900 0.477149 0.902185
1.996612 0.455415 1.687975
2.030246 0.463086 2.327874
2.062442 0.470430 3.121247
2.134678 0.486907 4.137046
1.893771 0.431957 4.805502
1.941619 0.442871 5.525230
2.284039 0.520975 6.300206
2.225358 0.507590 6.956623
2.226416 0.507831 7.733044
2.194931 0.500650 8.630146
2.011817 0.458883 9.545875
1.976215 0.250871 0.743004
2.123344 0.269548 1.511148
2.079102 0.263932 2.133521
2.107747 0.267568 2.926524
2.119536 0.269065 3.630529
2.033300 0.258117 4.451238
2.199416 0.279205 5.161460
2.380197 0.302154 6.031904
2.294985 0.291337 6.710857
2.256541 0.286457 7.440249
2.208475 0.280355 8.295511
2.151013 0.273060 9.142138
2.144363 0.080551 0.912320
2.068255 0.077692 1.615757
2.121867 0.079706 2.569750
2.164628 0.081313 3.413010
2.215049 0.083207 4.154509
2.092325 0.078597 4.806668
2.044033 0.076782 5.548396
2.225464 0.083598 6.215903
2.258645 0.084844 7.107358
2.249241 0.084491 7.940501
2.196351 0.082504 8.621247
1.949633 0.073236 9.509587
2.032171 -0.122017 1.953440
2.054206 -0.123340 2.707003
2.132796 -0.128058 3.364614
2.057063 -0.123511 4.110262
2.123611 -0.127507 5.060281
2.260917 -0.135751 5.825886
2.270154 -0.136306 6.634536
2.256451 -0.135483 7.369537
2.268649 -0.136215 8.274496
2.151567 -0.129185 8.877089
1.718207 -0.255797 0.430364
2.110158 -0.314148 1.328676
2.063554 -0.307210 1.960974
2.108717 -0.313934 3.017781
2.113256 -0.314610 3.630529
1.945263 -0.289600 4.388856
2.104245 -0.313268 5.060281
2.338007 -0.348069 5.810351
2.282156 -0.339755 6.534921
2.262113 -0.336771 7.374756
2.228299 -0.331737 8.300159
2.131992 -0.317399 8.984254
1.780286 -0.445504 0.194174
2.059990 -0.515498 1.014347
2.006953 -0.502226 1.595446
1.996512 -0.499614 2.339593
2.019838 -0.505451 3.021826
2.085896 -0.521981 4.008103
1.841474 -0.460816 4.655695
1.890567 -0.473101 5.406658
2.188739 -0.547717 6.086413
2.164880 -0.541747 6.819728
2.170943 -0.543264 7.879853
2.091535 -0.523392 8.438971
1.951793 -0.488423 9.342588
1.756932 -0.610961 0.183832
2.024815 -0.704116 0.821104
1.929248 -0.670883 1.566027
1.946942 -0.677036 2.390384
1.969741 -0.684964 3.062434
2.061686 -0.716937 4.076303
1.824829 -0.634572 4.723968
1.859948 -0.646784 5.372530
2.185519 -0.759999 6.128759
2.138093 -0.743507 6.855621
2.138856 -0.743773 7.884758
2.069313 -0.719589 8.590882
1.905173 -0.662511 9.362929
1.859279 -0.857827 2.166869
1.874745 -0.864962 2.798424
1.925097 -0.888193 3.458155
1.795490 -0.828395 4.263792
1.909751 -0.881113 5.249723
2.093611 -0.965942 5.922937
2.122942 -0.979474 6.706395
2.032020 -0.937525 7.510765
1.995164 -0.920520 8.280728
1.986351 -0.916454 9.115917
1.871425 -1.078574 0.151966
2.051866 -1.182569 0.795986
1.796341 -1.035301 1.696998
1.778781 -1.025180 2.258317
1.818719 -1.048198 3.224825
1.864855 -1.074788 4.028370
1.644658 -0.947880 4.655695
1.680883 -0.968757 5.345519
1.978123 -1.140068 6.248031
1.995804 -1.150259 7.067665
1.937945 -1.116913 7.753376
1.892092 -1.090486 8.560511
1.778813 -1.025198 9.505240
1.566554 -1.097738 0.489551
1.738378 -1.218141 0.983924
1.683857 -1.179935 1.860703
1.631158 -1.143008 2.476609
1.693953 -1.187010 3.442473
1.695081 -1.187801 4.191516
1.467820 -1.028551 4.814404
1.628184 -1.140924 5.671423
1.866506 -1.307924 6.373406
1.812736 -1.270245 7.389408
1.757434 -1.231494 8.164598
1.355524 -1.160884 -0.020467
1.514342 -1.296898 0.824417
1.587432 -1.359493 1.503029
1.566053 -1.341184 1.972447
1.529149 -1.309578 2.781829
1.545677 -1.323733 3.619920
1.557673 -1.334007 4.461399
1.426055 -1.221288 5.260743
1.496225 -1.281382 6.039360
1.610434 -1.379192 6.766837
1.538407 -1.317507 7.469155
1.534504 -1.314164 8.405655
1.438344 -1.231812 9.177258
1.561588 -1.599914 0.272985
1.641121 -1.681398 1.048530
1.446908 -1.482419 1.656379
1.437532 -1.472813 2.339593
1.400391 -1.434760 2.997375
1.418937 -1.453762 4.072342
1.440610 -1.475967 4.759087
1.314586 -1.346850 5.468439
1.330038 -1.362680 6.102344
1.465518 -1.501485 7.191074
1.397384 -1.431679 7.845256
1.315404 -1.347687 8.479471
1.161023 -1.189517 9.386570
1.163462 -1.456175 0.561689
1.301901 -1.629444 1.391372
1.285384 -1.608771 1.921656
1.238338 -1.549889 2.722618
1.262431 -1.580043 3.487751
1.349405 -1.688899 4.335121
1.315243 -1.646142 4.908141
1.221739 -1.529114 5.634437
1.235279 -1.546060 6.687436
1.225158 -1.533393 7.280653
1.214837 -1.520475 8.069739
1.140538 -1.427484 8.901514
1.073672 -1.616251 0.652284
1.140040 -1.716157 1.382147
1.048220 -1.577937 2.114359
1.062251 -1.599058 2.870846
0.945418 -1.423185 3.620573
1.028316 -1.547975 4.536248
1.162987 -1.750701 5.239576
1.008208 -1.517704 5.906020
0.994248 -1.496690 6.804559
1.000955 -1.506787 7.533806
0.988505 -1.488045 8.275766
0.914472 -1.376599 9.138460
0.977613 -1.812961 0.071108
1.029032 -1.908318 0.790165
0.887298 -1.645474 1.614216
0.875282 -1.623191 2.517194
0.781437 -1.449158 3.212326
0.909223 -1.686134 3.930270
1.099070 -2.038200 4.767759
0.954104 -1.769365 5.480885
0.853750 -1.583260 6.382380
0.860227 -1.595272 7.161462
0.866775 -1.607415 8.106350
0.832665 -1.544158 8.810683
0.592806 -1.099345 9.588878
0.708079 -1.670323 0.582889
0.744903 -1.757189 1.336713
0.701081 -1.653815 2.150692
0.769334 -1.814819 2.887383
0.894482 -2.110038 3.676524
0.912034 -2.151443 4.324920
0.820876 -1.936406 5.249723
0.641208 -1.512577 6.208263
0.612635 -1.445174 6.952124
0.701296 -1.654322 7.600120
0.712825 -1.681518 8.567613
0.633827 -1.495167 9.439780
0.562398 -1.773746 0.285959
0.619937 -1.955217 1.107841
0.559567 -1.764818 1.768535
0.662096 -2.088182 4.147169
0.700667 -2.209832 4.787936
0.604156 -1.905447 6.936189
0.476999 -1.504405 7.901845
0.363483 -1.672058 0.328118
0.403801 -1.857526 1.102098
0.351264 -1.615850 1.819045
0.415031 -1.909186 2.653130
0.491483 -2.260873 3.379107
0.474946 -2.184801 4.101178
0.450462 -2.072173 5.009577
0.397779 -1.829826 7.340629
0.316691 -1.456810 8.211276
0.306070 -1.407951 9.113353
0.210293 -1.721885 0.000000
0.218080 -1.785644 1.033438
0.196965 -1.612754 1.738039
0.234898 -1.923357 4.134164
0.257954 -2.112139 4.874453
0.221932 -1.817184 6.988617
0.183426 -1.501903 8.077021
0.178525 -1.461767 8.702772
0.127360 -1.042825 9.516905
0.041779 -1.439841 0.661010
0.050849 -1.752418 1.178211
0.042706 -1.471785 2.179613
0.037583 -1.295225 2.908327
0.049672 -1.711839 3.661588
0.063559 -2.190433 4.372716
0.056736 -1.955301 5.280867
0.041822 -1.441316 5.902427
0.022534 -0.776582 6.924461
0.023775 -0.819365 7.557972
0.040914 -1.410034 8.543092
0.036006 -1.240874 9.139386
-0.091859 -1.434467 0.454456
-0.094332 -1.473077 1.114613
-0.085395 -1.333518 1.979719
-0.116660 -1.821765 2.610877
-0.142093 -2.218924 3.489353
-0.119939 -1.872965 4.037594
-0.092590 -1.445875 5.079040
-0.074644 -1.165631 7.252197
-0.065452 -1.022101 8.061474
-0.078519 -1.226151 8.977851
-0.262949 -1.697085 0.758730
-0.215497 -1.390826 1.313227
-0.265039 -1.710575 3.846097
-0.129988 -0.838948 7.041518
-0.144789 -0.934476 7.805255
-0.195888 -1.264275 8.529100
-0.178036 -1.149055 9.345517
-0.277384 -1.082922 0.791668
-0.349228 -1.363406 1.313227
-0.309764 -1.209335 2.202932
-0.193047 -0.753667 3.021936
-0.423926 -1.655032 6.144801
-0.227549 -0.888363 6.856055
-0.226203 -0.883109 7.888537
-0.272523 -1.063944 8.405688
-0.278373 -1.086785 9.388660
-0.529042 -1.493798 0.051439
-0.499707 -1.410968 0.959208
-0.415795 -1.174035 1.651518
-0.525453 -1.483664 2.597377
-0.618825 -1.747308 3.287271
-0.566998 -1.600969 4.015336
-0.454701 -1.283890 4.596370
-0.347765 -0.981945 5.420787
-0.176726 -0.499001 6.370067
-0.171415 -0.484006 7.288989
-0.311462 -0.879441 8.113478
-0.375230 -1.059496 8.969560
-0.257282 -0.726460 9.530747
-0.432017 -0.919866 0.710199
-0.543447 -1.157127 1.193105
-0.498350 -1.061105 2.186466
-0.381290 -0.811857 2.938840
-0.316014 -0.672869 6.735231
-0.324560 -0.691065 7.787592
-0.391311 -0.833193 8.642573
-0.396539 -0.844325 9.457342
-0.647151 -1.112012 0.383673
-0.615158 -1.057038 1.007728
-0.532633 -0.915234 1.941882
-0.688504 -1.183069 2.528343
-0.890624 -1.530376 3.480324
-0.816754 -1.403444 4.252126
-0.557714 -0.958331 4.986854
-0.502811 -0.863990 7.435874
-0.489535 -0.841178 8.301761
-0.501675 -0.862037 8.977249
-0.665473 -0.921190 0.364366
-0.764615 -1.058430 1.264871
-0.635660 -0.879922 1.971887
-0.534774 -0.740268 2.821765
-0.702172 -0.971991 3.543799
-0.374083 -0.517830 6.862220
-0.456129 -0.631403 7.609641
-0.587302 -0.812982 8.437619
-0.572898 -0.793042 9.114143
-0.896713 -1.031516 0.734751
-0.663058 -0.762735 1.410637
-0.873891 -1.005263 3.876467
-0.979125 -1.126316 4.632909
-0.727337 -0.836678 5.358185
-0.320933 -0.369179 6.278859
-0.288718 -0.332121 7.028770
-0.561261 -0.645636 7.987543
-0.596211 -0.685839 8.590220
-0.498812 -0.573798 9.488702
-0.895505 -0.850009 -0.020767
-0.809464 -0.768340 0.697929
-0.662543 -0.628883 1.487617
-0.894105 -0.848681 2.360154
-1.089678 -1.034318 2.985872
-1.139309 -1.081427 3.997732
-1.023869 -0.971852 4.590358
-0.579258 -0.549829 5.487359
-0.206292 -0.195812 6.421232
-0.390231 -0.370406 7.284373
-0.637199 -0.604826 7.851651
-0.690033 -0.654977 8.778616
-0.477253 -0.453007 9.491524
-0.792195 -0.626059 0.052224
-0.700742 -0.553785 0.806808
-0.678791 -0.536437 1.531490
-0.935868 -0.739601 2.519189
-1.189924 -0.940377 3.161115
-1.193422 -0.943142 4.002999
-1.006785 -0.795646 4.774361
-0.533057 -0.421266 5.536598
-0.006119 -0.004836 6.433729
-0.240392 -0.189978 7.405004
-0.756385 -0.597759 8.139681
-0.704213 -0.556527 8.989587
-0.295205 -0.233296 9.808751
-0.782392 -0.512858 0.251162
-0.793878 -0.520387 1.056847
-0.713824 -0.467911 1.836671
-0.580937 -0.380804 2.562694
-0.880726 -0.577315 3.315483
-0.278303 -0.182427 6.708402
-0.538478 -0.352972 7.570604
-0.800772 -0.524906 8.228564
-0.726216 -0.476034 8.974319
-0.783398 -0.411104 -0.052394
-0.857658 -0.450074 0.826145
-0.780381 -0.409521 1.289488
-0.707077 -0.371053 2.218432
-0.641143 -0.336453 2.973235
-0.980323 -0.514444 3.888896
-0.524259 -0.275116 7.164965
-0.759100 -0.398353 7.746818
-0.858286 -0.450403 8.631591
-0.653921 -0.343159 9.293504
-0.679657 -0.282807 0.336626
-0.789646 -0.328574 1.258867
-0.729164 -0.303408 2.060879
-0.742710 -0.309044 2.703101
-1.011585 -0.420924 3.511375
-0.547807 -0.227944 6.892073
-0.792635 -0.329818 7.495915
-0.911157 -0.379136 8.364478
-0.737495 -0.306874 9.223433
-0.821840 -0.252262 0.020971
-0.731850 -0.224640 0.672790
-0.713559 -0.219025 1.683708
-0.569618 -0.174843 2.177148
-0.749332 -0.230006 3.095486
-1.111021 -0.341025 3.935852
-1.088218 -0.334026 4.824278
-0.597573 -0.183424 5.684419
-0.236542 -0.072606 6.503930
-0.529630 -0.162569 7.368942
-0.913166 -0.280294 8.097848
-0.799922 -0.245534 8.837981
-0.396951 -0.121843 9.551144
-0.719744 -0.152507 0.284029
-0.831687 -0.176226 1.091066
-0.721592 -0.152898 2.021476
-0.564518 -0.119616 2.676608
-0.818436 -0.173419 3.693947
-1.105941 -0.234338 4.339422
-0.665758 -0.141068 4.989200
-0.220031 -0.046622 6.048458
-0.482702 -0.102280 6.757070
-0.861877 -0.182624 7.480652
-0.985651 -0.208850 8.458511
-0.744849 -0.157826 9.065823
-0.307976 -0.034364 0.127627
-0.488324 -0.054488 0.719934
-0.719310 -0.080262 1.737414
-0.701182 -0.078239 2.339997
-0.478452 -0.053386 3.077160
-0.640354 -0.071452 4.031912
-0.733206 -0.081812 4.639968
-0.277185 -0.030929 5.561418
-0.186605 -0.020822 6.601614
-0.571024 -0.063716 7.343147
-0.953719 -0.106418 8.118766
-0.867845 -0.096836 8.995284
-0.352766 -0.039362 9.723788
-0.937101 -0.020144 0.449991
-0.932855 -0.020053 1.340141
-0.678054 -0.014576 1.834484
-0.638044 -0.013716 2.831374
-0.614527 -0.013210 3.736556
-0.573195 -0.012322 4.306474
-0.395376 -0.008499 5.123153
-0.218491 -0.004697 6.169574
-0.517929 -0.011134 6.752783
-0.930008 -0.019992 7.601512
-0.967749 -0.020803 8.511122
-0.744655 -0.016008 9.425613
-0.390977 0.027957 0.753628
-0.722405 0.051655 1.747936
-0.578012 0.041330 2.326437
-0.609545 0.043585 3.130609
-0.670790 0.047964 4.060931
-0.551080 0.039405 4.973505
-0.403012 0.028817 5.727740
-0.404990 0.028959 6.390328
-0.728087 0.052061 7.357297
-1.014830 0.072565 8.150186
-0.890403 0.063668 8.968636
-0.377974 0.027027 9.819368
-1.146004 0.190487 0.395337
-0.847599 0.140887 1.374216
-0.683389 0.113592 2.118880
-0.628793 0.104517 2.820828
-0.627896 0.104368 3.702515
-0.602986 0.100228 4.419819
-0.441250 0.073344 5.321324
-0.226766 0.037693 6.080432
-0.553630 0.092024 6.854191
-0.917503 0.152506 7.471098
-0.956206 0.158939 8.401179
-0.777599 0.129252 9.392734
0.232092 -0.061232 0.150998
-0.629713 0.166136 1.793501
-0.582075 0.153568 2.674884
-0.590106 0.155687 3.417663
-0.617455 0.162903 4.213830
-0.406483 0.107242 4.925790
-0.280012 0.073875 5.635915
-0.600320 0.158382 6.463442
-0.906065 0.239046 7.241910
-0.930280 0.245435 8.009041
-0.856234 0.225899 9.047685
-0.883144 0.324018 0.680200
-0.669586 0.245665 1.484834
-0.630245 0.231231 2.183474
-0.531107 0.194859 2.868549
-0.573251 0.210321 3.694344
-0.529496 0.194267 4.660869
-0.363959 0.133533 5.437662
-0.237872 0.087273 6.229591
-0.546694 0.200577 7.112166
-0.919855 0.337487 7.722130
-0.878254 0.322224 8.595228
-0.626022 0.229682 9.422345
-0.516819 0.246309 1.712470
-0.500392 0.238481 2.710039
-0.577646 0.275299 3.468194
-0.552991 0.263548 4.205986
-0.368454 0.175601 5.218647
-0.271710 0.129494 5.884277
-0.601993 0.286903 6.585816
-0.872943 0.416034 7.398816
-0.870424 0.414833 8.259938
-0.788598 0.375836 9.105833
-0.548602 0.327053 1.498263
-0.483035 0.287965 2.454749
-0.532359 0.317370 3.236131
-0.579551 0.345503 4.082004
-0.357631 0.213204 4.689391
-0.211546 0.126115 5.685678
0.016000 -0.009538 6.427042
-0.267863 0.159688 7.161838
-0.819575 0.488595 7.847099
-0.754394 0.449737 8.795348
-0.427626 0.254932 9.676876
-0.522896 0.381781 1.709158
-0.474332 0.346324 2.453168
-0.497458 0.363208 3.480980
-0.514817 0.375882 4.203284
-0.336280 0.245528 4.893972
-0.257894 0.188296 5.838019
-0.527432 0.385093 6.653276
-0.779367 0.569039 7.388360
-0.802101 0.585637 8.035281
-0.732852 0.535077 9.031483
-0.470794 0.411546 1.773561
-0.423592 0.370284 2.826284
-0.533921 0.466729 3.674315
-0.677486 0.592226 4.301989
-0.456372 0.398938 4.998807
-0.257408 0.225014 5.986838
-0.530951 0.464132 6.807009
-0.745021 0.651262 7.383630
-0.769548 0.672703 8.291179
-0.636125 0.556070 9.201298
-0.584122 0.622892 1.216919
-0.461274 0.491891 2.236157
-0.681745 0.726995 2.931212
-0.826933 0.881820 3.647716
-0.773752 0.825109 4.560962
-0.565059 0.602564 5.322929
-0.282798 0.301568 6.280226
-0.492671 0.525371 7.032460
-0.705875 0.752727 7.852944
-0.699619 0.746056 8.641493
-0.521281 0.555881 9.599835
-0.244469 0.312041 0.955267
-0.457060 0.583392 1.557502
-0.355448 0.453694 2.273624
-0.677413 0.864649 3.259067
-0.915376 1.168386 4.770077
-0.474521 0.605679 5.459357
0.078822 -0.100608 6.378650
-0.625275 0.798101 7.889302
-0.603960 0.933632 0.416689
-0.548317 0.847616 1.379303
-0.372624 0.576021 1.992495
-0.629387 0.972938 2.751424
-0.865551 1.338012 3.465624
-0.635930 0.983052 4.250579
-0.323675 0.500352 5.300974
-0.237603 0.367298 6.113297
-0.399442 0.617478 6.834228
-0.526291 0.813566 7.539526
-0.622323 0.962018 8.504424
-0.517730 0.800332 9.330359
-0.570891 1.100135 0.602209
-0.513370 0.989289 1.511123
-0.262138 0.505153 2.146858
-0.793475 1.529065 3.764104
-0.538211 1.037159 6.094294
-0.387506 0.746743 6.999559
-0.498852 0.961312 7.853321
-0.503126 0.969547 8.494456
-0.428467 0.825677 9.446876
-0.468380 1.146213 0.519151
-0.618572 1.513762 3.078783
-0.665380 1.628311 3.874274
-0.459427 1.124304 6.065628
-0.306823 0.750855 6.831643
-0.391965 0.959213 7.873820
-0.411893 1.007981 8.593715
-0.343704 0.841109 9.252512
-0.385128 1.280761 0.455656
-0.392310 1.304644 1.449498
-0.307648 1.023098 2.119192
-0.415078 1.380361 2.845252
-0.528412 1.757257 3.629032
-0.396859 1.319772 4.520963
-0.306302 1.018620 5.215676
-0.212769 0.707573 5.936615
-0.192665 0.640715 6.889467
-0.286681 0.953370 7.545151
-0.325084 1.081082 8.311668
-0.325644 1.082945 9.320234
-0.222905 1.092455 0.635434
-0.285950 1.401435 1.250383
-0.253395 1.241885 2.097752
-0.320805 1.572261 2.677926
-0.384806 1.885931 3.517455
-0.313318 1.535566 4.195981
-0.251423 1.232221 5.157522
-0.169749 0.831939 5.994833
-0.140942 0.690753 6.948255
-0.187579 0.919323 7.512960
-0.229526 1.124902 8.514832
-0.253407 1.241944 9.352848
0.105829 -0.027921 -0.081430
0.149338 -0.039400 -0.081430
0.042990 -0.011342 -0.081430
0.206683 -0.054529 -0.081430
0.104096 -0.027464 -0.081430
0.021028 -0.005548 -0.081430
0.010157 -0.002680 -0.081430
0.040604 -0.010713 -0.081430
0.108474 -0.028618 -0.081430
0.000161 -0.000043 -0.081430
-0.157601 -0.002988 9.808751
-0.139657 -0.002648 9.808751
-0.284043 -0.005385 9.808751
-0.136911 -0.002596 9.808751
-0.210347 -0.003988 9.808751
-0.228034 -0.004323 9.808751
-0.050023 -0.000948 9.808751
-0.117191 -0.002222 9.808751
-0.083818 -0.001589 9.808751
-0.074901 -0.001420 9.808751
-0.088259 -0.001897 9.808751
-0.398661 -0.008570 9.808751
-0.425924 -0.009156 9.808751
-0.114098 -0.002453 9.808751
-0.011239 -0.000242 9.808751
-0.286913 -0.006168 9.808751
-0.096249 -0.002069 9.808751
-0.001756 -0.000038 9.808751
-0.315706 -0.006787 9.808751
-0.174505 -0.003751 9.808751
-0.135642 -0.006443 9.808751
-0.119755 -0.005688 9.808751
-0.045850 -0.002178 9.808751
-0.378090 -0.017958 9.808751
-0.176671 -0.008391 9.808751
-0.281950 -0.013392 9.808751
-0.425711 -0.020220 9.808751
-0.224795 -0.010677 9.808751
-0.359332 -0.017067 9.808751
-0.321706 -0.015280 9.808751
-0.160180 -0.015741 9.808751
-0.167629 -0.016473 9.808751
-0.188204 -0.018495 9.808751
-0.276017 -0.027124 9.808751
-0.506516 -0.049775 9.808751
-0.094918 -0.009328 9.808751
-0.150260 -0.014766 9.808751
-0.416849 -0.040964 9.808751
-0.217543 -0.021378 9.808751
-0.021726 -0.002135 9.808751
-0.036333 -0.004054 9.808751
-0.225888 -0.025205 9.808751
-0.326407 -0.036421 9.808751
-0.116410 -0.012989 9.808751
-0.310507 -0.034647 9.808751
-0.292683 -0.032658 9.808751
-0.027767 -0.003098 9.808751
-0.275599 -0.030752 9.808751
-0.123249 -0.013752 9.808751
-0.105172 -0.011735 9.808751
-0.580888 -0.102300 9.808751
-0.438711 -0.077261 9.808751
-0.121696 -0.021432 9.808751
-0.028677 -0.005050 9.808751
-0.619520 -0.109104 9.808751
-0.447200 -0.078757 9.808751
-0.482983 -0.085058 9.808751
-0.070312 -0.012383 9.808751
-0.468411 -0.082492 9.808751
-0.123550 -0.021758 9.808751
-0.064661 -0.012187 9.808751
-0.237623 -0.044788 9.808751
-0.276908 -0.052192 9.808751
-0.015777 -0.002974 9.808751
-0.128926 -0.024300 9.808751
-0.270652 -0.051013 9.808751
-0.661726 -0.124723 9.808751
-0.559192 -0.105397 9.808751
-0.607039 -0.114415 9.808751
-0.403085 -0.075974 9.808751
-0.330822 -0.079411 9.808751
-0.202416 -0.048588 9.808751
-0.068689 -0.016488 9.808751
-0.012830 -0.003080 9.808751
-0.268295 -0.064402 9.808751
-0.051731 -0.012418 9.808751
-0.101904 -0.024461 9.808751
-0.197237 -0.047345 9.808751
-0.312210 -0.074944 9.808751
-0.017543 -0.004211 9.808751
-0.012310 -0.003128 9.808751
-0.301640 -0.076635 9.808751
-0.222609 -0.056557 9.808751
-0.290954 -0.073920 9.808751
-0.316735 -0.080470 9.808751
-0.118054 -0.029993 9.808751
-0.321261 -0.081620 9.808751
-0.026839 -0.006819 9.808751
-0.281907 -0.071622 9.808751
-0.333665 -0.084772 9.808751
-0.228332 -0.066305 9.808751
-0.505523 -0.146799 9.808751
-0.249048 -0.072321 9.808751
-0.311777 -0.090537 9.808751
-0.738487 -0.214449 9.808751
-0.497663 -0.144516 9.808751
-0.352044 -0.102230 9.808751
-0.704316 -0.204526 9.808751
-0.062079 -0.018027 9.808751
-0.153549 -0.044589 9.808751
-0.241086 -0.074001 9.808751
-0.043785 -0.013440 9.808751
-0.050242 -0.015422 9.808751
-0.173031 -0.053111 9.808751
-0.044901 -0.013782 9.808751
-0.203743 -0.062539 9.808751
-0.044237 -0.013578 9.808751
-0.314695 -0.096595 9.808751
-0.168836 -0.051824 9.808751
-0.098871 -0.030348 9.808751
-0.042640 -0.020733 9.808751
-0.285197 -0.138674 9.808751
-0.570122 -0.277216 9.808751
-0.333162 -0.161997 9.808751
-0.034588 -0.016818 9.808751
-0.514011 -0.249933 9.808751
-0.458320 -0.222854 9.808751
-0.134170 -0.065239 9.808751
-0.061651 -0.029977 9.808751
-0.251875 -0.122472 9.808751
-0.035501 -0.020386 9.808751
-0.216844 -0.124521 9.808751
-0.455031 -0.261298 9.808751
-0.081281 -0.046675 9.808751
-0.285580 -0.163992 9.808751
-0.070298 -0.040368 9.808751
-0.101479 -0.058273 9.808751
-0.355898 -0.204372 9.808751
-0.037432 -0.021495 9.808751
-0.506519 -0.290864 9.808751
-0.572218 -0.401889 9.808751
-0.429125 -0.301389 9.808751
-0.044629 -0.031344 9.808751
-0.458103 -0.321742 9.808751
-0.028611 -0.020095 9.808751
-0.201334 -0.141404 9.808751
-0.502491 -0.352917 9.808751
-0.035829 -0.025164 9.808751
-0.652427 -0.458223 9.808751
-0.110931 -0.077910 9.808751
-0.060105 -0.047500 9.808751
-0.031216 -0.024669 9.808751
-0.031494 -0.024889 9.808751
-0.147689 -0.116716 9.808751
-0.075693 -0.059819 9.808751
-0.266596 -0.210687 9.808751
-0.074617 -0.058968 9.808751
-0.191235 -0.151130 9.808751
-0.239740 -0.189463 9.808751
-0.141482 -0.111811 9.808751
-0.246068 -0.195793 9.808751
-0.419311 -0.333639 9.808751
-0.534282 -0.425121 9.808751
-0.222992 -0.177432 9.808751
-0.665786 -0.529757 9.808751
-0.084498 -0.067234 9.808751
-0.399503 -0.317879 9.808751
-0.639194 -0.508598 9.808751
-0.509951 -0.405761 9.808751
-0.601828 -0.478866 9.808751
-0.408339 -0.377509 9.808751
-0.274437 -0.253716 9.808751
-0.394103 -0.364347 9.808751
-0.301028 -0.278300 9.808751
-0.099866 -0.092325 9.808751
-0.535079 -0.494679 9.808751
-0.317453 -0.293484 9.808751
-0.198746 -0.183740 9.808751
-0.222360 -0.205571 9.808751
-0.012010 -0.011103 9.808751
-0.264342 -0.250913 9.808751
-0.059520 -0.056496 9.808751
-0.060662 -0.057580 9.808751
-0.050995 -0.048404 9.808751
-0.442104 -0.419643 9.808751
-0.143703 -0.136402 9.808751
-0.399650 -0.379346 9.808751
-0.017908 -0.016998 9.808751
-0.150649 -0.142995 9.808751
-0.052775 -0.050093 9.808751
-0.158949 -0.161659 9.808751
-0.205048 -0.208544 9.808751
-0.407235 -0.414179 9.808751
-0.014167 -0.014409 9.808751
-0.018191 -0.018501 9.808751
-0.046169 -0.046956 9.808751
-0.462936 -0.470830 9.808751
-0.001889 -0.001922 9.808751
-0.299902 -0.305016 9.808751
-0.221770 -0.225552 9.808751
-0.014433 -0.015664 9.808751
-0.287992 -0.312556 9.808751
-0.124984 -0.135644 9.808751
-0.226362 -0.245670 9.808751
-0.172551 -0.187269 9.808751
-0.126549 -0.137343 9.808751
-0.297006 -0.322339 9.808751
-0.133097 -0.144449 9.808751
-0.319938 -0.347227 9.808751
-0.145069 -0.157442 9.808751
-0.303660 -0.349310 9.808751
-0.413284 -0.475413 9.808751
-0.482526 -0.555064 9.808751
-0.439665 -0.505759 9.808751
-0.348917 -0.401370 9.808751
-0.217483 -0.250177 9.808751
-0.428595 -0.493025 9.808751
-0.266101 -0.306104 9.808751
-0.172329 -0.198235 9.808751
-0.070516 -0.081117 9.808751
-0.486641 -0.607413 9.808751
-0.446387 -0.557170 9.808751
-0.553397 -0.690737 9.808751
-0.539474 -0.673358 9.808751
-0.144988 -0.180971 9.808751
-0.263574 -0.328987 9.808751
-0.369625 -0.461357 9.808751
-0.421983 -0.526709 9.808751
-0.090953 -0.113526 9.808751
-0.061782 -0.077114 9.808751
-0.227496 -0.320408 9.808751
-0.358472 -0.504876 9.808751
-0.323382 -0.455455 9.808751
-0.045689 -0.064348 9.808751
-0.088626 -0.124822 9.808751
-0.413598 -0.582516 9.808751
-0.424834 -0.598341 9.808751
-0.480286 -0.676441 9.808751
-0.428492 -0.603494 9.808751
-0.422486 -0.595034 9.808751
-0.246424 -0.369105 9.808751
-0.091141 -0.136515 9.808751
-0.037528 -0.056211 9.808751
-0.119049 -0.178316 9.808751
-0.242509 -0.363241 9.808751
-0.162115 -0.242823 9.808751
-0.003835 -0.005744 9.808751
-0.325311 -0.487265 9.808751
-0.307203 -0.460143 9.808751
-0.370646 -0.555170 9.808751
-0.208630 -0.384229 9.808751
-0.170719 -0.314409 9.808751
-0.109783 -0.202185 9.808751
-0.032555 -0.059956 9.808751
-0.080811 -0.148827 9.808751
-0.103646 -0.190882 9.808751
-0.076775 -0.141395 9.808751
-0.058589 -0.107902 9.808751
-0.229903 -0.423406 9.808751
-0.182811 -0.336679 9.808751
-0.001081 -0.002034 9.808751
-0.154455 -0.290613 9.808751
-0.016907 -0.031812 9.808751
-0.100502 -0.189098 9.808751
-0.030971 -0.058274 9.808751
-0.214701 -0.403967 9.808751
-0.145926 -0.274565 9.808751
-0.027729 -0.052174 9.808751
-0.069175 -0.130156 9.808751
-0.046930 -0.088300 9.808751
-0.274128 -0.549494 9.808751
-0.303479 -0.608328 9.808751
-0.308772 -0.618937 9.808751
-0.245812 -0.492733 9.808751
-0.304223 -0.609818 9.808751
-0.050270 -0.100766 9.808751
-0.063709 -0.127706 9.808751
-0.137138 -0.274896 9.808751
-0.242739 -0.486573 9.808751
-0.210606 -0.422163 9.808751
-0.104621 -0.216555 9.808751
-0.200279 -0.414558 9.808751
-0.156027 -0.322959 9.808751
-0.111324 -0.230429 9.808751
-0.090635 -0.187605 9.808751
-0.260531 -0.539272 9.808751
-0.224076 -0.463814 9.808751
-0.361487 -0.748240 9.808751
-0.283747 -0.587327 9.808751
-0.095922 -0.198548 9.808751
-0.389371 -0.829064 9.808751
-0.080762 -0.171962 9.808751
-0.151223 -0.321989 9.808751
-0.140045 -0.298189 9.808751
-0.329788 -0.702197 9.808751
-0.181220 -0.385860 9.808751
-0.185386 -0.394731 9.808751
-0.371633 -0.791296 9.808751
-0.338668 -0.721105 9.808751
-0.310320 -0.660744 9.808751
-0.142025 -0.310165 9.808751
-0.099080 -0.216379 9.808751
-0.361479 -0.789428 9.808751
-0.234626 -0.512395 9.808751
-0.056509 -0.123410 9.808751
-0.050507 -0.110302 9.808751
-0.169886 -0.371012 9.808751
-0.074561 -0.162833 9.808751
-0.002247 -0.004907 9.808751
-0.355205 -0.775727 9.808751
-0.118091 -0.280393 9.808751
-0.037353 -0.088689 9.808751
-0.045366 -0.107715 9.808751
-0.171932 -0.408232 9.808751
-0.213475 -0.506870 9.808751
-0.270774 -0.642919 9.808751
-0.026087 -0.061940 9.808751
-0.203213 -0.482504 9.808751
-0.130692 -0.310310 9.808751
-0.289734 -0.687936 9.808751
-0.196347 -0.554404 9.808751
-0.034829 -0.098343 9.808751
-0.222496 -0.628238 9.808751
-0.057516 -0.162402 9.808751
-0.168714 -0.476380 9.808751
-0.232240 -0.655751 9.808751
-0.022792 -0.064355 9.808751
-0.226326 -0.639052 9.808751
-0.151359 -0.427376 9.808751
-0.068981 -0.194773 9.808751
-0.049465 -0.546203 9.808751
-0.047451 -0.523968 9.808751
-0.090325 -0.997402 9.808751
-0.032905 -0.363352 9.808751
-0.069996 -0.772922 9.808751
-0.050257 -0.554958 9.808751
-0.004439 -0.049018 9.808751
-0.012368 -0.136569 9.808751
-0.033700 -0.372130 9.808751
-0.025329 -0.279696 9.808751
-0.075938 -0.898849 9.808751
-0.034965 -0.413871 9.808751
-0.050939 -0.602948 9.808751
-0.030852 -0.365189 9.808751
-0.001162 -0.013750 9.808751
-0.063962 -0.757093 9.808751
-0.051826 -0.613448 9.808751
-0.064230 -0.760270 9.808751
-0.033979 -0.402197 9.808751
-0.040649 -0.481153 9.808751
0.009986 -1.110816 9.808751
0.010885 -1.210827 9.808751
0.009901 -1.101379 9.808751
0.005460 -0.607384 9.808751
0.006593 -0.733370 9.808751
0.011014 -1.225232 9.808751
0.007463 -0.830160 9.808751
0.003727 -0.414541 9.808751
0.006610 -0.735338 9.808751
0.006350 -0.706345 9.808751
0.019759 -0.568575 9.808751
0.039539 -1.137730 9.808751
0.002257 -0.064935 9.808751
0.002704 -0.077808 9.808751
0.017676 -0.508622 9.808751
0.009508 -0.273599 9.808751
0.037941 -1.091753 9.808751
0.002656 -0.076420 9.808751
0.002389 -0.068747 9.808751
0.018285 -0.526163 9.808751
0.048433 -0.503244 9.808751
0.019744 -0.205149 9.808751
0.098517 -1.023643 9.808751
0.053899 -0.560045 9.808751
0.018880 -0.196177 9.808751
0.000212 -0.002202 9.808751
0.058172 -0.604435 9.808751
0.073767 -0.766479 9.808751
0.044102 -0.458248 9.808751
0.012841 -0.133430 9.808751
0.039167 -0.383701 9.808751
0.082080 -0.804104 9.808751
0.014498 -0.142033 9.808751
0.037030 -0.362764 9.808751
0.119535 -1.171028 9.808751
0.112588 -1.102971 9.808751
0.069868 -0.684461 9.808751
0.041071 -0.402351 9.808751
0.115701 -1.133468 9.808751
0.122088 -1.196044 9.808751
0.046952 -0.384443 9.808751
0.057349 -0.469578 9.808751
0.109542 -0.896931 9.808751
0.114759 -0.939653 9.808751
0.059246 -0.485110 9.808751
0.106559 -0.872512 9.808751
0.036872 -0.301905 9.808751
0.110976 -0.908678 9.808751
0.115051 -0.942040 9.808751
0.043886 -0.359342 9.808751
0.227052 -1.038323 9.808751
0.067474 -0.308565 9.808751
0.151049 -0.690756 9.808751
0.136434 -0.623922 9.808751
0.068783 -0.314549 9.808751
0.059321 -0.271277 9.808751
0.027392 -0.125264 9.808751
0.222902 -1.019346 9.808751
