-1.283209 2.363889 4.634576
-1.181723 2.176936 5.511612
-1.081759 2.515431 2.017846
-1.074925 2.499539 2.772809
-1.079539 2.510267 3.399291
-1.091305 2.537628 4.068931
-1.123666 2.612877 4.819919
-1.018452 2.368221 5.361771
-0.912448 2.782004 2.226555
-0.886962 2.704297 2.471273
-0.897494 2.736408 3.366108
-0.887254 2.705188 3.739139
-0.890449 2.714930 4.739796
-0.847768 2.584796 5.451454
-0.668713 2.939702 2.033848
-0.669974 2.945246 2.457412
-0.679707 2.988034 3.209840
-0.686101 3.016142 3.897467
-0.680278 2.990541 4.621689
-0.612189 2.691218 5.085868
-0.425071 3.079954 2.306547
-0.417573 3.025628 2.564972
-0.421991 3.057637 3.182009
-0.434973 3.151705 3.997166
-0.443650 3.214572 4.629281
-0.405836 2.940588 5.121278
-0.161938 3.261349 2.034181
-0.163192 3.286621 2.688512
-0.164915 3.321316 3.300934
-0.164978 3.322592 3.749255
-0.166349 3.350200 4.340106
-0.160327 3.228907 5.034550
0.155199 3.509749 1.992744
0.154678 3.497972 2.511133
0.156629 3.542094 3.243658
0.159121 3.598447 3.934135
0.161432 3.650714 4.821371
0.157034 3.551250 5.288703
0.447255 3.344513 2.160989
0.447563 3.346817 2.807039
0.457257 3.419303 3.725746
0.454967 3.402181 4.176318
0.717908 3.269305 1.216960
0.668534 3.044456 1.647427
0.665267 3.029581 2.205615
0.671153 3.056384 2.846707
0.680307 3.098071 3.504395
0.693314 3.157306 4.545535
0.956953 3.059020 1.407388
0.887136 2.835840 1.731464
0.890216 2.845685 2.596513
0.904390 2.890995 3.111260
0.932509 2.980880 3.936368
0.916396 2.929373 4.466468
0.875589 2.798928 5.057703
1.171389 2.792777 1.373232
1.095619 2.612129 1.926548
1.101867 2.627026 2.505199
1.100083 2.622772 3.018531
1.086765 2.591020 4.045480
1.092106 2.603754 4.684157
1.037823 2.474334 5.080888
1.234342 2.351741 2.280379
1.232630 2.348479 2.847726
1.233949 2.350993 3.606464
1.235119 2.353221 4.230211
1.362597 2.115900 2.428449
1.354461 2.103266 3.112374
1.407036 2.184906 3.768981
1.411459 2.191774 4.411263
1.362146 2.115200 4.984980
1.680018 2.144756 1.284371
1.511169 1.929199 1.820894
1.543435 1.970390 2.861319
1.585736 2.024393 3.304315
1.571609 2.006358 3.974956
1.578481 2.015131 4.610114
1.438966 1.837022 5.111167
1.746986 1.859921 1.342937
1.693858 1.803359 2.190112
1.725886 1.837457 2.781928
1.706461 1.816777 3.503569
1.670546 1.778540 4.110979
1.831557 1.627806 2.209027
1.827047 1.623798 3.039986
1.784507 1.585990 3.463003
1.831268 1.627549 4.372049
1.925057 1.448549 2.332954
1.932701 1.454301 3.285634
1.988254 1.496103 3.895457
1.921024 1.445514 4.220697
1.955476 1.471438 5.031093
2.401279 1.482941 1.229333
2.087615 1.289234 1.872429
2.022147 1.248803 2.560559
2.024102 1.250011 3.141904
2.083515 1.286702 3.778296
2.101557 1.297844 4.334278
2.059144 1.271652 5.176594
2.206839 1.106807 2.112857
2.209535 1.108160 2.794921
2.176818 1.091751 3.440362
2.189206 1.097964 4.179709
2.311951 0.903110 2.301679
2.381402 0.930239 2.899594
2.462122 0.961770 3.720331
2.428244 0.948537 4.411263
2.520435 0.729043 2.179700
2.541965 0.735270 2.779443
2.587956 0.748573 3.274177
2.611779 0.755464 4.308693
2.550397 0.737709 4.569983
2.355235 0.681258 5.365653
2.701955 0.525884 2.230577
2.767057 0.538555 2.746987
2.828530 0.550519 3.606121
2.759210 0.537027 4.425849
3.145716 0.331078 0.963697
2.965409 0.312101 1.908833
2.988673 0.314549 2.577548
2.967381 0.312308 2.902727
2.977737 0.313398 3.490431
3.031073 0.319012 4.314839
3.167362 0.057803 1.106406
3.081605 0.056238 1.911098
3.092080 0.056429 2.417815
3.157283 0.057619 3.378473
3.177268 0.057984 3.767485
3.214751 0.058668 4.599487
3.135614 0.057224 5.214488
3.242123 -0.245214 2.194916
3.281298 -0.248177 2.688512
3.337182 -0.252404 3.492942
3.341260 -0.252712 3.941245
3.354288 -0.253698 4.406841
3.231933 -0.244444 5.084800
3.573369 -0.569680 2.068929
3.518735 -0.560970 2.647916
3.530280 -0.562810 3.282424
3.549682 -0.565904 3.876198
3.645896 -0.581242 4.739267
3.464937 -0.552393 5.168517
3.752965 -0.946577 1.163289
3.624155 -0.914088 1.548173
3.634529 -0.916704 2.134549
3.668055 -0.925160 3.110215
3.607267 -0.909828 3.458657
3.593032 -0.906238 4.323938
3.585238 -0.904272 4.611694
3.369673 -0.849902 5.413912
3.331914 -1.174856 1.458884
3.253563 -1.147229 1.779814
3.265523 -1.151447 2.338641
3.215987 -1.133980 2.896373
3.283571 -1.157810 3.780880
3.347158 -1.180231 4.464799
3.261289 -1.149954 4.861121
2.932756 -1.339239 2.163186
2.987303 -1.364147 2.891452
2.983845 -1.362568 3.348113
3.004893 -1.372180 3.964348
3.019296 -1.378757 4.618099
2.805676 -1.281207 5.500717
2.909465 -1.649056 1.141850
2.707531 -1.534602 1.554933
2.784817 -1.578407 2.519023
2.779364 -1.575316 2.739184
2.798088 -1.585929 3.669236
2.773624 -1.572063 4.047502
2.612528 -1.822782 0.879027
2.467158 -1.721356 1.932608
2.520230 -1.758385 2.487132
2.552355 -1.780799 2.933109
2.618181 -1.826726 3.680587
2.585611 -1.804002 4.343004
2.559201 -1.785575 4.966675
2.370441 -1.965905 1.396268
2.290491 -1.899600 1.807487
2.260601 -1.874810 2.659894
2.254391 -1.869660 3.112813
2.270180 -1.882755 3.752565
2.331470 -1.933585 4.704990
2.277787 -1.889063 5.366212
2.044138 -2.030207 2.272498
2.036051 -2.022175 2.452343
2.048864 -2.034901 3.202521
2.076449 -2.062298 3.772489
2.096115 -2.081830 4.543536
1.949678 -1.936391 5.166484
1.828351 -2.181611 2.138637
1.817382 -2.168522 2.575103
1.836795 -2.191686 3.411194
1.879936 -2.243163 4.167991
1.619725 -2.308866 2.123374
1.652792 -2.356002 2.844283
1.654413 -2.358312 3.374580
1.655064 -2.359240 4.018873
1.573923 -2.776621 1.071959
1.493508 -2.634758 1.855168
1.508633 -2.661440 2.310276
1.495880 -2.638942 3.153416
1.446962 -2.552645 3.625730
1.447801 -2.554124 4.235659
1.453753 -2.564625 5.150719
1.283242 -2.788041 1.143683
1.247359 -2.710079 1.934167
1.282610 -2.786668 2.419768
1.305724 -2.836886 3.288746
1.271253 -2.761992 3.673126
1.261506 -2.740815 4.276125
1.236040 -2.685487 4.889140
1.054629 -2.957891 1.031694
1.034747 -2.902129 1.894263
1.041097 -2.919938 2.510363
1.057159 -2.964985 3.286094
1.076825 -3.020143 3.993945
1.086863 -3.048297 4.570662
1.040218 -2.917472 5.134547
0.782792 -3.057318 1.889669
0.785324 -3.067207 2.699432
0.803589 -3.138545 3.437296
0.827659 -3.232555 4.214923
0.818059 -3.195059 4.476054
0.750961 -2.932997 5.172158
0.524067 -3.229949 2.134578
0.518006 -3.192594 2.617505
0.528047 -3.254476 3.498612
0.539103 -3.322622 4.058034
0.269411 -3.506145 2.042540
0.267827 -3.485531 2.737483
0.264021 -3.435991 3.254267
0.262664 -3.418339 3.956634
0.270815 -3.524417 4.865901
0.258253 -3.360930 5.398054
-0.051334 -3.944793 1.152208
-0.049500 -3.803893 1.841634
-0.049901 -3.834670 2.599406
-0.049990 -3.841536 2.946569
-0.049435 -3.798850 3.699749
-0.049161 -3.777790 4.120633
-0.416384 -4.025518 1.712242
-0.418730 -4.048197 2.406838
-0.424340 -4.102437 3.247730
-0.429482 -4.152148 3.876448
-0.428660 -4.144206 4.365856
-0.430610 -4.163057 5.120466
-0.844993 -4.309462 1.046281
-0.798548 -4.072593 1.763411
-0.796195 -4.060591 1.968168
-0.803139 -4.096009 2.742011
-0.796515 -4.062224 3.155619
-0.803808 -4.099421 3.900806
-0.799215 -4.075992 4.450750
-0.773918 -3.946979 5.056150
-1.165805 -3.981025 1.225804
-1.105049 -3.773550 1.883127
-1.101366 -3.760975 2.064890
-1.100593 -3.758337 2.666673
-1.102430 -3.764608 3.468676
-1.099456 -3.754451 4.177449
-1.079416 -3.686019 4.556248
-1.001915 -3.421368 5.201580
-1.395047 -3.577217 1.000055
-1.348322 -3.457406 1.516470
-1.354377 -3.472931 2.517363
-1.340809 -3.438140 3.186491
-1.355525 -3.475876 3.758332
-1.335476 -3.424466 4.109400
-1.623669 -3.283025 0.939794
-1.527692 -3.088962 1.713273
-1.535856 -3.105470 2.363581
-1.572229 -3.179014 3.008956
-1.554821 -3.143815 3.575567
-1.537729 -3.109257 4.256064
-1.800586 -2.930930 1.013333
-1.717559 -2.795781 1.890376
-1.742237 -2.835951 2.542218
-1.749051 -2.847044 3.214800
-1.777144 -2.892771 3.690153
-1.806421 -2.940427 4.309427
-1.813507 -2.951963 5.056356
-1.934191 -2.591094 1.926958
-1.929732 -2.585120 2.516981
-1.958954 -2.624267 3.297928
-1.972832 -2.642858 3.922559
-2.001815 -2.681685 4.631063
-1.898749 -2.543616 5.139019
-2.100736 -2.371846 2.082767
-2.110014 -2.382321 2.596582
-2.128384 -2.403062 3.160806
-2.175947 -2.456763 3.992645
-2.146559 -2.423582 4.579037
-2.013380 -2.273216 5.517920
-2.291500 -2.162884 2.193650
-2.321061 -2.190786 2.976336
-2.359187 -2.226772 3.691393
-2.404198 -2.269257 4.355485
-2.492229 -1.956571 1.123194
-2.434237 -1.911042 1.699246
-2.453171 -1.925907 2.432677
-2.521472 -1.979528 3.356252
-2.544273 -1.997428 3.820045
-2.498382 -1.961400 4.331122
-2.393724 -1.879237 5.264889
-2.648634 -1.727455 2.344797
-2.667311 -1.739636 2.900840
-2.713907 -1.770026 3.657898
-2.729923 -1.780472 4.012611
-2.823897 -1.509889 1.340314
-2.754068 -1.472553 1.756718
-2.789724 -1.491618 2.361588
-2.852023 -1.524928 3.149873
-2.876232 -1.537872 3.833697
-2.885283 -1.542711 4.292089
-2.755660 -1.473404 5.147255
-2.972572 -1.245334 2.146428
-2.998128 -1.256041 2.801726
-3.011069 -1.261462 3.434515
-3.063022 -1.283227 4.098022
-3.074985 -1.288239 4.547593
-2.834052 -1.187302 5.138651
-3.022508 -0.965643 2.149913
-3.051917 -0.975038 2.839809
-3.106228 -0.992390 3.401042
-3.139526 -1.003028 3.905841
-3.649466 -0.809046 0.953945
-3.391551 -0.751869 1.761736
-3.289218 -0.729183 2.085943
-3.250220 -0.720538 2.836662
-3.313112 -0.734480 3.462275
-3.372635 -0.747676 4.334376
-3.694567 -0.477482 1.284482
-3.511740 -0.453854 1.616457
-3.518421 -0.454717 2.132070
-3.550844 -0.458908 2.838445
-3.593563 -0.464428 3.704526
-3.518052 -0.454670 4.093055
-3.742748 -0.170219 2.109842
-3.839504 -0.174619 2.962989
-3.866208 -0.175834 3.449808
-3.839607 -0.174624 4.228833
-3.845213 -0.174879 4.773520
-3.639470 -0.165522 5.213719
-4.095324 0.187423 1.260419
-3.994309 0.182800 1.739604
-4.008664 0.183457 2.321064
-4.012629 0.183638 2.937686
-4.071879 0.186350 3.698841
-4.110163 0.188102 4.356837
-3.933879 0.535122 1.151249
-3.895634 0.529920 1.874942
-3.855928 0.524518 2.371712
-3.888002 0.528881 3.012963
-3.909053 0.531745 3.656934
-3.890375 0.529204 4.451246
-3.810342 0.518317 5.060678
-3.580181 0.824765 1.253582
-3.454974 0.795922 1.699374
-3.445226 0.793676 2.308024
-3.459247 0.796906 3.042117
-3.461391 0.797400 3.738489
-3.397582 0.782700 4.202769
-3.390025 0.780959 4.832259
-3.153781 1.032197 1.117724
-3.089004 1.010996 1.791465
-3.050882 0.998519 2.315853
-3.089574 1.011183 3.308972
-3.130340 1.024525 3.889122
-3.156865 1.033207 4.464090
-3.148589 1.030498 5.210352
-2.961734 1.270894 2.146428
-2.930617 1.257541 2.368064
-2.917760 1.252025 3.062676
-2.977402 1.277617 4.057728
-3.019756 1.295792 4.392453
-2.812215 1.206735 5.062856
-2.716316 1.447015 1.354177
-2.682333 1.428912 2.023779
-2.655505 1.414620 2.305568
-2.694678 1.435489 3.100332
-2.680610 1.427994 3.853160
-2.644530 1.408774 4.485645
-2.546554 1.356581 5.230793
-2.569702 1.685385 1.244727
-2.452060 1.608228 1.920368
-2.367086 1.552496 2.592075
-2.366563 1.552153 3.131284
-2.408257 1.579499 3.803944
-2.431309 1.594618 4.394847
-2.338680 1.533865 5.306874
-2.346259 1.864387 1.213987
-2.158265 1.715003 1.914171
-2.144457 1.704031 2.385585
-2.183623 1.735153 3.221275
-2.165425 1.720693 3.473128
-2.214180 1.759434 4.544694
-2.133213 1.695096 4.864606
-1.945416 1.854519 2.012548
-1.967773 1.875832 2.747261
-1.977899 1.885484 3.623416
-1.960327 1.868733 4.041325
-1.775678 2.017004 2.363821
-1.773188 2.014175 2.913676
-1.787932 2.030924 3.609260
-1.809171 2.055049 4.444914
-1.664171 2.301192 1.024768
-1.519613 2.101300 1.683990
-1.544384 2.135552 2.341975
-1.550984 2.144679 3.054922
-1.570138 2.171165 3.811197
-1.573938 2.176420 4.252440
-1.520406 2.102396 4.841102
-1.458107 2.416831 1.237822
-1.386198 2.297641 1.944344
-1.381855 2.290442 2.527779
-1.417379 2.349324 3.268968
-1.448604 2.401079 4.003018
-1.388170 2.300909 4.443439
-1.327197 2.199846 5.310435
-1.247056 2.565925 1.364037
-1.167487 2.402204 1.731148
-1.170502 2.408408 2.561891
-1.183496 2.435144 3.160839
-1.182977 2.434075 3.825212
-1.177940 2.423711 4.668671
-1.102876 2.269262 5.186103
-0.975658 2.581931 2.332651
-0.977541 2.586915 2.708866
-0.964608 2.552690 3.365238
-0.963688 2.550255 4.177595
-0.832151 2.898547 1.044313
-0.793586 2.764215 1.813312
-0.786289 2.738800 2.513680
-0.776609 2.705080 2.970007
-0.794941 2.768937 4.010401
-0.795175 2.769752 4.389879
-0.766886 2.671214 5.047848
-0.568884 2.984916 2.015349
-0.576517 3.024969 2.851306
-0.581201 3.049543 3.350283
-0.563193 2.955056 3.822505
-0.554065 2.907165 4.404740
-0.525432 2.756929 5.060837
-0.320856 3.108991 2.187021
-0.325263 3.151693 2.995532
-0.325227 3.151344 3.470821
-0.330793 3.205279 4.299017
-0.047676 3.251633 2.203287
-0.047867 3.264682 2.682329
-0.048549 3.311171 3.403889
-0.048985 3.340932 4.061322
0.279799 3.523744 2.299730
0.280149 3.528154 2.934331
0.278610 3.508768 3.238013
0.281874 3.549874 4.006866
0.288033 3.627442 4.883168
0.276452 3.481592 5.222542
0.571525 3.374349 2.132491
0.578438 3.415165 2.933221
0.571780 3.375855 3.281893
0.583736 3.446442 4.083118
0.590065 3.483809 4.696136
0.528549 3.120614 5.235502
0.866114 3.257039 1.165935
0.811848 3.052973 1.940050
0.802462 3.017677 2.144991
0.820136 3.084140 3.222082
0.822759 3.094003 3.543494
0.827797 3.112948 4.290638
1.070161 2.959480 1.216507
1.017966 2.815137 1.679422
1.030398 2.849517 2.575472
1.043853 2.886726 3.260369
1.041364 2.879842 3.644909
1.067724 2.952738 4.602187
1.024796 2.834024 5.087817
1.311551 2.794633 0.932380
1.196789 2.550100 1.654945
1.178531 2.511195 2.511221
1.177320 2.508615 3.042780
1.160528 2.472836 3.614904
1.152124 2.454927 4.257589
1.184235 2.523350 5.098841
1.334740 2.320792 2.227398
1.345981 2.340337 2.817631
1.363331 2.370505 3.640441
1.327870 2.308847 4.272873
1.482246 2.109397 2.243058
1.487898 2.117441 2.965719
1.457428 2.074079 3.655044
1.475703 2.100086 4.303522
1.500909 2.135957 4.943680
1.664884 1.974019 2.621382
1.664274 1.973296 3.156314
1.633666 1.937005 3.646477
1.650310 1.956740 4.610114
1.634926 1.938499 5.263215
1.925149 1.889830 1.242789
1.770611 1.738127 1.913853
1.741899 1.709942 2.728401
1.721460 1.689878 3.460276
1.747950 1.715882 3.987515
1.784658 1.751917 4.723949
1.675942 1.645195 5.046864
2.060616 1.698522 1.184077
1.894519 1.561612 1.898194
1.848932 1.524036 2.489708
1.817193 1.497874 3.152996
1.861807 1.534648 3.896074
1.921872 1.584158 4.655330
1.800162 1.483836 5.261782
2.108979 1.445369 2.614903
2.081287 1.426391 3.075634
2.037335 1.396268 3.950040
2.034889 1.394592 4.492274
2.002849 1.372634 5.069422
2.330236 1.304269 1.184077
2.169270 1.214174 1.991078
2.103748 1.177500 2.670360
2.114168 1.183333 3.554861
2.098974 1.174828 3.835867
2.158029 1.207882 4.535195
2.048327 1.146480 5.347979
2.282415 1.014856 2.171224
2.308363 1.026394 2.841916
2.342623 1.041627 3.894799
2.262593 1.006043 4.193586
2.503836 0.869586 1.313059
2.429737 0.843851 2.157502
2.415894 0.839043 2.623464
2.383927 0.827941 3.326691
2.406126 0.835651 4.157992
2.459729 0.854267 4.900946
2.243614 0.779210 5.210527
8.195514 2.043041 1.090803
2.551724 0.636113 2.265115
2.557043 0.637439 2.935395
2.525456 0.629565 3.361539
2.554703 0.636856 4.233561
2.913755 0.451537 1.258216
2.728910 0.422892 1.990720
2.788506 0.432128 2.481742
2.811452 0.435684 3.275513
2.760317 0.427759 3.711125
2.708932 0.419796 4.288256
2.688313 0.416601 5.153537
2.973401 0.200172 2.256758
2.961695 0.199384 2.733801
2.990281 0.201309 3.515754
2.959498 0.199236 4.085304
2.883547 0.194123 4.622183
2.664985 0.179409 5.460053
2.996530 -0.066404 2.145228
3.084159 -0.068345 2.910228
3.098233 -0.068657 3.299811
3.114145 -0.069010 4.065695
3.235111 -0.375781 2.270250
3.246888 -0.377149 2.724164
3.252923 -0.377850 3.297928
3.332340 -0.387075 4.161460
3.393904 -0.394226 4.918956
3.175016 -0.368801 5.558663
3.470052 -0.696269 2.007696
3.479997 -0.698264 2.774459
3.511199 -0.704525 3.340399
3.519110 -0.706112 3.834806
3.602264 -0.722797 4.623717
3.525078 -0.707310 5.375493
3.625410 -1.101672 0.985265
3.594064 -1.092147 1.877618
3.605973 -1.095766 2.406237
3.556090 -1.080607 2.950501
3.546750 -1.077769 3.560482
3.624029 -1.101252 4.539056
3.285285 -1.320056 2.374369
3.182137 -1.278610 2.550590
3.232266 -1.298752 3.586791
3.258159 -1.309157 4.199353
3.263384 -1.311256 4.588281
3.099494 -1.245404 5.369015
2.901008 -1.457737 2.127941
2.953836 -1.484283 2.855681
2.958134 -1.486442 3.395534
2.960515 -1.487639 3.844208
2.992284 -1.503603 4.477174
2.840928 -1.427547 5.017466
2.719064 -1.691214 2.206867
2.745021 -1.707359 2.879394
2.758152 -1.715526 3.283857
2.788613 -1.734473 4.009370
2.800722 -1.742004 4.646903
2.618624 -1.628742 5.353301
2.435621 -1.840914 1.845245
2.472208 -1.868568 2.790122
2.512639 -1.899127 3.302892
2.545159 -1.923706 4.064278
2.542501 -1.921698 4.406634
2.417565 -1.827268 5.189022
2.245799 -2.031969 1.855168
2.267993 -2.052050 2.615518
2.328000 -2.106343 3.440018
2.269038 -2.052995 3.833222
2.239424 -2.026201 4.645959
2.169576 -1.963003 5.319725
1.965343 -2.120522 2.408031
1.963004 -2.117998 2.672638
1.968945 -2.124407 3.287213
2.032555 -2.193040 4.262665
1.855535 -2.409533 1.060327
1.787892 -2.321695 1.886534
1.788230 -2.322133 2.268850
1.773348 -2.302808 3.140706
1.782468 -2.314651 3.730187
1.770599 -2.299238 4.171320
1.747561 -2.269321 4.947111
1.510115 -2.381316 2.114886
1.544988 -2.436307 2.638755
1.552182 -2.447651 3.304149
1.586748 -2.502159 4.059956
1.616002 -2.548289 4.629090
1.490895 -2.351007 5.230402
1.373107 -2.623908 2.343086
1.341333 -2.563191 2.731925
1.367460 -2.613119 3.538304
1.368170 -2.614475 3.966989
1.208555 -2.914215 1.401277
1.171124 -2.823957 1.912643
1.173400 -2.829446 2.360814
1.157504 -2.791114 3.035364
1.166672 -2.813222 3.715266
1.167255 -2.814628 4.486901
1.128767 -2.721821 5.142265
0.917216 -2.950934 2.037342
0.921354 -2.964248 2.560835
0.930405 -2.993366 3.160075
0.948272 -3.050850 4.097827
0.934878 -3.007757 4.497730
0.882331 -2.838698 5.146622
0.663694 -3.086955 1.914860
0.671057 -3.121205 2.714023
0.674569 -3.137540 3.152423
0.679178 -3.158976 3.990724
0.685186 -3.186919 4.558613
0.650646 -3.026270 5.273321
0.437834 -3.483264 0.878044
0.404759 -3.220130 1.707744
0.411391 -3.272895 2.485783
0.409470 -3.257612 2.883089
0.417349 -3.320293 3.704493
0.419961 -3.341076 4.253215
0.120333 -3.668356 1.162761
0.114223 -3.482081 1.927920
0.114617 -3.494105 2.444703
0.116721 -3.558260 2.890497
0.114609 -3.493867 3.475931
0.114650 -3.495099 4.277520
0.115330 -3.515856 4.758050
-0.217095 -3.872676 1.360119
-0.213732 -3.812685 1.659377
-0.212009 -3.781958 2.330233
-0.211356 -3.770295 3.044397
-0.210528 -3.755524 3.595800
-0.208815 -3.724978 4.143881
-0.213645 -3.811129 5.192265
-0.566349 -4.023411 1.973109
-0.567934 -4.034668 2.463869
-0.577808 -4.104814 3.434728
-0.578841 -4.112154 3.904054
-0.577625 -4.103514 4.385738
-0.570568 -4.053383 5.027373
-0.998269 -4.279600 1.126880
-0.940779 -4.033136 1.608992
-0.942524 -4.040619 2.130727
-0.947508 -4.061987 2.709531
-0.943149 -4.043299 3.269402
-0.953656 -4.088341 4.055007
-0.958266 -4.108105 4.864690
-0.923077 -3.957248 5.149809
-1.302691 -3.916058 1.316294
-1.242960 -3.736498 1.546121
-1.240310 -3.728533 2.212270
-1.250438 -3.758980 2.885332
-1.249190 -3.755228 3.332112
-1.249766 -3.756959 4.154205
-1.494854 -3.428206 1.011612
-1.474231 -3.380909 1.989562
-1.482219 -3.399229 2.585417
-1.455386 -3.337691 2.949521
-1.458713 -3.345321 3.500236
-1.472637 -3.377253 4.352237
-1.429152 -3.277529 4.961371
-1.698729 -3.142992 1.224586
-1.639659 -3.033703 1.754862
-1.648922 -3.050841 2.706474
-1.672535 -3.094529 2.969928
-1.660046 -3.071422 3.653246
-1.658110 -3.067839 4.558784
-1.646882 -3.047066 5.201829
-1.799403 -2.690292 1.977212
-1.847871 -2.762757 2.778207
-1.870243 -2.796205 3.423391
-1.882110 -2.813947 4.013075
-1.886563 -2.820605 4.606918
-1.743246 -2.606331 5.059128
-2.013316 -2.507780 1.625329
-2.043272 -2.545093 2.362307
-2.033574 -2.533013 2.776611
-2.037423 -2.537807 3.342456
-2.086118 -2.598461 4.181529
-2.226020 -2.305187 2.240404
-2.242325 -2.322072 2.829132
-2.265821 -2.346403 3.409411
-2.271491 -2.352274 3.900635
-2.311616 -2.393827 4.505846
-2.177163 -2.254592 5.050725
-2.437773 -2.113580 2.196699
-2.466086 -2.138128 2.944009
-2.459634 -2.132533 3.350826
-2.482880 -2.152688 4.213382
-2.573099 -1.844892 2.049191
-2.597042 -1.862058 2.451937
-2.649357 -1.899568 3.392673
-2.634833 -1.889154 3.674646
-2.694026 -1.931596 4.755534
-2.537992 -1.819721 5.285922
-3.093653 -1.825942 1.082861
-2.759950 -1.628983 1.399004
-2.689095 -1.587163 2.144991
-2.750741 -1.623548 3.001497
-2.788618 -1.645904 3.641149
-2.853293 -1.684076 4.226688
-2.990144 -1.444070 1.176192
-2.847598 -1.375228 1.990426
-2.837467 -1.370335 2.193650
-2.896134 -1.398668 3.219477
-2.930449 -1.415240 3.775111
-2.940987 -1.420329 4.250256
-2.901345 -1.401185 4.967528
-2.960521 -1.109935 1.982030
-2.997946 -1.123966 2.527407
-3.049052 -1.143126 3.359196
-3.059009 -1.146859 3.671675
-3.125886 -1.171932 4.743351
-2.920717 -1.095012 5.113629
-3.095706 -0.847063 1.945288
-3.163070 -0.865496 2.841274
-3.217044 -0.880264 3.156368
-3.229927 -0.883789 3.924556
-3.266399 -0.893769 4.727360
-3.069522 -0.839898 5.336211
-3.337478 -0.607586 2.402712
-3.252334 -0.592086 2.855681
-3.300166 -0.600793 3.559695
-3.322072 -0.604781 3.946389
-3.745017 -0.354775 0.911996
-3.548281 -0.336138 1.581988
-3.559030 -0.337156 2.163454
-3.609150 -0.341904 3.042918
-3.656709 -0.346410 3.698463
-3.625815 -0.343483 4.231862
-3.826260 -0.002739 1.304880
-3.642133 -0.002607 1.635943
-3.741903 -0.002679 2.383512
-3.750796 -0.002685 2.780986
-3.778414 -0.002705 3.735706
-3.808084 -0.002726 4.334444
-3.986562 0.342349 2.165926
-3.973310 0.341211 2.322997
-4.027043 0.345825 3.182459
-4.053894 0.348131 3.840475
-4.021131 0.345318 4.160229
-4.008934 0.344270 4.913308
-3.861308 0.685958 2.105834
-3.843269 0.682754 2.519223
-3.865865 0.686768 3.277569
-3.880925 0.689444 3.831863
-3.813400 0.677448 4.433976
-3.631402 0.645116 5.180487
-3.667633 0.975855 1.157964
-3.438324 0.914842 1.457686
-3.416593 0.909061 2.308024
-3.377548 0.898672 2.729178
-3.396011 0.903584 3.633670
-3.412409 0.907947 4.340412
-3.115945 1.139577 1.101018
-3.058648 1.118622 1.900284
-3.075202 1.124676 2.496169
-3.113105 1.138538 3.200705
-3.111062 1.137791 3.632318
-3.132599 1.145668 4.385363
-3.069776 1.122692 4.942815
-2.781642 1.321377 1.869010
-2.797654 1.328983 2.476712
-2.841695 1.349904 3.269294
-2.861185 1.359163 3.888068
-2.911092 1.382870 4.649767
-2.656507 1.261934 5.108445
-2.652346 1.563046 2.232653
-2.628899 1.549229 2.819904
-2.605935 1.535696 3.538232
-2.629203 1.549408 4.159771
-2.315670 1.646537 2.411897
-2.278348 1.620000 2.766176
-2.308755 1.641620 3.396951
-2.328477 1.655643 4.022081
-2.276191 1.971628 0.909336
-2.063648 1.787524 1.890163
-2.097803 1.817109 2.528223
-2.134743 1.849106 3.071876
-2.108665 1.826517 3.461863
-2.100732 1.819645 4.196465
-2.073710 1.796240 4.983779
-1.955853 2.003734 1.298277
-1.874007 1.919885 1.935817
-1.907707 1.954410 2.600376
-1.915297 1.962185 3.251948
-1.907710 1.954413 3.822174
-1.937702 1.985139 4.691598
-1.833269 1.878149 5.186905
-1.676382 2.062605 1.937362
-1.688023 2.076927 2.544835
-1.706573 2.099752 3.609260
-1.718760 2.114747 4.169081
-1.706271 2.099380 4.902538
-1.518529 1.868385 5.550356
-1.618917 2.401113 1.192502
-1.473428 2.185330 1.981605
-1.484229 2.201349 2.589535
-1.491682 2.212404 3.018375
-1.497114 2.220460 3.586547
-1.524719 2.261403 4.186109
-1.499993 2.224731 5.080888
-1.355920 2.446703 1.230320
-1.285860 2.320284 1.852025
-1.306439 2.357416 2.766498
-1.334796 2.408586 3.362559
-1.331553 2.402734 3.949838
-1.287644 2.323502 4.404294
-1.219353 2.200274 5.293064
-1.116721 2.500106 2.017846
-1.120751 2.509127 2.796125
-1.098724 2.459813 3.274177
-1.094460 2.450268 4.235388
-1.062092 2.377802 4.568660
-0.969797 2.171173 5.227747
-0.885127 2.616376 2.358166
-0.885045 2.616134 2.666345
-0.879909 2.600952 3.518444
-0.887368 2.623001 4.119953
-0.865073 2.557098 4.528673
-0.780160 2.306100 5.412826
-0.688695 2.811477 2.109802
-0.661488 2.700412 2.587726
-0.655614 2.676428 3.379572
-0.669511 2.733163 3.880992
-0.466050 3.130485 1.022462
-0.445529 2.992639 1.804574
-0.448050 3.009579 2.421721
-0.448117 3.010028 2.999212
-0.447550 3.006216 3.870019
-0.436480 2.931860 4.257626
-0.426290 2.863414 4.820730
-0.181801 3.189546 1.155830
-0.175983 3.087469 1.657175
-0.177750 3.118479 2.491524
-0.179313 3.145895 3.073550
-0.180779 3.171623 3.759093
-0.181629 3.186535 4.260548
-0.176875 3.103117 5.046359
0.084112 3.190540 2.055918
0.085893 3.258122 2.615383
0.086839 3.293988 3.481894
0.086471 3.280031 3.788786
0.089178 3.382722 4.710691
0.084936 3.221825 5.277400
0.426674 3.648751 1.245326
0.406601 3.477096 1.793507
0.408402 3.492499 2.384614
0.412300 3.525828 3.042117
0.415319 3.551646 3.727155
0.414650 3.545926 4.258803
0.721665 3.424940 1.285733
0.706462 3.352789 1.806241
0.708258 3.361312 2.307271
0.712611 3.381970 3.110288
0.726880 3.449691 3.927185
0.735070 3.488560 4.572541
0.722558 3.429177 5.143612
4.220838 -0.203789 1.471936
3.601311 -0.173877 2.208893
3.651133 -0.176282 2.903999
3.640955 -0.175791 3.780232
3.672739 -0.177325 4.459786
3.349931 -0.452083 1.738796
3.346433 -0.451611 2.540163
3.323235 -0.448480 3.433812
3.381306 -0.456317 4.171623
3.473062 -0.755753 1.779411
3.067395 -0.667478 2.397046
3.050862 -0.663881 3.272132
3.055090 -0.664801 4.148266
3.111902 -0.677163 4.933382
3.402150 -1.062533 1.463926
2.894289 -0.903922 2.021025
2.820756 -0.880956 3.086668
2.847806 -0.889404 3.892748
2.883010 -0.900399 4.724567
2.611116 -1.064126 2.006473
2.672434 -1.089115 2.733297
2.721249 -1.109009 3.459996
2.681837 -1.092947 4.480751
2.585156 -1.305311 1.535266
2.550052 -1.287586 2.482960
2.592729 -1.309135 3.144148
2.521890 -1.273366 4.168235
2.569430 -1.297370 4.824828
2.836032 -1.741195 1.614148
2.408165 -1.478504 2.240086
2.432730 -1.493586 2.937162
2.428333 -1.490887 3.754149
2.365032 -1.452023 4.816666
2.262676 -1.668817 1.902044
2.284061 -1.684590 2.653709
2.199228 -1.622022 3.640788
2.210832 -1.630580 4.597860
2.112666 -1.883527 2.292093
2.059808 -1.836402 3.368954
2.124400 -1.893988 4.041841
2.100006 -1.872240 4.934053
2.035706 -2.100887 1.711015
1.984775 -2.048326 2.748743
1.968538 -2.031568 3.532900
2.001721 -2.065814 4.244877
1.789723 -2.212066 3.090545
1.767755 -2.184914 3.854940
1.833136 -2.265725 4.430478
1.740583 -2.555966 1.706631
1.646781 -2.418222 2.323689
1.617524 -2.375259 3.219597
1.652204 -2.426185 4.018208
1.642330 -2.411686 4.640414
1.453364 -2.573921 1.946689
1.474807 -2.611896 2.593872
1.505720 -2.666644 3.286577
1.456651 -2.579741 4.372172
1.307963 -2.877202 1.918598
1.302714 -2.865655 2.755738
1.299847 -2.859348 3.627543
1.308029 -2.877345 4.341461
1.263533 -3.556920 1.603608
1.086900 -3.059686 2.276069
1.091217 -3.071839 3.134642
1.074953 -3.026055 4.066398
0.909928 -3.432139 1.727869
0.890540 -3.359009 2.690479
0.908619 -3.427201 3.425751
0.889580 -3.355390 4.438729
0.636841 -3.585531 2.008211
0.662754 -3.731424 2.594072
0.646623 -3.640608 3.649514
0.632512 -3.561157 4.549144
0.369469 -3.870435 2.130689
0.381029 -3.991536 2.777473
0.374959 -3.927944 3.702541
0.375562 -3.934268 4.368829
0.022716 -4.173176 1.237589
0.022782 -4.185322 2.023148
0.022459 -4.126025 2.885798
0.022149 -4.068987 3.864894
0.022517 -4.136722 4.586735
-0.316293 -4.018682 1.357665
-0.292259 -3.713314 2.006773
-0.301513 -3.830898 2.597959
-0.296355 -3.765362 3.653141
-0.301063 -3.825181 4.250210
-0.663077 -3.892825 1.127274
-0.590488 -3.466666 1.741955
-0.596127 -3.499771 2.518002
-0.591987 -3.475466 3.474992
-0.610259 -3.582741 4.012208
-0.960113 -3.756013 0.990923
-0.803348 -3.142741 1.796199
-0.825821 -3.230654 2.511928
-0.828187 -3.239910 3.324103
-0.850555 -3.327416 3.905677
-0.830352 -3.248380 5.057963
-1.153379 -3.433832 1.870551
-1.035319 -3.082343 2.327596
-1.035308 -3.082312 3.286218
-1.034338 -3.079423 4.109140
-1.038635 -3.092215 4.717788
-1.379430 -3.156294 1.898171
-1.249473 -2.858939 2.566673
-1.292495 -2.957378 3.082327
-1.278833 -2.926119 3.973770
-1.244859 -2.848383 5.074723
-1.723036 -3.189507 1.049289
-1.492164 -2.762141 1.485913
-1.468542 -2.718415 2.385352
-1.486366 -2.751409 3.128361
-1.481497 -2.742395 3.963403
-1.456424 -2.695984 5.049919
-1.867038 -2.863034 1.836145
-1.677799 -2.572842 2.427006
-1.670930 -2.562309 3.294913
-1.640352 -2.515418 4.263523
-1.678474 -2.573877 4.949965
-2.192653 -2.759951 1.605861
-1.894132 -2.384195 2.425373
-1.865299 -2.347901 3.377329
-1.950890 -2.455638 3.913493
-1.895050 -2.385350 4.799835
-2.084533 -2.259331 2.049791
-1.980086 -2.146126 3.238426
-2.056447 -2.228891 3.834970
-2.349992 -2.130298 1.893675
-2.309936 -2.093987 2.762592
-2.327030 -2.109482 3.560101
-2.273509 -2.060965 4.591113
-2.446882 -1.868574 3.312658
-2.416463 -1.845345 4.306065
-2.851607 -1.836050 1.774020
-2.635449 -1.696874 2.345441
-2.622886 -1.688785 3.212747
-2.632274 -1.694830 3.997341
-2.635593 -1.696967 4.924997
-3.304911 -1.756000 1.438481
-2.899865 -1.540787 2.193264
-2.952099 -1.568541 2.936144
-2.886103 -1.533475 3.850183
-3.565896 -1.493876 1.527506
-3.053203 -1.279091 2.195174
-3.130315 -1.311396 2.879872
-3.124150 -1.308813 3.820593
-3.159365 -1.323566 4.562189
-3.301824 -1.083271 1.951876
-3.242006 -1.063646 2.965313
-3.409719 -1.118670 3.452860
-3.325352 -1.090991 4.505534
-4.108005 -0.973027 0.971462
-3.558442 -0.842857 1.677716
-3.584758 -0.849090 2.586460
-3.595006 -0.851518 3.458008
-3.573092 -0.846327 4.261640
-3.835341 -0.580843 2.332019
-3.873221 -0.586580 3.054359
-3.777575 -0.572094 4.084939
-3.777242 -0.572044 4.864894
-3.785280 -0.247465 2.097262
-3.739349 -0.244462 2.943318
-3.775534 -0.246827 3.636861
-3.799409 -0.248388 4.397327
-3.952914 0.081427 0.948331
-3.442736 0.070918 1.426827
-3.366332 0.069344 2.437612
-3.359757 0.069208 3.350081
-3.489257 0.071876 3.832550
-3.390144 0.069834 4.876307
-3.132183 0.325842 1.883340
-3.145053 0.327181 2.722496
-3.163604 0.329111 3.527834
-3.133240 0.325952 4.441590
-2.930186 0.556562 1.646132
-2.830420 0.537613 2.553014
-2.954485 0.561178 3.156976
-2.827569 0.537071 4.312301
-2.848829 0.541109 5.142697
-2.682747 0.737747 2.090545
-2.579817 0.709442 3.109539
-2.743712 0.754513 3.626818
-2.730350 0.750838 4.438189
-2.464456 0.905771 1.950496
-2.442962 0.897871 2.892002
-2.562050 0.941640 3.376518
-2.556263 0.939513 4.226137
-2.394104 1.132838 1.594922
-2.302788 1.089629 2.570402
-2.341427 1.107912 3.320866
-2.344966 1.109587 4.071976
-2.316731 1.096226 5.045709
-2.506521 1.440910 1.725780
-2.248749 1.292725 2.209094
-2.233354 1.283876 3.088740
-2.220194 1.276311 3.807459
-2.183494 1.255213 4.792725
-2.091967 1.452313 2.067382
-2.171296 1.507386 2.600919
-2.048055 1.421828 3.566726
-2.086944 1.448826 4.215982
-1.922582 1.586893 2.316390
-2.007290 1.656811 2.892002
-1.921501 1.586001 3.848976
-1.966458 1.623108 4.555505
-1.856188 1.814617 1.529944
-1.814002 1.773377 2.595836
-1.866795 1.824987 3.270094
-1.841454 1.800214 4.122773
-1.914425 2.234696 1.434766
-1.655856 1.932870 2.258428
-1.671494 1.951125 3.105679
-1.658140 1.935537 3.909594
-1.640376 1.914801 4.860376
-1.534776 2.126939 3.510024
-1.561632 2.164156 4.301812
-1.353977 2.249962 2.513752
-1.349123 2.241896 3.390145
-1.343156 2.231982 4.114598
-1.390028 2.309870 4.741152
-1.301244 2.611592 1.909452
-1.223822 2.456206 2.812203
-1.198212 2.404807 3.758837
-1.240532 2.489743 4.429400
-1.059090 2.670062 2.509613
-1.067118 2.690302 3.169290
-1.085210 2.735913 3.858004
-1.050370 2.648078 4.908730
-0.859668 2.931153 1.970978
-0.854035 2.911948 2.766639
-0.866250 2.953597 3.448028
-0.866253 2.953605 4.206024
-0.763191 3.619106 1.647498
-0.659796 3.128798 2.264133
-0.663118 3.144552 3.115498
-0.664224 3.149796 3.907396
-0.462282 3.728150 0.951751
-0.419358 3.381980 1.561034
-0.412626 3.327696 2.657403
-0.425887 3.434637 3.237244
-0.417338 3.365690 4.295912
-0.422692 3.408869 4.901421
-0.103975 3.269350 2.038425
-0.104287 3.279175 2.890420
-0.107217 3.371289 3.518597
-0.104574 3.288202 4.568495
0.136112 2.923277 1.528995
0.141624 3.041649 2.176672
0.141847 3.046444 2.988868
0.139590 2.997961 3.985891
0.138945 2.984109 4.891645
0.371135 2.775297 1.745127
0.370355 2.769460 2.565520
0.362193 2.708426 3.572680
0.367615 2.748970 4.235153
0.654782 2.998799 1.756616
0.558049 2.555777 2.158329
0.561358 2.570930 2.953364
0.541832 2.481503 4.003216
0.551787 2.527095 4.750018
0.756738 2.454180 1.772577
0.752662 2.440960 2.683047
0.748459 2.427329 3.379388
0.722405 2.342833 4.385670
1.174151 2.946928 1.652691
0.888166 2.229153 2.407251
0.907737 2.278273 3.127540
0.926788 2.326089 3.746644
0.903291 2.267113 4.564211
1.028041 2.021493 1.647985
1.075143 2.114111 2.345007
1.077538 2.118821 3.383677
1.108961 2.180609 3.967945
1.067994 2.100054 4.879133
1.231775 1.989559 1.792962
1.254304 2.025948 2.510730
1.212895 1.959065 3.708992
1.228071 1.983577 4.419751
4.068658 5.526123 1.900790
1.376245 1.869240 1.896986
1.394568 1.894127 2.778386
1.368330 1.858490 3.769177
1.386861 1.883660 4.402683
1.545185 1.768555 1.530142
1.500993 1.717975 2.558423
1.624907 1.859801 3.085040
1.592103 1.822256 3.967638
1.593315 1.823643 4.691700
1.588671 1.541572 2.206323
1.698503 1.648148 2.874198
1.677726 1.627987 3.761022
1.666375 1.616972 4.598803
1.862498 1.516460 2.659066
1.879225 1.530079 3.539452
1.813920 1.476907 4.402683
2.223192 1.516834 2.551584
2.047832 1.397190 3.128408
2.068818 1.411507 3.815016
1.965796 1.341218 4.810930
2.084167 1.186286 2.032599
2.184686 1.243500 2.586113
2.114801 1.203722 3.582566
2.187572 1.245143 4.207305
2.549141 1.164912 1.379861
2.324197 1.062117 2.172183
2.286962 1.045101 3.241326
2.379812 1.087532 4.012752
2.379502 1.087390 4.741432
2.438897 0.878964 2.087492
2.521711 0.908810 2.835109
2.499166 0.900685 3.698563
2.597398 0.936087 4.268819
3.052967 0.826091 1.436043
2.739200 0.741190 2.275297
2.693715 0.728882 3.224987
2.727814 0.738109 4.024572
2.799643 0.757545 4.615167
2.884184 0.516671 2.065681
2.971358 0.532288 2.740193
2.929121 0.524721 3.774364
2.970225 0.532085 4.439934
3.261931 0.302561 1.489111
3.113864 0.288827 2.550035
3.101289 0.287660 3.424054
3.252571 0.301693 3.992497
3.159612 0.293070 5.041344
3.452346 0.031972 2.001235
3.380666 0.031308 3.039517
3.459241 0.032036 3.706232
3.430505 0.031769 4.620252
3.844331 -0.304236 1.202566
3.679525 -0.291193 1.663825
3.635362 -0.287698 2.609116
3.563912 -0.282044 3.619149
3.580257 -0.283337 4.474338
3.390663 -0.538526 1.863053
3.402873 -0.540465 2.570121
3.286018 -0.521905 3.768333
3.437233 -0.545922 4.273075
3.055671 -0.764959 2.063797
3.110323 -0.778641 2.809982
3.159444 -0.790937 3.539150
3.164713 -0.792257 4.426596
2.772586 -0.944970 1.702643
2.940080 -1.002056 2.223689
2.813201 -0.958813 3.376344
2.931286 -0.999059 3.946086
2.956950 -1.007806 4.658366
2.738581 -1.190472 1.698337
2.643346 -1.149073 2.741682
2.676575 -1.163517 3.510230
2.642824 -1.148846 4.447004
2.572234 -1.377955 1.969940
2.492895 -1.335453 2.935970
2.549218 -1.365625 3.577261
2.518580 -1.349212 4.514113
2.392929 -1.575925 2.337243
2.330574 -1.534859 3.224987
2.335230 -1.537925 4.032512
2.402046 -1.581929 4.682235
2.137630 -1.676607 1.930342
2.206628 -1.730724 2.669157
2.234437 -1.752536 3.303518
2.159101 -1.693447 4.386940
2.073552 -1.917654 2.119156
2.086525 -1.929652 2.902379
2.091543 -1.934292 3.618423
2.140603 -1.979664 4.354818
2.291744 -2.543071 1.528075
1.911469 -2.121092 2.172914
1.821612 -2.021381 3.196819
1.829911 -2.030590 4.056904
1.881849 -2.088224 4.715753
5.939755 -7.787263 3.307295
1.687427 -2.212287 3.582564
1.775081 -2.327205 4.110801
1.569832 -2.450258 2.999437
1.626375 -2.538513 3.606494
1.601426 -2.499571 4.573612
1.384879 -2.663174 2.336979
1.370126 -2.634804 3.248893
1.369020 -2.632678 4.145210
1.400041 -2.692333 4.833202
1.394196 -3.327187 1.724394
1.171402 -2.795498 2.270191
1.160920 -2.770483 3.165328
1.163287 -2.776132 3.893400
1.176028 -2.806538 4.515593
0.992533 -3.005223 2.030557
1.022790 -3.096837 2.617783
1.007883 -3.051700 3.579594
0.996229 -3.016415 4.441962
0.779567 -3.281899 1.635252
0.775091 -3.263057 2.530176
0.773506 -3.256385 3.383107
0.801323 -3.373491 3.890107
0.793266 -3.339570 4.760937
0.631151 -4.134660 1.619205
0.550143 -3.603978 2.059479
0.534255 -3.499899 3.241302
0.549750 -3.601407 3.921297
0.546469 -3.579911 4.681076
0.249311 -3.863789 1.867393
0.250585 -3.883523 2.735526
0.248954 -3.858257 3.632535
0.250173 -3.877145 4.333920
-0.091208 -4.086965 1.643178
-0.093379 -4.184252 2.382838
-0.090767 -4.067209 3.469667
-0.093837 -4.204765 3.994208
-0.091853 -4.115865 4.927310
-0.459209 -4.439548 1.271378
-0.394866 -3.817491 1.821911
-0.390601 -3.776257 2.703641
-0.404013 -3.905915 3.354044
-0.392248 -3.792183 4.454976
-0.674242 -3.548309 2.073667
-0.667046 -3.510438 3.033374
-0.668870 -3.520036 3.869246
-0.680901 -3.583355 4.467339
-1.053409 -3.727631 1.110407
-0.942380 -3.334742 1.497564
-0.912439 -3.228791 2.589681
-0.917407 -3.246370 3.384289
-0.944249 -3.341353 4.015207
-0.935723 -3.311183 4.959237
-1.222307 -3.274387 1.551753
-1.124986 -3.013678 2.282538
-1.143241 -3.062580 2.982904
-1.148631 -3.077018 3.808795
-1.133334 -3.036041 4.925217
-3.008052 -6.344243 2.138700
-1.313621 -2.770541 2.006232
-1.344073 -2.834767 2.780681
-1.359824 -2.867987 3.544443
-1.357518 -2.863122 4.391733
-1.777835 -3.088370 1.523815
-1.487867 -2.584651 2.507281
-1.535393 -2.667211 3.117611
-1.570797 -2.728712 3.812974
-1.524351 -2.648028 4.774818
-1.791497 -2.543681 1.906287
-1.781022 -2.528808 2.693063
-1.745708 -2.478667 3.699955
-1.766312 -2.507922 4.448890
-1.900114 -2.268820 1.817385
-1.959058 -2.339202 2.348662
-1.954537 -2.333804 3.133096
-1.906105 -2.275974 4.212549
-2.112836 -2.155598 2.174896
-2.200992 -2.245537 2.764052
-2.127355 -2.170411 3.818283
-2.087580 -2.129830 4.682584
-2.329826 -2.001609 2.427006
-2.336309 -2.007178 3.177116
-2.315079 -1.988939 4.062743
-2.328531 -2.000496 4.883296
-2.726705 -1.983151 2.996836
-2.470966 -1.797150 3.776583
-2.452853 -1.783976 4.615927
-2.630904 -1.578719 3.405364
-2.670794 -1.602656 4.038938
-2.690458 -1.614456 4.991530
-3.364829 -1.650391 1.660625
-2.836423 -1.391216 2.227290
-2.921777 -1.433081 2.888967
-2.857656 -1.401631 3.931548
-2.884319 -1.414709 4.634152
-3.412443 -1.335988 1.139412
-3.137890 -1.228499 1.583426
-3.125213 -1.223536 2.462375
-3.122580 -1.222505 3.433812
-3.191836 -1.249619 4.130430
-3.662735 -1.082925 1.684429
-3.282159 -0.970404 2.373481
-3.419134 -1.010902 2.923685
-3.378414 -0.998863 3.817089
-4.060178 -0.825152 1.072723
-3.546795 -0.720817 1.640131
-3.547722 -0.721005 2.607282
-3.519636 -0.715297 3.578179
-3.558765 -0.723249 4.367918
-3.611497 -0.733966 4.797226
-3.755446 -0.449263 2.121676
-3.862253 -0.462040 2.802280
-3.764766 -0.450378 3.885657
-3.724151 -0.445519 4.691639
-4.119805 -0.136736 1.342109
-3.949863 -0.131096 2.110992
-3.869262 -0.128421 3.034750
-3.930542 -0.130455 3.734928
-3.925347 -0.130282 4.646328
-3.534553 0.186358 1.991235
-3.445192 0.181647 3.068516
-3.537053 0.186490 3.634421
-3.479647 0.183463 4.546628
-3.613249 0.489356 1.582868
-3.169949 0.429318 2.015904
-3.179223 0.430574 2.869508
-3.101509 0.420049 3.930126
-3.203803 0.433903 4.651003
-2.922729 0.642765 1.386807
-2.818292 0.619797 2.415855
-2.920415 0.642256 3.198743
-3.065024 0.674058 3.770608
-2.914737 0.641007 4.900002
-2.971500 0.925533 1.544143
-2.635143 0.820768 2.391456
-2.625962 0.817909 3.257691
-2.721718 0.847733 3.889693
-2.744544 0.854843 4.539441
-3.007667 1.235502 1.719475
-2.531769 1.040011 2.381545
-2.618012 1.075438 2.995933
-2.556527 1.050181 3.836974
-2.548825 1.047017 4.648421
-2.326895 1.189014 2.227532
-2.306237 1.178458 3.054874
-2.321507 1.186261 3.757168
-2.285022 1.167617 4.733215
-2.132077 1.322424 2.091266
-2.225010 1.380066 2.660095
-2.133405 1.323248 3.729670
-2.204287 1.367212 4.360647
-2.012756 1.482688 1.680655
-2.079068 1.531536 2.425064
-2.083771 1.535000 3.192188
-2.040778 1.503330 4.088317
-1.858086 1.645697 2.532682
-1.864197 1.651110 3.369430
-1.876722 1.662202 4.019856
-1.894654 1.678085 4.682610
-1.730162 1.809957 2.290921
-1.762387 1.843668 3.019029
-1.702183 1.780688 3.993759
-1.784460 1.866759 4.538554
-1.606186 1.979964 2.889845
-1.608480 1.982792 3.619421
-1.647819 2.031286 4.301422
-1.443497 2.122813 3.311590
-1.413904 2.079294 4.071071
-1.394589 2.050889 4.979223
-1.316300 2.371367 2.759187
-1.244205 2.241484 3.730703
-1.316487 2.371702 4.183689
-1.161454 2.569802 2.067034
-1.124730 2.488548 2.974596
-1.132338 2.505382 3.666732
-1.115470 2.468060 4.631540
-0.975145 2.738062 1.934583
-0.941075 2.642399 2.926386
-0.974710 2.736840 3.543738
-0.956549 2.685845 4.530898
-0.898590 3.509941 1.631947
-0.744943 2.909786 2.208296
-0.739918 2.890159 2.823720
-0.730635 2.853897 3.782019
-0.756812 2.956150 4.348155
-0.870374 4.948742 0.882687
-0.545083 3.099213 2.132186
-0.536949 3.052964 3.194937
-0.554438 3.152402 3.680089
-0.544275 3.094621 4.608466
-0.356734 4.043163 1.530217
-0.290123 3.288197 2.339497
-0.291175 3.300129 3.137250
-0.295428 3.348326 3.886600
-0.296763 3.363454 4.768624
-0.022644 3.908038 1.497728
-0.019398 3.347843 2.172320
-0.020084 3.466076 2.774390
-0.019589 3.380683 3.837089
-0.019918 3.437541 4.529248
0.244240 3.053333 1.531412
0.235912 2.949225 2.625832
0.241757 3.022299 3.361637
0.237583 2.970110 4.254762
0.433515 2.568625 0.977910
0.474199 2.809680 1.878689
0.468173 2.773974 2.712513
0.462033 2.737594 3.735383
0.478192 2.833339 4.253264
0.801438 3.028066 1.442061
0.698283 2.638319 2.087187
0.671847 2.538435 2.901555
0.662739 2.504022 3.731241
0.648988 2.452066 4.741834
0.829934 2.358338 2.490223
0.865478 2.459341 3.012561
0.826931 2.349805 4.062304
0.831105 2.361666 4.911291
0.961784 2.149972 1.697455
1.012999 2.264459 2.471949
1.008785 2.255039 3.351714
1.030257 2.303037 3.977430
1.004306 2.245026 4.962572
1.095847 1.989729 1.823919
1.148869 2.086001 2.449846
1.135424 2.061589 3.443359
1.127575 2.047336 4.334422
1.290181 1.915601 1.799876
1.310939 1.946423 2.726159
1.329614 1.974150 3.581476
1.289521 1.914621 4.488056
1.593307 1.980910 1.587335
1.465336 1.821808 2.107847
1.409087 1.751875 3.233789
1.439878 1.790157 4.009258
1.458373 1.813151 4.734973
5.025834 5.285240 2.431155
1.609878 1.692971 1.801496
1.597558 1.680015 2.664271
1.637886 1.722425 3.452495
1.603401 1.686160 4.436822
1.735153 1.536221 2.281335
1.705384 1.509865 3.295014
1.756800 1.555387 3.949734
1.755370 1.554120 4.760315
1.833941 1.360769 1.982418
1.936133 1.436595 2.572757
1.962301 1.456012 3.419722
1.902342 1.411523 4.394135
2.064023 1.282888 3.049230
2.100895 1.305806 3.686196
2.066526 1.284444 4.436700
2.412080 1.225707 1.590362
2.275564 1.156336 2.241476
2.208814 1.122417 3.265993
2.251310 1.144011 3.900712
2.283281 1.160258 4.597842
2.355050 0.945564 1.779291
2.360547 0.947771 2.708474
2.338522 0.938928 3.635796
2.331977 0.936300 4.436752
2.694816 0.829826 1.581494
2.508380 0.772416 2.453204
2.640894 0.813222 3.027328
2.585159 0.796059 3.920705
2.502807 0.770700 4.960759
3.425622 0.749668 1.527104
2.774168 0.607103 2.146045
2.717615 0.594726 3.113615
2.822325 0.617641 3.721281
2.763212 0.604705 4.740959
7.449662 1.011447 2.320404
2.880824 0.391132 2.055520
2.978950 0.404455 2.705374
2.974217 0.403812 3.572233
2.968085 0.402980 4.355783
3.184105 0.158347 1.559138
3.075048 0.152924 2.726381
3.191144 0.158697 3.292170
3.252926 0.161770 4.017342
3.254573 0.161852 4.800814
3.878268 -0.129028 0.871304
3.386333 -0.112662 1.662296
3.395303 -0.112960 2.431170
3.459832 -0.115107 3.170073
3.477670 -0.115701 4.065354
3.412646 -0.113537 5.033364
3.636459 -0.446104 2.323442
3.670169 -0.450240 3.124356
3.602001 -0.441877 4.094897
3.605108 -0.442258 4.870423
3.547764 -0.744263 1.221183
3.248836 -0.681553 1.810912
3.310637 -0.694518 2.464156
3.364601 -0.705839 3.227685
3.359045 -0.704673 4.188783
3.428363 -0.719215 4.786527
3.650307 -1.111569 1.343475
3.012680 -0.917403 1.943530
3.038470 -0.925256 2.689268
3.100029 -0.944002 3.445913
3.110281 -0.947124 4.384736
2.975720 -1.173513 1.654876
2.764329 -1.090149 2.343687
2.852117 -1.124769 3.015146
2.768196 -1.091674 4.052740
2.859617 -1.127727 4.649651
2.640168 -1.322782 1.531119
2.582239 -1.293759 2.536245
2.532141 -1.268659 3.524501
2.595539 -1.300423 4.245239
2.441730 -1.493127 2.095684
2.442561 -1.493635 2.852020
2.364019 -1.445607 3.888023
2.455011 -1.501248 4.531054
2.292166 -1.673555 1.903876
2.258062 -1.648655 2.883159
2.290213 -1.672129 3.652007
2.245022 -1.639134 4.581090
2.485738 -2.149796 1.584769
2.116657 -1.830596 2.177986
2.047814 -1.771057 3.230543
2.120866 -1.834236 3.871752
2.097046 -1.813635 4.749410
1.949280 -1.994121 1.831103
1.996882 -2.042818 2.482960
1.942864 -1.987557 3.386655
1.971720 -2.017077 4.109028
2.132227 -2.594498 1.608187
1.753152 -2.133239 2.451858
1.771340 -2.155369 3.028426
1.788192 -2.175876 3.770294
1.628646 -2.371643 2.690014
1.597675 -2.326543 3.617675
1.632803 -2.377696 4.295530
1.433316 -2.508437 3.381854
1.492135 -2.611375 3.969188
1.471943 -2.576037 4.799693
1.278801 -2.773251 2.280252
1.216678 -2.638530 3.407923
1.243386 -2.696449 4.069461
1.264596 -2.742445 4.799774
1.044244 -2.893458 1.385255
1.050479 -2.910734 2.436980
1.079951 -2.992398 3.063132
1.061382 -2.940945 3.938444
1.065242 -2.951640 4.766832
0.948810 -3.511735 1.956906
0.829521 -3.070224 2.553248
0.844257 -3.124762 3.125070
0.830994 -3.075674 4.132788
0.856797 -3.171178 4.875640
0.658388 -3.690518 1.541476
0.587324 -3.292175 2.427564
0.595664 -3.338923 3.208566
0.614648 -3.445337 3.807896
0.615017 -3.447406 4.571749
0.364541 -3.657805 2.053506
0.353134 -3.543350 3.192085
0.357387 -3.586021 3.953072
0.366058 -3.673025 4.493074
0.032777 -3.868158 1.993920
0.032502 -3.835666 2.990761
0.032631 -3.850857 3.871603
0.033264 -3.925565 4.367997
-0.334915 -4.406083 1.080305
-0.306989 -4.038689 2.136544
-0.311258 -4.094854 2.867773
-0.317840 -4.181443 3.559203
-0.309535 -4.072180 4.585187
-0.646345 -4.147512 1.019600
-0.586087 -3.760846 1.478953
-0.586909 -3.766119 2.360270
-0.586458 -3.763228 3.247574
-0.589135 -3.780405 4.002663
-0.584165 -3.748511 4.938090
-0.845071 -3.456404 1.950219
-0.830400 -3.396397 2.894308
-0.860098 -3.517863 3.504491
-0.843040 -3.448097 4.514775
-1.119327 -3.256465 1.426827
-1.086261 -3.160265 2.495406
-1.084689 -3.155693 3.407886
-1.102519 -3.207566 4.154450
-1.093651 -3.181767 5.024942
-1.501141 -3.459152 1.611750
-1.279747 -2.948983 2.102760
-1.272451 -2.932171 2.962184
-1.305817 -3.009059 3.615677
-1.287355 -2.966516 4.576107
-1.710431 -3.169074 1.098403
-1.511092 -2.799740 1.454959
-1.504833 -2.788142 2.330558
-1.478122 -2.738653 3.297095
-1.481186 -2.744330 4.240299
-1.495933 -2.771654 4.808527
-1.655849 -2.494449 1.983879
-1.670492 -2.516508 2.800020
-1.733512 -2.611445 3.441715
-1.711842 -2.578800 4.373913
-1.883044 -2.410362 2.022904
-1.859831 -2.380649 2.927900
-1.852652 -2.371458 3.825916
-1.906679 -2.440615 4.440887
-2.075489 -2.229786 2.485365
-2.118040 -2.275500 3.305418
-2.088925 -2.244221 4.096651
-2.039500 -2.191121 5.025196
-2.720295 -2.438221 1.685890
-2.214161 -1.984570 2.214922
-2.299290 -2.060872 2.769475
-2.287141 -2.049982 3.667419
-2.329279 -2.087751 4.357664
-2.368944 -1.798828 2.652367
-2.465044 -1.871800 3.338719
-2.420257 -1.837792 4.238907
-2.402807 -1.824542 5.033437
-2.976793 -1.909139 3.316504
-2.570979 -1.648874 3.987103
-2.743701 -1.452332 3.584129
-2.801722 -1.483044 4.316538
-3.398371 -1.423015 1.560857
-2.985473 -1.250120 1.993009
-3.042400 -1.273957 2.849050
-3.053143 -1.278456 3.608401
-2.982857 -1.249025 4.576107
-3.519507 -1.135409 1.766651
-3.135897 -1.011655 2.602866
-3.179356 -1.025675 3.332362
-3.255591 -1.050269 3.871848
-3.207514 -1.034759 4.859614
-3.305043 -0.778446 1.945452
-3.317168 -0.781302 2.846898
-3.467514 -0.816713 3.384741
-3.428628 -0.807554 4.232672
-3.518706 -0.510944 2.137091
-3.696023 -0.536692 2.657338
-3.652638 -0.530392 3.532772
-3.602540 -0.523118 4.557866
-3.857079 -0.228125 1.416628
-3.809556 -0.225314 2.411133
-3.952094 -0.233744 2.957194
-3.861753 -0.228401 3.963100
-3.849802 -0.227694 4.693788
-4.154151 0.092148 1.048604
-3.765168 0.083519 1.798344
-3.810407 0.084523 2.545264
-3.729818 0.082735 3.501420
-3.813369 0.084588 4.101199
-3.798741 0.084264 4.995382
