-2.348693 -1.797682 2.932337
-2.316352 -1.772105 3.547469
-2.102568 -1.607487 4.458005
-2.431409 -1.530521 1.701996
-2.432846 -1.530849 2.163034
-2.439862 -1.534303 2.929664
-2.417010 -1.519016 3.674915
-2.204447 -1.384968 4.115390
-2.533383 -1.290409 1.602061
-2.513431 -1.279666 2.101794
-2.489026 -1.266484 2.761130
-2.518986 -1.280706 3.640805
-2.307822 -1.172576 4.399638
-2.557582 -1.045718 1.494961
-2.555116 -1.043798 2.327854
-2.571667 -1.049642 3.161793
-2.560458 -1.044652 3.544746
-2.301666 -0.938099 4.573795
-2.654884 -0.785609 0.959203
-2.581906 -0.763366 1.590693
-2.599207 -0.767713 2.331287
-2.609783 -0.770046 3.092588
-2.691888 -0.554992 1.116767
-2.702366 -0.556330 1.911245
-2.688699 -0.552945 2.467997
-2.644311 -0.543152 3.131822
-2.787495 -0.326051 1.336192
-2.772164 -0.323542 2.029636
-2.767329 -0.322310 2.678196
-2.712705 -0.315173 3.455057
-2.596451 -0.301166 3.991992
-2.922698 -0.064448 1.110994
-2.928498 -0.063809 1.818785
-2.867634 -0.061830 2.440517
-2.795071 -0.059610 3.085766
-2.926625 0.191348 1.367955
-2.879747 0.188892 1.940948
-2.875173 0.189307 2.615159
-2.889183 0.191265 3.586835
-2.809334 0.186602 4.201857
-2.972428 0.474669 1.419839
-2.976127 0.475903 1.988685
-2.984957 0.478251 2.816021
-2.975923 0.477591 3.518682
-2.888060 0.464295 4.272122
-3.020881 0.764331 0.858022
-3.072859 0.778427 1.632203
-3.071486 0.778601 2.061823
-3.056861 0.775877 2.878500
-3.051050 0.775263 3.596835
-2.876075 0.731686 4.406506
-3.147612 1.118818 0.834125
-3.169566 1.127518 1.504696
-3.193536 1.137218 2.375457
-3.182011 1.133760 2.859195
-3.160476 1.127430 3.877268
-2.944012 1.050651 4.265184
-3.206602 1.477389 1.298518
-3.230064 1.489010 1.848097
-3.204876 1.478442 2.564868
-3.189039 1.472095 3.229567
-3.139516 1.449856 3.673155
-2.992721 1.383286 4.603615
-2.802714 1.590681 1.082903
-2.807597 1.594447 1.802594
-2.776239 1.577488 2.426156
-2.776778 1.579004 3.315790
-2.752838 1.565997 3.770012
-2.366178 1.661593 1.562941
-2.353421 1.653448 2.190608
-2.424240 1.704285 2.996516
-2.399669 1.687632 3.471452
-2.330394 1.639919 4.272368
-2.079227 1.746653 0.840569
-2.077004 1.745640 1.497169
-2.097212 1.763816 2.403403
-2.082001 1.751917 3.092588
-2.041765 1.718676 3.582917
-1.904981 1.604499 4.421771
-1.782435 1.798957 1.365634
-1.766969 1.784111 1.953223
-1.779896 1.798434 2.922838
-1.750370 1.769069 3.292014
-1.722007 1.741657 4.294710
-1.566003 1.900510 1.489602
-1.564741 1.899636 1.956085
-1.562571 1.898420 2.966474
-1.554041 1.888959 3.615867
-1.471098 1.788661 4.027009
-1.481905 2.175170 0.361072
-1.288540 1.891966 0.785657
-1.307903 1.921841 1.748416
-1.314979 1.933199 2.385053
-1.301162 1.913851 3.035538
-1.278117 1.880848 3.653013
-1.144664 1.685164 4.222214
-1.089719 1.965039 1.077087
-1.076089 1.941409 1.650448
-1.112863 2.009235 2.510084
-1.108074 2.001454 3.019040
-1.090737 1.971642 3.920532
-0.927559 1.677389 4.467378
-0.894988 2.025863 0.815490
-0.898920 2.036690 1.781620
-0.895614 2.030581 2.478080
-0.893978 2.028030 3.063105
-0.907384 2.060127 3.901809
-0.771806 1.753183 4.457925
-0.758535 2.232179 0.410661
-0.722532 2.127942 1.086450
-0.701534 2.068154 1.924927
-0.685410 2.021612 2.342592
-0.693636 2.048186 3.295095
-0.515867 2.167483 1.255880
-0.506070 2.128854 1.999963
-0.502578 2.117170 2.887101
-0.500772 2.112052 3.626069
-0.466513 1.969021 4.109150
-0.320120 2.162661 1.464080
-0.316557 2.141601 2.029571
-0.313884 2.128067 2.889192
-0.312541 2.122861 3.628689
-0.300078 2.041191 4.228594
-0.134570 2.237104 1.574336
-0.130271 2.174378 2.245391
-0.131850 2.211565 3.053733
-0.132610 2.230556 3.515195
-0.114334 1.933336 4.426395
0.075504 2.251744 1.254967
0.074762 2.211874 1.998512
0.074001 2.175791 2.584890
0.074456 2.175473 3.180146
0.269001 2.189770 1.341164
0.266104 2.162969 1.840500
0.268448 2.175919 2.781868
0.273049 2.207479 3.658307
0.265575 2.143706 4.197661
0.565526 2.595823 0.333053
0.510709 2.341260 1.053739
0.511883 2.343851 1.735272
0.506824 2.317556 2.513936
0.497814 2.274801 2.911922
0.489417 2.233158 3.765260
0.436282 1.988611 4.413721
0.743423 2.365893 1.302545
0.738841 2.349273 1.983998
0.729739 2.318459 2.622039
0.739692 2.347410 3.520201
0.726778 2.304380 4.232622
1.019248 2.413708 1.009763
1.019646 2.413096 1.640518
1.031983 2.440072 2.530795
1.031658 2.437872 3.108664
1.032436 2.437889 3.847383
0.960673 2.266803 4.586424
1.335942 2.569537 1.038334
1.340209 2.575949 1.810951
1.335641 2.565742 2.429525
1.316504 2.527408 3.127214
1.317497 2.527659 3.861646
1.762074 2.674405 1.229361
1.760512 2.670988 1.712917
1.782692 2.702520 2.679017
1.750142 2.652195 3.142760
1.725197 2.612828 3.894226
2.124327 2.722480 1.238228
2.117538 2.712164 2.008737
2.123707 2.718372 2.816623
2.103754 2.691889 3.275465
2.060267 2.634805 3.998016
2.212612 2.354245 1.310296
2.196995 2.336657 1.867654
2.188396 2.325976 2.755866
2.184395 2.320886 3.242946
2.134609 2.266801 3.961010
2.237358 1.986619 1.576627
2.251984 1.999059 1.942914
2.286573 2.028291 2.914507
2.287903 2.028305 3.689820
2.206048 1.954948 4.250631
2.539538 1.874378 0.291684
2.346248 1.730977 0.844787
2.359803 1.739603 1.864668
2.338860 1.723649 2.253274
2.297339 1.692231 2.885844
2.302215 1.694749 3.711701
2.089936 1.537662 4.445982
2.676155 1.624139 0.155075
2.451676 1.486970 0.910399
2.434000 1.475322 1.666460
2.467907 1.495049 2.328459
2.454011 1.485730 3.060558
2.450202 1.482572 3.757678
2.167142 1.310493 4.548578
2.748241 1.337521 0.301699
2.494750 1.213208 1.134381
2.467973 1.199637 1.625259
2.432722 1.181818 2.248151
2.501172 1.214000 3.189447
2.479869 1.203098 3.694972
2.138410 1.036705 4.512481
2.578025 0.976855 0.350519
2.528312 0.957056 1.257003
2.538418 0.960092 1.997192
2.539652 0.959781 2.730300
2.537644 0.958450 3.270388
2.564148 0.715069 1.471629
2.548701 0.710118 2.112668
2.579342 0.717871 2.882273
2.573183 0.715432 3.601412
2.419304 0.672117 4.183165
2.702484 0.489365 1.052182
2.667053 0.482565 1.432516
2.610623 0.471577 2.223706
2.642726 0.476624 2.974718
2.627525 0.473275 3.592165
2.359404 0.424401 4.282309
2.682407 0.240770 0.942847
2.656362 0.237805 1.582617
2.621191 0.233983 2.280893
2.617947 0.232833 3.175763
2.755806 -0.006131 1.319721
2.765464 -0.006867 2.021914
2.674941 -0.007142 2.538181
2.647012 -0.007867 3.370147
2.651910 -0.008584 4.100125
2.788638 -0.259295 1.179603
2.719200 -0.253518 1.857273
2.664720 -0.249124 2.556673
2.656593 -0.249120 3.330686
2.687714 -0.252978 4.281978
2.858299 -0.508923 1.249587
2.866734 -0.511199 1.957874
2.870372 -0.512693 2.732589
2.902068 -0.519321 3.609057
2.781393 -0.498204 4.079130
2.983173 -0.814551 1.581070
2.979085 -0.813903 1.975115
2.941415 -0.804610 2.832219
2.922776 -0.800205 3.433743
3.016753 -1.126142 1.001028
3.032994 -1.132815 1.473983
3.041400 -1.136779 2.111748
3.019518 -1.129500 2.817490
3.020053 -1.130402 3.367901
2.970285 -1.113086 4.426066
3.127501 -1.500705 0.957412
3.117593 -1.496536 1.364694
3.158453 -1.517392 2.213216
3.189089 -1.533230 2.972497
3.167667 -1.523700 3.502624
3.097278 -1.491007 4.335725
3.377372 -2.032631 1.549884
3.388489 -2.040498 2.218762
3.360174 -2.024412 2.776385
3.348667 -2.018611 3.433760
3.252915 -1.962156 4.206637
3.484290 -2.533191 1.338502
3.483197 -2.533409 1.832594
3.462811 -2.520093 2.577307
3.461006 -2.519894 3.127811
3.456833 -2.518617 4.002087
3.066173 -2.714283 0.983643
3.054799 -2.705954 1.818763
3.044648 -2.698828 2.719350
2.988530 -2.649664 3.012164
2.635087 -2.768854 1.063435
2.643555 -2.779546 1.913103
2.642099 -2.779510 2.622033
2.648170 -2.787298 3.287260
2.601878 -2.740121 4.045673
2.343237 -2.468410 4.459856
2.301739 -2.892109 1.031620
2.298341 -2.889008 1.552774
2.272179 -2.857456 2.158303
2.282439 -2.872283 3.024128
2.243510 -2.824651 3.656622
2.133665 -2.687196 4.088517
2.036289 -3.126206 0.232918
1.964059 -3.017621 1.160677
1.944818 -2.988994 1.540663
1.941066 -2.985112 2.308939
1.909097 -2.937934 3.139377
1.857686 -2.860092 3.696758
1.740812 -2.681250 4.228388
1.663034 -3.116623 0.405574
1.657767 -3.108684 1.091199
1.649236 -3.094812 1.850891
1.591384 -2.987450 2.303042
1.549227 -2.910311 3.076595
1.540395 -2.895782 3.876880
1.383848 -2.602706 4.446445
1.342043 -3.217545 1.435867
1.336198 -3.205862 2.124608
1.299275 -3.118677 2.558365
1.225298 -2.943193 3.252052
1.197592 -2.878848 3.997514
1.096307 -3.460678 0.080871
1.076606 -3.402342 0.945519
1.067299 -3.375481 1.523808
1.066051 -3.375241 2.364749
1.032313 -3.271790 3.164544
0.999390 -3.169133 3.587185
0.928272 -2.946473 4.371992
0.737272 -3.452738 1.298518
0.731416 -3.428677 1.832852
0.705612 -3.312735 2.667003
0.675798 -3.176628 3.347210
0.416083 -3.400562 1.175874
0.410735 -3.365474 2.002711
0.402129 -3.300089 2.507796
0.396874 -3.264440 3.251438
0.137004 -3.485066 0.713048
0.137062 -3.517278 1.624140
0.135728 -3.504462 2.258315
0.134981 -3.508597 2.947683
0.129048 -3.365103 3.289437
-0.184500 -3.510642 0.829735
-0.186196 -3.528955 1.379630
-0.188625 -3.559592 1.983167
-0.192150 -3.602490 2.902839
-0.182427 -3.406942 3.476979
-0.171551 -3.192246 4.025035
-0.517516 -3.554875 0.899824
-0.513127 -3.520526 1.351571
-0.520728 -3.564787 2.188554
-0.528247 -3.610432 2.799680
-0.532312 -3.629179 3.749856
-0.882976 -3.738926 0.875151
-0.874934 -3.699423 1.744745
-0.874685 -3.693999 2.445257
-0.862310 -3.638541 2.972489
-0.862135 -3.633564 3.669717
-1.296378 -3.810432 1.136851
-1.287361 -3.781697 1.609719
-1.280945 -3.760548 2.101479
-1.293954 -3.793713 3.163201
-1.290145 -3.779856 3.739726
-1.722464 -3.914803 1.189793
-1.713137 -3.891381 1.738459
-1.719234 -3.901529 2.649806
-1.723622 -3.908897 3.288852
-1.710162 -3.876871 3.667125
-1.993459 -3.621709 1.372300
-1.987685 -3.608984 2.056425
-1.971384 -3.577603 2.610940
-1.967566 -3.568380 3.326836
-2.117183 -3.116376 0.904000
-2.130255 -3.134084 1.503348
-2.093041 -3.077849 2.099637
-2.078503 -3.054864 2.750607
-2.076153 -3.049048 3.711150
-2.243243 -2.749710 1.108390
-2.265562 -2.775452 1.864698
-2.249284 -2.754708 2.245903
-2.173131 -2.660059 2.936265
-2.101069 -2.570656 3.559975
-1.989336 -2.432130 4.578577
-2.301905 -2.357299 0.989701
-2.239024 -2.291518 1.803944
-2.207352 -2.258306 2.282158
-2.227378 -2.277200 3.224732
-2.327266 -1.981676 1.335451
-2.342435 -1.993330 2.177637
-2.342460 -1.992363 2.839252
-2.373759 -2.017595 3.757367
-2.231434 -1.896181 4.094665
-2.402423 -1.695404 1.542277
-2.431400 -1.715000 2.174958
-2.435162 -1.716687 2.893514
-2.417427 -1.703128 3.691591
-2.207563 -1.554366 4.479212
-2.549708 -1.467142 1.569798
-2.540227 -1.460837 2.251605
-2.447444 -1.406805 2.823540
-2.434068 -1.398082 3.698752
-2.240106 -1.286208 4.155483
-2.583829 -1.177966 1.528454
-2.563971 -1.168313 2.055760
-2.569875 -1.170118 2.832746
-2.535299 -1.153637 3.496063
-2.371470 -1.078244 4.331580
-2.664047 -0.938399 1.732135
-2.603511 -0.916439 2.327854
-2.567701 -0.903021 3.101822
-2.545646 -0.894487 3.850990
-2.256329 -0.792508 4.235695
-2.585425 -0.676019 1.082255
-2.627474 -0.686042 2.024898
-2.648313 -0.690791 2.691375
-2.589801 -0.675068 3.152615
-2.744208 -0.454058 1.337180
-2.734639 -0.452122 1.679381
-2.706347 -0.446670 2.440315
-2.682769 -0.441880 3.335033
-2.774543 -0.201966 1.346398
-2.792239 -0.202406 2.167837
-2.752910 -0.198746 2.968161
-2.680940 -0.193010 3.524839
-2.599597 -0.186391 4.340845
-2.867525 0.055705 1.600875
-2.842014 0.055683 2.054240
-2.821630 0.056070 2.814334
-2.799444 0.056466 3.634274
-2.578054 0.052430 4.118396
-2.912519 0.322530 1.303721
-2.910590 0.323317 2.224075
-2.836580 0.315799 2.895042
-2.774946 0.309614 3.560569
-2.620948 0.293018 4.186445
-2.979931 0.611662 0.896529
-2.975270 0.611369 1.473668
-3.004131 0.618395 2.416937
-2.999937 0.618190 2.987637
-2.935094 0.605504 3.594564
-2.730110 0.564202 4.570772
-3.241078 0.973872 0.525104
-3.089977 0.929317 1.201154
-3.079577 0.926622 1.547880
-3.114851 0.938517 2.558880
-3.128852 0.943675 3.299293
-2.992837 0.903029 3.626880
-2.705518 0.817219 4.481239
-3.165404 1.277776 0.750843
-3.161179 1.276957 1.393890
-3.176440 1.284201 2.173019
-3.223739 1.304279 2.850616
-3.162476 1.280343 3.476979
-2.996228 1.213831 4.112999
-3.086092 1.554815 1.301463
-3.072524 1.549000 2.008737
-3.071805 1.549646 2.708188
-3.070445 1.550098 3.501487
-3.041811 1.536770 4.302785
-2.649174 1.681453 1.478399
-2.644638 1.679682 2.283861
-2.603406 1.653979 2.645360
-2.590811 1.646891 3.328144
-2.542709 1.617674 4.372547
-2.285090 1.733773 0.947173
-2.268052 1.721830 1.694058
-2.246476 1.706472 2.480954
-2.252025 1.711219 2.887976
-2.256670 1.715837 3.723639
-2.085730 1.586468 4.254340
-1.973941 1.802266 1.100748
-1.977264 1.806235 1.804542
-2.020115 1.846588 2.691375
-1.975062 1.806354 3.413908
-1.910338 2.088186 0.082835
-1.680749 1.838263 0.855449
-1.698311 1.858484 1.598899
-1.707044 1.868972 2.278311
-1.696800 1.858807 3.055048
-1.673519 1.834193 3.724835
-1.587521 1.740710 4.353864
-1.484536 1.957126 0.307099
-1.423194 1.877713 1.335316
-1.440633 1.901607 1.951053
-1.451376 1.916734 2.605313
-1.438048 1.900031 3.236351
-1.205846 1.933476 1.272762
-1.211697 1.944063 2.040914
-1.208780 1.940412 2.698993
-1.188173 1.908400 3.400317
-1.146607 1.842922 4.282128
-1.111674 2.218424 0.297575
-0.982985 1.962898 1.022394
-0.994656 1.987434 1.706667
-0.989809 1.978958 2.384366
-0.992799 1.986234 3.109958
-0.984748 1.971165 3.698456
-0.842243 1.687232 4.615728
-0.799771 2.026280 1.267089
-0.796154 2.017921 1.643463
-0.791631 2.007895 2.322122
-0.795917 2.020474 3.123849
-0.650068 2.172235 1.601264
-0.651300 2.177964 2.164038
-0.657905 2.202043 2.848602
-0.629924 2.110010 3.442748
-0.573215 1.921816 4.168680
-0.415267 2.105006 1.033271
-0.415381 2.108415 1.738558
-0.414968 2.108055 2.171907
-0.419583 2.134367 2.877719
-0.419979 2.139798 3.719892
-0.366920 1.872427 4.593521
-0.230909 2.130076 1.607091
-0.232054 2.145803 2.322122
-0.230841 2.138669 2.889192
-0.231938 2.155693 3.835213
-0.204764 1.907025 4.476830
-0.027959 2.196231 1.059902
-0.027755 2.226558 1.790989
-0.027103 2.205526 2.281261
-0.026558 2.197629 2.847507
-0.025770 2.202340 3.916831
-0.022144 1.927709 4.552441
0.162858 2.159780 0.863602
0.165444 2.186250 1.604760
0.166868 2.198128 2.262512
0.168547 2.211589 3.081847
0.169478 2.215553 3.867156
0.150096 1.955619 4.615278
0.411889 2.423759 0.483904
0.381346 2.240934 1.113727
0.387879 2.275357 1.908596
0.380361 2.229058 2.362188
0.373053 2.183015 3.044362
0.386539 2.257124 4.020576
0.324236 1.891622 4.486283
0.602593 2.298240 1.194435
0.601738 2.291902 2.101768
0.594076 2.260687 2.713747
0.587772 2.234875 3.271455
0.585630 2.223385 4.304088
0.866234 2.377749 1.319207
0.871776 2.390841 2.100319
0.866114 2.373236 2.876407
0.862051 2.360359 3.533651
0.829714 2.270572 4.033970
1.179527 2.508526 1.069845
1.178589 2.505229 1.614839
1.154090 2.451510 2.322051
1.138828 2.417939 2.826796
1.144663 2.428786 3.497110
1.098678 2.329489 4.297651
1.482043 2.576668 1.081849
1.486567 2.582868 1.834413
1.477561 2.565405 2.664370
1.454196 2.523569 3.260346
1.898604 2.692101 0.971547
1.925283 2.728749 1.514892
1.913920 2.711471 2.061655
1.897423 2.686143 2.985818
1.868534 2.644197 3.495224
1.809607 2.559553 4.134361
2.202824 2.582992 0.986729
2.210607 2.590461 1.829339
2.197271 2.573930 2.293989
2.177576 2.549245 3.135428
2.161924 2.529565 3.852962
2.248801 2.206412 1.167388
2.230432 2.187497 1.716761
2.233283 2.188939 2.550205
2.239272 2.193721 3.220417
2.317870 1.883922 0.678014
2.316680 1.881909 1.411734
2.325208 1.887867 2.090920
2.339865 1.898475 2.992076
2.342589 1.899577 3.768524
2.171488 1.760246 4.241800
2.595336 1.753484 0.373997
2.396947 1.618759 0.909724
2.392650 1.615147 1.461875
2.387352 1.610567 2.245753
2.384991 1.607831 3.143289
2.324475 1.566403 3.661909
2.107936 1.419463 4.613565
2.531253 1.381544 0.496256
2.465526 1.344628 1.382242
2.483293 1.353814 1.805774
2.451245 1.335630 2.418290
2.390413 1.301715 3.101822
2.515751 1.111562 1.172122
2.562701 1.131631 1.770264
2.524182 1.113648 2.652502
2.483693 1.095099 3.288859
2.634309 0.861854 1.060625
2.634994 0.861404 1.688600
2.624748 0.856999 2.680171
2.570434 0.838753 3.178017
2.611085 0.620657 1.396598
2.588256 0.614692 1.935388
2.543234 0.603233 2.719811
2.561519 0.606825 3.474469
2.540038 0.601062 4.170978
2.651184 0.378496 1.248685
2.613747 0.372400 2.020119
2.614646 0.371821 2.745582
2.663124 0.377921 3.543324
2.530241 0.358336 4.337904
2.634360 0.135037 1.491225
2.646433 0.134989 2.177443
2.730046 0.138473 2.951886
2.740899 0.138389 3.584264
2.512286 0.126110 4.418555
2.864135 -0.113785 0.873624
2.866212 -0.114648 1.610068
2.835175 -0.114188 2.359513
2.824228 -0.114564 3.147932
2.730584 -0.111081 3.473518
2.526729 -0.103725 4.520722
2.773746 -0.368932 1.105905
2.807030 -0.374164 1.870201
2.781209 -0.371492 2.611752
2.717539 -0.363420 3.044177
2.868376 -0.651209 0.871681
2.888451 -0.656438 1.467792
2.896701 -0.659027 2.101639
2.880717 -0.656275 2.895659
2.896672 -0.660686 3.588059
2.724025 -0.622165 4.429253
2.977497 -0.940182 1.077023
2.949510 -0.931973 1.599335
2.972489 -0.940233 2.422466
2.977085 -0.942499 3.092703
3.020677 -1.280219 1.308333
3.050902 -1.293934 1.980014
3.053761 -1.296163 2.736512
3.047849 -1.294643 3.478332
2.998331 -1.274692 4.312993
3.273130 -1.737088 1.821786
3.206674 -1.702448 2.231828
3.171490 -1.685343 3.267261
3.164767 -1.682722 3.896182
2.974045 -1.582234 4.575225
3.388354 -2.234443 1.366600
3.364380 -2.219454 1.812680
3.387041 -2.235856 2.595205
3.382384 -2.234201 3.364864
3.355950 -2.662077 1.357154
3.348778 -2.657111 1.701878
3.326616 -2.641074 2.447057
3.313286 -2.631904 3.132631
3.342268 -2.656611 3.940414
2.924594 -2.808622 1.269037
2.911508 -2.797481 1.936938
2.887869 -2.776089 2.563651
2.912894 -2.802126 3.491690
2.485936 -2.838571 1.091897
2.473113 -2.825478 1.810068
2.501725 -2.859656 2.489957
2.499147 -2.857923 3.048454
2.444560 -2.796899 3.717310
2.180072 -3.029330 0.376247
2.145506 -2.983093 1.131119
2.156273 -2.999182 1.597617
2.144172 -2.984488 2.499425
2.079105 -2.894999 2.979261
2.034459 -2.834479 3.724550
1.881347 -2.622606 4.464981
1.865847 -3.143714 0.206513
1.811056 -3.053901 1.162436
1.827414 -3.083419 1.891693
1.832104 -3.092770 2.433148
1.808200 -3.054121 3.089617
1.774791 -2.999202 3.688451
1.608815 -2.720555 4.529621
1.544678 -3.258232 0.224812
1.518094 -3.204660 1.027315
1.531153 -3.234641 1.792705
1.519303 -3.210820 2.182858
1.502226 -3.177187 2.983754
1.442176 -3.052651 3.838152
1.291022 -2.733664 4.250378
1.236586 -3.360111 0.152988
1.213520 -3.300131 0.856786
1.222197 -3.326625 1.604895
1.203599 -3.279065 2.413436
1.162992 -3.171032 3.133080
1.118338 -3.050881 3.604318
1.042132 -2.845800 4.500668
0.956638 -3.450896 0.251979
0.952143 -3.437944 0.900506
0.927761 -3.354427 1.825209
0.882272 -3.192275 2.335451
0.874090 -3.165395 2.931341
0.881445 -3.195793 3.744123
0.781830 -2.837147 4.409755
0.609104 -3.367908 1.076413
0.615196 -3.408069 1.962070
0.583880 -3.237350 2.373517
0.564995 -3.138501 3.261158
0.303148 -3.447934 1.436951
0.303072 -3.456486 2.070434
0.294545 -3.366337 2.567420
0.281357 -3.224691 3.238113
-0.013839 -3.513148 1.479873
-0.014656 -3.520185 2.076330
-0.015006 -3.414863 2.701180
-0.015508 -3.348093 3.346281
-0.336395 -3.545218 1.432616
-0.337969 -3.552953 2.055191
-0.341572 -3.580513 2.776933
-0.329002 -3.440218 3.417572
-0.308954 -3.224112 3.955411
-0.679227 -3.612143 1.158039
-0.678338 -3.604316 1.571904
-0.682356 -3.618022 2.589150
-0.678730 -3.596313 2.925388
-0.677157 -3.581773 3.770650
-1.056603 -3.716766 1.490991
-1.051252 -3.695175 2.011320
-1.048566 -3.682883 2.550588
-1.047014 -3.673546 3.289758
-1.480950 -3.827588 1.249375
-1.477014 -3.814258 1.978270
-1.470831 -3.795039 2.737082
-1.462054 -3.770149 3.267277
-1.888533 -3.823642 0.784483
-1.921368 -3.887695 1.425402
-1.919695 -3.881387 2.202112
-1.892820 -3.825218 2.702680
-1.887380 -3.811846 3.353100
-2.059946 -3.416248 0.773381
-2.046704 -3.392333 1.441964
-2.074109 -3.435143 2.321958
-2.083509 -3.448356 3.116403
-2.035773 -3.368443 3.440049
-2.197151 -2.943376 1.086250
-2.219299 -2.971194 1.875574
-2.221632 -2.972526 2.640974
-2.198257 -2.940314 3.051053
-2.176868 -2.909807 3.890319
-2.317865 -2.619957 1.092023
-2.315423 -2.616194 1.598298
-2.268432 -2.561433 2.464107
-2.208653 -2.492635 3.164980
-2.173811 -2.452473 3.628877
-2.354890 -2.217882 1.410331
-2.312592 -2.177481 1.759747
-2.273304 -2.139352 2.477216
-2.324601 -2.185915 3.527755
-2.274259 -2.137805 4.024889
-2.393908 -1.877663 1.583428
-2.398115 -1.880186 2.124393
-2.399095 -1.879967 2.813931
-2.375449 -1.860748 3.305628
-2.322924 -1.818293 4.268974
-2.460536 -1.587553 1.248660
-2.483930 -1.601870 1.844946
-2.460281 -1.585708 2.556230
-2.426873 -1.563301 3.253567
-2.503903 -1.309496 1.178731
-2.489458 -1.301091 1.908424
-2.488369 -1.299682 2.630172
-2.467718 -1.288213 3.226315
-2.409402 -1.256896 4.017260
-2.615226 -1.089143 1.372017
-2.583621 -1.075116 2.149412
-2.583569 -1.074343 2.825624
-2.587292 -1.075242 3.410596
-2.473075 -1.027056 4.106371
-2.584521 -0.797552 1.293956
-2.612698 -0.805596 1.912656
-2.640878 -0.813440 2.707838
-2.584984 -0.795734 3.187255
-2.512845 -0.772817 3.905757
-2.718774 -0.587463 1.337180
-2.694396 -0.581649 1.865127
-2.726362 -0.587658 2.715058
-2.651826 -0.571036 3.270388
-2.591378 -0.557430 3.875143
-2.737876 -0.342002 1.402734
-2.745363 -0.341896 2.420075
-2.683981 -0.333770 2.907871
-2.646574 -0.328479 3.564421
-2.834367 -0.084851 1.436436
-2.828084 -0.084259 1.824182
-2.811937 -0.082870 2.703847
-2.755592 -0.080451 3.461742
-2.654851 -0.077076 3.921403
-2.859652 0.169198 1.527323
-2.884841 0.171613 2.392777
-2.851410 0.170178 2.922633
-2.777173 0.166534 3.701474
-2.528486 0.152199 4.359636
-2.978251 0.460720 1.502228
-2.951645 0.457107 1.953520
-2.919842 0.452883 2.591017
-2.854340 0.443448 3.271944
-2.708664 0.421541 4.005087
-3.030636 0.747825 1.049650
-3.004292 0.742007 1.626731
-3.006152 0.743473 2.479061
-2.991963 0.740482 2.921477
-2.960585 0.733783 3.848041
-2.647693 0.656663 4.306540
-3.093727 1.070873 1.117612
-3.100849 1.074293 1.854383
-3.079635 1.067951 2.640669
-3.053099 1.059434 3.183551
-3.004627 1.043484 3.888444
-3.177249 1.436754 0.676950
-3.170463 1.434554 1.282428
-3.163356 1.432530 2.115580
-3.208020 1.453728 2.783225
-3.198241 1.450619 3.703718
-3.099038 1.406106 4.064435
-2.909040 1.649123 0.961024
-2.908902 1.649985 1.614600
-2.902588 1.647446 2.342766
-2.915096 1.655279 2.852279
-2.863364 1.626869 3.544481
-2.718436 1.545466 4.274307
-2.454590 1.672455 1.008526
-2.474794 1.687071 1.640742
-2.462592 1.679574 2.257430
-2.474633 1.689240 3.344715
-2.462546 1.681737 3.911572
-2.245745 1.534271 4.439002
-2.136665 1.763729 1.023745
-2.135444 1.763527 1.633280
-2.142237 1.769932 2.233967
-2.137449 1.767137 3.115699
-2.106336 1.742186 3.716147
-1.960652 1.622765 4.641411
-1.909611 1.893436 0.785737
-1.864888 1.850449 1.788682
-1.829302 1.815706 2.219339
-1.839324 1.826770 3.057617
-1.811331 1.799775 3.679576
-1.672951 1.663317 4.571751
-1.564701 1.868873 0.707735
-1.585730 1.895350 1.675661
-1.615573 1.931594 2.073993
-1.587806 1.899509 2.871315
-1.557394 1.864246 3.693015
-1.443398 1.728566 4.329041
-1.349703 1.937735 1.465969
-1.348057 1.936058 1.924481
-1.331017 1.912611 2.620355
-1.323108 1.902293 3.336867
-1.282521 1.844981 4.082582
-1.132024 2.009617 1.346612
-1.121697 1.992329 1.966102
-1.139319 2.024593 2.526943
-1.143909 2.034432 3.505014
-1.105211 1.966672 4.157475
-0.906703 2.004536 1.172416
-0.941043 2.081999 1.938045
-0.954284 2.113033 2.790476
-0.917551 2.032506 3.213015
-0.900624 1.996966 4.241530
-0.721522 2.052947 1.201415
-0.747414 2.128258 1.864576
-0.757321 2.158603 2.717697
-0.734883 2.096242 3.384042
-0.725236 2.070820 4.269663
-0.508741 2.051777 0.780266
-0.522882 2.112064 1.774827
-0.533096 2.155740 2.496820
-0.521235 2.109867 3.142615
-0.514959 2.086106 3.656859
-0.445110 1.805676 4.609557
-0.333673 2.131799 1.380663
-0.329654 2.108893 1.937114
-0.337179 2.161022 2.716218
-0.340851 2.187629 3.309075
-0.332043 2.135581 4.207048
-0.132736 2.181003 1.435942
-0.132119 2.183106 2.376718
-0.131212 2.175220 2.924628
-0.128047 2.130209 3.515983
-0.115991 1.940539 4.483074
0.060655 2.172356 1.116971
0.062362 2.218367 1.641077
0.063929 2.255299 2.287311
0.063136 2.208009 2.978754
0.061934 2.147832 3.656859
0.053534 1.839167 4.458017
0.267321 2.162996 1.295233
0.264589 2.137498 1.832448
0.271195 2.185926 2.592392
0.274607 2.208026 3.421519
0.519392 2.527588 0.148353
0.477815 2.321535 1.017193
0.478305 2.321202 1.652580
0.470570 2.281153 2.254303
0.465844 2.254455 3.177988
0.455720 2.203529 3.665022
0.406093 1.960582 4.542671
0.741767 2.449483 0.538153
0.701320 2.314643 0.959812
0.697208 2.298568 1.791198
0.696231 2.293216 2.502782
0.701423 2.307975 3.280588
0.693757 2.281387 3.745020
0.593838 1.951163 4.441981
0.967212 2.389459 1.243093
0.971923 2.399198 1.995281
0.966223 2.383081 2.816556
0.955927 2.356423 3.333622
0.948134 2.334981 4.257483
1.298969 2.518877 1.399626
1.293360 2.506412 2.101794
1.280889 2.480797 2.751916
1.289981 2.496742 3.493490
1.244807 2.408324 3.961847
1.646719 2.589985 1.618805
1.660677 2.610958 2.075575
1.648592 2.590462 2.784426
1.625568 2.553020 3.397143
1.590380 2.496258 4.146662
2.102981 2.716126 1.410918
2.102503 2.713699 2.272463
2.090543 2.697430 2.674046
2.083383 2.686287 3.597240
2.039739 2.629090 4.064487
2.278345 2.445282 0.897577
2.245446 2.408725 1.589794
2.264927 2.428051 2.453378
2.258501 2.420272 2.947295
2.251924 2.411647 3.828613
2.286196 2.047185 0.959834
2.273954 2.034998 1.766323
2.334600 2.087943 2.614060
2.333791 2.086349 3.174810
2.309151 2.063349 3.814948
2.065463 1.844818 4.432503
2.473588 1.837836 0.319745
2.387237 1.772597 1.109344
2.370267 1.759097 1.771584
2.362712 1.752619 2.416755
2.399042 1.778431 3.243956
2.451426 1.497325 1.085067
2.455457 1.498928 1.775530
2.437332 1.486852 2.598700
2.397266 1.461673 3.214729
2.362072 1.439048 4.208032
2.763794 1.360164 0.137035
2.480782 1.220129 0.802442
2.477575 1.217831 1.439626
2.466399 1.211547 2.143361
2.432980 1.194218 2.972532
2.429092 1.191521 3.691164
2.226240 1.091212 4.527302
2.694217 1.032746 0.597335
2.564377 0.982496 1.042955
2.574786 0.985582 1.874351
2.553619 0.976644 2.654456
2.563857 0.979821 3.341810
2.598241 0.728845 1.118417
2.590384 0.726204 1.544485
2.619309 0.733354 2.469816
2.626185 0.734567 3.157218
2.559803 0.715447 3.715082
2.201828 0.614686 4.591035
2.671294 0.521560 1.062193
2.707558 0.527772 1.902022
2.677336 0.521201 2.571378
2.640094 0.513234 3.291276
2.738907 0.278347 1.245924
2.688749 0.272705 1.793975
2.720863 0.275084 2.663686
2.651181 0.267430 3.293692
2.704308 0.025668 1.284718
2.704404 0.025127 1.830928
2.675535 0.024159 2.547428
2.621128 0.022893 3.363357
2.650712 0.022449 4.090872
2.790478 -0.231072 1.161179
2.817671 -0.233980 1.787365
2.807385 -0.233788 2.425713
2.814098 -0.235338 3.380469
2.813111 -0.483282 1.279034
2.812994 -0.483842 1.822833
2.846691 -0.490594 2.707048
2.761916 -0.476718 3.419808
2.642713 -0.456633 3.927777
2.954625 -0.799991 0.630797
2.890985 -0.783192 1.007776
2.892477 -0.784367 1.677376
2.887161 -0.783767 2.413172
2.839626 -0.771567 3.044604
2.957254 -1.091939 1.222086
2.948455 -1.089156 1.596949
2.949409 -1.090567 2.448016
2.966075 -1.097394 2.978758
2.942868 -1.089740 3.736338
3.069168 -1.470471 1.240095
3.122309 -1.496961 1.953039
3.074505 -1.474530 2.301312
3.064381 -1.470789 3.094538
3.076119 -1.477297 3.714849
2.826400 -1.358375 4.532979
3.284231 -1.943705 2.003918
3.268272 -1.935039 2.472078
3.247869 -1.923973 3.086555
3.398381 -2.432165 1.246492
3.410602 -2.442505 2.051683
3.424657 -2.453750 2.645065
3.430853 -2.459936 3.525968
3.177836 -2.765957 0.715084
3.150950 -2.743628 1.219983
3.166224 -2.758856 2.122332
3.153921 -2.749777 2.896588
3.109169 -2.711651 3.330596
2.721808 -2.818897 0.935498
2.719480 -2.817769 1.533255
2.732969 -2.833420 2.309488
2.703046 -2.803293 2.733937
2.687839 -2.788753 3.320442
2.634195 -2.734453 3.988977
2.334001 -2.928892 0.994236
2.319366 -2.912068 1.677052
2.305000 -2.895100 2.155033
2.317726 -2.913136 3.064359
2.313263 -2.909027 3.735234
2.187380 -2.751971 4.353049
2.037016 -3.070715 0.565213
1.999397 -3.014851 0.908131
1.991507 -3.005191 1.818327
1.988657 -3.002617 2.523092
1.988062 -3.003160 3.111942
1.673864 -3.106198 1.244440
1.682099 -3.123944 2.119805
1.621740 -3.012753 2.464107
1.573371 -2.925136 3.330647
1.569467 -2.920040 4.167327
1.422323 -3.340021 0.107828
1.347122 -3.165813 0.831617
1.354512 -3.185192 1.436951
1.340383 -3.154437 2.191101
1.309079 -3.082746 2.816031
1.286189 -3.031817 3.774153
1.213736 -2.862600 4.332247
1.074235 -3.339505 0.441957
1.076088 -3.346980 0.838752
1.068634 -3.327131 1.616344
1.041360 -3.244939 2.274173
1.024462 -3.195941 3.171672
0.997946 -3.115699 3.804221
0.882342 -2.756769 4.425441
0.784239 -3.386265 1.174102
0.775185 -3.351884 1.999700
0.770221 -3.333000 2.455065
0.754944 -3.272361 3.445955
0.481137 -3.492556 1.163315
0.476127 -3.460188 1.580252
0.449968 -3.276180 2.262866
0.434838 -3.173696 3.149520
0.434420 -3.175054 3.655205
0.149842 -3.415915 0.967900
0.151194 -3.465829 1.608534
0.150767 -3.472836 2.169749
0.146594 -3.395073 2.802761
0.141700 -3.307014 3.698762
-0.158748 -3.456799 0.596175
-0.162428 -3.510642 1.506925
-0.161659 -3.482236 1.924493
-0.163733 -3.500229 2.866511
-0.162692 -3.460579 3.498860
-0.151821 -3.216996 4.012946
-0.505618 -3.584977 1.007007
-0.497830 -3.525779 1.423612
-0.497157 -3.514194 2.137821
-0.509299 -3.590526 3.109593
-0.506115 -3.563553 3.584677
-0.472216 -3.319120 4.263914
-0.860410 -3.684518 1.369202
-0.851013 -3.640592 1.963718
-0.846583 -3.619032 2.388105
-0.857850 -3.662093 3.205266
-1.211174 -3.743989 1.398556
-1.206203 -3.725726 1.997813
-1.214886 -3.749158 2.694167
-1.195166 -3.686462 3.086107
-1.648772 -3.841931 1.290671
-1.645897 -3.832106 2.062102
-1.645917 -3.829534 2.711015
-1.633936 -3.799773 3.186511
-2.019251 -3.731247 0.899738
-2.016406 -3.724298 1.394536
-2.018065 -3.724308 2.288316
-2.009431 -3.707022 2.689197
-2.005921 -3.697428 3.616975
-2.151029 -3.231670 1.329364
-2.163416 -3.248008 2.177599
-2.137836 -3.208588 2.566496
-2.142055 -3.212603 3.447909
-2.268879 -2.817176 1.565300
-2.271900 -2.819790 2.088038
-2.247033 -2.787879 2.578998
-2.190913 -2.716853 3.259070
-2.164092 -2.681673 4.206010
-2.409828 -2.485626 1.455014
-2.369464 -2.442631 2.201798
-2.295180 -2.364558 3.058442
-2.269271 -2.336802 3.677025
-2.173353 -2.236858 4.405259
-2.359976 -2.027892 1.452122
-2.365439 -2.031666 2.055778
-2.351056 -2.018632 2.506454
-2.376744 -2.039257 3.441805
-2.342958 -2.009523 3.945682
-2.417760 -1.724425 1.632796
-2.424696 -1.728590 2.211614
-2.467048 -1.757848 2.889224
-2.423948 -1.726468 3.393016
-2.281131 -1.623660 4.278651
-2.498447 -1.452627 1.535379
-2.508912 -1.457890 2.198171
-2.506748 -1.455505 3.113413
-2.440618 -1.416532 3.603983
-2.218724 -1.286707 4.600931
-2.584473 -1.219957 1.371001
-2.572770 -1.214123 1.638861
-2.535395 -1.195422 2.574908
-2.525905 -1.190413 3.048911
-2.623522 -0.966366 1.032202
-2.628577 -0.967427 1.761052
-2.621823 -0.964193 2.445933
-2.612098 -0.959781 3.217098
-2.562052 -0.676263 1.157079
-2.588124 -0.682515 1.776806
-2.625454 -0.691377 2.730300
-2.619805 -0.689118 3.485307
-2.567002 -0.674604 4.118629
-2.673004 -0.457897 1.469461
-2.662834 -0.455847 1.775497
-2.708991 -0.462669 2.829791
-2.650320 -0.452204 3.282033
-2.605526 -0.443842 4.026096
-2.777179 -0.207254 1.420130
-2.737450 -0.203606 2.097227
-2.741473 -0.203156 2.839018
-2.745822 -0.202644 3.667298
-2.508726 -0.184666 4.220326
-2.867608 0.038720 0.928786
-2.901502 0.040084 1.774215
-2.839135 0.039859 2.387118
-2.773915 0.039688 3.124919
-2.900620 0.309660 0.899869
-2.900582 0.310393 1.580143
-2.930973 0.314653 2.499309
-2.858133 0.307491 3.124906
-2.730544 0.294233 3.602718
-2.445227 0.264321 4.567815
-2.945093 0.587826 1.245879
-2.927352 0.585050 1.926036
-2.950380 0.590466 2.642110
-2.993800 0.600044 3.412912
-3.015121 0.900819 1.057984
-3.017951 0.902490 1.733713
-3.030564 0.907440 2.694137
-2.984950 0.894489 3.286701
-3.143147 1.250777 1.358728
-3.105037 1.236515 2.032916
-3.104881 1.237394 2.734462
-3.030656 1.208469 3.244782
-3.015076 1.203515 4.222105
-3.180384 1.579852 1.180450
-3.175312 1.578019 1.640931
-3.146420 1.564713 2.357516
-3.138281 1.561836 3.157417
-3.110814 1.548800 3.598184
-3.024110 1.506825 4.463187
-2.830444 1.747879 1.197555
-2.775331 1.714926 1.955727
-2.707642 1.674028 2.628380
-2.750186 1.701506 3.458851
-2.327398 1.747100 1.424064
-2.345421 1.761813 2.297486
-2.320829 1.744117 2.881582
-2.336486 1.756865 3.611725
-2.254639 1.695861 4.042307
-2.049271 1.860590 0.931540
-2.062653 1.873469 1.456994
-2.046783 1.860362 2.410854
-2.034637 1.850306 3.136446
-2.037328 1.853487 3.676523
-1.879442 1.710746 4.424622
-1.782906 1.939306 0.536966
-1.722572 1.874356 1.030555
-1.732266 1.886177 1.950362
-1.722820 1.876660 2.510391
-1.684276 1.835387 3.047985
-1.537933 2.016361 0.631391
-1.503498 1.972213 1.302545
-1.504559 1.974482 1.889567
-1.486481 1.951788 2.592206
-1.469304 1.930050 3.157134
-1.254519 1.966984 1.382989
-1.246545 1.955595 2.095491
-1.271323 1.995528 2.758426
-1.250931 1.964197 3.194362
-1.196560 1.879895 3.923369
-1.013830 1.973629 1.631707
-1.012209 1.971197 2.045370
-1.015446 1.978941 2.864182
-1.016703 1.982850 3.695781
-0.908614 1.772891 4.266012
-0.816828 2.012879 1.088822
-0.826861 2.039036 1.764164
-0.833228 2.056239 2.468709
-0.828899 2.046615 2.969381
-0.821444 2.029952 3.804310
-0.704578 1.742446 4.568417
-0.638653 2.137099 1.321454
-0.631434 2.114515 1.886036
-0.621440 2.082825 2.537977
-0.613325 2.057211 3.126109
-0.438067 2.140277 1.426562
-0.432927 2.117250 1.963870
-0.430933 2.109979 2.605540
-0.424851 2.082328 3.165956
-0.431926 2.121164 4.235205
-0.231041 2.115514 1.259534
-0.234810 2.156059 2.095264
-0.233837 2.151813 2.746343
-0.232742 2.147308 3.522832
-0.221970 2.051239 4.018541
-0.038838 2.211664 1.481762
-0.038049 2.196904 2.150007
-0.037057 2.169470 2.812036
-0.036819 2.191228 3.585939
-0.031925 1.931642 4.388602
0.166527 2.210340 1.584852
0.165466 2.190407 2.140630
0.165653 2.186149 2.781868
0.166545 2.189143 3.623449
0.154207 2.018632 4.520569
0.346729 2.237815 0.804946
0.343694 2.214204 1.564972
0.343027 2.206003 2.307707
0.338239 2.172393 2.856883
0.344631 2.208705 3.761351
0.312227 1.998580 4.310076
0.651419 2.600798 0.268096
0.570196 2.273988 0.989927
0.568355 2.265081 1.439024
0.553985 2.205337 2.173393
0.552594 2.196862 3.049308
0.553462 2.198515 3.587518
0.527335 2.091669 4.570074
0.805577 2.302389 0.791531
0.809765 2.311787 1.742045
0.808783 2.307978 2.115787
0.816380 2.327126 3.050212
0.826695 2.354378 3.836398
0.772293 2.198201 4.347679
1.081972 2.368743 1.279242
1.083542 2.370816 1.873386
1.082001 2.365871 2.562313
1.074796 2.348619 3.226779
1.045619 2.283243 3.975793
1.438816 2.517863 1.157744
1.436467 2.512742 1.627249
1.423941 2.489123 2.431324
1.417419 2.476180 3.164006
1.395985 2.437603 3.717172
1.822737 2.602585 1.221172
1.833845 2.616649 2.087597
1.810711 2.582650 2.575652
1.799176 2.564437 3.450926
2.225444 2.626317 0.903914
2.228158 2.628054 1.636856
2.241367 2.642159 2.370103
2.224695 2.621315 2.972419
2.202904 2.594352 3.633432
2.137676 2.516373 4.261203
2.284745 2.249864 1.329480
2.282439 2.246143 2.196837
2.267743 2.231013 2.601056
2.274744 2.236381 3.518649
2.221355 2.182854 4.173936
2.519268 2.066552 0.472559
2.356347 1.932038 1.070292
2.363358 1.936659 1.839467
2.351925 1.926489 2.391297
2.361135 1.932947 3.136182
2.350565 1.923121 3.951531
2.065067 1.689002 4.427006
2.569384 1.745624 0.282992
2.423283 1.645077 1.267014
2.489634 1.689268 1.897140
2.485442 1.685992 2.219129
2.440570 1.654392 3.108811
2.431754 1.647595 3.740196
2.158594 1.461654 4.538647
2.458487 1.387222 1.095881
2.479639 1.397925 2.118640
2.446377 1.378560 2.639382
2.451274 1.380277 3.521117
2.372000 1.335289 3.838933
2.544098 1.145642 1.539932
2.513050 1.131312 1.855903
2.491384 1.120714 2.626765
2.476975 1.113230 3.549959
2.394757 1.075516 4.291382
2.571597 0.887138 1.016025
2.543748 0.876970 1.553727
2.530662 0.871786 2.203580
2.559670 0.881010 2.935584
2.599600 0.893776 3.854569
2.336640 0.802826 4.462197
2.679006 0.662710 0.562659
2.597597 0.641944 1.183965
2.583762 0.637752 1.953888
2.568277 0.633412 2.475272
2.590822 0.638113 3.330686
2.718963 0.412382 1.162897
2.629238 0.398033 1.916887
2.628670 0.397226 2.651070
2.596476 0.391630 3.409658
2.535601 0.381902 3.997828
2.781135 0.165848 1.447779
2.709681 0.161033 2.006428
2.607756 0.154318 2.701284
2.665444 0.157096 3.349182
2.590052 0.152008 4.041254
2.809610 -0.090025 1.446709
2.726895 -0.088154 2.228033
2.709839 -0.088054 2.684121
2.753405 -0.090237 3.443294
2.626794 -0.086713 4.112383
2.800637 -0.346379 1.068263
2.742159 -0.339581 1.494961
2.786079 -0.345847 2.287582
2.799018 -0.348283 3.083492
2.718515 -0.338716 3.538124
2.546518 -0.317910 4.223455
2.832390 -0.615160 1.111818
2.862296 -0.622439 1.818785
2.905816 -0.633041 2.829367
2.841426 -0.619427 3.214436
2.769944 -0.604613 3.947324
2.885173 -0.908719 1.153449
2.855367 -0.900398 2.072602
2.893857 -0.913216 2.649297
2.925676 -0.924044 3.309866
2.861994 -0.904808 4.076449
2.940120 -1.227569 1.439765
2.960890 -1.236832 1.894956
3.009995 -1.258377 2.677015
3.015709 -1.261596 3.308377
3.141278 -1.663397 1.270518
3.079413 -1.631575 1.906442
3.069634 -1.627730 2.814505
3.041613 -1.613560 3.291082
3.074642 -1.632540 4.284111
3.323125 -2.169360 1.584273
3.322490 -2.169750 2.030336
3.293252 -2.151678 2.605148
3.259733 -2.130962 3.282264
3.200986 -2.093800 4.012756
3.413614 -2.656923 1.716840
3.406620 -2.652874 2.379814
3.366420 -2.622211 2.693868
3.387366 -2.640691 3.731936
3.293780 -2.568255 4.005545
2.983804 -2.842522 1.018294
2.959678 -2.820516 1.471887
2.961795 -2.824512 2.387506
2.940293 -2.805210 2.952060
2.950118 -2.815961 3.595403
2.813451 -2.686550 4.131513
2.554295 -2.882799 1.187586
2.550868 -2.879976 1.661754
2.528025 -2.855671 2.345117
2.532243 -2.861963 3.046139
2.167509 -2.954020 0.763138
2.166874 -2.954881 1.500096
2.158494 -2.945006 2.167283
2.159019 -2.947317 2.853560
2.104816 -2.874716 3.479349
2.034711 -2.780929 4.398984
1.962448 -3.260062 0.071504
1.862550 -3.095824 0.719346
1.861160 -3.095441 1.448431
1.860758 -3.097130 2.341414
1.858066 -3.094173 2.920822
1.827127 -3.044385 3.599088
1.691625 -2.820324 4.355182
1.635854 -3.326359 0.340674
1.597025 -3.249495 1.015996
1.558907 -3.173133 1.415677
1.560730 -3.179819 2.400789
1.543383 -3.145852 2.866511
1.485571 -3.030071 3.599934
1.385661 -2.828450 4.447584
1.308327 -3.493916 0.223959
1.215582 -3.248960 0.957412
1.213748 -3.246207 1.536294
1.179957 -3.157829 2.094788
1.141772 -3.057696 2.695186
1.136614 -3.046250 3.383568
1.105683 -2.966642 4.380509
0.941776 -3.363878 1.589276
0.914677 -3.269353 2.075115
0.905880 -3.240836 2.705239
0.902692 -3.232777 3.427835
0.863160 -3.094329 4.152460
0.627692 -3.365400 1.103540
0.626090 -3.363783 2.100683
0.612975 -3.296368 2.551225
0.590829 -3.181668 3.229020
0.312667 -3.473755 1.471966
0.309542 -3.445069 1.889816
0.299233 -3.339497 2.551225
0.288211 -3.225864 3.256298
0.003664 -3.507765 1.353616
0.002667 -3.496974 2.104963
0.001752 -3.472970 2.796448
0.000699 -3.400485 3.606288
-0.000148 -3.232072 4.307108
-0.327206 -3.555181 0.999532
-0.323904 -3.509116 1.705277
-0.329555 -3.563064 2.199209
-0.330738 -3.565822 2.887034
-0.315146 -3.387831 3.624384
-0.299081 -3.207688 4.225247
-0.658853 -3.585976 1.024207
-0.663041 -3.601748 1.941265
-0.657814 -3.571106 2.240814
-0.665352 -3.604331 3.250893
-0.651297 -3.523565 3.887184
-1.036792 -3.674538 0.920492
-1.025142 -3.629425 1.647663
-1.035542 -3.661395 2.561467
-1.034134 -3.653812 3.057394
-1.027186 -3.625691 3.747484
-1.402024 -3.772510 1.127973
-1.380631 -3.713594 1.441964
-1.388385 -3.731037 2.225956
-1.387661 -3.726534 2.816608
-1.381995 -3.708775 3.410741
-1.853246 -3.844455 0.907854
-1.843531 -3.821812 1.570929
-1.837269 -3.806648 2.155990
-1.861562 -3.853369 3.110195
-1.857997 -3.843689 3.725995
-2.109683 -3.513656 1.089945
-2.095392 -3.488325 1.597153
-2.088636 -3.475259 2.203107
-2.094797 -3.483232 2.960927
-2.098346 -3.486798 3.740041
-2.237332 -3.058057 1.494406
-2.232562 -3.050755 1.817636
-2.222824 -3.035435 2.654869
-2.209709 -3.016151 3.234566
-2.265690 -2.594756 0.985243
-2.252871 -2.578660 1.710429
-2.282012 -2.610011 2.724213
-2.222992 -2.541759 3.124025
-2.354715 -2.222667 1.483075
-2.341421 -2.209156 2.067842
-2.357188 -2.222489 2.999377
-2.372180 -2.235848 3.465359
-2.315733 -2.181309 4.304405
-2.387218 -1.888269 1.610866
-2.390832 -1.890375 2.133538
-2.409156 -1.903507 3.069891
-2.398226 -1.894342 3.440340
-2.253363 -1.778872 4.241650
-2.483243 -1.605621 1.348601
-2.511317 -1.622902 2.008484
-2.555707 -1.650211 3.035590
-2.502133 -1.614824 3.652211
-2.316555 -1.494509 4.134251
-2.537869 -1.347642 1.711189
-2.496427 -1.325070 2.193851
-2.453918 -1.301717 2.883020
-2.452707 -1.299943 3.870177
-2.201954 -1.166315 4.620280
-2.619453 -1.104079 0.920274
-2.628752 -1.107010 1.786043
-2.606596 -1.097190 2.221465
-2.559042 -1.076467 2.864584
-2.542861 -1.068736 3.713419
-2.186239 -0.918371 4.276088
-2.585769 -0.814923 1.450989
-2.575137 -0.810822 2.174241
-2.620235 -0.824044 3.099541
-2.643251 -0.830512 3.824080
-2.363109 -0.741883 4.508702
-2.642997 -0.580658 1.858642
-2.686852 -0.589948 2.189490
-2.703258 -0.592655 3.051158
-2.761022 -0.340058 1.346398
-2.751933 -0.338579 1.697820
-2.712946 -0.332828 2.645226
-2.657338 -0.325502 3.161861
-2.830324 -0.092800 1.344407
-2.812798 -0.091547 2.000513
-2.769125 -0.089645 2.475399
-2.719344 -0.087164 3.353501
-2.672052 -0.084958 4.069387
-2.848726 0.172998 1.269836
-2.839537 0.173302 2.091041
-2.821538 0.173011 2.869567
-2.770785 0.170438 3.403889
-2.677853 0.165233 3.937021
-2.954425 0.421507 1.402572
-2.996008 0.428333 2.190030
-2.917756 0.417823 2.813121
-2.820831 0.404794 3.628926
-2.607087 0.374610 4.158674
-2.970910 0.705334 1.253168
-2.948430 0.700674 1.840837
-2.947896 0.701013 2.244929
-2.976536 0.708646 2.951074
-2.952108 0.703954 3.933236
-2.565825 0.612431 4.581622
-3.089394 1.037539 0.508907
-3.011488 1.012252 1.212063
-3.062603 1.030244 1.848068
-3.082453 1.037818 2.549792
-3.025331 1.019182 3.031173
-2.928914 0.987830 3.982215
-2.602795 0.878490 4.642068
-3.145881 1.389459 1.501302
-3.119144 1.378220 1.910756
-3.142628 1.389643 2.653960
-3.144409 1.391605 3.492449
-3.117071 1.380633 4.311831
-3.015082 1.680701 1.202091
-3.007376 1.677664 2.053922
-3.014071 1.682567 2.843726
-3.024568 1.689397 3.498860
-2.545177 1.745469 1.444072
-2.510337 1.722442 2.078668
-2.557623 1.755986 2.864531
-2.581554 1.773565 3.681614
-2.502989 1.720491 4.360170
-2.234861 1.833747 1.553754
-2.218179 1.820790 2.089494
-2.171779 1.783469 2.667011
-2.193439 1.802416 3.527726
-2.131295 1.752151 4.152698
-1.888661 1.881942 0.869556
-1.898971 1.892859 1.331889
-1.872131 1.867133 2.084905
-1.834726 1.830722 2.758883
-1.838618 1.835765 3.627868
-1.732798 1.730921 4.294710
-1.845144 2.181502 0.377072
-1.655525 1.957895 0.779358
-1.626089 1.924303 1.636054
-1.612582 1.909069 2.168462
-1.608994 1.906107 3.085169
-1.637113 1.940408 3.775111
-1.525737 1.809247 4.437850
-1.366442 1.943672 1.194435
-1.364449 1.942295 2.167071
-1.363579 1.942066 2.842392
-1.361616 1.940419 3.614438
-1.290358 1.839509 4.082582
-1.114769 1.952314 1.114538
-1.116754 1.956949 1.817771
-1.113861 1.953050 2.532460
-1.115779 1.957494 3.191965
-1.101436 1.933811 4.113642
-0.941014 2.049392 1.311133
-0.942305 2.053417 1.930096
-0.931834 2.032073 2.693550
-0.943529 2.059295 3.568802
-0.931738 2.034802 4.216679
-0.734024 2.088401 1.519251
-0.739261 2.104125 1.856564
-0.735835 2.095944 2.506190
-0.728129 2.076182 3.423997
-0.723259 2.064159 4.213394
-0.536354 2.131128 1.097408
-0.536069 2.132046 1.726660
-0.528279 2.103450 2.472292
-0.523845 2.087145 2.898581
-0.524896 2.094042 3.750742
-0.445787 1.780135 4.420119
-0.356942 2.155291 1.426562
-0.356590 2.155658 1.943687
-0.361672 2.188968 2.468709
-0.362265 2.195989 3.166175
-0.352554 2.141428 4.072671
-0.156157 2.156405 1.483916
-0.154203 2.135466 2.049827
-0.154329 2.146339 2.898581
-0.155618 2.173035 3.701130
-0.137926 1.930677 4.215451
0.041656 2.195441 1.041148
0.042055 2.192537 1.614137
0.042686 2.191285 2.442368
0.043045 2.178934 3.208291
0.043480 2.174022 3.891515
0.037421 1.845993 4.698110
0.239812 2.215429 1.265248
0.240991 2.221311 1.931499
0.237681 2.186300 2.545514
0.237089 2.175355 3.302092
0.232275 2.126156 4.019260
0.504197 2.479955 0.204284
0.457230 2.246009 0.907220
0.447882 2.197264 1.602429
0.445107 2.179828 2.553037
0.448712 2.194405 3.316043
0.446496 2.182094 3.686413
0.401922 1.960658 4.725158
0.686771 2.302677 1.249487
0.686375 2.299809 1.753915
0.684847 2.291621 2.765741
0.683737 2.286381 3.273652
0.666809 2.227980 3.893339
0.557931 1.862418 4.675261
0.949386 2.351916 1.458479
0.948663 2.349022 1.905370
0.955901 2.364562 2.865023
0.950953 2.350736 3.512504
0.916893 2.264837 4.248167
1.235673 2.413621 1.460225
1.247212 2.434243 2.329571
1.253586 2.444965 3.108767
1.248146 2.433011 3.725378
1.186316 2.311384 4.275983
1.606549 2.527558 0.998618
1.622954 2.551855 1.721885
1.599821 2.514406 2.248267
1.602589 2.516774 3.216471
1.593749 2.501766 3.774103
2.014759 2.612066 1.116774
2.001905 2.594108 1.763569
2.044834 2.647672 2.770717
2.020299 2.615132 3.158275
2.245982 2.458581 1.288235
2.262442 2.474893 2.205109
2.255642 2.466478 2.734462
2.289039 2.501529 3.515792
2.262326 2.471005 4.245790
2.372015 2.145036 1.694710
2.341751 2.116772 2.263929
2.310188 2.087571 2.698155
2.327680 2.102142 3.487410
2.252087 2.032624 4.332726
2.637221 1.995255 0.353893
2.410351 1.822619 1.061938
2.408604 1.820514 1.621217
2.390144 1.805898 2.100079
2.429264 1.834509 2.768206
2.401883 1.812859 3.472910
2.207141 1.664745 4.395619
2.623607 1.618803 0.429367
2.504976 1.544960 0.935894
2.477680 1.526870 1.930329
2.444454 1.505719 2.477290
2.481070 1.527274 3.269527
2.509867 1.258255 1.363823
2.489014 1.247177 1.909834
2.494502 1.248994 2.724273
2.473966 1.237776 3.553968
2.357790 1.179000 4.177188
2.572514 1.008426 1.494961
2.565916 1.005005 2.263289
2.576645 1.008672 2.753946
2.588256 1.012214 3.673822
2.373590 0.927686 4.282225
2.578807 0.766421 0.831948
2.588960 0.768481 1.757019
2.575035 0.763749 2.342247
2.569282 0.761463 2.910009
2.550515 0.755071 3.733583
2.286018 0.676050 4.568441
2.595769 0.523102 1.101559
2.601441 0.523537 1.815123
2.561766 0.515009 2.375208
2.621492 0.526006 3.386170
2.722296 0.294035 1.496065
2.656503 0.286307 2.129609
2.681395 0.288309 2.815479
2.736371 0.293608 3.415619
2.566829 0.274562 4.344014
2.716785 0.045991 0.905214
2.776085 0.046108 1.771572
2.704229 0.044446 2.248151
2.658066 0.042739 3.228943
2.825951 -0.214633 1.399626
2.830500 -0.215597 1.989833
2.782755 -0.212388 2.409076
2.734865 -0.209649 3.323355
2.833526 -0.468221 1.066682
2.808031 -0.464645 1.666460
2.835007 -0.470019 2.514059
2.835809 -0.470805 3.124906
2.850568 -0.473942 3.764097
2.489387 -0.414334 4.285346
2.898647 -0.762184 1.071887
2.908506 -0.765706 1.878829
2.849855 -0.750949 2.490137
2.805288 -0.739919 3.140968
2.949183 -1.064346 1.423677
2.891938 -1.044053 1.728460
2.890887 -1.044618 2.508320
2.926987 -1.058573 3.250195
2.969023 -1.400962 1.362817
3.001675 -1.417341 2.070725
2.990976 -1.413036 2.618572
2.993936 -1.415268 3.230863
3.009044 -1.423835 4.276164
3.195818 -1.871287 1.237855
3.138776 -1.839017 1.951720
3.100843 -1.818037 2.749947
3.093343 -1.814361 3.213279
3.088502 -1.812861 4.079154
3.322844 -2.384041 1.498469
3.311653 -2.377273 2.157100
3.319498 -2.384391 2.932078
3.337521 -2.398730 3.654644
3.232776 -2.324164 4.056753
3.234307 -2.794689 1.119316
3.205953 -2.770893 1.447459
3.178739 -2.748900 2.166482
3.191625 -2.761257 2.733323
3.226780 -2.793800 3.717184
3.139976 -2.719670 4.223996
2.794371 -2.849189 0.835594
2.804999 -2.862242 1.849602
2.802521 -2.861248 2.554768
2.770175 -2.828974 2.907730
2.859202 -2.922113 3.899581
2.687606 -2.747619 4.355269
2.367418 -2.901255 0.976327
2.374887 -2.912406 1.863775
2.367698 -2.904940 2.466884
2.378762 -2.920297 3.258962
2.359937 -2.898151 3.696587
2.146844 -2.637868 4.441760
