0.754647 1.570017 4.387566
0.428808 0.889610 7.663841
0.599214 1.242204 8.442507
0.537866 1.114459 9.061647
0.380249 0.787242 10.095912
0.608510 1.024289 0.215050
0.550770 0.926533 0.968351
0.555643 0.934036 1.891253
0.545833 0.916870 2.807289
0.635924 1.067653 3.431913
0.816261 1.369545 4.192746
0.824484 1.382490 4.954435
0.581778 0.974848 5.889903
0.346745 0.580635 6.805875
0.489590 0.819366 7.493803
0.694884 1.162118 8.326792
0.646547 1.080698 9.045399
0.486757 0.812958 10.179136
0.845795 1.176726 0.801563
0.626279 0.870824 1.573320
0.611036 0.849043 2.499770
0.478510 0.664574 3.168616
0.640841 0.889308 4.236498
0.793743 1.101049 4.751879
0.538056 0.745919 5.629002
0.395963 0.548599 6.508408
0.617591 0.855015 7.485532
0.799518 1.106217 8.258410
0.779297 1.077659 9.017793
0.605419 0.836845 9.704785
0.291671 0.334192 0.466957
0.352787 0.403988 1.272223
0.670015 0.766837 2.022284
0.697818 0.798264 2.711870
0.670349 0.766294 3.719445
0.781840 0.893316 4.376356
0.795326 0.908104 5.339758
0.483472 0.551711 6.235580
0.546805 0.623666 6.955248
0.821274 0.936197 7.678906
0.922034 1.050420 8.526615
0.830174 0.945317 9.257340
0.426583 0.411865 0.411532
0.512081 0.494112 1.277274
0.808544 0.779702 2.112374
0.827193 0.797241 2.897105
0.698345 0.672795 3.466834
0.694130 0.668298 4.401605
0.680469 0.654840 5.072866
0.530857 0.510571 5.928545
0.611661 0.587880 6.918891
0.856493 0.822822 7.514752
0.994036 0.954253 8.553049
0.953588 0.769500 0.859038
0.803223 0.647729 1.787583
0.816598 0.658155 2.542197
0.775578 0.624805 3.186351
0.816054 0.656908 4.252526
0.810275 0.651984 4.834043
0.638387 0.513395 5.632611
0.461398 0.370854 6.456297
0.769731 0.618184 7.531580
1.130186 0.907204 8.174506
1.080943 0.867229 8.927152
0.811854 0.650971 9.838189
1.043184 0.695222 0.995644
0.874868 0.582755 1.659179
0.874818 0.582313 2.574014
0.829912 0.552161 3.196972
0.869521 0.578062 4.220705
0.865112 0.574868 4.823434
0.700608 0.465228 5.781933
0.558098 0.370373 6.619615
0.884129 0.586318 7.517343
1.206146 0.799435 8.164008
1.116822 0.739874 8.838076
0.845242 0.559583 9.833703
1.207624 0.659595 0.887262
0.928086 0.506529 1.797040
0.858139 0.468039 2.600219
0.806530 0.439686 3.160543
0.872487 0.475316 3.979194
0.888172 0.483528 4.805278
0.725034 0.394439 5.675283
0.600667 0.326551 6.551235
0.877544 0.476806 7.188390
1.179865 0.640529 8.153180
1.147568 0.622560 9.023479
0.936111 0.507539 9.832059
0.780044 0.338184 0.856697
0.871652 0.377616 1.631543
0.834617 0.361334 2.316222
0.817855 0.353800 3.130615
0.853592 0.369004 3.845999
0.891326 0.384930 4.885804
0.742345 0.320392 5.557920
0.611858 0.263898 6.290205
0.935332 0.403009 7.294561
1.222920 0.526493 8.100542
1.170373 0.503558 8.775439
0.930242 0.399988 9.518365
0.065459 0.021809 0.504010
0.878020 0.291962 2.155162
0.861354 0.286129 3.022182
0.833388 0.276578 3.829600
0.838899 0.278162 4.583287
0.670136 0.222008 5.365246
0.505174 0.167225 6.080433
0.857600 0.283587 6.942116
1.293623 0.427327 7.754150
1.342804 0.443136 8.600176
1.128032 0.371902 9.497938
0.802462 0.186520 0.793241
1.094364 0.254039 1.592470
0.884136 0.205014 2.284289
0.864002 0.200092 3.077366
0.948039 0.219220 4.024245
0.941056 0.217392 4.638325
0.777570 0.179392 5.483208
0.661102 0.152315 6.365167
1.004226 0.230987 7.358238
1.293335 0.297124 8.079483
1.272398 0.291936 8.912464
1.053747 0.241461 9.794141
0.758867 0.107725 0.228091
0.705269 0.099846 1.298670
0.901516 0.127443 1.867830
0.880730 0.124217 2.777297
1.021962 0.143831 3.600365
1.049046 0.147357 4.358575
0.849337 0.119122 4.986632
0.791284 0.110698 6.006478
0.412955 0.057670 6.773135
0.726517 0.101253 7.536274
1.401664 0.194816 8.489699
1.190497 0.165179 9.237287
0.502597 0.069638 9.973042
1.104092 0.052895 1.063048
1.156387 0.055095 1.803000
0.973572 0.046128 2.557715
1.171667 0.055241 3.203799
1.339779 0.062697 4.177816
1.199396 0.055911 4.706832
0.960556 0.044499 5.568719
0.684662 0.031529 6.407992
0.996834 0.045575 7.320407
1.290236 0.058649 8.031911
1.299325 0.058631 9.002405
0.977692 0.043849 9.899085
0.569692 -0.022509 0.583585
0.639392 -0.025441 1.376177
0.994217 -0.039803 2.055444
1.167370 -0.047056 2.821234
1.541477 -0.062629 3.690447
1.508822 -0.061649 4.339887
1.059416 -0.043582 5.187230
0.684760 -0.028370 6.089677
0.739874 -0.030893 7.026214
1.048274 -0.044039 7.717836
1.287277 -0.054443 8.495519
1.169932 -0.049797 9.322911
0.711492 -0.094488 0.388832
0.651595 -0.086708 1.139641
0.953010 -0.127076 1.886701
1.274867 -0.170383 2.717298
1.638773 -0.219519 3.532337
1.722931 -0.231313 4.356313
1.447967 -0.194802 5.165816
0.862121 -0.116256 6.137446
0.493799 -0.066692 6.803496
0.853716 -0.115616 7.799399
1.222916 -0.165887 8.363716
1.164124 -0.158340 9.445088
1.009001 -0.225197 1.830025
1.299627 -0.290466 2.650621
1.756450 -0.393141 3.487354
0.679676 -0.153085 7.476790
1.210011 -0.272926 8.274024
1.092267 -0.350001 0.691439
1.284659 -0.412114 1.604295
1.106569 -0.355304 2.354290
1.412240 -0.453825 3.009259
1.772450 -0.570204 3.869491
1.493641 -0.480938 4.630212
0.943811 -0.304160 5.423599
0.591880 -0.190970 6.484419
0.614690 -0.198465 7.065290
0.953986 -0.308370 7.992320
1.110992 -0.359407 8.644069
1.020371 -0.330388 9.447562
0.892104 -0.375874 0.418238
0.790776 -0.333426 1.165816
0.997620 -0.420911 1.806483
1.291614 -0.545569 2.931038
1.660549 -0.701838 3.518556
0.691060 -0.293240 7.754857
1.089624 -0.462722 8.485281
0.704450 -0.378132 0.825770
1.038071 -0.557634 1.706707
0.697472 -0.374896 2.441076
1.456683 -0.784093 4.048887
0.953684 -0.514374 6.517185
0.632917 -0.341613 7.461416
0.893800 -0.482774 8.299836
1.039288 -0.561710 9.041338
0.922555 -0.498897 9.768435
1.000812 -0.655251 0.648285
1.148659 -0.752599 1.582222
1.109844 -0.727501 2.175222
1.398131 -0.917202 3.173055
1.566132 -1.027877 3.732030
1.347287 -0.884941 4.773588
0.976018 -0.641369 5.420612
0.728669 -0.479190 6.465048
0.583953 -0.384188 7.077846
0.773016 -0.508886 7.864106
1.004691 -0.661942 8.913816
0.997548 -0.657580 9.630737
0.874698 -0.693025 0.109588
0.905541 -0.717967 1.072257
0.951260 -0.754693 1.937983
0.730473 -0.579834 2.678018
1.538290 -1.222438 4.131275
1.268921 -1.008876 4.846747
0.998049 -0.793943 5.642304
0.609693 -0.485334 6.667081
0.589772 -0.469751 7.510183
0.784172 -0.624980 8.358151
0.843579 -0.672602 8.931249
0.695570 -0.554925 9.853669
0.818851 -0.774463 0.935352
0.980914 -0.928210 1.635868
1.114877 -1.055491 2.310619
1.470248 -1.392855 3.195836
1.535794 -1.455948 4.135683
1.287243 -1.220741 4.658299
0.996870 -0.945982 5.627864
0.577747 -0.548481 6.313141
0.485806 -0.461555 7.470760
0.671624 -0.638400 8.118851
0.873571 -0.830845 8.924379
0.864973 -0.823169 9.833113
0.890052 -1.013090 0.772072
0.949100 -1.080726 1.316682
1.159672 -1.322937 3.848365
0.384950 -0.440155 7.287004
0.518619 -0.593224 7.814078
0.808133 -0.924995 8.685983
0.790413 -0.905179 9.449735
0.771741 -1.050958 1.004894
0.776251 -1.057799 1.890849
0.895121 -1.220573 2.743439
1.155793 -1.576666 3.253934
1.274764 -1.740029 4.047827
1.209414 -1.652026 5.023988
0.608294 -0.832769 8.252184
0.616955 -1.030213 0.880722
0.727244 -1.214883 1.391081
0.927766 -1.552986 3.843351
1.122645 -1.880670 4.764300
0.445873 -0.748709 7.974840
0.659189 -1.107628 8.727748
0.622239 -1.046159 9.513109
0.500308 -1.027258 0.374038
0.528788 -1.086512 1.165943
0.575213 -1.182751 1.954052
0.543345 -1.118089 2.815791
0.744444 -1.532962 3.538171
0.961968 -1.982254 4.240755
0.904196 -1.864510 5.020702
0.473436 -0.979037 8.395396
0.547360 -1.132788 9.257340
0.657394 -1.744572 4.131706
0.759964 -2.018077 4.695311
0.684828 -1.820195 5.555198
0.478663 -1.273190 6.351857
0.271713 -0.723393 7.340613
0.297460 -0.792575 8.102150
0.435270 -1.161027 9.072201
0.416025 -1.110620 9.902689
0.315176 -1.103218 0.712598
0.360893 -1.264358 1.363090
0.355331 -1.246041 2.060711
0.396270 -1.391108 2.853768
0.511544 -1.797908 3.690503
0.585270 -2.058972 4.352230
0.567595 -1.999218 5.251240
0.444537 -1.567166 5.975392
0.257109 -0.907358 6.880194
0.273194 -0.965380 7.870525
0.387833 -1.372035 8.652701
0.358616 -1.269696 9.298374
0.289150 -1.564534 0.129164
0.264286 -1.432832 1.116442
0.246166 -1.336482 1.825277
0.324923 -1.772820 4.254223
0.374187 -2.045120 5.072332
0.332337 -1.818780 5.760333
0.276075 -1.512969 6.505596
0.258963 -1.422004 7.530158
0.254963 -1.401802 8.179699
0.141946 -1.425579 1.138170
0.141298 -1.422052 1.716715
0.137774 -1.390569 2.508856
0.111383 -1.127447 3.324347
0.145647 -1.478702 4.119729
0.201656 -2.054150 4.958733
0.181095 -1.849209 5.652762
0.154047 -1.578390 6.637437
0.141380 -1.452838 7.472895
0.135928 -1.400473 8.216421
0.134439 -1.389371 9.080018
0.097633 -1.011730 9.946013
0.014112 -1.495066 2.470908
0.015352 -1.670338 3.152182
0.015258 -1.701130 3.769962
0.015384 -1.785518 4.751960
0.015682 -1.869843 5.385992
0.013839 -1.721056 6.388824
0.012723 -1.640571 7.221216
0.012144 -1.625000 8.038941
0.011338 -1.575796 8.861113
0.009663 -1.396169 9.714712
-0.129599 -1.590563 0.620679
-0.143113 -1.752273 1.149394
-0.128276 -1.564518 2.035604
-0.123736 -1.504835 2.691040
-0.138911 -1.682348 3.634372
-0.150604 -1.817463 4.441383
-0.143821 -1.731734 4.969668
-0.137403 -1.648590 5.811121
-0.138018 -1.650423 6.603768
-0.137782 -1.642176 7.393001
-0.129627 -1.539564 8.263664
-0.124379 -1.471673 9.204973
-0.280510 -1.629521 0.985353
-0.267925 -1.554138 1.668188
-0.260150 -1.506064 2.595023
-0.257286 -1.487182 3.323784
-0.287046 -1.655757 4.288949
-0.285472 -1.644805 4.830036
-0.282073 -1.622075 5.758910
-0.304635 -1.748317 6.701290
-0.306125 -1.754254 7.421346
-0.283509 -1.622744 8.023365
-0.276431 -1.578869 9.086443
-0.205248 -1.170852 9.811979
-0.398111 -1.485374 2.352512
-0.407539 -1.518746 3.181318
-0.427504 -1.591308 3.986235
-0.437976 -1.628483 4.764319
-0.454994 -1.689731 5.604962
-0.494370 -1.833492 6.540525
-0.485071 -1.797421 7.179528
-0.451169 -1.670124 7.929930
-0.421689 -1.559416 8.697976
-0.362121 -1.337473 9.672661
-0.539113 -1.467502 2.361449
-0.549165 -1.493634 3.106051
-0.568335 -1.544304 3.965349
-0.586084 -1.590999 4.837336
-0.608599 -1.650913 5.497229
-0.648357 -1.757318 6.235428
-0.636847 -1.724605 7.054876
-0.614325 -1.661943 8.008141
-0.584154 -1.579262 8.660512
-0.493368 -1.332590 9.607979
-0.562550 -1.194537 0.593534
-0.709316 -1.505143 1.329869
-0.702219 -1.489066 2.062961
-0.725764 -1.537795 2.897859
-0.728958 -1.543602 3.569452
-0.725701 -1.535463 4.445421
-0.689393 -1.457691 5.166764
-0.739137 -1.561720 5.959982
-0.814505 -1.719526 6.850034
-0.776140 -1.637291 7.707071
-0.741510 -1.563283 8.409339
-0.706265 -1.488010 9.164243
-0.733999 -1.243561 0.497129
-0.830146 -1.405719 1.132261
-0.807217 -1.366060 1.877404
-0.818534 -1.384321 2.663148
-0.860713 -1.454469 3.655235
-0.884483 -1.493805 4.335477
-0.858211 -1.448291 5.316624
-0.920726 -1.552752 6.129139
-0.980828 -1.653358 6.675350
-0.966494 -1.627998 7.604270
-0.955831 -1.609236 8.236814
-0.884879 -1.488826 9.088878
-0.950748 -1.338692 0.296108
-0.928970 -1.307330 0.997094
-0.956690 -1.345676 1.644046
-0.915754 -1.287153 2.612576
-0.899955 -1.264353 3.235732
-0.969660 -1.361512 3.973210
-0.948630 -1.331010 4.951230
-1.021359 -1.432270 5.667444
-1.169418 -1.638866 6.467635
-1.143409 -1.601549 7.202426
-1.128090 -1.578938 8.200229
-1.053756 -1.474075 8.992967
-0.898199 -1.255812 9.788910
-0.940299 -1.101285 0.749077
-1.136534 -1.330276 1.608512
-1.053768 -1.232988 2.074755
-1.057600 -1.236710 2.924424
-1.113634 -1.301559 3.632007
-1.155503 -1.349466 4.679115
-1.173886 -1.370342 5.278619
-1.224658 -1.428566 6.287329
-1.264695 -1.474440 7.067760
-1.278454 -1.489812 7.698067
-1.299886 -1.513740 8.677080
-1.168829 -1.360634 9.239215
-1.127346 -1.091674 0.516443
-1.246491 -1.206450 1.202243
-1.145429 -1.107993 2.013364
-1.187380 -1.148115 2.565715
-1.215949 -1.175041 3.392161
-1.265794 -1.222391 4.322246
-1.197936 -1.156164 5.180961
-1.238875 -1.195046 5.918294
-1.420735 -1.369699 6.677057
-1.381081 -1.330859 7.340871
-1.407465 -1.355406 8.262396
-1.321243 -1.271770 8.976836
-1.039487 -0.999872 10.094845
-1.291512 -1.053669 0.275039
-1.223572 -0.997712 0.997744
-1.266401 -1.032018 1.812282
-1.216223 -0.990670 2.445170
-1.206320 -0.982008 3.277606
-1.294617 -1.053183 4.184594
-1.180807 -0.960140 4.859295
-1.268044 -1.030457 5.675351
-1.586511 -1.288294 6.643398
-1.551040 -1.258852 7.357699
-1.498392 -1.215450 8.148407
-1.469978 -1.191687 9.006881
-1.266451 -1.026155 9.822630
-1.290805 -0.864438 0.987925
-1.432150 -0.958651 1.578298
-1.302711 -0.871440 2.424241
-1.295952 -0.866524 3.013875
-1.358590 -0.907645 4.093305
-1.311296 -0.875650 4.692992
-1.404309 -0.937151 5.528782
-1.609331 -1.073306 6.299910
-1.662113 -1.107831 7.089661
-1.588498 -1.058205 7.806335
-1.609691 -1.071476 8.854918
-1.475199 -0.981537 9.465188
-1.418141 -0.780249 0.463517
-1.503830 -0.826739 1.390680
-1.422508 -0.781566 2.095655
-1.463898 -0.803805 2.826697
-1.527065 -0.837884 3.671313
-1.530565 -0.839274 4.418816
-1.591335 -0.871904 5.351410
-1.701952 -0.931847 6.181856
-1.728811 -0.945944 6.944746
-1.726151 -0.943882 7.718780
-1.746805 -0.954434 8.656382
-1.580907 -0.863388 9.270421
-1.141202 -0.499039 0.605239
-1.553274 -0.678637 1.495894
-1.534798 -0.670152 2.124231
-1.551427 -0.676969 2.793564
-1.554767 -0.677815 3.717817
-1.597895 -0.696009 4.609248
-1.663771 -0.724175 5.351410
-1.770117 -0.769878 6.119670
-1.764702 -0.767105 6.685718
-1.806487 -0.784478 7.729135
-1.755929 -0.762106 8.314509
-1.698722 -0.736701 9.159249
-1.251391 -0.417849 0.519808
-1.659398 -0.553365 1.598097
-1.637845 -0.545815 2.152725
-1.662186 -0.553421 2.914910
-1.663422 -0.553256 3.785885
-1.634060 -0.543074 4.432112
-1.788777 -0.593732 5.489794
-1.906323 -0.632135 6.287645
-1.870968 -0.619834 7.083898
-1.879733 -0.622229 7.780903
-1.847751 -0.611164 8.459630
-1.777058 -0.587122 9.451501
-1.424014 -0.333703 1.294841
-1.695952 -0.396985 1.974249
-1.666681 -0.389671 2.708347
-1.643036 -0.383745 3.350435
-1.698994 -0.396276 4.186859
-1.615989 -0.376346 5.139205
-1.672774 -0.389199 5.726910
-2.019987 -0.469232 6.670064
-2.029334 -0.470752 7.534103
-1.975453 -0.457659 8.365538
-1.841149 -0.426216 8.887018
-1.622293 -0.374961 9.958387
-1.611671 -0.231623 0.975548
-1.933283 -0.277332 1.682976
-1.742694 -0.249597 2.307519
-1.690491 -0.241699 2.991706
-1.729693 -0.246680 3.975881
-1.658054 -0.236050 4.670414
-1.812067 -0.257330 5.635647
-1.992764 -0.282594 6.159471
-1.994479 -0.282202 7.043702
-1.956903 -0.276218 8.008491
-1.946355 -0.274207 8.771096
-1.774763 -0.249706 9.338758
-1.871458 -0.094524 2.102765
-1.888038 -0.094693 3.081832
-1.812235 -0.090529 3.643344
-1.737435 -0.086348 4.366731
-1.877839 -0.092703 5.278715
-2.015011 -0.098920 6.031392
-1.976583 -0.096565 6.708117
-1.952151 -0.094812 7.527426
-1.916489 -0.092546 8.335248
-1.859463 -0.089246 9.200792
-2.011835 0.077764 1.307373
-1.869040 0.072737 2.040475
-1.837873 0.071987 2.741077
-1.814075 0.071649 3.653741
-1.843449 0.073309 4.407324
-1.645421 0.065794 5.045233
-1.846573 0.074428 5.919943
-2.147682 0.087170 6.667359
-2.073502 0.084847 7.621611
-1.959107 0.080608 8.293471
-1.849493 0.076565 9.049564
-1.599767 0.066768 10.109086
-1.873417 0.243329 2.737489
-1.820433 0.236836 3.326956
-1.788344 0.233120 4.033112
-1.713711 0.223922 4.896731
-1.822407 0.238654 5.687607
-2.043568 0.268311 6.597765
-2.037172 0.268048 7.389512
-1.932941 0.254740 8.003291
-1.892904 0.250028 8.860590
-1.674632 0.221799 9.952092
-1.817485 0.405591 2.332640
-1.789809 0.399867 3.002740
-1.795815 0.401818 3.903191
-1.820069 0.407848 4.784228
-1.668241 0.374149 5.323609
-1.760350 0.395439 6.278754
-1.983622 0.446158 7.008126
-1.865351 0.420013 7.697630
-1.857711 0.418836 8.501618
-1.753220 0.395804 9.359564
-1.713023 0.532880 0.492610
-1.873908 0.583522 1.288382
-1.806432 0.563002 1.976883
-1.803433 0.562611 2.737489
-1.810893 0.565640 3.719216
-1.771280 0.553807 4.500812
-1.874851 0.586817 5.340917
-1.916444 0.600191 5.810327
-1.942274 0.608986 6.740769
-1.927285 0.604923 7.600456
-1.867741 0.586873 8.511429
-1.729290 0.715263 2.478003
-1.677381 0.694427 3.381119
-1.651390 0.684176 4.118988
-1.783425 0.739476 4.902408
-1.900316 0.788537 5.633728
-1.843115 0.765468 6.513233
-1.794466 0.745769 7.207085
-1.789700 0.744420 8.070636
-1.729597 0.719855 8.704944
-1.567685 0.652993 9.583147
-1.768249 0.924385 0.583161
-1.786243 0.934450 1.379773
-1.640585 0.858832 2.156082
-1.654071 0.866367 2.780817
-1.654704 0.867381 3.680120
-1.896173 0.994756 4.571637
-2.043265 1.072422 5.083511
-1.743777 0.915961 6.049600
-1.552362 0.815862 6.726443
-1.673805 0.880354 7.593894
-1.682359 0.885435 8.371725
-1.416286 0.909450 1.151651
-1.565602 1.005897 1.853574
-1.570591 1.009845 2.780817
-1.687559 1.085482 3.270357
-1.984808 1.277757 4.295751
-2.040626 1.314472 5.036089
-1.866157 1.202852 5.872643
-1.656935 1.068621 6.666703
-1.546342 0.997789 7.334309
-1.604253 1.035926 8.293767
-1.607837 1.038788 8.990752
-1.350986 0.873282 9.739025
-1.362229 1.059787 0.879212
-1.513809 1.178216 1.445625
-1.396582 1.087794 2.463680
-1.693654 1.319889 3.154419
-1.945646 1.517140 3.890597
-1.901801 1.483870 4.725894
-1.796567 1.402469 5.422413
-1.492374 1.165754 6.359971
-1.327779 1.037672 7.050890
-1.365185 1.067500 7.820684
-1.354666 1.059940 8.707116
-1.270416 0.994520 9.449040
-1.258466 1.171393 0.514425
-1.379434 1.284639 1.207903
-1.310472 1.221079 1.961265
-1.556247 1.452746 4.468537
-1.697691 1.585643 5.196379
-1.487252 1.389837 5.986121
-1.319247 1.233579 6.878157
-1.306764 1.222625 7.722429
-1.331154 1.246007 8.367056
-1.285957 1.204392 9.213867
-1.231564 1.373572 0.554299
-1.307628 1.459080 1.184808
-1.201325 1.341387 2.138106
-1.413365 1.580765 4.396348
-1.520224 1.701143 5.076587
-1.348394 1.509731 5.913750
-1.103138 1.235934 6.894342
-1.067063 1.196058 7.553644
-1.188118 1.332484 8.309996
-1.190608 1.336216 9.328354
-0.985620 1.315790 0.494547
-1.074674 1.435710 1.450374
-1.061383 1.418610 2.066646
-1.330857 1.779854 2.837617
-1.503891 2.012448 3.586962
-1.320613 1.768065 4.271627
-1.316296 1.763543 5.223776
-1.275376 1.711791 7.663302
-1.078533 1.448295 8.403618
-1.061577 1.426523 9.386337
-1.005187 1.634497 0.480627
-1.037925 1.688599 1.111569
-0.868706 1.414106 1.831980
-0.989090 1.611294 2.758243
-1.012803 1.651065 3.610726
-1.003169 1.636394 4.398704
-1.015771 1.658012 5.195888
-0.921567 1.506927 7.478177
-0.844564 1.382065 8.488466
-0.575583 1.155861 0.182875
-0.579759 1.164994 0.899524
-0.747317 1.502782 1.695147
-0.870887 1.755073 4.079489
-1.032739 2.082742 4.830726
-0.889504 1.795064 5.610047
-0.766090 1.547060 6.420090
-0.709922 1.434854 7.412936
-0.663085 1.341165 8.274184
-0.690692 1.397640 8.787860
-0.612369 1.240029 9.662146
-0.527956 1.355468 1.032481
-0.617343 1.586035 1.662757
-0.550971 1.416713 2.469305
-0.394262 1.014714 3.392191
-0.786216 2.030154 6.386732
-0.522289 1.349521 7.138199
-0.464892 1.202409 8.142434
-0.556512 1.440472 8.835329
-0.513421 1.330094 9.729610
-0.436754 1.511443 0.757109
-0.465253 1.612088 1.684713
-0.414543 1.437923 2.491877
-0.297305 1.032223 3.222634
-0.419239 1.466296 8.751540
-0.378599 1.325438 9.540433
-0.288851 1.493162 0.621893
-0.302046 1.563826 1.437057
-0.270661 1.403401 2.211609
-0.294332 1.528424 2.982473
-0.366149 1.904827 3.893000
-0.365780 1.905419 4.574925
-0.306498 1.599204 5.462807
-0.235488 1.230547 6.315356
-0.106331 0.556269 7.046351
-0.161518 0.846828 8.176764
-0.276239 1.450227 8.762646
-0.271482 1.427529 9.633420
-0.156645 1.536762 0.548193
-0.151261 1.489208 1.545647
-0.144661 1.428129 2.316624
-0.169630 1.679161 3.056252
-0.207130 2.054928 3.640221
-0.194582 1.935688 4.406193
-0.149802 1.495585 5.469970
-0.143621 1.445766 7.823357
-0.137231 1.385202 8.616136
-0.141241 1.430447 9.570432
-0.017981 1.620902 0.630724
-0.016428 1.511086 1.251240
-0.015043 1.425031 2.138088
-0.016933 1.636728 2.713647
-0.019156 1.914938 3.644201
-0.018935 1.947761 4.426916
-0.014866 1.574247 5.257158
-0.010167 1.105277 6.024527
-0.006211 0.696856 6.923629
-0.006809 0.787101 7.681096
-0.010325 1.245552 8.648855
-0.010459 1.297559 9.314764
0.130502 1.737795 0.378671
0.119057 1.579341 1.175580
0.101571 1.341805 2.058049
0.101038 1.330775 2.692736
0.116573 1.530655 3.332103
0.143931 1.880742 4.328941
0.131749 1.716043 5.035436
0.099612 1.293316 5.789884
0.061790 0.798920 6.795200
0.059098 0.761996 7.430705
0.093159 1.196606 8.205312
0.091635 1.172872 9.020197
0.075963 0.968108 10.070891
0.224675 1.309188 0.983184
0.258263 1.502839 1.617980
0.218869 1.271518 2.399419
0.167581 0.972223 3.069511
0.227217 1.315872 3.880457
0.348759 2.015416 4.814087
0.286706 1.654118 5.636722
0.196465 1.131764 6.451891
0.160127 0.920999 7.255197
0.194505 1.116939 8.009524
0.234926 1.347255 8.621589
0.229317 1.312639 9.562971
0.349870 1.326007 0.655875
0.342864 1.297990 1.435893
0.319485 1.208271 2.137237
0.371567 1.403618 2.927247
0.466654 1.760729 3.716119
0.496669 1.871704 4.543834
0.399710 1.505149 5.131577
0.244757 0.920417 6.178975
0.135905 0.510566 6.975531
0.221855 0.832453 7.799399
0.354433 1.328173 8.653144
0.340146 1.273367 9.399048
0.425206 1.166913 0.299200
0.388939 1.066300 1.221114
0.395025 1.081850 2.174487
0.400704 1.096635 2.810660
0.534010 1.460218 3.551992
0.667926 1.824638 4.385469
0.572231 1.561929 5.170523
0.369837 1.008511 6.148810
0.192479 0.524525 6.859445
0.303310 0.825716 7.762552
0.471474 1.282386 8.500459
0.457856 1.244144 9.430643
0.358929 0.770209 0.835376
0.509036 1.091406 1.726735
0.481768 1.032313 2.387551
0.458765 0.982166 3.339211
0.620133 1.326597 4.153872
0.689585 1.474405 4.697369
0.460723 0.984361 5.561636
0.266317 0.568472 6.670814
0.360019 0.767915 7.470040
0.600530 1.279908 8.247943
0.621137 1.322896 9.031343
0.497510 1.059005 9.737985
0.528496 0.905671 0.778073
0.600335 1.028265 1.388633
0.562802 0.963179 2.410262
0.577271 0.987344 3.152959
0.723464 1.236664 3.849454
0.848460 1.449527 4.500482
0.648660 1.107316 5.522755
0.345095 0.588817 6.232727
0.437135 0.745307 7.147151
0.636689 1.084973 7.742211
0.726826 1.237614 8.694709
0.611422 1.040525 9.470863
0.693448 0.979491 0.849028
0.735028 1.037678 1.544140
0.609595 0.860165 2.222504
0.572644 0.807492 3.112002
0.740299 1.043331 3.822203
0.925745 1.303824 4.669044
0.687279 0.967498 5.374879
0.405279 0.570084 6.493618
0.517980 0.728168 7.306939
0.752218 1.057010 7.811087
0.845033 1.186564 8.789190
0.707425 0.992787 9.624706
0.776104 0.917604 0.922981
0.805830 0.952307 1.566242
0.668290 0.789351 2.308817
0.641525 0.757286 3.143867
0.713191 0.841474 3.818238
0.823147 0.970460 4.880121
0.609123 0.717789 5.604163
0.365126 0.430078 6.284544
0.565756 0.665950 7.200427
0.842967 0.991764 7.832163
0.888645 1.044828 8.753306
0.763735 0.897432 9.668483
0.805363 0.786027 0.861257
0.817331 0.797390 1.422167
0.738733 0.720281 2.266375
0.730534 0.711832 3.173699
0.734329 0.715095 4.040334
0.824040 0.801961 4.906351
0.720237 0.700565 5.692631
0.460042 0.447308 6.294159
0.689106 0.669503 7.393435
0.962087 0.934347 7.900896
1.011977 0.982103 8.921512
0.805827 0.781745 9.547553
0.837403 0.687618 2.295258
0.782537 0.642207 3.078163
0.771092 0.632504 3.764306
0.801609 0.657143 4.597635
0.645260 0.528688 5.380306
0.456928 0.374150 6.291335
0.709771 0.580814 7.159440
1.046530 0.855861 7.953520
0.930934 0.761017 8.569815
0.777485 0.635152 9.588026
0.598371 0.404788 0.720403
0.699924 0.473203 1.507791
0.878183 0.593349 2.317939
0.836874 0.565127 3.046314
0.839723 0.566675 3.923577
0.874156 0.589543 4.746134
0.710250 0.478727 5.540230
0.499823 0.336697 6.366441
0.741504 0.499238 7.031697
1.147435 0.771946 7.980022
1.067298 0.717597 8.828154
0.828930 0.557059 9.566788
0.923172 0.514207 2.264921
0.878723 0.489155 2.993227
0.868848 0.483363 3.732444
0.915938 0.509154 4.693107
0.706801 0.392631 5.557920
0.482813 0.268072 6.209364
0.820069 0.454963 7.133657
1.148608 0.636871 7.764003
1.064923 0.590120 8.522180
0.878296 0.486309 9.588026
0.266964 0.118715 0.328170
0.375028 0.166626 1.243916
0.845708 0.375420 2.155162
0.813025 0.360700 2.777297
0.853356 0.378289 3.620217
0.893239 0.395632 4.518508
0.688590 0.304816 5.152105
0.592310 0.261951 6.172362
0.909408 0.401849 7.024595
1.148322 0.507126 7.600205
1.141636 0.503789 8.427038
0.999195 0.440631 9.207519
0.491134 0.167655 0.498322
0.553956 0.188940 1.238412
0.820016 0.279442 1.987444
0.816234 0.277910 2.747101
0.821059 0.279329 3.443729
0.872028 0.296395 4.244831
0.660805 0.224386 5.115818
0.543168 0.184222 6.184001
0.799921 0.271072 6.897568
1.096073 0.371103 7.619482
1.227105 0.415031 8.527138
0.891342 0.214309 0.269787
0.883076 0.212026 1.164325
0.860593 0.206406 1.858375
0.805727 0.193019 2.620873
0.812915 0.194515 3.371281
0.909526 0.217293 4.372500
0.719400 0.171647 5.240900
0.535245 0.127560 6.033656
0.385258 0.091712 6.798927
0.712685 0.169389 7.791789
1.189367 0.282472 8.189573
1.176842 0.279044 9.268977
0.672435 0.159280 10.086189
0.905924 0.140920 0.280429
0.925061 0.143570 1.259315
0.898239 0.139220 1.835898
0.842027 0.130278 2.597883
0.988622 0.152624 3.528340
1.033091 0.159227 4.231312
0.917162 0.141066 5.139933
0.749253 0.115044 5.903437
0.406210 0.062241 6.885184
0.701189 0.107233 7.674138
1.261551 0.192594 8.321526
1.204776 0.183565 9.199812
0.640039 0.097394 9.914834
1.176812 0.065721 0.997573
0.979907 0.054455 1.779253
0.871463 0.048199 2.532303
1.164356 0.064025 3.417391
1.325794 0.072597 4.051477
1.290135 0.070289 4.834834
1.073058 0.058102 5.823223
0.582422 0.031404 6.556962
0.900015 0.048227 7.481950
1.269833 0.067656 8.300436
1.262276 0.066973 8.955349
0.947729 0.050012 9.883976
0.923151 -0.029397 0.780573
1.192001 -0.038241 1.441469
1.025780 -0.033171 2.170871
1.328227 -0.043331 2.957786
1.525185 -0.050210 3.776656
1.213419 -0.040289 4.608782
0.724814 -0.024276 5.504307
0.484690 -0.016354 6.264087
0.793109 -0.026984 7.038745
1.184199 -0.040713 8.009986
1.212673 -0.041993 8.733707
1.045942 -0.036531 9.656314
0.689086 -0.084297 0.517516
0.655348 -0.080337 1.236053
0.935280 -0.114914 2.004905
1.323810 -0.163145 3.020960
1.735720 -0.214386 3.744227
1.620757 -0.200514 4.315413
1.225795 -0.152006 5.174643
0.809925 -0.100732 6.277153
0.729582 -0.090954 7.137568
1.029366 -0.128579 7.786368
1.328116 -0.166302 8.605989
1.210320 -0.151921 9.523669
0.858333 -0.184490 0.973333
1.013649 -0.218221 1.893684
0.952107 -0.205200 2.547089
0.835100 -0.181185 6.511770
0.814918 -0.177063 7.395401
1.236452 -0.269130 8.390079
1.154739 -0.251648 9.152750
0.706419 -0.154131 10.009588
0.979794 -0.305626 0.905925
1.166568 -0.364184 1.556694
0.874241 -0.273213 2.422654
1.252391 -0.391716 3.065050
1.721413 -0.538932 3.791353
1.292733 -0.405171 4.730835
0.802987 -0.251869 5.433624
0.561814 -0.176393 6.280604
0.748671 -0.235386 7.404691
1.029218 -0.323791 7.866264
1.140624 -0.359282 8.882120
0.952516 -0.300255 9.566788
0.903939 -0.365234 0.843332
1.107516 -0.447789 1.494302
0.866788 -0.350750 2.325378
1.262039 -0.511242 3.357751
1.638276 -0.664069 3.931655
1.211789 -0.491581 4.757991
0.832541 -0.337959 5.479983
0.623520 -0.253353 6.486991
0.693049 -0.281844 7.345218
0.969520 -0.394630 8.204575
1.039819 -0.423536 8.898879
0.921787 -0.375722 9.657741
1.134634 -0.582810 0.868474
1.199922 -0.616744 1.604295
1.077342 -0.554093 2.340699
1.470033 -0.756682 3.248216
1.641685 -0.845584 3.965527
1.391479 -0.717087 4.598818
1.136569 -0.586154 5.491126
0.787559 -0.406454 6.397072
0.634040 -0.327462 7.296342
0.778657 -0.402357 7.873985
0.982707 -0.508170 8.713349
1.001746 -0.518383 9.568723
0.987505 -0.627325 0.564119
1.025933 -0.652159 1.387738
1.165375 -0.741303 2.246023
1.441308 -0.917389 3.002133
1.603637 -1.021337 3.760713
1.453107 -0.926104 4.653934
1.114961 -0.710901 5.259505
0.793032 -0.505944 6.104537
0.467690 -0.298563 6.981915
0.670584 -0.428420 7.979165
0.912260 -0.583121 8.607412
0.981060 -0.627477 9.402796
0.830601 -0.636496 0.661401
0.883680 -0.677503 1.327790
1.056215 -0.810337 2.248930
1.272943 -0.977138 2.957691
1.544059 -1.185943 3.714352
1.373766 -1.055590 4.304219
1.130265 -0.869196 5.459530
0.808272 -0.621775 5.961736
0.439982 -0.338723 7.125953
0.565304 -0.435386 7.695534
0.869492 -0.670108 8.559640
0.963874 -0.743355 9.513109
0.923098 -0.846636 0.953442
0.990685 -0.908975 1.488522
1.048177 -0.962436 2.517737
1.453471 -1.335252 3.179329
1.589625 -1.461290 4.068434
1.400866 -1.288315 4.684650
1.047072 -0.963418 5.438523
0.609319 -0.560960 6.351829
0.432998 -0.398882 7.308469
0.630777 -0.581385 8.033138
0.857562 -0.790956 8.977906
0.850154 -0.784495 9.685111
0.538453 -0.594257 0.932508
0.856225 -0.945447 1.639044
1.053078 -1.163508 2.455634
1.392908 -1.540171 3.493293
1.426921 -1.578377 4.009245
1.169455 -1.294482 5.021754
0.907570 -1.005016 5.663045
0.610740 -0.676771 6.699326
0.421396 -0.467203 7.522991
0.662150 -0.734488 8.172410
0.892077 -0.990236 9.139335
0.707436 -0.785540 9.698735
0.845158 -1.121973 1.033821
0.774098 -1.028288 1.892071
0.891464 -1.184880 2.661324
1.175441 -1.563401 3.546213
1.268701 -1.688155 4.094421
1.179169 -1.570018 4.961357
0.610884 -0.815319 8.432467
0.632422 -1.011903 0.436957
0.681760 -1.091576 1.279645
0.938295 -1.505302 3.741787
1.129516 -1.813276 4.530401
1.059100 -1.701201 5.261543
0.589585 -0.949322 8.533086
0.668810 -1.077709 9.511727
0.547829 -1.088286 0.447235
0.602044 -1.196960 1.362208
0.629835 -1.253128 2.181514
0.499024 -0.993330 2.729570
0.967210 -1.928474 4.496516
0.902722 -1.800923 5.154700
0.536100 -1.072654 8.670327
0.577559 -1.156444 9.505756
0.596939 -1.502019 0.191788
0.554711 -1.396896 0.968247
0.483472 -1.218634 1.869780
0.656444 -1.655986 2.630207
0.826101 -2.085736 3.394981
0.819877 -2.071862 4.237963
0.800386 -2.024320 5.048756
0.362668 -0.919993 8.172410
0.471280 -1.196499 8.939168
0.354560 -0.901092 10.060263
0.366244 -1.243589 0.657150
0.421115 -1.431356 1.419831
0.390461 -1.328712 2.309113
0.336416 -1.146058 3.159476
0.449076 -1.531046 3.717036
0.614931 -2.098956 4.534747
0.571872 -1.953941 5.309798
0.446557 -1.527132 6.056316
0.301178 -1.031349 7.185375
0.318105 -1.090484 8.020106
0.403166 -1.383221 8.605229
0.366700 -1.259450 9.478718
0.244354 -1.220088 0.520817
0.263351 -1.317232 1.456945
0.266621 -1.334606 1.867362
0.358833 -1.800161 3.023523
0.422907 -2.124184 3.640955
0.415535 -2.090482 4.489160
0.405710 -2.044107 5.292538
0.341936 -1.724353 5.827355
0.290299 -1.466173 6.696431
0.268460 -1.357750 7.476678
0.253224 -1.282668 8.347875
0.257065 -1.304446 9.340498
0.165043 -1.521272 1.051419
0.154862 -1.431696 1.947737
0.147182 -1.363144 2.489444
0.115774 -1.075093 3.307420
0.226953 -2.119561 4.897447
0.198295 -1.856798 5.715067
0.162012 -1.520509 6.453226
0.154360 -1.453568 7.483389
0.146629 -1.383692 8.142847
0.138493 -1.310349 8.965137
0.100362 -0.951895 9.814059
0.022799 -0.995652 0.630390
0.033153 -1.465133 1.378785
0.033122 -1.486245 2.334596
0.035014 -1.591005 3.106051
0.035348 -1.623098 3.745973
0.035663 -1.659310 4.545164
0.039773 -1.879840 5.458658
0.035183 -1.681423 6.148975
0.031111 -1.504921 6.899965
0.030267 -1.484617 7.729518
0.029222 -1.453192 8.547305
0.026454 -1.335766 9.472760
-0.125515 -1.736574 0.149493
-0.123162 -1.697451 0.921499
-0.112850 -1.549361 1.700680
-0.110517 -1.509578 2.743439
-0.116493 -1.586125 3.390537
-0.125218 -1.699421 4.043628
-0.126011 -1.702847 4.931190
-0.126134 -1.697479 5.793190
-0.124466 -1.669009 6.557780
-0.117964 -1.576392 7.308352
-0.115623 -1.538420 8.253193
-0.252566 -1.581753 2.569058
-0.244206 -1.527294 3.172914
-0.267662 -1.670165 4.161016
-0.279181 -1.738865 4.956031
-0.264103 -1.642227 5.703005
-0.276262 -1.714796 6.482609
-0.278700 -1.727447 7.125164
-0.269976 -1.670217 7.992251
-0.265158 -1.637250 8.886000
-0.221428 -1.365151 9.662146
-0.280108 -1.087460 0.744815
-0.396579 -1.538292 1.322015
-0.376905 -1.459935 2.270198
-0.379554 -1.468374 3.112106
-0.411759 -1.590987 3.944461
-0.435176 -1.679960 4.546740
-0.419362 -1.616908 5.403571
-0.427573 -1.646860 6.113725
-0.466258 -1.793866 6.858896
-0.452304 -1.737977 7.753639
-0.428537 -1.644954 8.503534
-0.362625 -1.390407 9.358991
-0.544719 -1.548803 0.275219
-0.594396 -1.687963 1.346337
-0.539507 -1.530786 2.095655
-0.539479 -1.529386 2.851280
-0.547493 -1.551065 3.438355
-0.557468 -1.577907 4.226340
-0.511803 -1.447474 4.964049
-0.548761 -1.550609 5.748467
-0.624304 -1.762192 6.663233
-0.618547 -1.744046 7.645235
-0.605588 -1.706062 8.424417
-0.746326 -1.630682 0.440595
-0.773823 -1.689603 1.156770
-0.653156 -1.425014 1.993746
-0.674549 -1.470565 2.799028
-0.692999 -1.510009 3.342178
-0.725171 -1.578607 4.345895
-0.680925 -1.481247 5.111191
-0.730418 -1.587684 5.924884
-0.786772 -1.709098 6.586282
-0.763101 -1.656283 7.510149
-0.766993 -1.663547 8.288963
-0.756452 -1.639370 9.181339
-0.594278 -1.287083 10.000325
-0.897525 -1.582142 0.492287
-0.927554 -1.634363 1.010703
-0.788482 -1.388100 2.065650
-0.794975 -1.398820 2.673601
-0.812179 -1.428205 3.417467
-0.833726 -1.465249 4.108857
-0.778066 -1.366377 5.055029
-0.842425 -1.478287 5.953406
-0.948633 -1.663687 6.633874
-0.925037 -1.621214 7.469337
-0.913666 -1.600322 8.221323
-0.937710 -1.329518 0.923306
-0.937057 -1.327882 1.624221
-0.915060 -1.295646 2.706721
-0.922159 -1.304937 3.474196
-0.980514 -1.386962 3.991487
-0.953510 -1.347668 5.076560
-0.995935 -1.406890 5.768602
-1.082349 -1.528059 6.534380
-1.074660 -1.516201 7.427800
-1.090397 -1.537546 8.179645
-1.037317 -1.462059 8.800075
-0.900020 -1.267655 9.830789
-0.994806 -1.188678 0.841359
-1.137657 -1.358662 1.545008
-1.068975 -1.275869 2.376184
-1.098595 -1.310601 3.022985
-1.097901 -1.308994 3.842953
-1.102009 -1.313189 4.580970
-1.197094 -1.425527 5.503748
-1.271715 -1.513555 6.250325
-1.279659 -1.521999 7.177069
-1.216327 -1.446144 7.712967
-1.206822 -1.433956 8.595593
-1.087780 -1.291790 9.441519
-1.082589 -1.073477 0.820954
-1.206349 -1.195540 1.579329
-1.144840 -1.133976 2.327021
-1.195937 -1.183760 3.298272
-1.271587 -1.257884 4.129393
-1.189046 -1.175808 4.649542
-1.262704 -1.247942 5.431226
-1.447528 -1.429541 6.442759
-1.431266 -1.412769 7.162080
-1.383749 -1.365220 7.853126
-1.342894 -1.324194 8.647490
-1.231142 -1.213324 9.498066
-1.225414 -1.022813 0.641593
-1.336376 -1.114833 1.368936
-1.270315 -1.059084 2.198709
-1.342230 -1.118502 2.852420
-1.336907 -1.113420 3.650478
-1.321603 -1.100068 4.411266
-1.408453 -1.171598 5.295977
-1.462798 -1.216089 6.102898
-1.435891 -1.193135 6.792176
-1.486664 -1.234324 7.920388
-1.487028 -1.234012 8.626046
-1.380575 -1.145207 9.239215
-1.106745 -0.759084 0.308954
-1.328951 -0.910827 1.247986
-1.357805 -0.930026 2.052517
-1.339535 -0.916935 2.872179
-1.371879 -0.938530 3.626297
-1.417485 -0.969159 4.390419
-1.326704 -0.906593 5.124951
-1.475741 -1.007737 6.014713
-1.629470 -1.112256 6.527817
-1.594397 -1.087604 7.403076
-1.581652 -1.078178 8.314509
-1.544130 -1.051980 9.122259
-1.233877 -0.840197 9.891342
-1.352404 -0.765589 1.008862
-1.497707 -0.847480 1.515762
-1.435376 -0.811526 2.523946
-1.468211 -0.829522 3.340003
-1.507457 -0.851352 3.819613
-1.452997 -0.820055 4.618232
-1.574044 -0.887600 5.649704
-1.717743 -0.968156 6.219264
-1.750593 -0.985908 7.151736
-1.704120 -0.959246 7.785923
-1.658836 -0.933140 8.610834
-1.527934 -0.858922 9.492035
-1.454622 -0.656740 0.631136
-1.660485 -0.749030 1.532591
-1.601551 -0.721953 2.245043
-1.580474 -0.711937 3.000176
-1.538378 -0.692564 3.623940
-1.552372 -0.698156 4.688242
-1.612752 -0.724954 5.198779
-1.762386 -0.791500 6.130036
-1.787695 -0.802188 7.021761
-1.721820 -0.772239 7.573140
-1.774983 -0.795338 8.568712
-1.650071 -0.738965 9.191739
-1.614090 -0.569927 1.265583
-1.569412 -0.553733 1.925930
-1.585556 -0.558759 2.972790
-1.661728 -0.585167 3.616866
-1.686256 -0.593164 4.561642
-1.726325 -0.606887 5.095135
-1.920743 -0.674407 6.145127
-1.881941 -0.660409 6.652032
-1.850225 -0.648624 7.558501
-1.823786 -0.638763 8.397450
-1.747664 -0.611600 9.159249
-1.358592 -0.335431 0.813115
-1.755418 -0.432741 1.793613
-1.712481 -0.421788 2.359577
-1.661733 -0.408672 3.337829
-1.655899 -0.406789 4.054056
-1.513844 -0.371391 4.950377
-1.617045 -0.396239 5.713443
-1.940273 -0.474816 6.523581
-1.878156 -0.459181 7.155267
-1.812122 -0.442503 7.966841
-1.836280 -0.447853 8.777597
-1.774533 -0.432158 9.783352
-1.458661 -0.235126 0.947899
-1.904525 -0.306453 1.704815
-1.814603 -0.291557 2.344559
-1.764827 -0.283104 3.048288
-1.765052 -0.282446 4.118988
-1.676895 -0.267893 4.858195
-1.793695 -0.285985 5.712092
-1.968276 -0.313457 6.194526
-1.985581 -0.315616 7.023015
-1.963983 -0.311622 7.822308
-1.891485 -0.299565 8.662692
-1.767387 -0.279326 9.637764
-1.859578 -0.120365 2.353408
-1.826883 -0.117849 2.961170
-1.803207 -0.115764 3.822552
-1.729853 -0.110493 4.737301
-1.803867 -0.114738 5.479705
-1.990781 -0.126093 6.204875
-1.993521 -0.125642 7.089661
-1.955076 -0.122651 7.925646
-1.978539 -0.123489 8.843572
-1.831642 -0.113857 9.615126
-1.781181 0.043431 2.243576
-1.787679 0.044114 3.058693
-1.769346 0.044227 3.952474
-1.751074 0.044093 4.470893
-1.844556 0.047058 5.389494
-2.062186 0.053308 6.310460
-2.025014 0.052712 6.827880
-1.915057 0.050347 7.589001
-1.958402 0.052201 8.630871
-1.869506 0.050275 9.341690
-1.837718 0.213131 2.124919
-1.848860 0.215036 3.031931
-1.831013 0.213560 3.934360
-1.849996 0.216331 4.763460
-1.819805 0.213265 5.476149
-1.972787 0.231689 6.153128
-2.092924 0.246548 7.133208
-1.976155 0.233350 7.951591
-1.919995 0.227091 8.516896
-1.812909 0.214882 9.264516
-1.838713 0.372978 2.144288
-1.830614 0.372001 3.115000
-1.805347 0.367411 3.923971
-1.855770 0.378290 4.812240
-1.738027 0.354670 5.420817
-1.789583 0.365646 6.104385
-1.998111 0.409066 7.178115
-1.947223 0.399182 7.941241
-1.939942 0.398236 8.724066
-1.799371 0.369802 9.415966
-1.812232 0.540125 2.393373
-1.758989 0.524688 3.023523
-1.770465 0.528770 3.975916
-1.808321 0.540632 4.760357
-1.731174 0.518156 5.649704
-1.815719 0.543974 6.370346
-1.925798 0.577449 7.023015
-1.895518 0.568999 7.899836
-1.868733 0.561525 8.708947
-1.780600 0.535627 9.609010
-1.390236 0.555491 0.695686
-1.762509 0.704892 1.571077
-1.779963 0.712501 2.412543
-1.731727 0.693676 3.083851
-1.696429 0.680025 3.778486
-1.868655 0.749682 4.555617
-1.969029 0.790638 5.381915
-1.943754 0.781016 6.040254
-1.889829 0.760000 6.889909
-1.829928 0.736630 7.868776
-1.825927 0.735609 8.672298
-1.734881 0.699521 9.550992
-1.519066 0.768555 0.942355
-1.693219 0.857146 1.560702
-1.693415 0.857973 2.507503
-1.643950 0.833361 3.117038
-1.379786 0.699971 3.986119
-1.585298 0.804746 4.689522
-1.885271 0.957600 5.330342
-1.713747 0.871141 6.227346
-1.731997 0.881172 7.207085
-1.775241 0.903770 7.961940
-1.766354 0.899922 8.843572
-1.609465 0.820417 9.500774
-1.531352 0.954095 1.012694
-1.592298 0.992574 1.644775
-1.518706 0.947254 2.378843
-1.735622 1.083483 3.433589
-2.019246 1.261172 4.023860
-2.017903 1.261187 4.865333
-1.880626 1.176146 5.693975
-1.659083 1.038287 6.583851
-1.568791 0.982281 7.256885
-1.629354 1.020986 8.236609
-1.591361 0.997546 8.725706
-1.455933 0.913416 9.866556
-1.361074 1.032600 1.161325
-1.516676 1.151126 1.705935
-1.440731 1.094271 2.670084
-1.613947 1.226350 3.216516
-1.896025 1.441607 4.034102
-1.903161 1.447823 4.759739
-1.777244 1.352886 5.628553
-1.395774 1.063073 6.436776
-1.300227 0.990826 7.189879
-1.518269 1.157849 8.174391
-1.541123 1.175966 8.985000
-1.319668 1.007399 9.637064
-1.260772 1.148439 1.057058
-1.428901 1.302295 1.798105
-1.306618 1.191386 2.432451
-1.475215 1.345836 3.156548
-1.806430 1.649260 4.161715
-1.822465 1.664641 4.770746
-1.636452 1.495504 5.515415
-1.306561 1.194702 6.380580
-1.247571 1.141529 7.352233
-1.391906 1.274375 8.190022
-1.375611 1.260064 8.892704
-1.192623 1.092908 9.570028
-1.098012 1.195848 0.766572
-1.213926 1.322799 1.502388
-1.174351 1.280448 2.340283
-1.326218 1.446787 3.044708
-1.512949 1.651217 3.623478
-1.544100 1.686322 4.522822
-1.465193 1.600896 5.186005
-1.261653 1.379316 6.054952
-1.133080 1.239566 7.019590
-1.132462 1.239460 7.679673
-1.216731 1.332485 8.513031
-1.154729 1.265368 9.435528
-1.104593 1.447066 0.596246
-1.115329 1.461927 1.323793
-1.014740 1.330846 2.103360
-1.230703 1.617007 4.500950
-1.364867 1.794319 5.247754
-1.262363 1.662349 7.554750
-1.031262 1.358785 8.414712
-0.927630 1.468664 1.275174
-0.865156 1.370598 2.053855
-1.048740 1.664247 4.151987
-1.085966 1.724427 4.951642
-0.988977 1.573431 7.427800
-0.834819 1.328835 8.138074
-0.888638 1.415624 9.158425
-0.737653 1.175768 9.985581
-0.610135 1.194433 0.182638
-0.614280 1.203297 0.887837
-0.760687 1.491030 1.590797
-0.691899 1.357306 2.521691
-0.463037 0.908835 3.173699
-1.064217 2.092446 5.005063
-0.929480 1.828685 5.761429
-0.790629 1.556490 6.534696
-0.713755 1.406028 7.287429
-0.659702 1.300421 8.095865
-0.731219 1.442592 9.038879
-0.626010 1.235732 9.773403
-0.646523 1.599495 0.847947
-0.653861 1.618769 1.514772
-0.560242 1.388394 2.502361
-0.489878 1.214662 3.033446
-0.625061 1.551413 3.983647
-0.390544 0.972385 7.179314
-0.442371 1.102238 7.899273
-0.575767 1.435910 8.735517
-0.544304 1.358672 9.675398
-0.517918 1.717068 0.450998
-0.514574 1.707562 1.159047
-0.472553 1.569676 1.927186
-0.621715 2.068130 2.997816
-0.689292 2.294241 3.412244
-0.596864 1.989234 4.453755
-0.469769 1.566957 5.152978
-0.377564 1.260809 6.078148
-0.240157 0.802522 6.712014
-0.220666 0.738190 7.595658
-0.388509 1.301451 8.579507
-0.415072 1.391368 9.100045
-0.360017 1.748344 1.211075
-0.322857 1.569170 1.667102
-0.382196 1.866489 4.274256
-0.406486 1.987356 4.879278
-0.323886 1.585821 5.741727
-0.221852 1.087593 6.523640
-0.196660 0.965519 7.388776
-0.247624 1.217745 8.284578
-0.280209 1.379585 8.911004
-0.242148 1.193988 9.826964
-0.181528 1.601554 1.268891
-0.167238 1.478456 1.903266
-0.199612 1.777459 4.129393
-0.190101 1.698182 5.132553
-0.151763 1.358888 5.919262
-0.093131 0.835408 6.579865
-0.081263 0.731093 7.546966
-0.127928 1.154634 8.501203
-0.149409 1.351391 9.144098
-0.121491 1.101230 9.900078
-0.041074 1.744524 0.566170
-0.037508 1.605900 1.091184
-0.031497 1.367477 2.004123
-0.033315 1.463366 2.747000
-0.037129 1.651072 3.511454
-0.040585 1.826745 4.251452
-0.034518 1.573379 5.065493
-0.026416 1.220408 5.952574
-0.017508 0.818366 6.748252
-0.017310 0.821984 7.729630
-0.023812 1.142371 8.294931
0.107556 1.588240 0.286036
0.104559 1.535426 1.334210
0.093426 1.366860 2.046199
0.102061 1.487443 2.776677
0.118395 1.716899 3.715398
0.129643 1.872516 4.466738
0.113993 1.640387 5.215647
0.081060 1.161806 6.080317
0.049871 0.712235 6.876500
0.055579 0.790990 7.580223
0.086946 1.230770 8.596085
0.091711 1.293042 9.415498
0.253482 1.607845 0.954651
0.205101 1.298043 1.932985
0.264602 1.666080 4.119290
0.309912 1.947177 5.023491
0.256054 1.606141 5.793976
0.133962 0.838963 6.633173
0.122025 0.763043 7.340613
0.206949 1.290942 8.347875
0.219837 1.368904 9.148847
0.178889 1.112586 9.771336
0.374323 1.482835 1.019994
0.321012 1.270082 1.848710
0.392272 1.546515 4.203203
0.430776 1.696578 4.872724
0.370930 1.459243 5.662228
0.200712 0.788861 6.419866
0.200861 0.788166 7.554131
0.308779 1.210377 8.194952
0.340684 1.333661 9.106785
0.295846 1.156868 9.934391
0.478134 1.370474 0.906530
0.422541 1.209930 1.776110
0.526580 1.503665 4.182288
0.541095 1.543736 4.961676
0.411371 1.172872 5.593153
0.227588 0.648352 6.418697
0.252193 0.717764 7.276514
0.427847 1.216245 8.263570
0.457989 1.300696 9.117302
0.382628 1.086098 9.663956
0.447789 1.004630 0.840627
0.484030 1.085432 1.325227
0.460701 1.032221 2.239393
0.503310 1.126834 3.028761
0.640087 1.432104 3.698520
0.338506 0.755134 6.944582
0.478285 1.066049 7.804135
0.542474 1.208267 8.542815
0.505333 1.124514 9.576458
0.483662 0.867717 0.449834
0.490738 0.879906 1.140109
0.545223 0.976875 2.027682
0.485336 0.868983 2.855176
0.596355 1.067186 3.486919
0.781104 1.396614 4.467424
0.743952 1.329330 5.253470
0.530400 0.947168 6.060149
0.311976 0.556782 6.878732
0.445769 0.795112 7.535175
0.639712 1.140231 8.347875
0.819979 1.199543 0.969506
0.637304 0.931783 1.719490
0.619352 0.904996 2.507157
0.475271 0.694145 3.134611
0.609965 0.890223 4.077565
0.812901 1.185551 4.987368
0.549300 0.800658 5.806160
0.393025 0.572550 6.615460
0.574343 0.836251 7.273331
0.756748 1.101197 8.000683
0.756317 1.099915 8.817021
0.650927 0.945967 9.855992
0.824107 1.003800 0.783610
0.716907 0.872629 1.730074
0.696810 0.847687 2.517750
0.610791 0.742752 3.071475
0.701524 0.852467 4.074956
0.759099 0.922042 4.654004
0.567237 0.688464 5.785267
0.414657 0.503033 6.512496
0.622307 0.754539 7.214180
0.865884 1.049158 8.116453
0.831326 1.006816 8.801517
0.722866 0.874885 9.803088
0.806618 0.817086 0.754914
0.852409 0.863126 1.313811
0.710808 0.719226 2.342148
0.703678 0.711718 2.929516
0.755912 0.763951 4.035171
0.761995 0.769699 4.774897
0.625525 0.631503 5.589976
0.461407 0.465575 6.379881
0.735864 0.742008 7.300563
0.977136 0.984777 8.001050
0.968448 0.975589 8.653144
0.842000 0.847672 9.630737
0.763442 0.647058 2.161645
0.747129 0.632866 2.973894
0.752666 0.637250 3.647467
0.758200 0.641573 4.441287
0.660389 0.558428 5.419527
0.486962 0.411589 6.108061
0.748117 0.631870 7.082165
1.044277 0.881539 7.775190
0.955652 0.806240 8.669959
0.767065 0.646851 9.374446
0.813890 0.571423 2.044823
0.796938 0.559164 2.899512
0.819970 0.574933 3.806785
0.843752 0.591282 4.544583
0.708425 0.496202 5.234992
0.535787 0.375065 6.050658
0.763562 0.534197 6.816375
1.141882 0.798260 7.780763
1.027592 0.717966 8.569566
0.850144 0.593605 9.512428
1.212465 0.699623 0.834136
0.929204 0.535853 1.573320
0.853944 0.492148 2.333026
0.792300 0.456336 3.107332
0.856436 0.492946 3.926084
0.893955 0.514107 4.964483
0.683538 0.392856 5.767893
0.573025 0.329136 6.566062
0.855079 0.490853 7.256677
1.220538 0.700063 8.216421
1.164316 0.667490 8.848603
0.875160 0.501414 9.710836
0.357255 0.164541 0.445978
0.439676 0.202362 1.198517
0.906067 0.416664 2.097926
0.892071 0.410013 2.663969
0.880014 0.404074 3.724201
0.911622 0.418277 4.526247
0.738563 0.338664 5.220291
0.650060 0.297842 6.117938
0.909404 0.416403 6.771609
1.191794 0.545255 7.622173
1.205703 0.551213 8.432140
1.026861 0.469125 9.254683
1.075015 0.388122 0.405780
0.971521 0.350468 1.149987
0.859963 0.309954 1.942334
0.854687 0.307798 2.690375
0.822311 0.295870 3.518312
0.830428 0.298593 4.119739
0.687893 0.247114 4.981068
0.589228 0.211433 6.033022
0.521316 0.186936 6.683361
0.846705 0.303296 7.603805
1.268431 0.453979 8.295221
1.116811 0.399448 8.951131
0.762180 0.272320 10.044407
1.064662 0.272626 0.798258
1.012137 0.258909 1.500083
0.868484 0.221835 2.509391
0.835175 0.213150 3.079330
0.839124 0.213882 3.959932
0.852182 0.216958 4.756684
0.701392 0.178383 5.493613
0.671357 0.170473 6.604757
0.989129 0.250890 7.305175
1.318672 0.334055 8.116453
1.256475 0.318013 8.759367
0.944713 0.238857 9.572753
0.264877 0.044466 0.469026
0.506432 0.084859 1.337544
0.955650 0.159883 2.035506
0.903388 0.150892 2.796809
0.960217 0.160043 3.777338
1.023723 0.170319 4.608244
0.794529 0.132037 5.166933
0.609586 0.101098 6.144073
0.786540 0.130224 6.916930
1.099468 0.181724 7.660888
1.215397 0.200580 8.353160
1.127648 0.185689 9.419268
0.921023 0.066319 0.769933
1.076171 0.077125 1.721703
0.920348 0.065697 2.529069
1.075898 0.076512 3.275627
1.176762 0.083347 4.077700
1.127312 0.079580 4.747632
0.900792 0.063358 5.511922
0.701293 0.049090 6.515020
1.019970 0.071097 7.315789
1.306344 0.090728 7.995222
1.293004 0.089465 8.759367
1.016830 0.070037 9.753298
0.443772 -0.007304 0.488499
0.560907 -0.009383 1.260677
0.993755 -0.016901 2.034202
1.088028 -0.018782 2.752514
1.414087 -0.024879 3.660382
1.495726 -0.026844 4.649682
1.039486 -0.018910 5.406095
0.639161 -0.011771 6.118779
0.772674 -0.014486 7.064533
1.079247 -0.020457 7.612746
1.280070 -0.024701 8.574702
1.101895 -0.021499 9.249891
1.020208 -0.109889 0.895312
1.020731 -0.110229 1.670857
0.704038 -0.076281 2.693429
0.768845 -0.084326 6.481374
0.808531 -0.088943 7.421388
1.270724 -0.140227 8.332069
1.205771 -0.133357 9.067346
0.715830 -0.079317 9.794136
0.972809 -0.195378 0.332998
0.768798 -0.154648 1.200087
0.989980 -0.199380 1.852434
1.286707 -0.259568 2.736614
1.675603 -0.338400 3.316977
0.726867 -0.147851 7.446054
1.237681 -0.252211 8.379532
1.124393 -0.323737 0.574693
1.220274 -0.351780 1.501958
0.997379 -0.287853 2.372475
1.393520 -0.402654 3.223138
