-0.846191 -0.299181 8.926724
-1.090892 -0.277219 0.312520
-1.225929 -0.311535 1.090102
-1.019940 -0.259189 2.016213
-0.938131 -0.238400 2.682136
-1.259106 -0.319966 3.379022
-1.547301 -0.393203 4.100633
-1.122542 -0.285263 4.865914
-0.727135 -0.184781 5.915577
-0.465902 -0.118396 6.598232
-0.669977 -0.170256 7.607947
-1.074179 -0.272972 8.384846
-0.945395 -0.240245 8.930670
-1.114043 -0.169019 0.437523
-1.249714 -0.189603 1.058965
-1.053383 -0.159816 1.774964
-0.957721 -0.145303 2.692596
-1.306121 -0.198161 3.617459
-1.608101 -0.243977 4.368033
-1.206057 -0.182980 5.143456
-0.660508 -0.100210 5.874242
-0.421947 -0.064017 6.727506
-0.701565 -0.106439 7.571527
-1.071083 -0.162502 8.270168
-0.986192 -0.149622 9.024765
-1.023876 -0.063393 0.344671
-1.143934 -0.070826 1.291516
-0.997799 -0.061778 1.966588
-0.934747 -0.057874 2.589671
-1.283035 -0.079438 3.505735
-0.423422 -0.026216 6.564176
-0.714303 -0.044226 7.471980
-1.065582 -0.065975 8.197153
-1.013480 -0.062749 9.208195
-0.973902 0.029735 0.073208
-0.807403 0.024651 0.808907
-0.914688 0.027927 1.771441
-0.769690 0.023500 2.336972
-1.046849 0.031962 3.369837
-1.469230 0.044858 3.853451
-1.395446 0.042605 4.951257
-0.823327 0.025137 5.732483
-0.080740 0.002465 6.325313
-0.388474 0.011861 7.359163
-1.016066 0.031022 8.077073
-0.955997 0.029188 8.736768
-0.574448 0.017539 9.616468
-0.801187 0.099518 0.787900
-0.871434 0.108243 1.489553
-0.745223 0.092567 2.433165
-0.938242 0.116542 3.052075
-1.327724 0.164921 4.034426
-0.581533 0.072234 7.190644
-0.983568 0.122172 7.831634
-1.029469 0.127874 8.641493
-0.705442 0.087625 9.437484
-0.402950 0.088826 1.018938
-0.850248 0.187427 1.889105
-0.748989 0.165106 2.675058
-0.887991 0.195747 3.223686
-1.374875 0.303075 4.215317
-1.085205 0.239221 4.691970
-0.511557 0.112767 5.582589
-0.311598 0.068688 6.691370
-0.531947 0.117262 7.242076
-0.936845 0.206517 7.925361
-0.998243 0.329221 0.375758
-0.917037 0.302439 1.119613
-0.764440 0.252113 2.071384
-0.640002 0.211073 2.776850
-0.769783 0.253875 3.528322
-1.074127 0.354248 4.435999
-0.691514 0.228062 5.049157
-0.280829 0.092617 5.919938
-0.590078 0.194608 6.824373
-0.926284 0.305489 7.497698
-1.067823 0.352169 8.457783
-0.904655 0.298356 9.267586
-0.352973 0.154356 0.924024
-0.727216 0.318012 1.850756
-0.738074 0.322760 2.503552
-0.590297 0.258137 3.352178
-0.598729 0.261825 3.979187
-0.738200 0.322816 4.868164
-0.479954 0.209884 5.582589
-0.336995 0.147368 6.377186
-0.648268 0.283488 7.429860
-0.901400 0.394183 7.920303
-0.847441 0.370587 8.710906
-0.536201 0.234481 9.658732
-0.695777 0.385164 1.271828
-0.571714 0.316486 2.047802
-0.592942 0.328237 2.829549
-0.695926 0.385247 3.635688
-0.693429 0.383864 4.336919
-0.487015 0.269599 5.276043
-0.317894 0.175978 6.192590
-0.596517 0.330217 7.020349
-0.901637 0.499123 7.519436
-0.913606 0.505749 8.442681
-0.731545 0.404964 9.317925
-0.647842 0.441873 1.640578
-0.547536 0.373458 2.216515
-0.593026 0.404485 3.027800
-0.607176 0.414136 3.790091
-0.540578 0.368712 4.662457
-0.446738 0.304707 5.698957
-0.280605 0.191392 6.359963
-0.540193 0.368449 7.145322
-1.027495 0.700823 7.942435
-0.999015 0.681398 8.832396
-0.569332 0.388324 9.453956
-0.607873 0.504199 1.766691
-0.501268 0.415776 2.810282
-0.547980 0.454522 3.547975
-0.535751 0.444379 4.145214
-0.385545 0.319790 5.046583
-0.328947 0.272845 5.954235
-0.539356 0.447369 6.550019
-0.775989 0.643644 7.404529
-0.669450 0.555275 8.108019
-0.616413 0.511284 9.170914
-0.745998 0.748935 0.772351
-0.507850 0.509849 1.253247
-0.463159 0.464982 2.100529
-0.495536 0.497486 3.145627
-0.546637 0.548789 3.934855
-0.556585 0.558777 4.731577
-0.418507 0.420155 5.357183
-0.295735 0.296899 6.064138
-0.462453 0.464274 6.872765
-0.698809 0.701560 7.701224
-0.707376 0.710161 8.484804
-0.516992 0.519028 9.421025
-0.432615 0.522939 1.507834
-0.422854 0.511140 2.227058
-0.469023 0.566948 3.248843
-0.475165 0.574372 3.895313
-0.369585 0.446749 4.875245
-0.276686 0.334454 5.660472
-0.021026 0.025416 6.498028
-0.634496 0.766970 7.852541
-0.597167 0.721846 8.763257
-0.434890 0.525688 9.634539
-0.662262 0.975897 0.624200
-0.419501 0.618170 1.326080
-0.367571 0.541646 2.068893
-0.391429 0.576803 3.082428
-0.444741 0.655363 3.858767
-0.379240 0.558840 4.627847
-0.292105 0.430441 5.378041
-0.249183 0.367191 6.060287
-0.376439 0.554713 6.957111
-0.563137 0.829828 7.763937
-0.558958 0.823671 8.453450
-0.409239 0.603047 9.299360
-0.348569 0.632797 1.337466
-0.310416 0.563534 2.312890
-0.331951 0.602628 2.966541
-0.363157 0.659279 3.714023
-0.334515 0.607284 4.775371
-0.260303 0.472557 5.515575
-0.172873 0.313836 6.160714
-0.296050 0.537454 6.923746
-0.515715 0.936236 7.837488
-0.526019 0.954942 8.761157
-0.373880 0.678746 9.488702
-0.281248 0.649658 1.612175
-0.258166 0.596340 2.418367
-0.282782 0.653200 3.261471
-0.291422 0.673158 4.024134
-0.288540 0.666501 4.632428
-0.242648 0.560494 5.483901
-0.093966 0.217053 6.190894
-0.232032 0.535973 7.180080
-0.436079 1.007304 7.853321
-0.443765 1.025057 8.765992
-0.313774 0.724790 9.652388
-0.250084 0.763690 1.502961
-0.214978 0.656484 2.267765
-0.253656 0.774596 2.988477
-0.301326 0.920168 3.862250
-0.349618 1.067641 4.584763
-0.264858 0.808805 5.214604
-0.169491 0.517581 6.218003
-0.248793 0.759748 7.107561
-0.325854 0.995070 7.602962
-0.356083 1.087383 8.431556
-0.286860 0.875993 9.352650
-0.128450 0.570163 0.887586
-0.184132 0.817325 1.722420
-0.129339 0.574113 2.231372
-0.226457 1.005197 3.171462
-0.287744 1.277241 3.754622
-0.258089 1.145609 4.589209
-0.203807 0.904659 5.577985
-0.068431 0.303750 6.495718
-0.135487 0.601401 7.217752
-0.261046 1.158734 8.040968
-0.242009 1.074232 8.583291
-0.175451 0.778794 9.583288
-0.117495 0.898373 1.561926
-0.154539 1.181611 2.656042
-0.211168 1.614592 3.121941
-0.227541 1.739786 4.166399
-0.194209 1.484926 4.759762
-0.105660 0.807881 5.497861
-0.025081 0.191771 6.548264
-0.065812 0.503200 7.314778
-0.151711 1.159989 8.197013
-0.038983 1.128067 0.583354
-0.042812 1.238869 1.080432
-0.032501 0.940497 1.791224
-0.047596 1.377327 2.809480
-0.062290 1.802521 3.406397
-0.055928 1.618441 4.306345
-0.038804 1.122906 5.177669
-0.022797 0.659699 5.821528
-0.025519 0.738449 6.771102
-0.033278 0.963001 7.304687
-0.039728 1.149634 8.342902
-0.035390 1.024111 9.139697
0.056133 0.997824 0.094064
0.058043 1.031769 0.835510
0.065983 1.172918 1.394712
0.051661 0.918322 2.327896
0.089604 1.592802 3.851081
0.058791 1.045073 6.191042
0.047010 0.835640 6.894627
0.060694 1.078898 7.769905
0.065777 1.169246 8.666004
0.057448 1.021196 9.449841
0.185378 1.212820 0.446767
0.222410 1.455100 1.311496
0.192708 1.260776 1.973248
0.243578 1.593593 2.575092
0.287700 1.882255 3.407560
0.240713 1.574848 4.069766
0.195551 1.279377 4.943460
0.135033 0.883444 5.861401
0.097882 0.640385 6.830580
0.139956 0.915654 7.507292
0.175102 1.145593 8.264723
0.172403 1.127934 8.979973
0.202098 0.814783 1.081280
0.357263 1.440349 1.621127
0.424982 1.713365 2.616089
0.477218 1.923959 3.154158
0.410570 1.655260 3.943530
0.173307 0.698706 7.089588
0.271013 1.092619 7.988792
0.301248 1.214518 8.680543
0.236075 0.951766 9.693542
0.416189 1.180206 0.404943
0.454105 1.287729 1.107943
0.522751 1.482392 1.895941
0.599331 1.699552 2.418229
0.676956 1.919676 3.190627
0.634749 1.799989 3.963495
0.255690 0.725073 7.483509
0.378016 1.071957 8.040870
0.447470 1.268913 8.866332
0.531802 1.160890 0.446180
0.577443 1.260522 0.962378
0.660406 1.441623 1.658014
0.689318 1.504737 2.468968
0.789211 1.722796 3.305500
0.805563 1.758493 4.198097
0.674283 1.471918 4.723592
0.523954 1.143757 5.593555
0.265394 0.579338 6.473992
0.305098 0.666009 7.294161
0.461379 1.007161 8.025178
0.555285 1.212152 8.923826
0.794062 1.361232 0.350015
0.841031 1.441748 1.222423
0.992679 1.701714 3.576239
0.360137 0.617371 6.482673
0.376061 0.644669 7.498794
0.605167 1.037417 8.222954
0.684162 1.172834 8.808888
0.739735 1.041932 0.518810
0.966068 1.360726 1.212154
1.157791 1.630772 1.945878
1.414812 1.992791 2.973395
1.382632 1.947465 3.485375
1.309338 1.844230 4.202266
1.136455 1.600720 5.043128
0.795642 1.120677 5.862237
0.505442 0.711926 6.812421
0.583587 0.821994 7.534702
0.804698 1.133434 8.268836
0.825412 1.162610 8.989378
0.965903 1.113830 0.041288
1.057532 1.219492 1.059514
1.019640 1.175796 1.556121
0.842823 0.971900 2.576486
1.571360 1.812012 3.840342
1.487426 1.715223 4.693322
0.812012 0.936371 7.921664
1.023490 1.180236 8.804882
0.860952 0.992805 9.686463
1.225823 1.181676 0.502756
1.382799 1.332998 1.265313
1.544866 1.489228 3.303785
1.779737 1.715640 4.280249
1.662639 1.602760 4.801239
1.055142 1.017141 8.263187
1.124585 1.084083 8.913573
1.528219 1.210087 0.030577
1.495479 1.184162 0.785811
1.396056 1.105436 1.536620
1.707384 1.351954 3.894008
1.900925 1.505205 4.306143
1.767531 1.399580 5.323258
1.419114 1.123694 6.057071
0.976875 0.773517 6.767771
1.051572 0.832664 7.544515
1.359541 1.076522 8.548896
1.196267 0.947238 9.085497
1.386742 0.894415 0.256855
1.519196 0.979844 0.798142
1.515381 0.977384 1.474206
1.803089 1.162948 3.825649
2.047434 1.320545 4.610981
1.862905 1.201528 5.411334
1.389793 0.896382 6.029621
1.305938 0.842298 6.925755
1.494083 0.963647 7.809661
1.469115 0.947543 8.610391
1.227930 0.791985 9.243158
1.729810 0.898704 0.061155
1.829141 0.950311 0.945260
1.623048 0.843237 1.493675
1.951821 1.014048 3.861030
2.165390 1.125006 4.436932
2.004526 1.041430 5.353583
1.663357 0.864180 6.141035
1.533417 0.796670 6.904445
1.571341 0.816374 7.651018
1.538850 0.799493 8.548896
1.403017 0.728922 9.312106
1.829337 0.743460 0.162970
1.929061 0.783989 0.771980
1.721883 0.699790 1.605076
1.765049 0.717333 2.462822
1.709302 0.694677 3.011391
1.941634 0.789099 3.830767
2.227145 0.905133 4.553677
2.018526 0.820348 5.323789
1.788208 0.726745 6.016752
1.711288 0.695484 6.861428
1.739735 0.707045 7.799509
1.677587 0.681788 8.434673
1.464982 0.595383 9.519773
1.921300 0.576383 0.702297
1.909233 0.572763 1.191517
1.844915 0.553468 1.970180
1.925889 0.577760 2.885456
1.975725 0.592710 3.752043
2.114934 0.634472 4.598404
1.973937 0.592174 5.019590
1.885203 0.565554 5.937509
1.956618 0.586978 6.678619
1.842626 0.552781 7.397025
1.879039 0.563705 8.422147
1.746108 0.523826 9.143998
1.943707 0.391459 0.794419
1.956696 0.394075 1.272957
1.953579 0.393447 2.262855
1.997867 0.402367 2.914034
2.097274 0.422387 3.764811
2.128103 0.428596 4.500174
2.083185 0.419550 5.300451
2.089029 0.420727 6.005267
2.051927 0.413255 6.816405
1.921838 0.387055 7.453321
1.991321 0.401049 8.502709
1.864219 0.375451 9.254668
1.789805 0.191532 0.235366
1.971054 0.210928 0.774053
2.020236 0.216192 1.556907
2.015159 0.215648 2.403758
2.061126 0.220567 3.330742
2.107650 0.225546 3.818062
1.986175 0.212547 4.727878
2.014816 0.215612 5.491056
2.222195 0.237804 6.175448
2.141288 0.229146 7.004594
2.072501 0.221785 7.809513
1.978239 0.211697 8.544371
1.720621 0.184129 9.394979
1.803875 0.019431 0.593510
2.052131 0.022105 1.444063
2.009281 0.021643 2.118893
2.024010 0.021802 2.730971
2.117345 0.022807 3.541651
2.175638 0.023435 4.540699
2.209607 0.023801 5.185149
2.264088 0.024388 6.045990
2.210410 0.023810 6.763533
2.191089 0.023602 7.459945
2.120500 0.022841 8.098958
1.974343 0.021267 9.236663
1.870688 -0.156618 0.469781
2.159693 -0.180814 1.155535
2.040670 -0.170849 1.902613
2.009787 -0.168263 2.629241
2.070259 -0.173326 3.647977
2.132399 -0.178529 4.236630
2.145665 -0.179639 5.141388
2.238419 -0.187405 5.934791
2.257663 -0.189016 6.503196
2.150406 -0.180036 7.161317
2.172940 -0.181923 8.138976
1.919752 -0.341227 0.203848
2.062240 -0.366554 1.228939
2.009797 -0.357232 1.770449
1.999310 -0.355368 2.464783
2.034712 -0.361661 3.259625
2.129025 -0.378424 4.213532
1.918094 -0.340932 4.931030
1.935400 -0.344009 5.593689
2.246152 -0.399243 6.448372
2.243561 -0.398783 7.127564
2.146439 -0.381520 7.778859
2.085673 -0.370719 8.546926
1.828857 -0.325071 9.591518
1.905257 -0.524321 0.366677
2.087793 -0.574554 1.094736
1.959781 -0.539326 2.086967
1.966513 -0.541179 2.596980
1.984389 -0.546098 3.444774
2.049351 -0.563975 4.330773
2.098578 -0.577522 4.942126
2.184209 -0.601088 5.734948
2.182765 -0.600690 6.347329
2.134699 -0.587463 7.318580
2.083691 -0.573425 7.931051
1.872965 -0.706693 0.437679
2.033782 -0.767371 1.348046
1.915479 -0.722734 1.892448
1.940462 -0.732161 2.727320
1.949818 -0.735691 3.452629
1.978931 -0.746675 4.013465
1.965348 -0.741550 4.745768
2.003976 -0.756125 5.754064
2.099983 -0.792350 6.527742
2.082438 -0.785730 7.116778
2.123279 -0.801140 8.077156
2.037752 -0.768869 8.693353
1.770390 -0.667990 9.626156
1.871133 -0.919857 0.893850
1.797249 -0.883535 1.456176
1.791184 -0.880554 2.313755
1.840657 -0.904875 3.076698
1.878996 -0.923723 3.810462
1.620779 -0.796782 4.606661
1.592158 -0.782712 5.319104
1.914081 -0.940970 6.171589
2.039433 -1.002594 6.961239
2.012859 -0.989530 7.712931
1.979231 -0.972999 8.590882
1.829068 -0.899178 9.285681
1.761458 -1.072421 2.166869
1.765451 -1.074852 2.962891
1.803487 -1.098009 3.736885
1.706448 -1.038929 4.314692
1.780492 -1.084009 5.192289
1.934997 -1.178076 5.734948
1.926297 -1.172779 6.588405
1.908285 -1.161813 7.546076
1.801833 -1.097002 8.165179
1.812075 -1.103238 8.996006
1.605013 -1.203282 2.057834
1.633180 -1.224399 2.954705
1.668944 -1.251212 3.472940
1.595681 -1.196286 4.284153
1.644551 -1.232924 4.978938
1.838054 -1.377993 5.936986
1.786888 -1.339635 6.748936
1.724282 -1.292699 7.277579
1.739790 -1.304325 8.342280
1.717180 -1.287374 9.097428
1.212624 -1.092486 0.771027
1.537102 -1.384816 1.209444
1.526198 -1.374992 2.024590
1.522353 -1.371529 2.729145
1.544835 -1.391783 3.401847
1.484293 -1.337240 4.314692
1.541384 -1.388675 5.121191
1.692018 -1.524385 5.971255
1.691687 -1.524087 6.709678
1.643161 -1.480368 7.434780
1.592032 -1.434305 8.200385
1.594499 -1.436527 9.097428
1.373652 -1.506130 2.188656
1.369622 -1.501713 2.842851
1.404966 -1.540465 3.462784
1.320920 -1.448314 4.205497
1.388734 -1.522668 5.019590
1.546939 -1.696130 5.926888
1.510432 -1.656102 6.653465
1.483462 -1.626531 7.510570
1.464968 -1.606254 8.225396
1.454610 -1.594897 9.148113
1.240909 -1.632983 1.963604
1.247650 -1.641853 2.901925
1.262605 -1.661533 3.483095
1.207338 -1.588804 4.294333
1.253564 -1.649636 5.100874
1.371066 -1.804264 5.900523
1.337731 -1.760395 6.481477
1.322328 -1.740126 7.303162
1.308614 -1.722079 8.057922
1.316202 -1.732064 9.111748
1.176899 -1.898882 0.849792
1.041247 -1.680013 1.426596
1.068008 -1.723192 2.413929
1.064757 -1.717946 3.017722
1.092878 -1.763319 3.617503
1.003897 -1.619751 4.387407
1.053662 -1.700045 5.484519
1.202451 -1.940109 6.157135
1.130544 -1.824091 6.827679
1.065042 -1.718405 7.504586
1.074066 -1.732965 8.308670
1.024721 -1.653350 9.222279
0.725788 -1.454092 0.257025
0.909392 -1.821935 0.945894
0.913172 -1.829509 1.841617
0.904514 -1.812162 2.383415
0.924131 -1.851463 3.290105
0.953753 -1.910811 3.970220
0.840186 -1.683284 4.804858
0.853084 -1.709125 5.560284
0.993596 -1.990634 6.114753
0.961741 -1.926814 6.868230
0.920877 -1.844946 7.824806
0.886436 -1.775944 8.524006
0.804806 -1.612400 9.474978
0.679720 -1.775642 0.387824
0.775732 -2.026457 1.236597
0.734793 -1.919511 2.044917
0.734707 -1.919286 2.810461
0.751254 -1.962513 3.635389
0.745545 -1.947600 4.417808
0.653621 -1.707463 4.978058
0.681754 -1.780957 5.706856
0.805889 -2.105238 6.724243
0.744834 -1.945742 7.302146
0.727267 -1.899851 8.288333
0.741218 -1.936296 9.115254
0.502145 -1.831911 0.122473
0.579290 -2.113348 1.124379
0.538882 -1.965933 1.709443
0.538818 -1.965699 2.576644
0.548469 -2.000908 3.351059
0.557424 -2.033579 3.952576
0.545660 -1.990661 4.853720
0.547962 -1.999060 5.463457
0.593807 -2.166310 6.391999
0.575926 -2.101076 7.136328
0.545671 -1.990701 7.834967
0.527801 -1.925509 8.574912
0.477082 -1.740478 9.485211
0.339070 -1.873698 0.602133
0.382436 -2.113336 1.318538
0.362570 -2.003560 2.147983
0.363332 -2.007769 2.944538
0.368196 -2.034646 3.546389
0.368606 -2.036911 4.285761
0.341983 -1.889794 5.100823
0.347905 -1.922521 5.845806
0.361659 -1.998524 6.754231
0.334628 -1.849151 7.299787
0.332233 -1.835916 8.336519
0.310208 -1.714206 8.914371
0.153262 -1.894266 0.295973
0.166768 -2.061200 1.178964
0.163562 -2.021567 2.005604
0.155989 -1.927970 2.522363
0.151624 -1.874026 3.420039
0.165546 -2.046088 4.133333
0.174965 -2.162512 5.077175
0.143949 -1.779164 5.735940
0.135592 -1.675873 6.499950
0.149952 -1.853361 7.197645
0.147565 -1.823850 8.055233
-0.015657 -1.834532 0.879402
-0.017120 -2.005875 1.537596
-0.016353 -1.916030 2.236789
-0.018252 -2.138592 3.222667
-0.020239 -2.371407 3.822774
-0.019469 -2.281152 4.579081
-0.017579 -2.059685 5.195742
-0.015830 -1.854752 6.175738
-0.014945 -1.751081 6.752013
-0.015591 -1.826778 7.799479
-0.015564 -1.823565 8.603866
-0.013464 -1.577539 9.192927
-0.175031 -1.667039 0.379889
-0.202993 -1.933350 1.213500
-0.200270 -1.907420 1.806982
-0.224967 -2.142641 4.142584
-0.238833 -2.274703 4.824656
-0.211549 -2.014841 5.657496
-0.180188 -1.716151 6.312948
-0.175727 -1.673667 7.072028
-0.177671 -1.692179 7.932655
-0.332015 -1.645048 0.544156
-0.369895 -1.832731 1.236362
-0.355843 -1.763107 1.925591
-0.409486 -2.028895 4.059468
-0.431580 -2.138366 4.786933
-0.373002 -1.848127 5.731046
-0.323246 -1.601598 6.370624
-0.327838 -1.624349 7.204564
-0.349261 -1.730499 8.229945
-0.325498 -1.612755 8.720534
-0.475660 -1.587434 0.770516
-0.540045 -1.802306 1.552953
-0.493749 -1.647802 2.310259
-0.501936 -1.675124 3.060391
-0.598620 -1.997791 3.729228
-0.653716 -2.181666 4.548773
-0.599934 -2.002175 5.409064
-0.513007 -1.712071 5.913802
-0.464681 -1.550791 6.722715
-0.464276 -1.549442 7.650117
-0.454110 -1.515513 8.442866
-0.388190 -1.295518 9.324587
-0.619400 -1.532336 0.513697
-0.718319 -1.777052 1.142904
-0.607402 -1.502654 1.872869
-0.664843 -1.644757 2.738986
-0.823343 -2.036871 3.585172
-0.824928 -2.040793 4.332224
-0.749174 -1.853384 4.934670
-0.622044 -1.538878 5.744549
-0.402003 -0.994517 6.648027
-0.425295 -1.052139 7.531414
-0.576032 -1.425048 8.355605
-0.541725 -1.340176 9.072039
-0.727633 -1.404469 0.751465
-0.724121 -1.397689 1.369804
-0.886473 -1.711060 3.899676
-1.012296 -1.953921 4.537666
-0.893852 -1.725302 5.263979
-0.701837 -1.354677 6.177057
-0.546073 -1.054023 6.864114
-0.543792 -1.049620 7.641029
-0.629521 -1.215095 8.403739
-0.588150 -1.135240 9.232792
-0.880450 -1.368801 0.493478
-0.928601 -1.443659 1.138756
-0.840603 -1.306852 2.031111
-0.962172 -1.495850 2.800424
-1.141371 -1.774444 3.460470
-1.067748 -1.659984 4.100859
-0.943731 -1.467181 4.916199
-0.842943 -1.310490 7.351675
-0.632895 -0.983936 8.077344
-0.643624 -1.000617 8.858840
-0.971784 -1.239794 1.400687
-1.129365 -1.440834 3.692796
-1.113625 -1.420753 6.026378
-0.558762 -0.712864 6.709426
-0.559035 -0.713212 7.663618
-0.767515 -0.979190 8.420377
-0.747922 -0.954192 9.171846
-1.003288 -1.054612 0.691991
-0.949905 -0.998499 1.480543
-1.202440 -1.263953 3.835849
-0.584915 -0.614837 7.098489
-0.669972 -0.704245 7.737527
-0.853869 -0.897550 8.738040
-0.766592 -0.805808 9.394628
-1.072014 -0.941172 0.413417
-1.079479 -0.947726 0.961110
-1.030337 -0.904582 1.885272
-1.379624 -1.211238 2.549541
-1.663974 -1.460881 3.226312
-1.406839 -1.235131 4.091346
-1.005786 -0.883027 4.695628
-0.842914 -0.740034 7.199038
-0.767222 -0.673581 8.097965
-0.886703 -0.778479 8.926922
-0.535409 -0.470061 9.548753
-1.136556 -0.816354 0.072397
-1.145572 -0.822830 0.920387
-1.084675 -0.779089 1.658627
-1.417623 -1.018236 2.689567
-1.690228 -1.214040 3.135585
-1.482648 -1.064942 3.889596
-1.087057 -0.780801 4.695628
-0.826203 -0.593437 5.500936
-0.461802 -0.331698 6.518080
-0.409695 -0.294272 7.161990
-0.821971 -0.590397 8.176287
-0.934629 -0.671316 8.911800
-0.701158 -0.503621 9.533721
-1.205551 -0.710564 0.082739
-1.131504 -0.666920 1.036842
-0.999107 -0.588883 1.645445
-1.319578 -0.777772 2.497757
-1.604900 -0.945944 3.225979
-1.465517 -0.863790 3.902492
-1.125076 -0.663131 4.636494
-0.853734 -0.503199 5.494036
-0.500608 -0.295063 6.592051
-0.491599 -0.289753 7.379511
-0.860639 -0.507269 7.993479
-0.985080 -0.580616 8.880566
-0.768123 -0.452739 9.749498
-1.382077 -0.643641 0.154625
-1.296537 -0.603804 0.671780
-1.050516 -0.489231 1.624630
-1.040276 -0.484462 2.366341
-0.900003 -0.419136 3.016752
-1.192319 -0.555269 4.057798
-1.291809 -0.601602 4.580023
-0.958298 -0.446285 5.601761
-0.438248 -0.204095 6.151785
-0.400352 -0.186446 7.096850
-0.849423 -0.395581 7.940887
-0.848584 -0.395190 8.532427
-0.737129 -0.343285 9.434748
-1.249213 -0.439890 0.093266
-1.186697 -0.417876 0.820221
-1.091410 -0.384322 1.582997
-1.277512 -0.449855 2.467880
-1.456709 -0.512956 3.014813
-1.488298 -0.524080 3.925683
-1.298034 -0.457082 4.796066
-0.835721 -0.294285 5.466297
-0.443290 -0.156097 6.382224
-0.534374 -0.188171 7.084975
-0.880605 -0.310091 7.799770
-0.898380 -0.316350 8.605692
-0.702294 -0.247302 9.574317
-1.340014 -0.342502 0.817528
-1.067447 -0.272835 1.449571
-1.337043 -0.341743 3.956719
-1.468443 -0.375329 4.495858
-1.156284 -0.295542 5.496859
-0.526021 -0.134449 6.207428
-0.478947 -0.122417 6.966933
-0.897377 -0.229366 7.888537
-0.909193 -0.232386 8.542895
-0.807849 -0.206483 9.518744
-1.331442 -0.203754 3.625447
-1.567009 -0.239803 4.654666
-1.196813 -0.183151 5.441328
-0.451813 -0.069142 6.145097
-0.479457 -0.073373 7.056099
-0.863287 -0.132111 7.626570
-0.931146 -0.142495 8.443285
-0.831561 -0.127256 9.338916
-0.927828 -0.057347 0.638761
-0.977419 -0.060412 1.517052
-0.986561 -0.060977 2.218822
-1.098757 -0.067912 3.113156
-1.404051 -0.086782 3.724113
-0.608784 -0.037628 7.044313
-0.925473 -0.057202 7.768359
-0.982020 -0.060697 8.631591
-0.840970 -0.051979 9.449789
-0.930698 0.032987 0.732994
-0.957544 0.033939 1.612210
-0.929740 0.032953 2.075142
-0.877759 0.031111 3.152390
-1.247408 0.044213 3.897005
-0.636064 0.022544 7.050389
-0.981046 0.034772 7.909847
-1.050912 0.037248 8.704129
-0.892190 0.031622 9.548669
-1.120990 0.140380 0.645850
-0.969677 0.121431 1.464766
-0.924243 0.115742 2.096083
-0.807142 0.101077 2.967473
-1.162378 0.145563 3.883833
-1.361570 0.170508 4.345063
-0.770727 0.096517 5.224678
-0.321064 0.040206 6.100811
-0.616707 0.077229 7.107650
-0.938077 0.117474 7.732005
-0.984200 0.123250 8.552941
-0.848750 0.106288 9.291063
-1.027442 0.231884 0.553189
-1.013608 0.228762 1.065223
-0.796169 0.179688 1.797051
-0.784217 0.176991 2.841431
-1.027069 0.231800 3.432463
-0.551605 0.124492 6.649100
-0.921825 0.208047 7.340765
-1.076204 0.242889 8.244039
-0.868818 0.196084 9.116314
-0.828614 0.268170 1.290327
-0.797945 0.258245 2.227490
-0.516183 0.167056 3.030907
-0.708215 0.229205 3.884792
-0.952211 0.308171 4.398169
-0.551866 0.178604 5.445148
-0.380497 0.123143 6.262982
-0.650514 0.210531 7.030887
-0.950117 0.307493 7.743035
-1.010181 0.326932 8.635989
-0.705484 0.228321 9.351978
-1.195962 0.518606 0.570313
-0.847207 0.367375 1.361958
-0.669269 0.290216 2.064886
-0.566373 0.245597 2.685440
-0.672495 0.291615 3.503593
-0.792681 0.343731 4.520172
-0.508074 0.220317 5.254897
-0.269632 0.116921 6.072745
-0.535570 0.232240 6.754773
-0.887440 0.384821 7.586195
-0.920924 0.399341 8.374928
-0.741649 0.321602 9.202428
-0.702213 0.382518 1.397907
-0.608816 0.331641 2.309906
-0.584435 0.318360 3.000083
-0.676462 0.368490 3.892801
-0.745305 0.405991 4.809436
-0.463289 0.252368 5.430947
-0.293721 0.159999 6.328067
-0.630474 0.343439 7.079060
-0.967083 0.526801 7.993910
-0.878197 0.478382 8.474353
-0.691257 0.376550 9.641879
-0.609646 0.412430 1.684799
-0.555688 0.375928 2.734687
-0.585709 0.396237 3.495323
-0.578404 0.391295 4.166282
-0.462830 0.313108 5.103574
-0.330162 0.223357 5.763229
-0.591604 0.400225 6.775423
-0.793161 0.536580 7.273301
-0.744409 0.503599 8.244297
-0.636599 0.430664 9.034283
-0.529423 0.433531 1.644831
-0.534937 0.438047 2.278300
-0.525322 0.430173 3.168735
-0.595989 0.488041 3.892801
-0.565844 0.463356 4.674529
-0.343860 0.281578 5.377734
-0.160469 0.131404 6.480141
-0.437410 0.358184 7.216348
-0.808927 0.662410 7.722695
-0.819114 0.670753 8.735437
-0.572765 0.469023 9.452595
-0.601272 0.598128 1.354123
-0.515985 0.513287 2.033310
-0.485489 0.482951 2.924393
-0.551981 0.549096 3.722139
-0.562366 0.559426 4.560451
-0.363988 0.362085 5.141854
-0.251641 0.250325 6.139460
-0.464578 0.462149 6.872765
-0.709489 0.705780 7.753486
-0.695943 0.692305 8.390723
-0.590343 0.587257 9.196618
-0.948645 1.132256 0.464478
-0.593769 0.708693 1.393374
-0.471818 0.563139 2.159606
-0.397406 0.474324 2.706551
-0.450774 0.538022 3.708283
-0.497654 0.593975 4.402798
-0.344741 0.411466 5.127993
-0.190946 0.227904 5.930581
-0.446941 0.533447 6.670106
-0.714638 0.852957 7.676603
-0.651378 0.777453 8.186735
-0.534382 0.637812 9.085871
-0.188442 0.274684 0.829514
-0.358336 0.522332 1.625855
-0.350560 0.510997 2.335493
-0.340840 0.496829 3.153745
-0.393766 0.573977 4.145214
-0.262209 0.382212 4.749990
-0.164329 0.239536 5.540129
-0.211087 0.307693 6.561873
-0.416671 0.607364 7.315209
-0.620525 0.904514 7.973061
-0.568406 0.828542 8.835751
-0.358258 0.522219 9.747675
-0.447364 0.800709 1.173442
-0.356355 0.637817 2.085936
-0.327595 0.586341 2.745228
-0.374869 0.670955 3.617008
-0.378539 0.677524 4.413310
-0.279312 0.499923 5.392313
-0.242151 0.433410 6.073765
-0.374203 0.669763 6.787812
-0.491862 0.880353 7.664955
-0.516091 0.923720 8.505305
-0.427826 0.765739 9.274709
-0.293479 0.667231 2.054361
-0.245376 0.557869 2.569316
-0.278190 0.632473 3.592407
-0.300719 0.683694 4.150400
-0.222193 0.505163 5.050711
-0.145041 0.329755 5.844943
-0.300475 0.683137 6.813188
-0.461893 1.050127 7.593891
-0.462227 1.050885 8.332491
-0.363323 0.826025 8.947681
-0.139945 0.416139 1.071306
-0.242287 0.720463 1.662675
-0.208843 0.621016 2.502736
-0.317379 0.943758 3.353317
-0.391985 1.165607 3.961888
-0.306759 0.912178 4.710250
-0.194682 0.578905 5.483901
-0.023989 0.071334 6.447059
-0.137632 0.409263 7.318061
-0.360137 1.070903 8.129368
-0.318136 0.946008 8.694314
-0.172119 0.511812 9.580188
-0.205033 0.884526 0.817284
-0.180314 0.777884 1.366388
-0.140956 0.608091 2.409374
-0.243928 1.052318 3.167336
-0.284642 1.227962 3.769917
-0.163399 0.704915 6.383812
-0.156745 0.676209 7.225074
-0.241155 1.040357 7.707318
-0.256812 1.107904 8.629891
-0.177841 0.767216 9.329690
-0.130709 0.966239 0.240540
-0.149713 1.106717 1.156915
-0.124489 0.920257 2.043731
-0.170568 1.260882 2.733854
-0.226105 1.671431 3.499820
-0.187513 1.386151 4.132587
-0.125704 0.929239 4.915307
-0.087758 0.648733 5.951827
-0.090634 0.669995 6.554199
-0.136784 1.011142 7.467214
-0.154753 1.143976 8.243906
-0.134354 0.993180 8.935451
-0.037453 0.928334 0.607349
-0.046350 1.148854 1.395625
-0.030128 0.746767 1.926800
-0.069425 1.720809 3.610319
-0.047258 1.171361 4.357408
-0.025610 0.634777 5.297583
-0.020687 0.512760 6.179629
-0.030778 0.762893 6.766781
-0.040555 1.005220 7.524253
-0.048417 1.200085 8.571778
-0.038746 0.960384 9.088543
0.056815 1.052541 0.605372
0.065203 1.207936 1.643292
0.043024 0.797063 2.387993
0.087730 1.625271 3.671281
0.057733 1.069554 6.026631
0.045011 0.833869 6.884131
0.058075 1.075883 7.879213
0.062669 1.160997 8.514832
0.054509 1.009836 9.297646
0.174615 1.187973 0.332699
0.194720 1.324752 1.056879
0.196213 1.334906 1.948652
0.245217 1.668302 2.559718
0.283608 1.929488 3.362259
0.244486 1.663327 4.184932
0.113595 0.772829 7.546585
0.168854 1.148777 8.035719
0.163450 1.112013 8.907066
0.203318 0.825179 0.209848
0.199503 0.809696 0.860866
0.312171 1.266964 1.524941
0.282246 1.145511 2.479230
0.379084 1.538536 3.198117
0.397527 1.613385 3.761307
0.262452 1.065177 6.343476
0.203853 0.827351 6.978577
0.264507 1.073517 8.014756
0.279457 1.134193 8.765217
0.229751 0.932457 9.509661
0.449959 1.300808 0.403613
0.495093 1.431288 1.072634
0.500717 1.447546 2.083987
0.619490 1.790911 2.678859
0.685479 1.981682 3.318363
0.625357 1.807873 4.004307
0.513554 1.484657 4.938900
0.340629 0.984740 5.838784
0.155385 0.449210 6.566451
0.256702 0.742111 7.567606
0.383888 1.109800 8.098152
0.435245 1.258269 9.132239
0.492910 1.081749 1.050651
0.551065 1.209378 1.503216
0.374277 0.821396 2.455157
0.824349 1.809132 3.759557
0.720027 1.580185 4.854703
0.614578 1.348764 5.571165
0.380751 0.835602 6.179582
0.375054 0.823100 7.261660
0.468585 1.028365 8.009625
0.542012 1.189508 8.700534
0.511723 1.123037 9.574212
0.695908 1.216971 0.444715
0.803921 1.405859 1.234327
0.912796 1.596255 2.200376
1.177337 2.058871 2.685260
1.197483 2.094101 3.472960
0.330531 0.578018 6.642734
0.434439 0.759726 7.506401
0.638426 1.116449 8.378464
0.660706 1.155412 9.022819
0.896690 1.265531 0.360548
1.034010 1.459335 1.034127
1.177688 1.662112 3.487751
1.367702 1.930285 4.231318
1.211499 1.709831 4.901259
0.912548 1.287911 5.872883
0.466258 0.658046 6.575319
0.483540 0.682437 7.568468
0.743138 1.048817 8.139640
0.821651 1.159625 9.077861
1.025755 1.200671 0.607362
1.195339 1.399172 1.094084
1.354890 1.585931 3.472940
1.525614 1.785768 4.080100
1.394226 1.631974 4.904871
1.142234 1.337011 7.333950
0.905838 1.060304 8.289524
0.981808 1.149229 9.132592
1.170278 1.129622 0.411235
1.345717 1.298967 1.256790
1.518009 1.465274 3.460470
1.725002 1.665076 4.288901
1.671913 1.613831 5.097231
1.017715 0.982360 8.025566
1.144972 1.105196 8.819787
1.138609 0.897970 0.247890
1.285738 1.014004 0.997148
1.385250 1.092485 1.732280
1.550612 1.222898 2.376418
1.876905 1.480231 3.231299
1.942647 1.532078 3.842633
1.901509 1.499634 4.694602
1.672266 1.318841 5.506923
1.223493 0.964914 6.372825
1.033524 0.815094 7.151636
1.241462 0.979086 7.721826
1.331548 1.050132 8.492882
1.010740 0.797125 9.373595
1.255221 0.821940 0.288822
1.475848 0.966410 1.055301
1.541431 1.009355 1.800379
1.791581 1.173158 2.620453
2.092868 1.370445 3.353148
2.069802 1.355341 4.076439
1.985568 1.300183 4.710989
1.709675 1.119524 5.436587
1.377142 0.901775 6.442562
1.342988 0.879411 7.065305
1.481241 0.969942 7.896700
1.457535 0.954419 8.806145
1.094970 0.717005 9.665730
1.389373 0.740712 0.123536
1.580051 0.842367 1.105779
1.638227 0.873382 1.553989
1.943720 1.036249 3.891402
2.108355 1.124020 4.637328
1.836621 0.979152 5.348133
1.568472 0.836194 6.167457
1.581964 0.843387 7.114983
1.581101 0.842927 7.753400
1.530257 0.815821 8.548896
1.249760 0.666280 9.374703
1.920418 0.797538 0.619631
1.800882 0.747895 1.386782
1.774157 0.736797 2.318395
1.799842 0.747463 3.054348
1.974832 0.820136 3.754670
2.156074 0.895404 4.603210
1.974773 0.820111 5.215809
1.781118 0.739687 6.006554
1.802008 0.748363 7.011058
1.802120 0.748409 7.784216
1.747362 0.725669 8.566680
1.502651 0.624042 9.289849
1.364301 0.415305 0.372076
1.853144 0.564112 0.979018
1.878427 0.571808 1.712878
1.874296 0.570551 2.520680
1.909850 0.581374 3.317063
2.036192 0.619834 4.135210
2.082256 0.633856 4.942126
1.986876 0.604821 5.660155
1.940387 0.590670 6.303960
1.898133 0.577807 7.184245
1.878287 0.571766 7.962605
1.960108 0.410650 1.996769
1.990060 0.416925 2.853021
2.041560 0.427715 3.472940
2.097794 0.439496 4.267050
1.859564 0.389586 4.947776
1.848395 0.387246 5.751464
2.134087 0.447100 6.737629
1.995783 0.418124 7.205304
2.014953 0.422141 8.282909
1.826445 0.382647 8.895737
2.120877 0.230461 0.821656
2.016994 0.219173 1.485714
2.000545 0.217385 2.169771
1.993510 0.216621 2.814221
2.091070 0.227222 3.655691
2.121137 0.230489 4.607625
2.122704 0.230660 5.371453
2.225158 0.241792 6.195677
2.151330 0.233770 6.646444
2.122033 0.230587 7.682593
2.057913 0.223619 8.333714
1.860613 0.202180 9.132153
1.851295 0.035114 0.419000
2.094524 0.039727 1.239091
2.025643 0.038421 1.964920
2.050937 0.038900 2.759640
2.106632 0.039957 3.430023
2.133733 0.040471 4.185924
2.154128 0.040857 4.965697
2.268134 0.043020 5.755159
2.288438 0.043405 6.634536
2.193010 0.041595 7.596553
2.136041 0.040514 8.286920
2.004566 0.038021 9.045742
1.844329 -0.143469 0.214613
2.081847 -0.161946 1.015710
2.059567 -0.160213 1.759103
2.040929 -0.158763 2.330994
2.113602 -0.164416 3.295853
2.121693 -0.165045 3.899221
1.973238 -0.153497 4.781946
1.967914 -0.153083 5.477968
2.203565 -0.171414 6.179554
2.182769 -0.169796 6.924459
2.115612 -0.164572 7.621731
2.085367 -0.162219 8.542370
1.811788 -0.140938 9.329826
1.851456 -0.315812 0.541265
2.131505 -0.363581 0.983262
1.963480 -0.334920 1.783002
1.964940 -0.335170 2.651359
1.992501 -0.339871 3.314850
2.109498 -0.359827 4.010784
2.161743 -0.368739 5.063665
2.236243 -0.381447 5.755159
2.346199 -0.400203 6.576606
2.247237 -0.383322 7.263663
2.167973 -0.369802 7.870001
2.037107 -0.548902 0.883101
1.938095 -0.522223 1.568126
1.932149 -0.520621 2.395188
1.942203 -0.523330 2.895631
2.016686 -0.543399 3.759693
1.892584 -0.509960 4.422345
1.929549 -0.519920 5.297726
2.168894 -0.584412 5.934791
2.185156 -0.588794 6.910711
2.112341 -0.569174 7.692734
2.102562 -0.566539 8.469365
1.921977 -0.517880 9.092361
1.992336 -0.738607 0.202894
1.979123 -0.733709 0.923696
1.861923 -0.690260 1.650640
1.917826 -0.710985 2.678317
1.968685 -0.729839 3.348819
1.968112 -0.729627 3.861223
1.848653 -0.685340 4.917574
1.863483 -0.690838 5.569623
2.070815 -0.767701 6.169433
2.104522 -0.780197 7.081734
2.075049 -0.769271 7.814222
2.009109 -0.744826 8.541329
1.805772 -0.669443 9.454574
1.802697 -0.873574 2.006947
1.810489 -0.877350 2.558018
1.855549 -0.899185 3.485423
1.930898 -0.935699 4.287329
1.934003 -0.937204 4.925148
1.951132 -0.945504 5.760374
2.027678 -0.982598 6.432441
2.014621 -0.976270 7.051396
1.961009 -0.950291 7.895446
1.931674 -0.936075 8.668636
1.659854 -0.804353 9.540422
1.749921 -1.058594 2.300496
1.747868 -1.057352 2.975040
1.806599 -1.092881 3.736885
1.671964 -1.011436 4.371393
1.692777 -1.024026 5.155181
1.888446 -1.142393 5.847661
1.926721 -1.165548 6.850060
1.848669 -1.118331 7.434467
1.797452 -1.087348 8.241609
1.723924 -1.042868 9.086445
1.364313 -1.013310 0.112867
1.651085 -1.226302 0.742009
1.629749 -1.210455 1.516226
1.638405 -1.216884 2.229328
1.702637 -1.264591 3.305998
1.715329 -1.274018 3.980361
1.444866 -1.073138 4.555499
1.479328 -1.098734 5.445005
1.814681 -1.347808 6.327115
1.800290 -1.337120 6.799504
1.780053 -1.322090 7.834461
1.748127 -1.298377 8.469365
1.674056 -1.243363 9.371066
1.575930 -1.412563 1.126649
1.501098 -1.345488 1.761461
1.532713 -1.373826 2.503787
1.570381 -1.407589 3.450321
1.570162 -1.407393 3.952576
1.490616 -1.336093 4.955027
1.498341 -1.343017 5.565935
1.678123 -1.504162 6.286681
1.657396 -1.485583 7.116778
1.620242 -1.452281 7.758599
1.611275 -1.444244 8.632560
1.411206 -1.264915 9.332137
1.356338 -1.473433 1.996769
1.387762 -1.507570 2.729145
1.422533 -1.545342 3.625238
1.326686 -1.441221 4.412155
1.351013 -1.467648 5.090689
1.549078 -1.682812 6.031865
1.571264 -1.706913 6.806161
1.497911 -1.627228 7.561182
1.463458 -1.589800 8.281482
1.356075 -1.473147 8.927935
1.189280 -1.555943 0.825521
1.222162 -1.598962 1.690238
1.247893 -1.632627 2.452971
1.268500 -1.659587 3.226984
1.293913 -1.692835 4.155496
1.201118 -1.571430 4.771761
1.249991 -1.635371 5.704565
1.368529 -1.790454 6.286681
1.362301 -1.782307 7.207810
1.323899 -1.732065 7.778859
1.316876 -1.722878 8.652827
1.171089 -1.532143 9.464772
1.063674 -1.701414 2.068011
1.092297 -1.747198 2.881601
1.107245 -1.771109 3.503404
1.029623 -1.646947 4.269465
1.073534 -1.717186 5.128001
1.191970 -1.906631 5.789330
1.213861 -1.941647 6.780387
1.158349 -1.852852 7.556045
1.144264 -1.830323 8.271347
1.104355 -1.766485 9.155883
1.001379 -1.997018 0.849792
0.895967 -1.786798 1.354392
0.915628 -1.826007 2.259829
0.914942 -1.824640 2.954705
0.924593 -1.843887 3.752043
0.883097 -1.761132 4.710647
0.899004 -1.792855 5.348617
1.004597 -2.003435 6.060128
1.013567 -2.021323 6.900604
0.947689 -1.889945 7.707947
0.929257 -1.853187 8.461121
0.923844 -1.842391 9.377167
0.743235 -1.896868 2.168320
0.741770 -1.893130 2.853021
0.763089 -1.947539 3.790155
0.743566 -1.897715 4.444035
0.762543 -1.946148 5.232909
0.818835 -2.089814 6.080353
0.812734 -2.074242 6.718588
0.784491 -2.002161 7.510348
0.740421 -1.889688 8.150743
0.678135 -1.730723 8.973050
0.495600 -1.730823 0.286531
0.574966 -2.008000 1.036019
0.556981 -1.945191 1.914060
0.554983 -1.938212 2.619066
0.558910 -1.951928 3.129609
0.561711 -1.961708 4.021508
0.527968 -1.843865 4.696502
0.560282 -1.956719 5.552078
0.588519 -2.055333 6.202014
0.556479 -1.943438 7.113771
0.543039 -1.896499 7.886106
0.523414 -1.827960 8.607507
0.438888 -1.532764 9.571228
0.367942 -1.939698 0.010186
0.350271 -1.846540 0.622958
0.372799 -1.965304 1.395107
0.375815 -1.981202 2.240994
0.375765 -1.980937 2.956680
0.381803 -2.012769 3.609755
0.392779 -2.070633 4.600550
0.335256 -1.767386 5.315598
0.334296 -1.762323 6.112236
0.366946 -1.934446 6.691844
0.364691 -1.922557 7.687428
0.363476 -1.916154 8.371194
0.326525 -1.721357 9.063654
0.165964 -1.816722 -0.010227
0.171365 -1.875838 0.837388
0.182230 -1.994775 1.466354
0.180325 -1.973927 2.079578
0.181532 -1.987134 3.009558
0.164560 -1.801356 3.725940
0.169504 -1.855476 4.454531
0.187363 -2.050963 5.372012
0.181303 -1.984633 5.933585
0.183009 -2.003308 6.926014
0.176883 -1.936250 7.626275
0.177091 -1.938527 8.468423
0.166021 -1.817340 9.360508
-0.012395 -1.803163 0.542349
-0.014004 -2.037287 0.986569
-0.013530 -1.968294 1.814757
-0.013183 -1.917741 2.646472
-0.011093 -1.613815 3.247428
-0.012729 -1.851688 4.134940
-0.015339 -2.231510 4.975997
-0.012960 -1.885426 5.563959
-0.012078 -1.757102 6.349791
-0.012762 -1.856596 7.314789
-0.012944 -1.882982 8.182769
-0.167456 -1.748130 0.717246
-0.193235 -2.017252 1.424688
-0.174300 -1.819584 2.006119
-0.206750 -2.158335 2.975229
-0.231598 -2.417737 3.644047
-0.220390 -2.300724 4.411489
-0.207076 -2.161737 5.273135
-0.165870 -1.731577 5.931833
-0.159369 -1.663707 6.872408
-0.166684 -1.740069 7.410485
-0.163945 -1.711482 8.369104
-0.152509 -1.592094 9.176724
-0.317595 -1.624636 0.678065
-0.346273 -1.771337 1.515134
-0.340584 -1.742237 2.389118
-0.361190 -1.847642 3.162574
-0.418440 -2.140501 3.678749
-0.454121 -2.323024 4.660600
-0.410213 -2.098415 5.391735
-0.318974 -1.631689 6.239077
-0.299669 -1.532937 7.105407
-0.331050 -1.693466 7.553502
-0.331174 -1.694097 8.626228
-0.279077 -1.427598 9.321395
-0.487956 -1.679853 -0.010247
-0.468394 -1.612508 0.605753
-0.514953 -1.772795 1.278070
-0.500024 -1.721400 2.264720
-0.484390 -1.667577 2.906658
-0.585802 -2.016701 3.871375
-0.665770 -2.292004 4.617182
-0.592539 -2.039894 5.114381
-0.521007 -1.793636 6.100180
-0.478031 -1.645687 6.684650
-0.490620 -1.689024 7.717485
-0.460276 -1.584561 8.287525
-0.392634 -1.351695 9.234337
-0.565711 -1.419999 0.566938
-0.666503 -1.672997 1.412810
-0.606650 -1.522761 2.212096
-0.512940 -1.287538 2.912951
-0.654362 -1.642522 3.564575
-0.849261 -2.131742 4.270145
-0.787204 -1.975971 5.134670
-0.697942 -1.751913 6.055326
-0.595438 -1.494617 6.947595
-0.549683 -1.379766 7.752189
-0.568025 -1.425808 8.345299
-0.507077 -1.272820 9.079157
-0.715484 -1.404021 0.339721
-0.804803 -1.579294 1.321589
-0.715365 -1.403786 1.968005
-0.875811 -1.718635 2.799465
-1.034097 -2.029245 3.638585
-0.914143 -1.793856 4.230431
-0.845714 -1.659576 5.046289
-0.795709 -1.561449 7.303214
-0.644275 -1.264284 8.284187
-0.623066 -1.222665 8.980220
-0.858499 -1.351607 0.380646
-0.936014 -1.473645 1.271230
-0.833411 -1.312108 2.041411
-0.935423 -1.472714 2.679319
-1.151246 -1.812503 3.589977
-1.084283 -1.707078 4.085229
-0.959044 -1.509903 4.868772
-0.846444 -1.332627 7.326313
-0.630805 -0.993129 8.108556
-0.683577 -1.076212 9.003246
-0.903012 -1.169643 0.505762
-1.004540 -1.301149 1.212958
-0.931989 -1.207176 1.960300
-1.067082 -1.382158 2.699815
-1.305121 -1.690482 3.468297
-1.181321 -1.530127 4.187901
-0.860661 -1.114786 5.044331
-0.714990 -0.926103 7.319307
-0.659210 -0.853854 8.129347
-0.777635 -1.007246 8.992869
-1.236695 -1.318874 0.808373
-1.027843 -1.096144 1.465356
-1.215447 -1.296214 3.656741
-1.291194 -1.376995 5.908449
-0.748759 -0.798515 6.773169
-0.662653 -0.706687 7.847099
-0.836631 -0.892225 8.555903
-0.828148 -0.883179 9.271268
-1.295351 -1.146207 0.635706
-1.069526 -0.946383 1.478594
-1.307672 -1.157109 3.597682
-1.334661 -1.180990 6.040581
-0.760337 -0.672793 6.754914
-0.708018 -0.626498 7.732005
-0.880352 -0.778990 8.457378
-0.907572 -0.803076 9.381148
-1.133505 -0.825329 0.465398
-1.122166 -0.817073 1.024452
-1.086565 -0.791151 1.845084
-1.405191 -1.023149 2.587077
-1.666892 -1.213699 3.485423
-1.416605 -1.031460 4.145908
-0.971085 -0.707067 4.807612
-0.877819 -0.639159 7.411156
-0.875632 -0.637566 8.150206
-1.230370 -0.734355 0.806118
-1.071828 -0.639729 1.350438
-1.383215 -0.825582 3.755991
-1.538219 -0.918097 4.691603
-1.165967 -0.695916 5.230291
-0.651840 -0.389055 6.291533
-0.518811 -0.309656 7.012638
-0.728553 -0.434842 7.882646
-0.852956 -0.509093 8.673409
-0.832158 -0.496680 9.440900
-1.108725 -0.525964 0.467546
-1.143639 -0.542527 1.121239
-1.028578 -0.487943 1.729835
-1.220554 -0.579015 2.780260
-1.507139 -0.714966 3.294487
-1.465874 -0.695391 4.108214
-1.077299 -0.511056 4.935553
-0.970155 -0.460229 7.348578
-0.962570 -0.456630 8.186720
-0.967106 -0.458782 8.897557
-1.314493 -0.479764 0.041370
-1.256765 -0.458694 1.015443
-1.034612 -0.377613 1.439148
-1.189865 -0.434277 2.265207
-1.427494 -0.521007 3.317870
-1.492752 -0.544825 3.789342
-1.276999 -0.466079 4.661502
-0.832317 -0.303779 5.466297
-0.482796 -0.176211 6.494623
-0.569897 -0.208001 7.164965
-0.895110 -0.326697 7.893971
-0.932586 -0.340375 8.783492
-0.722227 -0.263598 9.568296
-1.063939 -0.279494 0.239756
-1.246986 -0.327580 1.068642
-1.093496 -0.287258 2.074764
-0.914917 -0.240346 2.725746
-1.197010 -0.314451 3.531098
-1.525091 -0.400637 4.373788
-1.105285 -0.290355 4.941971
-0.632312 -0.166107 5.779348
-0.471106 -0.123758 6.782541
-0.694158 -0.182353 7.482508
-0.983458 -0.258352 8.317365
-0.854241 -0.224407 9.084868
-1.061508 -0.174987 0.344221
-1.174079 -0.193544 1.092250
-1.001968 -0.165172 1.777281
-0.935576 -0.154227 2.757143
-1.306408 -0.215358 3.648549
-1.657384 -0.273215 4.393078
-1.149379 -0.189472 4.917950
-0.710820 -0.117177 6.049519
-0.504903 -0.083232 6.778240
-0.688161 -0.113441 7.377197
-0.974429 -0.160632 8.181505
-0.861708 -0.142050 9.042930
-0.954921 -0.061347 0.763906
-0.997832 -0.064104 1.401106
-1.345159 -0.086418 3.635803
-1.406124 -0.090334 4.655409
-0.885687 -0.056900 5.476780
-0.411107 -0.026411 6.337276
-0.589913 -0.037898 7.080480
-0.914796 -0.058770 7.715996
-1.003127 -0.064444 8.725667
-0.773279 -0.049678 9.277135
-0.931396 0.023314 0.753934
-0.954420 0.023891 1.528505
-0.932319 0.023338 2.117022
-0.894498 0.022391 3.045559
-1.228126 0.030742 3.699664
-0.627155 0.015699 7.139311
-0.947217 0.023711 7.742471
-0.991576 0.024821 8.552941
-0.826905 0.020699 9.386811
-0.496070 0.061462 0.211756
-0.655161 0.081173 0.917500
-0.850851 0.105419 1.595428
-0.667706 0.082727 2.385186
-0.965245 0.119592 3.376414
-1.386808 0.171823 3.881733
-1.267260 0.157011 4.808605
-0.727476 0.090133 5.455846
-0.228558 0.028318 6.465395
-0.534718 0.066250 7.210347
-1.022215 0.126650 8.019707
-1.030905 0.127727 8.871902
-0.600389 0.074387 9.530529
-0.587897 0.128730 0.443536
-0.673286 0.147427 1.074957
-0.872422 0.191031 1.835478
-0.786251 0.172162 2.493048
-0.995199 0.217915 3.330246
-0.966480 0.211627 5.825415
-0.659322 0.144369 6.695440
-0.861528 0.188646 7.276787
-0.960370 0.210289 8.160595
-0.867629 0.189982 9.105833
-0.763557 0.243956 1.450435
-0.745152 0.238075 2.114771
-0.546123 0.174486 3.102939
-0.736820 0.235413 3.924342
-0.979307 0.312888 4.416206
-0.562500 0.179718 5.519099
-0.426356 0.136220 6.244438
-0.714441 0.228263 6.834228
-0.944110 0.301642 7.831634
-0.997171 0.318595 8.683253
-0.696640 0.222576 9.309885
-0.575418 0.243761 0.221628
-0.361968 0.153338 1.210709
-0.681212 0.288577 1.768981
-0.758290 0.321229 2.766101
-0.797563 0.337866 3.586692
-0.824030 0.349078 4.123875
-0.612259 0.259367 4.950235
-0.431598 0.182835 5.893693
-0.649213 0.275022 6.722771
-0.873624 0.370087 7.492030
-0.952526 0.403512 8.280737
-0.799621 0.338738 9.021957
-0.655705 0.355761 1.294519
-0.605556 0.328552 2.236157
-0.647135 0.351111 2.941667
-0.732575 0.397468 3.769820
-0.750790 0.407351 4.649008
-0.489387 0.265523 5.459199
-0.397915 0.215894 6.276241
-0.700981 0.380326 7.097055
-0.921740 0.500102 7.863383
-0.914724 0.496295 8.542053
-0.692518 0.375735 9.541257
-0.134665 0.089357 0.982763
-0.637662 0.423119 1.778352
-0.617084 0.409464 2.655745
-0.575321 0.381752 3.305720
-0.600705 0.398595 4.142547
-0.463566 0.307598 4.888938
-0.342701 0.227398 5.848138
-0.508957 0.337717 6.467561
-0.818396 0.543044 7.268645
-0.882308 0.585452 8.035454
-0.772372 0.512505 9.052427
-0.600080 0.489293 1.388300
-0.532074 0.433842 2.194011
-0.535110 0.436317 2.998149
-0.611395 0.498519 3.827242
-0.609026 0.496587 4.497399
-0.398635 0.325038 5.335709
-0.308203 0.251302 6.089220
-0.596035 0.485994 7.080556
-0.827677 0.674870 7.707318
-0.857051 0.698821 8.604137
-0.669834 0.546169 9.433339
-0.258519 0.252761 0.977745
-0.547887 0.535684 1.799382
-0.504644 0.493404 2.510038
-0.475882 0.465283 3.307851
-0.570412 0.557708 4.155558
-0.451952 0.441886 4.890106
-0.302694 0.295952 5.586222
-0.310967 0.304041 6.322652
-0.549039 0.536810 7.211286
-0.763706 0.746697 7.957301
-0.751554 0.734815 8.814079
-0.425782 0.416299 9.802142
-0.473530 0.562310 1.663752
-0.440693 0.523318 2.151862
-0.468349 0.556158 3.143598
-0.490780 0.582794 3.808681
-0.395303 0.469417 4.742348
-0.290075 0.344460 5.420143
-0.085469 0.101493 6.174476
-0.263660 0.313092 7.058893
-0.648717 0.770343 7.784837
-0.705345 0.837587 8.782009
-0.471883 0.560354 9.421025
-0.789393 1.129792 0.548492
-0.526654 0.753756 1.246758
-0.385763 0.552110 1.951623
-0.369551 0.528907 2.725904
-0.392405 0.561617 3.529189
-0.419531 0.600440 4.471623
-0.329494 0.471578 5.036915
-0.264540 0.378614 6.014048
-0.425318 0.608722 6.792146
-0.594972 0.851533 7.431110
-0.626763 0.897033 8.202341
-0.483694 0.692271 9.138348
-0.272616 0.484301 0.708435
-0.386700 0.686970 1.735165
-0.370677 0.658505 2.506795
-0.346132 0.614901 3.187755
-0.361030 0.641366 3.800615
-0.246678 0.438222 4.659240
-0.176704 0.313913 5.497714
-0.078411 0.139297 6.498994
-0.235377 0.418145 7.166526
-0.537379 0.954650 7.842896
-0.493079 0.875951 8.725667
-0.309944 0.550613 9.535106
-0.583730 1.305109 0.640778
-0.374355 0.836985 1.162968
-0.278856 0.623470 2.130787
-0.269089 0.601632 2.915736
-0.286991 0.641657 3.718815
-0.333265 0.745117 4.323622
-0.274933 0.614698 5.206489
-0.192033 0.429348 5.904289
-0.306224 0.684659 6.834228
-0.444321 0.993416 7.681527
-0.454134 1.015356 8.285727
-0.383784 0.858067 9.215256
-0.082465 0.245083 0.852417
-0.256671 0.762813 1.534475
-0.208947 0.620981 2.502736
-0.311065 0.924470 3.407789
-0.375976 1.117382 3.956658
-0.288162 0.856405 4.845147
-0.185932 0.552581 5.466278
-0.040858 0.121427 6.460334
-0.135795 0.403577 7.286240
-0.339931 1.010259 7.946868
-0.334436 0.993929 8.803641
-0.171372 0.509309 9.569611
-0.189744 0.803684 1.428497
-0.162804 0.689576 2.139942
-0.264011 1.118256 3.088276
-0.302647 1.281902 3.576001
-0.284102 1.203353 4.476400
-0.227306 0.962784 5.302378
-0.151567 0.641984 6.145499
-0.194534 0.823977 6.806290
-0.251018 1.063219 7.702381
-0.277050 1.173481 8.592569
-0.225049 0.953227 9.482734
-0.094075 0.677212 0.853683
-0.120235 0.865524 1.374216
-0.070672 0.508740 2.235685
-0.102169 0.735474 7.074551
-0.150893 1.086225 7.723232
-0.150747 1.085171 8.672191
-0.105202 0.757308 9.446646
-0.052493 1.140121 1.792314
-0.067263 1.460902 2.585310
-0.083255 1.808252 3.478016
-0.082158 1.784423 4.225071
-0.068878 1.495987 4.759762
-0.039674 0.861702 5.823218
-0.011646 0.252942 6.450661
-0.028597 0.621108 7.380713
-0.051276 1.113691 7.936700
0.055892 1.150933 0.478876
0.064059 1.319121 1.275235
0.054343 1.119041 1.876839
0.071722 1.476901 2.812417
0.089989 1.853070 3.422313
0.081491 1.678082 4.174666
0.056699 1.167552 4.949167
0.034229 0.704852 5.954753
0.033492 0.689676 6.638501
0.048007 0.988577 7.570891
0.054695 1.126295 8.118952
0.046370 0.954849 8.957268
0.166019 1.163184 0.228882
0.182696 1.280024 1.193105
0.186746 1.308399 1.898116
0.240203 1.682940 2.754703
0.275172 1.927943 3.331681
0.248889 1.743798 4.227867
0.207771 1.455713 4.941548
0.137571 0.963866 5.720852
0.068824 0.482203 6.782541
0.108346 0.759104 7.472995
0.155254 1.087759 8.223191
