-1.667126 -1.444851 5.110522
-1.210555 -1.594997 6.141220
-1.375157 -1.326982 7.336739
-1.390437 -1.243729 8.019095
-1.415862 -0.996974 0.656622
-1.458775 -1.184491 1.254846
-1.397160 -1.158341 2.392190
-1.412289 -1.212682 7.527443
-1.560542 -0.999573 1.500620
-1.480403 -1.017343 2.127226
-1.971092 -1.147627 4.586648
-1.802273 -1.326777 5.064684
-1.489649 -0.876784 8.077493
-1.311032 -0.444378 9.467716
-1.597531 -0.873641 1.467292
-1.536506 -0.836982 1.989187
-2.035853 -0.904903 4.377361
-1.938990 -1.206314 4.900164
-1.605518 -1.016517 7.283996
-1.488172 -0.833124 8.015032
-1.498312 -0.599375 8.656339
-1.322656 -0.457933 9.439653
-1.568495 -0.609545 0.774909
-1.625001 -0.740112 1.482146
-1.545559 -0.683097 2.085574
-2.029966 -0.793608 4.319191
-1.462434 -0.691928 8.036651
-1.490201 -0.566443 8.603345
-1.567942 -0.519566 0.732611
-1.626644 -0.538327 1.449010
-2.011284 -0.604625 4.250849
-1.391404 -0.374865 9.294897
-1.639549 -0.428171 1.291498
-1.568978 -0.323021 1.720165
-1.960649 -0.419347 4.151538
-1.055002 -0.104133 7.791935
-1.365185 -0.258772 8.335768
-1.346133 -0.213910 9.375964
-1.645005 -0.193264 0.857033
-1.607721 -0.276162 1.454933
-1.505730 -0.179242 2.122475
-1.859948 -0.111461 3.862238
-1.955039 -0.242524 4.204021
-1.420826 0.130200 5.184482
-1.053902 0.146308 5.898000
-0.801549 0.041145 6.623070
-0.827274 0.043858 7.486791
-1.183751 -0.047012 8.082205
-1.431125 -0.160291 8.984670
-1.274685 -0.106243 9.482866
-1.577762 -0.073275 1.377037
-1.507661 -0.047534 1.841526
-1.835489 0.034001 3.871240
-1.410531 0.141933 5.238271
-1.134491 0.001107 7.980542
-1.296724 0.009397 8.564335
-1.341331 -0.012800 9.191708
-1.549138 0.094856 0.753177
-1.585091 0.057938 1.175012
-1.447215 0.082449 2.011616
-1.880661 0.101970 4.130717
-1.130132 0.120361 8.019819
-1.260519 0.146930 8.713362
-1.201555 0.128918 9.446620
-1.440147 0.228614 0.738586
-1.481393 0.218202 1.178086
-1.413544 0.162895 1.823588
-1.831078 0.196565 4.003013
-1.469097 0.309760 4.974063
-1.105706 0.222072 5.724869
-0.738947 0.103329 6.571584
-0.792058 0.103644 7.422348
-1.092535 0.199870 7.943896
-1.189155 0.255627 8.579459
-1.150570 0.188674 9.499913
-1.340021 0.337841 1.450603
-1.310121 0.336890 2.243480
-0.673509 0.206084 6.768693
-0.786042 0.193894 7.426811
-1.145770 0.339088 8.317232
-1.162294 0.325065 8.943879
-1.294307 0.374510 0.704569
-1.307575 0.421337 1.205574
-1.255179 0.380505 1.711564
-1.202558 0.425820 2.525007
-1.596933 0.544688 4.621794
-1.333944 0.408974 5.278073
-0.716057 0.285167 6.921577
-0.998318 0.374977 7.772874
-1.123183 0.442922 8.411570
-1.091371 0.355815 9.283269
-1.229746 0.473827 1.431288
-1.124957 0.521864 1.929609
-0.983625 0.538129 2.880530
-1.393819 0.662804 3.667587
-1.624076 0.730737 4.157498
-1.428878 0.459869 5.029239
-0.918799 0.389962 5.788960
-0.573727 0.233782 6.654764
-0.751889 0.321808 7.309340
-1.035410 0.465995 7.917959
-1.084725 0.520793 8.694886
-1.007287 0.432869 9.513207
-1.148383 0.551921 1.305871
-1.041740 0.585492 2.092775
-0.943177 0.581533 2.821667
-1.294492 0.706207 3.593452
-1.526538 0.820991 4.082794
-1.432300 0.487573 5.000185
-0.839411 0.449116 5.753794
-0.482011 0.254592 6.593796
-0.732958 0.354085 7.315570
-1.028097 0.617204 8.170944
-1.066535 0.568980 8.664528
-0.926566 0.537153 9.450973
-0.874350 0.670261 2.300287
-0.865551 0.656705 3.065909
-1.292206 0.830817 3.825024
-0.611963 0.449491 6.779048
-0.884873 0.645052 7.659492
-0.973753 0.713212 8.216391
-0.243062 0.366944 0.275890
-0.831169 0.742731 1.603248
-0.766197 0.707032 2.595740
-0.932638 0.726046 3.254930
-1.248422 0.839922 3.806207
-0.648182 0.539927 6.955024
-0.808419 0.710042 7.577229
-0.892879 0.809565 8.222197
-0.799665 0.738411 9.044285
-0.241690 0.366575 0.279035
-0.383913 0.556298 1.004700
-0.754155 0.788561 1.605394
-0.715513 0.747379 2.469651
-0.646091 0.720155 3.076854
-0.658675 0.845374 3.872958
-0.484762 0.663624 5.427210
-0.338599 0.523230 6.215968
-0.605972 0.606903 7.012552
-0.763547 0.816561 7.599940
-0.770601 0.810911 8.939966
-0.227916 0.354848 0.299364
-0.400830 0.567156 0.985411
-0.704101 0.805528 1.712354
-0.645089 0.788682 2.406706
-0.550793 0.750245 3.025103
-0.553964 0.907360 4.461246
-0.410484 0.716968 5.228316
-0.336269 0.572334 6.060466
-0.588728 0.658122 6.981513
-0.717048 0.864499 7.576224
-0.766007 0.916552 8.187599
-0.708309 0.859077 8.982732
-0.231235 0.402453 0.260149
-0.465449 0.671971 0.847060
-0.621588 0.848840 1.676945
-0.564094 0.833103 2.239713
-0.545304 0.760459 3.013244
-0.485070 0.860325 3.609990
-0.461124 0.904387 4.404939
-0.424416 0.701860 5.312354
-0.365919 0.610051 6.081159
-0.622142 0.914715 7.520381
-0.689166 0.973632 8.198261
-0.586142 0.874665 9.155341
-0.238296 0.352212 0.280572
-0.384325 0.572230 0.983043
-0.527326 0.879380 1.694181
-0.497813 0.847814 2.474561
-0.499810 0.783758 3.180727
-0.504804 0.858405 3.924087
-0.424558 0.903277 4.369213
-0.429978 0.698747 5.357754
-0.336490 0.615587 6.074186
-0.474947 0.859867 6.896412
-0.566194 0.993064 7.557754
-0.539697 1.056449 8.322939
-0.153396 0.380534 0.371687
-0.330626 0.527276 1.061425
-0.393110 0.882799 1.945115
-0.374100 0.870322 2.682121
-0.393750 0.819584 3.201364
-0.384823 0.873658 3.990642
-0.311725 0.786746 4.862627
-0.314597 0.675156 5.413448
-0.217934 0.442493 6.418850
-0.455254 1.119460 7.916219
-0.424909 1.083219 8.400080
-0.260710 0.848273 9.430499
-0.171426 0.370327 0.352521
-0.250599 0.547223 1.139406
-0.313894 0.893176 1.905609
-0.280114 0.866467 2.748179
-0.312583 0.875069 3.474639
-0.314254 0.893921 4.241349
-0.239626 0.741945 5.040812
-0.183905 0.603956 5.606869
-0.078472 0.316884 6.529520
-0.334379 1.132611 7.798331
-0.327803 1.121857 8.560700
-0.225512 0.846038 9.484050
-0.199111 0.784323 1.401930
-0.232486 0.893147 2.175606
-0.221228 0.861693 2.787886
-0.215423 0.881763 3.457043
-0.194657 0.912510 4.232303
-0.155906 0.727142 5.089208
-0.064791 0.333681 6.567700
-0.140911 0.736374 7.198279
-0.236253 1.161168 7.927651
-0.207357 1.141600 8.740829
-0.166730 0.844472 9.513915
-0.156318 0.910790 1.568234
-0.130888 0.897176 2.046262
-0.140835 0.847598 2.731038
-0.101502 0.902078 3.813605
-0.108409 0.715534 5.012945
-0.158997 0.953409 6.871201
-0.177256 1.141227 7.602596
-0.102389 1.180414 8.101870
-0.155263 1.082084 8.958730
-0.088786 0.805480 9.556992
-0.132683 0.406568 0.339308
-0.050932 0.897704 1.810153
-0.066030 0.847169 2.549410
-0.073977 0.887891 3.406500
-0.091742 0.905005 3.768760
-0.115056 0.867157 4.584644
-0.086441 0.625036 5.617284
-0.102198 0.556340 6.289980
0.029736 0.847404 6.972990
-0.075904 1.132090 7.638589
-0.033123 1.162997 8.378041
-0.047510 0.924751 9.352529
0.035777 0.827327 0.661804
0.031407 0.976152 1.461816
0.003525 0.901470 1.982692
-0.046931 0.824720 2.652782
-0.018351 0.896757 3.582554
-0.040338 0.947163 4.158073
-0.080880 0.726797 4.972454
-0.024769 0.601656 5.803611
-0.031989 0.329047 6.564928
0.046159 1.151859 7.797719
0.034191 1.160617 8.646540
0.059366 0.849603 9.538827
0.128082 0.962353 1.406860
0.065813 0.910158 2.029158
-0.019228 0.849032 2.999704
-0.016511 0.932812 3.905131
-0.023786 0.963388 4.321460
0.011748 0.743502 5.120510
0.039123 0.603413 6.114765
0.119951 0.557228 6.777675
0.129674 0.771501 7.273545
0.176555 1.156216 8.069218
0.072538 1.097638 8.859787
0.053846 0.789499 9.607626
0.082807 0.654722 0.456954
0.253537 0.871814 1.119886
0.207744 0.938553 1.780498
0.027496 0.821053 2.731453
0.019127 0.898034 3.356422
0.135729 1.067844 4.125662
0.115646 0.842547 7.000793
0.252369 1.077690 7.741701
0.195899 1.124684 8.624791
0.189067 0.843778 9.527928
0.283553 0.826783 0.636441
0.259233 0.989803 1.453509
0.226711 0.916906 2.090035
0.076576 0.619511 5.748817
0.113117 0.358392 6.641556
0.250934 0.650123 7.396002
0.363399 1.100651 8.173374
0.174636 0.813699 9.577881
0.389591 0.793165 0.252334
0.319639 0.839866 0.937739
0.321495 0.963252 1.614963
0.157392 0.831425 2.443625
0.397415 1.264632 3.753523
0.058406 0.747294 5.170831
0.083647 0.599036 5.944532
0.315484 0.690366 6.992111
0.417846 0.846869 7.629844
0.465037 1.052633 8.121941
0.419326 0.792558 0.246207
0.376034 0.868309 1.105179
0.408248 1.266306 3.718116
0.081586 0.737672 5.275506
0.224451 0.627952 6.018442
0.329203 0.429332 6.756734
0.495638 0.780204 7.653637
0.562513 0.994666 8.154417
0.454452 0.781938 0.386000
0.396818 0.825987 0.947600
0.502979 0.962847 1.743646
0.693828 0.680939 6.082284
0.391241 0.445582 6.816559
0.576049 0.825078 7.782511
0.684948 0.939090 8.465436
0.632186 0.869408 9.130563
0.741752 0.866274 1.293975
0.726956 0.677522 6.080790
0.454565 0.600583 7.306450
0.658399 0.851697 8.017626
0.733312 0.906901 8.663795
0.791491 0.836062 1.324920
0.914556 0.842211 1.651824
0.720685 0.669116 6.092739
0.488056 0.511278 7.115501
0.636253 0.627890 7.718149
0.799717 0.853001 8.708622
0.795819 0.784671 9.163266
0.591566 0.754650 0.244264
0.679984 0.820221 1.134930
0.752659 0.665176 6.090119
0.463996 0.419020 6.869606
0.689083 0.597583 7.755927
0.899956 0.710001 8.325231
0.855356 0.770378 9.074720
0.697902 0.692410 0.267607
0.849426 0.765000 1.255040
1.021539 0.753703 1.574384
0.755268 0.662003 6.086216
0.449484 0.398386 6.812325
0.694691 0.516402 7.704889
0.965317 0.669912 8.428327
1.094594 0.703122 1.547143
1.763250 0.867567 3.854992
0.757152 0.660243 6.086509
0.457534 0.393977 6.820481
0.665870 0.486598 7.645131
1.010147 0.576886 8.337971
1.250822 0.568857 1.374318
2.017477 0.622809 3.945710
0.590313 0.391981 7.177518
0.823149 0.417570 7.794388
1.136124 0.506097 8.562458
1.137914 0.414615 9.250648
1.290428 0.515484 1.457651
0.725089 0.378562 7.608085
1.049721 0.418852 8.203067
1.255473 0.405444 0.779848
1.417738 0.366676 1.364212
2.107670 0.464871 4.023799
0.653356 0.357915 7.323892
0.911799 0.357882 7.894264
1.326702 0.270167 8.666010
1.256110 0.174446 9.346681
2.196113 0.208779 4.121913
1.070964 0.324665 8.077190
1.367896 0.191712 8.772459
1.486815 0.195078 1.468921
2.233166 0.078029 4.213850
2.230135 -0.003804 4.283156
1.553080 -0.040376 1.522130
1.542814 -0.391282 2.735098
2.186397 -0.168001 4.324152
1.765062 -0.483423 5.893249
1.589915 -0.341070 7.272469
1.543533 -0.251727 8.144950
1.471667 -0.042473 8.665701
1.296751 -0.005593 9.373506
1.553681 -0.104312 1.571207
1.519461 -0.317168 2.293069
1.757839 -0.509691 5.834822
1.584477 -0.342998 7.446005
1.562070 -0.319935 8.038717
1.537626 -0.504308 2.482482
1.552714 -0.535506 2.973197
1.913225 -0.551002 4.577477
1.708463 -0.653346 6.111993
1.636544 -0.561541 6.890646
1.594320 -0.419396 7.426830
1.558213 -0.415843 8.304134
1.528220 -0.576718 2.090654
1.523049 -0.619283 2.514882
1.591716 -0.666682 3.310263
1.675010 -0.771551 4.143468
1.679962 -0.762247 5.561787
1.680434 -0.767922 6.243203
1.632401 -0.641692 7.061326
1.506972 -0.744447 2.174564
1.534879 -0.760500 2.935632
1.566006 -0.783053 3.400659
1.615345 -0.869594 4.124576
1.588363 -0.901069 4.835343
1.617568 -0.892956 5.700393
1.672401 -0.879447 6.305836
1.634627 -0.809019 7.097725
1.590900 -0.866036 7.919699
1.515407 -0.827579 8.594188
1.330080 -0.737226 9.360905
1.457629 -0.917971 2.117677
1.469319 -0.907040 2.782096
1.516511 -0.941595 3.553962
1.568730 -0.960643 4.214189
1.483005 -1.033353 4.973484
1.566301 -1.041673 5.807560
1.624000 -1.096464 6.475908
1.592685 -1.040485 7.234596
1.568530 -1.015173 7.887250
1.484469 -1.016013 8.558565
1.278781 -1.006723 9.335780
1.381706 -1.071010 1.781367
1.430525 -0.982186 2.059518
1.423648 -0.998569 2.792825
1.444290 -1.063136 3.547456
1.453748 -1.126657 4.411015
1.439409 -1.081057 5.010197
1.540405 -1.114384 5.818720
1.581811 -1.191883 6.293487
1.521810 -1.213609 7.187445
1.519642 -1.149012 7.845678
1.267494 -1.070554 9.313699
1.260661 -1.268842 1.505823
1.332748 -1.146468 2.260829
1.348081 -1.117649 2.743261
1.335325 -1.205543 3.446941
1.377258 -1.235821 4.191936
1.332025 -1.217652 5.127545
1.418937 -1.250452 5.708614
1.476231 -1.376579 6.501674
1.452052 -1.340224 7.238807
1.410855 -1.329743 7.852866
1.358414 -1.293649 8.606672
1.234685 -1.223378 9.256086
1.091809 -1.358072 0.815868
1.155821 -1.392537 1.458709
1.193920 -1.309325 2.304433
1.254090 -1.249617 2.630976
1.197338 -1.364082 3.433551
1.209799 -1.405238 4.167557
1.338927 -1.555021 6.343636
1.357244 -1.481553 7.077754
1.221077 -1.482970 8.706175
1.213833 -1.258457 9.261473
1.081192 -1.371681 0.808118
1.119351 -1.439239 1.231388
1.041497 -1.443403 1.722155
1.083455 -1.415187 2.574007
1.049403 -1.490621 3.357174
1.096843 -1.497676 4.086139
1.196795 -1.630952 6.059747
1.191071 -1.650389 7.062593
1.192595 -1.613131 7.656672
1.134623 -1.566919 8.835754
1.028877 -1.509878 1.250351
0.903519 -1.535360 1.787703
0.991070 -1.486950 2.576900
0.953712 -1.547890 3.314319
0.972405 -1.572811 4.158354
1.027551 -1.588214 5.595244
1.107932 -1.742967 6.199168
1.053327 -1.714413 7.672816
1.002898 -1.728520 8.619903
0.914086 -1.566969 1.465114
0.832538 -1.564575 1.922601
0.828834 -1.587775 2.609271
0.890212 -1.587641 3.340179
0.855301 -1.637282 4.050792
0.791455 -1.613066 4.794206
0.838162 -1.732396 5.658299
0.975613 -1.822543 6.259801
0.929249 -1.834856 7.025011
0.885701 -1.814020 8.588332
0.748349 -1.640572 1.460601
0.674233 -1.653649 2.084859
0.672840 -1.682374 2.879120
0.667125 -1.713483 4.313150
0.705953 -1.702266 4.945872
0.761741 -1.883534 5.977307
0.769035 -1.931805 6.728991
0.737697 -1.920279 7.151078
0.661071 -1.937153 8.149656
0.686689 -1.880440 8.798597
0.539492 -1.733158 1.496311
0.536277 -1.726264 2.475858
0.521397 -1.763535 3.575713
0.539148 -1.747947 4.429874
0.546926 -1.932617 5.781908
0.548111 -2.016439 6.658122
0.560082 -1.989310 7.202772
0.538351 -1.974897 7.987726
0.586746 -1.930403 8.687399
0.321707 -1.834706 9.427594
0.389681 -1.767362 2.173957
0.383457 -1.806093 3.591264
0.406489 -1.805018 4.297733
0.381741 -1.995985 5.784583
0.365093 -2.039702 7.370063
0.373395 -2.026020 8.188308
0.303906 -1.679924 0.935497
0.188572 -1.834585 1.586226
0.260020 -1.803358 2.233294
0.199246 -1.827349 2.906862
0.240614 -1.834097 3.577178
0.178763 -1.947820 5.189639
0.241418 -2.043357 5.785749
0.233257 -2.105917 6.550887
0.190585 -2.082991 7.285276
0.207284 -2.047620 8.173839
0.248080 -1.990747 8.766969
0.119921 -1.853616 9.501352
0.062757 -1.835753 1.892665
0.035915 -1.855222 3.153769
-0.100579 -1.857672 1.778455
-0.103522 -1.858487 3.037073
-0.155786 -1.882230 3.941090
-0.183002 -1.858885 4.377797
-0.181845 -2.091525 5.828080
-0.167930 -2.129621 6.624795
-0.169758 -2.085238 7.314629
-0.197203 -2.038213 8.060874
-0.210237 -1.985334 8.745525
-0.239733 -1.868120 1.533029
-0.231336 -1.850076 2.160832
-0.320699 -1.847458 2.893579
-0.297437 -1.849372 3.538142
-0.355920 -1.844045 4.463680
-0.312105 -1.906363 5.121214
-0.369484 -2.058484 5.830191
-0.358775 -2.065081 7.280546
-0.406540 -2.003069 8.025837
-0.394788 -1.937046 8.893512
-0.286481 -1.811807 9.560974
-0.449825 -1.857404 1.507548
-0.432184 -1.837139 2.154411
-0.486453 -1.826276 2.800949
-0.452637 -1.834169 3.747860
-0.463910 -1.836037 4.273783
-0.547547 -1.852350 5.177680
-0.534298 -2.001212 5.811458
-0.538433 -2.019445 7.307220
-0.569107 -1.959929 8.016548
-0.483481 -1.958931 8.608294
-0.322620 -1.813409 9.540598
-0.626738 -1.818646 1.667541
-0.631532 -1.792609 2.672589
-0.598234 -1.794030 3.429648
-0.663011 -1.786499 4.214678
-0.714454 -1.884168 5.712330
-0.835432 -1.958516 6.723406
-0.697817 -1.931485 7.907113
-0.734182 -1.784484 1.647782
-0.787687 -1.731487 2.595487
-0.805281 -1.703449 2.943231
-0.767942 -1.747389 3.793434
-0.796712 -1.739496 4.437248
-0.791530 -1.748947 5.320989
-0.934344 -1.897845 6.718965
-0.863421 -1.873575 7.438160
-1.058852 -1.645585 1.052921
-0.922291 -1.704511 1.706867
-1.003271 -1.629689 2.217960
-0.952345 -1.629612 2.921797
-0.886529 -1.695795 3.958754
-0.933577 -1.692688 4.275645
-0.895867 -1.716729 5.339190
-0.961979 -1.771876 5.905189
-1.027730 -1.836228 6.609967
-1.059355 -1.748544 7.407217
-1.024410 -1.734040 8.078340
-1.192826 -1.552468 1.022606
-1.115737 -1.588462 1.737815
-1.071646 -1.554348 2.500487
-1.059296 -1.579506 3.111921
-0.940937 -1.677966 4.092645
-1.044499 -1.660333 4.495034
-1.142438 -1.634774 6.043492
-1.127779 -1.740199 6.672166
-1.163737 -1.628208 7.613164
-1.179189 -1.581526 8.088722
-1.239442 -1.475384 1.764203
-1.194081 -1.442945 2.373765
-1.109436 -1.545624 3.029249
-1.277541 -1.620205 4.702632
-1.274323 -1.609275 5.180012
-1.165268 -1.615292 6.072647
-1.269836 -1.541225 7.065838
-1.289284 -1.465091 7.655333
-1.264518 -1.481581 8.051437
-1.266683 -1.340145 0.741510
-1.357536 -1.360363 1.436960
-1.322739 -1.333870 2.024580
-1.219658 -1.608151 6.201599
-1.395530 -1.330933 7.219617
-1.361378 -1.326590 7.601387
-1.416335 -0.995281 0.658284
-1.409775 -1.124204 0.876308
-1.413345 -1.182872 2.152599
-1.421989 -1.215421 7.468258
-1.429682 -1.130769 8.074991
-1.558079 -0.969036 1.673232
-1.457323 -1.032115 2.369413
-1.843520 -1.309425 5.002941
-1.478549 -0.930535 8.039032
-1.569278 -0.844107 1.107871
-1.587202 -0.884232 1.591155
-1.507350 -0.907289 2.263867
-2.005255 -1.058066 4.546019
-1.884087 -1.252105 4.990973
-1.605583 -1.017587 7.282643
-1.493899 -0.823448 8.052282
-1.468295 -0.546824 8.941397
-1.300564 -0.409112 9.495547
-1.615560 -0.677278 1.111794
-1.616582 -0.765788 1.546953
-1.526639 -0.784570 2.231247
-2.034187 -0.882113 4.400659
-1.623995 -0.921987 7.390886
-1.472573 -0.659824 8.093591
-1.292029 -0.375229 9.523282
-1.628905 -0.532367 0.972732
-1.632298 -0.567918 1.444900
-1.551735 -0.530172 2.059236
-2.024623 -0.691852 4.295830
-1.471528 -0.356698 8.937244
-1.607477 -0.318385 0.772438
-1.628388 -0.455740 1.444083
-1.554412 -0.345078 1.990013
-1.972596 -0.457644 4.175668
-0.830857 0.011259 7.076077
-1.191564 -0.109589 8.048027
-1.413284 -0.320312 8.442450
-1.319538 -0.281382 9.442621
-1.625886 -0.259232 0.788580
-1.604181 -0.302943 1.469752
-1.512342 -0.194205 2.101371
-1.399920 0.014865 2.786213
-1.444553 0.165015 5.099036
-1.089739 0.155636 5.827344
-0.819944 0.010959 6.702543
-0.827223 0.043729 7.486691
-1.251421 -0.060174 8.237381
-1.431747 -0.164033 8.999422
-1.246939 -0.116751 9.538850
-1.602493 -0.078150 0.801548
-1.535441 -0.112112 1.671609
-1.507044 -0.092951 2.032170
-1.339956 0.128211 2.713557
-1.928459 -0.107618 4.173039
-1.440686 0.165765 5.119250
-1.052166 0.170422 5.874115
-0.774123 0.062956 6.748815
-0.796965 0.082622 7.435807
-1.162409 -0.010231 8.057272
-1.380162 -0.036584 8.838371
-1.230453 -0.027551 9.525784
-1.592283 0.038296 0.882258
-1.453573 0.053437 2.055001
-1.279149 0.222684 2.777561
-1.776071 0.116464 3.789839
-1.808772 0.217968 4.393673
-1.435377 0.175846 5.138075
-1.039795 0.144119 5.961970
-0.682572 0.125782 6.704473
-0.775843 0.112862 7.398968
-1.178102 0.083750 8.188050
-1.321917 0.083567 8.906859
-1.148256 0.170747 9.543712
-1.496150 0.169940 0.776519
-1.478492 0.217133 1.210858
-1.403844 0.177408 2.056850
-1.831003 0.195949 4.001784
-1.459360 0.272170 5.011204
-1.109271 0.180576 5.783532
-0.780649 0.122058 6.461255
-0.791933 0.103544 7.422298
-1.123574 0.170314 8.030246
-1.179109 0.279847 8.619488
-1.151098 0.187454 9.501297
-1.416376 0.245653 0.692223
-1.429549 0.260898 1.043660
-1.341324 0.277400 1.862350
-1.756935 0.489169 4.151241
-1.485893 0.456110 4.924963
-1.099622 0.246752 5.738808
-0.747751 0.120809 6.588400
-0.765162 0.226199 7.207637
-1.060830 0.270983 7.896466
-1.162669 0.337391 8.481462
-1.140614 0.285619 9.269824
-1.219751 0.348463 0.590186
-1.295659 0.436900 1.213608
-1.243345 0.400190 1.690090
-1.219618 0.431764 2.320455
-1.555772 0.562124 3.796663
-1.690495 0.546802 4.407909
-1.400091 0.418026 5.145220
-0.740211 0.316883 7.040990
-0.952684 0.361159 7.683416
-1.133523 0.420205 8.573879
-1.117189 0.385424 9.004695
-1.186539 0.488970 1.525990
-1.480642 0.672855 3.810148
-1.649971 0.717794 4.311387
-1.428392 0.459121 5.030726
-0.978418 0.332711 5.844563
-0.556655 0.259931 6.638772
-1.094810 0.523516 8.351683
-1.075691 0.502527 8.821946
-1.356241 0.749888 3.719479
-0.706475 0.401961 6.963001
-0.856638 0.508856 7.533657
-1.056581 0.613459 8.450554
-1.005079 0.576493 8.853421
-0.915316 0.670496 1.872928
-0.873513 0.670403 2.301102
-1.379251 0.872018 3.932898
-0.683696 0.472239 6.980538
-0.805861 0.593900 7.495623
-1.010022 0.688633 8.387766
-0.916429 0.653000 8.963999
-0.240717 0.352279 0.282506
-0.426211 0.569208 0.972657
-0.805168 0.733634 1.801820
-0.762834 0.714876 2.515019
-0.932969 0.726016 3.254991
-1.352134 0.861107 3.880450
-0.616785 0.560028 6.876778
-0.871526 0.754768 7.851912
-0.949537 0.760238 8.415985
-0.817678 0.643467 9.443203
-0.844200 0.771861 1.392160
-0.766171 0.751759 1.895825
-0.696050 0.726206 2.774283
-0.763895 0.738361 3.224543
-0.590168 0.637758 5.504033
-0.612116 0.563174 7.148143
-0.835657 0.836787 8.020384
-0.849410 0.802037 8.692713
-0.687490 0.786618 9.230128
-0.525725 0.758313 0.786387
-0.704253 0.805507 1.711687
-0.650625 0.791432 2.243183
-0.603950 0.736248 2.998892
-0.622658 0.848659 3.873304
-0.522564 0.545132 6.724355
-0.704162 0.856847 7.559046
-0.751534 0.920899 8.087419
-0.705270 0.870212 8.868090
-0.410009 0.709586 9.575815
-0.360006 0.541928 1.019779
-0.657852 0.825419 1.726000
-0.621040 0.803632 2.429817
-0.528503 0.849856 3.831440
-0.500598 0.905981 4.495611
-0.402136 0.707319 5.247880
-0.336137 0.572621 6.061240
-0.556914 0.704954 7.001562
-0.624544 0.906212 7.501541
-0.695785 0.980400 8.143591
-0.624918 0.882563 9.071949
-0.225635 0.419015 0.257731
-0.422985 0.637116 0.893064
-0.527523 0.879357 1.694016
-0.503496 0.856208 2.268356
-0.494292 0.777486 3.020362
-0.437181 0.865912 3.599810
-0.456355 0.879467 4.641428
-0.406293 0.704716 5.301403
-0.354326 0.636222 5.895992
-0.448558 0.924373 6.941191
-0.574075 0.989420 7.576041
-0.613783 1.039715 8.139360
-0.521692 0.902332 9.157784
-0.225741 0.354371 0.299770
-0.272468 0.533168 1.139294
-0.440498 0.892429 1.757525
-0.416379 0.865356 2.374078
-0.388723 0.834113 3.278817
-0.446880 0.871277 3.956061
-0.416099 0.847999 4.741699
-0.350845 0.711751 5.231614
-0.326502 0.612679 6.004492
-0.464577 1.059436 7.555003
-0.335042 0.868022 9.351459
-0.209143 0.358401 0.320233
-0.268016 0.539227 1.121469
-0.354261 0.915916 1.644007
-0.309126 0.871923 2.585137
-0.285234 0.871025 3.409952
-0.313903 0.882123 3.914789
-0.310759 0.820929 4.794906
-0.217873 0.614318 5.636738
-0.214631 0.553585 6.303544
-0.301328 0.861864 7.119896
-0.347915 1.116338 7.669378
-0.346278 1.107731 8.459559
-0.294042 0.902522 9.253525
-0.248396 0.536303 1.149132
-0.239049 0.891232 1.801802
-0.244510 0.863607 2.570132
-0.265810 0.873857 3.402214
-0.226004 0.911530 4.261077
-0.144065 0.758298 4.851548
-0.164550 0.611602 5.567384
-0.113839 0.351533 6.452811
-0.084037 0.654519 7.290671
-0.251907 1.157568 7.853356
-0.272042 1.125439 8.517815
-0.182730 0.882411 9.411836
-0.160854 0.594807 1.222064
-0.147025 0.893186 2.015883
-0.152973 0.853445 2.631983
-0.149574 0.897268 3.473780
-0.128682 0.910109 4.037078
-0.125518 0.747669 4.875864
-0.106279 0.594788 5.725000
-0.067527 0.334083 6.502281
-0.023339 0.654400 7.303373
-0.183803 1.154944 7.794015
-0.148009 1.145091 8.729528
-0.139006 0.892243 9.371132
-0.070373 0.894921 2.002194
-0.100115 0.853379 2.948597
-0.096054 0.898792 3.606100
-0.110736 0.923452 4.119695
-0.101385 0.741695 5.109415
-0.089272 0.589946 5.716836
-0.054483 0.318136 6.527042
0.052208 0.652961 7.336936
-0.071433 1.173946 8.138463
-0.068628 1.133694 8.729351
-0.054342 0.866515 9.472536
0.012527 0.966464 1.473598
-0.028570 0.905356 2.171293
-0.053490 0.842595 2.959095
-0.028309 0.895954 3.501541
-0.070599 0.932905 4.289386
-0.085512 0.719369 5.014701
-0.003869 0.605750 6.055498
0.091282 0.550109 6.782191
0.073981 0.711993 7.274261
0.039935 1.170563 8.236442
-0.030311 1.137368 8.727378
-0.009113 0.787708 9.598161
0.038071 0.615466 0.430675
0.163838 0.852439 1.134421
0.060909 0.915040 1.808480
0.065420 0.807086 2.513776
-0.010381 0.893209 3.463269
-0.011860 0.573972 6.233920
0.103851 0.842935 6.999487
0.116221 1.136601 7.765659
0.096283 1.151109 8.634640
0.045987 0.916002 9.379022
0.064428 0.632670 0.435738
0.161671 0.953164 1.344459
0.187869 0.931804 1.812705
0.036462 0.810989 2.705964
0.018539 0.897724 3.356170
0.115395 1.059307 4.029304
0.140192 0.855558 7.066888
0.190431 1.104868 7.742609
0.221258 1.146319 8.444256
0.106965 0.906510 9.380846
0.181883 0.764875 0.418485
0.240466 0.949537 1.342516
0.241726 0.940317 1.914217
0.193270 0.806004 6.992972
0.341954 1.031274 7.757825
0.366240 1.096900 8.410220
0.191665 0.881279 9.460031
0.304502 0.777903 0.285730
0.327239 0.946680 1.908274
0.119098 0.826798 2.425672
0.293297 0.750276 7.064315
0.379612 0.967014 7.688567
0.449160 1.067578 8.423723
0.373678 0.972511 1.568615
0.347487 0.942172 1.926535
0.474665 1.284212 3.680595
0.362185 0.661909 7.322741
0.504638 0.962382 7.894692
0.575111 0.997688 8.669197
0.314701 0.855455 9.470045
0.379306 0.929694 1.980412
0.411359 0.630697 7.400055
0.559985 0.906454 7.907732
0.713994 0.889109 8.906013
0.305738 0.833741 9.519153
0.440163 0.787910 0.274572
0.546774 0.842701 1.087854
0.661477 0.923501 1.699349
0.660264 0.676726 6.112366
0.424015 0.569054 7.114366
0.606077 0.764544 7.766123
0.763837 0.889981 8.504058
0.689702 0.834875 9.160073
0.530994 0.789200 0.264108
0.749707 0.667273 6.089826
0.457073 0.450098 6.914624
0.596271 0.608153 7.647367
0.840395 0.822189 8.465126
0.796201 0.822995 9.002745
0.592184 0.754138 0.245767
0.830065 0.799520 1.309411
0.498808 0.442787 6.954029
0.688949 0.598321 7.755377
0.896553 0.770534 8.496045
1.045763 0.758473 1.459405
0.983532 0.761254 1.739157
0.499214 0.416332 6.921280
0.683839 0.511756 7.681610
0.957426 0.671587 8.394642
0.878580 0.742791 9.096347
0.852741 0.620061 0.328698
1.093926 0.699845 1.489176
1.771767 0.861145 3.859091
0.757931 0.657685 6.075040
0.457706 0.394038 6.820655
0.608672 0.452976 7.521394
0.960266 0.545785 8.200418
1.026378 0.616477 9.036908
1.136045 0.663474 1.632015
2.009712 0.636414 3.937604
0.761735 0.656170 6.076440
0.570010 0.377290 6.994429
0.754209 0.450799 7.730102
1.059004 0.523985 8.360318
1.315628 0.477898 1.145527
1.257312 0.537927 1.532595
1.023079 0.402274 8.132571
1.229856 0.411319 8.741068
1.228376 0.416547 0.734573
1.375570 0.423397 1.370608
0.981885 0.373825 8.032924
1.319728 0.287097 8.779577
1.148637 0.436277 0.620855
1.453482 0.305954 1.351633
1.388050 0.233754 1.768059
2.186362 0.255063 4.098045
0.611467 0.344937 7.141211
0.911696 0.355440 7.895949
1.354879 0.216405 8.669866
1.520221 0.113492 1.401620
1.462848 0.057265 1.796841
2.200290 0.155664 4.113624
1.422815 0.091514 8.695825
1.289431 0.117592 9.331766
1.535662 0.069737 1.476146
1.487019 -0.001331 1.795886
2.231019 -0.000379 4.277040
1.474610 -0.152291 7.826255
1.450752 0.030946 8.694559
1.293844 0.069651 9.331015
1.552972 -0.040591 1.523006
1.492924 -0.150479 2.024706
2.170291 -0.072597 4.153708
2.083802 -0.321352 4.621559
1.817329 -0.430349 5.704154
1.577533 -0.314278 7.379590
1.536788 -0.242209 7.841735
1.494401 -0.101692 8.554943
1.301309 -0.046499 9.395363
1.553782 -0.103029 1.569718
1.519563 -0.316332 2.295392
1.550656 -0.431733 2.845427
2.091112 -0.335800 4.450006
1.759842 -0.493833 5.898976
1.616556 -0.438022 7.017073
1.594037 -0.385249 7.306693
1.550722 -0.289297 8.348050
1.533509 -0.338111 1.801356
1.529455 -0.441560 2.321596
1.555262 -0.529774 3.000707
1.638248 -0.687219 3.730323
1.939216 -0.522185 4.521284
1.728783 -0.583627 5.980072
1.623226 -0.498176 7.084538
1.601251 -0.423276 7.356369
1.553312 -0.416088 8.393634
1.530141 -0.556982 2.214758
1.574859 -0.657972 3.234077
1.654831 -0.765304 3.991121
1.639995 -0.687892 6.991719
1.611169 -0.701697 7.650265
1.580080 -0.579273 8.172071
1.504805 -0.707998 2.023321
1.521762 -0.765863 2.799866
1.576867 -0.774147 3.452260
1.635435 -0.869693 4.296387
1.623259 -0.867705 5.728707
1.672357 -0.877456 6.304752
1.647305 -0.827767 6.967950
1.606235 -0.797798 7.785366
1.555110 -0.765413 8.423887
1.339596 -0.690068 9.345700
1.477872 -0.841818 1.938997
1.485077 -0.843487 2.456335
1.576127 -0.904523 3.902687
1.540773 -0.966264 5.206128
1.593695 -0.997779 5.857835
1.661496 -0.989582 6.575373
1.567907 -1.008301 7.940177
1.418814 -1.004660 1.859100
1.421584 -1.001342 2.390977
1.418497 -1.010117 2.869985
1.467312 -1.104958 4.409171
1.533386 -1.176261 7.687995
1.339889 -1.114278 1.993193
1.342937 -1.129808 2.292375
1.406520 -1.203469 4.157771
1.379031 -1.219495 4.392189
1.350976 -1.221786 5.246186
1.452615 -1.338169 7.344485
1.091746 -1.355120 0.808061
1.185451 -1.332908 0.972460
1.251083 -1.248644 2.699655
1.222568 -1.326698 3.261680
1.282879 -1.340436 4.204809
1.251274 -1.304773 4.626385
1.275791 -1.389017 5.673533
1.344736 -1.548667 6.306447
1.395344 -1.457599 7.036763
1.350062 -1.426832 7.775367
1.176367 -1.429254 9.104897
1.081603 -1.374925 0.816714
1.110229 -1.452548 1.287786
1.043073 -1.426541 1.930868
1.084925 -1.414540 2.595172
1.074708 -1.474135 3.373595
1.097897 -1.496991 4.086332
1.081716 -1.400035 4.734596
1.143229 -1.497575 5.579858
1.225124 -1.659798 6.288656
1.223578 -1.610581 7.195651
1.174482 -1.608737 7.771076
1.105582 -1.622000 8.700349
1.157932 -1.441835 9.122346
1.019621 -1.462562 0.931626
0.906300 -1.524749 1.816081
0.980974 -1.493472 2.350402
0.970273 -1.540895 3.319380
0.988024 -1.566028 3.971079
0.894748 -1.552100 4.762284
0.981650 -1.574082 5.253264
1.130979 -1.726467 6.260879
1.067962 -1.759156 6.633168
1.073489 -1.713724 7.476841
0.949009 -1.424280 0.763524
0.874367 -1.559772 1.738665
0.829463 -1.587434 2.609600
0.890937 -1.587314 3.340420
0.862399 -1.635742 4.076309
0.822389 -1.605562 4.856255
0.839357 -1.732473 5.657676
0.985224 -1.804404 6.098857
0.939358 -1.827904 7.010748
0.949359 -1.777274 7.727319
0.887149 -1.815837 8.557360
0.746667 -1.645041 1.531958
0.699948 -1.643051 2.098628
0.688216 -1.670037 2.727127
0.764528 -1.650358 3.279501
0.755314 -1.688137 4.052420
0.732468 -1.803322 5.723265
0.790665 -1.924769 6.354377
0.740219 -1.925359 7.095479
0.779270 -1.873803 7.837721
0.731965 -1.888158 8.593223
0.549652 -1.704943 2.072202
0.564185 -1.719215 2.715224
0.559779 -1.742126 3.450009
0.556724 -1.765514 4.242081
0.618831 -1.718784 4.753893
0.611944 -1.872980 5.733287
0.596727 -1.998605 6.475954
0.634329 -1.969160 7.055664
0.612949 -1.956682 7.795434
0.580669 -1.939504 8.665091
0.487733 -1.859288 9.115206
0.402028 -1.651842 0.924207
0.412065 -1.774622 1.517248
0.386812 -1.768176 2.202633
0.459251 -1.757991 2.755823
0.383802 -1.805958 3.590465
0.423838 -1.790788 4.376265
0.337519 -1.873092 5.054654
0.417128 -1.984222 5.779749
0.419205 -2.049823 6.561249
0.398446 -2.032974 7.310641
0.380370 -2.019811 8.032300
0.424468 -1.996479 8.598791
0.229831 -1.863974 9.448076
0.304553 -1.680588 0.938245
0.216564 -1.825063 1.613990
0.254799 -1.804387 2.178754
0.184198 -1.831808 2.935994
0.261934 -1.835787 3.626398
0.245601 -1.842359 4.280992
0.198423 -1.915348 5.096114
0.242517 -2.043136 5.785553
0.242877 -2.100981 6.534033
0.194013 -2.083695 7.250819
0.218621 -2.044374 8.139581
0.155886 -1.857205 9.490169
0.197880 -1.717650 0.998100
0.048839 -1.851745 1.481458
0.099738 -1.828178 2.169780
0.032555 -1.853958 3.018849
0.062940 -1.862287 3.669269
0.060983 -1.863801 4.287476
-0.023260 -1.939720 5.090424
0.048457 -2.103348 5.902760
0.062036 -2.135556 6.371495
0.038038 -2.093668 7.343985
0.047272 -2.044968 8.049490
0.053150 -2.000699 8.753588
0.002586 -1.848635 9.531208
0.029156 -1.766253 1.086853
-0.084268 -1.860789 1.472737
-0.058513 -1.842696 2.097937
-0.102805 -1.858500 3.036391
-0.121658 -1.868040 3.725325
-0.128968 -1.869024 4.280528
-0.127680 -1.927136 5.057617
-0.132696 -2.088438 5.793386
-0.090317 -2.139385 6.557306
-0.140872 -2.086498 7.333285
-0.156604 -2.040759 8.064460
-0.166902 -1.990096 8.745226
-0.154016 -1.839941 9.557950
-0.252533 -1.866927 1.557030
-0.177039 -1.849325 2.054675
-0.201736 -1.858838 3.027842
-0.277493 -1.850086 3.544354
-0.342684 -1.841748 4.414635
-0.296882 -1.901221 5.105478
-0.367528 -2.059024 5.830633
-0.353304 -2.110423 6.662077
-0.347298 -2.056118 7.380924
-0.370701 -2.015735 7.980644
-0.305962 -1.986702 8.716582
-0.284007 -1.812357 9.560921
-0.423223 -1.850125 1.657878
-0.495010 -1.826624 2.552452
-0.404167 -1.835966 3.024225
-0.411220 -1.845068 3.813410
-0.488422 -1.822595 4.559604
-0.520242 -1.854405 5.105797
-0.596427 -2.054807 6.771451
-0.517564 -2.019048 7.371003
-0.436190 -1.957941 8.724882
-0.640189 -1.804342 1.837817
-0.595076 -1.800918 2.735172
-0.621646 -1.804448 4.075016
-0.614899 -1.779451 4.569206
-0.679808 -1.902273 5.677006
-0.673258 -1.939244 5.859038
-0.834322 -1.958967 6.723226
-0.705771 -1.799319 1.594611
-0.769263 -1.755567 2.096600
-0.753761 -1.739196 2.687589
-0.771601 -1.741052 3.668519
-0.751631 -1.755823 4.294409
-0.785949 -1.735169 4.761078
-0.816953 -1.851238 5.847970
-0.938313 -1.895146 6.615807
-0.833353 -1.922216 7.197724
-0.849930 -1.851287 7.994511
-0.510211 -1.814491 9.385469
-1.060130 -1.620404 0.991880
-0.908855 -1.712584 1.713108
-0.929683 -1.662690 2.441100
-0.964622 -1.628500 2.983906
-0.881602 -1.697993 3.985147
-0.938950 -1.696813 4.508107
-0.867348 -1.726098 5.289456
-0.989819 -1.769321 6.002655
-1.045757 -1.755724 7.470876
-1.046718 -1.723435 8.061741
-1.168424 -1.577141 1.029674
-1.096267 -1.609479 1.689809
-1.055935 -1.564565 2.543323
-1.079589 -1.561680 3.002791
-0.951275 -1.655935 3.744462
-1.037828 -1.674193 4.558459
-1.166826 -1.638623 6.134715
-1.122068 -1.755372 6.630891
-1.187979 -1.597393 8.019791
-1.248998 -1.505591 1.141265
-1.222588 -1.458091 1.973287
-1.189199 -1.444015 2.528356
-1.108895 -1.545842 3.030302
-1.263250 -1.613844 4.659086
-1.273918 -1.609342 5.179863
-1.297208 -1.448922 7.595113
-1.284699 -1.406140 8.137143
-1.249377 -1.353917 0.727809
-1.321292 -1.334376 2.049396
-1.291200 -1.340089 2.498684
-1.226688 -1.613853 6.233296
-1.405476 -1.319842 7.289536
-1.378609 -1.299873 7.705098
-1.400859 -1.036103 0.661003
-1.408566 -1.262454 1.779771
-1.394659 -1.175613 2.306354
-1.746087 -1.390584 5.054654
-1.481716 -1.186225 7.364516
-1.435030 -1.109367 8.050153
-1.535283 -1.007514 1.720215
-1.457191 -1.032790 2.369048
-1.963447 -1.192198 4.648464
-1.843020 -1.310153 5.002683
-1.540205 -1.100565 7.335997
-1.480958 -0.918783 8.065981
-1.574044 -0.899073 1.176585
-1.593167 -0.886904 1.494973
-1.507188 -0.908055 2.263799
-2.029319 -0.948221 4.409568
-1.880096 -1.267229 4.988481
-1.502647 -0.817818 8.136069
-1.300848 -0.413076 9.496683
-1.619620 -0.724581 1.520279
-1.532485 -0.728774 2.188198
-2.020669 -0.990692 4.529031
-1.958874 -1.130863 4.865189
-1.625872 -0.923260 7.387095
-1.486710 -0.752861 8.058724
-1.606694 -0.524593 0.853622
-1.639239 -0.622865 1.454578
-1.542729 -0.572891 2.146228
-2.024399 -0.692201 4.293977
-1.625681 -0.909622 7.388109
-1.362971 -0.422682 8.067828
-1.476761 -0.367586 8.897900
-1.300074 -0.374439 9.503040
-1.619353 -0.439689 1.473950
-1.548968 -0.364234 2.075201
-1.972860 -0.458979 4.176050
-0.851777 0.014149 6.598077
-1.214871 -0.121728 8.091277
-1.461817 -0.293321 8.838890
-1.652185 -0.239222 0.914713
-1.595252 -0.268127 1.553383
-1.879539 -0.161422 3.903662
-0.810486 0.025069 6.789453
-0.952957 -0.033297 7.666735
-1.255358 -0.093617 8.198044
-1.621321 -0.053534 0.898196
-1.510404 -0.050006 1.773639
-1.890068 -0.084241 3.956753
-0.834153 0.032299 6.759850
-0.828244 0.044335 7.487126
-1.298336 -0.005496 8.522949
-1.380115 -0.049069 9.048821
-1.464780 0.073922 1.879539
-1.379037 0.115776 5.316931
-1.142424 0.075369 8.027106
-1.246063 0.130496 9.288179
-1.583237 0.111409 0.934296
-1.453596 0.137015 1.559234
-1.413886 0.150759 2.054896
-1.269011 0.248682 2.771325
-1.746133 0.165436 3.755833
-1.846148 0.219324 4.105452
-1.449010 0.214620 5.094441
-1.049543 0.190474 5.854565
-0.581367 0.190711 6.651210
-0.809972 0.084986 7.473373
-1.165546 0.144933 8.197062
-1.241495 0.198194 8.880143
-1.137765 0.183672 9.558583
-1.526116 0.187850 0.915568
-1.357210 0.323142 1.415813
-1.323768 0.309130 2.254532
-0.995294 0.250996 5.894963
-0.722208 0.162879 6.850645
-0.889982 0.224275 7.573678
-1.140888 0.296996 8.203211
-1.158675 0.323953 8.866769
-1.281771 0.385875 1.561801
-1.544127 0.500121 3.704771
-0.703781 0.227518 6.843790
-0.786764 0.252066 7.392440
-1.139582 0.365406 8.316152
-1.117014 0.384615 9.061617
-1.216005 0.490818 1.169979
-1.168853 0.475035 1.818688
-1.481398 0.655259 3.793766
-0.679072 0.323707 6.837422
-0.826074 0.326928 7.439971
-1.109218 0.500543 8.413424
-1.064109 0.489212 8.880621
-1.151897 0.553785 1.269583
-1.059001 0.564567 2.137591
-0.978982 0.568867 2.727867
-1.319895 0.695614 3.612407
-1.550030 0.807747 4.102977
-1.452075 0.495216 4.965371
-0.873098 0.441927 5.738574
-0.502124 0.282203 6.575143
-0.716744 0.403417 7.174416
-1.025945 0.536046 7.966238
-1.066771 0.568488 8.664671
-0.945643 0.473383 9.527194
-1.084495 0.608156 1.303558
-0.959123 0.643199 2.087412
-0.930257 0.651571 3.067141
-1.240043 0.771953 3.593458
-1.508906 0.865681 4.131646
-0.748982 0.500490 5.808985
-0.399874 0.273434 6.569510
-0.954459 0.685868 8.033320
-1.007403 0.644486 8.707596
-0.812478 0.553733 9.545112
-0.908933 0.726400 1.408729
-0.893215 0.673619 2.003487
-0.814634 0.653049 2.996176
-1.192926 0.839095 3.813023
-0.481552 0.336906 6.612387
-0.701741 0.466921 7.319807
-0.928911 0.773365 8.225945
-0.892444 0.716003 8.808196
-0.650870 0.618387 9.539346
-0.625816 0.738843 0.740312
-0.811893 0.782715 1.435463
-0.751447 0.747659 2.257083
-0.695997 0.704616 3.059299
-0.593444 0.529150 6.809943
-0.758433 0.701045 7.499945
-0.832624 0.855621 8.135433
-0.759093 0.799907 9.017425
-0.554665 0.653296 9.577791
-0.715906 0.819445 1.542965
-0.681856 0.775592 2.331889
-0.638876 0.718414 2.984750
-0.652373 0.852033 3.856916
-0.509334 0.487145 6.686059
-0.750212 0.919061 8.014423
-0.747122 0.861125 8.806543
-0.474584 0.689194 9.593316
-0.555854 0.759784 0.703365
-0.627879 0.876660 1.509782
-0.579672 0.832245 2.088630
-0.555701 0.819410 2.715927
-0.467204 0.860030 3.527409
-0.485550 0.906484 4.445583
-0.427063 0.783499 5.022908
-0.315552 0.614744 5.863042
-0.259616 0.384081 6.466796
-0.679000 1.001579 8.115500
-0.653937 0.946361 8.831613
-0.530034 0.783813 9.413414
-0.520862 0.813271 0.746852
-0.569741 0.898481 1.475663
-0.551314 0.862381 1.861006
-0.480673 0.856979 2.626133
-0.397987 0.861064 3.458479
-0.397682 0.881356 4.184774
-0.349620 0.731218 5.139050
-0.253586 0.573767 5.772366
-0.210255 0.391872 6.377039
-0.440211 0.692961 7.299965
-0.591471 1.038322 7.938236
-0.535989 1.007536 8.662502
-0.377676 0.763832 9.524139
-0.223898 0.419620 0.259371
-0.436243 0.725422 0.853529
-0.482462 0.930944 1.538126
-0.433334 0.874813 2.128199
-0.415128 0.823511 2.916223
-0.450145 0.871071 3.931922
-0.404554 0.890978 4.580515
-0.377135 0.701638 5.284153
-0.335418 0.642777 5.862627
-0.415316 0.923822 6.884533
-0.503978 1.054169 7.608191
-0.512525 1.090432 8.207869
-0.471249 0.993447 9.015834
-0.414176 0.794285 0.829945
-0.414849 0.933005 1.569414
-0.338851 0.883930 2.135153
-0.311772 0.853811 2.845970
-0.332029 0.873278 3.495378
-0.314608 0.893799 4.241152
-0.214017 0.723416 5.090846
-0.295774 0.641219 5.953971
-0.351996 0.976193 6.931595
-0.394898 1.051488 7.425080
-0.388592 1.155333 7.948983
-0.389300 1.062418 8.940138
-0.242341 0.761839 9.576119
-0.253444 0.948771 1.431682
-0.259407 0.894470 2.206181
-0.230588 0.862382 2.772131
-0.245830 0.893226 3.539954
-0.247215 0.908672 4.321853
-0.177704 0.727437 5.042854
-0.291357 0.997519 6.937569
-0.299170 1.125554 7.562472
-0.250324 1.153047 7.938843
-0.235197 1.053754 8.986535
-0.173376 0.784871 9.581669
-0.194590 0.569860 1.181786
-0.169583 0.895446 1.807947
-0.136812 0.869679 2.433825
-0.158006 0.870143 3.267158
-0.175441 0.917306 4.127525
-0.131263 0.716509 4.997482
-0.141598 0.591574 5.701036
-0.110807 0.448567 6.383194
-0.044975 0.756508 7.072165
-0.195142 1.162815 7.874172
-0.156935 1.151139 8.697920
-0.146708 0.908216 9.301069
-0.059484 0.521610 0.391813
-0.074863 0.850186 1.466483
-0.107790 0.900220 2.091914
-0.094195 0.846678 2.814833
-0.085607 0.888393 3.397282
-0.110870 0.923534 4.119870
-0.100994 0.724894 5.045608
-0.016688 0.877597 7.019059
-0.093106 1.151096 7.752948
-0.051022 1.150342 8.684931
-0.053095 0.889103 9.450309
-0.009692 0.894472 1.972655
-0.057208 0.841675 2.862472
-0.072198 0.909034 3.727080
-0.041176 0.946651 4.158097
-0.087167 0.720549 4.995144
-0.086155 0.600572 5.671754
-0.022670 0.333527 6.519617
0.031628 1.178542 8.104191
-0.001565 1.152577 8.686726
-0.008196 0.852936 9.515609
0.083972 0.947562 1.574403
0.050765 0.850304 2.374698
-0.030508 0.852290 3.005426
-0.033670 0.917060 3.878397
-0.059844 0.905512 4.469768
-0.032708 0.733663 5.092476
0.014998 0.606031 6.133284
0.083513 0.850204 6.958192
0.103783 1.110444 7.683285
0.136006 1.163782 8.220640
0.096225 0.757382 1.146350
0.148864 0.929089 2.005227
0.041242 0.813357 2.682800
0.020371 0.903701 3.544539
0.117784 1.053116 4.033113
0.113393 0.828489 6.965508
0.229434 1.138894 7.967122
0.201425 1.147779 8.435304
0.137920 0.881629 9.458273
0.298278 0.794993 0.279693
0.224435 0.952186 1.250566
0.242123 0.940721 1.914343
0.378651 1.237739 3.626046
0.281264 0.694432 7.433788
0.331878 1.098858 7.914194
0.330921 1.100579 8.601673
0.172056 0.828694 9.538891
0.238250 0.782312 0.528952
0.302294 0.989565 1.470881
0.279737 0.900768 2.149522
0.390774 1.235778 3.580928
0.302079 0.667842 7.278416
0.461874 1.033232 7.970769
0.437580 1.069300 8.590013
0.431550 0.806196 0.253490
0.363541 0.841159 0.931921
0.376041 0.955127 1.751835
0.215554 0.842708 2.307213
0.420093 1.274175 3.694249
0.076371 0.749261 5.195898
0.272700 0.671399 6.114796
0.374515 0.676415 7.385812
0.525627 1.037414 8.353018
0.589378 0.957249 1.528229
0.365412 0.902334 2.073466
0.412295 0.617405 7.380787
0.559480 0.939450 7.978115
0.660814 0.938309 8.794610
0.348095 0.840559 9.472604
0.662787 0.678016 6.113687
0.431045 0.586043 7.170526
0.620742 0.844417 7.911789
0.732822 0.907281 8.664072
0.506602 0.777154 0.220163
0.580964 0.840386 1.099667
0.728384 0.673377 6.074326
0.449654 0.433965 6.868387
0.655752 0.713536 7.806434
0.826229 0.792823 8.300421
0.795578 0.823130 9.003509
0.729930 0.671473 6.072553
0.381416 0.394121 6.759101
0.519670 0.508593 7.461436
0.883578 0.716418 8.290366
1.021186 0.754194 1.573855
0.754835 0.660029 6.077068
0.430611 0.401831 6.796352
0.547824 0.475402 7.403828
0.795950 0.592203 7.940893
0.961138 0.721876 8.673722
1.093809 0.703950 1.546620
1.750183 0.875402 3.853358
0.435837 0.395575 6.795251
0.637257 0.474316 7.589903
0.960216 0.546048 8.200482
2.005666 0.643137 3.934145
0.999149 0.533054 8.265963
1.326192 0.501094 1.388416
1.012684 0.438880 8.163026
1.210438 0.408204 8.631640
1.171383 0.453226 0.698779
1.380128 0.415148 1.395969
0.635711 0.365680 7.309956
1.017988 0.372261 8.083960
1.297278 0.317585 8.755716
1.248986 0.191915 9.352579
2.166334 0.316452 4.070232
2.192706 0.219840 4.134786
1.236660 0.294659 8.433427
1.331022 0.241695 8.830324
1.498526 0.189693 1.369463
1.468281 0.104237 1.745660
2.212966 0.157691 4.138183
1.017028 0.254812 7.882505
1.409584 0.116868 8.659491
1.296288 0.145291 9.264208
1.211015 0.394943 0.665731
1.519898 0.129919 1.358245
1.490997 -0.057416 1.909850
2.208587 0.058631 4.129418
1.480088 -0.156844 8.032275
1.468589 -0.032038 8.477500
1.297605 0.097912 9.306421
1.547912 0.010711 1.472634
1.493762 -0.148079 2.019291
1.526838 -0.329864 2.511702
2.171937 -0.076891 4.166326
2.098326 -0.297199 4.689292
1.799090 -0.443229 5.763462
1.578878 -0.315393 7.376747
1.553367 -0.268731 8.070071
1.494621 -0.101921 8.555490
1.300978 -0.045867 9.396655
1.553519 -0.103826 1.571759
1.552907 -0.440473 2.882432
2.110528 -0.303971 4.434386
1.587585 -0.351579 7.403859
1.553851 -0.285302 8.102610
1.519345 -0.367441 2.065196
1.944477 -0.511298 4.568310
1.754989 -0.575125 5.726836
1.619982 -0.476487 7.104051
1.579786 -0.403883 7.856978
1.519350 -0.611269 2.040770
1.528088 -0.608279 2.320507
1.550434 -0.607917 3.022525
1.702569 -0.736759 4.121257
1.676020 -0.770215 5.484682
1.683314 -0.700510 6.038301
1.634067 -0.658477 7.023236
1.605648 -0.651915 7.781585
1.561205 -0.642511 8.425198
1.510583 -0.688296 2.051551
1.518762 -0.734233 2.636217
1.594246 -0.803443 3.636253
1.645755 -0.840486 4.240410
1.600446 -0.899796 4.936726
1.671490 -0.845507 6.279520
1.631971 -0.794442 7.065960
1.596878 -0.812003 7.998629
1.521073 -0.728468 8.647563
1.340845 -0.627535 9.368592
1.469900 -0.875806 2.137508
1.468838 -0.886504 2.710556
1.535618 -0.908070 3.563924
1.569640 -0.958831 4.213727
1.516288 -0.989855 5.128786
1.597296 -1.001392 5.857383
1.643999 -1.024532 6.519166
1.596967 -1.032335 7.201786
1.567691 -1.008768 7.942027
1.475944 -0.976710 8.625074
1.259799 -0.943304 9.394622
1.449124 -0.934971 2.026180
1.413464 -1.020155 2.694379
1.464386 -1.023013 3.519545
1.499268 -1.073554 4.237279
1.476808 -1.071406 4.570244
1.516706 -1.078774 5.564805
1.598783 -1.159668 6.248936
1.554597 -1.146901 7.097871
1.519425 -1.157218 7.806223
1.520401 -1.050209 8.256385
1.126378 -1.332577 0.828712
1.242360 -1.299589 1.343508
1.366630 -1.087882 2.039679
1.362455 -1.172297 3.490221
1.412941 -1.094293 4.897791
1.451186 -1.154856 5.602377
1.473659 -1.307083 7.171907
1.453672 -1.266766 7.858484
1.235052 -1.225193 9.254627
1.092916 -1.355575 0.810727
1.161935 -1.399973 1.351510
1.235932 -1.250915 2.175915
1.264947 -1.225775 2.720114
1.244188 -1.311148 3.451832
1.291346 -1.319390 4.334212
1.278464 -1.253045 4.782262
1.298817 -1.364281 5.695254
1.367040 -1.527136 6.334945
1.355865 -1.473213 7.250899
1.351131 -1.425561 7.775511
1.247389 -1.442281 8.748956
1.213951 -1.260587 9.258818
1.082545 -1.370208 0.807240
1.101601 -1.444797 1.419333
1.064671 -1.408395 1.941243
1.109606 -1.394478 2.488226
1.098200 -1.454641 3.396766
1.141181 -1.458682 4.175822
1.084757 -1.434815 4.917389
1.178656 -1.478060 5.573700
1.231328 -1.617213 6.107200
1.240295 -1.590559 7.212987
1.224509 -1.580622 7.682343
1.102062 -1.629771 8.646539
1.158144 -1.442947 9.119458
0.944106 -1.503222 1.977906
1.013259 -1.471629 2.553506
0.992151 -1.528131 3.338270
1.000196 -1.560152 4.029672
0.911909 -1.530639 4.787062
1.044629 -1.580695 5.633455
1.127322 -1.731291 6.297754
1.077204 -1.737746 7.138645
1.059001 -1.710830 7.768741
1.026652 -1.711285 8.617769
0.923799 -1.559882 1.447065
0.882899 -1.535396 1.845935
0.821672 -1.599839 2.703614
0.874698 -1.591915 3.314485
0.887688 -1.623810 4.171141
0.779324 -1.610900 4.735344
0.882783 -1.681852 5.596399
1.004532 -1.807120 6.174492
0.948904 -1.827703 6.977053
0.949756 -1.776986 7.728595
0.912663 -1.788227 8.665547
0.790000 -1.534258 0.879986
0.781857 -1.629526 1.418178
0.718571 -1.635339 2.120334
0.736809 -1.653949 2.939337
0.710848 -1.678919 3.428046
0.724280 -1.671141 4.421527
0.760313 -1.660613 4.888139
0.832600 -1.900718 6.338019
0.797786 -1.893135 7.096894
0.809927 -1.855665 7.830748
0.730391 -1.871795 8.726902
0.598659 -1.710110 1.569390
0.550121 -1.718974 2.441979
0.560511 -1.721773 2.740945
0.556359 -1.746523 3.496223
0.553430 -1.753841 4.376024
0.572741 -1.946102 5.854023
0.611690 -1.989604 6.538334
0.613428 -1.968836 7.161747
0.593397 -1.961497 8.014092
0.525931 -1.941147 8.783077
0.443704 -1.827122 9.311224
0.426373 -1.640572 0.904256
0.433969 -1.760810 1.641571
0.391514 -1.766757 2.173620
0.398181 -1.804329 3.620063
0.434164 -1.793938 4.351641
0.454648 -1.974002 5.777881
0.495013 -2.029647 6.637914
0.438326 -2.033226 7.192668
0.431014 -2.007723 8.005360
0.473239 -1.963984 8.712142
0.231310 -1.863606 9.447586
0.236523 -1.817620 1.603423
0.259608 -1.800883 2.130997
0.212795 -1.829024 2.965008
0.291491 -1.828261 3.612158
0.258206 -1.848558 4.234348
0.219739 -1.894564 5.038854
0.269090 -2.009374 5.718071
0.246981 -2.099629 6.478510
0.233175 -2.071145 7.350883
0.237712 -2.042661 8.079619
0.296277 -2.008051 8.648113
0.155093 -1.857992 9.491790
0.212137 -1.718000 1.000949
0.063611 -1.856122 1.554978
0.083907 -1.832097 2.131307
0.058722 -1.852236 3.036762
0.091793 -1.868291 3.769247
0.079748 -1.866045 4.253467
0.018222 -1.952813 5.127593
0.125086 -2.066762 5.781037
0.151908 -2.118285 6.529650
0.074467 -2.092001 7.288380
0.075866 -2.051544 8.114210
0.086249 -1.989969 8.810690
0.003190 -1.848516 9.532311
0.029006 -1.766856 1.087865
-0.063242 -1.859661 1.719724
-0.071335 -1.880820 3.954773
-0.127811 -2.041713 8.120971
-0.195672 -1.848906 1.967992
-0.267794 -1.853010 2.928222
