0.415327 0.396142 6.796825
0.681626 0.648552 7.363960
0.898958 0.852223 8.252509
0.784961 0.742219 8.976637
0.396829 0.374406 9.699743
0.586791 0.474304 1.721215
0.555811 0.447519 2.685620
0.505175 0.405604 3.391429
0.560338 0.449073 3.839346
0.582046 0.464860 4.698973
0.383218 0.305054 5.566151
0.290323 0.230519 6.233471
0.517929 0.410161 6.851512
0.757735 0.598159 7.602330
0.679206 0.534759 8.298798
0.508111 0.399062 8.992614
0.911768 0.606118 0.687317
0.695581 0.461314 1.238779
0.609803 0.402760 2.202947
0.591173 0.389239 2.932174
0.618204 0.405938 3.560397
0.645446 0.422466 4.308542
0.453344 0.296052 4.875714
0.269378 0.175386 5.622493
0.154255 0.100147 6.326970
0.511047 0.330254 7.361040
0.879342 0.566591 7.971070
0.776805 0.499161 8.655006
0.547889 0.351209 9.314960
0.697690 0.374912 1.964107
0.650380 0.348320 2.673977
0.579088 0.309360 3.212741
0.662300 0.352642 3.905105
0.607380 0.321995 4.836027
0.396308 0.209685 5.290351
0.405492 0.213539 6.299588
0.635205 0.333331 7.013202
0.957692 0.500596 7.780455
0.903619 0.471462 8.191315
0.844286 0.438342 9.278567
0.438716 0.185605 0.975187
0.687440 0.289920 1.535523
0.684212 0.287216 2.378935
0.656681 0.274746 2.981095
0.712708 0.296711 3.873096
0.729210 0.302271 4.653426
0.523379 0.216297 5.232955
0.333465 0.137130 6.174202
0.526657 0.215992 6.635089
0.918170 0.374647 7.485146
0.950376 0.386693 7.995939
0.830530 0.336598 8.754425
0.511214 0.206320 9.624471
1.073107 0.333200 0.860929
0.821160 0.254307 1.237914
0.716149 0.220463 2.093915
0.682241 0.209156 2.685620
0.743595 0.226358 3.684906
0.741032 0.224887 4.120045
0.519615 0.156878 4.885544
0.337774 0.101335 5.820212
0.152833 0.045609 6.618165
0.449400 0.133543 7.174351
0.988684 0.292066 7.903208
1.014466 0.298272 8.571191
0.778580 0.227802 9.335876
0.534618 0.115690 0.796255
0.814277 0.174523 1.785876
0.756652 0.161099 2.474957
0.737231 0.155903 3.174519
0.810428 0.170119 3.926238
0.966927 0.201542 4.627645
0.711661 0.147674 5.119795
0.382079 0.078727 5.895234
0.630936 0.128857 6.763312
0.989887 0.200667 7.450897
1.149054 0.231172 8.186629
1.052379 0.210619 8.741796
0.695717 0.138158 9.634698
0.240502 0.028107 0.535279
0.484831 0.055880 1.339506
0.901317 0.103069 1.772404
0.676464 0.076281 2.579783
1.077427 0.119465 3.487079
1.331051 0.146150 3.996659
1.212492 0.131086 4.852762
0.950547 0.101984 5.305400
0.511934 0.054263 6.036616
0.724654 0.075489 6.939963
1.004843 0.103338 7.572490
1.095606 0.111278 8.213199
1.101905 0.110083 9.083112
0.739008 0.018643 0.273741
0.849451 0.020358 0.906588
1.049377 0.023664 1.609912
0.993881 0.020851 2.401208
1.388271 0.027456 2.973199
1.723964 0.031788 3.606682
1.337492 0.023184 4.201418
0.949446 0.014893 5.087995
0.596273 0.008636 5.760935
0.321517 0.004127 6.670490
0.693973 0.007844 7.404748
1.126332 0.011531 7.871840
1.269296 0.010410 8.908355
0.940307 0.006764 9.530981
0.587307 -0.040952 0.196349
0.701693 -0.050117 1.047403
1.135349 -0.083037 1.886929
1.355853 -0.101173 2.608275
1.777970 -0.134855 3.178999
1.605182 -0.123440 3.714946
0.953868 -0.077428 5.952628
0.729979 -0.060437 6.827685
1.067667 -0.090166 7.620206
1.196524 -0.102450 8.200301
1.202501 -0.198385 0.627024
1.249001 -0.208071 1.407100
1.153577 -0.193577 2.001518
1.563842 -0.265540 2.937275
1.969690 -0.336221 3.330640
0.792667 -0.141260 7.198880
1.095143 -0.196369 7.692375
1.268670 -0.230048 8.678392
1.109992 -0.202876 9.459984
0.881942 -0.240849 0.272405
0.917999 -0.252111 0.991519
1.682762 -0.469832 3.057774
1.892049 -0.532142 3.973459
1.560174 -0.440956 4.651994
1.203293 -0.341048 5.074507
0.858797 -0.245297 6.173627
0.626110 -0.179597 6.802517
0.933489 -0.269491 7.631471
1.208744 -0.350606 8.227557
1.130570 -0.329096 8.746868
0.896821 -0.262507 9.605517
1.028123 -0.385982 0.842179
1.446758 -0.545453 1.520394
1.463799 -0.553174 1.902545
1.797978 -0.683169 2.766230
2.024077 -0.771459 3.248163
1.878987 -0.719123 3.939472
0.910066 -0.354624 7.164365
0.984906 -0.384931 7.673905
1.125370 -0.441842 8.452987
1.271863 -0.502063 9.385938
1.204830 -0.587417 0.394123
1.330582 -0.651187 1.130110
1.338156 -0.657565 1.925756
0.996461 -0.491361 2.636410
1.935437 -0.961101 3.922491
0.725655 -0.364988 6.711440
0.889020 -0.449189 7.626233
1.152187 -0.583784 8.148852
1.466796 -0.885548 0.114128
1.430300 -0.866203 0.790451
1.340070 -0.813976 1.442911
1.503124 -0.916411 2.244579
1.847989 -1.130600 2.973684
2.024879 -1.242438 3.586449
1.950653 -1.201166 4.372683
1.652699 -1.020214 4.965559
1.248223 -0.772704 5.670534
0.898210 -0.557935 6.525130
0.824316 -0.513897 7.388044
1.044672 -0.653130 8.000282
1.229427 -0.770430 8.496555
1.230695 -0.773918 9.321868
1.274185 -0.953288 0.467680
1.447878 -1.086832 1.242955
1.317948 -0.992781 2.079534
1.121678 -0.846538 2.547019
1.886740 -1.433143 3.983848
1.510743 -1.150499 4.653571
1.321406 -1.009552 5.463298
1.157764 -0.887127 6.214060
0.844227 -0.648650 6.965420
0.945954 -0.729059 7.715095
1.164297 -0.899499 8.258828
1.268072 -0.983092 9.108491
1.045928 -0.952098 0.287772
1.206397 -1.102327 1.211078
1.216523 -1.113269 1.582759
1.420968 -1.305432 2.518563
1.794235 -1.653423 3.222328
1.905970 -1.760356 3.751059
1.847191 -1.711783 4.570471
1.673929 -1.555208 5.231912
1.301747 -1.212105 5.864155
0.780859 -0.728784 6.583258
0.685447 -0.641578 7.354239
1.080324 -1.015355 8.306703
1.231352 -1.159460 8.741212
1.030581 -0.972864 9.475449
1.235896 -1.355551 1.213630
1.529762 -1.693299 3.407209
1.768623 -1.964192 4.167932
1.691796 -1.884078 4.852575
1.482392 -1.653645 5.308836
1.332754 -1.500007 7.567684
1.156558 -1.305263 8.325176
1.197652 -1.356825 9.298518
0.958480 -1.270446 0.477224
1.022495 -1.357705 0.894547
1.098786 -1.464139 1.717034
1.380110 -1.854909 3.697106
1.550459 -2.089017 4.238912
1.473310 -1.992890 5.173853
0.958354 -1.310944 8.031984
1.035859 -1.421586 8.805069
0.906657 -1.246759 9.359992
0.904349 -1.458876 0.475519
1.029790 -1.666857 1.209268
0.972997 -1.578349 1.687384
1.168624 -1.903524 2.562406
1.292605 -2.113366 3.350235
1.291754 -2.119167 4.083919
1.347241 -2.215218 4.560499
1.258294 -2.077756 5.505807
1.057236 -1.749814 6.081290
0.947301 -1.573163 6.873170
0.989620 -1.649296 7.655249
0.994193 -1.662245 8.379037
0.917513 -1.849715 0.329528
0.973852 -1.966744 0.666020
0.860302 -1.744817 1.493608
0.863891 -1.758710 2.222273
0.906712 -1.852777 2.935217
1.031945 -2.116571 3.626401
1.128954 -2.323999 4.297651
1.110704 -2.296619 5.153324
1.006788 -2.087838 5.754097
0.883221 -1.837869 6.471543
0.828001 -1.727506 7.014823
0.839746 -1.759795 7.887514
0.813496 -1.709131 8.409713
0.747972 -1.576977 9.153033
0.682458 -1.822662 0.746439
0.767215 -2.059349 1.539113
0.693767 -1.866516 1.917233
0.712492 -1.928218 2.850470
0.677253 -1.839756 3.458216
0.744835 -2.029651 3.931880
0.862039 -2.361478 4.722517
0.792842 -2.181762 5.465659
0.735122 -2.033358 6.312537
0.711169 -1.974283 6.909337
0.699235 -1.951230 7.750706
0.683871 -1.916661 8.465099
0.639886 -1.798781 8.988779
0.563815 -2.068663 0.638808
0.553212 -2.041927 1.373266
0.532711 -1.976574 2.018091
0.525267 -1.962426 2.861951
0.537451 -2.018279 3.483429
0.556527 -2.099240 4.016362
0.571949 -2.171344 4.788368
0.549953 -2.099400 5.470514
0.533119 -2.047114 6.194872
0.546123 -2.112317 7.068492
0.523062 -2.032223 7.636324
0.510326 -1.994107 8.349657
0.483737 -1.904344 9.297548
0.330536 -1.890481 0.642981
0.352374 -2.030228 1.243442
0.353916 -2.051379 1.732930
0.351824 -2.063606 2.695871
0.351929 -2.075389 3.130630
0.364133 -2.172903 4.069732
0.362405 -2.173704 4.479115
0.363473 -2.205674 5.402539
0.378119 -2.314118 6.057293
0.369702 -2.276188 6.537738
0.351565 -2.186215 7.345596
0.332115 -2.082254 8.019695
0.325810 -2.065109 8.891567
0.267213 -1.705940 9.565633
0.147295 -1.834574 0.398008
0.167642 -2.120986 0.996431
0.162936 -2.091384 1.543584
0.162862 -2.131523 2.267438
0.161963 -2.162795 3.001845
0.161077 -2.209040 3.954329
0.160517 -2.245152 4.644494
0.154491 -2.192543 5.158830
0.161280 -2.342636 5.931588
0.162751 -2.395181 6.365212
0.151627 -2.289204 7.240550
0.146132 -2.258683 8.023161
0.137935 -2.178522 8.747825
0.118637 -1.906550 9.383215
-0.043095 -1.965944 0.472111
-0.050881 -2.160598 1.258620
-0.053216 -2.139869 1.899539
-0.054638 -2.117758 2.353688
-0.058383 -2.129969 3.137767
-0.062601 -2.187849 3.719892
-0.066684 -2.206376 4.507245
-0.071796 -2.285989 5.078525
-0.079656 -2.411126 5.862874
-0.080974 -2.355521 6.537707
-0.081932 -2.301519 7.160604
-0.084494 -2.273106 7.961336
-0.087459 -2.243880 8.891596
-0.075753 -1.900006 9.446513
-0.233183 -2.125630 0.112737
-0.250332 -2.256534 0.702003
-0.235583 -2.099807 1.307457
-0.242879 -2.125772 2.295622
-0.248255 -2.148086 2.926746
-0.248952 -2.130568 3.544163
-0.257785 -2.180135 4.213394
-0.254515 -2.120739 5.081704
-0.260923 -2.154016 5.624670
-0.290097 -2.371740 6.164887
-0.299457 -2.408741 7.144365
-0.291369 -2.316530 7.888348
-0.285106 -2.247034 8.458369
-0.282241 -2.194468 9.351739
-0.418152 -1.973563 0.537424
-0.453187 -2.129351 0.976217
-0.440771 -2.056710 1.665849
-0.447105 -2.066122 2.637518
-0.451699 -2.077995 3.090780
-0.467927 -2.135098 3.919661
-0.467983 -2.124324 4.454192
-0.507286 -2.284387 5.261736
-0.538474 -2.406749 6.026215
-0.526649 -2.340901 6.626277
-0.508265 -2.248193 7.169954
-0.516742 -2.264857 8.167058
-0.504344 -2.201462 8.638951
-0.470673 -2.039948 9.485220
-0.573888 -1.833530 0.746977
-0.659401 -2.095053 1.510976
-0.608670 -1.927214 2.000696
-0.617977 -1.947083 2.690346
-0.650532 -2.038003 3.487801
-0.662271 -2.067167 4.006977
-0.617993 -1.918969 4.772303
-0.662167 -2.045531 5.502615
-0.746511 -2.297113 6.025592
-0.725734 -2.223059 6.705941
-0.719967 -2.194714 7.432784
-0.717481 -2.176874 8.144798
-0.874176 -2.098023 0.814304
-0.807004 -1.930166 1.411891
-0.814382 -1.939778 2.128036
-0.827570 -1.963081 2.844300
-0.839035 -1.981579 3.609907
-0.856531 -2.016365 4.175874
-0.875214 -2.050398 5.029636
-0.909865 -2.123363 5.707363
-0.969307 -2.251826 6.500330
-0.958484 -2.219453 7.097779
-0.930603 -2.146884 7.798704
-0.911216 -2.095143 8.433678
-0.891397 -2.040266 9.307700
-1.000200 -1.867175 1.947918
-0.991112 -1.846252 2.383612
-1.016577 -1.885524 3.259905
-0.993274 -1.838119 3.730643
-0.923134 -1.701691 4.552441
-1.028854 -1.889052 5.348461
-1.180316 -2.159864 5.998297
-1.123304 -2.050152 6.570420
-1.122535 -2.039638 7.516894
-1.064267 -1.929778 7.987664
-1.101375 -1.987668 8.994577
-1.026693 -1.847730 9.651776
-0.991063 -1.492322 0.474497
-1.156766 -1.735768 1.251951
-1.134929 -1.697861 1.933308
-1.161855 -1.735446 2.280130
-1.180868 -1.756249 3.252860
-1.176051 -1.744407 3.862330
-1.082219 -1.600740 4.524089
-1.199386 -1.768203 5.254529
-1.373538 -2.018960 5.886585
-1.372922 -2.010084 6.803335
-1.288627 -1.883845 7.184427
-1.270822 -1.851877 7.948257
-1.287305 -1.870063 8.685753
-1.175886 -1.702898 9.491848
-1.288606 -1.592272 0.838480
-1.256461 -1.548497 1.463152
-1.256484 -1.543076 2.305596
-1.314471 -1.608867 3.104658
-1.324655 -1.617041 3.740051
-1.279724 -1.556829 4.580387
-1.362964 -1.655344 4.965366
-1.437515 -1.739486 5.841429
-1.453169 -1.752610 6.650061
-1.466649 -1.765452 7.123201
-1.432314 -1.718760 7.910790
-1.406475 -1.683303 8.585511
-1.313201 -1.567466 9.306361
-1.393812 -1.429345 0.754795
-1.480986 -1.514448 1.439070
-1.433404 -1.462271 2.027510
-1.414513 -1.439088 2.692287
-1.446289 -1.466858 3.448279
-1.451557 -1.467869 4.172110
-1.325533 -1.337573 4.723154
-1.402873 -1.410521 5.605723
-1.566728 -1.571243 6.205306
-1.563610 -1.564169 6.837916
-1.547741 -1.542483 7.794484
-1.523757 -1.514405 8.507063
-1.483976 -1.471099 9.183404
-1.525932 -1.292151 1.585786
-1.512490 -1.275894 2.505501
-1.495976 -1.260127 2.858697
-1.540059 -1.292724 3.700991
-1.520998 -1.273411 4.335139
-1.639877 -1.368618 5.081704
-1.732270 -1.441234 5.822704
-1.751746 -1.453305 6.514352
-1.680054 -1.390147 7.186160
-1.606647 -1.326262 7.797762
-1.626316 -1.337945 8.647349
-1.569054 -1.286456 9.533382
-1.382777 -0.970507 0.285522
-1.698875 -1.189364 0.856698
-1.646020 -1.147945 1.736692
-1.610385 -1.120543 2.260046
-1.617082 -1.121577 3.000339
-1.636821 -1.131606 3.741395
-1.628843 -1.122454 4.489303
-1.689362 -1.160636 5.181082
-1.782166 -1.221448 5.722610
-1.909839 -1.303299 6.701398
-1.860462 -1.267860 7.034672
-1.775838 -1.205559 7.961413
-1.665970 -1.128191 8.580756
-1.559856 -1.053423 9.279146
-1.628828 -0.910781 0.454536
-1.755556 -0.978027 1.216952
-1.707501 -0.949175 1.673087
-1.692529 -0.936733 2.584720
-1.701332 -0.938463 3.278749
-1.713416 -0.943396 3.659093
-1.665965 -0.913737 4.470573
-1.790002 -0.977124 5.443032
-2.014720 -1.097107 5.912068
-2.002682 -1.086680 6.659418
-1.808333 -0.978911 7.202298
-1.833056 -0.987475 8.234432
-1.767316 -0.950249 8.662243
-1.618727 -0.866840 9.586567
-1.613009 -0.713126 0.170946
-1.756740 -0.774474 0.680798
-1.870953 -0.821319 1.442198
-1.787662 -0.781946 2.090048
-1.846370 -0.803748 2.948882
-1.795697 -0.779620 3.429885
-1.797409 -0.777342 4.127450
-1.761224 -0.758170 4.969106
-1.849853 -0.792839 5.747206
-2.057766 -0.879024 6.308378
-1.939352 -0.826174 6.829218
-1.864467 -0.790774 7.652537
-1.937568 -0.818235 8.428445
-1.813889 -0.763313 9.114750
-1.697057 -0.569199 0.351132
-1.887188 -0.628699 1.340500
-1.813904 -0.602293 1.826823
-1.796435 -0.593015 2.683069
-1.780978 -0.585233 3.352087
-1.777816 -0.582400 3.802176
-1.852733 -0.602650 4.829796
-1.617624 -0.524927 5.213977
-1.736142 -0.560375 5.983284
-2.014402 -0.646051 6.866826
-1.864754 -0.596263 7.341187
-1.829998 -0.582219 8.093369
-1.778475 -0.563132 8.818442
-1.475527 -0.464848 9.666344
-1.644074 -0.384412 0.123727
-1.780198 -0.412893 0.995622
-1.840684 -0.425530 1.344372
-1.787685 -0.409921 2.220801
-1.745672 -0.397474 2.977492
-1.840963 -0.416206 3.723758
-1.887000 -0.424116 4.341354
-1.908914 -0.426127 5.060023
-1.781101 -0.395928 5.525455
-1.826687 -0.402755 6.385581
-1.940948 -0.424438 7.236484
-1.834669 -0.399185 7.794527
-1.833645 -0.395762 8.654756
-1.733803 -0.371540 9.450879
-1.845496 -0.256371 0.037879
-1.952467 -0.268415 0.727019
-1.885043 -0.255535 1.647123
-1.758363 -0.236870 2.062613
-1.708928 -0.227682 2.782139
-1.673190 -0.219653 3.735580
-1.825487 -0.237091 4.401168
-2.019058 -0.259287 5.086874
-1.743269 -0.221191 5.887307
-1.625957 -0.204801 6.369105
-1.813308 -0.225686 7.082057
-1.806678 -0.222407 7.767560
-1.798569 -0.218825 8.499671
-1.646820 -0.197577 9.410415
-1.442676 -0.059210 0.632620
-1.753040 -0.070382 1.064267
-1.705399 -0.066118 1.742226
-1.676336 -0.062420 2.498602
-1.889345 -0.067382 3.255074
-2.160739 -0.073957 3.931880
-2.158304 -0.070439 4.714238
-2.008494 -0.064147 5.081085
-1.636467 -0.049693 5.927203
-1.617065 -0.046343 6.797570
-1.843256 -0.050894 7.286142
-1.813617 -0.046909 8.188184
-1.785639 0.100249 0.132863
-1.929118 0.112357 1.153436
-1.654776 0.098406 1.763773
-1.622583 0.098828 2.473569
-1.960506 0.122577 3.238626
-2.196241 0.139025 3.595317
-2.136332 0.138643 4.382259
-2.098356 0.138915 5.028933
-1.946794 0.131952 5.835084
-1.713772 0.118361 6.521870
-1.620416 0.114060 7.212811
-1.632839 0.117734 8.089183
-1.595272 0.116829 8.683123
-1.348186 0.100967 9.616825
-1.427898 0.208642 0.584699
-1.646531 0.243229 1.353083
-1.546267 0.230072 1.873891
-1.929025 0.295936 4.070781
-2.147247 0.332013 4.626393
-1.997820 0.312399 5.494060
-1.568550 0.246925 6.082966
-1.457729 0.232058 6.984234
-1.532786 0.245926 7.597015
-1.569280 0.254403 8.432669
-1.439441 0.234700 8.942219
-1.475018 0.366875 0.688652
-1.501824 0.376388 1.568174
-1.445746 0.364718 2.338842
-1.816212 0.459973 2.770207
-2.195847 0.560923 3.739910
-2.059952 0.528507 4.269507
-1.971319 0.508456 4.913684
-1.788037 0.469695 7.186300
-1.374372 0.362569 7.816419
-1.378908 0.365711 8.502430
-1.210487 0.323002 9.344252
-1.519902 0.532639 1.250099
-1.369554 0.482635 2.120164
-1.687454 0.596834 2.662311
-1.791642 0.636617 3.368604
-1.814630 0.647718 4.073699
-2.021911 0.726083 4.993543
-1.788719 0.645006 5.687942
-1.312950 0.475373 6.433122
-1.053960 0.382781 6.994492
-1.266407 0.462385 7.832692
-1.295022 0.474484 8.412320
-1.180894 0.434513 9.167777
-1.376583 0.629575 0.191304
-1.456262 0.668919 1.002064
-1.253374 0.577903 1.720034
-1.216847 0.562893 2.339203
-0.998067 0.463546 3.124279
-1.296097 0.603798 3.675906
-1.747771 0.817144 4.303549
-1.648695 0.774292 5.176539
-1.425132 0.676223 7.232461
-1.096260 0.522050 8.034742
-1.156106 0.552805 8.854107
-0.965468 0.463260 9.631128
-1.367528 0.809362 1.346442
-1.169361 0.693517 1.807723
-1.388649 0.832036 4.022901
-1.511054 0.908525 4.768503
-1.359278 0.819747 5.465344
-0.970841 0.586954 6.102017
-0.616543 0.374140 7.032765
-0.765193 0.466094 7.871938
-1.036622 0.633550 8.584256
-0.979781 0.600194 9.144580
-1.004795 0.727894 0.424159
-1.077139 0.782660 1.134936
-1.059192 0.771881 1.829527
-1.324734 0.973556 3.798083
-0.520924 0.387532 6.924814
-0.494192 0.368509 7.523078
-0.770068 0.575852 8.163678
-1.040768 0.912267 1.210134
-0.936636 0.823758 2.045477
-1.278752 1.126976 2.525358
-1.477560 1.306571 3.323596
-1.292037 1.145959 4.087537
-1.258144 1.118820 4.740605
-1.020898 0.909904 5.352171
-0.700140 0.625800 6.145663
-0.522829 0.468666 6.934927
-0.601495 0.540825 7.707169
-0.813653 0.733727 8.408488
-0.826921 0.747699 9.112137
-0.842282 0.893582 1.022443
-0.820887 0.872814 1.574171
-0.790289 0.842306 2.176886
-0.679494 0.726755 3.065109
-0.868778 0.931374 3.624097
-1.058829 1.139407 4.534419
-0.706631 0.761620 5.006009
-0.579402 0.626704 5.939873
-0.346484 0.375632 6.594961
-0.277888 0.302157 7.391261
-0.529044 0.576614 7.937923
-0.686729 0.750870 8.724648
-0.601047 0.659133 9.543896
-0.837280 1.065273 1.086091
-0.699404 0.892449 1.799917
-0.894621 1.145020 2.514665
-1.115608 1.434096 3.530021
-1.046316 1.348309 4.128501
-0.932235 1.204817 4.859800
-0.682194 0.883858 5.528953
-0.344389 0.447197 6.179901
-0.259833 0.338579 7.090490
-0.428844 0.560542 7.821584
-0.524891 0.687768 8.411654
-0.607285 0.798839 9.379056
-0.723202 1.128436 0.384510
-0.715625 1.119956 1.058015
-0.631768 0.991174 1.623570
-0.593558 0.933581 2.199305
-0.401305 0.633715 3.135428
-0.858595 1.363838 4.381753
-0.626241 0.998399 5.272265
-0.303380 0.484504 5.764887
-0.080726 0.129479 6.855770
-0.203749 0.327774 7.519781
-0.452792 0.730718 8.166528
-0.475846 0.770656 9.000068
-0.384657 0.624487 9.628214
-0.473692 0.925654 0.339311
-0.501466 0.983404 1.055087
-0.464839 0.914158 1.630440
-0.624007 1.241862 4.000625
-0.713791 1.425223 4.636206
-0.539471 1.080401 5.297530
-0.313570 0.630218 6.105615
-0.209514 0.422666 6.928379
-0.288840 0.585258 7.812634
-0.353405 0.717660 8.241809
-0.380027 0.775434 9.239022
-0.455326 1.124582 0.067529
-0.400958 0.994512 0.804030
-0.352295 0.877390 1.517242
-0.514991 1.300337 3.853887
-0.085461 0.219004 6.614673
-0.152487 0.392384 7.317229
-0.285308 0.737675 8.089834
-0.291280 0.757128 9.034282
-0.225252 0.587265 9.624733
-0.293642 0.997796 0.368394
-0.273648 0.932794 0.796581
-0.266407 0.913945 1.663030
-0.355925 1.240811 3.787776
-0.063646 0.226308 6.614673
-0.118734 0.424780 7.415832
-0.212993 0.766294 8.109357
-0.210778 0.763023 8.956207
-0.153770 0.559568 9.732531
-0.226796 1.150348 0.811425
-0.185017 0.942965 1.273315
-0.167101 0.859146 2.106103
-0.164458 0.851100 2.723132
-0.234676 1.222888 3.335062
-0.289325 1.524100 4.301988
-0.212683 1.126683 4.872623
-0.109591 0.584534 5.590178
-0.056698 0.305090 6.468200
-0.098421 0.534505 7.292441
-0.137344 0.750707 7.850019
-0.146084 0.804465 8.536187
-0.122669 0.680628 9.273050
-0.100918 1.033471 1.338502
-0.078166 0.809558 1.894448
-0.091778 0.968989 2.802951
-0.117831 1.256505 3.246020
-0.127498 1.381776 3.981427
-0.118044 1.307289 4.977282
-0.077660 0.870602 5.596676
-0.033973 0.386354 6.332216
-0.035034 0.404167 6.981982
-0.060491 0.710662 7.738011
-0.070484 0.839419 8.314204
-0.065718 0.802243 9.410514
-0.004204 0.688719 0.195803
-0.003033 0.705236 1.106118
-0.002800 0.794372 1.494339
-0.001440 0.817533 2.383723
-0.000130 0.451235 3.161575
0.002074 0.305587 6.857719
0.004887 0.586098 7.621699
0.007698 0.821902 8.113587
0.009266 0.835413 9.028161
0.005771 0.473117 9.719233
0.045732 0.514798 0.511555
0.055882 0.623024 0.941716
0.068978 0.754717 1.789617
0.064394 0.694463 2.460553
0.086249 0.913018 3.316959
0.124540 1.295562 4.108163
0.120259 1.233207 4.810807
0.072770 0.736323 5.547606
0.029370 0.293631 6.236295
0.042372 0.416929 7.051040
0.079712 0.774050 7.683139
0.091639 0.876524 8.479833
0.074987 0.710322 9.058765
0.111417 0.580957 0.490859
0.138486 0.717287 1.115127
0.157191 0.806190 2.040773
0.116439 0.593934 2.575345
0.152340 0.771433 3.260194
0.248124 1.245549 4.053270
0.098944 0.482653 7.036689
0.162669 0.788069 7.687654
0.182972 0.879881 8.444861
0.154555 0.738129 9.215208
0.088746 0.304310 0.524283
0.130809 0.445744 1.379838
0.224768 0.762307 2.012914
0.178669 0.603587 2.563754
0.219037 0.735818 3.330847
0.335556 1.122706 3.849409
0.129973 0.425913 6.923232
0.225780 0.735928 7.644072
0.250171 0.811500 8.343445
0.207110 0.668596 9.104039
0.105417 0.268343 0.089094
0.185482 0.469420 1.092600
0.265925 0.671180 1.556155
0.279753 0.703372 2.220958
0.172583 0.431966 3.031352
0.230062 0.573154 3.840179
0.420533 1.044454 4.324771
0.304180 0.751308 5.347005
0.123198 0.303362 5.976520
0.135444 0.331892 6.868194
0.255245 0.623345 7.429389
0.343993 0.836147 8.248564
0.298229 0.722838 8.813499
0.172139 0.415829 9.535460
0.086411 0.169999 0.426832
0.141228 0.276700 1.276745
0.352998 0.690355 1.632123
0.334506 0.651136 2.595757
0.216028 0.419510 3.110153
0.296937 0.574465 3.876734
0.375252 0.723878 4.461687
0.241203 0.463574 5.279488
0.121844 0.233378 6.048162
0.229595 0.438190 6.781207
0.391222 0.744377 7.374442
0.419182 0.794021 8.332078
0.576674 0.900267 0.649056
0.427331 0.664963 1.396721
0.381541 0.591715 2.175124
0.428309 0.662750 2.689784
0.398205 0.614077 3.482179
0.371145 0.570650 4.180439
0.352943 0.540598 5.081391
0.201346 0.307786 5.595078
0.156799 0.238829 6.472588
0.331521 0.503044 7.331601
0.568274 0.859529 8.015334
0.562321 0.848056 8.724648
0.399732 0.601406 9.390471
0.463274 0.597336 1.750531
0.425692 0.547430 2.401824
0.416983 0.534562 3.171345
0.457722 0.585195 3.836685
0.472144 0.601180 4.845554
0.347010 0.440686 5.535073
0.166142 0.210581 6.077878
0.365653 0.461667 7.007737
0.603575 0.759639 7.743590
0.473176 0.594623 8.179040
0.395636 0.495583 9.047715
0.566045 0.599773 0.907222
0.513653 0.542846 1.564846
0.487491 0.513818 2.243621
0.496832 0.522547 2.783443
0.545441 0.571892 3.565218
0.498083 0.520740 4.304732
0.369086 0.384604 5.177561
0.192798 0.200553 5.669764
0.260694 0.270257 6.548322
0.544132 0.562496 7.213576
0.785794 0.810017 7.881510
0.704631 0.724187 8.695544
0.471225 0.482821 9.602012
0.661155 0.585731 1.198101
0.521312 0.460328 2.028318
0.525408 0.462461 2.834315
0.526291 0.462171 3.416094
0.538448 0.471665 4.047508
0.463640 0.404565 5.045653
0.283418 0.246919 5.482657
0.193342 0.167923 6.304220
0.496183 0.429315 7.218666
0.794143 0.685184 7.868710
0.797457 0.685970 8.654603
0.587564 0.504331 9.293363
0.404077 0.294158 0.915463
0.578230 0.420113 1.380079
0.573213 0.414993 2.233836
0.562415 0.405781 3.061483
0.619928 0.445908 3.794948
0.646396 0.463578 4.503827
0.471240 0.336869 5.321350
0.293574 0.209425 5.869616
0.484935 0.345000 6.498470
0.844118 0.598025 7.445772
0.902952 0.637921 8.120498
0.811718 0.571886 8.833662
0.558932 0.392817 9.536818
1.025473 0.609822 0.588858
0.770183 0.456110 1.509635
0.614618 0.363339 1.909519
0.602511 0.354718 2.824527
0.620639 0.364516 3.355040
0.657805 0.384820 4.230392
0.493451 0.288069 4.721721
0.336679 0.195691 5.733323
0.274637 0.159096 6.507769
0.483688 0.279560 6.983040
0.876170 0.504096 7.928038
0.872415 0.500294 8.676138
0.614698 0.351760 9.237446
0.881554 0.408675 0.777155
0.694153 0.320802 1.378157
0.634770 0.292284 2.087044
0.656754 0.301281 2.803005
0.686534 0.313863 3.460219
0.706047 0.320966 4.546017
0.482760 0.219009 4.977416
0.296940 0.134051 5.966631
0.420815 0.189473 6.461576
0.791042 0.354822 7.125649
0.993462 0.443422 8.043068
0.865784 0.385307 8.649110
0.596150 0.264383 9.419268
0.381519 0.135245 1.095627
0.736368 0.259943 1.749311
0.738722 0.259969 2.238940
0.719615 0.252054 2.986725
0.739197 0.257305 3.970755
0.724586 0.251417 4.477644
0.572659 0.197880 5.157088
0.385791 0.132631 6.003793
0.547146 0.187274 6.684197
0.940709 0.320188 7.494853
1.091783 0.369602 8.323568
0.862677 0.291260 8.812814
0.478951 0.160889 9.742260
0.794522 0.199420 2.001756
0.750961 0.187202 2.818643
0.855294 0.212031 3.467680
0.939384 0.231718 4.048621
0.865333 0.212029 4.848270
0.662072 0.161381 5.496508
0.503949 0.122135 6.208029
0.784793 0.188525 7.208638
1.016254 0.243189 7.615758
1.102129 0.262068 8.348624
0.951869 0.224643 9.281979
0.567470 0.088241 0.893919
0.942727 0.145022 1.701902
0.853069 0.130180 2.312205
1.023274 0.154814 2.944487
1.163099 0.173709 3.888040
0.789409 0.114787 5.909033
0.544469 0.078406 6.669104
0.951497 0.135400 7.461146
1.224410 0.172227 8.242868
1.122834 0.156386 8.983721
0.707533 0.097663 9.748839
1.043205 0.058817 0.688285
1.134803 0.062613 1.286401
0.987675 0.053285 1.904611
1.217880 0.063621 2.744757
1.579601 0.080215 3.438206
0.805540 0.035319 7.076892
1.050233 0.044804 7.644834
1.090115 0.044938 8.389128
1.018072 0.039992 9.437269
0.970236 -0.028301 0.728590
1.255934 -0.037682 1.137349
1.058926 -0.033189 1.813409
1.405208 -0.046196 2.556614
1.813032 -0.062243 3.243113
0.905555 -0.037698 7.067221
1.096670 -0.047401 7.857902
1.227758 -0.054975 8.642124
1.080254 -0.049398 9.182687
1.163733 -0.152220 1.584940
0.834552 -0.110462 2.372313
1.863435 -0.251867 3.657509
1.479834 -0.202268 4.445148
1.025257 -0.141472 5.154972
0.682425 -0.095258 6.017523
0.552977 -0.077768 6.576145
0.854792 -0.121616 7.359649
1.190782 -0.171304 8.098189
1.212955 -0.176487 8.939872
0.792186 -0.116080 9.589246
1.638850 -0.381648 2.890839
1.910096 -0.448290 3.715755
1.675540 -0.395778 4.454911
0.732324 -0.177079 7.321202
1.126572 -0.273935 7.905074
1.261061 -0.309306 8.921490
1.030298 -0.253764 9.498695
1.438444 -0.472765 1.349325
1.444627 -0.476971 2.020024
1.804656 -0.599141 2.806058
2.025834 -0.675624 3.450221
1.755374 -0.587770 4.072981
1.194666 -0.405542 6.248897
0.845146 -0.288137 6.999093
1.071572 -0.367514 7.900849
1.147533 -0.395008 8.472283
1.198028 -0.414027 9.103717
1.296589 -0.563573 0.201441
1.240636 -0.541770 1.047657
1.324466 -0.579877 1.515145
1.226719 -0.539463 2.329591
1.563039 -0.689607 2.898287
1.966575 -0.871200 3.600516
1.700950 -0.755698 4.158226
0.868947 -0.392203 7.300605
1.131970 -0.513326 8.160099
1.205120 -0.547794 8.608765
1.164132 -0.531097 9.347490
1.408514 -0.777504 1.202404
1.440761 -0.798477 2.031893
1.525866 -0.848545 2.742145
1.832794 -1.023514 3.586905
1.844418 -1.031789 3.946955
1.636159 -0.919122 4.859086
1.441623 -0.812415 5.571979
0.946860 -0.535072 6.269698
0.815383 -0.462694 7.222844
1.000130 -0.569274 7.866422
1.203804 -0.687123 8.441123
1.262130 -0.722655 9.127125
1.184087 -0.817981 0.258811
1.214240 -0.841491 0.996068
1.299890 -0.903910 1.777101
1.481903 -1.034018 2.556079
1.868988 -1.307617 3.133520
2.018142 -1.415704 3.718245
0.731447 -0.519219 6.756020
0.777924 -0.554028 7.553750
1.063807 -0.759558 8.104747
1.260661 -0.902845 8.796770
1.173716 -0.843439 9.673770
1.313680 -1.101496 0.285317
1.336939 -1.123118 0.741245
1.253183 -1.055288 1.325458
1.575318 -1.331886 2.272364
1.895831 -1.607224 2.889915
1.914517 -1.626896 3.450027
1.868950 -1.593674 4.285402
1.704514 -1.458315 5.123316
1.024132 -0.885637 7.972695
1.268641 -1.100481 8.693621
1.208476 -1.050633 9.292942
1.247460 -1.261876 0.883131
1.241116 -1.258237 1.425182
1.560997 -1.595656 3.412150
1.802334 -1.847645 4.072030
1.698938 -1.747401 4.894623
0.986017 -1.025697 7.936964
1.249134 -1.303594 8.682386
1.178151 -1.231809 9.194279
0.945524 -1.152204 0.402017
1.078405 -1.317408 0.999201
1.130688 -1.386372 1.880851
1.330960 -1.636849 2.581107
1.573255 -1.938665 3.020095
1.661088 -2.055109 3.952047
1.646781 -2.041291 4.405692
1.521342 -1.891647 5.172036
0.989989 -1.244932 8.110002
1.080446 -1.363290 8.931414
0.865272 -1.094181 9.584466
0.917785 -1.357194 0.114373
0.993419 -1.474949 1.025533
1.033258 -1.538472 1.668439
1.270833 -1.910158 3.765260
1.465034 -2.210968 4.627899
1.378910 -2.085643 5.151513
1.239784 -1.891829 7.208275
1.045358 -1.600420 8.055548
1.037268 -1.594102 8.960405
0.852360 -1.312099 9.445981
0.716117 -1.306096 0.306301
0.876715 -1.604681 1.033539
0.915762 -1.683434 1.921383
1.095970 -2.032318 3.669063
1.243851 -2.315882 4.452001
1.164592 -2.174984 5.099425
1.024695 -1.919970 5.816476
0.918069 -1.726062 6.565528
0.925801 -1.747864 7.435599
0.900734 -1.706053 8.131181
0.848872 -1.612286 8.748769
0.720743 -1.373186 9.490716
0.755924 -1.806495 1.767532
0.786963 -1.891579 2.765706
0.685730 -1.652586 3.245434
0.774874 -1.876867 4.099726
0.960678 -2.334738 4.616923
0.906765 -2.213952 5.435195
0.795365 -1.949282 6.138458
0.738964 -1.818303 6.867804
0.761792 -1.883262 7.680811
0.739847 -1.834533 8.229331
0.644058 -2.025059 0.902450
0.638802 -2.014481 1.316858
0.608729 -1.929506 2.038402
0.606400 -1.932435 2.786553
0.607903 -1.947130 3.497874
0.663177 -2.134060 4.123010
0.713970 -2.308240 4.745564
0.648477 -2.107933 5.532235
0.620747 -2.027580 6.223073
0.631999 -2.074097 6.875832
0.612670 -2.022330 7.702149
0.584867 -1.938677 8.317835
0.555677 -1.854132 9.285133
0.404980 -1.878498 0.765885
0.447614 -2.083506 1.109197
0.430315 -2.018224 1.866009
0.432044 -2.041657 2.611200
0.434848 -2.067571 3.215255
0.446080 -2.141374 4.147732
0.445222 -2.146838 4.585545
0.445290 -2.161068 5.215094
0.449870 -2.199253 5.920563
0.456187 -2.252592 6.888754
0.423691 -2.104709 7.507443
0.418380 -2.093849 8.241618
0.208251 -1.803606 0.407777
0.235659 -2.070207 1.186086
0.230136 -2.036083 1.574077
0.232671 -2.098227 2.599911
0.236188 -2.158589 3.304481
0.236481 -2.180034 3.757414
0.235703 -2.196686 4.325921
0.230285 -2.178841 5.111933
0.241735 -2.321172 5.847533
0.245298 -2.394127 6.663567
0.226607 -2.243430 7.415293
0.217332 -2.177363 8.030850
0.206155 -2.088732 8.619136
0.178637 -1.836880 9.431231
0.057282 -2.062449 0.056491
0.054863 -2.040934 0.489930
0.054075 -2.134847 1.240743
0.048743 -2.043265 1.961570
0.047125 -2.082110 2.554744
0.045038 -2.201158 3.604694
0.043076 -2.247993 4.235409
0.038035 -2.079666 4.686773
0.036659 -2.190160 5.438450
0.037250 -2.424988 6.081499
0.032866 -2.356707 6.799317
0.028632 -2.270925 7.490179
0.024337 -2.197245 8.286268
0.020960 -2.126905 8.932325
-0.145457 -2.083806 0.216392
-0.156791 -2.179868 1.238943
-0.155373 -2.127865 1.768007
-0.157530 -2.117829 2.428884
-0.163134 -2.150343 3.144889
-0.170981 -2.206137 3.935581
-0.173005 -2.207265 4.363420
-0.189813 -2.362889 5.295268
-0.202298 -2.474435 5.975368
-0.201588 -2.424650 6.668098
-0.198585 -2.352624 7.314250
-0.191407 -2.240646 7.849003
-0.194508 -2.230034 8.763609
-0.181732 -2.053658 9.463604
-0.315313 -1.914263 0.359068
-0.357632 -2.150892 1.088822
-0.352638 -2.103213 1.749215
-0.362711 -2.144425 2.444139
-0.357687 -2.103315 2.881886
-0.361192 -2.103197 3.678292
-0.380353 -2.197907 4.294693
-0.388801 -2.225918 5.063464
-0.396754 -2.256991 5.595157
-0.421858 -2.375754 6.430463
-0.425047 -2.372864 7.186769
-0.414035 -2.296507 7.770682
-0.419316 -2.302785 8.658012
-0.389709 -2.129179 9.173499
-0.547768 -2.094813 0.375511
-0.568883 -2.160496 1.199670
-0.535063 -2.020441 1.892884
-0.543851 -2.041306 2.618715
-0.556107 -2.075174 3.325655
-0.569751 -2.111836 4.147732
-0.545810 -2.013779 4.733822
-0.594719 -2.181996 5.408016
-0.638987 -2.334600 5.909469
-0.602092 -2.188137 6.612629
-0.612390 -2.212474 7.367335
-0.618995 -2.225427 8.002433
-0.615721 -2.199776 8.841650
-0.552292 -1.959693 9.836331
-0.746712 -1.993444 1.034021
-0.740594 -1.969206 1.675253
-0.760565 -2.012355 2.464693
-0.744960 -1.966800 2.818145
-0.764623 -2.006491 3.800415
-0.763773 -1.997393 4.363470
-0.790018 -2.055628 5.186964
-0.842346 -2.184195 5.740618
-0.867367 -2.240402 6.374535
-0.858366 -2.209135 6.990922
-0.834752 -2.139388 7.720113
-0.856945 -2.182759 8.776247
-0.800057 -2.032875 9.248578
-0.874211 -1.791554 0.603853
-0.945353 -1.927952 1.531956
-0.905919 -1.842017 2.112279
-0.903343 -1.831396 2.680925
-0.910126 -1.838675 3.363523
-0.939854 -1.891074 4.147308
-0.909311 -1.824113 4.750041
-0.951144 -1.900643 5.506559
-1.022738 -2.035812 6.252570
-1.033480 -2.050749 6.879403
-1.072913 -2.118767 7.839811
-1.027790 -2.023620 8.477088
-1.022355 -2.005018 9.301163
-1.083977 -1.786425 1.883476
-1.092277 -1.795235 2.468262
-1.098034 -1.798959 3.158841
-1.116341 -1.822432 3.934717
-1.043285 -1.698137 4.602540
-1.126750 -1.825334 5.628702
-1.221830 -1.976362 5.935856
-1.255183 -2.021365 6.911302
-1.240042 -1.991979 7.483524
-1.215598 -1.946149 8.262844
-1.130810 -1.520252 0.671828
-1.294954 -1.735651 1.371276
-1.235040 -1.649268 2.234701
-1.238142 -1.650608 2.631918
-1.257692 -1.672143 3.264616
-1.244849 -1.650067 3.980886
-1.124598 -1.485935 4.764407
-1.231230 -1.621138 5.578881
-1.464664 -1.923150 6.179090
-1.421087 -1.861810 6.724620
-1.403896 -1.832282 7.658542
-1.358962 -1.769014 8.317896
-1.334055 -1.489483 0.886857
-1.437586 -1.600202 1.616482
-1.369712 -1.522095 2.027510
-1.381528 -1.529611 2.916386
-1.377807 -1.522581 3.382359
-1.414765 -1.557586 4.291390
-1.380862 -1.516890 4.844244
-1.451916 -1.589488 5.675661
-1.552898 -1.695148 6.364815
-1.521117 -1.656970 6.898602
-1.491174 -1.618927 7.751454
-1.465274 -1.587161 8.344932
-1.531563 -1.652589 9.310527
-1.364873 -1.249748 0.928596
-1.527210 -1.395347 1.450569
-1.521010 -1.385468 2.187619
-1.532085 -1.390836 3.010533
-1.499162 -1.357824 3.575811
-1.537586 -1.387750 4.429379
-1.496287 -1.347740 4.936062
-1.547594 -1.390480 5.542682
-1.707437 -1.529018 6.327408
-1.677318 -1.498651 6.898602
-1.637351 -1.458268 7.713939
-1.631683 -1.448519 8.538605
-1.523544 -1.349881 9.076810
-1.602829 -1.205175 1.708399
-1.566424 -1.173578 2.554529
-1.608667 -1.200753 3.424957
-1.612653 -1.201151 3.930042
-1.487263 -1.105203 4.495910
-1.635600 -1.210618 5.414765
-1.881241 -1.388598 6.019936
-1.842374 -1.356051 6.706194
-1.712754 -1.257782 7.286100
-1.682308 -1.230611 8.243841
-1.648228 -1.202056 8.995108
-1.463103 -1.063615 9.860004
-1.589652 -0.984281 0.672312
-1.783631 -1.100183 1.496553
-1.728752 -1.063190 2.142080
-1.728607 -1.059824 2.814829
-1.742153 -1.064693 3.516717
-1.779077 -1.083237 4.322708
-1.569079 -0.953666 4.748851
-1.630557 -0.987355 5.560977
-1.910456 -1.153555 6.135290
-1.820571 -1.096154 6.786771
-1.775257 -1.063860 7.850348
-1.773018 -1.059064 8.587543
-1.686170 -1.005061 9.095866
-1.581660 -0.786833 0.484334
-1.760820 -0.872003 1.360353
-1.765537 -0.871613 1.965822
-1.737628 -0.854988 2.613071
-1.800079 -0.882122 3.396665
-1.797901 -0.879024 3.845165
-1.669047 -0.813261 4.524326
-1.812314 -0.879550 5.282804
-2.108838 -1.018464 6.183096
-1.989676 -0.958537 6.692461
-1.912284 -0.917009 7.621520
-1.858161 -0.888796 8.140300
-1.758238 -0.838196 8.837772
-1.462876 -0.693982 9.924092
-1.785208 -0.689590 0.198578
-1.896933 -0.728524 1.140686
-1.776091 -0.680060 1.637663
-1.781923 -0.678494 2.548750
-1.754588 -0.665828 3.103646
-1.811508 -0.683895 3.938512
-1.825912 -0.687069 4.473628
-1.683777 -0.630271 5.354743
-1.770961 -0.660558 5.923256
-1.985425 -0.737834 6.485938
-1.865226 -0.690081 7.245920
-1.850013 -0.681437 7.981946
-1.803983 -0.661545 8.733819
-1.636874 -0.597277 9.622662
-1.840808 -0.523003 0.179666
-1.948527 -0.550507 0.895642
-1.837854 -0.515663 1.779538
-1.816773 -0.507849 2.255467
-1.796948 -0.499491 2.971098
-1.846186 -0.510018 3.749458
-1.906694 -0.522877 4.671917
-1.775466 -0.485188 5.134957
-1.927235 -0.522569 6.099392
-2.062032 -0.556888 6.579916
-1.914909 -0.514687 7.217611
-1.808884 -0.483746 7.885233
-1.824140 -0.483963 8.903637
-1.646848 -0.435149 9.480041
-1.736023 -0.309617 0.123461
-1.967859 -0.347974 0.839694
-1.797758 -0.315021 1.603281
-1.826863 -0.316617 2.514527
-1.773358 -0.305256 3.081865
-1.758695 -0.299643 3.926979
-1.856311 -0.313905 4.530562
-1.960990 -0.328519 5.277145
-1.799498 -0.300066 5.681118
-1.851746 -0.304942 6.688310
-1.913987 -0.312487 7.374721
-1.873874 -0.303216 8.108514
-1.829966 -0.293382 8.871966
-1.556288 -0.248144 9.391739
-1.760306 -0.145475 0.465341
-1.835166 -0.148152 1.393688
-1.736166 -0.138263 1.931066
-1.681437 -0.131543 2.622352
-1.828315 -0.140894 3.183929
-2.042922 -0.153767 4.040271
-2.050538 -0.152382 4.507909
-2.020760 -0.146703 5.358220
-1.887504 -0.133829 6.225207
-1.805587 -0.125770 6.868537
-1.745693 -0.119660 7.444861
-1.688594 -0.113608 8.106461
-1.651129 -0.108580 8.902409
-1.841092 0.017494 0.454863
-2.004509 0.021573 1.066064
-1.728722 0.020750 1.683943
-1.605792 0.020862 2.177912
-1.966123 0.028860 2.981457
-2.175961 0.035822 3.835213
-2.041310 0.035861 4.394879
-2.088219 0.040411 5.271476
-1.847098 0.037070 5.667613
-1.738470 0.037689 6.498268
-1.733157 0.040531 7.368838
-1.685275 0.041700 8.077909
-1.675917 0.044069 8.886715
-1.366869 0.037030 9.385938
-1.829623 0.207037 0.464339
-1.887365 0.215239 0.889421
-1.610422 0.185712 1.517143
-1.613858 0.189247 2.464034
-1.923978 0.227579 2.936357
-2.242231 0.268751 3.665022
-2.140501 0.259336 4.303995
-2.056004 0.251930 4.985480
-1.904947 0.237057 5.947415
-1.633097 0.205028 6.545188
-1.587219 0.201363 7.217862
-1.672022 0.215020 8.077909
-1.648121 0.214350 8.829579
-1.262523 0.165395 9.421319
-1.388397 0.286244 0.556341
-1.545566 0.320210 1.031422
-1.504330 0.314252 1.846551
-1.434820 0.301213 2.340504
-1.292652 0.273304 3.066079
-1.706731 0.364448 4.027620
-2.204306 0.474006 4.672585
-2.051258 0.443883 5.337325
-1.654226 0.360385 6.103911
-1.317063 0.288430 6.720383
-1.426507 0.315152 7.646947
-1.520710 0.338036 8.298987
-1.403358 0.433260 0.622593
-1.604030 0.496780 1.057038
-1.406267 0.438611 2.051628
-1.732914 0.548094 4.000044
-2.015593 0.641071 4.758629
-1.923260 0.614702 5.475206
-1.477582 0.473773 6.020375
-1.203857 0.388606 7.076300
-1.311662 0.425653 7.856075
-1.323247 0.430519 8.247205
-1.330801 0.435974 9.315499
-1.470648 0.602735 0.286340
-1.485289 0.611697 1.126088
-1.364591 0.563629 1.638556
-1.319009 0.547528 2.516450
-0.951885 0.395912 2.896006
-1.843399 0.773934 4.457791
-1.798833 0.758384 5.205363
-1.604336 0.684090 7.297164
-1.264752 0.541610 8.180002
-1.282017 0.551388 8.999114
-0.941974 0.406112 9.560109
-1.382065 0.734718 1.376057
-1.251026 0.666924 1.958640
-1.722284 0.922229 2.830362
-1.876489 1.007659 3.393843
-1.602151 0.862824 4.019008
-1.608352 0.869747 4.875497
-1.422224 0.770663 5.333686
-1.037119 0.563755 6.074225
-0.639767 0.349227 7.071886
-0.750550 0.410890 7.686896
-1.071643 0.589079 8.510865
-0.999419 0.550563 9.012724
-1.187788 0.770358 0.422060
-1.223308 0.796228 1.226717
-1.065848 0.694712 1.551576
-1.435426 0.944986 3.789979
-1.796111 1.187282 4.667289
-1.578539 1.046278 5.320609
-0.772970 0.518070 8.140092
-0.999061 0.671739 8.853053
-0.843483 0.568797 9.624815
-0.973922 0.777812 0.761518
-0.989822 0.792776 1.455261
-0.964806 0.775414 2.297626
-0.838651 0.675497 2.843529
-1.088118 0.879322 3.620932
-1.298655 1.053210 4.461248
-0.830797 0.675166 5.050957
-0.645447 0.526055 5.813149
-0.464960 0.379960 6.527914
-0.345759 0.283524 7.445403
-0.677596 0.557305 8.131744
-0.887533 0.732166 8.845862
-0.773846 0.640072 9.576304
-0.915854 0.888577 0.953591
-0.894440 0.869924 1.562311
-0.857581 0.835694 2.048366
-0.776666 0.759580 2.959724
-1.009167 0.989265 3.512872
-1.194282 1.175459 4.489812
-0.788911 0.777682 4.956851
-0.642922 0.636136 5.941405
-0.426405 0.422772 6.527914
-0.331494 0.329754 7.420659
-0.629017 0.627465 8.067791
-0.748816 0.748825 8.683673
-0.659226 0.660948 9.407895
-0.760483 0.882299 0.338118
-0.800117 0.930797 1.003157
-0.788954 0.921056 1.873296
-0.933866 1.098827 3.790941
-0.328896 0.391724 7.002392
-0.318700 0.380208 7.435314
-0.588563 0.705065 8.419650
-0.835596 1.180814 0.766793
-0.702319 0.995378 1.457320
-0.615848 0.874839 2.007160
-0.757378 1.079263 2.727401
-0.961526 1.375781 3.649909
-0.913502 1.310473 4.267269
-0.718658 1.033775 4.955366
-0.561207 0.810063 5.818207
-0.250584 0.362344 6.343317
-0.183277 0.265789 7.080064
-0.411791 0.599416 7.919409
-0.459558 0.670618 8.516676
-0.451863 0.661449 9.296844
-0.535832 0.948237 0.261388
-0.556799 0.989995 1.267064
-0.542782 0.967530 1.810860
-0.700496 1.260488 3.790941
-0.230887 0.420808 6.702447
-0.269295 0.492892 7.626876
-0.380623 0.699037 8.335292
-0.448342 1.004333 0.909926
-0.412050 0.925059 1.320039
-0.405486 0.914133 2.098744
-0.330642 0.747906 2.736688
-0.473552 1.076636 3.653620
-0.585043 1.335450 4.362080
-0.407471 0.933213 5.038597
-0.222563 0.511267 5.676472
-0.061207 0.141119 6.444855
-0.140066 0.324537 7.361748
-0.278565 0.647617 7.934586
-0.319180 0.745580 8.827038
-0.294095 0.689643 9.592414
-0.336394 0.990469 0.746442
-0.308954 0.913337 1.360753
-0.315461 0.938625 2.342965
-0.195819 0.585231 3.048238
-0.477203 1.440183 4.432443
-0.340904 1.032252 4.989356
-0.145283 0.441783 5.731442
-0.029283 0.089473 6.537552
-0.114338 0.351491 7.440782
-0.227260 0.701868 8.081303
-0.235292 0.730343 8.858554
-0.206023 0.642436 9.602012
-0.250857 1.059236 0.154897
-0.240158 1.020320 0.843365
-0.203483 0.869185 1.451230
-0.283181 1.236041 3.809708
-0.304139 1.332858 4.236882
-0.215837 0.952953 5.103885
-0.107672 0.478444 5.889004
-0.034818 0.155646 6.618165
-0.086004 0.387028 7.322186
-0.166001 0.752879 8.114881
-0.167359 0.763823 8.813499
-0.139668 0.641367 9.533437
-0.140920 0.978324 0.126209
-0.133830 0.938508 0.836018
-0.126056 0.895040 1.704287
-0.169696 1.240223 3.655559
-0.189696 1.402787 4.425798
-0.131565 0.980640 5.012981
-0.067498 0.509025 5.875141
-0.023798 0.181632 6.747270
-0.055839 0.431295 7.509613
-0.108104 0.843850 8.127549
-0.111566 0.881579 8.931935
-0.074924 0.597529 9.621384
-0.032266 0.738198 0.224860
-0.033796 0.801334 0.995691
-0.031783 0.784660 1.837190
-0.036187 0.921205 2.445164
-0.042543 1.117828 3.044712
-0.047380 1.309011 3.960995
-0.045162 1.302199 4.723724
-0.026654 0.785693 5.181082
-0.011865 0.370521 6.233471
-0.011500 0.375255 6.957094
-0.019942 0.686394 7.733492
-0.022426 0.799642 8.241809
0.027807 0.638641 0.274505
0.028807 0.646326 0.794047
0.036720 0.796449 1.562665
0.039891 0.837680 2.323569
0.024689 0.506268 2.928785
0.041104 0.813358 3.799437
0.009617 0.171924 6.687694
0.028338 0.489553 7.652254
0.050199 0.851485 8.137295
0.050547 0.836141 8.934322
0.030754 0.499399 9.627531
0.104958 0.732077 0.312846
0.093902 0.647898 1.088060
0.115577 0.791506 1.621225
0.114946 0.779674 2.317049
0.095593 0.643818 2.848052
0.145659 0.969371 3.703279
0.029687 0.190115 6.796904
0.076322 0.484017 7.528979
0.134875 0.849038 8.053816
0.145342 0.903955 9.038986
0.088869 0.549392 9.644125
0.080158 0.328673 0.088971
0.101748 0.414063 0.976536
0.178512 0.723122 1.506199
0.164005 0.658538 2.550406
0.167133 0.667016 3.279053
0.237356 0.942467 3.861307
0.288770 1.140081 4.524618
0.173813 0.683106 5.142901
0.077323 0.301514 6.182603
0.110259 0.427880 6.770725
0.191807 0.739058 7.614766
0.199384 0.765383 8.089834
0.206191 0.785150 9.138001
0.104950 0.397751 9.873537
0.143033 0.414824 0.207025
0.211522 0.611185 0.784245
0.252515 0.726351 1.485613
0.263460 0.753126 2.463474
0.176309 0.502558 2.936595
0.259146 0.733984 3.931695
0.075391 0.210075 6.688580
0.204477 0.566517 7.577271
0.319114 0.881238 8.056769
0.282997 0.778717 8.688341
0.210354 0.576078 9.565882
0.328303 0.723138 0.654080
0.357716 0.785133 1.325601
0.283940 0.621673 1.803150
0.298230 0.649891 2.705186
0.292613 0.635342 3.406307
0.343860 0.743991 4.075316
0.366314 0.789276 4.880858
0.223726 0.480268 5.660696
0.147918 0.316634 6.257478
0.261314 0.557144 7.012771
0.383957 0.815297 7.778988
0.377540 0.798899 8.489570
0.305129 0.643732 9.152966
0.557043 0.975850 0.860929
0.401192 0.701749 1.200616
0.339422 0.590963 2.215806
0.356353 0.619079 2.695403
0.308235 0.533975 3.325116
0.379832 0.655394 4.191309
0.393899 0.677786 4.803150
0.206684 0.354062 5.861619
0.115146 0.196665 6.575014
0.294855 0.501748 7.356232
0.469400 0.796678 7.886007
0.485903 0.821843 8.678265
0.361012 0.609311 9.237446
0.094452 0.134892 0.327797
0.147579 0.210036 1.159615
0.429907 0.610791 1.555071
0.384920 0.544988 2.383901
0.382557 0.540286 2.985236
0.458718 0.644954 4.048861
0.435008 0.610389 4.539391
0.297156 0.415884 5.200792
0.186381 0.259793 6.232062
0.338444 0.470287 6.958645
0.561296 0.777789 7.573183
0.537655 0.743206 8.194303
0.440531 0.607363 8.893878
0.210590 0.289573 9.676077
0.715988 0.825773 0.580841
0.537317 0.617502 1.473787
0.453799 0.520562 1.940218
0.481495 0.550197 2.910581
0.490891 0.559948 3.352712
0.475251 0.540097 4.294951
0.423533 0.479933 5.042180
0.277383 0.313682 5.597309
0.201454 0.226982 6.571564
0.434526 0.488044 7.331419
0.687937 0.770708 7.912904
0.641883 0.717264 8.604358
0.452429 0.504339 9.318481
-0.079624 -0.075944 0.360296
0.543007 0.515361 1.594167
0.507692 0.480163 2.480128
0.488772 0.461139 3.102788
0.550869 0.518435 3.726554
0.559293 0.524812 4.477644
0.368017 0.344471 5.151595
0.199736 0.186405 5.954943
0.440975 0.409899 6.944088
0.695683 0.645352 7.402841
0.764373 0.707227 8.063810
0.665862 0.613976 9.000068
0.292895 0.269379 9.824199
0.373036 0.295827 0.965338
0.604017 0.477915 1.514917
0.576150 0.454505 2.251838
0.547850 0.430700 3.100636
0.584153 0.458325 3.589725
0.611081 0.477599 4.546017
0.440881 0.343504 5.354483
0.217396 0.169102 5.812302
0.462164 0.358333 6.581475
0.773501 0.597566 7.417180
0.870742 0.670536 8.203521
0.749039 0.575683 8.742514
0.433410 0.332128 9.604814
0.747856 0.482470 1.383087
0.610210 0.392431 2.114934
0.582146 0.373394 2.726645
0.563618 0.360539 3.349901
0.608247 0.387827 4.096417
0.529926 0.336661 4.953935
0.331543 0.210088 5.591262
0.283336 0.178995 6.321059
0.515861 0.324911 6.983338
0.797500 0.500574 7.729460
0.881910 0.551461 8.606139
0.679706 0.423905 9.296844
0.628655 0.324439 1.782326
0.647900 0.333132 2.546864
0.630955 0.323338 3.237643
0.681812 0.348032 4.041902
0.581760 0.295682 4.950524
0.351977 0.178508 5.439437
0.363342 0.183396 6.440780
0.576756 0.290232 7.037395
0.853593 0.428360 7.553750
0.932420 0.465996 8.400628
0.744580 0.370785 9.216032
1.059820 0.429200 0.609022
0.796545 0.321466 1.218427
0.677104 0.271768 2.183390
0.684274 0.273892 2.664200
0.701261 0.279414 3.460219
0.685317 0.271861 4.233323
0.467470 0.184709 4.961154
0.251691 0.099100 5.620249
0.195615 0.076657 6.475832
0.557299 0.217136 7.434767
1.008093 0.391267 8.014022
0.918165 0.355258 8.588779
0.732032 0.281691 9.625011
0.976764 0.294014 0.698469
0.885160 0.264720 1.596117
0.744812 0.221882 2.141289
0.668123 0.198106 2.795165
0.682715 0.201353 3.533518
0.767460 0.225021 4.334837
0.515438 0.150412 5.026578
0.262981 0.076338 5.802399
0.239147 0.069052 6.550746
0.621997 0.178384 7.424652
1.048294 0.299082 8.052749
1.007314 0.286208 8.635219
0.674084 0.190596 9.406590
1.053687 0.209839 0.891197
0.896406 0.177668 1.352933
0.834310 0.164067 2.107575
0.776901 0.151307 3.033461
0.848193 0.164287 3.548043
1.067569 0.204826 4.417970
0.800341 0.152622 5.027628
0.440401 0.083364 5.784643
0.173858 0.032655 6.573982
0.529925 0.098608 7.395735
1.061738 0.196290 7.892359
1.078660 0.198078 8.520756
0.847073 0.154159 9.427030
0.240909 0.025795 0.545190
0.455013 0.048140 1.182795
0.950031 0.099432 1.731055
0.837512 0.085998 2.725032
1.128197 0.114676 3.218785
1.311181 0.131683 3.804346
0.974418 0.093265 6.228833
0.776266 0.073480 6.808567
1.020264 0.094840 7.640393
1.143324 0.104759 8.304240
1.083249 0.097836 9.005683
0.919448 0.010991 0.671251
1.014831 0.010695 1.378247
0.988909 0.008562 2.323549
1.362785 0.009976 2.965697
1.780900 0.010379 3.667989
1.490056 0.007152 4.212382
1.078855 0.003380 5.109066
0.668825 0.001356 5.739286
0.283938 0.000218 6.462688
0.683742 -0.000893 7.478353
1.178904 -0.002934 7.992005
1.211311 -0.004846 8.779468
0.950735 -0.005094 9.569861
1.217376 -0.106692 0.790991
1.215822 -0.108337 1.515192
1.075166 -0.097211 2.171802
1.434916 -0.131309 2.689010
1.913888 -0.178769 3.576648
1.937344 -0.183575 4.234346
0.774025 -0.077782 7.316198
1.159878 -0.118123 7.934056
1.236020 -0.127234 8.485739
1.056287 -0.110492 9.405072
