-0.807665 0.609278 8.151109
-1.018794 0.770027 8.779080
-1.088852 0.824388 9.377452
-0.990228 0.751120 10.102354
-0.958735 0.851924 0.977831
-0.955854 0.850751 1.548868
-0.945675 0.843261 2.202131
-0.893599 0.798452 2.925551
-1.126958 1.008865 3.558440
-1.432458 1.285789 4.444230
-1.252940 1.126459 5.043842
-0.533322 0.482868 7.792046
-0.831097 0.754660 8.782215
-0.919035 0.835339 9.124057
-0.999392 0.910831 10.117285
-0.566770 0.598636 1.443750
-0.671666 0.710529 1.986937
-1.157474 1.230929 3.788467
-1.256038 1.338633 4.528036
-1.098150 1.172951 5.345538
-0.953705 1.020505 6.029802
-0.719844 0.771400 6.632775
-0.462908 0.496970 7.391081
-0.555050 0.597044 8.084789
-0.840464 0.906305 8.914554
-0.926051 1.000833 9.725425
-0.901244 0.975857 10.457194
-0.788897 1.003210 0.737325
-0.747766 0.953565 1.695253
-0.838491 1.070514 2.088790
-0.884084 1.131941 3.056262
-1.042857 1.336622 3.387162
-1.201444 1.544194 4.306548
-1.039507 1.337737 4.772446
-0.984027 1.268927 5.490765
-0.945285 1.222130 6.405338
-0.682718 0.884355 7.171722
-0.478680 0.620900 7.738755
-0.596030 0.775308 8.724661
-0.786667 1.025139 9.302276
-0.649756 0.999824 1.266671
-0.692437 1.067571 1.888708
-0.755668 1.167390 2.523988
-0.681074 1.053645 2.992423
-0.852134 1.321988 3.864850
-1.046561 1.627149 4.514071
-0.923793 1.438477 5.039980
-0.374961 0.588959 8.132559
-0.550399 0.866193 8.711868
-0.660928 1.042034 9.280302
-0.727814 1.150773 10.231373
-0.510521 0.968259 1.324285
-0.572843 1.089099 2.025424
-0.642847 1.225279 2.747962
-0.507257 0.968065 3.142779
-0.845862 1.622210 4.484252
-0.750653 1.443584 5.315024
-0.664790 1.280720 5.865532
-0.576894 1.114979 6.861842
-0.333124 0.644918 7.485336
-0.338217 0.656511 8.295650
-0.530837 1.033202 9.021335
-0.624825 1.218529 9.569085
-0.583485 1.139897 10.139520
-0.522602 1.227867 1.038585
-0.549845 1.294697 1.587314
-0.534973 1.263057 2.266471
-0.572106 1.355554 3.160202
-0.677774 1.609055 3.621716
-0.745900 1.785187 5.632680
-0.572574 1.374617 6.508413
-0.417451 1.004819 7.272019
-0.343390 0.828686 7.998012
-0.391933 0.948482 8.711868
-0.502558 1.219257 9.304324
-0.524900 1.277042 10.040319
-0.377023 1.170900 1.560158
-0.462191 1.439399 2.114572
-0.433821 1.356360 2.923265
-0.376999 1.182523 3.606271
-0.601462 1.897883 4.728527
-0.489300 1.549005 5.451329
-0.420075 1.334269 6.176415
-0.402394 1.290255 8.170825
-0.343228 1.104578 9.003454
-0.410914 1.328344 9.901377
-0.361559 1.171107 10.381995
-0.263422 1.159528 1.177353
-0.286940 1.269600 1.958482
-0.303257 1.345521 2.373048
-0.387367 1.727892 3.139916
-0.481322 2.159418 3.946557
-0.489193 2.205520 4.662349
-0.238920 1.094670 7.302425
-0.185814 0.854941 8.012911
-0.216984 1.003069 8.711868
-0.271068 1.258254 9.284467
-0.276036 1.287256 10.001681
-0.124950 0.950062 1.005548
-0.169620 1.299261 1.663384
-0.192252 1.482126 2.231248
-0.236802 1.865583 4.112197
-0.268145 2.128919 4.749929
-0.227445 1.823677 5.658767
-0.195896 1.580657 6.258512
-0.179939 1.484247 8.228946
-0.154063 1.285529 9.311180
-0.047177 1.115437 1.242713
-0.052616 1.273462 1.924345
-0.057141 1.408966 2.451086
-0.070879 1.790857 3.102419
-0.084300 2.179554 3.686834
-0.086059 2.314648 4.706825
-0.081545 2.228210 5.127127
-0.070884 1.982968 5.767848
-0.058732 1.699089 6.667564
-0.041542 1.229308 7.334244
-0.030199 0.918453 8.088101
-0.035566 1.108202 8.632569
-0.044008 1.427679 9.503620
-0.040222 1.335066 10.063945
0.065786 1.479708 0.927584
0.070092 1.537078 1.722629
0.066893 1.434164 2.458073
0.101200 2.036093 4.534912
0.114058 2.275601 4.791916
0.112052 2.178175 5.732326
0.101032 1.934814 6.327756
0.078107 1.475328 6.944754
0.061028 1.124911 7.989837
0.061760 1.121862 8.590417
0.077556 1.389218 9.101500
0.083230 1.460279 9.966575
0.172507 1.238189 1.451988
0.222516 1.583051 2.286136
0.205543 1.453877 2.856801
0.246197 1.727535 3.612935
0.304272 2.125016 4.025192
0.334159 2.317003 4.703145
0.330121 2.273513 5.382214
0.303632 2.079225 5.989141
0.220425 1.467033 9.152141
0.226426 1.498185 9.795841
0.190593 1.253990 10.515741
0.248216 1.081158 1.036794
0.300914 1.304706 1.733246
0.323110 1.394809 2.404880
0.453423 1.930405 4.498373
0.524641 2.223610 5.153684
0.505931 2.133904 5.936025
0.476160 1.982911 8.035406
0.347085 1.441933 8.581485
0.358613 1.480508 9.648847
0.332054 1.366775 10.207521
0.407466 1.272521 1.679896
0.488640 1.521448 2.277315
0.463617 1.439962 2.790517
0.546360 1.691299 3.449510
0.675306 2.080903 4.337152
0.697551 2.144450 4.804299
0.685780 2.101564 5.468223
0.640634 1.956909 6.168291
0.518595 1.578776 6.969783
0.468408 1.420706 7.815600
0.487460 1.474783 8.355364
0.483021 1.457387 8.966032
0.455382 1.052888 1.384879
0.544368 1.256403 1.829641
0.578298 1.332030 2.341016
0.598901 1.374906 3.193172
0.599222 1.371038 4.062588
0.750082 1.713547 4.416121
0.909775 2.072997 5.024139
0.886616 2.012946 5.970656
0.769180 1.743686 6.424845
0.648195 1.465698 7.167382
0.626692 1.413249 7.915806
0.639706 1.437825 8.822516
0.623968 1.398681 9.588696
0.565452 1.265617 10.058078
0.713836 1.336835 1.209895
0.768957 1.438265 1.567538
0.729369 1.359658 2.547737
0.719386 1.339539 2.878946
0.857314 1.592785 3.508193
0.888833 1.647192 4.237853
0.931030 1.720849 5.001359
1.064921 1.962202 5.874958
0.926760 1.705978 6.218216
0.825909 1.515339 7.260007
0.792808 1.451498 7.936106
0.808088 1.476048 8.651179
0.760137 1.386875 9.038820
0.711734 1.295408 9.845720
0.739574 1.128514 1.429774
0.838139 1.276761 1.962687
0.875196 1.330783 2.543817
0.889875 1.348743 3.582798
0.921815 1.395076 4.058448
1.059013 1.599142 4.748241
1.155491 1.741421 5.354952
1.121618 1.687122 5.994300
0.996715 1.496488 6.647314
0.978960 1.465520 7.640078
0.933931 1.396540 8.041728
0.971077 1.447714 9.059952
0.895691 1.333828 9.489803
0.764790 1.136654 10.258025
1.001465 1.261580 1.073918
1.120300 1.407798 1.902239
1.007114 1.263329 2.515411
1.011919 1.266984 3.154486
1.011687 1.264983 3.618060
1.028676 1.283890 4.240906
1.138261 1.417752 4.924324
1.255559 1.560082 5.728569
1.173401 1.454901 6.495916
1.149842 1.422183 7.374947
1.122838 1.387022 7.838929
1.074203 1.324436 8.541561
1.062663 1.307158 9.400081
0.963486 1.183662 9.918056
1.070488 1.124634 1.500511
1.185184 1.242639 2.189449
1.121521 1.173505 2.905358
1.133248 1.184333 3.330725
1.187155 1.237590 4.195989
1.246669 1.296768 4.963179
1.263341 1.312411 5.418064
1.261633 1.307650 6.233298
1.286594 1.330178 7.130794
1.253718 1.294973 7.482586
1.257416 1.295438 8.430694
1.212662 1.247938 8.862135
1.204209 1.235882 9.885904
0.900951 0.923687 10.420313
1.025255 0.906701 1.295441
1.192507 1.053160 1.764089
1.233500 1.086862 2.557514
1.211646 1.066025 3.075148
1.235570 1.084716 3.829535
1.320146 1.156717 4.494625
1.391039 1.216094 5.269756
1.276559 1.114700 5.711189
1.311527 1.142717 6.485604
1.451134 1.261609 7.224772
1.445603 1.253941 8.048468
1.415985 1.225517 8.872705
1.352971 1.169391 9.398414
1.284789 1.108131 10.213178
1.297363 0.949456 0.976923
1.441962 1.053092 1.656742
1.313005 0.957077 2.302000
1.312571 0.955030 2.905358
1.343212 0.974853 3.747368
1.381844 1.001155 4.322324
1.522448 1.099732 5.300686
1.449651 1.045639 5.803369
1.461355 1.052196 6.409450
1.636184 1.175276 7.176643
1.629024 1.167350 7.997970
1.520545 1.088216 8.479249
1.552537 1.108021 9.449014
1.463123 1.042363 10.114087
1.357645 0.819555 1.667033
1.466171 0.883777 2.110349
1.422350 0.854833 3.026397
1.452098 0.871085 3.600922
1.514964 0.906475 4.385890
1.584613 0.945943 5.099464
1.511388 0.901114 5.500764
1.600575 0.951707 6.333554
1.749159 1.038016 6.916749
1.678509 0.994107 7.567708
1.631718 0.963995 8.379104
1.620271 0.955156 9.087317
1.557994 0.916715 9.726617
1.394277 0.818151 10.696317
1.317423 0.636101 1.140902
1.492546 0.718303 2.025575
1.453195 0.698231 2.471329
1.559139 0.746389 3.463627
1.626787 0.776950 4.095445
1.607734 0.766725 4.499938
1.706074 0.810574 5.514674
1.681013 0.797493 5.925775
1.762964 0.834156 6.643114
1.803156 0.851440 7.199552
1.787256 0.841275 8.088600
1.775902 0.834063 8.726051
1.772142 0.829722 9.614877
1.674378 0.782035 10.358187
1.550174 0.583399 1.575132
1.645912 0.617168 2.407237
1.583157 0.591899 3.085638
1.624938 0.605784 3.738720
1.640966 0.610836 4.084208
1.707884 0.633800 4.780427
1.651726 0.611056 5.509541
1.798232 0.662408 6.477257
1.948075 0.715923 6.989688
1.884641 0.691202 7.480789
1.817949 0.664940 8.135784
1.836737 0.669412 8.981565
1.763952 0.641037 9.696145
1.477974 0.535775 10.398521
1.593923 0.452042 2.397086
1.662948 0.469502 3.215063
1.686350 0.474909 3.674393
1.707992 0.478973 4.447308
1.820233 0.508260 5.217954
1.783197 0.496166 5.873272
1.828234 0.506252 6.754523
1.938032 0.535414 7.159228
1.938693 0.533112 8.024097
1.950319 0.534210 8.756423
1.962606 0.536132 9.260368
1.842439 0.501525 9.973021
1.654416 0.312579 2.421628
1.727108 0.324817 2.999509
1.753463 0.327865 3.732955
1.734656 0.323189 4.189534
1.800219 0.333658 4.841736
1.776816 0.326573 5.908567
1.724965 0.316094 6.300262
1.934494 0.352539 6.958800
2.002249 0.362712 7.704208
1.996778 0.360049 8.297652
2.064927 0.369393 9.298551
1.831412 0.172991 2.145958
1.737039 0.162300 2.859045
1.756881 0.162964 3.326680
1.793359 0.163896 4.273976
1.795015 0.163084 4.648992
1.765262 0.158442 5.426380
1.961710 0.173744 6.230888
2.144423 0.188229 6.754987
2.040445 0.177539 7.324587
1.987851 0.170958 8.065044
2.010004 0.170734 8.832708
2.008470 0.168656 9.549762
1.847172 0.153603 10.211651
1.690891 0.011049 2.819493
1.721844 0.010423 3.153560
1.812929 0.008309 4.174317
1.836167 0.006578 4.876762
1.785461 0.005605 5.198947
1.863824 0.003867 5.943272
2.077195 0.001467 6.880089
2.112913 -0.000328 7.492707
2.085943 -0.001513 7.912879
2.049010 -0.003563 8.664942
2.089554 -0.006361 9.622336
2.021816 -0.008204 10.407920
1.684263 -0.135765 2.500797
1.746148 -0.142535 3.203801
1.775952 -0.146825 3.928859
1.759353 -0.146598 4.385890
1.843113 -0.155552 5.125722
1.840436 -0.156853 5.711291
1.926952 -0.166587 6.564572
2.041946 -0.178145 7.104809
2.072206 -0.182769 7.785261
2.099788 -0.187293 8.499900
2.024405 -0.182095 9.072524
1.690290 -0.299398 2.826105
1.720808 -0.306873 3.639276
1.777166 -0.318689 4.309035
1.789050 -0.321990 4.754146
1.759876 -0.319065 5.667446
1.942517 -0.353932 6.257044
2.141201 -0.392151 6.867647
2.097679 -0.386928 7.790744
2.032221 -0.376398 8.343530
2.025926 -0.376799 8.895619
2.100672 -0.393345 9.778579
1.961879 -0.369364 10.570663
1.449672 -0.378816 1.405505
1.723939 -0.452189 2.035290
1.761982 -0.463671 2.587501
1.733728 -0.457622 3.111186
1.728307 -0.457925 3.768033
1.784678 -0.475160 4.606825
1.846982 -0.494280 5.501700
1.908073 -0.511691 5.859487
2.032004 -0.547411 6.647352
2.044649 -0.552457 7.180752
2.049684 -0.555880 7.857447
2.046362 -0.557624 8.738647
2.059586 -0.563555 9.513941
2.011849 -0.552192 10.118467
1.693123 -0.627595 2.694692
1.690293 -0.629276 3.686253
1.699085 -0.633358 3.978404
1.757852 -0.658132 4.977970
1.683204 -0.631766 5.575465
1.873573 -0.705792 6.396472
2.066366 -0.780213 6.896985
2.048417 -0.775720 7.602534
1.999470 -0.759096 8.222839
1.928143 -0.733723 8.810682
2.026206 -0.774214 9.797230
1.814753 -0.694684 10.327474
1.702449 -0.792694 2.336707
1.692476 -0.789513 2.830495
1.747880 -0.818002 3.689470
1.704795 -0.799129 4.129684
1.731253 -0.813807 4.882970
1.680570 -0.792531 5.772550
1.779167 -0.840461 6.222168
2.074455 -0.983169 7.059080
2.031893 -0.964953 7.634114
1.989622 -0.947320 8.372482
1.914325 -0.913166 8.925581
1.966231 -0.940649 9.746562
1.732316 -0.830416 10.421455
1.635479 -0.952182 2.828298
1.585582 -0.924504 3.283945
1.604726 -0.937683 3.937264
1.659328 -0.972298 4.783172
1.611316 -0.946470 5.545155
1.715270 -1.008876 5.937929
1.868397 -1.101365 6.588704
1.918413 -1.133961 7.438122
1.959422 -1.161252 8.260653
1.881752 -1.117639 8.981376
1.777137 -1.056662 9.373431
1.723135 -1.027303 10.278314
1.689125 -1.195079 1.807769
1.620852 -1.149026 2.451462
1.596583 -1.133707 2.998396
1.628471 -1.159363 3.849312
1.650710 -1.177372 4.456593
1.637722 -1.170144 5.037178
1.492004 -1.068316 5.785733
1.589765 -1.140541 6.423737
1.844004 -1.325241 6.946840
1.856818 -1.337377 7.688701
1.832392 -1.322820 8.487129
1.750281 -1.265196 8.970846
1.747910 -1.266317 9.762564
1.574185 -1.143075 10.655324
1.426208 -1.216472 1.424257
1.514286 -1.294483 2.179521
1.507985 -1.291215 2.741080
1.478219 -1.268132 3.395950
1.478955 -1.271954 4.262929
1.512061 -1.303563 5.093353
1.459396 -1.259385 5.445090
1.581659 -1.368463 6.333411
1.726345 -1.495674 6.772181
1.701334 -1.476724 7.432413
1.680566 -1.462473 8.366105
1.617113 -1.409308 8.918829
1.645561 -1.437442 9.763885
1.540794 -1.348370 10.486235
1.331143 -1.359516 1.493052
1.496912 -1.531883 2.169313
1.421126 -1.456687 2.736807
1.469027 -1.509992 3.695481
1.451036 -1.494110 4.307246
1.431305 -1.475962 4.825583
1.451218 -1.499954 5.632747
1.490895 -1.542996 6.088608
1.611345 -1.671296 6.827327
1.632543 -1.697194 7.645158
1.489281 -1.549830 8.063015
1.433182 -1.494138 8.743195
1.479552 -1.546201 9.616550
1.445605 -1.513755 10.384671
1.217555 -1.493464 0.757582
1.286964 -1.583225 1.739588
1.376075 -1.696272 2.410183
1.302560 -1.607648 2.838992
1.306464 -1.615310 3.434901
1.296465 -1.605442 3.965071
1.316656 -1.635143 4.943454
1.295228 -1.610495 5.367790
1.239540 -1.544094 6.020964
1.335027 -1.666889 6.794884
1.443200 -1.806169 7.573428
1.350425 -1.692038 8.022210
1.361492 -1.710478 8.972716
1.320667 -1.661391 9.470561
1.323238 -1.669310 10.497519
1.069346 -1.574886 0.828074
1.143158 -1.688285 1.713487
1.216793 -1.800126 2.254259
1.176669 -1.744527 2.949667
1.137320 -1.689142 3.518581
1.094165 -1.628208 4.154991
1.127781 -1.681543 4.785807
1.194058 -1.784613 5.541666
1.083572 -1.622238 6.134946
1.150669 -1.727282 6.989688
1.302704 -1.960345 7.745835
1.235231 -1.862237 8.392049
1.228430 -1.855913 9.111195
1.190391 -1.800872 9.591980
1.109356 -1.682307 10.467925
0.928508 -1.658463 0.705746
0.957127 -1.715542 1.726230
1.024855 -1.838634 1.988716
1.021581 -1.838727 2.940984
1.004278 -1.810175 3.365373
1.011366 -1.827917 4.164948
1.010555 -1.830938 4.891343
1.065875 -1.934991 5.459569
1.096894 -1.994830 5.974064
1.106628 -2.017677 6.732440
1.113261 -2.035701 7.607927
1.054266 -1.931133 8.160791
1.066144 -1.958492 9.035127
1.069373 -1.969115 9.775131
0.955970 -1.762214 10.192298
0.759512 -1.728490 1.134724
0.821021 -1.873689 1.835281
0.830004 -1.899883 2.593502
0.809367 -1.856878 3.176567
0.825659 -1.900695 4.034612
0.773517 -1.783072 4.397164
0.841699 -1.945574 5.073672
0.964353 -2.236547 5.872897
0.872131 -2.027467 6.526633
0.845333 -1.971772 7.411897
0.848457 -1.982664 7.886131
0.854476 -2.004097 8.853364
0.813906 -1.911426 9.229053
0.786067 -1.852100 10.132464
0.624577 -1.801561 0.941655
0.658863 -1.908187 1.801894
0.709728 -2.060918 2.349553
0.676282 -1.966708 2.671714
0.658689 -1.922833 3.483774
0.661803 -1.938812 4.241023
0.760895 -2.235872 4.840990
0.824319 -2.427991 5.310435
0.770350 -2.275751 5.968094
0.667969 -1.979408 6.695901
0.675044 -2.010036 7.738685
0.705958 -2.108190 8.348806
0.684259 -2.048131 8.877412
0.678529 -2.037938 9.642565
0.619198 -1.866837 10.561077
0.450876 -1.839504 1.292059
0.492291 -2.016532 1.920756
0.489879 -2.015296 2.602193
0.480708 -1.986998 3.359299
0.564271 -2.344358 4.122813
0.611759 -2.545767 4.347989
0.599276 -2.508083 5.246400
0.595112 -2.498917 5.768425
0.548096 -2.313195 6.608365
0.446737 -1.892684 7.320793
0.440934 -1.875855 7.998728
0.478875 -2.044945 8.567151
0.468622 -2.008494 9.176901
0.460689 -1.985863 10.133603
0.270594 -1.751558 1.376057
0.296361 -1.928872 1.937001
0.290568 -1.903865 2.631863
0.279638 -1.844630 3.333892
0.295346 -1.959468 3.913323
0.356931 -2.387345 4.683507
0.390011 -2.623829 5.234026
0.381856 -2.589036 6.024908
0.340451 -2.348274 7.823343
0.289070 -2.008931 8.688904
0.302404 -2.121226 9.625222
0.275607 -1.943305 10.224943
0.122200 -2.181174 1.627501
0.119519 -2.165254 2.193608
0.109512 -2.020242 2.886955
0.120354 -2.334037 4.677290
0.131730 -2.617844 5.494278
0.087609 -1.909209 8.824437
0.085823 -1.917485 9.664209
0.074942 -1.709292 10.421839
-0.055138 -1.883734 1.634112
-0.059429 -1.970556 2.242259
-0.061363 -1.960484 3.033284
-0.076284 -2.358813 3.709723
-0.084676 -2.553227 4.252169
-0.083171 -2.442460 4.881173
-0.088960 -2.544228 5.498674
-0.085151 -2.378329 6.115168
-0.087416 -2.248004 8.351086
-0.073359 -1.856835 8.914376
-0.076588 -1.885861 9.731118
-0.067462 -1.622119 10.557295
-0.222601 -1.882304 1.835158
-0.234286 -1.967641 2.381739
-0.230280 -1.919499 3.000730
-0.283217 -2.339944 3.683883
-0.313887 -2.572026 4.334327
-0.299645 -2.437603 4.958468
-0.294909 -2.382870 5.541755
-0.268090 -2.150742 6.201298
-0.257358 -2.017159 8.315058
-0.228336 -1.772151 9.303743
-0.393474 -1.839439 1.564168
-0.407451 -1.892935 2.446558
-0.393061 -1.821817 2.786757
-0.495706 -2.281997 3.712640
-0.544413 -2.499202 4.086248
-0.502644 -2.296957 4.772079
-0.529997 -2.409815 5.485863
-0.497550 -2.250996 6.255023
-0.373266 -1.682845 6.901246
-0.251832 -1.131299 7.585275
-0.259437 -1.159161 8.440102
-0.350242 -1.557465 9.091759
-0.418236 -1.849204 9.929333
-0.375785 -1.654399 10.699142
-0.556622 -1.797292 0.933646
-0.576743 -1.854277 1.771214
-0.526687 -1.686934 2.530099
-0.534040 -1.703956 3.289033
-0.569187 -1.812721 3.648644
-0.682631 -2.163648 4.555081
-0.704492 -2.227821 5.003773
-0.606656 -1.913205 5.610972
-0.543006 -1.704599 6.603477
-0.424622 -1.330694 7.045573
-0.374864 -1.169285 8.088127
-0.419124 -1.304386 8.544880
-0.483763 -1.501241 9.116178
-0.514072 -1.589019 9.960725
-0.601141 -1.456005 1.446395
-0.693977 -1.676042 2.138864
-0.667155 -1.608782 2.523277
-0.820633 -1.961858 4.619820
-0.428103 -1.013052 7.438729
-0.450295 -1.062074 8.306043
-0.619442 -1.455942 9.133829
-0.671417 -1.575279 9.583007
-0.638441 -1.494497 10.235823
-0.719758 -1.389435 1.190372
-0.761777 -1.466543 1.963938
-0.774541 -1.489086 2.351244
-0.752823 -1.442998 3.216181
-0.674321 -1.290333 3.726135
-1.027496 -1.955749 5.157081
-0.842797 -1.599659 6.053359
-0.704186 -1.334355 6.605738
-0.580947 -1.097798 7.500323
-0.550359 -1.038085 8.082256
-0.658212 -1.238938 8.669177
-0.703569 -1.321562 9.291726
-0.714860 -1.339824 9.978438
-0.843833 -1.318943 1.216861
-0.889113 -1.386814 1.875873
-0.924601 -1.438193 2.747001
-0.890128 -1.381875 3.374769
-0.708165 -1.097555 3.950859
-1.172997 -1.809712 5.299181
-0.956315 -1.472345 6.045061
-0.732234 -1.125506 6.667335
-0.581817 -0.892817 7.286388
-0.637711 -0.976343 8.046507
-0.772196 -1.179790 8.695796
-0.843612 -1.286020 9.433209
-0.827390 -1.258890 10.108202
-0.840763 -1.101710 1.081387
-0.908621 -1.187912 1.849177
-0.943534 -1.230645 2.644918
-1.160077 -1.504890 4.447667
-1.259275 -1.629983 5.172447
-1.072768 -1.385885 5.891274
-0.762225 -0.983105 6.557570
-0.553889 -0.712940 7.360299
-0.713182 -0.915362 8.332866
-0.885026 -1.134232 8.802213
-0.989321 -1.264753 9.662733
-0.950381 -1.213482 10.136114
-0.969804 -1.055005 0.991074
-0.915426 -0.994458 1.483104
-1.067147 -1.156569 2.287898
-1.022934 -1.106398 3.005017
-1.173039 -1.267075 3.446056
-1.355022 -1.460377 4.195340
-1.402550 -1.508723 4.851669
-0.759939 -0.810952 7.927178
-0.945802 -1.007319 8.589286
-1.044110 -1.110357 9.112053
-1.022422 -1.085583 9.716222
-0.886086 -0.938654 10.665973
-0.836496 -0.757708 0.839149
-0.850578 -0.768210 1.869091
-1.062790 -0.958381 2.396013
-1.056468 -0.951322 2.896659
-1.050308 -0.943994 3.560476
-1.333908 -1.195287 4.570093
-1.550012 -1.387128 4.982049
-0.908535 -0.806801 7.930486
-1.012995 -0.898142 8.482684
-1.133665 -1.002927 9.258315
-1.085790 -0.959152 9.835254
-0.665297 -0.499095 0.955180
-0.818637 -0.612428 1.894159
-1.105537 -0.825815 2.381928
-1.107561 -0.825798 3.007668
-1.109684 -0.825065 3.959605
-1.392085 -1.032652 4.694867
-0.932838 -0.685826 7.906502
-1.265374 -0.927939 8.710045
-1.275712 -0.933707 9.401584
-1.164131 -0.850184 10.235497
-0.981542 -0.608319 1.554789
-1.235482 -0.764639 1.976080
-1.156166 -0.713809 2.750064
-1.073229 -0.661441 3.315714
-1.054839 -0.648282 4.212725
-1.386455 -0.850756 4.656419
-0.837424 -0.509416 7.588771
-1.174270 -0.712246 8.458624
-1.319171 -0.799198 8.802585
-1.356261 -0.819696 9.592161
-1.162269 -0.701125 10.301086
-0.430587 -0.218031 0.992647
-0.856725 -0.432773 1.663212
-1.224183 -0.616332 2.588104
-1.188437 -0.596939 3.254785
-1.082211 -0.542604 3.781402
-1.329657 -0.664773 4.559211
-0.752684 -0.372920 7.307992
-1.087063 -0.537132 8.025661
-1.380572 -0.680875 8.500474
-1.368414 -0.673284 9.207258
-1.339618 -0.656904 10.229328
-1.350550 -0.531974 1.478558
-1.216771 -0.477429 2.414101
-1.114369 -0.436369 2.907691
-1.118267 -0.436474 3.692125
-1.081087 -0.420764 4.386475
-1.167949 -0.453651 4.865069
-1.215929 -0.471028 5.505385
-1.021429 -0.394433 6.317654
-0.872130 -0.335689 7.155075
-1.196068 -0.458687 7.989987
-1.377775 -0.527710 8.252801
-1.382909 -0.527990 9.048017
-1.329123 -0.505912 9.833628
-1.029107 -0.390506 10.728075
-0.785066 -0.229904 1.290197
-0.973502 -0.283776 2.165064
-1.102758 -0.320650 2.632757
-1.118773 -0.323663 3.596615
-1.114997 -0.321897 3.995707
-1.181571 -0.339836 4.704545
-1.283005 -0.367092 5.683320
-1.026676 -0.293076 6.174268
-0.843794 -0.239888 7.007153
-1.200215 -0.339788 7.743518
-1.549504 -0.437274 8.274923
-1.501204 -0.422186 8.959366
-1.423314 -0.398530 9.845720
-1.203661 -0.335843 10.620256
-0.984797 -0.196211 0.860310
-1.206631 -0.239154 1.560158
-1.096852 -0.216342 2.221168
-1.110621 -0.217757 3.021715
-1.119648 -0.218569 3.608287
-1.191020 -0.231108 4.406622
-1.251698 -0.241484 5.171868
-1.085187 -0.208618 5.677182
-0.927665 -0.177178 6.589564
-0.899140 -0.170845 7.300831
-1.243475 -0.234868 8.031578
-1.580318 -0.296915 8.661788
-1.400778 -0.262025 9.312374
-1.248097 -0.232205 10.103885
-1.162649 -0.126298 2.883090
-1.182672 -0.127276 3.593888
-1.228850 -0.131190 4.194887
-1.277224 -0.135062 4.905925
-1.261396 -0.132176 5.593914
-0.992005 -0.103173 6.206082
-0.814428 -0.084026 6.849821
-1.159955 -0.118175 7.725053
-1.452088 -0.147082 8.087288
-1.695927 -0.169501 9.013985
-1.590035 -0.157656 9.636274
-1.213024 -0.119173 10.443115
-0.395120 -0.006367 1.352483
-0.610111 -0.009175 2.118591
-1.042260 -0.014986 2.560017
-1.075534 -0.014088 3.470377
-1.047183 -0.013106 3.891209
-1.054402 -0.012248 4.537624
-1.170164 -0.012066 5.463624
-0.985265 -0.009472 6.003831
-0.832047 -0.007145 6.790590
-0.772589 -0.005949 7.465299
-1.113182 -0.007599 8.040523
-1.552129 -0.008904 8.743043
-1.534150 -0.007071 9.597534
-1.235354 -0.004661 10.329845
-0.732327 0.048101 1.030517
-0.879811 0.059064 2.056070
-1.056014 0.071484 2.441511
-1.015861 0.069775 3.149922
-0.995195 0.069394 3.897083
-1.008907 0.071070 4.406368
-1.120931 0.080189 5.177424
-0.979462 0.071129 5.985855
-0.832293 0.061194 6.677257
-0.778611 0.058100 7.501478
-1.017588 0.076801 8.082270
-1.478178 0.112976 8.676429
-1.583099 0.122832 9.514491
-1.259422 0.098360 9.998513
-0.756704 0.119006 1.237859
-0.859369 0.135921 1.857681
-1.049273 0.166939 2.495315
-1.006308 0.161057 3.158901
-0.992302 0.159951 3.959967
-1.049493 0.170138 4.600399
-1.169044 0.190873 5.396989
-0.958577 0.156983 5.783678
-0.841480 0.138934 6.767521
-0.800333 0.132964 7.523070
-1.063319 0.177749 8.210815
-1.492509 0.250913 8.791453
-1.547796 0.261640 9.452709
-1.291460 0.219386 10.149908
-0.858712 0.217592 1.088970
-0.928504 0.236028 1.627232
-1.062270 0.271609 2.609886
-1.011264 0.259386 3.156513
-0.943061 0.242937 3.909010
-0.998122 0.258079 4.550017
-1.122079 0.291040 5.080248
-1.049087 0.273271 5.847065
-0.859104 0.224469 6.432279
-0.802874 0.210723 7.262848
-1.057466 0.278689 7.959923
-1.432740 0.379455 8.771440
-1.420265 0.376999 9.194354
-1.354801 0.361644 10.277141
-1.208927 0.422105 0.906575
-1.141908 0.400069 1.659548
-1.065387 0.374473 2.382270
-1.082522 0.381420 2.921057
-0.872677 0.308216 3.477124
-1.118606 0.397068 4.583078
-1.385804 0.492844 4.968500
-1.240086 0.445398 7.267888
-1.032963 0.372041 7.977838
-1.236807 0.446221 8.331510
-1.412828 0.511528 9.127665
-1.191027 0.540208 0.985983
-1.127481 0.512817 1.729636
-1.026357 0.467921 2.364373
-1.045407 0.477630 2.938943
-1.141988 0.523332 3.740011
-1.294440 0.594445 4.287935
-1.287475 0.592689 4.949454
-1.068987 0.495659 6.980704
-0.948018 0.440897 7.867161
-1.188439 0.553901 8.417810
-1.319584 0.617061 9.332073
-1.143293 0.535419 9.823583
-0.777539 0.436320 1.251225
-0.774256 0.435162 1.730092
-0.982817 0.553561 2.364373
-0.947272 0.534806 3.089024
-1.182619 0.669674 3.971509
-1.412483 0.801682 4.638793
-1.226566 0.697436 5.232183
-1.097192 0.625069 5.852059
-0.946930 0.540833 6.681596
-0.721779 0.413076 7.385637
-0.969669 0.556577 8.267432
-1.236666 0.711497 8.948368
-1.247191 0.718668 9.452295
-1.082021 0.624807 10.207852
-0.825002 0.567052 1.958483
-0.920106 0.633571 2.554199
-0.951155 0.656854 3.516154
-1.237639 0.855854 3.926823
-1.300337 0.900844 4.518826
-1.057563 0.734501 5.407450
-0.868094 0.603857 5.981422
-0.771879 0.538396 6.946612
-0.609587 0.426160 7.786338
-0.745680 0.521907 8.157120
-1.079017 0.756883 8.834887
-1.092185 0.767649 9.540568
-0.964123 0.679010 10.318102
-0.883313 0.742771 0.856394
-0.981456 0.827148 1.629032
-1.015145 0.857367 2.367788
-1.014679 0.857766 2.689913
-1.213688 1.028719 3.585552
-1.403855 1.192780 4.393270
-1.289525 1.096738 4.763651
-0.523895 0.448934 7.665146
-0.789466 0.678486 8.669586
-1.029365 0.886045 9.168292
-0.575993 0.571622 1.109510
-0.641210 0.637974 2.018480
-1.175700 1.175801 3.773778
-1.312284 1.315226 4.507046
-1.211605 1.216785 5.246073
-0.641400 0.648827 8.061080
-0.819388 0.830328 8.655614
-0.922794 0.937012 9.382385
-0.909004 0.925351 10.359310
-0.936628 1.112135 0.848561
-0.945099 1.125402 1.832889
-0.831496 0.991222 2.227161
-0.789293 0.942973 2.994702
-0.986416 1.180511 3.564550
-1.228991 1.473776 4.213838
-1.140728 1.371709 5.190177
-0.473942 0.574217 8.111625
-0.671981 0.815250 8.531352
-0.848147 1.031235 9.270793
-0.854289 1.041013 10.099508
-0.564507 0.809632 1.121628
-0.627146 0.901612 1.907765
-0.955404 1.381207 3.700496
-1.065158 1.543509 4.451104
-0.956212 1.389362 5.368495
-0.448780 0.656764 8.003457
-0.664850 0.975461 8.805034
-0.778760 1.145425 9.622371
-0.770025 1.134865 10.345508
-0.682222 1.198045 1.526371
-0.730500 1.284755 1.974562
-0.694547 1.224590 2.736987
-0.656705 1.160883 3.533067
-0.776550 1.375544 4.123886
-0.875734 1.554313 4.696425
-0.718610 1.278885 5.569021
-0.666317 1.188887 6.385980
-0.601134 1.074147 6.866978
-0.397792 0.712368 7.655137
-0.398528 0.715368 8.410056
-0.554950 0.998081 8.949796
-0.633234 1.141394 9.616929
-0.585444 1.057462 10.328447
-0.596997 1.290127 2.263000
-0.632330 1.370444 3.031552
-0.734890 1.597030 3.727061
-0.787679 1.722598 5.396850
-0.656782 1.441063 6.342701
-0.569515 1.258663 8.390197
-0.526903 1.167600 9.170793
-0.391564 1.099799 1.267637
-0.421218 1.187517 2.095187
-0.459723 1.299573 2.685803
-0.450527 1.276766 3.243416
-0.549392 1.561986 3.926407
-0.669526 1.909878 4.608077
-0.612404 1.752407 5.322265
-0.519729 1.489884 5.768295
-0.369268 1.073278 9.019022
-0.432087 1.258400 9.435760
-0.447951 1.309516 10.302430
-0.258507 0.997648 0.913511
-0.271992 1.054807 1.746517
-0.361219 1.405846 2.332156
-0.359228 1.402890 2.912165
-0.275969 1.080415 3.366666
-0.486964 1.922500 4.676240
-0.376443 1.491889 5.393121
-0.325636 1.296765 6.252654
-0.344828 1.391236 8.490392
-0.298421 1.207410 9.037110
-0.198113 1.226471 1.264738
-0.208546 1.296385 1.716777
-0.218303 1.365864 2.426327
-0.276836 1.742998 3.078495
-0.334918 2.124844 3.857377
-0.338653 2.157787 4.311171
-0.190133 1.243960 7.346602
-0.144786 0.950905 7.839641
-0.154852 1.024602 8.651640
-0.193661 1.289124 9.250930
-0.209122 1.405003 10.251876
-0.082083 1.136468 1.188095
-0.090125 1.262282 1.763962
-0.099584 1.419058 2.610751
-0.122155 1.757266 3.043393
-0.149132 2.192324 4.027570
-0.153346 2.288963 4.727768
-0.065665 1.060744 8.654250
-0.085430 1.409566 9.537251
-0.084528 1.419401 10.339241
0.026920 1.502399 0.794176
0.030335 1.602317 1.498198
0.028050 1.413464 2.147692
0.045361 1.952767 4.466965
0.054236 2.245386 5.071280
0.050605 2.043557 5.532741
0.048171 1.863251 6.342303
0.045820 1.599696 8.437351
0.040364 1.365101 9.194948
0.047270 1.541772 9.971085
0.145798 1.428131 1.070862
0.160401 1.556340 1.738962
0.148290 1.425368 2.422611
0.207236 1.940817 4.271653
0.250900 2.320490 5.145650
0.232312 2.137677 5.559007
0.212059 1.929241 6.472302
0.154359 1.397453 6.969316
0.109756 0.985301 7.747227
0.121607 1.080864 8.551956
0.149475 1.318177 9.148383
0.163180 1.426286 9.877962
0.237186 1.228662 1.478734
0.277411 1.430700 2.046957
0.280498 1.438139 2.821375
0.386154 1.969219 3.477778
0.453857 2.304114 4.025924
0.438795 2.219641 4.511888
0.453311 2.280308 5.244538
0.418299 2.094473 5.901850
0.346464 1.725566 6.710107
0.240626 1.193657 7.393269
0.231596 1.142953 8.150827
0.296097 1.452388 8.961661
0.310624 1.515597 9.728388
0.276929 1.346075 10.354390
1.584621 -0.009911 1.511287
1.648627 -0.013445 2.835323
1.782307 -0.015957 3.381190
1.671436 -0.017351 4.398962
1.733618 -0.019643 5.063052
1.785220 -0.023159 6.226517
2.014379 -0.028079 6.874002
2.027328 -0.030018 7.497091
1.964787 -0.031130 8.268970
1.927366 -0.032757 9.130813
1.836266 -0.033597 10.136561
1.594106 -0.030130 10.677548
1.782435 -0.167939 1.602511
1.715164 -0.164201 2.652413
1.777798 -0.171882 3.302665
1.654304 -0.162572 4.425107
1.710819 -0.169805 5.106547
1.746508 -0.175733 6.065935
1.989900 -0.202508 6.832761
2.053946 -0.211138 7.552712
1.988885 -0.206277 8.231570
1.918089 -0.200915 9.004662
1.936049 -0.204562 9.673755
1.640605 -0.174923 10.489510
1.620050 -0.286711 1.621566
1.796747 -0.320274 2.470870
1.731165 -0.311410 3.581548
1.780203 -0.322155 4.310812
1.751983 -0.318807 5.001479
1.828831 -0.334983 5.812976
1.943318 -0.359379 7.012011
2.003884 -0.372465 7.656035
1.923857 -0.359595 8.412804
1.861269 -0.350143 9.295137
1.862274 -0.352013 9.950423
1.586611 -0.301342 10.707623
1.675766 -0.444836 2.758289
1.799618 -0.479468 3.382303
1.722392 -0.461697 4.458079
1.725630 -0.464145 5.061536
1.797131 -0.485655 5.889693
2.007274 -0.545119 6.734403
1.989644 -0.543069 7.662221
1.932411 -0.529288 8.323537
1.861531 -0.512297 9.239586
1.852071 -0.511561 9.946251
1.633390 -0.451977 10.371603
1.725323 -0.604296 2.594086
1.737848 -0.611428 3.573574
1.682576 -0.594738 4.604905
1.707220 -0.604930 5.146792
1.738952 -0.618844 6.112263
1.935723 -0.691436 6.913304
1.920807 -0.688300 7.647422
1.845552 -0.663409 8.395533
1.826239 -0.658659 9.187735
1.803236 -0.652087 9.829325
1.532390 -0.556077 10.772559
1.662002 -0.748849 2.804619
1.612723 -0.729296 3.764472
1.661367 -0.753384 4.492096
1.597592 -0.726899 5.397724
1.653639 -0.754932 6.292837
1.844993 -0.844357 6.915201
1.771135 -0.813440 7.908731
1.778448 -0.818605 8.522017
1.762481 -0.813522 9.313702
1.703037 -0.788064 10.054287
1.474655 -0.683206 10.485472
1.607180 -0.884236 2.127448
1.576529 -0.869725 2.926769
1.626867 -0.899559 3.599824
1.597140 -0.885968 4.561102
1.590239 -0.884488 5.361079
1.709673 -0.953553 6.174349
1.790300 -1.001669 7.116011
1.802962 -1.010498 7.645007
1.745293 -0.980627 8.441295
1.674514 -0.943295 9.282807
1.626292 -0.918024 9.963268
1.392124 -0.786901 10.490168
1.598486 -1.070844 1.919674
1.607700 -1.079507 2.659070
1.528226 -1.029249 3.643149
1.533887 -1.035763 4.491755
1.541443 -1.043737 5.393888
1.657149 -1.124902 6.197405
1.733315 -1.179346 6.952533
1.660703 -1.132954 7.868966
1.639706 -1.120713 8.510302
1.614601 -1.105849 9.235959
1.541093 -1.057591 9.954608
1.288959 -0.886189 10.708628
1.514779 -1.197973 2.606315
1.406910 -1.115969 3.625385
1.461711 -1.161500 4.223934
1.486203 -1.184325 5.195638
1.433816 -1.145676 6.146934
1.539154 -1.232063 6.750154
1.598215 -1.283270 7.814703
1.505544 -1.211529 8.634327
1.522252 -1.227058 9.244595
1.474035 -1.190879 10.093289
1.308885 -1.058250 10.441276
1.442584 -1.346213 1.807376
1.440426 -1.347186 2.572703
1.354137 -1.269211 3.329920
1.381526 -1.297127 3.929744
1.434277 -1.350176 4.833950
1.486500 -1.403916 5.974668
1.537070 -1.454689 6.698282
1.533602 -1.453726 7.271140
1.422773 -1.352678 8.386898
1.404694 -1.337515 8.952809
1.359013 -1.296319 9.633715
1.407914 -1.546477 1.849082
1.370194 -1.507524 2.417489
1.278706 -1.410047 3.208721
1.267223 -1.400351 3.947052
1.420564 -1.574396 4.933818
1.532966 -1.703591 5.854054
1.393537 -1.551072 6.446891
1.320122 -1.472357 7.197758
1.334087 -1.492180 8.222945
1.301431 -1.458697 9.001208
1.290505 -1.448179 9.448216
1.163498 -1.534930 2.553521
1.158103 -1.530009 3.034586
1.102961 -1.461756 4.102976
1.307287 -1.736674 4.856107
1.411291 -1.879992 5.750629
1.242635 -1.658665 6.489905
1.149371 -1.536865 7.126363
1.149791 -1.540895 7.911388
1.164045 -1.563411 8.674331
1.148555 -1.546229 9.517357
1.110290 -1.722736 2.260181
1.007665 -1.567953 3.173049
0.951776 -1.485108 4.068544
1.282582 -2.013324 5.884093
1.148515 -1.805231 6.350860
1.049080 -1.652459 7.081077
1.032366 -1.630585 7.986498
1.013377 -1.604986 8.907750
1.008425 -1.600248 9.564469
0.925641 -1.471683 10.262658
0.621670 -0.989910 10.981791
0.927557 -1.757733 2.406708
0.889141 -1.688749 3.060530
0.690420 -1.315177 3.956727
1.156662 -2.218376 5.770729
0.979798 -1.883399 6.495355
0.713822 -1.375072 7.251071
0.726105 -1.401536 7.845138
0.875793 -1.696618 8.855847
0.875551 -1.699532 9.460656
0.793860 -1.877597 2.286017
0.690250 -1.639649 3.389874
0.498387 -1.184779 3.632839
0.955669 -2.294113 5.905640
0.831066 -1.998776 6.442310
0.561264 -1.353493 7.275763
0.576509 -1.393212 7.818477
0.730638 -1.772399 8.703485
0.700465 -1.705399 9.680999
0.608504 -1.821500 0.718574
0.528832 -1.587939 1.373144
0.576516 -1.740735 2.515157
0.567987 -1.721483 3.303074
0.527596 -1.603636 3.912310
0.741740 -2.280536 6.186268
0.647823 -1.996662 6.758446
0.473556 -1.461116 7.106970
0.398424 -1.234973 8.158367
0.506671 -1.576146 8.846533
0.535430 -1.670695 9.483740
0.469376 -1.471020 10.517098
0.425724 -1.746689 2.601902
0.427280 -1.759337 3.172026
0.560242 -2.335190 5.039523
0.528230 -2.213509 5.905335
0.462610 -1.946863 6.646617
0.297341 -1.255568 7.352239
0.222477 -0.941649 7.817648
0.313595 -1.335454 8.739471
0.394302 -1.688730 9.588068
0.346870 -1.492516 10.434312
0.245182 -1.550807 1.421049
0.280394 -1.788583 2.311770
0.268654 -1.726802 3.127116
0.306109 -1.993367 4.472757
0.358658 -2.351023 5.107666
0.344114 -2.271236 5.836966
0.285154 -1.897231 6.753810
0.182534 -1.215556 6.996194
0.123538 -0.829071 7.928174
0.190164 -1.290852 9.056444
0.239818 -1.641421 9.853370
0.224768 -1.543846 10.268099
0.111627 -1.558281 1.438534
0.123183 -1.755144 2.433331
0.114250 -1.658519 3.344734
0.141277 -2.092526 4.248930
0.150890 -2.290292 5.355108
0.122357 -1.873736 5.837734
0.100311 -1.557789 6.548715
0.073479 -1.156550 7.261517
0.054996 -0.875748 7.871429
0.079292 -1.298735 9.074073
0.101558 -1.685351 9.561205
0.085894 -1.447132 10.321513
-0.010136 -1.439314 1.530791
-0.013476 -1.552024 2.674226
-0.016477 -1.688815 3.415028
-0.023554 -2.035560 4.644232
-0.027248 -2.221517 5.102229
-0.019946 -1.499986 5.959907
-0.018249 -1.316751 6.402566
-0.015514 -1.042442 7.212223
-0.014230 -0.894190 8.016907
-0.021814 -1.251988 9.064000
-0.027583 -1.494545 9.777954
-0.026506 -1.371092 10.489072
-0.128613 -1.449628 1.432923
-0.150261 -1.667683 2.377413
-0.149611 -1.631931 3.475792
-0.186623 -1.997364 4.653203
-0.206486 -2.191764 5.162195
-0.160092 -1.684137 5.846652
-0.119753 -1.245285 6.726884
-0.086808 -0.895541 7.365314
-0.092016 -0.940582 8.019452
-0.124897 -1.256034 9.139625
-0.149625 -1.493996 9.606880
-0.135134 -1.334151 10.520281
-0.217807 -1.253149 1.414802
-0.254071 -1.446219 2.681033
-0.290946 -1.647087 3.318589
-0.342430 -1.916446 4.671231
-0.373561 -2.077192 5.436812
-0.309672 -1.717180 5.844035
-0.203539 -1.121644 6.753253
-0.153215 -0.842241 7.134871
-0.168588 -0.918592 8.289223
-0.235138 -1.274946 8.852267
-0.244265 -1.315082 9.803488
-0.232397 -1.243525 10.679928
-0.338637 -1.259697 2.686334
-0.380224 -1.408160 3.457068
-0.506971 -1.866158 4.482173
-0.572810 -2.094259 5.655558
-0.458836 -1.673087 6.220923
-0.257341 -0.936201 6.802349
-0.169241 -0.614053 7.384397
-0.258433 -0.933637 8.137748
-0.345520 -1.241331 9.135789
-0.338664 -1.211677 9.962100
-0.289243 -1.032600 10.458780
-0.424171 -1.182623 2.738749
-0.370760 -1.029985 3.571679
-0.639112 -1.758189 5.692894
-0.546587 -1.502097 5.980249
-0.298178 -0.816771 6.889729
-0.266461 -0.727948 7.552636
-0.389344 -1.058858 8.566033
-0.459024 -1.244866 9.198606
-0.422569 -1.142245 10.046074
-0.306178 -0.825807 10.711471
-0.521949 -1.150588 2.587648
-0.481394 -1.057195 3.606774
-0.812245 -1.770860 5.450722
-0.629690 -1.370371 6.019714
-0.358055 -0.778058 6.559477
-0.343703 -0.744744 7.373592
-0.489621 -1.056378 8.518286
-0.562790 -1.211373 9.154573
-0.527377 -1.131906 10.015067
-0.385326 -0.825927 10.515113
-0.546832 -0.984409 2.593797
-0.615634 -1.105771 3.262037
-0.540917 -0.961419 6.513592
-0.384254 -0.680942 7.525764
-0.580399 -1.025257 8.456334
-0.660273 -1.164174 9.017464
-0.596098 -1.048091 9.971021
-0.447579 -0.785792 10.559723
-0.605670 -0.904963 2.485811
-0.526270 -0.784514 3.261114
-0.530250 -0.782618 6.613139
-0.384761 -0.567018 7.195619
-0.612618 -0.900322 8.062737
-0.732936 -1.074238 8.954399
-0.722496 -1.056721 9.701737
-0.574743 -0.838600 10.650331
-0.665541 -0.839007 2.530187
-0.623491 -0.784540 3.181010
-1.121538 -1.402991 5.112863
-0.731705 -0.913482 5.927348
-0.414480 -0.516879 6.417958
-0.500766 -0.623001 7.253795
-0.732777 -0.908882 8.277135
-0.808811 -1.000745 9.144607
-0.812563 -1.004046 9.640004
-0.624933 -0.770337 10.646489
-0.686222 -0.722315 2.448128
-0.602865 -0.633072 3.305796
-0.988506 -1.031928 5.350229
-0.625988 -0.652579 5.944310
-0.365170 -0.379959 6.719870
-0.573328 -0.594783 7.764471
-0.893195 -0.924689 8.434084
-0.940114 -0.971559 9.075344
-0.817056 -0.842114 10.156772
-0.490244 -0.504753 10.711932
-0.696937 -0.631486 2.653403
-0.630925 -0.570315 3.511013
-0.771296 -0.695597 4.314530
-0.862856 -0.776204 5.205107
-0.601537 -0.540157 5.915678
-0.277147 -0.248319 6.813953
-0.959600 -0.855578 8.434084
-0.898155 -0.798411 9.577302
-0.784083 -0.696324 9.998115
-0.321212 -0.285017 10.521906
-0.566610 -0.431526 1.827712
-0.716232 -0.544098 2.688731
-0.613831 -0.465217 3.511702
-0.695370 -0.525162 4.725162
-0.852392 -0.642272 5.497684
-0.622877 -0.468596 6.101835
-0.313505 -0.235544 6.644246
-1.083092 -0.808852 8.596817
-0.985014 -0.734234 9.307396
-0.748605 -0.556978 10.078851
-0.619951 -0.395298 1.837435
-0.718463 -0.456826 2.742020
-0.628335 -0.398414 3.654812
-0.731569 -0.462313 4.743027
-0.925350 -0.583663 5.330385
-0.609260 -0.383231 6.308037
-0.288492 -0.181221 6.834711
-1.146590 -0.716004 8.596817
-1.017823 -0.634064 9.457653
-0.785838 -0.488720 10.123433
-0.725200 -0.383389 1.957586
-0.797100 -0.420452 2.616990
-0.673129 -0.353888 3.609989
-0.763245 -0.400129 4.442836
-0.834328 -0.435736 5.565719
-0.647425 -0.337375 6.272149
-0.350017 -0.182217 6.635183
-1.220828 -0.631005 8.611001
-1.115573 -0.575130 9.431824
-0.854589 -0.361682 2.617367
-0.737585 -0.311020 3.573866
-0.858957 -0.361136 4.317145
-0.977404 -0.409518 5.192048
-0.758227 -0.316800 5.958613
-0.343518 -0.143059 6.911071
-1.126955 -0.465565 8.854351
-1.200585 -0.495042 9.339594
-0.952658 -0.391818 10.104750
-0.349856 -0.143693 10.690233
-0.881322 -0.285040 2.554546
-0.838255 -0.270078 3.359295
-0.827133 -0.265438 4.194836
-0.938769 -0.299837 5.177873
-0.846506 -0.269343 5.997862
-0.512314 -0.162611 6.586919
-1.215121 -0.381993 8.487008
-1.175953 -0.368545 9.161140
-0.955407 -0.298199 10.127193
-0.436253 -0.136033 10.507684
-0.684636 -0.167471 1.463531
-0.858409 -0.208443 2.661621
-0.735772 -0.177949 3.333067
-0.751444 -0.180904 4.090608
-0.962935 -0.230497 5.002180
-0.903121 -0.215064 5.864032
-0.650836 -0.154450 6.487644
-0.683541 -0.161094 7.639292
-1.091848 -0.255878 8.480860
-1.172577 -0.273419 9.302540
-0.989895 -0.229897 10.038246
-0.574670 -0.132982 10.795961
-0.571072 -0.087354 1.696540
-0.980052 -0.148901 2.394198
-0.758571 -0.114285 3.306181
-0.696008 -0.103901 4.287912
-0.994282 -0.147321 5.036665
-0.939964 -0.137831 6.142114
-0.757157 -0.110672 6.514625
-0.491979 -0.071267 7.531430
-0.875068 -0.125494 8.512269
-1.223585 -0.174281 9.143474
-1.038320 -0.146787 9.998115
-0.638416 -0.089854 10.601692
-0.668222 -0.047737 1.544371
-0.915032 -0.063937 2.644121
-1.045477 -0.072010 3.341177
-0.997231 -0.067287 4.350745
-0.949082 -0.062819 5.284741
-1.040486 -0.067940 5.917884
-0.665357 -0.042647 6.873606
-0.505634 -0.032083 7.389888
-0.903763 -0.056137 8.301525
-1.158908 -0.070009 9.523721
-1.008262 -0.060245 10.073820
-0.528712 -0.031384 10.528357
-0.986971 0.009097 2.537613
-1.141276 0.012110 3.518395
-1.230406 0.014542 4.371778
-1.083425 0.014018 5.199739
-1.042592 0.014633 6.005027
-0.690788 0.010449 6.880088
-0.317232 0.004952 7.322923
-1.226788 0.022534 9.187643
-1.070537 0.020560 9.873785
-0.574484 0.011549 10.729174
-0.929043 0.089598 2.671231
-1.119665 0.109532 3.633477
-1.136162 0.112740 4.628320
-1.222531 0.122939 5.567784
-1.200813 0.122024 6.332554
-0.792950 0.081072 6.870203
-0.352491 0.036236 7.380506
-1.156245 0.122458 9.514868
-1.006161 0.107423 10.211445
-0.490834 0.052649 10.763142
-0.911590 0.164995 0.962474
-0.916143 0.167134 1.951686
-0.916269 0.168028 2.608451
-1.213786 0.225983 4.511892
-1.151121 0.215662 5.335504
-1.151505 0.217272 6.274384
-0.693885 0.131651 7.114800
-0.349449 0.066539 7.688762
-1.111873 0.214617 9.407980
-0.855644 0.226609 1.115473
-0.962275 0.255939 1.863448
-0.853423 0.227999 2.661621
-1.208867 0.326427 4.537723
-1.103064 0.299285 5.424046
-1.093499 0.298271 6.407215
-0.797019 0.217742 6.762823
-0.343049 0.094124 7.688762
-1.097948 0.304173 9.372540
-0.940548 0.261491 10.122967
-0.300999 0.083873 10.791737
-0.576982 0.204926 1.743078
-0.912788 0.325431 2.582128
-1.438846 0.518022 4.731337
-1.317797 0.476209 5.602548
-1.178547 0.426889 6.173538
-0.740141 0.268819 6.906018
-0.350187 0.127354 7.307942
-1.016899 0.373064 9.269386
-0.958076 0.352713 10.158090
-0.581743 0.214432 10.597857
-0.743523 0.334518 1.649311
-1.068998 0.482490 2.478666
-1.310378 0.593945 3.580004
-1.489279 0.677812 4.650894
-1.205756 0.550090 5.345987
-1.011811 0.462270 5.774254
-0.744274 0.341330 6.885658
-0.388947 0.178578 7.293045
-0.481225 0.221622 8.149864
-0.926104 0.427874 8.951384
-0.901597 0.417864 9.878320
-0.704036 0.326812 10.410897
-0.889052 0.491465 1.375913
-0.968937 0.537884 2.638122
-1.294777 0.720999 3.536218
-1.505878 0.841043 4.398262
-1.271573 0.712115 5.262468
-1.134597 0.636547 5.841585
-0.912267 0.513014 6.622219
-0.533789 0.300804 7.378271
-0.464631 0.262518 8.245653
-0.776354 0.439717 8.952746
-0.973504 0.552819 9.745190
-0.792112 0.450767 10.515113
-0.802266 0.536629 1.491607
-0.996157 0.668358 2.479269
-1.202065 0.809560 3.694117
-1.388055 0.937529 4.615495
-1.247633 0.843890 5.113452
-1.072428 0.726925 5.859216
-0.803038 0.545734 6.802349
-0.414286 0.281713 7.109363
-0.411199 0.280374 8.066422
-0.807863 0.552334 8.905603
-0.887688 0.608792 9.984688
-0.711784 0.488757 10.498319
-0.718025 0.567714 1.860884
-0.841982 0.667270 2.655415
-1.142040 0.907633 3.597599
-1.190720 0.949711 4.826939
-1.171141 0.936219 5.623748
-1.073202 0.859713 6.381240
-0.725606 0.581737 6.762422
-0.261850 0.210316 7.558960
-0.863250 0.696912 9.265381
-0.858502 0.694918 10.263577
-0.471262 0.381894 10.853667
-0.765380 0.723032 1.169007
-0.867721 0.821438 1.906251
-0.757554 0.718931 2.797893
-1.108002 1.058079 4.956715
-1.009392 0.965406 5.533518
-0.916735 0.879010 6.475020
-0.649977 0.623771 6.869463
-0.332999 0.320268 7.781393
-0.492259 0.474539 8.609323
-0.804198 0.776996 9.350014
-0.878077 0.983568 2.062890
-0.676637 0.759902 3.002857
-1.141392 1.288649 4.787430
-0.943711 1.067794 5.610039
-0.843336 0.956397 6.457374
-0.651295 0.739467 6.940073
-0.409376 0.465998 7.980891
-0.532043 0.606564 8.514038
-0.712502 0.814659 9.536277
-0.767420 1.013456 2.240081
-0.601860 0.796974 3.189907
-1.206282 1.607321 5.184012
-0.991871 1.324095 5.882849
-0.678432 0.907494 6.684559
-0.502954 0.673804 7.293104
-0.404144 0.542540 8.069880
-0.530953 0.714391 8.840523
-0.699173 0.942864 9.590345
-0.760563 1.190539 0.682093
-0.553319 0.868569 1.593749
-0.672103 1.057345 2.284209
-0.525217 0.828831 3.305630
-1.189237 1.889461 5.305861
-1.034002 1.645949 5.962453
-0.650157 1.036355 6.547646
-0.406894 0.649451 7.082636
-0.319972 0.511795 7.834331
-0.476741 0.765118 8.908121
-0.633613 1.019144 9.586144
-0.534634 0.862081 10.504151
-0.596196 1.135240 2.213617
-0.530918 1.013709 3.021705
-0.995619 1.917815 5.443744
-0.918288 1.770847 5.798432
-0.637222 1.231753 6.612905
-0.396869 0.768618 7.299329
-0.326075 0.632499 7.812679
-0.446327 0.868705 8.793616
-0.538767 1.051835 9.683439
-0.515346 1.223355 2.170388
-0.453349 1.079759 3.021959
-0.810595 1.948334 5.198444
-0.709114 1.709617 6.009669
-0.554174 1.338169 6.488005
-0.316671 0.765642 6.945811
-0.227051 0.550989 7.975182
-0.387336 0.943777 8.951384
-0.456578 1.115238 9.559619
-0.414597 1.245516 2.205626
-0.332869 1.004792 3.243439
-0.627341 1.912224 5.175391
-0.542614 1.661488 6.177449
-0.460025 1.411878 6.725749
-0.268712 0.825966 7.185864
-0.225763 0.695902 7.836460
-0.320788 0.994174 8.956468
-0.375005 1.165784 9.590793
-0.304292 0.949958 10.610895
-0.309105 1.275911 1.632589
-0.304664 1.262825 2.303378
-0.270740 1.127821 3.119556
-0.481464 2.036220 5.411856
-0.429142 1.822491 6.110840
-0.351712 1.497858 6.627438
-0.263671 1.127437 7.365177
-0.251285 1.079837 8.198282
-0.275655 1.191977 9.205314
-0.275277 1.195962 9.993057
-0.214968 0.936411 10.522972
-0.202278 1.306959 2.508911
-0.181333 1.181058 3.376777
-0.321330 2.135561 5.367311
-0.289551 1.935522 6.004351
-0.233740 1.573416 6.811847
-0.192107 1.301505 7.555927
-0.182128 1.241541 8.232096
-0.190721 1.309263 8.968330
-0.170876 1.184115 10.024074
-0.132359 0.920960 10.554703
-0.080446 1.122701 1.813862
-0.094805 1.345627 2.642857
-0.093468 1.356108 3.720633
-0.141512 2.136605 5.503826
-0.118534 1.823656 6.437040
-0.087988 1.366095 6.958312
-0.076385 1.198703 7.498768
-0.085208 1.361781 8.313051
-0.078524 1.284119 9.401314
-0.073987 1.225001 9.993057
-0.051315 0.859987 10.671947
0.016403 1.072640 1.124608
0.021588 1.309686 1.955243
0.023597 1.323040 2.908513
0.030079 1.573174 3.790332
0.040577 1.925878 5.117806
0.045816 2.060149 5.923008
0.041815 1.841308 6.299943
0.033391 1.399249 7.230345
0.033119 1.340185 7.870645
0.036221 1.411831 8.554879
0.034570 1.296442 9.348410
0.030093 1.085414 10.223941
0.019800 0.701999 10.720910
0.144945 1.473414 2.193353
0.135894 1.364359 3.059652
0.225037 2.194860 4.991915
0.211832 2.041912 5.863924
0.181491 1.734770 6.544674
0.154883 1.470122 7.129067
0.146719 1.375266 8.122688
0.147648 1.369615 8.952179
0.143119 1.314954 9.746119
0.271651 1.472365 2.282808
0.242310 1.303518 3.244764
0.311476 1.664596 4.042781
0.369774 1.955886 5.321233
0.378926 1.996049 5.847856
0.312855 1.639173 6.626662
0.269236 1.403994 7.313304
0.268802 1.395102 7.964515
0.261418 1.345849 9.106772
0.255347 1.308053 9.829905
0.428097 1.623989 1.667868
0.372856 1.407653 2.512360
0.380351 1.429200 3.334121
0.373373 1.394827 4.367678
0.462751 1.720593 5.156272
0.509282 1.884149 6.021625
0.422813 1.558775 6.724521
0.371301 1.362885 7.580432
0.395285 1.445314 8.288454
0.386338 1.406106 9.179488
0.360396 1.308388 9.697861
0.555823 1.548326 1.746316
0.515832 1.432657 2.416732
0.509623 1.409986 3.281539
0.497057 1.368891 4.332581
0.593497 1.628981 5.063052
0.645082 1.763097 6.008319
0.599648 1.635258 6.553369
0.521641 1.416513 7.604936
0.532983 1.444204 8.113344
0.528443 1.427451 8.872769
0.477562 1.284880 9.900441
0.631701 1.390420 2.602848
0.600147 1.315552 3.702892
0.614668 1.342990 4.576122
0.699004 1.523351 5.237148
0.710234 1.543988 5.906262
0.653405 1.415811 6.831378
0.679277 1.468356 7.483581
0.644845 1.389112 8.480293
0.641398 1.377362 9.383176
0.573552 1.229356 9.979621
0.435144 0.931133 10.579204
0.628816 1.125671 1.009405
0.705776 1.258318 2.218752
0.731286 1.300283 3.026063
0.748169 1.326961 3.781642
0.792437 1.401759 4.573406
0.805405 1.419825 5.617601
0.853506 1.501468 6.247016
0.819932 1.437877 7.241727
