-1.142176 -0.619445 7.323028
-1.046390 -0.567497 8.165630
-0.975742 -0.529182 9.057478
-0.343579 -0.148901 0.127218
-0.559361 -0.242418 0.895833
-1.042758 -0.451914 1.684867
-0.910158 -0.394447 2.277090
-0.905049 -0.392233 3.242447
-0.935604 -0.405475 3.870578
-0.811829 -0.351833 4.891208
-0.665717 -0.288511 5.574945
-0.763505 -0.330890 6.267381
-1.110020 -0.481064 7.254267
-1.385805 -0.600585 8.107744
-1.204839 -0.522157 8.605822
-0.717755 -0.311063 9.613185
-1.070036 -0.347163 1.966735
-0.997290 -0.323561 2.755021
-0.988164 -0.320601 3.269487
-1.020578 -0.331117 4.138847
-0.798249 -0.258984 4.928957
-0.607681 -0.197156 5.673515
-0.920368 -0.298605 6.620991
-1.251200 -0.405940 7.405805
-1.183266 -0.383900 8.295174
-0.988770 -0.320797 9.085228
-1.019958 -0.231211 1.887257
-0.933416 -0.211593 2.520288
-0.986275 -0.223575 3.240336
-1.036713 -0.235009 4.276946
-0.783858 -0.177690 4.848275
-0.623056 -0.141238 5.673515
-0.941594 -0.213447 6.460181
-1.316662 -0.298469 7.452698
-1.252203 -0.283857 8.004864
-1.128037 -0.255711 9.145222
-0.569820 -0.073423 0.147657
-0.752421 -0.096952 0.850370
-0.946384 -0.121945 1.515076
-0.939343 -0.121038 2.363629
-0.975681 -0.125720 3.211142
-1.009240 -0.130044 3.849726
-0.748136 -0.096400 4.652007
-0.642883 -0.082838 5.736684
-0.404156 -0.052077 6.304036
-0.762207 -0.098213 7.207992
-1.340532 -0.172733 7.839601
-1.233836 -0.158984 8.752364
-0.788882 -0.101650 9.665627
-1.130260 -0.040847 0.717349
-1.100953 -0.039788 1.446729
-0.963908 -0.034835 2.236815
-0.849186 -0.030689 2.779879
-0.860469 -0.031097 3.791480
-1.032917 -0.037329 4.459727
-0.889465 -0.032145 5.124599
-0.812964 -0.029380 6.152110
-1.162356 -0.042007 7.005145
-1.318576 -0.047653 7.555462
-1.312425 -0.047431 8.377646
-1.010142 -0.036506 9.180239
-1.100073 0.065053 0.457756
-1.119104 0.066179 1.289825
-0.985357 0.058270 2.193620
-1.033322 0.061106 2.913162
-1.126622 0.066623 3.702081
-1.156942 0.068416 4.455626
-0.918829 0.054335 5.163102
-0.805433 0.047630 5.949052
-1.147807 0.067876 6.932428
-1.325386 0.078377 7.596833
-1.299624 0.076854 8.325911
-1.020853 0.060369 9.122288
-0.841141 0.126643 0.324627
-1.132242 0.170471 1.257806
-1.104280 0.166261 1.800369
-1.128139 0.169854 2.643913
-1.303540 0.196262 3.308111
-1.458668 0.219618 4.136941
-1.104793 0.166339 5.126003
-0.681029 0.102536 5.838188
-0.796405 0.119907 6.562699
-1.062137 0.159916 7.474530
-1.179410 0.177573 8.056633
-1.157968 0.174345 9.097855
-0.703315 0.173735 0.126073
-0.790366 0.195238 1.069394
-1.074319 0.265381 1.571559
-1.313391 0.324438 2.442347
-1.650359 0.407677 3.367699
-1.652106 0.408108 3.904994
-1.392647 0.344016 4.653535
-0.956571 0.236295 5.793279
-0.392090 0.096855 6.587639
-0.644147 0.159119 7.325732
-1.235530 0.305204 8.072171
-0.991128 0.345767 0.187513
-1.056552 0.368591 1.227436
-1.072187 0.374045 1.664080
-1.421232 0.495814 2.473873
-1.725253 0.601875 3.387150
-1.577336 0.550272 4.084425
-1.281019 0.446899 5.030701
-0.844492 0.294611 5.860552
-0.501086 0.174810 6.587858
-0.765192 0.266946 7.428246
-1.176699 0.410505 8.305538
-1.061642 0.370366 8.900433
-0.775394 0.346676 0.094248
-0.764738 0.341912 1.016324
-1.050983 0.469891 1.434445
-1.337875 0.598160 2.238564
-1.676864 0.749721 3.211487
-0.644201 0.288020 7.143633
-1.034166 0.462373 8.015022
-0.989848 0.442558 8.613973
-0.743463 0.332400 9.638571
-1.110358 0.625255 -0.062136
-1.072443 0.603905 0.705100
-1.410601 0.794325 3.002881
-1.243575 0.700271 3.673083
-0.889009 0.500611 6.333051
-0.756386 0.425929 7.059414
-0.892916 0.502811 7.863745
-1.037373 0.584156 8.742828
-0.844747 0.475687 9.433414
-0.943531 0.656164 -0.031170
-0.887023 0.616866 0.687064
-0.985542 0.685380 1.411811
-0.709414 0.493351 2.232179
-1.156254 0.804099 3.737421
-0.630100 0.438193 6.181002
-0.583651 0.405891 7.034006
-0.874503 0.608160 7.812022
-0.890179 0.619061 8.613973
-0.642876 0.447078 9.512742
-0.804618 0.674929 0.270851
-0.797429 0.668900 1.125656
-1.059999 0.889149 1.611871
-1.289100 1.081323 2.503408
-1.510885 1.267361 3.322803
-1.376773 1.154865 3.853798
-0.439233 0.368437 7.386577
-0.871136 0.730726 8.155333
-0.988254 0.828968 8.949167
-0.754102 0.765126 0.052053
-0.723729 0.734309 0.719231
-0.863280 0.875900 1.524941
-0.629799 0.639006 2.366708
-0.822612 0.834638 4.770206
-0.821703 0.833715 5.680278
-0.391093 0.396810 6.594216
-0.438111 0.444516 7.115171
-0.672299 0.682127 7.910188
-0.779087 0.790477 8.838039
-0.728670 0.888935 0.114292
-0.701789 0.856142 0.769829
-0.784086 0.956540 1.690817
-0.561707 0.685250 2.178420
-1.162233 1.417856 3.716057
-0.924328 1.127626 4.640175
-0.784237 0.956723 5.617387
-0.461379 0.562855 6.403092
-0.412480 0.503202 7.121168
-0.624636 0.762019 7.795753
-0.740638 1.101522 0.486081
-0.832079 1.237519 1.132999
-0.987182 1.468197 3.299677
-0.248868 0.370131 6.536955
-0.343930 0.511514 7.345593
-0.604769 0.899449 8.264723
-0.636008 0.945910 9.182240
-0.635318 1.162902 0.258559
-0.716670 1.311811 1.246259
-0.860365 1.574835 3.575555
-0.957966 1.753486 4.089945
-0.817189 1.495804 4.797109
-0.602762 1.103311 5.752112
-0.316965 0.580182 6.608987
-0.340500 0.623259 7.436711
-0.561283 1.027387 8.311167
-0.564801 1.033827 9.019385
-0.296422 0.690612 0.419962
-0.511857 1.192537 1.335658
-0.735278 1.713071 2.204712
-0.925162 2.155466 2.995532
-0.876198 2.041389 3.575560
-0.853589 1.988714 4.440593
-0.718113 1.673078 5.104201
-0.503897 1.173994 6.045973
-0.308744 0.719320 7.010050
-0.361593 0.842449 7.581345
-0.515286 1.200528 8.346606
-0.421810 0.982745 9.210220
-0.433527 1.330432 -0.051610
-0.411800 1.263757 0.610178
-0.388254 1.191497 1.482493
-0.541808 1.662732 2.365490
-0.692132 2.124054 2.852232
-0.691636 2.122532 3.686619
-0.647430 1.986871 4.449510
-0.558896 1.715171 5.345928
-0.355019 1.089502 6.013678
-0.235066 0.721384 7.155515
-0.269005 0.825537 7.721539
-0.374191 1.148340 8.706111
-0.331637 1.017747 9.320234
-0.293890 1.265666 0.082794
-0.306484 1.319905 0.661446
-0.288734 1.243464 1.440097
-0.366037 1.576378 2.281006
-0.480756 2.070424 3.064358
-0.501374 2.159220 3.779999
-0.472381 2.034358 4.439376
-0.216140 0.930829 7.899745
-0.278154 1.197897 8.690166
-0.231045 0.995020 9.642056
-0.206186 1.510252 0.030864
-0.197225 1.444620 0.814297
-0.176057 1.289566 1.439150
-0.218166 1.598008 2.188639
-0.235291 1.723443 2.941794
-0.251909 1.845165 3.754371
-0.286523 2.098699 4.476917
-0.239977 1.757768 7.009057
-0.171341 1.255026 7.673724
-0.175727 1.287150 8.543738
-0.131309 0.961800 9.333511
-0.047211 1.128365 0.623791
-0.058241 1.391980 1.197941
-0.055676 1.330689 2.090869
-0.036408 0.870161 2.725746
-0.090930 2.173271 4.531600
-0.079510 1.900310 5.144996
-0.060976 1.457355 6.069990
-0.054000 1.290623 6.874524
-0.058336 1.394243 7.679942
-0.057853 1.382712 8.578904
-0.047952 1.146082 9.422716
0.056719 1.023567 0.260604
0.076783 1.385648 1.012102
0.074703 1.348112 1.965479
0.089865 1.621720 2.744442
0.108139 1.951497 3.406395
0.112551 2.031121 4.188720
0.106448 1.920993 5.121227
0.087636 1.581496 5.902442
0.072026 1.299796 6.499260
0.074057 1.336445 7.261869
0.080640 1.455246 8.334994
0.068946 1.244209 8.872015
0.201549 1.384670 -0.030966
0.220878 1.517461 0.833252
0.206355 1.417683 1.589119
0.196450 1.349634 2.213484
0.168213 1.155647 3.007523
0.212426 1.459392 3.897366
0.270598 1.859046 4.578190
0.228279 1.568304 5.576492
0.200002 1.374037 6.261439
0.216139 1.484900 7.177481
0.218853 1.503549 8.030483
0.393254 1.627616 -0.122964
0.406291 1.681577 0.654902
0.351556 1.455034 1.308033
0.333778 1.381457 2.334372
0.366789 1.518083 2.914368
0.409616 1.695338 3.828233
0.402469 1.665759 4.463387
0.360109 1.490435 5.216745
0.345699 1.430793 6.152422
0.359840 1.489321 6.799116
0.340433 1.408998 7.819343
0.322053 1.332925 8.636085
0.253530 1.049320 9.251862
0.511208 1.488936 0.010274
0.563191 1.640340 0.869757
0.479182 1.395658 1.411916
0.461304 1.343586 2.324056
0.499838 1.455821 2.947148
0.551926 1.607531 3.884514
0.540366 1.573859 4.469291
0.549411 1.600204 5.267898
0.537787 1.566349 6.038272
0.526352 1.533045 7.005852
0.491117 1.430419 7.752702
0.470885 1.371490 8.531411
0.340135 0.990670 9.436306
0.607001 1.346892 0.484159
0.645540 1.432408 1.284886
0.613399 1.361089 2.278272
0.622188 1.380590 2.949096
0.687000 1.524403 3.607930
0.658695 1.461597 4.591097
0.662865 1.470849 5.247527
0.708177 1.571394 5.985447
0.686182 1.522589 6.858941
0.676045 1.500096 7.778828
0.629679 1.397212 8.556046
0.501759 1.113366 9.305403
0.768889 1.373809 0.082194
0.846250 1.512032 0.798142
0.736913 1.316677 1.616847
0.706288 1.261957 2.332832
0.717212 1.281475 3.004510
0.796786 1.423653 3.953789
0.757223 1.352964 4.775000
0.777744 1.389631 5.627843
0.824911 1.473906 6.085528
0.831369 1.485444 7.033085
0.842125 1.504662 7.912024
0.751318 1.342415 8.468263
0.586883 1.048610 9.640766
0.829253 1.188664 0.082467
0.920152 1.318960 0.821330
0.865382 1.240452 1.699179
0.871731 1.249552 2.369366
0.921692 1.321168 3.210202
0.944617 1.354029 3.899913
0.876110 1.255829 4.620749
0.914672 1.311105 5.668917
0.989128 1.417832 6.173637
0.963075 1.380487 6.930666
0.954224 1.367799 7.763516
0.940233 1.347745 8.703623
0.678226 0.972180 9.369197
1.041402 1.246818 0.143648
1.141761 1.366973 0.715337
0.992317 1.188051 1.337147
1.021827 1.223382 2.292787
1.027692 1.230403 3.117814
1.039700 1.244780 3.861449
0.967350 1.158159 4.435546
0.990291 1.185625 5.299016
1.162162 1.391397 6.222724
1.153025 1.380459 7.004461
1.104084 1.321864 7.656261
1.125459 1.347455 8.634544
0.884383 1.058827 9.321395
1.140636 1.136078 2.137318
1.145274 1.140697 2.972094
1.103231 1.098822 3.453057
1.109332 1.104898 4.272679
1.196711 1.191929 5.247413
1.287722 1.282576 5.939074
1.283112 1.277984 6.654027
1.264997 1.259942 7.590192
1.249846 1.244851 8.331727
1.115817 1.111358 9.066557
1.102272 0.905481 0.412599
1.245114 1.022821 0.954770
1.225546 1.006746 1.664993
1.270318 1.043525 2.670842
1.257288 1.032822 3.394919
1.226421 1.007465 4.010373
1.307095 1.073736 4.892473
1.427701 1.172811 5.808874
1.441155 1.183862 6.528787
1.436347 1.179912 7.448015
1.378217 1.132161 8.070417
1.318217 1.082873 8.970043
1.038279 0.695922 0.227982
1.334813 0.894678 0.759739
1.332822 0.893343 1.509912
1.302827 0.873239 2.284031
1.328867 0.890693 3.076746
1.386761 0.929497 4.074177
1.250288 0.838024 4.613496
1.357000 0.909549 5.391178
1.541277 1.033064 6.173738
1.459628 0.978337 7.054555
1.466703 0.983079 7.743285
1.252401 0.688097 0.598255
1.487110 0.817051 1.301108
1.310962 0.720271 1.875350
1.308418 0.718874 2.660876
1.382405 0.759524 3.399413
1.379950 0.758175 4.126055
1.510083 0.829673 5.127947
1.616565 0.888176 5.788474
1.624001 0.892262 6.604488
1.641663 0.901966 7.519378
1.656619 0.910183 8.207514
1.546702 0.849793 9.107412
1.374471 0.602629 0.339721
1.549972 0.679576 1.167969
1.493582 0.654852 2.064093
1.459941 0.640102 2.674384
1.452312 0.636758 3.491863
1.462045 0.641025 4.321208
1.565307 0.686300 5.025591
1.693604 0.742551 5.819074
1.697838 0.744407 6.751657
1.665134 0.730068 7.371255
1.661971 0.728681 8.213398
1.560399 0.684148 9.068030
1.449600 0.474460 0.277771
1.636012 0.535473 1.290008
1.524081 0.498838 2.024399
1.519221 0.497248 2.735993
1.540867 0.504332 3.602447
1.545301 0.505783 4.359401
1.607647 0.526190 4.892473
1.752981 0.573758 5.788474
1.782733 0.583496 6.589948
1.755085 0.574447 7.386826
1.794289 0.587278 8.197325
1.692976 0.554118 8.962832
0.973737 0.225594 0.146035
1.445864 0.334975 0.865253
1.587451 0.367778 1.508910
1.570982 0.363962 2.580246
1.558478 0.361065 3.076746
1.608368 0.372624 3.899913
1.562581 0.362016 4.799517
1.709417 0.396035 5.697714
1.879678 0.435481 6.161521
1.862931 0.431600 7.067550
1.812351 0.419882 7.830103
1.761050 0.407997 8.525842
1.442286 0.334146 9.416810
1.313499 0.174159 0.237875
1.622411 0.215118 0.964393
1.628845 0.215971 1.816632
1.619875 0.214782 2.527249
1.603956 0.212671 3.292308
1.627036 0.215731 4.046105
1.710392 0.226783 4.763243
1.825275 0.242016 5.601093
1.847748 0.244996 6.224721
1.792545 0.237676 7.055520
1.813614 0.240470 7.804616
1.850260 0.245329 8.888603
1.399045 0.185502 9.653567
0.874603 0.036572 0.293022
1.506472 0.062994 0.802927
1.713600 0.071655 1.751601
1.694205 0.070844 2.317434
1.663673 0.069567 3.257203
1.667007 0.069707 3.825601
1.682144 0.070340 4.831013
1.820037 0.076106 5.468439
1.926927 0.080576 6.308126
1.895731 0.079271 7.123137
1.928563 0.080644 8.038830
1.834193 0.076698 8.648324
1.518867 0.063512 9.472508
1.097682 -0.061797 -0.114442
1.356121 -0.076346 0.826784
1.745428 -0.098264 1.340285
1.715418 -0.096574 2.274955
1.725825 -0.097160 3.117729
1.723052 -0.097004 3.644085
1.561182 -0.087891 4.679378
1.708101 -0.096162 5.401013
2.028046 -0.114174 6.009252
1.935677 -0.108974 6.799390
1.813254 -0.102082 7.615855
1.782823 -0.100369 8.541610
1.649055 -0.092838 9.276175
1.394194 -0.203337 0.856652
1.807034 -0.263548 1.419254
1.736713 -0.253292 2.047020
1.745883 -0.254630 2.939840
1.737285 -0.253376 3.692796
1.581451 -0.230648 4.550029
1.733185 -0.252778 5.332544
2.027954 -0.295769 5.964692
2.030523 -0.296143 6.862629
1.849464 -0.269736 7.498992
1.771951 -0.258431 8.336519
1.716445 -0.250336 9.299137
1.766581 -0.435164 1.838811
1.774394 -0.437089 2.780921
1.757281 -0.432873 3.471092
1.730635 -0.426310 4.186031
1.749178 -0.430877 4.961265
1.868757 -0.460334 5.651067
1.969745 -0.485210 6.447935
1.900113 -0.468058 7.428480
1.809442 -0.445722 8.085213
1.781912 -0.438941 9.079502
1.826723 -0.627342 0.732828
1.688586 -0.579902 1.645944
1.731614 -0.594679 2.473026
1.770064 -0.607884 3.321488
1.771193 -0.608272 4.093394
1.567633 -0.538364 4.823950
1.636381 -0.561974 5.534060
1.877191 -0.644674 6.340446
1.799459 -0.617979 6.879659
1.819955 -0.625018 7.891120
1.818314 -0.624454 8.800015
1.482785 -0.509225 9.558934
1.643919 -0.746117 0.674015
1.690051 -0.767054 1.540683
1.673726 -0.759645 2.185779
1.659429 -0.753156 3.038008
1.677839 -0.761512 3.807878
1.706159 -0.774365 4.537422
1.788539 -0.811755 5.406085
1.843714 -0.836796 5.968650
1.806528 -0.819919 6.906726
1.666653 -0.756435 7.559856
1.616694 -0.733760 8.382832
1.558587 -0.707388 9.413570
1.767749 -1.004736 0.822208
1.674507 -0.951740 1.415464
1.612657 -0.916587 2.041568
1.596833 -0.907593 2.903369
1.628064 -0.925343 3.856314
1.680762 -0.955296 4.612818
1.508988 -0.857664 5.220035
1.569974 -0.892327 6.024695
1.738460 -0.988089 6.714848
1.628470 -0.925574 7.519378
1.609936 -0.915040 8.494345
1.511588 -0.859142 9.211309
1.620273 -1.133810 0.498079
1.619975 -1.133601 1.444063
1.557126 -1.089622 1.957365
1.527256 -1.068720 2.932021
1.514288 -1.059646 3.611604
1.631780 -1.141862 4.471559
1.589052 -1.111963 5.233172
1.580682 -1.106106 6.004838
1.577224 -1.103686 6.581266
1.506236 -1.054011 7.473305
1.468652 -1.027711 8.228971
1.336740 -0.935403 9.194128
1.434497 -1.214004 0.611520
1.430090 -1.210274 1.346013
1.415514 -1.197938 2.031370
1.429101 -1.209437 3.033962
1.242133 -1.051208 3.664011
1.397099 -1.182354 4.594474
1.611485 -1.363787 5.374433
1.543040 -1.305863 6.104626
1.518871 -1.285408 6.800587
1.469616 -1.243724 7.774021
1.421593 -1.203083 8.427645
1.306234 -1.105456 9.098744
1.182263 -1.186713 0.256173
1.348210 -1.353285 0.906432
1.302776 -1.307680 1.868186
1.285724 -1.290563 2.330149
1.201196 -1.205717 3.099321
1.414663 -1.419988 3.914591
1.642539 -1.648721 4.932592
1.474011 -1.479560 5.564073
1.352718 -1.357810 6.236871
1.305842 -1.310758 7.142703
1.329378 -1.334382 8.059549
0.987825 -1.196992 0.452357
1.188551 -1.440220 1.162529
1.169059 -1.416601 1.674358
1.384643 -1.677834 4.101178
1.448755 -1.755521 4.734317
1.326438 -1.607304 5.533669
1.205009 -1.460164 6.397973
1.167766 -1.415035 7.325616
1.118587 -1.355442 7.947768
0.901355 -1.324946 0.492823
1.052187 -1.546661 1.264468
1.038263 -1.526193 1.868186
1.162344 -1.708586 2.620453
1.361509 -2.001348 3.556336
1.371553 -2.016113 4.417936
1.277395 -1.877705 4.888796
1.208665 -1.776676 5.793187
1.113516 -1.636812 6.603077
1.028594 -1.511981 7.295004
0.978230 -1.437948 8.101406
0.936589 -1.376738 9.120772
0.776798 -1.403306 0.595487
0.905616 -1.636019 1.244081
0.892742 -1.612761 1.817183
1.057396 -1.910213 2.845965
1.220016 -2.203990 3.536708
1.151108 -2.079505 4.323357
1.071706 -1.936063 5.019854
1.026424 -1.854261 5.766670
0.915455 -1.653792 6.671469
0.845870 -1.528085 7.395974
0.872758 -1.576659 8.387587
0.806212 -1.456442 9.012414
0.669465 -1.537139 0.420118
0.747645 -1.716645 1.315434
0.727292 -1.669912 1.879640
0.863286 -1.982164 2.552743
0.995532 -2.285811 3.256143
0.911017 -2.091758 4.150677
0.830335 -1.906508 4.965697
0.712383 -1.635681 5.724612
0.620481 -1.424666 6.636104
0.629662 -1.445747 7.440108
0.661629 -1.519147 8.194294
0.648157 -1.488214 8.946434
0.524809 -1.590081 0.122964
0.568464 -1.722349 1.041582
0.558616 -1.692511 1.574424
0.718694 -2.177521 2.634871
0.800766 -2.426185 3.099449
0.675439 -2.046465 4.144393
0.622172 -1.885076 4.823235
0.595901 -1.805481 7.143508
0.508408 -1.540390 7.912134
0.509537 -1.543812 8.848335
0.407906 -1.778065 0.020412
0.421715 -1.838259 0.937607
0.388976 -1.695549 1.740206
0.470744 -2.051979 2.454891
0.515013 -2.244946 3.090266
0.472837 -2.061100 4.005422
0.403302 -1.757998 4.784435
0.356185 -1.552612 7.127996
0.317494 -1.383957 7.922343
0.240062 -1.808622 0.132679
0.247900 -1.867674 0.856091
0.227997 -1.717724 1.586754
0.281373 -2.119864 2.574700
0.306005 -2.305442 3.057975
0.281224 -2.118737 3.982500
0.232528 -1.751865 4.695623
0.194285 -1.463739 5.697829
0.136075 -1.025184 6.416439
0.134643 -1.014401 7.343862
0.184004 -1.386286 7.819150
0.195120 -1.470030 8.675662
0.153124 -1.153638 9.694598
0.063598 -1.573840 0.256855
0.067337 -1.666378 1.178995
0.065275 -1.615337 1.787051
0.075966 -1.879914 2.479919
0.089498 -2.214788 3.250114
0.081040 -2.005476 4.171205
0.053015 -1.311938 4.889190
0.048982 -1.212134 7.533512
0.052640 -1.302671 8.098020
0.057199 -1.415487 9.050076
-0.098564 -1.827840 0.683770
-0.087547 -1.623549 1.416573
-0.101408 -1.880582 3.958228
-0.115329 -2.138755 4.669248
-0.093293 -1.730099 5.376991
-0.078185 -1.449925 6.028763
-0.071812 -1.331745 7.102127
-0.062859 -1.165715 7.812750
-0.073964 -1.371643 8.646414
-0.065211 -1.209322 9.263915
-0.199624 -1.360300 -0.216904
-0.211313 -1.439949 0.680314
-0.242289 -1.651032 1.209741
-0.218915 -1.491751 2.101819
-0.166932 -1.137527 2.768608
-0.203309 -1.385411 8.423414
-0.194741 -1.327023 9.374703
-0.379578 -1.554247 0.225882
-0.369376 -1.512474 0.760748
-0.345406 -1.414324 1.546844
-0.380787 -1.559196 2.467333
-0.436200 -1.786097 3.231891
-0.465792 -1.907264 4.001172
-0.390150 -1.597534 4.721417
-0.282953 -1.158601 5.486158
-0.187280 -0.766852 6.468324
-0.178225 -0.729773 7.385247
-0.274504 -1.124004 8.129327
-0.306604 -1.255442 8.959519
-0.225869 -0.924858 9.570756
-0.447935 -1.301463 0.402816
-0.509810 -1.481242 1.141026
-0.457997 -1.330699 2.097060
-0.326721 -0.949279 2.831631
-0.611410 -1.776437 5.845806
-0.405602 -1.178466 6.904163
-0.342303 -0.994554 7.619603
-0.430715 -1.251432 8.538247
-0.411143 -1.194565 9.053899
-0.700673 -1.548250 -0.112642
-0.641510 -1.417519 0.709353
-0.548947 -1.212987 1.562296
-0.623078 -1.376791 2.163571
-0.725799 -1.603770 3.197454
-0.783223 -1.730657 3.874120
-0.758789 -1.676665 4.676099
-0.597452 -1.320165 5.512345
-0.355377 -0.785262 6.294764
-0.343023 -0.757964 7.001085
-0.484436 -1.070440 7.724679
-0.515133 -1.138269 8.663871
-0.477672 -1.055493 9.364785
-0.826819 -1.456074 -0.122964
-0.769208 -1.354618 0.801864
-0.672393 -1.184122 1.685262
-0.763065 -1.343800 2.316391
-0.874424 -1.539908 3.021612
-0.938012 -1.651891 3.874120
-0.899031 -1.583243 4.720031
-0.640551 -1.128046 5.333809
-0.446334 -0.786019 6.395312
-0.485564 -0.855104 6.995064
-0.615884 -1.084606 7.828770
-0.652572 -1.149216 8.865308
-0.542902 -0.956081 9.644523
-0.876928 -1.277852 -0.205621
-0.826047 -1.203709 0.896742
-0.791898 -1.153948 1.383752
-0.744847 -1.085386 2.257780
-0.840037 -1.224095 2.889256
-1.006916 -1.467269 3.680127
-0.570576 -0.831439 7.130680
-0.708797 -1.032853 7.730492
-0.789316 -1.150185 8.739348
-0.625177 -0.911003 9.355919
-0.799664 -0.960036 -0.124354
-0.771598 -0.926341 0.695189
-0.837525 -1.005489 1.615060
-0.763834 -0.917019 2.296342
-0.888078 -1.066181 3.239648
-1.169402 -1.403924 3.902269
-0.651626 -0.782309 7.182817
-0.783347 -0.940446 7.714737
-0.838409 -1.006550 8.704496
-0.694156 -0.833368 9.482358
-0.620069 -0.616756 0.156977
-0.680658 -0.677021 0.908604
-0.873439 -0.868772 1.576781
-0.756376 -0.752334 2.272634
-0.870439 -0.865789 3.128028
-1.147608 -1.141476 4.069304
-1.026161 -1.020678 4.756641
-0.685297 -0.681636 5.668030
-0.477313 -0.474763 6.531139
-0.715239 -0.711418 7.400727
-0.888863 -0.884114 7.859858
-0.897332 -0.892537 8.845616
-0.564404 -0.561388 9.565184
-1.158619 -0.959441 0.617655
-0.918334 -0.760463 1.173132
-0.887757 -0.735143 2.017396
-0.678416 -0.561790 2.861788
-0.805587 -0.667099 3.625992
-0.981784 -0.813006 4.368619
-0.667509 -0.552758 5.138377
-0.536694 -0.444432 6.213924
-0.743129 -0.615378 6.750573
-0.984840 -0.815537 7.606654
-0.984501 -0.815256 8.450569
-0.861850 -0.713690 9.308376
-0.743303 -0.506203 0.062750
-0.772839 -0.526317 0.909197
-0.937465 -0.638430 1.632897
-0.930412 -0.633628 2.415233
-0.832251 -0.566778 3.188194
-0.892755 -0.607983 3.969646
-0.928080 -0.632039 4.575826
-0.701942 -0.478035 5.557042
-0.551353 -0.375482 6.186340
-0.878484 -0.598263 7.012821
-1.160546 -0.790353 7.968755
-1.019066 -0.694002 8.591316
-0.814103 -0.554419 9.496037
-0.655159 -0.363618 0.062995
-0.770522 -0.427645 0.732517
-0.918547 -0.509800 1.417373
-0.910427 -0.505294 2.263700
-0.899923 -0.499464 3.154849
-0.948630 -0.526496 3.769365
-0.963365 -0.534674 4.610016
-0.725543 -0.402682 5.420872
-0.583256 -0.323712 6.186340
-0.924310 -0.512999 6.981578
-1.363629 -0.756824 7.978966
-1.247266 -0.692242 8.764671
-0.818081 -0.454041 9.608166
-1.263919 -0.552719 0.630028
-1.094551 -0.478653 1.245779
-1.045477 -0.457193 2.257785
-0.986247 -0.431291 2.794864
-1.021581 -0.446743 3.818909
-1.021973 -0.446914 4.513436
-0.783024 -0.342421 5.235944
-0.630714 -0.275814 6.161351
-0.923559 -0.403877 6.850544
-1.232515 -0.538986 7.808593
-1.178799 -0.515495 8.372684
-1.013597 -0.443252 9.465929
-1.311154 -0.436027 0.753953
-1.133595 -0.376979 1.245779
-0.979019 -0.325575 2.096965
-0.918183 -0.305343 3.012829
-1.024663 -0.340754 3.717323
-1.053778 -0.350436 4.471836
-0.810955 -0.269685 5.235944
-0.686247 -0.228213 6.220453
-0.956504 -0.318087 6.850544
-1.230713 -0.409276 7.570696
-1.251444 -0.416170 8.517561
-1.042417 -0.346658 9.434720
-1.294890 -0.295640 0.548130
-1.095403 -0.250095 1.362608
-0.932843 -0.212980 2.101074
-0.894824 -0.204300 2.680393
-0.959789 -0.219132 3.505515
-0.942214 -0.215120 4.531067
-0.773822 -0.176674 5.158816
-0.717616 -0.163841 6.142959
-1.010351 -0.230676 7.006916
-1.232509 -0.281398 7.534156
-1.307262 -0.298465 8.501746
-1.126996 -0.257308 9.354397
0.000673 0.000092 0.074926
-0.935659 -0.128357 1.860854
-0.902233 -0.123771 2.575850
-0.899708 -0.123425 3.206958
-0.979310 -0.134345 4.285294
-0.750754 -0.102991 5.078177
-0.547302 -0.075081 5.772491
-0.872815 -0.119736 6.409889
-1.182092 -0.162163 7.300467
-1.237039 -0.169701 7.958214
-1.135949 -0.155833 8.774806
-0.798651 -0.030953 0.010486
-0.956120 -0.037056 0.762413
-1.080821 -0.041889 1.572588
-0.948344 -0.036755 2.394964
-0.903980 -0.035035 3.165133
-0.947545 -0.036724 3.909469
-0.920518 -0.035676 4.780379
-0.787135 -0.030507 5.480306
-0.421027 -0.016318 6.388760
-0.708116 -0.027444 7.295386
-1.267810 -0.049136 7.932375
-1.200631 -0.046533 8.565701
-0.905466 -0.035093 9.593336
-0.449083 0.022888 0.179877
-0.811099 0.041338 0.996022
-1.012621 0.051609 1.742525
-0.753811 0.038418 2.491433
-0.854140 0.043532 3.464570
-1.157415 0.058988 4.234654
-0.844871 0.043059 4.981326
-0.541292 0.027587 5.871198
-0.840655 0.042844 6.772279
-1.146222 0.058418 7.460119
-1.237653 0.063078 8.155141
-1.103636 0.056247 9.036675
-0.767086 0.106842 -0.136401
-0.798155 0.111169 0.712981
-1.063728 0.148159 1.374804
-0.837291 0.116620 2.338370
-1.144484 0.159407 3.165344
-1.439213 0.200458 3.930855
-0.720306 0.100326 7.259223
-1.285157 0.179000 7.947965
-1.241621 0.172937 8.793816
-0.853841 0.118925 9.415473
-0.996676 0.241914 0.323148
-1.166561 0.283149 1.411811
-1.075398 0.261022 2.092856
-1.463907 0.355321 2.846179
-1.586649 0.385113 3.456474
-1.241388 0.301311 4.169070
-0.860148 0.208776 5.274418
-0.522046 0.126712 5.839529
-0.724841 0.175934 6.659336
-1.028205 0.249567 7.650850
-1.154822 0.280300 8.274700
-1.026607 0.249179 9.048201
-1.068422 0.358593 0.457456
-1.199374 0.402545 1.098314
-1.054608 0.353957 1.706772
-1.391665 0.467083 2.662633
-1.688582 0.566737 3.432531
-1.515179 0.508538 4.113065
-1.140054 0.382635 5.008943
-0.724369 0.243119 5.665838
-0.636546 0.213643 6.520619
-0.965974 0.324209 7.452863
-1.206476 0.404928 8.191328
-1.112513 0.373392 9.108238
-0.868100 0.384621 0.135781
-0.900585 0.399014 0.908011
-1.107558 0.490716 1.681555
-1.432007 0.634467 2.635051
-1.743134 0.772315 3.431311
-0.661304 0.292998 7.238211
-1.098837 0.486852 7.978839
-0.893879 0.500171 -0.062545
-0.834473 0.466931 0.731085
-1.076212 0.602196 1.607883
-1.357707 0.759707 2.480883
-0.650931 0.364229 7.223095
-0.958381 0.536264 7.848632
-0.943103 0.527715 8.822867
-0.605452 0.338782 9.568296
-0.741026 0.510770 0.240540
-0.793534 0.546962 1.054782
-1.188383 0.819121 1.826282
-1.419332 0.978309 2.367064
-1.554836 1.071708 3.227588
-1.326377 0.914237 3.997462
-0.601633 0.414690 7.410966
-0.867435 0.597900 7.879541
-0.920304 0.769417 -0.155647
-0.830957 0.694718 0.822375
-0.834998 0.698097 6.129461
-0.600208 0.501801 7.281437
-0.792340 0.662433 8.025178
-0.862090 0.720747 8.561381
-0.695192 0.581213 9.593336
-0.932249 0.940522 -0.031027
-0.867744 0.875444 0.798409
-0.868169 0.875873 1.607883
-0.554740 0.559663 2.215556
-0.777202 0.784099 4.831546
-0.921471 0.929648 5.416595
-0.548650 0.553519 6.254451
-0.509718 0.514241 6.966490
-0.673401 0.679377 7.779860
-0.792694 0.799729 8.571778
-0.645801 0.651532 9.535009
-0.683174 0.831543 0.385186
-0.834647 1.015912 1.086523
-0.936348 1.139700 1.959005
-1.270854 1.546852 2.767952
-1.342724 1.634331 3.514291
-1.116413 1.358871 4.199031
-0.859525 1.046194 5.010033
-0.606207 0.737860 6.086634
-0.426121 0.518664 6.813188
-0.548507 0.667629 7.700604
-0.786323 0.957094 8.502899
-0.735454 0.895177 9.364785
-0.602869 0.889177 0.052053
-0.637496 0.940248 0.946028
-0.997462 1.471164 3.391657
-1.044757 1.540920 3.991451
-0.762432 1.124516 4.851801
-0.597071 0.880625 5.642970
-0.377800 0.557221 6.531139
-0.354951 0.523520 7.429860
-0.564491 0.832572 8.139777
-0.671996 0.991132 8.992869
-0.601990 1.093374 1.347780
-0.737865 1.340160 2.048999
-0.986306 1.791394 2.999512
-1.021558 1.855422 3.544670
-0.934262 1.696868 4.643345
-0.777398 1.411961 5.415254
-0.514644 0.934731 6.154252
-0.368454 0.669210 7.046020
-0.443426 0.805380 7.722130
-0.589704 1.071060 8.659059
-0.521186 0.946612 9.361875
-0.488362 1.123513 0.248871
-0.533082 1.226396 0.992761
-0.730264 1.680028 3.438173
-0.811523 1.866970 3.972874
-0.717462 1.650575 4.753798
-0.466695 1.073666 8.311167
-0.490920 1.129397 8.919175
-0.419480 1.256127 -0.072397
-0.407084 1.219007 0.911247
-0.398403 1.193012 1.596466
-0.498814 1.493690 2.386781
-0.662506 1.983862 2.954963
-0.707110 2.117428 3.686619
-0.661518 1.980904 4.645090
-0.281062 0.841637 7.815717
-0.365137 1.093396 8.576683
-0.292091 0.874663 9.345355
-0.082680 -0.002824 9.724909
-0.272839 -0.009320 9.724909
-0.769592 -0.026288 9.724909
-0.805256 -0.027506 9.724909
-0.370999 -0.012673 9.724909
-0.840877 -0.028723 9.724909
-0.591910 -0.020218 9.724909
-0.013819 -0.000472 9.724909
-0.821526 -0.028062 9.724909
-0.222624 -0.007604 9.724909
-0.596757 -0.023128 9.724909
-0.220868 -0.008560 9.724909
-0.600800 -0.023285 9.724909
-0.589951 -0.022865 9.724909
-0.397719 -0.015414 9.724909
-0.099586 -0.003860 9.724909
-0.358647 -0.013900 9.724909
-0.214350 -0.008307 9.724909
-0.512278 -0.019854 9.724909
-0.049500 -0.001918 9.724909
-0.313297 -0.040370 9.724909
-0.591435 -0.076209 9.724909
-0.415958 -0.053598 9.724909
-0.715536 -0.092199 9.724909
-0.107583 -0.013862 9.724909
-0.681283 -0.087786 9.724909
-0.003968 -0.000511 9.724909
-0.345327 -0.044497 9.724909
-0.686804 -0.088497 9.724909
-0.175403 -0.022601 9.724909
-0.181515 -0.023826 9.724909
-0.425395 -0.055838 9.724909
-0.422690 -0.055483 9.724909
-0.536321 -0.070398 9.724909
-0.480707 -0.063098 9.724909
-0.345084 -0.045296 9.724909
-0.723321 -0.094944 9.724909
-0.689140 -0.090457 9.724909
-0.332990 -0.043709 9.724909
-0.320724 -0.042099 9.724909
-1.126081 -0.257099 9.724909
-0.638853 -0.145858 9.724909
-0.208146 -0.047522 9.724909
-0.223144 -0.050947 9.724909
-0.272421 -0.062197 9.724909
-0.807029 -0.184255 9.724909
-0.393532 -0.089848 9.724909
-0.615563 -0.140541 9.724909
-0.833109 -0.190210 9.724909
-0.329503 -0.075230 9.724909
-0.955007 -0.312026 9.724909
-0.014411 -0.004708 9.724909
-0.694692 -0.226974 9.724909
-0.284802 -0.093052 9.724909
-0.180882 -0.059099 9.724909
-0.248184 -0.081088 9.724909
-0.485543 -0.158639 9.724909
-0.038048 -0.012431 9.724909
-0.202871 -0.066283 9.724909
-0.796270 -0.260162 9.724909
-0.750002 -0.245702 9.724909
-0.781268 -0.255945 9.724909
-0.202859 -0.066457 9.724909
-0.165844 -0.054331 9.724909
-0.486440 -0.159359 9.724909
-0.415609 -0.136154 9.724909
-0.430137 -0.140914 9.724909
-0.694406 -0.227489 9.724909
-0.326611 -0.106998 9.724909
-0.375427 -0.122991 9.724909
-0.505660 -0.168158 9.724909
-0.997194 -0.331619 9.724909
-0.684577 -0.227657 9.724909
-0.113401 -0.037712 9.724909
-0.404781 -0.134611 9.724909
-0.762287 -0.253500 9.724909
-0.214182 -0.071227 9.724909
-0.208778 -0.069430 9.724909
-0.570652 -0.189771 9.724909
-0.676871 -0.225095 9.724909
-0.119996 -0.051210 9.724909
-0.585303 -0.249785 9.724909
-0.288475 -0.123110 9.724909
-0.300600 -0.128285 9.724909
-0.539421 -0.230204 9.724909
-0.570102 -0.243298 9.724909
-0.172855 -0.073768 9.724909
-0.428656 -0.182934 9.724909
-0.611816 -0.261100 9.724909
-0.111093 -0.047410 9.724909
-0.134197 -0.057522 9.724909
-0.405949 -0.174006 9.724909
-0.759675 -0.325626 9.724909
-0.402631 -0.172584 9.724909
-0.334439 -0.143354 9.724909
-0.646675 -0.277190 9.724909
-0.471098 -0.201931 9.724909
-0.379411 -0.162630 9.724909
-0.243338 -0.104304 9.724909
-0.265574 -0.113835 9.724909
-0.740567 -0.319061 9.724909
-0.084487 -0.036400 9.724909
-0.983640 -0.423785 9.724909
-0.296939 -0.127931 9.724909
-0.009419 -0.004058 9.724909
-0.304312 -0.131108 9.724909
-0.369488 -0.159188 9.724909
-0.597251 -0.257316 9.724909
-0.191916 -0.082684 9.724909
-0.466102 -0.200812 9.724909
-0.358868 -0.155528 9.724909
-0.437103 -0.189433 9.724909
-0.216522 -0.093837 9.724909
-0.408300 -0.176950 9.724909
-0.542532 -0.235124 9.724909
-0.017186 -0.007448 9.724909
-0.558226 -0.241926 9.724909
-0.687682 -0.298030 9.724909
-0.069639 -0.030180 9.724909
-0.189184 -0.081989 9.724909
-0.577848 -0.250466 9.724909
-0.968520 -0.419801 9.724909
-0.649365 -0.281464 9.724909
-0.566761 -0.245660 9.724909
-0.169820 -0.073608 9.724909
-0.685162 -0.296980 9.724909
-0.675365 -0.292734 9.724909
-0.954481 -0.413715 9.724909
-0.767930 -0.332856 9.724909
-0.713803 -0.309395 9.724909
-0.883247 -0.386249 9.724909
-0.939777 -0.410969 9.724909
-0.783872 -0.342792 9.724909
-0.424669 -0.185710 9.724909
-0.521256 -0.227948 9.724909
-0.115694 -0.050594 9.724909
-0.691964 -0.302600 9.724909
-0.494690 -0.216331 9.724909
-0.804598 -0.351855 9.724909
-0.138741 -0.060672 9.724909
-0.280556 -0.153239 9.724909
-0.281016 -0.153490 9.724909
-0.749365 -0.409301 9.724909
-0.429312 -0.234489 9.724909
-0.089200 -0.048721 9.724909
-0.194824 -0.106412 9.724909
-0.599479 -0.327434 9.724909
-0.306165 -0.167226 9.724909
-0.115776 -0.063237 9.724909
-0.664975 -0.363207 9.724909
-0.172262 -0.095607 9.724909
-0.382953 -0.212542 9.724909
-0.076179 -0.042280 9.724909
-0.188066 -0.104378 9.724909
-0.056215 -0.031200 9.724909
-0.411292 -0.228270 9.724909
-0.272442 -0.151207 9.724909
-0.476549 -0.264488 9.724909
-0.091527 -0.050798 9.724909
-0.611107 -0.339169 9.724909
-0.657310 -0.439938 9.724909
-0.053008 -0.035478 9.724909
-0.627836 -0.420211 9.724909
-0.401713 -0.268867 9.724909
-0.476968 -0.319235 9.724909
-0.635518 -0.425353 9.724909
-0.160022 -0.107103 9.724909
-0.651675 -0.436167 9.724909
-0.479872 -0.321179 9.724909
-0.121252 -0.081154 9.724909
-0.038593 -0.026009 9.724909
-0.513260 -0.345905 9.724909
-0.701806 -0.472973 9.724909
-0.461533 -0.311044 9.724909
-0.294492 -0.198469 9.724909
-0.108844 -0.073354 9.724909
-0.315653 -0.212730 9.724909
-0.639149 -0.430746 9.724909
-0.772208 -0.520419 9.724909
-0.334932 -0.225723 9.724909
-0.139148 -0.094762 9.724909
-0.403440 -0.274750 9.724909
-0.426018 -0.290126 9.724909
-0.607643 -0.413816 9.724909
-0.407267 -0.277356 9.724909
-0.735531 -0.500910 9.724909
-0.053886 -0.036697 9.724909
-0.701705 -0.477874 9.724909
-0.246041 -0.167558 9.724909
-0.146722 -0.099921 9.724909
-0.274247 -0.223204 9.724909
-0.223012 -0.181504 9.724909
-0.636819 -0.518293 9.724909
-0.213498 -0.173761 9.724909
-0.713027 -0.580316 9.724909
-0.396686 -0.322854 9.724909
-0.429055 -0.349198 9.724909
-0.111463 -0.090717 9.724909
-0.666861 -0.542743 9.724909
-0.337568 -0.274739 9.724909
-0.154076 -0.126153 9.724909
-0.035260 -0.028870 9.724909
-0.462398 -0.378597 9.724909
-0.350762 -0.287193 9.724909
-0.176994 -0.144917 9.724909
-0.278141 -0.227732 9.724909
-0.374651 -0.306752 9.724909
-0.631586 -0.517122 9.724909
-0.468572 -0.383652 9.724909
-0.266954 -0.218574 9.724909
-0.002582 -0.002523 9.724909
-0.123387 -0.120560 9.724909
-0.191313 -0.186930 9.724909
-0.521499 -0.509550 9.724909
-0.216890 -0.211920 9.724909
-0.068603 -0.067031 9.724909
-0.326342 -0.318865 9.724909
-0.771629 -0.753949 9.724909
-0.655028 -0.640019 9.724909
-0.005299 -0.005177 9.724909
-0.107583 -0.105933 9.724909
-0.754190 -0.742624 9.724909
-0.244737 -0.240984 9.724909
-0.320287 -0.315375 9.724909
-0.163439 -0.160933 9.724909
-0.243788 -0.240049 9.724909
-0.151593 -0.149269 9.724909
-0.324323 -0.319350 9.724909
-0.182427 -0.179629 9.724909
-0.397483 -0.391387 9.724909
-0.259882 -0.256424 9.724909
-0.103145 -0.101772 9.724909
-0.709776 -0.700331 9.724909
-0.489830 -0.483311 9.724909
-0.726509 -0.716841 9.724909
-0.587091 -0.579278 9.724909
-0.141833 -0.139945 9.724909
-0.500756 -0.494092 9.724909
-0.203143 -0.200440 9.724909
-0.465195 -0.459004 9.724909
-0.661377 -0.655141 9.724909
-0.103208 -0.102235 9.724909
-0.229357 -0.227194 9.724909
-0.689676 -0.683174 9.724909
-0.040155 -0.039776 9.724909
-0.074856 -0.074150 9.724909
-0.625470 -0.619572 9.724909
-0.542494 -0.537379 9.724909
-0.155370 -0.153905 9.724909
-0.253782 -0.251390 9.724909
-0.461939 -0.459471 9.724909
-0.249452 -0.248119 9.724909
-0.376894 -0.374880 9.724909
-0.338114 -0.336307 9.724909
-0.230346 -0.229115 9.724909
-0.159052 -0.158202 9.724909
-0.247235 -0.245914 9.724909
-0.124113 -0.123450 9.724909
-0.486823 -0.484222 9.724909
-0.514077 -0.511330 9.724909
-0.331513 -0.392637 9.724909
-0.212550 -0.251739 9.724909
-0.574053 -0.679897 9.724909
-0.409477 -0.484976 9.724909
-0.434048 -0.514078 9.724909
-0.078481 -0.092952 9.724909
-0.143544 -0.170011 9.724909
-0.441403 -0.522789 9.724909
-0.042388 -0.050204 9.724909
-0.577091 -0.683495 9.724909
-0.059790 -0.070882 9.724909
-0.021132 -0.025053 9.724909
-0.548297 -0.650019 9.724909
-0.308964 -0.366284 9.724909
-0.003229 -0.003828 9.724909
-0.475520 -0.563740 9.724909
-0.645084 -0.764762 9.724909
-0.053158 -0.063020 9.724909
-0.451267 -0.534987 9.724909
-0.653509 -0.774751 9.724909
-0.265085 -0.315341 9.724909
-0.450985 -0.536485 9.724909
-0.540385 -0.642834 9.724909
-0.338555 -0.402740 9.724909
-0.153026 -0.182038 9.724909
-0.548746 -0.652780 9.724909
-0.230989 -0.274781 9.724909
-0.256200 -0.304772 9.724909
-0.044081 -0.052438 9.724909
-0.560548 -0.666819 9.724909
-0.071128 -0.084769 9.724909
-0.591267 -0.704657 9.724909
-0.044121 -0.052583 9.724909
-0.143199 -0.170661 9.724909
-0.591522 -0.704962 9.724909
-0.369154 -0.439948 9.724909
-0.136010 -0.162093 9.724909
-0.373010 -0.444545 9.724909
-0.436681 -0.520426 9.724909
-0.172769 -0.205902 9.724909
-0.300820 -0.361149 9.724909
-0.098834 -0.118655 9.724909
-0.073071 -0.087726 9.724909
-0.224331 -0.269321 9.724909
-0.144339 -0.173285 9.724909
-0.042130 -0.050579 9.724909
-0.324909 -0.390068 9.724909
-0.272002 -0.326551 9.724909
-0.395617 -0.474957 9.724909
-0.661564 -0.794239 9.724909
-0.244075 -0.350510 9.724909
-0.059609 -0.085603 9.724909
-0.133593 -0.191849 9.724909
-0.429075 -0.616184 9.724909
-0.213401 -0.306459 9.724909
-0.161478 -0.231895 9.724909
-0.380064 -0.545800 9.724909
-0.099535 -0.142940 9.724909
-0.338406 -0.485977 9.724909
-0.167533 -0.240590 9.724909
-0.498167 -0.725925 9.724909
-0.060378 -0.087983 9.724909
-0.490530 -0.714797 9.724909
-0.447847 -0.652600 9.724909
-0.553432 -0.806456 9.724909
-0.190667 -0.277838 9.724909
-0.363588 -0.529817 9.724909
-0.049977 -0.072826 9.724909
-0.250763 -0.365409 9.724909
-0.568704 -0.828711 9.724909
-0.135599 -0.238797 9.724909
-0.359924 -0.633846 9.724909
-0.527060 -0.928182 9.724909
-0.138193 -0.243365 9.724909
-0.410203 -0.722391 9.724909
-0.237609 -0.418443 9.724909
-0.249643 -0.439634 9.724909
-0.200737 -0.353509 9.724909
-0.133871 -0.235753 9.724909
-0.520664 -0.916918 9.724909
-0.348084 -0.613184 9.724909
-0.360675 -0.635364 9.724909
-0.410347 -0.722864 9.724909
-0.410994 -0.724005 9.724909
-0.190816 -0.336140 9.724909
-0.408187 -0.719060 9.724909
-0.516625 -0.910084 9.724909
-0.117819 -0.207549 9.724909
-0.340449 -0.599733 9.724909
-0.589946 -1.039246 9.724909
-0.036887 -0.065173 9.724909
-0.212538 -0.375515 9.724909
-0.313435 -0.553781 9.724909
-0.303061 -0.535453 9.724909
-0.212133 -0.374799 9.724909
-0.339530 -0.599886 9.724909
-0.144051 -0.254511 9.724909
-0.378425 -0.668606 9.724909
-0.098822 -0.174600 9.724909
-0.245226 -0.433269 9.724909
-0.306465 -0.542996 9.724909
-0.298816 -0.529444 9.724909
-0.208006 -0.368546 9.724909
-0.034700 -0.061482 9.724909
-0.151254 -0.267993 9.724909
-0.106388 -0.188498 9.724909
-0.093498 -0.165660 9.724909
-0.419316 -0.742945 9.724909
-0.403717 -0.715306 9.724909
-0.129986 -0.230309 9.724909
-0.031447 -0.055828 9.724909
-0.159600 -0.283335 9.724909
-0.312094 -0.554055 9.724909
-0.517074 -0.917952 9.724909
-0.502526 -0.892125 9.724909
-0.443388 -0.787138 9.724909
-0.418688 -0.743290 9.724909
-0.184351 -0.327274 9.724909
-0.080993 -0.143786 9.724909
-0.015580 -0.027660 9.724909
-0.277454 -0.613078 9.724909
-0.140044 -0.309451 9.724909
-0.210806 -0.465810 9.724909
-0.322256 -0.712076 9.724909
-0.189797 -0.419387 9.724909
-0.123142 -0.272103 9.724909
-0.252903 -0.558830 9.724909
-0.176873 -0.390829 9.724909
-0.392994 -0.868383 9.724909
-0.345923 -0.764371 9.724909
-0.032223 -0.071748 9.724909
-0.002849 -0.006343 9.724909
-0.233868 -0.520739 9.724909
-0.138202 -0.307724 9.724909
-0.315128 -0.701674 9.724909
-0.269535 -0.600156 9.724909
-0.031391 -0.069895 9.724909
-0.009424 -0.020983 9.724909
-0.162814 -0.362527 9.724909
-0.204323 -0.454953 9.724909
-0.210935 -0.615214 9.724909
-0.050981 -0.148693 9.724909
-0.213181 -0.621765 9.724909
-0.352555 -1.028266 9.724909
-0.261365 -0.762302 9.724909
-0.077180 -0.225104 9.724909
-0.268150 -0.782091 9.724909
-0.269611 -0.786350 9.724909
-0.003135 -0.009144 9.724909
-0.228863 -0.667505 9.724909
-0.227928 -0.671936 9.724909
-0.014370 -0.042363 9.724909
-0.346103 -1.020319 9.724909
-0.258456 -0.761933 9.724909
-0.386867 -1.140492 9.724909
-0.377370 -1.112496 9.724909
-0.376708 -1.110542 9.724909
-0.169533 -0.499787 9.724909
-0.089867 -0.264931 9.724909
-0.396630 -1.169272 9.724909
-0.130574 -0.532452 9.724909
-0.090110 -0.367450 9.724909
-0.003606 -0.014705 9.724909
-0.070668 -0.288169 9.724909
-0.086405 -0.352340 9.724909
-0.039636 -0.161628 9.724909
-0.131992 -0.538235 9.724909
-0.038898 -0.158619 9.724909
-0.038896 -0.158608 9.724909
-0.098139 -0.400191 9.724909
-0.161462 -0.661133 9.724909
-0.181544 -0.743364 9.724909
-0.200827 -0.822320 9.724909
-0.019961 -0.081735 9.724909
-0.078649 -0.322043 9.724909
-0.203882 -0.834828 9.724909
-0.097051 -0.397392 9.724909
-0.157718 -0.645802 9.724909
-0.043295 -0.177280 9.724909
-0.159753 -0.654136 9.724909
-0.061034 -0.252760 9.724909
-0.234621 -0.971632 9.724909
-0.085285 -0.353191 9.724909
-0.184052 -0.762211 9.724909
-0.089413 -0.370287 9.724909
-0.233995 -0.969042 9.724909
-0.218131 -0.903345 9.724909
-0.016294 -0.067477 9.724909
-0.158516 -0.656460 9.724909
-0.143079 -0.592531 9.724909
-0.143521 -0.948190 9.724909
-0.169333 -1.118719 9.724909
-0.090060 -0.594993 9.724909
-0.044940 -0.296898 9.724909
-0.119577 -0.790001 9.724909
-0.160767 -1.062129 9.724909
-0.162223 -1.071747 9.724909
-0.107976 -0.713354 9.724909
-0.147881 -0.976990 9.724909
-0.100591 -0.664564 9.724909
-0.059155 -0.403101 9.724909
-0.076910 -0.524088 9.724909
-0.068743 -0.468436 9.724909
-0.130527 -0.889453 9.724909
-0.186596 -1.271524 9.724909
-0.037709 -0.256961 9.724909
-0.161048 -1.097431 9.724909
-0.049137 -0.334835 9.724909
-0.095265 -0.649165 9.724909
-0.064518 -0.439648 9.724909
-0.001986 -0.036395 9.724909
-0.018499 -0.338945 9.724909
-0.026310 -0.482057 9.724909
-0.006822 -0.125002 9.724909
-0.018061 -0.330929 9.724909
-0.056976 -1.043944 9.724909
-0.049867 -0.913693 9.724909
-0.043582 -0.798524 9.724909
-0.055669 -1.019990 9.724909
-0.020373 -0.373282 9.724909
0.030120 -0.864183 9.724909
0.015329 -0.439817 9.724909
0.023445 -0.672684 9.724909
0.004961 -0.142337 9.724909
0.019116 -0.548475 9.724909
0.016640 -0.477436 9.724909
0.012852 -0.368752 9.724909
0.011158 -0.320139 9.724909
0.007119 -0.204262 9.724909
0.007248 -0.207958 9.724909
0.125693 -0.996515 9.724909
0.062447 -0.495090 9.724909
0.119570 -0.947972 9.724909
0.042080 -0.333621 9.724909
0.151044 -1.197503 9.724909
0.043225 -0.342698 9.724909
0.011366 -0.090114 9.724909
0.135808 -1.076712 9.724909
0.040127 -0.318137 9.724909
0.123757 -0.981164 9.724909
0.095299 -0.733213 9.724909
0.014573 -0.112124 9.724909
0.178989 -1.377104 9.724909
0.083080 -0.639200 9.724909
0.157509 -1.211836 9.724909
0.090377 -0.695339 9.724909
0.000172 -0.001322 9.724909
0.161979 -1.246229 9.724909
0.124924 -0.961138 9.724909
0.070310 -0.540946 9.724909
0.020683 -0.155825 9.724909
0.078485 -0.591306 9.724909
0.139999 -1.054752 9.724909
0.067325 -0.507222 9.724909
0.003987 -0.030037 9.724909
0.009421 -0.070977 9.724909
0.053055 -0.399712 9.724909
0.116372 -0.876744 9.724909
0.106710 -0.803955 9.724909
0.126259 -0.951232 9.724909
0.117786 -0.360271 9.724909
0.342350 -1.047139 9.724909
0.398099 -1.217656 9.724909
0.364623 -1.115263 9.724909
0.152738 -0.467175 9.724909
0.429361 -1.313277 9.724909
0.404354 -1.236789 9.724909
0.223800 -0.684531 9.724909
0.196386 -0.600683 9.724909
0.125816 -0.384831 9.724909
0.265376 -0.488025 9.724909
0.122320 -0.224945 9.724909
0.060892 -0.111981 9.724909
0.427349 -0.785893 9.724909
0.290859 -0.534889 9.724909
0.028400 -0.052228 9.724909
0.487093 -0.895762 9.724909
0.635448 -1.168585 9.724909
0.367270 -0.675409 9.724909
0.307930 -0.566282 9.724909
0.785062 -1.167405 9.724909
0.649646 -0.966038 9.724909
0.538562 -0.800854 9.724909
0.368334 -0.547722 9.724909
0.024476 -0.036396 9.724909
0.908778 -1.351375 9.724909
0.121167 -0.180179 9.724909
0.883256 -1.313422 9.724909
0.242333 -0.360355 9.724909
0.875870 -1.302439 9.724909
0.245112 -0.249820 9.724909
0.165487 -0.168666 9.724909
0.299942 -0.305703 9.724909
0.552982 -0.563603 9.724909
0.498309 -0.507880 9.724909
0.458086 -0.466885 9.724909
0.483603 -0.492892 9.724909
0.847142 -0.863414 9.724909
0.195552 -0.199308 9.724909
1.029952 -1.049734 9.724909
0.320875 -0.327027 9.724909
0.830416 -0.846336 9.724909
0.833148 -0.849120 9.724909
0.128745 -0.131213 9.724909
0.996177 -1.015275 9.724909
0.993289 -1.012331 9.724909
0.195020 -0.198759 9.724909
0.258258 -0.263209 9.724909
0.358865 -0.365745 9.724909
0.869883 -0.886560 9.724909
0.690712 -0.579080 9.724909
1.024892 -0.859251 9.724909
0.506876 -0.424955 9.724909
0.991658 -0.831388 9.724909
1.211076 -1.015343 9.724909
0.076409 -0.064060 9.724909
0.168697 -0.141432 9.724909
0.919761 -0.771110 9.724909
0.190112 -0.159387 9.724909
1.142068 -0.957489 9.724909
1.221695 -0.850760 9.724909
0.146155 -0.101779 9.724909
0.875147 -0.609433 9.724909
0.481254 -0.335134 9.724909
0.984982 -0.685919 9.724909
0.025561 -0.017800 9.724909
0.567630 -0.395285 9.724909
0.528209 -0.367832 9.724909
0.030970 -0.021567 9.724909
0.936093 -0.651874 9.724909
0.060502 -0.041864 9.724909
0.657432 -0.454901 9.724909
0.055168 -0.038172 9.724909
0.883697 -0.611462 9.724909
0.678528 -0.469498 9.724909
0.241889 -0.167372 9.724909
1.322634 -0.915178 9.724909
0.505027 -0.349447 9.724909
0.787175 -0.544675 9.724909
0.433879 -0.300217 9.724909
0.349676 -0.199501 9.724909
1.050781 -0.599504 9.724909
1.167953 -0.666354 9.724909
1.106405 -0.631239 9.724909
0.201400 -0.114905 9.724909
1.134859 -0.647473 9.724909
0.931919 -0.531689 9.724909
0.479597 -0.273625 9.724909
0.583499 -0.332905 9.724909
0.982450 -0.560519 9.724909
0.314683 -0.142824 9.724909
0.789996 -0.358551 9.724909
0.237773 -0.107917 9.724909
0.456696 -0.207278 9.724909
1.047570 -0.475455 9.724909
0.820434 -0.372366 9.724909
0.785590 -0.356551 9.724909
0.399564 -0.181348 9.724909
0.853620 -0.387428 9.724909
0.354155 -0.160739 9.724909
0.886899 -0.400247 9.724909
1.040231 -0.469444 9.724909
1.151165 -0.519507 9.724909
0.921352 -0.415795 9.724909
1.333317 -0.601711 9.724909
0.030424 -0.013730 9.724909
1.437388 -0.648676 9.724909
0.965990 -0.435940 9.724909
0.946665 -0.427219 9.724909
1.359528 -0.613539 9.724909
0.540079 -0.187659 9.724909
0.213242 -0.074094 9.724909
0.346938 -0.120549 9.724909
1.382715 -0.480446 9.724909
0.941761 -0.327230 9.724909
0.284633 -0.098900 9.724909
0.637255 -0.221424 9.724909
0.817411 -0.284022 9.724909
0.776305 -0.269740 9.724909
0.407675 -0.141653 9.724909
0.075887 -0.026062 9.724909
1.255848 -0.431289 9.724909
1.218455 -0.418447 9.724909
0.567829 -0.195007 9.724909
0.848557 -0.291416 9.724909
1.186810 -0.407580 9.724909
1.008282 -0.346269 9.724909
0.544318 -0.186932 9.724909
1.139902 -0.391470 9.724909
0.868635 -0.298311 9.724909
1.020648 -0.349963 9.724909
0.509529 -0.174709 9.724909
0.724148 -0.248298 9.724909
0.854703 -0.293063 9.724909
1.308527 -0.448672 9.724909
1.161325 -0.398199 9.724909
1.201385 -0.411935 9.724909
1.173687 -0.402437 9.724909
0.979026 -0.335691 9.724909
1.476873 -0.506395 9.724909
1.327815 -0.448473 9.724909
0.799912 -0.270172 9.724909
0.375981 -0.126988 9.724909
0.750385 -0.253444 9.724909
0.163545 -0.055238 9.724909
1.078462 -0.364253 9.724909
0.936362 -0.316258 9.724909
1.319169 -0.445553 9.724909
0.042968 -0.014513 9.724909
1.217266 -0.411134 9.724909
0.568073 -0.085259 9.724909
1.059856 -0.159068 9.724909
1.217439 -0.182718 9.724909
0.432437 -0.064902 9.724909
0.953070 -0.143041 9.724909
0.057612 -0.008647 9.724909
0.417361 -0.062639 9.724909
0.324753 -0.048740 9.724909
0.233535 -0.035050 9.724909
0.168215 -0.025246 9.724909
1.078139 -0.154966 9.724909
0.088290 -0.012690 9.724909
0.687457 -0.098811 9.724909
1.020449 -0.146674 9.724909
0.884654 -0.127155 9.724909
0.101986 -0.014659 9.724909
1.307612 -0.187949 9.724909
0.897616 -0.129018 9.724909
0.060717 -0.008727 9.724909
0.735239 -0.105679 9.724909
1.164249 -0.069510 9.724909
0.292188 -0.017445 9.724909
0.644821 -0.038498 9.724909
0.130503 -0.007792 9.724909
0.315078 -0.018811 9.724909
1.187501 -0.070898 9.724909
1.405092 -0.083889 9.724909
0.871413 -0.052027 9.724909
0.203182 -0.012131 9.724909
1.579778 -0.094319 9.724909
0.930619 -0.047108 9.724909
0.012987 -0.000657 9.724909
0.036027 -0.001824 9.724909
0.631952 -0.031989 9.724909
0.843889 -0.042718 9.724909
0.087247 -0.004416 9.724909
1.381498 -0.069931 9.724909
0.891736 -0.045140 9.724909
1.469967 -0.074410 9.724909
0.456360 -0.023101 9.724909
0.106384 0.004191 9.724909
0.343948 0.013550 9.724909
1.489046 0.058661 9.724909
0.303829 0.011969 9.724909
0.330166 0.013007 9.724909
1.336348 0.052646 9.724909
0.540747 0.021303 9.724909
1.586140 0.062486 9.724909
0.624799 0.024614 9.724909
0.791273 0.031172 9.724909
1.312429 0.054880 9.724909
0.217037 0.009076 9.724909
