-1.845972 -0.824154 4.473447
-1.959019 -0.858543 5.301500
-2.067822 -0.897777 5.706213
-2.168941 -0.920836 6.691804
-2.066015 -0.868969 7.133369
-1.950507 -0.808235 7.829859
-2.002521 -0.812086 8.782150
-1.887516 -0.754324 9.470213
-2.031285 -0.754530 0.769749
-2.008142 -0.733479 1.428634
-1.948569 -0.700025 2.073107
-1.931241 -0.680559 2.812799
-1.955183 -0.675136 3.580079
-1.989453 -0.673794 4.300794
-1.873732 -0.622241 5.046971
-1.954306 -0.636832 5.729592
-2.254196 -0.718442 6.477038
-2.195703 -0.688870 7.052686
-2.075613 -0.638940 7.756952
-2.082252 -0.627137 8.529222
-1.993064 -0.588423 9.255721
-1.747357 -0.468844 0.246567
-2.129942 -0.555140 1.106784
-2.039024 -0.519398 1.778691
-1.991307 -0.499970 2.197036
-1.989793 -0.483777 3.106898
-1.978531 -0.470425 3.726597
-1.975727 -0.456261 4.520569
-2.063003 -0.462365 5.305303
-2.177331 -0.480145 5.710312
-2.301435 -0.488340 6.673135
-2.249448 -0.463937 7.395388
-2.120855 -0.428280 7.946396
-2.120921 -0.413846 8.782150
-2.006773 -0.377451 9.690837
-1.985315 -0.339062 0.631699
-2.128491 -0.351562 1.286785
-2.067294 -0.328378 2.033986
-2.068161 -0.316120 2.742904
-2.043813 -0.302777 3.304626
-2.096578 -0.294230 4.231913
-2.110846 -0.284486 4.899605
-2.178414 -0.285291 5.350165
-2.346275 -0.293134 6.052939
-2.305662 -0.274551 6.776160
-2.183704 -0.245180 7.642841
-2.109765 -0.225884 8.313235
-2.112337 -0.212499 9.132957
-1.953571 -0.145334 0.217176
-2.148904 -0.142511 1.183509
-2.123149 -0.130990 1.739819
-2.059722 -0.116756 2.347681
-2.032635 -0.104882 2.965600
-2.082774 -0.090369 3.959207
-2.098041 -0.081849 4.492033
-2.021719 -0.067342 5.203642
-2.116485 -0.060086 5.796613
-2.323311 -0.051628 6.523712
-2.327099 -0.032824 7.535578
-2.187543 -0.022491 8.049612
-2.194945 -0.005956 9.013593
-1.853529 0.000322 9.478595
-1.887643 0.033152 0.567752
-2.112277 0.052265 1.429670
-2.080321 0.058134 1.817616
-2.074471 0.070120 2.526513
-2.086648 0.083411 3.274023
-2.103381 0.099041 4.137905
-2.210777 0.112570 4.591614
-2.218405 0.129624 5.509523
-2.200972 0.137568 6.013451
-2.278393 0.160261 6.968524
-2.119901 0.158423 7.550359
-2.108207 0.169795 8.285038
-2.027957 0.175918 9.095655
-1.848876 0.217684 0.482943
-2.088049 0.258405 1.194630
-2.069865 0.268953 1.930514
-1.979599 0.266339 2.484833
-2.008012 0.286129 3.431917
-2.346023 0.351306 4.257429
-2.433351 0.370790 4.558509
-2.280555 0.366648 5.581786
-2.111338 0.350097 6.218631
-2.056895 0.349815 6.744570
-2.097370 0.371026 7.569151
-2.111535 0.388161 8.416574
-2.034082 0.386898 9.227488
-1.869739 0.382718 0.122930
-1.948786 0.409365 0.745362
-2.021951 0.439249 1.572939
-1.958694 0.437044 2.256789
-2.263487 0.545998 4.310316
-2.455232 0.608492 5.041910
-2.202965 0.554006 5.501607
-1.936087 0.499115 6.283012
-1.937143 0.514891 7.221937
-1.955062 0.529137 7.789937
-1.970839 0.547460 8.631258
-1.798690 0.511148 9.443616
-1.776692 0.559252 0.549224
-1.930075 0.617644 1.121838
-1.888304 0.618111 1.926667
-1.852347 0.616919 2.554529
-1.538859 0.520395 3.144978
-2.428469 0.861554 4.845522
-2.299563 0.828772 5.473901
-2.017173 0.738042 6.120305
-1.851888 0.691198 6.962205
-1.871873 0.708991 7.567684
-1.965225 0.758761 8.356711
-1.791910 0.699245 8.862858
-1.874736 0.789763 0.263815
-1.926936 0.824351 0.931320
-1.789852 0.779954 1.748644
-1.749702 0.772714 2.348404
-1.971934 0.883204 2.964297
-2.299996 1.046339 3.635829
-2.315389 1.073029 4.480312
-2.214836 1.037365 4.987737
-2.014853 0.986215 7.142734
-1.751661 0.873883 8.163247
-1.683400 0.848540 8.711542
-1.425584 0.727114 9.404343
-1.687902 0.910515 0.813153
-1.657670 0.905594 1.457917
-1.631689 0.908168 2.418058
-1.693459 0.954524 3.068628
-2.002036 1.142493 3.678411
-2.144186 1.238293 4.282288
-2.069976 1.215983 5.194423
-1.920901 1.172188 7.297700
-1.551969 0.959730 8.144543
-1.494084 0.933145 8.732485
-1.367973 0.864652 9.471107
-1.529343 1.016583 0.464339
-1.598921 1.075832 1.143985
-1.479614 1.011060 2.023185
-1.713120 1.209058 3.843521
-1.887618 1.351500 4.643785
-1.719126 1.245529 5.361696
-1.354129 0.991270 6.046806
-0.867235 0.641627 6.800947
-0.985217 0.741120 7.796557
-1.350856 1.029101 8.475854
-1.283714 0.985570 8.981519
-1.411965 1.151548 0.976663
-1.380385 1.133706 1.395692
-1.290979 1.075203 2.239885
-1.389485 1.166640 2.717298
-1.646393 1.401508 3.513445
-1.639380 1.411497 4.197661
-1.335556 1.165050 5.047353
-1.069366 0.964753 7.209837
-1.036054 0.947683 8.101547
-1.219849 1.124220 8.525761
-1.177154 1.101808 9.544419
-1.100604 1.071850 0.458790
-1.303492 1.286592 1.270494
-1.157668 1.154307 1.898477
-1.487611 1.504271 2.722123
-1.667358 1.699503 3.180392
-1.499632 1.552833 4.160112
-1.433695 1.496661 4.667951
-1.233993 1.305613 5.538866
-0.916835 0.980722 6.303117
-0.702114 0.758122 6.960536
-0.837119 0.918594 7.956219
-0.941466 1.039432 8.314379
-0.991624 1.111602 9.280337
-1.072874 1.266430 0.323822
-1.076228 1.289445 1.218865
-1.004230 1.212769 1.700728
-1.190268 1.493507 3.969704
-0.603062 0.792091 6.897417
-0.628310 0.833589 7.513629
-0.803682 1.080923 8.297054
-0.846195 1.152308 9.050453
-0.853659 1.215570 0.382874
-0.883880 1.275032 1.127697
-0.863924 1.260263 1.770076
-1.047742 1.587731 3.903507
-0.539668 0.861279 7.004141
-0.551743 0.888542 7.523321
-0.710796 1.162826 8.364304
-0.794695 1.411155 0.886934
-0.724585 1.301104 1.474711
-0.673082 1.223174 2.103984
-0.677256 1.247298 2.796414
-0.862887 1.609779 3.423249
-0.903542 1.711513 4.187106
-0.691248 1.325620 4.872801
-0.519846 1.011892 5.693341
-0.388394 0.766285 6.439867
-0.417755 0.835007 7.101255
-0.524030 1.065652 7.938245
-0.546011 1.123604 8.533926
-0.516633 1.079816 9.347385
-0.490738 1.106932 0.424459
-0.611584 1.411198 1.443940
-0.537812 1.257611 2.047858
-0.607358 1.443226 2.746326
-0.700227 1.693018 3.480115
-0.730972 1.799469 4.243793
-0.637004 1.586932 4.784796
-0.486873 1.234882 5.613556
-0.334276 0.861602 6.377945
-0.310968 0.813739 7.042863
-0.424886 1.137312 7.942420
-0.428901 1.159915 8.373908
-0.408733 1.125578 9.151389
-0.436646 1.313271 1.344531
-0.394282 1.212981 2.178850
-0.418769 1.316200 2.944400
-0.525935 1.682972 3.544567
-0.558530 1.817614 4.114452
-0.451556 1.509671 5.085599
-0.326317 1.112749 5.828628
-0.236026 0.820718 6.551512
-0.266155 0.948282 7.353845
-0.314399 1.140668 7.918939
-0.318229 1.175661 8.510865
-0.295379 1.120659 9.398802
-0.298082 1.281864 0.740667
-0.273554 1.204899 1.388816
-0.263486 1.193282 2.124073
-0.229480 1.063283 2.725389
-0.300377 1.450964 3.737721
-0.366262 1.817015 4.341206
-0.302420 1.545052 5.076052
-0.189113 0.995391 5.862682
-0.107369 0.582718 6.650191
-0.141161 0.785705 7.189122
-0.203094 1.166473 7.807326
-0.196063 1.166995 8.580498
-0.164491 1.021463 9.514847
-0.176728 1.282277 0.885553
-0.163593 1.225842 1.417734
-0.154998 1.205892 2.017987
-0.147787 1.207881 2.773692
-0.182654 1.568955 3.466845
-0.201250 1.813641 4.104330
-0.161767 1.564648 5.066504
-0.097460 0.986269 5.726836
-0.053634 0.579216 6.591293
-0.074068 0.861345 7.388874
-0.100058 1.232260 7.927303
-0.092732 1.230037 8.680690
-0.073527 1.061420 9.527757
-0.045461 1.061026 0.513443
-0.046549 1.253291 1.214428
-0.035069 1.077951 1.792770
-0.024162 0.962083 2.725245
-0.023639 1.284630 3.534920
-0.023257 1.666735 4.045754
0.008100 0.901394 7.067221
0.016814 1.182972 7.686136
0.023616 1.209831 8.370025
0.026987 1.028734 9.298459
0.056855 1.110825 0.532067
0.067802 1.180347 1.303896
0.065705 1.039022 2.027956
0.067979 0.971457 2.870933
0.090711 1.218467 3.404920
0.122204 1.505033 4.209403
0.108836 1.273831 4.765556
0.074782 0.824427 5.493313
0.050076 0.510423 6.492123
0.084531 0.814507 7.164692
0.128422 1.174895 7.797672
0.146739 1.258766 8.713257
0.113404 0.942117 9.288285
0.132269 0.903117 0.564250
0.181395 1.191807 1.254738
0.164426 1.045210 1.881228
0.157845 0.966500 2.616546
0.137439 0.817086 3.226409
0.192118 1.089103 4.199024
0.211120 1.156690 4.936818
0.131871 0.704131 5.590557
0.119713 0.617361 6.430764
0.181090 0.908073 7.062363
0.250484 1.210675 7.927303
0.254236 1.204166 8.456819
0.215343 0.989362 9.333889
0.141476 0.592335 0.225644
0.197874 0.815780 0.662914
0.233693 0.935990 1.496752
0.230044 0.898963 2.229579
0.252155 0.958237 3.074815
0.228075 0.853994 3.545573
0.256147 0.930788 4.491693
0.207981 0.745748 4.952996
0.141424 0.493527 5.904652
0.196443 0.669909 6.671170
0.300090 0.997657 7.503937
0.329846 1.080365 8.022352
0.330221 1.059067 8.803554
0.252959 0.797032 9.547062
0.113339 0.317758 0.543691
0.212315 0.587273 1.079011
0.303372 0.824228 1.793119
0.294147 0.787017 2.421052
0.305033 0.799928 3.253392
0.348348 0.892539 4.226370
0.343259 0.867487 4.822097
0.271797 0.674400 5.659015
0.225209 0.551837 6.244383
0.316378 0.764805 6.818730
0.408871 0.971613 7.562082
0.420332 0.978710 8.516906
0.351431 0.807139 9.223027
0.264503 0.576913 0.313719
0.385985 0.832770 0.826878
0.394148 0.835134 1.693370
0.404005 0.844385 2.355970
0.387158 0.798110 3.034752
0.387536 0.787746 3.733098
0.397552 0.795998 4.491343
0.292139 0.578035 5.130395
0.274920 0.533789 6.122388
0.394683 0.759321 6.561255
0.532720 1.010588 7.250799
0.611752 1.142090 8.075880
0.533807 0.983446 8.842245
0.329539 0.597630 9.840298
0.602772 1.029549 0.830155
0.487899 0.825494 1.351038
0.453170 0.754189 2.261910
0.407452 0.672622 2.719071
0.444946 0.721875 3.686975
0.463312 0.742562 4.374512
0.336600 0.533805 5.012769
0.202503 0.317672 5.683959
0.350129 0.539917 6.650908
0.560079 0.851830 7.397287
0.717566 1.076110 8.177726
0.641616 0.952038 8.855525
0.425289 0.624195 9.631501
0.622236 0.870120 0.900882
0.532469 0.738486 1.391847
0.512153 0.698068 2.429103
0.471098 0.638135 2.806921
0.517489 0.691781 3.596751
0.530916 0.700345 4.403724
0.397655 0.518314 5.169592
0.473912 0.608515 6.083268
0.628887 0.801814 6.481158
0.693167 0.871243 7.357578
0.691747 0.858955 8.130175
0.594624 0.730505 8.855426
0.436206 0.528350 9.850088
0.040198 0.046787 0.498017
0.185523 0.213096 1.327123
0.492661 0.562503 1.682126
0.514622 0.579319 2.562852
0.505554 0.562802 3.262461
0.519701 0.570532 4.139578
0.474049 0.516758 4.594605
0.411395 0.442117 5.517668
0.403676 0.429233 6.205123
0.610818 0.639917 7.111023
0.739350 0.766750 7.732032
0.733709 0.751338 8.561501
0.638084 0.646216 9.330086
0.859393 0.826220 0.791550
0.628173 0.596798 1.539913
0.510686 0.480125 2.204480
0.521646 0.486229 2.744316
0.536897 0.494374 3.511513
0.568963 0.517132 4.328076
0.367829 0.331294 4.941471
0.213464 0.189951 5.748967
0.199682 0.175190 6.669631
0.474494 0.411471 7.356029
0.791961 0.679230 7.980763
0.674208 0.572874 8.621965
0.466527 0.391730 9.471192
0.916278 0.727838 0.917661
0.631393 0.498976 1.239645
0.568942 0.443168 2.124714
0.566621 0.436691 2.773661
0.575937 0.438949 3.452843
0.621637 0.466461 4.396437
0.436108 0.323642 5.105218
0.252709 0.185650 5.764839
0.090677 0.065845 6.523198
0.396535 0.282963 7.538823
0.847125 0.597148 8.176011
0.772403 0.540516 8.649110
0.566788 0.391187 9.575978
0.793742 0.509311 0.836018
0.720844 0.459286 1.237914
0.626958 0.393987 2.025497
0.521220 0.323414 2.751944
0.596229 0.365334 3.455239
0.747220 0.452098 4.147572
0.624136 0.371072 5.149132
0.377640 0.222929 5.593486
0.007190 0.004193 6.366910
0.929959 0.524026 8.087339
0.903724 0.502760 8.811925
0.581170 0.320591 9.383546
0.972696 0.501704 0.890570
0.762044 0.390122 1.276887
0.666424 0.335545 2.123235
0.651406 0.322840 2.920360
0.651048 0.319190 3.462622
0.803371 0.387128 4.303346
0.706071 0.334355 5.181082
0.384333 0.180422 5.666344
0.173620 0.080153 6.539769
0.453530 0.206293 7.218691
0.936594 0.417232 8.127534
0.906849 0.398989 8.740310
0.634351 0.274737 9.585767
-0.654604 -0.010722 0.094220
-1.974633 -0.032343 0.094220
-1.542398 -0.025263 0.094220
-1.272237 -0.020838 0.094220
-0.239882 -0.003929 0.094220
-1.226640 -0.020091 0.094220
-0.932922 -0.015280 0.094220
-0.717269 -0.011748 0.094220
-0.556814 -0.009120 0.094220
-1.855868 -0.030398 0.094220
-0.669400 -0.031918 0.094220
-1.519347 -0.072445 0.094220
-0.048515 -0.002313 0.094220
-0.136012 -0.006485 0.094220
-1.156084 -0.055124 0.094220
-1.005720 -0.047954 0.094220
-0.024449 -0.001166 0.094220
-0.952093 -0.045397 0.094220
-0.201164 -0.009592 0.094220
-0.632861 -0.030176 0.094220
-1.272788 -0.080310 0.094220
-0.827229 -0.052196 0.094220
-0.697608 -0.044018 0.094220
-1.077356 -0.067979 0.094220
-0.815455 -0.051454 0.094220
-1.470404 -0.092779 0.094220
-0.601961 -0.037982 0.094220
-1.327331 -0.083752 0.094220
-0.977976 -0.061708 0.094220
-1.194903 -0.075396 0.094220
-0.470833 -0.035027 0.094220
-1.342908 -0.099904 0.094220
-0.907743 -0.067531 0.094220
-1.537408 -0.114374 0.094220
-1.862992 -0.138596 0.094220
-0.268116 -0.019946 0.094220
-1.098557 -0.081726 0.094220
-1.835906 -0.136580 0.094220
-1.295173 -0.096353 0.094220
-1.116360 -0.083051 0.094220
-0.568429 -0.047154 0.094220
-0.992242 -0.082312 0.094220
-0.123887 -0.010277 0.094220
-0.085181 -0.007066 0.094220
-0.646100 -0.053598 0.094220
-1.017445 -0.084403 0.094220
-0.192512 -0.015970 0.094220
-1.898865 -0.157521 0.094220
-0.514411 -0.042673 0.094220
-2.016400 -0.167272 0.094220
-0.405225 -0.045277 0.094220
-1.910128 -0.213424 0.094220
-0.421399 -0.047084 0.094220
-0.362242 -0.040474 0.094220
-1.164653 -0.130130 0.094220
-1.841371 -0.205742 0.094220
-1.050224 -0.117345 0.094220
-0.069482 -0.007763 0.094220
-0.679475 -0.075920 0.094220
-1.076108 -0.120237 0.094220
-1.440057 -0.214764 0.094220
-0.650533 -0.097018 0.094220
-2.105420 -0.313993 0.094220
-2.091228 -0.311877 0.094220
-0.988721 -0.147454 0.094220
-1.437775 -0.214423 0.094220
-2.077542 -0.309836 0.094220
-1.004652 -0.149829 0.094220
-1.307496 -0.194994 0.094220
-1.457302 -0.217336 0.094220
-0.474869 -0.079944 0.094220
-1.481602 -0.249426 0.094220
-0.400488 -0.067422 0.094220
-1.995643 -0.335965 0.094220
-0.903066 -0.152030 0.094220
-1.042442 -0.175494 0.094220
-0.308758 -0.051979 0.094220
-0.006707 -0.001129 0.094220
-0.143010 -0.024076 0.094220
-1.251769 -0.210734 0.094220
-1.673100 -0.346359 0.094220
-0.754250 -0.156142 0.094220
-1.177670 -0.243796 0.094220
-1.260417 -0.260927 0.094220
-0.152227 -0.031513 0.094220
-0.423304 -0.087631 0.094220
-0.316008 -0.065419 0.094220
-0.674951 -0.139726 0.094220
-1.343076 -0.278038 0.094220
-2.054762 -0.425369 0.094220
-0.123492 -0.027128 0.094220
-1.114779 -0.244890 0.094220
-1.939096 -0.425973 0.094220
-0.975293 -0.214249 0.094220
-1.149583 -0.252536 0.094220
-0.230152 -0.050559 0.094220
-0.516805 -0.113530 0.094220
-0.465172 -0.102187 0.094220
-0.565489 -0.124224 0.094220
-1.268738 -0.278711 0.094220
-1.715143 -0.460200 0.094220
-0.588676 -0.157951 0.094220
-0.268104 -0.071937 0.094220
-1.659420 -0.445249 0.094220
-1.447858 -0.388484 0.094220
-1.576637 -0.423037 0.094220
-0.689933 -0.185120 0.094220
-1.578186 -0.423453 0.094220
-0.202133 -0.054235 0.094220
-0.245904 -0.065980 0.094220
-0.340421 -0.096684 0.094220
-0.266183 -0.075600 0.094220
-1.593845 -0.452673 0.094220
-1.703194 -0.483729 0.094220
-0.282927 -0.080355 0.094220
-1.519122 -0.431450 0.094220
-0.581828 -0.165247 0.094220
-0.368740 -0.104727 0.094220
-1.763845 -0.500955 0.094220
-0.639370 -0.181589 0.094220
-1.006538 -0.326746 0.094220
-0.291585 -0.094655 0.094220
-0.140855 -0.045725 0.094220
-0.746055 -0.242187 0.094220
-1.352340 -0.439001 0.094220
-0.632433 -0.205303 0.094220
-1.683730 -0.546578 0.094220
-1.983394 -0.643856 0.094220
-0.090594 -0.029409 0.094220
-1.165748 -0.378429 0.094220
-0.253445 -0.093428 0.094220
-0.461058 -0.169961 0.094220
-0.455306 -0.167840 0.094220
-0.754348 -0.278077 0.094220
-1.377744 -0.507881 0.094220
-1.351211 -0.498100 0.094220
-0.377542 -0.139174 0.094220
-1.640120 -0.604602 0.094220
-0.840358 -0.309783 0.094220
-1.398783 -0.515637 0.094220
-1.253760 -0.490166 0.094220
-1.602535 -0.626523 0.094220
-1.479821 -0.578546 0.094220
-1.385955 -0.541849 0.094220
-0.331619 -0.129649 0.094220
-0.513002 -0.200562 0.094220
-1.262228 -0.493477 0.094220
-1.760473 -0.688269 0.094220
-0.498810 -0.195013 0.094220
-0.976473 -0.381759 0.094220
-1.023187 -0.463164 0.094220
-1.304048 -0.590301 0.094220
-0.061153 -0.027682 0.094220
-0.410044 -0.185614 0.094220
-0.385367 -0.174443 0.094220
-0.214691 -0.097184 0.094220
-1.509398 -0.683256 0.094220
-1.074069 -0.486197 0.094220
-1.538101 -0.696249 0.094220
-1.833531 -0.829981 0.094220
-0.016050 -0.008760 0.094220
-0.647167 -0.353205 0.094220
-1.339514 -0.731069 0.094220
-0.420276 -0.229374 0.094220
-0.432657 -0.236132 0.094220
-0.880068 -0.480316 0.094220
-1.299983 -0.709494 0.094220
-1.135730 -0.619849 0.094220
-1.391860 -0.759637 0.094220
-1.085579 -0.592478 0.094220
-0.948853 -0.699427 0.094220
-0.873647 -0.643990 0.094220
-1.042716 -0.768616 0.094220
-1.039313 -0.766107 0.094220
-0.990944 -0.730453 0.094220
-0.047062 -0.034691 0.094220
-1.092496 -0.805310 0.094220
-0.454887 -0.335310 0.094220
-0.486905 -0.358911 0.094220
-0.530203 -0.390828 0.094220
-0.981202 -0.787720 0.094220
-1.354739 -1.087599 0.094220
-0.948090 -0.761137 0.094220
-1.295711 -1.040211 0.094220
-1.139379 -0.914706 0.094220
-0.376773 -0.302477 0.094220
-1.030061 -0.826944 0.094220
-1.078894 -0.866148 0.094220
-1.229006 -0.986659 0.094220
-0.913233 -0.733154 0.094220
-0.835563 -0.714035 0.094220
-0.077356 -0.066105 0.094220
-0.265241 -0.226663 0.094220
-0.112703 -0.096311 0.094220
-0.944336 -0.806988 0.094220
-0.438605 -0.374812 0.094220
-0.156538 -0.133770 0.094220
-0.065937 -0.056347 0.094220
-0.589619 -0.503862 0.094220
-0.861249 -0.735985 0.094220
-0.642948 -0.573182 0.094220
-0.676652 -0.603229 0.094220
-1.235390 -1.101338 0.094220
-1.129710 -1.007126 0.094220
-1.159101 -1.033327 0.094220
-0.772083 -0.688305 0.094220
-1.266824 -1.129362 0.094220
-0.940833 -0.838744 0.094220
-0.961153 -0.856859 0.094220
-0.272873 -0.243263 0.094220
-0.159204 -0.154745 0.094220
-0.644215 -0.626172 0.094220
-0.484130 -0.470571 0.094220
-0.858137 -0.834103 0.094220
-1.085079 -1.054688 0.094220
-0.752152 -0.731086 0.094220
-0.993982 -0.966143 0.094220
-0.305552 -0.296994 0.094220
-1.058638 -1.028988 0.094220
-0.154252 -0.149931 0.094220
-0.457053 -0.492975 0.094220
-0.687170 -0.741178 0.094220
-0.315627 -0.340434 0.094220
-0.510314 -0.550422 0.094220
-0.106928 -0.115332 0.094220
-0.174575 -0.188296 0.094220
-0.178486 -0.192514 0.094220
-0.220919 -0.238281 0.094220
-0.664939 -0.717200 0.094220
-0.065027 -0.070138 0.094220
-0.362838 -0.514312 0.094220
-0.765057 -1.084445 0.094220
-0.339614 -0.481393 0.094220
-0.735900 -1.043117 0.094220
-0.070859 -0.100440 0.094220
-0.614352 -0.870826 0.094220
-0.051259 -0.072657 0.094220
-0.716871 -1.016143 0.094220
-0.462505 -0.655586 0.094220
-0.799860 -1.133777 0.094220
-0.119451 -0.183561 0.094220
-0.320071 -0.491857 0.094220
-0.566848 -0.871081 0.094220
-0.339408 -0.521572 0.094220
-0.016683 -0.025636 0.094220
-0.134703 -0.207000 0.094220
-1.005232 -1.544752 0.094220
-0.903052 -1.387729 0.094220
-0.223636 -0.343664 0.094220
-0.838235 -1.288125 0.094220
-0.518339 -0.833336 0.094220
-0.388353 -0.624356 0.094220
-0.399394 -0.642107 0.094220
-0.238081 -0.382764 0.094220
-0.403334 -0.648442 0.094220
-0.203849 -0.327729 0.094220
-0.191558 -0.307969 0.094220
-0.126428 -0.203259 0.094220
-0.244020 -0.392312 0.094220
-0.044956 -0.072276 0.094220
-0.746942 -1.251193 0.094220
-0.352947 -0.591218 0.094220
-0.581638 -0.974296 0.094220
-0.314405 -0.526656 0.094220
-0.597085 -1.000170 0.094220
-0.305182 -0.511207 0.094220
-0.438513 -0.734548 0.094220
-0.079609 -0.133352 0.094220
-0.741545 -1.242154 0.094220
-0.381361 -0.638814 0.094220
-0.641069 -1.124753 0.094220
-0.467690 -0.820560 0.094220
-0.708958 -1.243864 0.094220
-0.349695 -0.613539 0.094220
-0.433855 -0.761198 0.094220
-0.085986 -0.150861 0.094220
-0.399096 -0.700213 0.094220
-0.487653 -0.855585 0.094220
-0.289884 -0.508601 0.094220
-0.502725 -0.882028 0.094220
-0.422915 -0.758672 0.094220
-0.484705 -0.869518 0.094220
-0.873688 -1.567319 0.094220
-0.387498 -0.695138 0.094220
-0.808894 -1.451085 0.094220
-0.020336 -0.036481 0.094220
-0.166204 -0.298155 0.094220
-0.327381 -0.587292 0.094220
-0.449417 -0.806214 0.094220
-0.155880 -0.279636 0.094220
-0.355356 -0.682228 0.094220
-0.247416 -0.474999 0.094220
-0.666507 -1.279588 0.094220
-0.586228 -1.125465 0.094220
-0.082349 -0.158096 0.094220
-0.739995 -1.420674 0.094220
-0.694255 -1.332860 0.094220
-0.113975 -0.218815 0.094220
-0.480546 -0.922573 0.094220
-0.729586 -1.400691 0.094220
-0.010798 -0.022568 0.094220
-0.609248 -1.273324 0.094220
-0.286683 -0.599164 0.094220
-0.338244 -0.706928 0.094220
-0.232876 -0.486708 0.094220
-0.152643 -0.319024 0.094220
-0.624964 -1.306169 0.094220
-0.030318 -0.063365 0.094220
-0.672607 -1.405744 0.094220
-0.173336 -0.362271 0.094220
-0.045357 -0.116036 0.094220
-0.488762 -1.250380 0.094220
-0.443000 -1.133310 0.094220
-0.028835 -0.073767 0.094220
-0.260500 -0.666426 0.094220
-0.543758 -1.391076 0.094220
-0.602398 -1.541091 0.094220
-0.504986 -1.291886 0.094220
-0.129560 -0.331448 0.094220
-0.254273 -0.650498 0.094220
-0.387663 -1.022438 0.094220
-0.563538 -1.486297 0.094220
-0.551414 -1.454320 0.094220
-0.060177 -0.158713 0.094220
-0.516717 -1.362811 0.094220
-0.222337 -0.586401 0.094220
-0.405586 -1.069710 0.094220
-0.365504 -0.963995 0.094220
-0.499917 -1.318500 0.094220
-0.406799 -1.072907 0.094220
-0.201282 -0.585774 0.094220
-0.083796 -0.243864 0.094220
-0.229317 -0.667360 0.094220
-0.275482 -0.801712 0.094220
-0.231416 -0.673471 0.094220
-0.017743 -0.051635 0.094220
-0.150541 -0.438106 0.094220
-0.184896 -0.538087 0.094220
-0.374948 -1.091178 0.094220
-0.294783 -0.857881 0.094220
-0.152763 -0.472721 0.094220
-0.338772 -1.048322 0.094220
-0.494020 -1.528732 0.094220
-0.278555 -0.861983 0.094220
-0.493623 -1.527506 0.094220
-0.476817 -1.475497 0.094220
-0.378440 -1.171074 0.094220
-0.056049 -0.173441 0.094220
-0.072117 -0.223163 0.094220
-0.140009 -0.433254 0.094220
-0.328636 -1.174879 0.094220
-0.400234 -1.430841 0.094220
-0.467226 -1.670340 0.094220
-0.318423 -1.138365 0.094220
-0.160589 -0.574107 0.094220
-0.290925 -1.040060 0.094220
-0.016501 -0.058992 0.094220
-0.412190 -1.473587 0.094220
-0.257195 -0.919474 0.094220
-0.117161 -0.418853 0.094220
-0.295821 -1.075032 0.094220
-0.333522 -1.212041 0.094220
-0.020296 -0.073755 0.094220
-0.189721 -0.689460 0.094220
-0.409984 -1.489909 0.094220
-0.225253 -0.818586 0.094220
-0.284408 -1.033557 0.094220
-0.063903 -0.232226 0.094220
-0.178708 -0.649436 0.094220
-0.103356 -0.375602 0.094220
-0.034535 -0.187935 0.094220
-0.217223 -1.182078 0.094220
-0.269039 -1.464050 0.094220
-0.282960 -1.539809 0.094220
-0.291564 -1.586627 0.094220
-0.220001 -1.197200 0.094220
-0.248576 -1.352697 0.094220
-0.138640 -0.754448 0.094220
-0.156558 -0.851955 0.094220
-0.060821 -0.330972 0.094220
-0.132896 -1.527094 0.094220
-0.011119 -0.127762 0.094220
-0.015785 -0.181386 0.094220
-0.073756 -0.847520 0.094220
-0.122312 -1.405475 0.094220
-0.075811 -0.871136 0.094220
-0.092613 -1.064206 0.094220
-0.065126 -0.748356 0.094220
-0.153337 -1.761984 0.094220
-0.086105 -0.989426 0.094220
-0.047409 -1.027066 0.094220
-0.001213 -0.026283 0.094220
-0.021672 -0.469513 0.094220
-0.014643 -0.317223 0.094220
-0.011870 -0.257146 0.094220
-0.025432 -0.550972 0.094220
-0.038247 -0.828595 0.094220
-0.022564 -0.488834 0.094220
-0.023749 -0.514498 0.094220
-0.049066 -1.062970 0.094220
0.006019 -1.274856 0.094220
0.004352 -0.921669 0.094220
0.007233 -1.531927 0.094220
0.004251 -0.900259 0.094220
0.001520 -0.321857 0.094220
0.001704 -0.360953 0.094220
0.004592 -0.972484 0.094220
0.007199 -1.524736 0.094220
0.003684 -0.780214 0.094220
0.002532 -0.536344 0.094220
0.001638 -0.141151 0.094220
0.015620 -1.346330 0.094220
0.006165 -0.531388 0.094220
0.012997 -1.120309 0.094220
0.008008 -0.690206 0.094220
0.002668 -0.229993 0.094220
0.010490 -0.904184 0.094220
0.014114 -1.216537 0.094220
0.009954 -0.858020 0.094220
0.000776 -0.066915 0.094220
0.012689 -0.287139 0.094220
0.054055 -1.223193 0.094220
0.049893 -1.129015 0.094220
0.053982 -1.221536 0.094220
0.018036 -0.408128 0.094220
0.010240 -0.231721 0.094220
0.000965 -0.021844 0.094220
0.003522 -0.079692 0.094220
0.026501 -0.599686 0.094220
0.001240 -0.028056 0.094220
0.057877 -0.927681 0.094220
0.032823 -0.526107 0.094220
0.082544 -1.323063 0.094220
0.092945 -1.489770 0.094220
0.100585 -1.612220 0.094220
0.047196 -0.756483 0.094220
0.065815 -1.054913 0.094220
0.030114 -0.482688 0.094220
0.083891 -1.344651 0.094220
0.045826 -0.734518 0.094220
0.037289 -0.374466 0.094220
0.052394 -0.526153 0.094220
0.042350 -0.425290 0.094220
0.089504 -0.898826 0.094220
0.072229 -0.725349 0.094220
0.049354 -0.495623 0.094220
0.151058 -1.516965 0.094220
0.053695 -0.539225 0.094220
0.169016 -1.697308 0.094220
0.053376 -0.536015 0.094220
0.119854 -1.105245 0.094220
0.019743 -0.182059 0.094220
0.065202 -0.601264 0.094220
0.114563 -1.056449 0.094220
0.027095 -0.249860 0.094220
0.028554 -0.263309 0.094220
0.026056 -0.240281 0.094220
0.065781 -0.606603 0.094220
0.087994 -0.811439 0.094220
0.058699 -0.541296 0.094220
0.210145 -1.161167 0.094220
0.102864 -0.568378 0.094220
0.043596 -0.240893 0.094220
0.163383 -0.902781 0.094220
0.155294 -0.858085 0.094220
0.048461 -0.267771 0.094220
0.130214 -0.719500 0.094220
0.003142 -0.017359 0.094220
0.036805 -0.203366 0.094220
0.181626 -1.003584 0.094220
0.326566 -1.685190 0.094220
0.278184 -1.435519 0.094220
0.281801 -1.454187 0.094220
0.154920 -0.799440 0.094220
0.044368 -0.228954 0.094220
0.273659 -1.412170 0.094220
0.116931 -0.603402 0.094220
0.175635 -0.906336 0.094220
0.336123 -1.734507 0.094220
0.286318 -1.477496 0.094220
0.209542 -1.045153 0.094220
0.098873 -0.493158 0.094220
0.199840 -0.996758 0.094220
0.153309 -0.764672 0.094220
0.050155 -0.250161 0.094220
0.088542 -0.441628 0.094220
0.108419 -0.540772 0.094220
0.154576 -0.770992 0.094220
0.165963 -0.827789 0.094220
0.132914 -0.662947 0.094220
0.183121 -0.844583 0.094220
0.044170 -0.203720 0.094220
0.328610 -1.515597 0.094220
0.159590 -0.736053 0.094220
0.341007 -1.572776 0.094220
0.224632 -1.036036 0.094220
0.209925 -0.968204 0.094220
0.090138 -0.415732 0.094220
0.016626 -0.076684 0.094220
0.057664 -0.265955 0.094220
0.305471 -1.293774 0.094220
0.286384 -1.212933 0.094220
0.232356 -0.984106 0.094220
0.177953 -0.753692 0.094220
0.173236 -0.733714 0.094220
0.274311 -1.161801 0.094220
0.017428 -0.073815 0.094220
0.137841 -0.583805 0.094220
0.011438 -0.048444 0.094220
0.010716 -0.045388 0.094220
0.053704 -0.212869 0.094220
0.255545 -1.012922 0.094220
0.390138 -1.546417 0.094220
0.274115 -1.086528 0.094220
0.220687 -0.874751 0.094220
0.247663 -0.981679 0.094220
0.285829 -1.132961 0.094220
0.119506 -0.473694 0.094220
0.181828 -0.720724 0.094220
0.218968 -0.867939 0.094220
0.058490 -0.164293 0.094220
0.383235 -1.076471 0.094220
0.287022 -0.806218 0.094220
0.317466 -0.891731 0.094220
0.119879 -0.336730 0.094220
0.030280 -0.085054 0.094220
0.155030 -0.435464 0.094220
0.292559 -0.821770 0.094220
0.328183 -0.921834 0.094220
0.351396 -0.987038 0.094220
0.586777 -1.113022 0.094220
0.000501 -0.000950 0.094220
0.070778 -0.134255 0.094220
0.147271 -0.279350 0.094220
0.127215 -0.241307 0.094220
0.272542 -0.516969 0.094220
0.245076 -0.464870 0.094220
0.580641 -1.101382 0.094220
0.105503 -0.200123 0.094220
0.400666 -0.759999 0.094220
0.207661 -0.363184 0.094220
0.282113 -0.493396 0.094220
0.178445 -0.312088 0.094220
0.503172 -0.880015 0.094220
0.006918 -0.012098 0.094220
0.451629 -0.789869 0.094220
0.058105 -0.101621 0.094220
0.501164 -0.876502 0.094220
0.288024 -0.503735 0.094220
0.588714 -1.029622 0.094220
0.420468 -0.679861 0.094220
0.133997 -0.216663 0.094220
0.178664 -0.288885 0.094220
0.288839 -0.467028 0.094220
0.363246 -0.587338 0.094220
0.171507 -0.277312 0.094220
0.116005 -0.187571 0.094220
0.436276 -0.705421 0.094220
0.064586 -0.104430 0.094220
0.305195 -0.493475 0.094220
0.585131 -0.840334 0.094220
0.603441 -0.866631 0.094220
0.047261 -0.067874 0.094220
0.523858 -0.752338 0.094220
0.601471 -0.863802 0.094220
0.291129 -0.418104 0.094220
0.620865 -0.891654 0.094220
0.377534 -0.542194 0.094220
0.533911 -0.766775 0.094220
0.154960 -0.222545 0.094220
0.602209 -0.682581 0.094220
0.565561 -0.641042 0.094220
0.097535 -0.110553 0.094220
0.236857 -0.268468 0.094220
0.143436 -0.162580 0.094220
0.688119 -0.779957 0.094220
0.640887 -0.726422 0.094220
0.115698 -0.131140 0.094220
0.604455 -0.685128 0.094220
0.701600 -0.795237 0.094220
0.019722 -0.021607 0.094220
0.054103 -0.059274 0.094220
0.564862 -0.618846 0.094220
0.702380 -0.769506 0.094220
0.007729 -0.008467 0.094220
0.416036 -0.455796 0.094220
0.351024 -0.384571 0.094220
0.242154 -0.265297 0.094220
0.643048 -0.704504 0.094220
0.600116 -0.657469 0.094220
0.344541 -0.291646 0.094220
0.346521 -0.293322 0.094220
0.571872 -0.484077 0.094220
0.414458 -0.350829 0.094220
0.332312 -0.281294 0.094220
0.200455 -0.169680 0.094220
0.361551 -0.306044 0.094220
0.298108 -0.252341 0.094220
0.114269 -0.096726 0.094220
0.113396 -0.095987 0.094220
0.303100 -0.244183 0.094220
0.112482 -0.090617 0.094220
0.801648 -0.645822 0.094220
0.576434 -0.464386 0.094220
0.156344 -0.125954 0.094220
0.598009 -0.481767 0.094220
0.575689 -0.463786 0.094220
0.483102 -0.389196 0.094220
0.191050 -0.153914 0.094220
0.854229 -0.688182 0.094220
0.666624 -0.519425 0.094220
0.551791 -0.429949 0.094220
0.132230 -0.103032 0.094220
0.650803 -0.507097 0.094220
0.625235 -0.487175 0.094220
0.078991 -0.061549 0.094220
0.199609 -0.155533 0.094220
0.259649 -0.202316 0.094220
0.735254 -0.572901 0.094220
0.138724 -0.108092 0.094220
0.219524 -0.139120 0.094220
0.333810 -0.211547 0.094220
0.319184 -0.202278 0.094220
0.037377 -0.023687 0.094220
0.428941 -0.271835 0.094220
0.072341 -0.045845 0.094220
0.467601 -0.296335 0.094220
0.174799 -0.110776 0.094220
0.143216 -0.090761 0.094220
0.602135 -0.381594 0.094220
0.450840 -0.273343 0.094220
0.349649 -0.211992 0.094220
0.723337 -0.438558 0.094220
0.938730 -0.569151 0.094220
0.305332 -0.185122 0.094220
0.777103 -0.471156 0.094220
0.550288 -0.333639 0.094220
0.395049 -0.239517 0.094220
0.530034 -0.321359 0.094220
0.000187 -0.000113 0.094220
0.042005 -0.021599 0.094220
0.446760 -0.229727 0.094220
0.868985 -0.446839 0.094220
0.865852 -0.445228 0.094220
0.573287 -0.294789 0.094220
0.079115 -0.040681 0.094220
0.591893 -0.304356 0.094220
0.774576 -0.398293 0.094220
0.145246 -0.074687 0.094220
0.246929 -0.126973 0.094220
0.741735 -0.362616 0.094220
0.464793 -0.227226 0.094220
0.654655 -0.320045 0.094220
0.873543 -0.427054 0.094220
0.812817 -0.397367 0.094220
0.640926 -0.313333 0.094220
0.174830 -0.085470 0.094220
0.843208 -0.412224 0.094220
0.885011 -0.432661 0.094220
0.819123 -0.400450 0.094220
0.510127 -0.235321 0.094220
0.508338 -0.234495 0.094220
0.524986 -0.242175 0.094220
0.279344 -0.128861 0.094220
0.033011 -0.015228 0.094220
0.643687 -0.296932 0.094220
0.315448 -0.145516 0.094220
0.472102 -0.217780 0.094220
0.070532 -0.032536 0.094220
0.084535 -0.038996 0.094220
0.814192 -0.333658 0.094220
0.658322 -0.269783 0.094220
0.669948 -0.274547 0.094220
0.028654 -0.011743 0.094220
0.677664 -0.277709 0.094220
0.238611 -0.097783 0.094220
0.604354 -0.247666 0.094220
0.185157 -0.075878 0.094220
0.610655 -0.250248 0.094220
0.885458 -0.362864 0.094220
0.310402 -0.123751 0.094220
0.795265 -0.317056 0.094220
0.065591 -0.026150 0.094220
0.584627 -0.233079 0.094220
0.585970 -0.233614 0.094220
0.625210 -0.249258 0.094220
0.454072 -0.181029 0.094220
0.027508 -0.010967 0.094220
0.582489 -0.232226 0.094220
0.970835 -0.387052 0.094220
0.918490 -0.341746 0.094220
0.582972 -0.216909 0.094220
0.724679 -0.269634 0.094220
0.938204 -0.349081 0.094220
0.826264 -0.307431 0.094220
0.104678 -0.038948 0.094220
0.870428 -0.323864 0.094220
0.305493 -0.113666 0.094220
0.340401 -0.126654 0.094220
0.276541 -0.102894 0.094220
0.516188 -0.138216 0.094220
0.711986 -0.190643 0.094220
0.074100 -0.019841 0.094220
0.224190 -0.060030 0.094220
0.546827 -0.146420 0.094220
0.003687 -0.000987 0.094220
0.764447 -0.204690 0.094220
0.857053 -0.229487 0.094220
0.634410 -0.169871 0.094220
0.712878 -0.190882 0.094220
1.298266 -0.265879 0.094220
0.469631 -0.096178 0.094220
0.110373 -0.022604 0.094220
1.140652 -0.233600 0.094220
0.486255 -0.099583 0.094220
1.153874 -0.236308 0.094220
0.944870 -0.193505 0.094220
0.617953 -0.126554 0.094220
0.391890 -0.080257 0.094220
0.822749 -0.168495 0.094220
0.723796 -0.121790 0.094220
0.222190 -0.037387 0.094220
0.608590 -0.102405 0.094220
0.553069 -0.093062 0.094220
1.199154 -0.201776 0.094220
0.960351 -0.161594 0.094220
1.184645 -0.199335 0.094220
0.180670 -0.030401 0.094220
0.295590 -0.049738 0.094220
0.069237 -0.011650 0.094220
0.222392 -0.031745 0.094220
0.219765 -0.031370 0.094220
0.930219 -0.132784 0.094220
0.825238 -0.117799 0.094220
0.597471 -0.085286 0.094220
0.452942 -0.064655 0.094220
0.091970 -0.013128 0.094220
0.216906 -0.030962 0.094220
0.409734 -0.058488 0.094220
0.039870 -0.005691 0.094220
0.195096 -0.026373 0.094220
0.331816 -0.044854 0.094220
0.506638 -0.068486 0.094220
0.359633 -0.048614 0.094220
0.033742 -0.004561 0.094220
0.866848 -0.117179 0.094220
0.045664 -0.006173 0.094220
0.399509 -0.054005 0.094220
0.378863 -0.051214 0.094220
0.436868 -0.059055 0.094220
0.534139 -0.057975 0.094220
0.106959 -0.011609 0.094220
0.234238 -0.025424 0.094220
0.042085 -0.004568 0.094220
0.298845 -0.032436 0.094220
1.150417 -0.124865 0.094220
0.802697 -0.087124 0.094220
0.781047 -0.084774 0.094220
1.096132 -0.118973 0.094220
0.946324 -0.102713 0.094220
0.717694 -0.052313 0.094220
0.818265 -0.059644 0.094220
0.720086 -0.052488 0.094220
0.477206 -0.034784 0.094220
0.047721 -0.003478 0.094220
0.605106 -0.044107 0.094220
0.472874 -0.034468 0.094220
0.134502 -0.009804 0.094220
0.807459 -0.058856 0.094220
0.016496 -0.001202 0.094220
0.259847 -0.012542 0.094220
0.490929 -0.023696 0.094220
0.667264 -0.032207 0.094220
0.640609 -0.030920 0.094220
0.504701 -0.024360 0.094220
0.261007 -0.012598 0.094220
0.338854 -0.016355 0.094220
0.201773 -0.009739 0.094220
0.770783 -0.037203 0.094220
0.460726 -0.022238 0.094220
0.467529 -0.021189 0.094220
0.260130 -0.011789 0.094220
0.537709 -0.024369 0.094220
0.435012 -0.019715 0.094220
0.735097 -0.033315 0.094220
0.476867 -0.021612 0.094220
0.149400 -0.006771 0.094220
0.143121 -0.006486 0.094220
0.643816 -0.029178 0.094220
0.751178 -0.034044 0.094220
0.382866 -0.005785 0.094220
0.427581 -0.006460 0.094220
0.432796 -0.006539 0.094220
0.250623 -0.003787 0.094220
0.204377 -0.003088 0.094220
0.000567 -0.000009 0.094220
0.454842 -0.006872 0.094220
0.156201 -0.002360 0.094220
0.291570 -0.004405 0.094220
0.173950 -0.002628 0.094220
0.857584 -0.001610 0.094220
0.185710 -0.000349 0.094220
0.185037 -0.000347 0.094220
0.693021 -0.001301 0.094220
0.451097 -0.000847 0.094220
0.430872 -0.000809 0.094220
0.365907 -0.000687 0.094220
0.668038 -0.001254 0.094220
0.229806 -0.000431 0.094220
0.417563 -0.000784 0.094220
0.474687 0.007703 0.094220
0.584115 0.009478 0.094220
0.679140 0.011020 0.094220
0.634579 0.010297 0.094220
0.465932 0.007561 0.094220
0.376568 0.006110 0.094220
0.008146 0.000132 0.094220
0.154936 0.002514 0.094220
0.652158 0.010582 0.094220
0.546483 0.008868 0.094220
1.204514 0.057903 0.094220
0.037756 0.001815 0.094220
1.185438 0.056986 0.094220
0.131834 0.006337 0.094220
1.057568 0.050839 0.094220
0.988680 0.047527 0.094220
0.023830 0.001146 0.094220
0.295408 0.014201 0.094220
0.700234 0.033661 0.094220
0.555542 0.026706 0.094220
0.447516 0.037417 0.094220
1.005334 0.084056 0.094220
0.745952 0.062369 0.094220
0.141896 0.011864 0.094220
1.065647 0.089099 0.094220
0.479697 0.040108 0.094220
0.023345 0.001952 0.094220
0.799595 0.066854 0.094220
0.564512 0.047199 0.094220
0.374216 0.031288 0.094220
0.166798 0.023715 0.094220
0.971803 0.138169 0.094220
0.753849 0.107181 0.094220
1.050524 0.149361 0.094220
0.313193 0.044529 0.094220
0.506430 0.072003 0.094220
0.828394 0.117779 0.094220
0.667317 0.094878 0.094220
1.145911 0.162923 0.094220
0.733154 0.104238 0.094220
0.322160 0.056190 0.094220
0.440440 0.076820 0.094220
0.270898 0.047249 0.094220
0.548732 0.095708 0.094220
0.247371 0.043145 0.094220
0.350109 0.061065 0.094220
0.274679 0.047908 0.094220
0.485265 0.084638 0.094220
0.033369 0.005820 0.094220
0.160441 0.027983 0.094220
0.585919 0.109539 0.094220
0.462245 0.086418 0.094220
0.671209 0.125484 0.094220
0.612985 0.114599 0.094220
0.432872 0.080926 0.094220
0.272658 0.050974 0.094220
0.296704 0.055469 0.094220
0.243480 0.045519 0.094220
0.631298 0.118022 0.094220
0.127587 0.023853 0.094220
0.331018 0.068107 0.094220
0.407633 0.083871 0.094220
0.399514 0.082201 0.094220
0.101971 0.020981 0.094220
0.696328 0.143271 0.094220
0.185238 0.038113 0.094220
0.321985 0.066249 0.094220
0.026310 0.005413 0.094220
0.842418 0.173329 0.094220
0.212572 0.043737 0.094220
0.219993 0.050924 0.094220
0.449152 0.103970 0.094220
0.530071 0.122702 0.094220
0.288835 0.066860 0.094220
0.221626 0.051302 0.094220
0.239082 0.055343 0.094220
0.500991 0.115970 0.094220
0.000828 0.000192 0.094220
0.150932 0.034938 0.094220
0.113652 0.026308 0.094220
0.426806 0.118772 0.094220
0.276735 0.077010 0.094220
0.141551 0.039391 0.094220
0.659968 0.183656 0.094220
0.757547 0.210811 0.094220
0.665768 0.185271 0.094220
0.599896 0.166940 0.094220
0.542668 0.151014 0.094220
0.435769 0.121266 0.094220
0.264567 0.073624 0.094220
0.101826 0.029143 0.094220
0.214650 0.061434 0.094220
0.028077 0.008036 0.094220
0.055746 0.015955 0.094220
0.200995 0.057526 0.094220
0.078812 0.022556 0.094220
0.322242 0.092227 0.094220
0.609120 0.174333 0.094220
0.021949 0.006282 0.094220
0.253326 0.072503 0.094220
0.577893 0.206603 0.094220
0.365745 0.130758 0.094220
0.648846 0.231969 0.094220
0.820744 0.293425 0.094220
0.123363 0.044103 0.094220
0.425239 0.152027 0.094220
0.528807 0.189054 0.094220
0.721901 0.258087 0.094220
0.116505 0.041652 0.094220
0.514821 0.184054 0.094220
0.610336 0.244285 0.094220
0.305109 0.122119 0.094220
0.183135 0.073299 0.094220
0.318285 0.127393 0.094220
0.036796 0.014728 0.094220
0.551775 0.220847 0.094220
0.175661 0.070308 0.094220
0.317071 0.126907 0.094220
0.216512 0.086658 0.094220
0.201794 0.080767 0.094220
0.047479 0.021028 0.094220
0.090484 0.040075 0.094220
0.323479 0.143267 0.094220
0.462401 0.204794 0.094220
0.246071 0.108983 0.094220
0.375357 0.166243 0.094220
0.482993 0.213914 0.094220
0.298543 0.132223 0.094220
0.312216 0.138278 0.094220
0.413963 0.183341 0.094220
0.002600 0.001213 0.094220
0.144235 0.067293 0.094220
0.228895 0.106791 0.094220
0.121850 0.056849 0.094220
0.224740 0.104853 0.094220
0.297041 0.138585 0.094220
0.341965 0.159544 0.094220
0.054457 0.025407 0.094220
0.186356 0.086944 0.094220
0.239269 0.111631 0.094220
0.058532 0.028752 0.094220
0.136925 0.067260 0.094220
0.062573 0.030737 0.094220
0.165532 0.081312 0.094220
0.322110 0.158226 0.094220
0.090206 0.044311 0.094220
0.231526 0.113729 0.094220
0.182163 0.089481 0.094220
0.230923 0.113433 0.094220
0.021575 0.010598 0.094220
0.220783 0.113925 0.094220
0.283952 0.146521 0.094220
0.227434 0.117357 0.094220
0.091559 0.047245 0.094220
0.249993 0.128998 0.094220
0.315154 0.162622 0.094220
0.244606 0.126219 0.094220
0.254074 0.131104 0.094220
0.396341 0.204515 0.094220
0.021464 0.011076 0.094220
0.198327 0.106537 0.094220
0.238536 0.128136 0.094220
0.282444 0.151723 0.094220
0.490010 0.263223 0.094220
0.319260 0.171500 0.094220
0.411135 0.220853 0.094220
0.066365 0.035650 0.094220
0.367749 0.197547 0.094220
0.199732 0.107292 0.094220
0.058974 0.031680 0.094220
0.067602 0.038174 0.094220
0.310080 0.175100 0.094220
0.280996 0.158677 0.094220
0.233952 0.132111 0.094220
0.265004 0.149646 0.094220
0.093886 0.053017 0.094220
0.295232 0.166716 0.094220
0.190388 0.107511 0.094220
0.252048 0.142330 0.094220
0.228360 0.128953 0.094220
0.587829 0.343134 0.094220
0.438131 0.255750 0.094220
0.163808 0.095619 0.094220
0.156280 0.091225 0.094220
0.154582 0.090234 0.094220
0.715092 0.417421 0.094220
0.647326 0.377864 0.094220
0.523564 0.305620 0.094220
0.159121 0.092884 0.094220
0.453647 0.264808 0.094220
0.065045 0.039670 0.094220
0.053237 0.032468 0.094220
0.338295 0.206321 0.094220
0.045643 0.027837 0.094220
0.509889 0.310974 0.094220
0.096970 0.059141 0.094220
0.315054 0.192147 0.094220
0.350265 0.213621 0.094220
0.275920 0.168279 0.094220
0.465051 0.283628 0.094220
0.269578 0.172474 0.094220
0.053101 0.033973 0.094220
0.816169 0.522178 0.094220
0.202452 0.129527 0.094220
0.123816 0.079216 0.094220
0.265164 0.169649 0.094220
0.738826 0.472694 0.094220
0.243325 0.155677 0.094220
0.218346 0.139696 0.094220
0.821657 0.525689 0.094220
0.068121 0.044742 0.094220
0.208176 0.136731 0.094220
0.205369 0.134887 0.094220
0.094240 0.061897 0.094220
0.043133 0.028330 0.094220
0.024545 0.016121 0.094220
0.155046 0.101835 0.094220
0.256093 0.168202 0.094220
0.195334 0.128296 0.094220
0.265529 0.174400 0.094220
0.055719 0.038379 0.094220
0.161756 0.111415 0.094220
0.022628 0.015586 0.094220
0.086170 0.059353 0.094220
0.009351 0.006441 0.094220
0.061495 0.042357 0.094220
0.019933 0.013729 0.094220
0.013203 0.009094 0.094220
0.100729 0.069380 0.094220
0.031644 0.021796 0.094220
0.378057 0.293202 0.094220
0.363036 0.281553 0.094220
0.457601 0.354893 0.094220
0.104061 0.080705 0.094220
0.240456 0.186486 0.094220
0.013087 0.010149 0.094220
0.318143 0.246736 0.094220
0.102202 0.079263 0.094220
0.458303 0.355437 0.094220
0.319210 0.247564 0.094220
0.555381 0.484006 0.094220
0.020301 0.017692 0.094220
0.348072 0.303339 0.094220
0.158862 0.138446 0.094220
0.366557 0.319449 0.094220
0.038596 0.033636 0.094220
0.004124 0.003594 0.094220
0.426294 0.371509 0.094220
0.576027 0.501998 0.094220
0.128234 0.111754 0.094220
0.000922 0.000932 0.094220
0.085060 0.085968 0.094220
0.003585 0.003623 0.094220
0.027684 0.027980 0.094220
0.004167 0.004211 0.094220
0.040461 0.040894 0.094220
0.002881 0.002912 0.094220
0.000536 0.000542 0.094220
0.027252 0.027543 0.094220
0.075753 0.076562 0.094220
0.018482 0.023055 0.094220
0.017432 0.021745 0.094220
0.004950 0.006174 0.094220
0.037878 0.047250 0.094220
0.028970 0.036138 0.094220
0.008979 0.011201 0.094220
0.038414 0.047920 0.094220
0.066378 0.082803 0.094220
0.050950 0.063557 0.094220
0.056409 0.070368 0.094220
0.438299 0.555116 0.094220
0.089853 0.113801 0.094220
0.339727 0.430272 0.094220
0.488933 0.619245 0.094220
0.288111 0.364899 0.094220
0.466392 0.590697 0.094220
0.471922 0.597701 0.094220
0.488443 0.618624 0.094220
0.226519 0.286892 0.094220
0.343158 0.434618 0.094220
0.018537 0.024596 0.094220
0.006513 0.008642 0.094220
0.020818 0.027621 0.094220
0.014383 0.019084 0.094220
0.003338 0.004428 0.094220
0.013361 0.017727 0.094220
0.023678 0.031417 0.094220
0.004897 0.006497 0.094220
0.018529 0.024585 0.094220
0.017634 0.023397 0.094220
0.123148 0.169142 0.094220
0.488255 0.670613 0.094220
0.141147 0.193863 0.094220
0.415810 0.571110 0.094220
0.490892 0.674233 0.094220
0.381857 0.524476 0.094220
0.117846 0.161860 0.094220
0.202001 0.277446 0.094220
0.224635 0.308533 0.094220
0.094358 0.129600 0.094220
0.185658 0.282300 0.094220
0.181006 0.275227 0.094220
0.008525 0.012963 0.094220
0.049370 0.075069 0.094220
0.008526 0.012965 0.094220
0.145736 0.221598 0.094220
0.026741 0.040661 0.094220
0.037145 0.056480 0.094220
0.175009 0.266108 0.094220
0.007158 0.010883 0.094220
0.409382 0.665257 0.094220
0.226360 0.367842 0.094220
0.017368 0.028224 0.094220
0.284222 0.461869 0.094220
0.115205 0.187211 0.094220
0.188138 0.305730 0.094220
0.332007 0.539520 0.094220
0.037143 0.060358 0.094220
0.006234 0.010130 0.094220
0.483760 0.786124 0.094220
0.117794 0.201387 0.094220
0.074651 0.127628 0.094220
0.057867 0.098933 0.094220
0.055989 0.095723 0.094220
0.129717 0.221772 0.094220
0.009432 0.016126 0.094220
0.017955 0.030697 0.094220
0.027469 0.046963 0.094220
0.114264 0.195353 0.094220
0.059042 0.100942 0.094220
0.044156 0.083324 0.094220
0.004759 0.008981 0.094220
0.005438 0.010262 0.094220
0.040633 0.076677 0.094220
0.048356 0.091250 0.094220
0.050280 0.094881 0.094220
0.063424 0.119685 0.094220
0.038132 0.071956 0.094220
0.023440 0.044232 0.094220
0.049058 0.092575 0.094220
0.020977 0.040825 0.094220
0.164091 0.319345 0.094220
0.036248 0.070543 0.094220
0.095392 0.185646 0.094220
0.104574 0.203515 0.094220
0.018149 0.035321 0.094220
0.185758 0.361512 0.094220
0.169606 0.330079 0.094220
0.026257 0.051099 0.094220
0.154805 0.301273 0.094220
0.005507 0.011145 0.094220
0.043341 0.087717 0.094220
0.143151 0.289717 0.094220
0.104668 0.211833 0.094220
0.145628 0.294730 0.094220
0.060555 0.122556 0.094220
0.037726 0.076352 0.094220
0.073675 0.149109 0.094220
0.047860 0.096863 0.094220
0.115713 0.234187 0.094220
0.203710 0.444315 0.094220
0.020735 0.045226 0.094220
0.257466 0.561564 0.094220
0.091545 0.199669 0.094220
0.261757 0.570923 0.094220
0.171204 0.373415 0.094220
0.186756 0.407337 0.094220
0.255314 0.556869 0.094220
0.034781 0.075862 0.094220
0.200499 0.437311 0.094220
0.088782 0.201766 0.094220
0.208567 0.473988 0.094220
0.050839 0.115537 0.094220
0.274350 0.623486 0.094220
0.194845 0.442803 0.094220
0.087207 0.198186 0.094220
0.040516 0.092076 0.094220
0.111822 0.254126 0.094220
0.168124 0.382078 0.094220
0.051522 0.117088 0.094220
0.018898 0.046998 0.094220
0.012773 0.031766 0.094220
0.000617 0.001534 0.094220
0.035190 0.087516 0.094220
0.025434 0.063253 0.094220
0.034997 0.087034 0.094220
0.029812 0.074140 0.094220
0.018518 0.046053 0.094220
0.008632 0.021468 0.094220
0.012302 0.030595 0.094220
0.023716 0.063187 0.094220
0.019352 0.051560 0.094220
0.000147 0.000391 0.094220
0.029530 0.078677 0.094220
0.019512 0.051985 0.094220
0.021665 0.057721 0.094220
0.026863 0.071572 0.094220
0.003836 0.010220 0.094220
0.015914 0.042399 0.094220
0.014450 0.038500 0.094220
0.023139 0.065427 0.094220
0.019723 0.055767 0.094220
0.019546 0.055266 0.094220
0.007528 0.021285 0.094220
0.016442 0.046491 0.094220
0.024525 0.069344 0.094220
0.022120 0.062545 0.094220
0.021728 0.061436 0.094220
0.011905 0.033661 0.094220
0.027158 0.076788 0.094220
0.014551 0.049049 0.094220
0.028239 0.095190 0.094220
0.014672 0.049457 0.094220
0.016497 0.055610 0.094220
0.027453 0.092541 0.094220
0.012156 0.040977 0.094220
0.001946 0.006561 0.094220
0.021950 0.073990 0.094220
0.029946 0.100945 0.094220
0.024443 0.082394 0.094220
0.118693 0.430106 0.094220
0.084431 0.305949 0.094220
0.003684 0.013350 0.094220
0.010833 0.039255 0.094220
0.179466 0.650328 0.094220
0.191873 0.695285 0.094220
0.171897 0.622900 0.094220
0.150753 0.546280 0.094220
0.148866 0.539442 0.094220
0.032771 0.118752 0.094220
0.025310 0.100852 0.094220
0.020767 0.082748 0.094220
0.020677 0.082392 0.094220
0.022624 0.090148 0.094220
0.030103 0.119952 0.094220
0.006218 0.024775 0.094220
0.022468 0.089526 0.094220
0.029348 0.116941 0.094220
0.027340 0.108940 0.094220
0.000336 0.001340 0.094220
0.033587 0.140625 0.094220
0.075678 0.316853 0.094220
0.076951 0.322181 0.094220
0.034740 0.145452 0.094220
0.061489 0.257444 0.094220
0.079480 0.332769 0.094220
0.116350 0.487139 0.094220
0.002581 0.010805 0.094220
0.125727 0.526398 0.094220
0.000647 0.002711 0.094220
0.010743 0.050628 0.094220
0.026257 0.123741 0.094220
0.006167 0.029062 0.094220
0.073847 0.348020 0.094220
0.062751 0.295726 0.094220
0.033897 0.159747 0.094220
0.008524 0.040171 0.094220
0.028387 0.133780 0.094220
0.032491 0.153122 0.094220
0.040209 0.189493 0.094220
0.012288 0.062007 0.094220
0.023241 0.117272 0.094220
0.002287 0.011541 0.094220
0.018075 0.091206 0.094220
0.010409 0.052525 0.094220
0.064734 0.326647 0.094220
0.015296 0.077181 0.094220
0.000022 0.000112 0.094220
0.028018 0.141378 0.094220
0.035770 0.180493 0.094220
0.053970 0.397297 0.094220
0.047285 0.348090 0.094220
0.048664 0.358238 0.094220
0.044678 0.328900 0.094220
0.024150 0.177778 0.094220
0.015032 0.110658 0.094220
0.050464 0.371494 0.094220
0.048051 0.353730 0.094220
0.005167 0.038034 0.094220
0.018177 0.133811 0.094220
0.006344 0.063343 0.094220
0.024266 0.242282 0.094220
0.021485 0.214511 0.094220
0.003543 0.035374 0.094220
0.015268 0.152436 0.094220
0.009384 0.093693 0.094220
0.002072 0.020686 0.094220
0.000797 0.007962 0.094220
0.025745 0.257046 0.094220
0.005877 0.058682 0.094220
0.017649 0.234922 0.094220
0.018232 0.242679 0.094220
0.021562 0.287014 0.094220
0.009358 0.124561 0.094220
0.020770 0.276463 0.094220
