1.680049 1.247550 1.410869
1.538377 1.141873 1.901102
1.820074 1.350061 2.652229
1.988999 1.474472 3.329200
1.996005 1.478953 3.882870
2.094841 1.551375 4.470522
1.987686 1.470792 5.456689
1.625296 1.202219 5.945120
1.442607 1.066492 6.650367
1.548341 1.143789 7.540592
1.568078 1.157726 8.210453
1.380416 0.837028 0.209684
1.651080 1.000336 1.077049
1.692886 1.025095 1.670674
1.720104 1.040686 2.586705
1.482081 0.896219 3.162275
2.219721 1.340414 4.557175
2.108876 1.272894 5.067833
1.927939 1.162767 5.953748
1.757653 1.059410 6.669294
1.718889 1.035441 7.325634
1.760816 1.059938 8.115743
1.683714 1.013024 8.696627
1.435247 0.863081 9.368868
1.700629 0.824532 0.293137
1.913285 0.927018 0.920579
1.874131 0.907270 1.731676
1.829448 0.885224 2.178202
1.958267 0.946659 3.065324
2.070516 1.000373 3.572974
2.148365 1.037158 4.319594
2.185186 1.054187 4.987737
1.997722 0.963162 5.603208
1.913131 0.921531 6.509493
1.879344 0.904723 7.092987
1.902092 0.914804 8.023427
1.843003 0.885791 8.706587
1.667227 0.800692 9.535409
1.587468 0.577358 0.180702
1.928729 0.700765 0.960230
2.002860 0.726999 1.700998
1.997529 0.724375 2.436518
2.013027 0.729497 2.964297
2.105384 0.761998 3.939254
2.122290 0.767761 4.297847
2.069765 0.748092 5.001524
2.123817 0.766652 5.991173
2.160920 0.779550 6.486337
2.153837 0.776053 7.451479
2.069018 0.744934 8.072032
2.008195 0.722442 8.753985
1.713712 0.616056 9.431231
1.903714 0.492764 0.434030
2.134564 0.551930 1.049761
2.126007 0.548840 1.979767
2.114348 0.545293 2.554890
2.172072 0.559501 3.257488
2.234577 0.574773 4.092411
2.253560 0.579111 4.640427
2.209224 0.567185 5.200097
2.325614 0.596155 6.081499
2.301904 0.589666 6.500360
2.334425 0.596956 7.532724
2.239998 0.572380 8.006090
2.086753 0.532622 8.729058
1.817544 0.463289 9.630042
2.013743 0.328153 0.329528
2.226946 0.362163 1.095015
2.179913 0.353902 1.753514
2.172618 0.352073 2.449968
2.163608 0.350136 2.969381
2.214693 0.357453 3.976694
2.263997 0.364829 4.578372
2.392298 0.384756 5.302420
2.442552 0.392349 5.771607
2.522831 0.404183 6.764757
2.465825 0.394467 7.347948
2.371264 0.378883 7.837960
2.279501 0.363326 8.829170
2.038254 0.324409 9.466405
2.160400 0.136929 0.262669
2.274646 0.143439 1.028772
2.230480 0.139954 1.780325
2.238006 0.139917 2.324751
2.291842 0.142617 3.016848
2.300009 0.142548 3.619692
2.345899 0.144591 4.437850
2.281704 0.140053 5.065516
2.364564 0.144462 5.751003
2.501443 0.152157 6.379487
2.456259 0.148744 7.054628
2.434161 0.146594 7.888217
2.316157 0.138979 8.468441
2.186741 0.130476 9.361114
2.139015 -0.071582 0.319186
2.276766 -0.076833 0.991373
2.215453 -0.075128 1.387024
2.248841 -0.077246 2.437054
2.260327 -0.078082 2.906803
2.276209 -0.079290 3.603619
2.354975 -0.082900 4.484497
2.295688 -0.081424 5.140286
2.335116 -0.083224 5.555081
2.564247 -0.092484 6.560410
2.512705 -0.091254 7.188906
2.444180 -0.089358 7.808172
2.412336 -0.088883 8.534278
2.193639 -0.081255 9.088595
1.899957 -0.239322 0.292925
2.255282 -0.284572 0.804359
2.212038 -0.279932 1.677338
2.239002 -0.283806 2.164038
2.227702 -0.282887 2.710313
2.209037 -0.281341 3.599481
2.243394 -0.286412 4.335267
2.257984 -0.288902 5.000072
2.284189 -0.292736 5.503035
2.511764 -0.322999 6.518750
2.553010 -0.328932 7.108541
2.450410 -0.316160 7.577749
2.413459 -0.312294 8.509603
2.263031 -0.293261 9.025639
1.971179 -0.444060 0.687764
2.262481 -0.510445 1.448362
2.172030 -0.490636 2.081342
2.183904 -0.493838 2.626076
2.210927 -0.500793 3.500752
2.198513 -0.498523 4.070274
2.080808 -0.472552 4.886696
2.168644 -0.492918 5.323750
2.514262 -0.572508 6.222108
2.474415 -0.564045 6.806755
2.438598 -0.556692 7.600195
2.375002 -0.542868 8.311495
2.015743 -0.654970 0.629415
2.171724 -0.706197 1.169008
2.098555 -0.683365 2.167185
2.113493 -0.688787 2.740378
2.129917 -0.694618 3.229408
2.139842 -0.698650 4.042203
1.920697 -0.627574 4.614787
2.053044 -0.671563 5.400925
2.431402 -0.796178 6.110859
2.418711 -0.792818 6.843867
2.351515 -0.771566 7.596343
2.321082 -0.762334 8.339412
2.202049 -0.723715 8.866532
1.898253 -0.624480 9.697590
2.091329 -0.909656 1.075519
2.034746 -0.885413 1.443222
2.071374 -0.902131 2.201459
2.076199 -0.904995 2.944219
2.049299 -0.894013 3.683746
2.004495 -0.875111 4.344671
2.084747 -0.910816 4.990722
2.279660 -0.996970 5.855259
2.368221 -1.036495 6.527877
2.321974 -1.016957 7.165183
2.225900 -0.975345 7.625837
2.241412 -0.983145 8.565437
2.043588 -0.896860 9.129025
1.867378 -1.052686 0.582026
1.994657 -1.125278 1.346612
1.912095 -1.079362 1.979767
1.931590 -1.091113 2.684184
1.950374 -1.102307 3.229408
1.971909 -1.115485 4.163823
1.820825 -1.030770 4.950132
1.880146 -1.064982 5.564354
2.182991 -1.237246 6.119703
2.179822 -1.236215 6.774511
2.129193 -1.208283 7.475444
2.083612 -1.183257 8.252201
2.015323 -1.145101 8.866532
1.732375 -0.985056 9.770355
1.799558 -1.253401 1.932903
1.786419 -1.244841 2.470501
1.825772 -1.272942 3.070249
1.801265 -1.256640 3.782817
1.671006 -1.166533 4.554990
1.844586 -1.288610 5.329277
2.088927 -1.460107 5.911736
2.014783 -1.409336 6.793567
1.962560 -1.373446 7.350397
1.913802 -1.340048 8.000400
1.870840 -1.310762 8.735720
1.755559 -1.230709 9.474722
1.694616 -1.429389 1.912767
1.647549 -1.390394 2.519211
1.644185 -1.388216 3.086313
1.711917 -1.446469 3.957975
1.599217 -1.351726 4.404215
1.711327 -1.447553 5.273125
1.850800 -1.566223 5.779954
1.840249 -1.558110 6.416527
1.881988 -1.594649 7.325326
1.827536 -1.549382 8.035616
1.732627 -1.469768 8.788660
1.572441 -1.334433 9.365736
1.322167 -1.352590 0.434971
1.610424 -1.648318 1.037365
1.534120 -1.570796 1.481762
1.554146 -1.592570 2.438826
1.504304 -1.541977 2.821420
1.494113 -1.532681 3.731968
1.498515 -1.537822 4.225819
1.507869 -1.548280 4.901947
1.653300 -1.698844 5.760328
1.774306 -1.824452 6.583702
1.644349 -1.691417 7.056230
1.586440 -1.633012 7.965036
1.566632 -1.613416 8.595424
1.477859 -1.522790 9.299134
1.228061 -1.532461 0.075485
1.311094 -1.637045 0.770867
1.382213 -1.726564 1.255880
1.279843 -1.599741 2.035458
1.293855 -1.618215 2.733498
1.299993 -1.626829 3.415101
1.318715 -1.651291 4.153717
1.203512 -1.507674 4.684706
1.299969 -1.629513 5.403154
1.492709 -1.872419 6.188408
1.467478 -1.842054 7.037573
1.394809 -1.751735 7.688166
1.335186 -1.677621 8.273353
1.274233 -1.601832 8.916634
1.071361 -1.621012 0.547642
1.175697 -1.779859 1.155341
1.157103 -1.752380 1.580061
1.132652 -1.716824 2.535924
1.128393 -1.711183 3.067010
1.105593 -1.677520 3.679484
1.126989 -1.711454 4.639716
1.031856 -1.567731 5.203335
1.146281 -1.742663 5.875992
1.265863 -1.925395 6.388283
1.220126 -1.857408 7.377837
1.188584 -1.810579 8.149144
1.185383 -1.806641 8.757207
1.071838 -1.634465 9.445683
0.862710 -1.623805 0.037879
0.936326 -1.763612 0.744823
0.980239 -1.847511 1.382667
0.927505 -1.749441 2.143626
0.931211 -1.757841 2.948882
0.913276 -1.724687 3.361354
0.928313 -1.754791 4.341461
0.921208 -1.742150 4.804024
0.987809 -1.869589 5.591127
1.034922 -1.960203 6.327113
0.978488 -1.854298 6.895027
0.956767 -1.814835 7.878586
0.970143 -1.841568 8.647349
0.929980 -1.766400 9.312865
0.784332 -1.884275 0.395431
0.834788 -2.006463 0.806704
0.750835 -1.806587 1.719071
0.735210 -1.770242 2.327818
0.726770 -1.751347 3.033020
0.746376 -1.800243 3.819609
0.796124 -1.921317 4.291390
0.804533 -1.943263 5.025325
0.711741 -1.720181 5.593327
0.718628 -1.738498 6.437817
0.767732 -1.858998 7.226249
0.732877 -1.775838 7.868621
0.750804 -1.821013 8.715496
0.716958 -1.740310 9.465430
0.545014 -1.756407 0.142046
0.585512 -1.889266 0.990612
0.573934 -1.852855 1.341468
0.569688 -1.841184 2.099493
0.554314 -1.793334 2.806058
0.462790 -1.498787 3.552747
0.507532 -1.645376 4.249110
0.623017 -2.021931 4.937184
0.567655 -1.844614 5.853974
0.556464 -1.809910 6.504012
0.579003 -1.885342 7.283658
0.557673 -1.817406 7.893065
0.542220 -1.768622 8.544612
0.499386 -1.630498 9.289375
0.330919 -1.584218 0.571843
0.370574 -1.776942 1.355784
0.355986 -1.709229 1.996151
0.344408 -1.655937 2.677542
0.318614 -1.533755 3.273550
0.382225 -1.842426 3.894049
0.454120 -2.192119 4.547553
0.429497 -2.077143 5.474438
0.335203 -1.622714 6.037287
0.320233 -1.552848 6.888211
0.365266 -1.773918 7.605095
0.347659 -1.690114 8.133154
0.334313 -1.628039 9.026199
0.169813 -1.656552 0.323590
0.178015 -1.740375 0.864142
0.174510 -1.710205 1.454712
0.168487 -1.656955 2.316026
0.210468 -2.088203 4.441813
0.215751 -2.145998 5.046261
0.192409 -1.928748 6.995466
0.163516 -1.644845 7.929532
0.161570 -1.629013 8.516236
0.148859 -1.506130 9.442932
0.013700 -1.515455 0.353655
0.014629 -1.685263 1.227504
0.013353 -1.595008 1.985665
0.015029 -2.002668 4.071452
0.016698 -2.294393 4.587718
0.015030 -2.168921 5.457210
0.011273 -1.665247 5.937878
0.007940 -1.240199 6.946204
0.008019 -1.310096 7.654310
0.009014 -1.526255 8.159514
0.008423 -1.514294 9.054198
-0.140227 -1.584319 0.352898
-0.150536 -1.695821 0.979471
-0.137580 -1.545279 1.624347
-0.131849 -1.476979 2.203260
-0.110464 -1.231725 3.236386
-0.190962 -2.118425 4.266433
-0.188039 -2.078270 5.085352
-0.170333 -1.865438 7.176172
-0.134408 -1.467062 8.040832
-0.133031 -1.447303 8.815034
-0.111068 -1.204430 9.659378
-0.246787 -1.367906 0.297364
-0.262537 -1.452996 0.947517
-0.264531 -1.461133 1.800036
-0.333346 -1.832894 3.723758
-0.365941 -2.008902 4.391724
-0.341379 -1.870663 5.199626
-0.284030 -1.548735 7.457125
-0.212099 -1.154887 8.190650
-0.461851 -1.609525 0.866003
-0.405145 -1.410700 1.426857
-0.375469 -1.305793 2.220696
-0.448516 -1.558526 2.749991
-0.548086 -1.901833 3.634977
-0.515577 -1.787112 4.347569
-0.470265 -1.628498 4.997481
-0.250907 -0.865510 7.773664
-0.340155 -1.172038 8.495378
-0.335028 -1.152840 9.434207
-0.421183 -1.092361 0.704685
-0.508236 -1.317218 1.275522
-0.454810 -1.177930 1.859703
-0.631316 -1.633150 2.797150
-0.715115 -1.848488 3.415526
-0.636765 -1.644493 4.176633
-0.657920 -1.697806 4.815183
-0.558875 -1.441079 5.516955
-0.370606 -0.954801 6.336554
-0.213891 -0.550760 6.880500
-0.284213 -0.731116 7.707169
-0.372923 -0.958571 8.336745
-0.374742 -0.962323 9.188946
-0.693876 -1.373612 0.114619
-0.666687 -1.318623 0.985790
-0.552381 -1.091905 1.571949
-0.538502 -1.063634 2.357127
-0.430817 -0.850277 3.154665
-0.583442 -1.150756 3.775490
-0.746595 -1.471454 4.480291
-0.476659 -0.938941 5.099382
-0.361735 -0.712131 5.754636
-0.275761 -0.542401 6.704489
-0.215708 -0.423991 7.454998
-0.394047 -0.773922 8.199900
-0.489248 -0.960168 8.960832
-0.407713 -0.799813 9.462914
-0.605238 -0.957721 2.215536
-0.638539 -1.009663 3.045805
-0.804423 -1.271511 3.414412
-0.858505 -1.355880 4.321450
-0.618031 -0.975616 4.927162
-0.465607 -0.734518 5.723255
-0.292489 -0.461130 6.502912
-0.236607 -0.372786 7.287613
-0.426494 -0.671521 7.991048
-0.510716 -0.803651 8.662638
-0.496083 -0.780106 9.466222
-0.619809 -0.804850 0.387783
-0.765768 -0.993822 1.059515
-0.651628 -0.845068 1.947671
-0.852338 -1.104610 2.738873
-1.034400 -1.339919 3.280929
-0.968648 -1.254068 3.937061
-0.879126 -1.137387 4.780465
-0.650783 -0.841609 5.345085
-0.308602 -0.398825 6.267039
-0.207905 -0.268560 6.897832
-0.373901 -0.482693 7.611343
-0.524332 -0.676348 8.583019
-0.500023 -0.644761 9.047660
-0.841845 -0.889045 0.867532
-0.723513 -0.763599 1.647519
-0.702355 -0.740810 2.417229
-0.581016 -0.612522 3.056352
-0.807881 -0.851282 3.622102
-0.956290 -1.007175 4.202135
-0.655202 -0.689607 5.094174
-0.392358 -0.412718 5.902352
-0.149773 -0.157478 6.511102
-0.309774 -0.325436 7.573483
-0.467481 -0.490924 8.037877
-0.418945 -0.439731 8.725755
-0.393230 -0.412476 9.591939
-0.693925 -0.607479 2.043372
-0.659604 -0.577064 2.838033
-0.987815 -0.863714 3.501098
-1.101013 -0.962145 4.183666
-0.693897 -0.606072 4.880424
-0.411051 -0.358792 5.755065
-0.183649 -0.160213 6.516599
-0.285408 -0.248844 7.228439
-0.576943 -0.502757 7.854430
-0.635460 -0.553365 8.740899
-0.511177 -0.444892 9.510828
-0.744728 -0.539031 0.631899
-0.875719 -0.633586 1.103470
-0.748316 -0.540973 2.062811
-0.881881 -0.637205 2.655759
-1.041492 -0.752167 3.212583
-1.162799 -0.839090 4.157885
-1.020441 -0.736120 4.569719
-0.743162 -0.535688 5.536463
-0.380878 -0.274410 6.212269
-0.226617 -0.163190 6.847824
-0.485894 -0.349649 7.675379
-0.588637 -0.423342 8.356406
-0.520755 -0.374315 9.071006
-0.658740 -0.389490 0.331935
-0.760099 -0.449075 1.168071
-0.733360 -0.433088 1.647049
-0.919388 -0.542410 2.715709
-1.113532 -0.656585 3.299161
-1.171637 -0.690427 3.952627
-0.245650 -0.144383 7.010823
-0.509614 -0.299318 7.759095
-0.603791 -0.354474 8.248861
-0.585442 -0.343415 9.217875
-0.696971 -0.325411 1.993392
-0.796205 -0.371531 2.534466
-1.107929 -0.516394 3.607374
-1.191608 -0.555163 3.996659
-0.971183 -0.452159 4.682517
-0.598172 -0.278227 5.676602
-0.287998 -0.133871 6.360601
-0.384329 -0.178496 7.198934
-0.528420 -0.245281 7.719851
-0.614426 -0.284982 8.481127
-0.534803 -0.247863 9.272189
-0.501108 -0.174270 1.100913
-0.665568 -0.231281 1.712636
-0.997061 -0.345578 3.692935
-0.214535 -0.074086 6.703877
-0.498034 -0.171789 7.577746
-0.742335 -0.255781 8.393846
-0.642903 -0.221357 9.019627
-0.292569 -0.100631 9.969092
-0.622753 -0.152705 0.421262
-0.788615 -0.193086 1.287529
-0.693018 -0.169504 1.888638
-0.560133 -0.136856 2.516465
-0.815312 -0.198933 3.282621
-1.202691 -0.293074 3.985842
-0.366783 -0.088946 6.962246
-0.638432 -0.154584 7.826908
-0.679719 -0.164403 8.465597
-0.549438 -0.132722 9.278429
-0.595594 -0.088334 0.980944
-0.639702 -0.094731 1.538733
-0.663118 -0.097960 2.421401
-0.564318 -0.083286 2.773483
-0.816623 -0.120223 3.657738
0.028453 0.004158 6.555186
-0.267166 -0.038952 7.322222
-0.667015 -0.097076 7.905226
-0.716094 -0.103974 8.780384
-0.501522 -0.072701 9.450961
-0.668709 -0.029786 0.636330
-0.756536 -0.033541 1.152632
-0.597215 -0.026262 2.061974
-0.432160 -0.018913 2.605760
-0.718334 -0.031147 3.599500
-1.132041 -0.048908 3.948747
-0.407308 -0.017130 6.987105
-0.706482 -0.029438 7.938967
-0.734588 -0.030448 8.508715
-0.559711 -0.023051 9.258793
-0.465435 0.022704 0.403626
-0.581045 0.028514 1.138637
-0.644149 0.031836 2.010138
-0.474898 0.023562 2.503758
-0.662346 0.033070 3.279053
-1.054506 0.053034 4.153549
-0.293899 0.015086 6.926968
-0.656540 0.033886 7.591196
-0.724085 0.037588 8.356406
-0.526356 0.027447 9.026714
-0.836134 0.119958 0.652710
-0.808768 0.116286 1.424017
-0.640540 0.092259 2.049318
-0.500783 0.072235 2.580699
-0.651826 0.094267 3.496804
-0.962305 0.139410 4.084625
-0.868024 0.126042 4.926138
-0.332239 0.048315 5.545685
-0.168073 0.024495 6.386528
-0.447455 0.065366 7.213747
-0.660767 0.096649 7.640148
-0.767630 0.112564 8.571271
-0.545968 0.080165 9.124955
-0.941674 0.225684 0.572771
-0.735780 0.176512 1.133102
-0.553217 0.132915 1.994697
-0.554606 0.133429 2.773483
-0.547924 0.131940 3.288149
-0.730133 0.176078 4.129812
-0.790943 0.191037 5.014400
-0.336687 0.081394 5.614832
-0.176994 0.042847 6.455990
-0.482633 0.116964 7.051578
-0.743675 0.180485 7.854430
-0.700957 0.170283 8.450079
-0.640877 0.155937 9.442306
-0.568953 0.193820 0.941716
-0.559855 0.190838 1.413353
-0.507238 0.173097 2.282458
-0.471946 0.161165 2.818588
-0.465725 0.159199 3.592471
-0.593781 0.203177 4.362674
-0.470545 0.161157 5.098889
-0.132043 0.045258 5.748655
-0.115833 0.039741 6.548612
-0.536736 0.184391 7.528196
-0.708741 0.243606 7.898860
-0.617618 0.212518 8.808023
-0.403244 0.138850 9.440416
-0.766151 0.354057 0.613746
-0.642862 0.297259 1.183575
-0.489826 0.226667 1.917492
-0.527651 0.244341 2.585158
-0.482073 0.223440 3.479443
-0.483740 0.224381 4.204720
-0.507264 0.235485 5.000037
-0.222289 0.103234 5.448110
-0.130611 0.060705 6.237601
-0.469587 0.218470 7.159740
-0.692796 0.322516 7.731961
-0.716002 0.333619 8.629818
-0.504665 0.235253 9.144595
-0.463290 0.267821 1.829070
-0.421845 0.243968 2.305296
-0.451166 0.261114 3.093889
-0.506106 0.293089 3.761694
-0.522782 0.303025 4.774066
-0.325379 0.188716 5.478915
-0.111277 0.064567 5.995044
-0.416206 0.241719 6.972875
-0.690008 0.400911 7.408757
-0.584038 0.339551 8.141241
-0.214617 0.153279 0.000000
-0.327633 0.234191 1.006121
-0.486413 0.347854 1.570298
-0.484790 0.346945 2.436258
-0.436684 0.312660 2.983692
-0.428395 0.306905 3.688282
-0.443159 0.317700 4.512273
-0.311577 0.223488 5.185462
-0.123664 0.088746 5.828107
-0.361974 0.259978 6.785823
-0.648045 0.465702 7.408757
-0.863345 0.620826 8.155122
-0.715736 0.514885 8.690097
-0.364485 0.262374 9.624127
-0.199954 0.172881 0.207884
-0.323054 0.279488 0.985716
-0.426936 0.369475 1.365250
-0.426373 0.369273 2.329967
-0.395750 0.342884 2.816640
-0.423087 0.366847 3.764294
-0.427834 0.371174 4.479717
-0.270690 0.234934 5.007801
-0.122159 0.106093 5.887677
-0.319770 0.277893 6.667591
-0.584719 0.508368 7.169603
-0.777310 0.676281 8.009836
-0.674463 0.587069 8.635552
-0.294312 0.256338 9.597549
-0.635120 0.667798 0.748541
-0.476358 0.501130 1.409427
-0.395331 0.416110 2.083035
-0.368116 0.387732 2.954217
-0.359968 0.379281 3.390995
-0.373213 0.393445 4.064326
-0.263177 0.277602 4.813545
-0.123542 0.130398 5.681335
-0.059011 0.062330 6.627103
-0.289432 0.305828 7.056113
-0.563047 0.595296 7.750651
-0.478824 0.506510 8.455816
-0.417956 0.442446 9.445218
-0.678643 0.857008 0.561086
-0.475084 0.600353 1.386958
-0.351629 0.444550 1.955431
-0.350960 0.443977 2.714586
-0.369197 0.467394 3.621798
-0.372388 0.471631 4.137188
-0.277398 0.351489 4.734719
-0.149537 0.189626 5.752877
-0.112725 0.143024 6.455990
-0.315391 0.400349 6.987797
-0.510780 0.648810 7.779892
-0.480426 0.610577 8.467887
-0.412452 0.524585 9.471677
-0.298340 0.463910 1.651049
-0.284388 0.442546 2.510125
-0.278566 0.433679 3.025080
-0.317040 0.493903 3.781317
-0.323424 0.504264 4.734838
-0.195895 0.305547 5.218628
-0.091596 0.142969 6.090257
-0.264594 0.413293 6.889449
-0.470796 0.735746 7.403277
-0.500138 0.782160 8.237303
-0.488475 0.952428 0.687317
-0.323684 0.631446 1.222687
-0.260631 0.508849 2.043775
-0.243562 0.475945 2.954217
-0.257206 0.502908 3.565405
-0.269451 0.527104 4.058720
-0.160558 0.314352 4.968304
-0.051525 0.100934 5.579731
-0.035745 0.070071 6.300017
-0.219150 0.430005 7.238371
-0.444410 0.872724 8.011127
-0.407623 0.800791 8.439104
-0.315794 0.620967 9.484863
-0.070363 0.175965 0.238072
-0.168896 0.422795 1.093357
-0.229626 0.575080 1.480991
-0.218936 0.548864 2.357783
-0.213000 0.534461 3.138687
-0.208676 0.523861 3.555588
-0.214582 0.539203 4.388326
-0.158737 0.399292 5.329770
-0.068130 0.171504 6.026613
-0.163724 0.412508 6.775973
-0.301738 0.760821 7.384191
-0.343863 0.867582 7.919481
-0.340437 0.859839 8.865145
-0.183963 0.464964 9.621087
-0.095910 0.325230 0.158061
-0.217714 0.738846 0.683364
-0.217378 0.738587 1.494339
-0.182426 0.620324 2.039523
-0.153966 0.524116 2.785226
-0.191484 0.652726 3.712155
-0.248631 0.848412 4.400664
-0.152642 0.521197 4.882186
-0.060625 0.207295 5.909433
-0.031476 0.107734 6.632575
-0.134475 0.460787 7.351565
-0.250578 0.859498 7.978972
-0.277541 0.953158 8.827641
-0.188166 0.646662 9.396803
-0.155238 0.831843 0.730635
-0.158558 0.850868 1.383087
-0.145587 0.782368 2.021265
-0.104057 0.560091 2.763667
-0.165321 0.891282 3.462847
-0.220003 1.187427 3.940439
-0.197863 1.069964 4.808315
-0.134123 0.726362 5.534013
-0.073799 0.400407 6.436399
-0.115543 0.627524 6.861310
-0.175631 0.955585 7.626233
-0.182477 0.994452 8.371544
-0.147590 0.805605 9.161061
-0.032407 0.362287 0.009872
-0.037481 0.420454 0.778752
-0.074708 0.840726 1.471728
-0.063644 0.719382 2.447359
-0.103626 1.175331 3.163760
-0.138378 1.573351 3.657708
-0.105102 1.198493 4.331952
-0.061789 0.706495 4.989182
-0.025671 0.294474 5.774729
-0.038211 0.440310 6.766123
-0.076030 0.878622 7.320371
-0.091926 1.066100 8.072109
-0.086357 1.004167 8.679912
-0.057128 0.666678 9.575978
0.002190 1.188862 0.096470
0.002289 1.095759 0.706178
0.002449 1.019692 1.483911
0.002279 0.871227 2.026767
0.003912 1.309424 2.919726
0.005933 1.819251 3.546447
0.006188 1.762322 4.167143
0.002342 0.505164 7.223621
0.004930 1.007316 7.791157
0.006072 1.158298 8.663651
0.004992 0.912772 9.323761
0.048631 0.486652 0.157406
0.062739 0.625614 1.039062
0.110781 1.101413 1.751572
0.146680 1.453142 2.608619
0.191312 1.889399 3.337828
0.167637 1.651719 3.938191
0.060316 0.588155 6.748316
0.101874 0.989397 7.732968
0.112138 1.086750 8.280926
0.326014 1.607807 2.978625
0.387532 1.907794 3.800729
0.331848 1.631735 4.400983
0.147671 0.722025 7.360287
0.223653 1.091664 8.153595
0.240474 1.171975 8.920584
0.202658 0.986696 9.485760
0.379367 1.258503 1.346440
0.380213 1.259493 2.329591
0.482497 1.597371 2.708005
0.610813 2.019155 3.678292
0.598914 1.978342 4.187926
0.217618 0.716004 7.164747
0.340590 1.119081 8.059585
0.348060 1.142598 8.705944
0.322590 1.058200 9.273157
0.581698 1.427956 1.404709
0.619916 1.520821 1.935215
0.740094 1.813583 2.884952
0.818563 2.004994 3.236434
0.755902 1.849819 4.033749
0.671549 1.641908 4.841022
0.571003 1.395191 5.434821
0.376233 0.918335 6.442360
0.322569 0.786744 7.164611
0.385722 0.940293 7.596371
0.472103 1.149959 8.266091
0.534313 1.300205 9.133411
0.689187 1.322320 0.411295
0.753492 1.444776 1.048268
0.691418 1.324541 1.972207
0.571642 1.094420 2.606025
1.055431 2.017551 4.048629
0.911550 1.741333 4.766286
0.742547 1.417934 5.215528
0.519952 0.992047 6.160020
0.378117 0.721089 6.716580
0.483985 0.922081 7.712658
0.628906 1.197331 8.402718
0.695340 1.323055 8.977711
0.932331 1.417389 1.512808
1.170585 1.776603 3.363221
1.286859 1.951679 4.136117
1.032887 1.565594 4.846160
0.647076 0.978380 7.845936
0.837719 1.265794 8.555405
0.897323 1.355004 9.280107
1.055214 1.318886 0.152170
1.096535 1.369500 1.044518
1.062230 1.326071 1.569857
1.565901 1.951030 3.815024
1.551297 1.932123 4.251288
1.437921 1.789626 5.130941
0.849111 1.054508 7.967177
1.042224 1.293703 8.510314
0.987273 1.224679 9.375720
1.190356 1.232862 0.019008
1.231223 1.274411 0.759158
1.209446 1.251254 1.358708
1.576995 1.628257 3.737202
1.837674 1.896386 4.343759
1.747349 1.802415 4.871149
0.964534 0.992794 7.758867
1.231647 1.266791 8.625461
1.185489 1.218725 9.270361
1.210036 1.038763 0.648544
1.392283 1.194656 1.203287
1.393966 1.195486 1.819983
1.626225 1.394068 2.322122
1.874955 1.605993 3.254824
1.942127 1.662675 3.855833
2.044159 1.748738 4.713536
1.864944 1.594856 5.173853
1.280687 1.092685 8.173060
1.340271 1.143025 8.707423
1.153192 0.982887 9.545051
1.594056 1.106249 0.330483
1.704637 1.182428 0.865483
1.601954 1.110516 1.568052
1.565581 1.084757 2.138814
1.436815 0.994749 3.055588
1.741392 1.205093 3.515983
2.170419 1.501103 4.127881
2.095514 1.448038 5.121753
1.895817 1.309463 5.665888
1.481662 1.022821 6.413587
1.386312 0.956438 7.126037
1.608808 1.109163 7.900841
1.579386 1.088332 8.507791
1.437187 0.989856 9.146681
1.732170 0.975937 1.849850
2.051630 1.153425 4.058493
2.243374 1.260531 4.597580
2.096483 1.177359 5.181351
1.872350 1.050488 6.223576
1.720384 0.964750 6.782626
1.723629 0.965994 7.420916
1.768669 0.990401 8.321405
2.029099 0.903376 0.711880
1.973179 0.878000 1.201415
1.874630 0.833332 2.082519
1.918311 0.852104 2.759720
1.841240 0.817447 3.231641
2.037260 0.903406 4.272866
2.297561 1.018093 4.889721
2.109197 0.934162 5.368320
1.980700 0.876621 6.045902
1.938515 0.857299 6.753764
1.846371 0.815911 7.500481
1.889131 0.834021 8.372008
1.771326 0.781450 9.086423
1.672859 0.564703 0.360622
2.000426 0.674461 1.240743
2.045997 0.689327 1.765445
2.043867 0.687889 2.528594
2.068865 0.695708 3.149718
2.143998 0.720209 3.917696
2.217472 0.744244 4.543753
2.103568 0.705640 4.951097
2.135347 0.715465 5.809167
2.265971 0.758296 6.700850
2.200345 0.735704 7.356832
2.094720 0.699914 7.892054
2.063594 0.688779 8.713534
1.886852 0.629205 9.476822
2.135998 0.503202 0.628045
2.302985 0.541791 1.362319
2.155635 0.506655 1.865932
2.119074 0.497511 2.461123
2.225826 0.521610 3.442131
2.238232 0.524167 3.799911
2.211274 0.517088 4.600387
2.304411 0.538193 5.263469
2.446938 0.570533 6.138276
2.347522 0.546830 6.677413
2.303363 0.535690 7.562146
2.285114 0.530683 8.363154
2.125477 0.274961 0.553866
2.233973 0.288596 0.973381
2.160951 0.278537 1.661024
2.184996 0.280881 2.478080
2.225755 0.285634 2.993156
2.291661 0.293209 3.902681
2.296850 0.293243 4.556383
2.363054 0.301217 5.032255
2.509270 0.319028 5.800390
2.480915 0.314723 6.486300
2.387666 0.302249 7.162996
2.386053 0.301269 7.964700
2.364632 0.297757 8.819773
2.081978 0.261669 9.497391
2.212378 0.079208 0.065573
2.321910 0.082402 0.812525
2.243821 0.079016 1.470250
2.264680 0.078962 2.304355
2.255612 0.078134 2.850673
2.314076 0.079317 3.722446
2.362995 0.080375 4.350709
2.210547 0.074550 5.076480
2.261260 0.075658 5.720823
2.462002 0.081912 6.147146
2.493092 0.082235 6.844438
2.454044 0.080073 7.737497
2.353836 0.076205 8.400475
2.334163 0.074728 9.321698
2.259834 -0.134186 0.074831
2.240149 -0.133517 0.608413
2.321382 -0.139315 1.588430
2.238390 -0.134642 1.920736
2.210081 -0.133589 2.627983
2.285681 -0.138974 3.479520
2.317892 -0.141442 4.005416
2.192063 -0.134460 4.791820
2.302448 -0.141791 5.368320
2.554236 -0.158269 6.254433
2.514099 -0.156373 6.839514
2.522882 -0.157701 7.604033
2.408979 -0.151149 8.218396
2.355300 -0.148612 9.124889
1.989073 -0.125855 9.678736
2.138872 -0.327737 0.084430
2.125368 -0.326398 0.891757
2.245398 -0.345425 1.506587
2.220516 -0.342059 1.995609
2.200598 -0.339730 2.787200
2.255581 -0.348814 3.404738
2.305742 -0.357254 4.098780
2.161225 -0.335416 4.726206
2.298425 -0.357463 5.489733
2.556269 -0.398444 6.268442
2.501768 -0.390600 6.904491
2.418756 -0.378191 7.475444
2.455632 -0.384901 8.407844
2.361636 -0.370565 8.847734
1.992654 -0.313242 9.671996
2.082291 -0.544528 0.966833
2.124110 -0.555951 1.481762
2.143152 -0.561714 2.298340
2.158992 -0.566397 2.852743
2.142628 -0.562704 3.487095
2.120179 -0.557455 4.182235
2.234904 -0.588329 4.890129
2.345756 -0.618294 5.636183
2.460647 -0.649616 6.583702
2.419065 -0.639073 7.007348
2.350155 -0.621596 7.743028
2.353856 -0.623450 8.618068
2.204738 -0.584471 9.216127
2.077082 -0.756003 1.790989
2.075035 -0.756002 2.553037
2.142486 -0.781421 3.386040
2.185533 -0.797798 4.042765
1.966102 -0.718342 4.777430
2.091822 -0.764999 5.505565
2.393426 -0.875807 5.911736
2.353789 -0.862096 6.648937
2.319551 -0.850409 7.460796
2.330576 -0.855329 8.290369
2.248524 -0.825775 8.866371
1.983667 -0.729121 9.645036
1.685301 -0.800361 0.369048
2.042916 -0.971134 1.263408
1.976223 -0.940017 1.848539
1.990356 -0.947398 2.496820
2.003274 -0.954334 3.269216
1.981669 -0.944545 3.773445
1.903396 -0.908123 4.708234
1.994012 -0.951892 5.230083
2.278898 -1.088743 5.925299
2.306696 -1.103009 6.774031
2.254228 -1.078688 7.474032
2.161417 -1.034733 7.927434
2.188648 -1.048905 8.987449
1.987374 -0.953056 9.690424
1.912136 -1.136732 2.043885
1.916256 -1.140022 2.824654
1.899498 -1.130706 3.440257
1.896912 -1.129638 3.885895
1.810484 -1.079156 4.880813
1.886425 -1.124882 5.308836
2.170139 -1.295050 6.078156
2.169079 -1.295372 6.876647
2.147154 -1.283120 7.600195
2.016576 -1.205548 8.056394
2.024651 -1.211428 9.025201
1.774719 -1.062327 9.576541
1.755347 -1.289235 1.642270
1.726515 -1.268818 2.331509
1.739963 -1.279318 2.887101
1.804115 -1.327454 3.721190
1.748093 -1.286991 4.413469
1.857361 -1.368389 5.205690
1.965214 -1.448524 5.729259
1.949296 -1.437861 6.607453
1.953057 -1.441284 7.139247
1.868930 -1.380103 7.944385
1.850606 -1.367533 8.801142
1.716586 -1.269016 9.346088
1.623861 -1.461851 1.782915
1.623896 -1.462859 2.583017
1.618865 -1.458968 3.112212
1.653118 -1.490998 4.045128
1.562789 -1.410026 4.488803
1.728567 -1.560947 5.508406
1.894802 -1.711721 5.939562
1.820950 -1.646271 6.900801
1.779408 -1.609460 7.486146
1.712514 -1.549698 8.105224
1.652196 -1.495819 8.719980
1.507319 -1.365480 9.545568
1.247903 -1.356343 0.549224
1.478761 -1.608144 1.200543
1.491386 -1.622498 1.659818
1.474315 -1.605046 2.498632
1.479598 -1.611746 3.205969
1.453937 -1.584290 3.588532
1.412901 -1.540565 4.376013
1.468582 -1.602094 4.986369
1.602789 -1.749888 5.923054
1.624732 -1.774722 6.523637
1.570525 -1.716520 7.267573
1.505464 -1.646187 7.877094
1.524681 -1.668351 8.741894
1.440709 -1.577295 9.446559
1.205519 -1.586950 0.537424
1.321045 -1.740030 1.200543
1.316638 -1.734887 1.642270
1.291098 -1.702104 2.237631
1.259556 -1.661451 2.893373
1.255881 -1.657653 3.633929
1.280156 -1.691108 4.610938
1.270946 -1.679799 5.216945
1.369836 -1.811620 5.921420
1.448682 -1.916658 6.369952
1.399843 -1.853382 7.248898
1.375388 -1.822276 8.101632
1.323831 -1.754652 8.598201
1.225940 -1.626106 9.554985
1.108170 -1.781701 0.808463
1.157703 -1.862393 1.416153
1.066271 -1.716190 1.980411
1.068914 -1.721734 2.793963
1.070103 -1.724987 3.639169
1.055451 -1.702037 4.071452
1.062227 -1.714339 4.951372
1.105852 -1.785915 5.660931
1.188413 -1.920121 6.135856
1.174249 -1.898594 6.936056
1.132579 -1.832549 7.766336
1.116762 -1.807967 8.407183
1.032123 -1.671746 8.998271
0.811405 -1.624198 0.360104
0.906752 -1.816385 1.064523
0.890603 -1.785730 1.981842
0.871250 -1.747831 2.486625
0.871625 -1.750227 3.399108
0.893369 -1.794768 3.870677
0.896561 -1.802452 4.558260
0.806203 -1.621924 5.271331
0.880995 -1.773747 6.000762
0.981890 -1.978338 6.687684
0.919603 -1.854079 7.381126
0.917638 -1.851754 8.272067
0.906257 -1.830081 8.998223
0.777393 -1.570734 9.653986
0.676655 -1.791046 0.245680
0.760678 -2.015449 1.032521
0.677823 -1.796918 1.484160
0.668206 -1.773397 2.376768
0.664896 -1.766454 3.214914
0.661545 -1.758467 3.635971
0.696437 -1.852753 4.294308
0.743873 -1.981414 5.282713
0.701955 -1.871271 5.958787
0.700490 -1.868922 6.641077
0.695298 -1.856060 7.084848
0.687916 -1.838236 7.938590
0.695598 -1.860647 8.781519
0.595115 -1.592643 9.270361
0.462179 -1.702101 0.009490
0.490547 -1.809089 0.861041
0.507712 -1.874013 1.388678
0.480831 -1.777491 2.323376
0.473253 -1.751269 2.954277
0.405235 -1.500616 3.409566
0.472130 -1.750564 4.170675
0.567874 -2.108150 4.879670
0.521671 -1.939163 5.714838
0.497824 -1.852393 6.362566
0.483530 -1.801028 7.010318
0.487191 -1.816622 7.689017
0.479530 -1.790182 8.453470
0.451512 -1.687853 9.349417
0.332137 -1.885213 0.188985
0.355802 -2.023797 1.054342
0.317024 -1.806332 1.772629
0.300776 -1.716078 2.339549
0.354850 -2.035731 4.579945
0.374884 -2.153299 5.070760
0.343381 -1.975913 5.850899
0.305853 -1.761883 6.347214
0.294312 -1.698235 7.068529
0.290948 -1.681793 7.827392
0.289039 -1.673990 8.662523
0.253225 -1.468728 9.356878
0.137915 -1.821963 0.966488
0.133440 -1.768529 1.556996
0.124437 -1.655250 2.230366
0.154915 -2.066828 2.742904
0.164387 -2.218791 4.816463
0.148712 -2.030904 6.975663
0.121617 -1.668589 7.904966
0.118323 -1.629449 8.607916
0.107682 -1.487817 9.264382
-0.041327 -1.771396 1.519045
-0.036730 -1.564384 1.891645
-0.047894 -1.961461 4.152801
-0.054698 -2.216363 4.760270
-0.050607 -2.026193 5.518393
-0.038827 -1.538862 6.234851
-0.034285 -1.342027 7.075868
-0.038845 -1.507143 7.621434
-0.041932 -1.605210 8.493562
-0.038802 -1.471069 9.187845
-0.197136 -1.757626 1.443138
-0.174825 -1.556062 1.910733
-0.208207 -1.848441 2.588439
-0.208001 -1.841245 3.380486
-0.210511 -1.857730 4.221491
-0.248925 -2.191300 4.857418
-0.136548 -1.190668 7.729061
-0.177210 -1.541398 8.375392
-0.169695 -1.471874 9.226119
-0.381651 -1.779416 0.653846
-0.322046 -1.499911 1.194569
-0.296405 -1.377685 2.227135
-0.396804 -1.841780 2.891183
-0.452368 -2.097889 3.295095
-0.411551 -1.905814 4.048985
-0.412480 -1.907119 4.845222
-0.203511 -0.935773 7.914056
-0.278347 -1.278461 8.433554
-0.272028 -1.247397 9.331469
-0.485878 -1.544430 0.609962
-0.439072 -1.394336 1.273709
-0.406939 -1.290728 2.134283
-0.472353 -1.496289 3.023174
-0.575707 -1.821853 3.699523
-0.554525 -1.753153 4.379087
-0.490455 -1.549601 4.861696
-0.300642 -0.945888 8.069341
-0.373428 -1.174061 8.543562
-0.335596 -1.054147 9.273157
-0.461008 -1.097160 0.308701
-0.505855 -1.202853 1.067631
-0.499753 -1.187265 1.868008
-0.634472 -1.503781 3.912417
-0.204517 -0.483214 6.933906
-0.270317 -0.638096 7.757576
-0.389954 -0.919993 8.210713
-0.571161 -1.045171 0.405167
-0.626797 -1.146192 1.115707
-0.603750 -1.103361 1.763428
-0.768682 -1.401940 3.838928
-0.251090 -0.456753 6.781804
-0.312848 -0.568749 7.429389
-0.426241 -0.774349 8.155387
-0.613170 -0.902876 0.435333
-0.662671 -0.975248 1.042465
-0.623781 -0.917413 1.799917
-0.721034 -1.059732 2.563861
-0.717105 -1.053471 3.097116
-0.777800 -1.141811 3.921056
-0.266227 -0.389836 7.056375
-0.393377 -0.575658 7.777140
-0.502601 -0.735222 8.184575
-0.569474 -0.832341 9.195206
-0.658615 -0.803921 0.193758
-0.651581 -0.794810 0.998429
-0.681260 -0.830609 1.588293
-0.885522 -1.077656 3.812805
-0.273585 -0.332143 6.972508
-0.325930 -0.395560 7.385904
-0.490387 -0.594790 8.109357
-0.546867 -0.662925 8.809073
-0.379517 -0.459773 9.690062
-0.708728 -0.709486 2.136065
-0.703314 -0.703719 2.750531
-0.986812 -0.986694 3.580013
-1.028597 -1.028024 4.116651
-0.718748 -0.717865 5.015703
-0.458166 -0.457414 5.598258
-0.235953 -0.235420 6.449543
-0.293905 -0.293051 7.282700
-0.472441 -0.470796 7.988937
-0.453004 -0.451205 8.645401
-0.459486 -0.457367 9.497646
-0.749190 -0.615716 1.485996
-0.728041 -0.597906 2.364035
-0.424814 -0.348672 3.131038
-1.163356 -0.953835 4.324157
-0.820990 -0.672706 5.157480
-0.394636 -0.323163 6.002996
-0.122826 -0.100527 6.747270
-0.284844 -0.233023 7.302446
-0.550771 -0.450316 7.958522
-0.571512 -0.466953 8.839015
-0.486633 -0.397346 9.712961
-0.818616 -0.556831 1.368546
-0.744408 -0.506039 2.093434
-0.764252 -0.519211 2.804913
-1.015437 -0.689337 3.655559
-1.151167 -0.781083 4.221319
-0.863534 -0.585536 5.031585
-0.441552 -0.299300 5.515422
-0.226497 -0.153421 6.398935
-0.301679 -0.204238 7.026210
-0.539484 -0.364913 8.033548
-0.653898 -0.442040 8.733272
-0.621318 -0.419827 9.293363
-0.654630 -0.358625 0.742448
-0.771421 -0.422218 1.704287
-1.087695 -0.594274 3.527778
-1.165909 -0.636517 4.326362
-0.838718 -0.457567 5.123307
-0.339586 -0.185123 6.023526
-0.041751 -0.022747 6.695798
-0.349821 -0.190433 7.573883
-0.601559 -0.327342 7.954156
-0.676123 -0.367574 8.965969
-0.496827 -0.269989 9.477558
-0.522385 -0.219988 0.471225
-0.600057 -0.252565 0.940407
-0.694691 -0.292150 1.690719
-0.983443 -0.412599 3.799436
-0.249053 -0.104159 6.798342
-0.480357 -0.200751 7.425225
-0.727762 -0.303878 8.187426
-0.649718 -0.271088 8.909679
-0.233421 -0.097318 9.761306
-0.596357 -0.188018 0.911660
-0.712093 -0.224311 1.534453
-1.106496 -0.347465 3.730868
-1.258487 -0.394897 4.249480
-0.907691 -0.284506 5.094174
-0.367892 -0.115204 5.861619
-0.001935 -0.000605 6.724759
-0.304190 -0.095041 7.559606
-0.721058 -0.225080 8.153947
-0.711467 -0.221876 8.868322
-0.462412 -0.144087 9.562065
-0.683419 -0.147062 0.860856
-0.687530 -0.147710 1.683298
-0.691201 -0.148347 2.212726
-0.519642 -0.111378 2.914913
-0.900107 -0.192564 3.844561
-1.377601 -0.294385 4.365161
-0.954488 -0.203703 5.090634
-0.338927 -0.072251 5.776744
0.040714 0.008664 6.763753
-0.210293 -0.044703 7.302375
-0.678437 -0.144005 7.993289
-0.681781 -0.144503 8.776552
-0.491767 -0.104075 9.630922
-0.736514 -0.084198 0.429859
-0.801131 -0.091360 1.121770
-0.628494 -0.071509 1.775008
-0.421533 -0.047843 2.487508
-0.683703 -0.077376 3.276779
-1.148501 -0.129656 3.926666
-0.437729 -0.048875 7.154650
-0.686630 -0.076496 7.747794
-0.728417 -0.080938 8.498944
-0.582007 -0.064488 9.356943
-0.377634 -0.008786 1.006816
-0.644442 -0.014867 1.489757
-0.661785 -0.015055 2.294137
-0.547741 -0.012285 3.111395
-0.796387 -0.017693 3.621269
-0.121289 -0.002555 6.682272
-0.445077 -0.009217 7.553784
-0.759664 -0.015532 8.173476
-0.699136 -0.014081 8.993973
-0.429678 -0.008530 9.840665
-0.416911 0.029426 0.552048
-0.514486 0.036487 1.396637
-0.631928 0.044918 1.794606
-0.506800 0.036187 2.610198
-0.677019 0.048569 3.445453
-1.069990 0.076954 3.857513
-0.408987 0.029924 7.129932
-0.735662 0.054013 7.727469
-0.725374 0.053435 8.366180
-0.543599 0.040207 9.199870
-0.014921 0.002470 0.318955
-0.080579 0.013368 1.144503
-0.553510 0.091987 1.847440
-0.559717 0.093221 2.734219
-0.571762 0.095332 3.187756
-0.821394 0.137222 3.962488
-0.827776 0.138518 4.643758
-0.360720 0.060463 5.409824
-0.094651 0.015901 6.399491
-0.360999 0.060723 6.903027
-0.725305 0.122256 7.717698
-0.768359 0.129745 8.477646
-0.589440 0.099665 9.102866
-0.562914 0.153942 1.797100
-0.526877 0.144230 2.439637
-0.332145 0.091011 3.079225
-0.504151 0.138318 3.887458
-0.703403 0.193254 4.767388
-0.304980 0.083866 5.417215
-0.016256 0.004474 6.085116
-0.340179 0.093764 6.966970
-0.631613 0.174236 7.458769
-0.701083 0.193666 8.366180
-0.578576 0.159993 9.112674
-0.233725 0.087802 0.891460
-0.591166 0.222314 1.755411
-0.601559 0.226394 2.383901
-0.514304 0.193728 3.131038
-0.452270 0.170486 3.752415
-0.553284 0.208797 4.675984
-0.335569 0.126708 5.189009
-0.106685 0.040315 5.905601
-0.364779 0.137968 6.622808
-0.664247 0.251502 7.477935
-0.722934 0.273929 8.119118
-0.579054 0.219567 8.774775
-0.334132 0.126842 9.860373
-0.493882 0.241535 1.611765
-0.485370 0.237549 2.351229
-0.483761 0.236984 3.290423
-0.543079 0.266219 3.948066
-0.559688 0.274521 4.532356
-0.318150 0.156192 5.502407
-0.041729 0.020495 5.957434
-0.328519 0.161503 6.903027
-0.648343 0.318949 7.536590
-0.558391 0.274849 8.132700
-0.479957 0.293577 1.876894
-0.468219 0.286550 2.478924
-0.467962 0.286556 3.121216
-0.526053 0.322332 3.827722
-0.533560 0.327141 4.551957
-0.283449 0.173880 5.182676
-0.066202 0.040638 5.993212
-0.310628 0.190814 6.760188
-0.650444 0.399877 7.609568
-0.558462 0.343485 8.166358
-0.434513 0.267443 9.062287
-0.087447 0.053851 9.780363
-0.211917 0.158762 0.277177
-0.299967 0.224842 0.898261
-0.432635 0.324419 1.395669
-0.401512 0.301265 2.136542
-0.408265 0.306541 2.966092
-0.473361 0.355672 3.830369
-0.475499 0.357476 4.506058
-0.255675 0.192301 5.093735
-0.113307 0.085287 6.074519
-0.340803 0.256630 6.544832
-0.666805 0.502466 7.340163
-0.842630 0.635262 7.892359
-0.748334 0.564526 8.707415
-0.392422 0.296234 9.686567
0.026334 -0.024217 0.189640
-0.110898 0.102040 0.933635
-0.403202 0.371188 1.572479
-0.424575 0.391162 2.526279
-0.396126 0.365089 3.003341
-0.432960 0.399290 3.800939
-0.487379 0.449781 4.646736
-0.289049 0.266906 5.425858
-0.113822 0.105146 6.000914
-0.375628 0.347244 6.865097
-0.639785 0.591713 7.393544
-0.717050 0.663552 8.113696
-0.579189 0.536211 8.733272
-0.243199 0.225275 9.570854
-0.390355 0.433813 1.797100
-0.371202 0.412779 2.567310
-0.366827 0.408094 3.121216
-0.420397 0.468081 4.163731
-0.371414 0.413743 4.790466
-0.173301 0.193133 5.375108
-0.054216 0.060457 6.166464
-0.304889 0.340177 6.844912
-0.584133 0.652130 7.534924
-0.553106 0.617879 8.362937
-0.396953 0.443667 9.093057
-0.068170 0.091586 0.178923
-0.208976 0.280931 0.908758
-0.325978 0.438448 1.533191
-0.304402 0.409678 2.274207
-0.311263 0.419200 3.103718
-0.350983 0.472967 3.800939
-0.364084 0.490878 4.434327
-0.216134 0.291582 5.218628
-0.065024 0.087766 5.875779
-0.297708 0.402154 6.806097
-0.509296 0.688228 7.193826
-0.511039 0.691120 8.160957
-0.419856 0.568130 8.919458
-0.309458 0.419015 9.794732
-0.265097 0.443359 0.452219
-0.238708 0.399561 1.388728
-0.320986 0.537641 2.119349
-0.286656 0.480356 2.626226
-0.274108 0.459586 3.251124
-0.328531 0.551345 4.271508
-0.243284 0.408518 4.941471
-0.101347 0.170279 5.637813
-0.053264 0.089531 6.152355
-0.262631 0.441861 7.140079
-0.434186 0.730940 7.774574
-0.389239 0.655560 8.296244
-0.326051 0.549627 9.363953
-0.086417 0.182274 0.972019
-0.245720 0.518617 1.591018
-0.241362 0.509805 2.329967
-0.243150 0.513966 3.060165
-0.250834 0.530601 3.781317
-0.274817 0.581873 4.689131
-0.159826 0.338597 5.297593
-0.058504 0.124011 5.891669
-0.207035 0.439247 6.727403
-0.374952 0.796023 7.310640
-0.432150 0.918367 8.278589
-0.379187 0.806397 9.038986
-0.186201 0.396257 9.870224
-0.403161 1.101327 0.801201
-0.289936 0.792678 1.471728
-0.216341 0.591989 2.187948
-0.192899 0.528148 2.665499
-0.205480 0.563109 3.403586
-0.212050 0.581591 4.075522
-0.152301 0.418222 5.086189
-0.068294 0.187655 5.647730
-0.042451 0.116771 6.558550
-0.160753 0.442542 7.179324
-0.319819 0.881095 7.704732
-0.336050 0.926920 8.695544
-0.230376 0.635767 9.208088
-0.168661 0.654144 1.625751
-0.146017 0.567265 2.644030
-0.180955 0.703587 3.145201
-0.205047 0.798543 4.111474
-0.205874 0.802611 4.754200
-0.159759 0.623466 5.408363
-0.064527 0.252045 6.024256
-0.135100 0.528494 6.909539
-0.221649 0.867998 7.510307
-0.245913 0.964276 8.303661
-0.230201 0.903786 9.100880
-0.094649 0.606554 0.107842
-0.119731 0.769145 1.024968
-0.122991 0.791352 1.629847
-0.107702 0.693890 2.134493
-0.160317 1.034687 2.775734
-0.196161 1.268409 3.465087
-0.173534 1.124898 4.418369
-0.129094 0.838192 5.079116
-0.054295 0.353020 5.683959
-0.024344 0.158705 6.757198
-0.077086 0.503245 7.243286
-0.152743 0.999164 7.922600
-0.160656 1.053354 8.809576
-0.111240 0.730561 9.546877
-0.067935 1.043371 0.697487
-0.068719 1.059173 1.268850
-0.058117 0.900553 2.132336
-0.079645 1.238663 2.692727
-0.103777 1.621091 3.354658
-0.034814 0.555753 6.968464
-0.060720 0.973864 7.645645
-0.069761 1.124529 8.425956
-0.056378 0.913592 9.333483
-0.029817 -0.000409 0.009872
-0.090564 -0.001242 0.009872
-0.075713 -0.001038 0.009872
-0.133821 -0.001835 0.009872
-0.117947 -0.001617 0.009872
-0.014101 -0.000193 0.009872
-0.066234 -0.000908 0.009872
-0.016756 -0.000230 0.009872
-0.117523 -0.001611 0.009872
-0.101376 -0.001390 0.009872
-0.003357 -0.000252 0.009872
-0.001253 -0.000094 0.009872
-0.009630 -0.000722 0.009872
-0.004692 -0.000352 0.009872
-0.007285 -0.000546 0.009872
-0.005588 -0.000419 0.009872
-0.000898 -0.000067 0.009872
-0.010864 -0.000815 0.009872
-0.006569 -0.000493 0.009872
-0.009767 -0.000732 0.009872
-0.390962 -0.076360 0.009872
-0.170620 -0.033324 0.009872
-0.217899 -0.042558 0.009872
-0.377162 -0.073664 0.009872
-0.326328 -0.063736 0.009872
-0.053958 -0.010539 0.009872
-0.036148 -0.007060 0.009872
-0.324502 -0.063379 0.009872
-0.103842 -0.020282 0.009872
-0.317326 -0.061978 0.009872
-0.252960 -0.081677 0.009872
-0.149743 -0.048350 0.009872
-0.383963 -0.123976 0.009872
-0.386221 -0.124705 0.009872
-0.075923 -0.024515 0.009872
-0.159177 -0.051396 0.009872
-0.314046 -0.101401 0.009872
-0.007478 -0.002414 0.009872
-0.310512 -0.100260 0.009872
-0.005464 -0.001764 0.009872
-0.019459 -0.010246 0.009872
-0.318804 -0.167859 0.009872
-0.422418 -0.222415 0.009872
-0.088843 -0.046779 0.009872
-0.071412 -0.037600 0.009872
-0.429108 -0.225938 0.009872
-0.552064 -0.290677 0.009872
-0.541580 -0.285157 0.009872
-0.423685 -0.223082 0.009872
-0.306005 -0.161120 0.009872
-0.651142 -0.384997 0.009872
-0.115918 -0.068538 0.009872
-0.646373 -0.382177 0.009872
-0.113576 -0.067154 0.009872
-0.126825 -0.074987 0.009872
-0.550836 -0.325690 0.009872
-0.302186 -0.178672 0.009872
-0.105496 -0.062376 0.009872
-0.541700 -0.320288 0.009872
-0.372660 -0.220341 0.009872
-0.049255 -0.032593 0.009872
-0.579720 -0.383614 0.009872
-0.070361 -0.046560 0.009872
-0.611308 -0.404516 0.009872
-0.664340 -0.439608 0.009872
-0.601969 -0.398336 0.009872
-0.568221 -0.376004 0.009872
-0.330414 -0.218642 0.009872
-0.100054 -0.066208 0.009872
-0.238494 -0.157817 0.009872
-0.310984 -0.258548 0.009872
-0.396379 -0.329543 0.009872
-0.508502 -0.422761 0.009872
-0.624823 -0.519469 0.009872
-0.639930 -0.532028 0.009872
-0.374978 -0.311751 0.009872
-0.206966 -0.172068 0.009872
-0.562009 -0.467246 0.009872
-0.330993 -0.275182 0.009872
-0.586285 -0.487428 0.009872
-0.328365 -0.316093 0.009872
-0.686187 -0.660541 0.009872
-0.639975 -0.616057 0.009872
-0.277734 -0.267354 0.009872
-0.313366 -0.301654 0.009872
-0.144100 -0.138714 0.009872
-0.250949 -0.241570 0.009872
-0.530490 -0.510664 0.009872
-0.178874 -0.172188 0.009872
-0.125635 -0.120939 0.009872
-0.213276 -0.207479 0.009872
-0.489732 -0.476423 0.009872
-0.667225 -0.649092 0.009872
-0.225799 -0.219662 0.009872
-0.220032 -0.214052 0.009872
-0.134616 -0.130958 0.009872
-0.049451 -0.048107 0.009872
-0.439033 -0.427101 0.009872
-0.496729 -0.483229 0.009872
-0.641059 -0.623637 0.009872
-0.415755 -0.506154 0.009872
-0.473879 -0.576916 0.009872
-0.439243 -0.534749 0.009872
-0.123270 -0.150073 0.009872
-0.119030 -0.144911 0.009872
-0.377180 -0.459193 0.009872
-0.475361 -0.578721 0.009872
-0.332411 -0.404689 0.009872
-0.595255 -0.724684 0.009872
-0.609884 -0.742494 0.009872
-0.456446 -0.557149 0.009872
-0.018868 -0.023031 0.009872
-0.233054 -0.284471 0.009872
-0.307637 -0.375509 0.009872
-0.031279 -0.038180 0.009872
-0.228531 -0.278951 0.009872
-0.634017 -0.773897 0.009872
-0.520522 -0.635362 0.009872
-0.148593 -0.181376 0.009872
-0.035268 -0.043049 0.009872
-0.027065 -0.035145 0.009872
-0.555363 -0.721164 0.009872
-0.036722 -0.047685 0.009872
-0.223821 -0.290642 0.009872
-0.368303 -0.478258 0.009872
-0.069370 -0.090080 0.009872
-0.194866 -0.253043 0.009872
-0.309936 -0.402466 0.009872
-0.601766 -0.781421 0.009872
-0.439108 -0.570202 0.009872
-0.694390 -1.030991 0.009872
-0.166161 -0.246706 0.009872
-0.203653 -0.302372 0.009872
-0.455242 -0.675918 0.009872
-0.631970 -0.938314 0.009872
-0.064075 -0.095135 0.009872
-0.158036 -0.234643 0.009872
-0.503651 -0.747793 0.009872
-0.316526 -0.469960 0.009872
-0.708981 -1.052654 0.009872
-0.383487 -0.701746 0.009872
-0.467923 -0.856255 0.009872
-0.211074 -0.386245 0.009872
-0.538000 -0.984490 0.009872
-0.020873 -0.038195 0.009872
-0.557342 -1.019884 0.009872
-0.569960 -1.042975 0.009872
-0.424376 -0.776569 0.009872
-0.371232 -0.679321 0.009872
-0.190600 -0.348781 0.009872
-0.056263 -0.105575 0.009872
-0.046442 -0.087146 0.009872
-0.104767 -0.196590 0.009872
-0.273255 -0.512751 0.009872
-0.629001 -1.180292 0.009872
-0.330580 -0.620320 0.009872
-0.325026 -0.609898 0.009872
-0.284549 -0.533943 0.009872
-0.172723 -0.324108 0.009872
-0.477197 -0.895440 0.009872
-0.107327 -0.212466 0.009872
-0.302211 -0.598263 0.009872
-0.044823 -0.088732 0.009872
-0.082135 -0.162595 0.009872
-0.648155 -1.283103 0.009872
-0.687916 -1.361814 0.009872
-0.683756 -1.353578 0.009872
-0.093285 -0.184670 0.009872
-0.181791 -0.359877 0.009872
-0.057235 -0.113304 0.009872
-0.398014 -0.947240 0.009872
-0.396609 -0.943896 0.009872
-0.353268 -0.840747 0.009872
-0.165881 -0.394782 0.009872
-0.136539 -0.324950 0.009872
-0.363948 -0.866165 0.009872
-0.046601 -0.110907 0.009872
-0.135579 -0.322666 0.009872
-0.213092 -0.507142 0.009872
-0.353364 -0.840976 0.009872
-0.423862 -1.014044 0.009872
-0.104611 -0.250270 0.009872
-0.162621 -0.389052 0.009872
-0.341934 -0.818039 0.009872
-0.455649 -1.090090 0.009872
-0.077441 -0.185268 0.009872
-0.310093 -0.741862 0.009872
-0.266568 -0.637735 0.009872
-0.394178 -0.943027 0.009872
-0.167677 -0.401148 0.009872
-0.370588 -1.191168 0.009872
-0.120908 -0.388629 0.009872
-0.365449 -1.174649 0.009872
-0.066261 -0.212979 0.009872
-0.380401 -1.222708 0.009872
-0.285807 -0.918660 0.009872
-0.060556 -0.194642 0.009872
-0.318079 -1.022389 0.009872
-0.323560 -1.040008 0.009872
-0.343662 -1.104621 0.009872
-0.187653 -1.040136 0.009872
-0.142158 -0.787965 0.009872
-0.215416 -1.194024 0.009872
-0.235857 -1.307324 0.009872
-0.089781 -0.497642 0.009872
-0.233068 -1.291865 0.009872
-0.217891 -1.207742 0.009872
-0.068341 -0.378804 0.009872
-0.195996 -1.086378 0.009872
-0.171939 -0.953036 0.009872
-0.060772 -0.525052 0.009872
-0.113170 -0.977748 0.009872
-0.176587 -1.525648 0.009872
-0.030200 -0.260921 0.009872
-0.007377 -0.063737 0.009872
-0.098415 -0.850276 0.009872
-0.036260 -0.313276 0.009872
-0.003272 -0.028272 0.009872
-0.017010 -0.146960 0.009872
-0.105524 -0.911693 0.009872
-0.134451 -1.519063 0.009872
-0.096605 -1.091465 0.009872
-0.007519 -0.084954 0.009872
-0.086384 -0.975993 0.009872
-0.011629 -0.131393 0.009872
-0.022057 -0.249210 0.009872
-0.074944 -0.846741 0.009872
-0.106770 -1.206318 0.009872
-0.034800 -0.393176 0.009872
-0.104020 -1.175248 0.009872
-0.008114 -0.169555 0.009872
-0.050367 -1.052448 0.009872
-0.015583 -0.325604 0.009872
-0.031082 -0.649468 0.009872
-0.008070 -0.168626 0.009872
-0.023509 -0.491225 0.009872
-0.027464 -0.573878 0.009872
-0.039425 -0.823811 0.009872
-0.062460 -1.305131 0.009872
-0.004357 -0.091043 0.009872
-0.005615 -0.171603 0.009872
-0.022497 -0.687569 0.009872
-0.039906 -1.219636 0.009872
-0.036090 -1.103011 0.009872
-0.023969 -0.732546 0.009872
-0.015181 -0.463970 0.009872
-0.045949 -1.404334 0.009872
