-0.180482 0.165214 9.893219
-0.116276 0.128229 0.327572
-0.176644 0.194803 1.089508
-0.396660 0.437438 1.777475
-0.367437 0.405211 2.331581
-0.248919 0.274511 2.998136
-0.428994 0.473101 3.955137
-0.586578 0.646889 4.650271
-0.255842 0.282148 5.287724
0.006599 -0.007277 6.029374
-0.215760 0.237947 7.025852
-0.512973 0.565725 7.692905
-0.539646 0.595144 8.545941
-0.437166 0.482126 9.279303
-0.058917 0.078438 0.328247
-0.097901 0.130339 1.092508
-0.389173 0.518122 1.921974
-0.369360 0.491745 2.593172
-0.267375 0.355970 3.279815
-0.366994 0.488599 4.156802
-0.426045 0.567219 4.552313
-0.171053 0.227734 5.321973
-0.068841 0.091653 6.315648
-0.253011 0.336852 7.016683
-0.404543 0.538601 7.630359
-0.429676 0.572064 8.391421
-0.377241 0.502254 9.191112
-0.485719 0.787956 0.534692
-0.325676 0.528328 1.314336
-0.274810 0.445813 1.938483
-0.296922 0.481687 2.932536
-0.314622 0.510404 3.582561
-0.357016 0.579181 4.317499
-0.271615 0.440638 5.006914
-0.108772 0.176460 5.963034
-0.061875 0.100379 6.479036
-0.293364 0.475927 7.449646
-0.436549 0.708221 8.117803
-0.357058 0.579263 8.990267
-0.165406 0.268342 9.577238
-0.042812 0.086622 0.000000
-0.114338 0.231343 0.911266
-0.261851 0.529811 1.787288
-0.241520 0.488676 2.302108
-0.240201 0.486010 3.241298
-0.269103 0.544492 3.899031
-0.305317 0.617770 4.783767
-0.175199 0.354495 5.386399
-0.027809 0.056269 6.160675
-0.149822 0.303149 6.848433
-0.346398 0.700905 7.658376
-0.337548 0.683000 8.370262
-0.283872 0.574396 9.240114
-0.152580 0.395129 0.374612
-0.186568 0.483148 1.239335
-0.199198 0.515859 2.015725
-0.195107 0.505267 2.618219
-0.199838 0.517522 3.378832
-0.202230 0.523718 4.162544
-0.169605 0.439232 5.033483
-0.085343 0.221016 5.673621
-0.060992 0.157955 6.623624
-0.190107 0.492336 7.169569
-0.315995 0.818362 7.862205
-0.287152 0.743670 8.733272
-0.191659 0.496364 9.614643
-0.162585 0.580001 2.003122
-0.141829 0.505959 2.738006
-0.141295 0.504056 3.312359
-0.154017 0.549444 4.022254
-0.134623 0.480261 4.869227
-0.069780 0.248939 5.649959
-0.038984 0.139076 6.341185
-0.151178 0.539334 7.203979
-0.236472 0.843630 7.740055
-0.218720 0.780306 8.575201
-0.140583 0.501545 9.375820
0.009514 -0.051275 0.299634
-0.028980 0.156181 0.943565
-0.108087 0.582518 1.816724
-0.107393 0.578788 2.575345
-0.101082 0.544780 3.091751
-0.118298 0.637573 4.043317
-0.123823 0.667358 4.705472
-0.070332 0.379062 5.488783
-0.016732 0.090180 6.329864
-0.069252 0.373252 6.932639
-0.146637 0.790347 7.521157
-0.124406 0.670534 8.357973
-0.091120 0.491131 9.192571
-0.084017 0.946213 0.485746
-0.057038 0.642386 1.293828
-0.048810 0.549727 1.996080
-0.048092 0.541652 2.647695
-0.052257 0.588583 3.494262
-0.049548 0.558078 4.152723
-0.037259 0.419669 5.040387
-0.015225 0.171495 5.744758
-0.034866 0.392738 6.603078
-0.066527 0.749386 7.145211
-0.079920 0.900270 7.866554
-0.073904 0.832524 8.785828
-0.041571 0.468305 9.673362
0.000766 0.371624 -0.009872
0.001144 0.554772 0.766237
0.001409 0.682546 1.606176
0.001267 0.613218 2.189468
0.001122 0.542536 2.954217
0.001200 0.579626 3.634119
0.001241 0.599101 4.476630
0.000637 0.307238 5.126885
0.000277 0.133372 6.128322
0.001079 0.519432 6.865097
0.001995 0.959202 7.650896
0.002075 0.996896 8.386976
0.001513 0.726465 8.864555
0.055358 0.641007 1.833798
0.049059 0.568050 2.665499
0.050356 0.583058 3.435384
0.053376 0.618013 4.016702
0.042704 0.494432 4.659362
0.027573 0.319239 5.559354
0.022403 0.259370 6.423082
0.044373 0.513732 6.977964
0.079637 0.921962 7.963794
0.075615 0.875391 8.538246
0.053156 0.615364 9.350650
0.218443 1.159653 0.772247
0.138989 0.737843 1.446540
0.107502 0.570687 2.063405
0.106641 0.566108 2.744035
0.109741 0.582563 3.513886
0.110651 0.587388 4.257792
0.080826 0.429056 5.148808
0.035390 0.187860 5.863844
0.070013 0.371649 6.514265
0.156360 0.829994 7.471900
0.171844 0.912178 7.861170
0.154383 0.819483 8.672693
0.116258 0.617102 9.778310
0.179243 0.625480 1.970955
0.156473 0.546017 2.636044
0.158677 0.553706 3.337233
0.174410 0.608599 4.343073
0.133905 0.467256 4.961154
0.081446 0.284201 5.725271
0.055750 0.194533 6.382207
0.145396 0.507342 7.169569
0.265265 0.925603 8.016618
0.254823 0.889161 8.516893
0.208131 0.726232 9.481848
0.053113 0.136842 0.109267
0.166862 0.429905 1.024425
0.255383 0.657969 1.565936
0.234495 0.604149 2.344716
0.210729 0.542916 3.128873
0.231871 0.597380 3.974734
0.292143 0.752660 4.529967
0.240980 0.620842 5.336108
0.110106 0.283667 6.089407
0.189456 0.488095 6.752314
0.356545 0.918559 7.533676
0.397606 1.024336 8.383378
0.347175 0.894410 8.972014
0.382934 0.764123 0.759856
0.401677 0.801520 1.333476
0.369564 0.737438 1.951619
0.306521 0.611637 2.844101
0.420400 0.838870 3.450713
0.551458 1.100379 4.075397
0.464236 0.926330 5.102936
0.259716 0.518233 5.599994
0.106398 0.212303 6.437346
0.250080 0.499000 7.194158
0.484946 0.967637 8.091467
0.471594 0.940991 8.619631
0.366816 0.731920 9.621781
0.559367 0.920990 0.648599
0.529505 0.871819 1.290027
0.445450 0.733422 2.096364
0.611150 1.006238 2.737039
0.820569 1.351033 3.340352
0.784222 1.291184 4.101267
0.608215 1.001392 4.807896
0.318521 0.524426 5.654994
0.128078 0.210872 6.630011
0.291793 0.480415 7.213799
0.550796 0.906838 7.882675
0.591190 0.973340 8.865189
0.427736 0.704224 9.641280
0.434570 0.576206 -0.078213
0.413963 0.548879 1.066975
0.611455 0.810733 1.766202
0.494616 0.655813 2.313820
1.028278 1.363388 3.606682
0.752051 0.997136 4.434893
0.478093 0.633895 5.347005
0.299208 0.396713 6.178517
0.374183 0.496119 6.865999
0.593322 0.786666 7.533676
0.701185 0.929674 8.225257
0.365225 0.408114 0.275078
0.475125 0.530917 1.066232
0.782431 0.874306 1.913233
1.030073 1.151021 2.622165
0.578850 0.646802 7.213300
0.738685 0.825397 7.862169
0.763696 0.853342 8.362218
0.676150 0.755516 9.185509
0.864624 0.801873 0.733640
1.045313 0.969445 1.428888
1.002635 0.929862 1.796842
1.294129 1.200192 2.873093
1.505043 1.395794 3.285799
0.533220 0.494505 7.018180
0.738169 0.684570 7.752366
0.864971 0.802162 8.507063
0.842394 0.781221 9.501849
1.068179 0.826067 1.422330
0.870391 0.673106 2.363776
1.638052 1.266756 3.711827
1.394810 1.078645 4.515030
0.737509 0.570327 7.524595
0.959682 0.742134 8.213944
1.002583 0.775307 8.966134
0.795497 0.615163 9.832002
0.652327 0.412359 -0.087866
1.285754 0.812764 1.310131
1.351795 0.854508 1.918908
1.630961 1.030971 2.735901
1.862236 1.177160 3.536486
1.660394 1.049568 4.105616
0.693188 0.438170 7.101293
0.954247 0.603185 8.070687
1.125496 0.711430 8.602837
1.197112 0.756695 9.532985
1.313385 0.669949 0.440302
1.464110 0.746829 1.238788
1.379660 0.703749 1.912096
1.092980 0.557515 2.384381
2.043282 1.042239 4.123421
1.746365 0.890783 4.854661
1.428806 0.728801 5.352759
0.929093 0.473906 6.254669
0.718358 0.366414 6.901457
1.069202 0.545366 7.932774
1.301407 0.663804 8.500254
1.408340 0.718343 9.375720
1.601239 0.636305 0.313623
1.587118 0.630691 0.884399
1.508823 0.599576 1.373112
1.813645 0.720700 2.354466
2.234635 0.887987 3.017396
2.358214 0.937087 3.840087
0.827412 0.328784 6.673542
0.868327 0.345040 7.412560
1.271383 0.505196 8.107157
1.459580 0.579975 8.736878
1.231276 0.489254 9.578382
1.639493 0.486372 0.969964
1.584201 0.469966 1.467363
1.871618 0.555226 2.363907
2.292245 0.680004 2.858965
2.419325 0.717698 3.475366
2.308390 0.684784 4.232622
2.151747 0.638310 5.072826
1.396525 0.414264 8.157374
1.658819 0.492067 8.959921
1.405903 0.417040 9.622212
1.783303 0.350797 1.204152
2.264982 0.445533 3.582318
2.579396 0.507375 4.186445
2.423649 0.476735 4.887529
1.382595 0.271948 7.835598
1.792754 0.352618 8.834071
1.651801 0.324891 9.562734
1.589331 0.162061 0.257522
1.755551 0.179006 1.120458
1.862613 0.189919 1.875454
2.139755 0.218172 2.680641
2.522679 0.257213 3.080661
2.700593 0.275345 4.063429
2.640536 0.269218 4.578278
2.382383 0.242894 5.231707
2.056556 0.209663 7.452238
1.707202 0.174043 8.277657
1.755166 0.178930 8.991669
1.871829 0.017862 0.141944
1.982661 0.018915 0.877425
1.939707 0.018501 1.729755
2.369896 0.022591 3.689063
2.635600 0.025120 4.241978
2.480722 0.023639 4.961915
2.143896 0.020425 5.722610
1.598129 0.015222 6.649793
1.643514 0.015651 7.503864
2.016815 0.019201 8.246038
1.957817 0.018636 8.941646
1.525108 0.014515 9.647231
1.876282 -0.156327 0.879961
2.087424 -0.173921 1.260447
1.967367 -0.163921 1.907798
2.217936 -0.184804 2.674817
2.551110 -0.212571 3.584149
2.586490 -0.215524 4.322315
2.592717 -0.216048 5.095782
2.400778 -0.200058 5.640256
2.104733 -0.175392 6.406151
1.988824 -0.165737 7.113138
2.054511 -0.171215 7.887997
1.951581 -0.162640 8.429808
1.742806 -0.145245 9.229026
1.576262 -0.279493 0.543641
1.986696 -0.352272 1.206650
2.043721 -0.362387 1.930514
2.068728 -0.366826 2.684523
1.952962 -0.346302 3.349505
2.238524 -0.396943 4.163823
2.601485 -0.461309 4.674168
2.395318 -0.424756 5.473901
2.145398 -0.380441 6.074042
2.087085 -0.370106 6.970206
2.057624 -0.364885 7.555710
2.049349 -0.363421 8.300287
1.933670 -0.342912 9.161947
2.144977 -0.580681 0.196717
2.275039 -0.615895 0.839924
2.074622 -0.561642 1.380663
2.066845 -0.559541 2.190686
2.103116 -0.569366 3.018431
2.113695 -0.572235 3.879329
2.188356 -0.592451 4.316558
2.291138 -0.620282 5.091859
2.271247 -0.614902 5.908659
2.293922 -0.621046 6.724312
2.198497 -0.595215 7.240550
2.111755 -0.571734 7.878899
2.065108 -0.559110 8.844682
1.787245 -0.483885 9.608327
2.114935 -0.780018 0.720720
2.107530 -0.777291 1.301772
2.096595 -0.773263 2.081342
2.120604 -0.782123 2.794534
2.151739 -0.793612 3.678411
2.154152 -0.794505 4.142116
2.057064 -0.758701 4.889045
2.153340 -0.794215 5.563091
2.282953 -0.842026 6.356060
2.236983 -0.825076 7.140160
2.183780 -0.805457 7.817382
2.112266 -0.779085 8.676394
1.897059 -0.699712 9.378835
1.776569 -0.855806 -0.150971
1.917899 -0.923893 0.704559
2.090931 -1.007250 1.289589
2.037253 -0.981398 2.107900
2.050663 -0.987862 2.680288
2.055914 -0.990395 3.320589
2.110591 -1.016742 4.316529
1.996367 -0.961720 4.876156
2.137115 -1.029530 5.723026
2.269205 -1.093166 6.128989
2.213672 -1.066420 6.998817
2.192453 -1.056203 7.832369
2.078875 -1.001491 8.384370
1.957780 -0.943159 9.267341
1.931647 -1.149297 0.271457
2.052348 -1.221118 1.063062
1.878465 -1.117664 1.642270
1.871744 -1.113670 2.367338
1.882823 -1.120266 2.866259
1.978781 -1.177366 3.762531
2.027592 -1.206412 4.248099
2.047045 -1.217994 5.147809
2.108889 -1.254795 5.757173
2.219593 -1.320672 6.606761
2.146552 -1.277217 7.194070
2.113569 -1.257597 7.944044
2.084202 -1.240129 8.751420
1.802045 -1.072245 9.368589
1.641758 -1.190414 0.659504
1.872939 -1.358043 1.074735
1.839103 -1.333515 1.853866
1.792067 -1.299415 2.515560
1.817259 -1.317686 3.191965
1.866279 -1.353236 4.008320
1.853002 -1.343616 4.856268
2.006989 -1.455277 5.447391
2.173592 -1.576090 6.204099
2.086850 -1.513197 6.838936
1.976823 -1.433420 7.410305
1.913845 -1.387759 8.192785
1.520137 -1.332753 0.037688
1.714708 -1.503346 0.776305
1.682492 -1.475108 1.677338
1.664125 -1.459009 2.139077
1.700127 -1.490582 3.096094
1.761813 -1.544671 3.899851
1.781972 -1.562349 4.332056
1.882512 -1.650506 5.281619
1.948125 -1.708040 5.963064
1.967288 -1.724848 6.648297
1.924879 -1.687671 7.365234
1.884266 -1.652068 7.923414
1.831572 -1.605873 8.590144
1.684058 -1.476543 9.511005
1.546827 -1.630145 1.864576
1.566764 -1.651164 2.680288
1.572880 -1.657613 3.084497
1.571350 -1.656008 3.812017
1.551195 -1.634774 4.784916
1.695575 -1.786942 5.507153
1.836488 -1.935454 6.111665
1.764081 -1.859152 6.764757
1.765007 -1.860136 7.617131
1.662145 -1.751734 8.082198
1.328145 -1.687989 0.291023
1.470936 -1.869472 0.699446
1.368744 -1.739603 1.697298
1.353806 -1.720622 2.159383
1.370153 -1.741404 2.864182
1.394238 -1.772022 3.550086
1.444390 -1.835772 4.459739
1.485621 -1.888181 4.944765
1.550801 -1.971033 5.776724
1.549137 -1.968923 6.333042
1.521730 -1.934097 7.017423
1.538497 -1.955418 7.956964
1.505784 -1.913847 8.689370
1.399461 -1.778716 9.313341
1.178917 -1.819857 1.793592
1.205142 -1.860351 2.873551
1.220187 -1.883583 3.447127
1.201741 -1.855116 4.057424
1.137491 -1.755941 4.893722
1.222685 -1.887465 5.743657
1.358783 -2.097566 6.161295
1.397490 -2.157330 7.052916
1.380735 -2.131474 7.847135
1.340565 -2.069470 8.503555
1.300200 -2.007167 9.308560
1.028562 -1.963867 1.180933
1.013719 -1.935532 1.623515
1.014180 -1.936424 2.479878
1.007612 -1.923891 3.217672
1.022164 -1.951683 3.773445
0.997458 -1.904522 4.579462
1.059739 -2.023450 5.334791
1.167758 -2.229710 5.976027
1.172325 -2.238442 6.839514
1.142554 -2.181603 7.269525
1.136805 -2.170637 8.014865
1.105993 -2.111815 8.891298
0.980509 -1.872219 9.616848
0.853987 -2.074551 2.221784
0.853244 -2.072755 2.871467
0.860583 -2.090593 3.360428
0.848240 -2.060621 4.207314
0.783435 -1.903201 4.831359
0.831469 -2.019899 5.504104
0.938397 -2.279674 6.253921
0.952672 -2.314368 7.096024
0.915050 -2.222981 7.701977
0.866495 -2.105033 8.362257
0.834906 -2.028307 9.342365
0.647804 -2.094446 1.773539
0.636964 -2.059409 2.406598
0.629820 -2.036325 3.050980
0.651598 -2.106752 3.792189
0.628300 -2.031439 4.592152
0.678378 -2.193372 5.409582
0.736432 -2.381089 5.980348
0.719635 -2.326795 6.635383
0.710652 -2.297768 7.476829
0.686119 -2.218459 8.232453
0.697426 -2.255036 9.096903
0.579597 -1.874058 9.537240
0.445183 -2.139548 1.632893
0.439802 -2.113707 2.453524
0.434712 -2.089262 3.079155
0.442896 -2.128616 3.738654
0.429901 -2.066187 4.661249
0.466475 -2.241988 5.372190
0.510031 -2.451353 6.045393
0.502452 -2.414951 6.793567
0.486201 -2.336863 7.392949
0.466653 -2.242926 8.101632
0.450586 -2.165722 8.826022
0.389102 -1.870219 9.632807
0.231996 -1.971405 0.962316
0.253856 -2.157185 1.323377
0.240099 -2.040312 1.997807
0.239888 -2.038556 2.707233
0.248163 -2.108927 3.734662
0.244327 -2.076347 4.109697
0.246711 -2.096649 5.025325
0.270041 -2.294961 5.810164
0.285777 -2.428726 6.421217
0.281835 -2.395277 7.270632
0.271854 -2.310486 8.034110
0.260801 -2.216578 8.701252
0.241490 -2.052485 9.447586
0.039559 -1.902530 0.661890
0.043534 -2.093862 1.251045
0.042954 -2.066094 1.761160
0.042721 -2.055151 2.744885
0.042331 -2.036503 3.116316
0.043489 -2.092467 4.128503
0.041516 -1.997720 4.762875
0.045789 -2.203591 5.625979
0.049832 -2.398277 6.025592
0.047518 -2.287118 6.790360
0.044755 -2.154320 7.502118
0.044896 -2.161365 8.420023
0.042871 -2.064030 8.954281
-0.146041 -2.092272 0.225637
-0.154094 -2.207573 1.059131
-0.145412 -2.083142 1.694061
-0.145515 -2.084541 2.534091
-0.139764 -2.002115 3.062010
-0.142868 -2.046504 3.990300
-0.141890 -2.032443 4.680720
-0.139850 -2.003169 5.348794
-0.149927 -2.147465 5.923918
-0.158620 -2.271906 6.607899
-0.155205 -2.222925 7.603898
-0.150521 -2.155781 8.310894
-0.142141 -2.035703 9.061042
-0.113853 -1.630529 9.853288
-0.309868 -1.947142 -0.037743
-0.310671 -1.952165 0.594419
-0.337449 -2.120405 1.324338
-0.317503 -1.995036 2.255161
-0.302561 -1.901136 2.679214
-0.306874 -1.928204 3.543195
-0.308036 -1.935490 4.067863
-0.310871 -1.953274 4.977334
-0.343336 -2.157227 5.812309
-0.354690 -2.228545 6.224498
-0.322815 -2.028247 7.022735
-0.320901 -2.016194 7.912402
-0.313289 -1.968343 8.571326
-0.288465 -1.812357 9.358388
-0.495482 -1.911286 0.443465
-0.550387 -2.123058 1.219293
-0.497190 -1.917849 1.548054
-0.488640 -1.884853 2.288374
-0.501955 -1.936193 3.262254
-0.496681 -1.915832 4.017780
-0.499412 -1.926355 4.514381
-0.501190 -1.933202 5.109373
-0.545978 -2.105937 6.055283
-0.547626 -2.112275 6.772280
-0.486665 -1.877129 7.331743
-0.483463 -1.864762 8.297596
-0.615162 -1.718688 1.935008
-0.603717 -1.686699 2.890006
-0.613159 -1.713069 3.470638
-0.695159 -1.942150 4.294477
-0.732229 -2.045711 4.748373
-0.671097 -1.874905 5.564006
-0.642541 -1.795114 6.395444
-0.655065 -1.830090 7.232159
-0.615119 -1.718486 7.633524
-0.613438 -1.713774 8.704765
-0.573118 -1.601124 9.435453
-0.802900 -1.719047 0.217490
-0.859818 -1.840903 0.838480
-0.748563 -1.602692 1.814417
-0.737766 -1.579568 2.597737
-0.832577 -1.782551 3.179681
-0.941563 -2.015881 3.742618
-0.924026 -1.978324 4.450983
-0.890379 -1.906277 5.314703
-0.726207 -1.554783 5.891473
-0.701472 -1.501816 6.954737
-0.765517 -1.638927 7.319716
-0.772005 -1.652809 8.191930
-0.729271 -1.561309 9.032688
-0.985142 -1.688970 0.774221
-0.929667 -1.593856 1.279051
-0.832241 -1.426820 1.963785
-0.997148 -1.709517 4.228280
-1.114915 -1.911406 5.029636
-1.028184 -1.762709 5.710759
-0.784703 -1.345281 6.568545
-0.706459 -1.211137 7.205271
-0.833303 -1.428587 8.011267
-0.860861 -1.475825 8.773172
-0.708145 -1.214012 9.299512
-0.816104 -1.139763 0.604297
-0.973872 -1.360095 1.352115
-0.913823 -1.276228 1.834375
-1.134609 -1.584554 3.973459
-1.275647 -1.781515 4.698080
-1.142961 -1.596192 6.825192
-0.896962 -1.252639 7.736114
-0.887603 -1.239565 8.444381
-0.859123 -1.199785 9.465511
-0.928492 -1.079869 0.421760
-1.092332 -1.270414 1.418733
-1.024016 -1.190957 1.853466
-1.270609 -1.477735 3.973459
-1.407417 -1.636838 4.645163
-1.202443 -1.398435 6.868320
-0.949856 -1.104673 7.704414
-0.997000 -1.159496 8.463495
-0.889055 -1.033954 9.433954
-1.052978 -1.008000 0.881162
-1.059243 -1.013992 1.772598
-1.026787 -0.982920 2.294240
-0.841911 -0.805939 3.194954
-1.484157 -1.420731 4.620890
-1.406485 -1.346374 5.280915
-1.257015 -1.203281 7.235057
-1.035383 -0.991117 8.385309
-0.931257 -0.891440 8.848026
-1.036031 -0.832077 0.711310
-1.150501 -0.924009 1.426857
-1.056035 -0.848137 2.019046
-1.659321 -1.332647 3.288085
-1.487715 -1.194819 4.265740
-1.493013 -1.199069 4.889962
-0.704189 -0.565540 7.978972
-1.009064 -0.810384 8.765003
-0.937121 -0.752604 9.312066
-1.065256 -0.697221 0.327299
-1.120836 -0.733595 1.124524
-1.078280 -0.705740 1.723694
-1.373149 -0.898722 3.921943
-1.580078 -1.034152 4.508409
-0.609772 -0.399086 7.649290
-0.876763 -0.573824 8.385191
-0.890955 -0.583110 9.182687
-1.386253 -0.740943 0.124082
-1.285149 -0.686901 0.862011
-1.068028 -0.570849 1.669497
-1.411157 -0.754235 4.003828
-0.468274 -0.250279 6.791633
-0.580650 -0.310339 7.797529
-0.835679 -0.446642 8.285886
-0.945050 -0.505095 9.108676
-1.060091 -0.442930 2.341132
-0.695111 -0.290432 3.074646
-0.371443 -0.155192 6.785192
-0.434936 -0.181719 7.519135
-0.783011 -0.327146 8.411654
-0.907636 -0.379213 8.965906
-1.069637 -0.338780 0.164347
-1.008433 -0.319393 0.891197
-1.039941 -0.329370 1.772157
-1.369163 -0.433631 4.109981
-0.329512 -0.104358 6.887953
-0.601502 -0.190497 7.906181
-0.851038 -0.269524 8.380736
-0.890186 -0.281920 9.175115
-1.307501 -0.281608 1.057266
-1.107570 -0.238545 1.605386
-1.394240 -0.300278 4.023733
-0.367708 -0.079191 6.779931
-0.448826 -0.096660 7.460056
-0.679028 -0.146235 8.190168
-0.760045 -0.163681 8.965969
-0.964875 -0.116503 0.135917
-1.058277 -0.127778 1.172028
-1.034863 -0.124949 1.803719
-1.357965 -0.163953 3.952627
-0.341287 -0.041203 6.878074
-0.557206 -0.067269 7.582422
-0.747323 -0.090219 8.331195
-0.809344 -0.097705 9.216032
-0.922438 -0.034087 0.320823
-0.986677 -0.036459 1.058059
-0.945381 -0.034931 1.876801
-1.056274 -0.039027 2.463961
-1.286742 -0.047539 3.426600
-1.395785 -0.051565 4.202135
-1.215718 -0.044911 4.576137
-0.850160 -0.031405 5.388327
-0.383622 -0.014170 6.258839
-0.290266 -0.010721 7.257923
-0.586038 -0.021645 7.936551
-0.729119 -0.026928 8.666956
-0.683645 -0.025248 9.208088
-0.945010 0.053118 1.331608
-0.883967 0.049689 2.133828
-0.794480 0.044660 2.982571
-1.107125 0.062237 3.649081
-1.338139 0.075226 4.150424
-0.967388 0.054386 5.162147
-0.433502 0.024372 5.956192
-0.075668 0.004254 6.527600
-0.340932 0.019169 7.257995
-0.735501 0.041355 8.149725
-0.693857 0.039014 8.841209
-0.520256 0.029254 9.670252
-0.901282 0.134405 1.021389
-0.818707 0.122091 1.492253
-1.104701 0.164748 3.726440
-0.300946 0.044883 6.803630
-0.454094 0.067725 7.460056
-0.711457 0.106110 8.297754
-0.596212 0.088923 8.988874
-0.801740 0.196633 0.526443
-0.765921 0.187849 1.103037
-0.746602 0.183112 1.837190
-0.950025 0.233006 2.410915
-1.227821 0.301141 3.176338
-1.352099 0.331626 4.163762
-1.272311 0.312059 4.896872
-0.781096 0.191580 5.415294
-0.280156 0.068715 6.438518
-0.218259 0.053534 6.921215
-0.557930 0.136848 7.764367
-0.680136 0.166823 8.436252
-0.587524 0.144109 9.301617
-0.807680 0.281184 1.549653
-0.693634 0.241481 2.123235
-0.514234 0.179026 2.657520
-0.910102 0.316847 3.703279
-1.283157 0.446726 4.304110
-0.878801 0.305952 4.890144
-0.410046 0.142758 5.956192
-0.110918 0.038616 6.756382
-0.375821 0.130844 7.534428
-0.697804 0.242945 8.159498
-0.658591 0.229294 8.850992
-0.404469 0.140820 9.515748
-0.579092 0.263834 1.029263
-0.668596 0.304613 1.652807
-0.954125 0.434707 3.792409
-0.230480 0.105011 6.802945
-0.449355 0.204735 7.504199
-0.669058 0.304838 8.366180
-0.535212 0.243855 8.930008
-0.388703 0.224081 0.384204
-0.377869 0.217836 1.025134
-0.548814 0.316385 1.628013
-0.525629 0.303021 2.475491
-0.698003 0.402395 3.099631
-0.973856 0.561425 3.794114
-0.931627 0.537083 4.653478
-0.504024 0.290571 5.448975
-0.141988 0.081857 6.307113
-0.214483 0.123651 7.040122
-0.558463 0.321960 7.851829
-0.710186 0.409432 8.614206
-0.529735 0.305400 9.226728
-0.183914 0.128294 0.436158
-0.296008 0.206489 1.017386
-0.485106 0.338401 1.797100
-0.357795 0.249592 2.546637
-0.569337 0.397162 3.257212
-0.937563 0.654035 3.968071
-0.379854 0.264987 7.100564
-0.604645 0.421803 7.923790
-0.582959 0.406677 8.588740
-0.442853 0.308939 9.349877
-0.284689 0.239336 0.148080
-0.405199 0.340650 0.747111
-0.488032 0.410290 1.716214
-0.500033 0.420380 2.423084
-0.405047 0.340526 3.093889
-0.612272 0.514745 3.818948
-0.777717 0.653838 4.385362
-0.426775 0.358797 5.111533
-0.185263 0.155754 6.171189
-0.280495 0.235819 6.863538
-0.465414 0.391286 7.439518
-0.541803 0.455511 8.135710
-0.493599 0.414985 9.155529
-0.616015 0.627157 0.730124
-0.543358 0.553188 1.435769
-0.455190 0.463427 1.951363
-0.347635 0.353926 2.680875
-0.553313 0.563331 3.721382
-0.834518 0.849629 4.373589
-0.677965 0.690244 5.152438
-0.232017 0.236220 5.628546
-0.013636 0.013884 6.496535
-0.283130 0.288261 7.440584
-0.545706 0.555598 8.109357
-0.517619 0.527004 8.809702
-0.376254 0.383077 9.729227
-0.346967 0.422778 0.147364
-0.338590 0.412572 0.933851
-0.399945 0.487335 1.559406
-0.405612 0.494242 2.207547
-0.202952 0.247299 2.992377
-0.377063 0.459459 4.009667
-0.625802 0.762554 4.349608
-0.381937 0.465401 5.415807
-0.156755 0.191011 6.200909
-0.224664 0.273761 6.661446
-0.405128 0.493665 7.463853
-0.476088 0.580136 8.321426
-0.413419 0.503773 9.080802
0.014502 -0.021551 0.419197
-0.048024 0.071368 1.025110
-0.317655 0.472068 1.847440
-0.322925 0.479900 2.428132
-0.248045 0.368623 3.269963
-0.306537 0.455551 4.054502
-0.383976 0.570636 4.773982
-0.174672 0.259585 5.509919
-0.092457 0.137404 6.317042
-0.269924 0.401146 6.943353
-0.429235 0.637908 7.834904
-0.396098 0.588664 8.475377
-0.288751 0.429132 9.460794
-0.203218 0.370229 0.226741
-0.302354 0.550837 0.696029
-0.264740 0.482314 1.434963
-0.267420 0.487198 2.064836
-0.257617 0.469341 2.865779
-0.242994 0.442703 3.641653
-0.283611 0.516704 4.398139
-0.218279 0.397679 5.267031
-0.083900 0.152857 6.070406
-0.201088 0.366361 6.731292
-0.370081 0.674254 7.477490
-0.375778 0.684636 8.119118
-0.088799 0.205656 0.416334
-0.136663 0.316510 1.294745
-0.240770 0.557623 2.091398
-0.224588 0.520148 2.616407
-0.213752 0.495054 3.479443
-0.209130 0.484351 4.086788
-0.220528 0.510752 4.921475
-0.105027 0.243249 5.527332
-0.032873 0.076136 6.567407
-0.168773 0.390892 7.169365
-0.326680 0.756621 7.853464
-0.319045 0.738942 8.659082
-0.212017 0.491056 9.330223
-0.101374 0.308366 0.464613
-0.138443 0.421130 1.251764
-0.188286 0.572750 2.012932
-0.177159 0.538905 2.626226
-0.173538 0.527895 3.388654
-0.174263 0.530105 4.133081
-0.147610 0.449030 4.862727
-0.060060 0.182702 5.548541
-0.035262 0.107269 6.592808
-0.138186 0.420369 7.125095
-0.277153 0.843120 8.023359
-0.270082 0.821617 8.799335
-0.169417 0.515385 9.359703
-0.122404 0.543624 1.601944
-0.124609 0.553423 2.626226
-0.124359 0.552318 3.229239
-0.126560 0.562099 3.842833
-0.125013 0.555235 4.829742
-0.066965 0.297423 5.622493
-0.039424 0.175100 6.396452
-0.118078 0.524446 7.218710
-0.206244 0.916045 7.909764
-0.185889 0.825645 8.401912
-0.133723 0.593952 9.415800
-0.095486 0.724320 0.801612
-0.074446 0.564724 1.286709
-0.070050 0.531389 2.154718
-0.066511 0.504550 2.848092
-0.080849 0.613322 3.768899
-0.078878 0.598382 4.306840
-0.048464 0.367662 5.218628
-0.024933 0.189154 6.016692
-0.054036 0.409944 6.569009
-0.107464 0.815288 7.364694
-0.121498 0.921771 7.983234
-0.113345 0.859931 9.015919
-0.037965 0.288038 9.679084
-0.008416 0.221693 0.128868
-0.017302 0.455774 0.827459
-0.023851 0.628305 1.520199
-0.023934 0.630532 2.463973
-0.020457 0.538948 2.914913
-0.024386 0.642512 3.994331
-0.022354 0.588998 4.398139
-0.010419 0.274528 5.252694
-0.004059 0.106971 6.122524
-0.017128 0.451378 6.775973
-0.031871 0.839919 7.452413
-0.031210 0.822559 8.191598
-0.024896 0.656178 9.100392
0.030532 0.596769 1.914835
0.030115 0.588600 2.585158
0.030440 0.594918 3.543320
0.029957 0.585476 4.159673
0.025898 0.506126 4.928245
0.013067 0.255348 5.792495
0.004599 0.089877 6.319915
0.027878 0.544757 7.258013
0.045921 0.897296 7.725029
0.040350 0.788409 8.487404
0.028967 0.565973 9.353417
0.164200 1.118941 0.811998
0.119028 0.811113 1.287529
0.088949 0.606132 2.179661
0.074807 0.509754 2.926762
0.089378 0.609034 3.739484
0.094905 0.646691 4.509638
0.052399 0.357049 4.968304
0.027228 0.185527 5.996849
0.081204 0.553309 6.806646
0.131244 0.894256 7.388473
0.142056 0.967912 8.196925
0.119938 0.817200 8.850297
0.074061 0.504612 9.820958
0.051863 0.215670 0.118955
0.113931 0.473774 1.063079
0.146441 0.608958 1.461386
0.147534 0.613496 2.463973
0.132492 0.550943 2.942355
0.148794 0.618728 3.697701
0.150527 0.625927 4.630351
0.093163 0.387392 5.234791
0.043845 0.182316 5.996849
0.121016 0.503202 6.987797
0.221514 0.921075 7.714447
0.229375 0.953758 8.319050
0.205850 0.855929 9.168116
0.196890 0.578639 1.687987
0.192404 0.565449 2.693085
0.207862 0.610876 3.271530
0.213731 0.628122 3.952401
0.197340 0.579946 4.963742
0.129550 0.380722 5.597309
0.070887 0.208322 6.338236
0.176474 0.518614 7.012514
0.333932 0.981339 7.888093
0.330047 0.969918 8.503349
0.248663 0.730745 9.446164
0.430667 0.963887 0.804030
0.357399 0.799899 1.451230
0.301297 0.674335 2.191643
0.246398 0.551462 2.781371
0.291806 0.653086 3.482179
0.376912 0.843555 4.248758
0.245386 0.549188 5.065272
0.079292 0.177459 5.883686
0.193543 0.433156 6.761520
0.345712 0.773712 7.237737
0.437939 0.980111 8.164803
0.367758 0.823043 8.738742
0.203804 0.456110 9.686567
0.412610 0.733575 1.794372
0.333789 0.593437 2.460553
0.537777 0.956099 3.269419
0.650483 1.156470 4.035108
0.404610 0.719334 6.021972
0.359344 0.638853 7.047503
0.494217 0.878631 7.640393
0.569844 1.013078 8.541878
0.477028 0.848066 9.227142
0.619821 0.912042 0.657815
0.615269 0.905341 1.277632
0.506940 0.745938 1.986441
0.714482 1.051321 2.652322
0.964904 1.419794 3.692240
0.895437 1.317575 4.159333
0.693093 1.019836 4.887915
0.348367 0.512595 5.694215
0.111032 0.163375 6.638988
0.302168 0.444613 7.218710
0.623479 0.917388 7.983673
0.666034 0.979999 8.843403
0.426661 0.627785 9.397341
0.658028 0.800454 1.677750
0.837960 1.019325 2.629349
0.441405 0.536929 6.851930
0.661008 0.804053 7.673905
0.711412 0.865362 8.255908
0.695411 0.845894 9.298833
0.736170 0.743976 -0.029064
0.672558 0.679686 0.825719
1.181017 1.193519 3.043115
1.360632 1.375031 3.611867
1.194215 1.206848 4.397855
0.933052 0.942918 5.188830
0.531973 0.537596 6.063735
0.413685 0.418056 6.689447
0.620265 0.626817 7.281444
0.831740 0.840521 8.302484
0.630619 0.529358 0.350969
0.721756 0.605857 1.215018
1.083761 0.909729 1.746357
1.325845 1.112934 2.426744
0.624889 0.524529 6.950218
0.780135 0.654839 7.688879
0.898235 0.753968 8.478105
0.943003 0.791542 9.324978
1.140038 0.787118 1.651648
0.860216 0.593918 2.289600
1.708223 1.179397 3.758867
1.445787 0.998202 4.265073
1.225452 0.846073 5.262674
0.775717 0.535567 5.812523
0.609237 0.420624 6.954757
0.833013 0.575120 7.659789
0.993123 0.685658 8.296774
1.050085 0.592451 0.800636
1.394299 0.786651 1.431316
1.445380 0.815467 2.097091
1.703495 0.961088 2.752813
1.878378 1.059751 3.323252
1.659826 0.936444 4.035887
1.111636 0.627156 6.561507
0.785917 0.443392 7.256993
0.974096 0.549555 7.910518
1.167862 0.658868 8.641272
1.206453 0.680637 9.417888
1.414911 0.628961 0.353403
1.566021 0.696129 1.093549
1.455787 0.647124 1.804451
1.206441 0.536282 2.638962
2.012771 0.894699 3.991822
1.735793 0.771574 4.959651
1.482798 0.659113 5.633109
1.032887 0.459122 6.458748
0.819159 0.364118 7.227809
1.081049 0.480526 7.855587
1.340328 0.595772 8.417805
1.403979 0.624061 9.305778
1.345873 0.460602 0.249225
1.387998 0.475015 1.197125
1.550029 0.530464 1.706615
1.775663 0.607679 2.359555
2.233459 0.764344 3.087107
2.398903 0.820958 3.821524
2.219328 0.759498 4.534419
0.972977 0.332964 7.615758
1.263009 0.432214 8.185659
1.513262 0.517849 8.952910
1.484156 0.353037 0.525693
1.827854 0.434788 1.495761
2.230201 0.530479 3.669063
2.525613 0.600743 4.124655
2.299106 0.546863 4.665057
1.276866 0.303704 7.746176
1.664935 0.396001 8.681538
1.580077 0.375816 9.343719
1.802729 0.262419 -0.085289
1.764704 0.256879 0.901471
1.816178 0.264369 1.640021
2.289179 0.333207 3.629034
2.616309 0.380818 4.306753
2.460342 0.358112 4.999100
1.400126 0.203783 7.975319
1.650858 0.240273 8.611452
1.549841 0.225567 9.512822
1.970337 0.101334 0.301938
2.007875 0.103261 0.980471
1.860099 0.095657 1.686171
2.374996 0.122123 3.763671
2.672237 0.137402 4.359072
2.535407 0.130361 5.181168
1.686921 0.086722 8.163548
1.894886 0.097410 8.806134
1.604541 0.082482 9.471107
1.671331 -0.062552 0.247453
1.856253 -0.069476 0.871128
1.928690 -0.072191 1.521949
2.353694 -0.088113 3.785069
2.690991 -0.100747 4.676583
2.532310 -0.094811 5.314922
2.098716 -0.078580 5.913598
1.873151 -0.070139 6.891858
1.872538 -0.070118 7.385130
1.957752 -0.073313 8.110322
2.132129 -0.290792 0.600799
2.061641 -0.281184 1.534178
1.963542 -0.267807 2.039873
2.196256 -0.299552 2.873551
2.520365 -0.343762 3.426432
2.665296 -0.363536 4.272738
2.559583 -0.349121 4.795655
2.362859 -0.322294 5.797624
2.068666 -0.282169 6.274541
2.044540 -0.278883 7.315265
1.983781 -0.270599 7.852009
1.941538 -0.264840 8.539590
1.699943 -0.231888 9.298881
2.169269 -0.489799 0.393427
2.297552 -0.518767 0.774608
2.057766 -0.464630 1.617654
2.028470 -0.458020 2.393018
2.167569 -0.489431 2.939128
2.281710 -0.515208 3.635736
2.390827 -0.539853 4.567815
2.457836 -0.554989 5.222079
2.232649 -0.504143 5.679317
2.142642 -0.483824 6.584596
2.149626 -0.485406 7.373716
2.109691 -0.476393 8.211220
2.018412 -0.455785 8.872751
1.699997 -0.383885 9.495427
1.660917 -0.544688 0.303902
2.028400 -0.665206 0.948753
2.076135 -0.680865 1.623515
2.034925 -0.667356 2.558596
2.109284 -0.691746 3.194280
2.170009 -0.711667 4.039278
2.181785 -0.715532 4.540986
2.155361 -0.706870 5.231912
2.167084 -0.710721 6.075354
2.241848 -0.735245 6.766459
2.157866 -0.707707 7.565030
2.120539 -0.695469 8.283921
1.958740 -0.839593 0.807877
2.180417 -0.934616 1.325015
2.032023 -0.871014 2.101596
2.016114 -0.864198 2.583017
2.053389 -0.880180 3.344137
2.168528 -0.929541 4.248099
2.149339 -0.921318 4.668435
2.214244 -0.949147 5.640256
2.301068 -0.986369 6.323752
2.253570 -0.966015 7.096915
2.169571 -0.930012 7.849141
2.141095 -0.917811 8.577200
1.940556 -0.831850 9.132957
2.063028 -1.120848 0.289333
2.140389 -1.162884 0.987037
1.914287 -1.040045 1.482839
1.899284 -1.031898 2.114032
1.966165 -1.068240 2.824654
2.020527 -1.097782 3.734494
2.089450 -1.135235 4.587091
2.017355 -1.096069 5.246838
2.105206 -1.143805 5.862874
2.277386 -1.237360 6.653100
2.148327 -1.167243 7.185787
2.133502 -1.159195 8.138076
2.031228 -1.103631 8.710862
1.835868 -0.997491 9.623568
1.722252 -1.153959 0.319882
1.876583 -1.257371 0.917239
1.840061 -1.232905 1.725406
1.844043 -1.235577 2.242135
1.912747 -1.281619 3.271455
1.906105 -1.277172 3.687759
1.914912 -1.283078 4.416249
2.075091 -1.390414 5.406281
2.193304 -1.469628 6.097594
2.169861 -1.453926 6.755002
2.072784 -1.388884 7.301490
2.031804 -1.361430 8.104363
1.930317 -1.293433 8.757569
1.664811 -1.115531 9.596604
1.664015 -1.360398 0.431835
1.831661 -1.497461 1.147796
1.748504 -1.429484 2.061115
1.749216 -1.430069 2.455769
1.774380 -1.450648 3.159292
1.797246 -1.469348 3.930703
1.723941 -1.409422 4.588304
1.831851 -1.497653 5.532421
2.010371 -1.643611 6.277708
1.978127 -1.617254 6.853144
1.984143 -1.622181 7.724649
1.900547 -1.553840 8.249767
1.796929 -1.469129 8.947543
1.319255 -1.295535 0.407191
1.613371 -1.584368 1.001452
1.615953 -1.586910 1.722899
1.607363 -1.578480 2.362188
1.615032 -1.586017 3.124164
1.651003 -1.621349 3.865314
1.664017 -1.634134 4.431729
1.794555 -1.762337 5.355932
1.867629 -1.834104 5.824831
1.887645 -1.853770 6.796391
1.790553 -1.758425 7.249814
1.740269 -1.709050 8.076441
1.640881 -1.611450 8.664139
1.493540 -1.466756 9.450387
1.444444 -1.716951 1.799048
1.401710 -1.666160 2.357959
1.422973 -1.691441 3.091218
1.497928 -1.780547 3.977401
1.395196 -1.658437 4.519877
1.543990 -1.835316 5.575031
1.651027 -1.962555 6.101585
1.582533 -1.881142 6.621310
1.612530 -1.916808 7.464742
1.581601 -1.880050 8.150888
1.276373 -1.798308 2.007884
1.312692 -1.849487 2.888094
1.317755 -1.856628 3.519457
1.301744 -1.834074 3.957975
1.210113 -1.704979 4.702216
1.282036 -1.806323 5.537633
1.456304 -2.051867 6.254190
1.459187 -2.055937 6.937322
1.399166 -1.971376 7.532724
1.339076 -1.886718 8.303708
1.358467 -1.914050 9.240485
1.108970 -1.944034 2.137523
1.107969 -1.942287 2.805928
1.115787 -1.956001 3.522009
1.106419 -1.939584 4.035764
1.071230 -1.877909 5.027494
1.137957 -1.994892 5.726057
1.251697 -2.194295 6.444490
1.230510 -2.157160 6.877252
1.244656 -2.181969 7.726436
1.224758 -2.147098 8.630547
1.125362 -1.972855 9.150666
0.671620 -1.448816 0.143069
0.769867 -1.660761 0.786490
0.917637 -1.979544 1.557870
0.910284 -1.963691 2.160950
0.875944 -1.889620 2.771121
0.900542 -1.942695 3.666249
0.932832 -2.012365 4.522733
0.982164 -2.118798 5.173927
1.033054 -2.228593 5.919555
1.055245 -2.276477 6.621072
1.041000 -2.245754 7.208533
1.005669 -2.169545 7.871517
0.969902 -2.092394 8.483788
0.924921 -1.995369 9.552478
0.745401 -2.097933 1.940866
0.721491 -2.030644 2.397213
0.714456 -2.010856 3.079155
0.730588 -2.056278 4.032222
0.707745 -1.991994 4.498200
0.780879 -2.197854 5.480396
0.835105 -2.350483 5.845966
0.818424 -2.303549 6.681922
0.809428 -2.278243 7.298576
0.813621 -2.290060 8.147387
0.793239 -2.232706 8.934905
0.671592 -1.890320 9.789209
0.547441 -2.148664 1.772251
0.539359 -2.116956 2.461123
0.532470 -2.089941 3.323252
0.538492 -2.113592 4.022843
0.491013 -1.927244 4.504950
0.539171 -2.116291 5.340788
0.621023 -2.437587 6.110415
0.595953 -2.339204 6.784706
0.581282 -2.281638 7.595540
0.575424 -2.258657 8.161261
0.331079 -2.100113 1.937114
0.335976 -2.131211 2.765114
0.326839 -2.073268 3.243459
0.338455 -2.146981 3.957186
0.311958 -1.978929 4.800585
0.329778 -2.092000 5.562942
0.377871 -2.397104 6.039875
0.377902 -2.397341 6.975909
0.364440 -2.311962 7.647640
0.355163 -2.253142 8.380961
0.342125 -2.170461 9.260837
0.121482 -1.921829 0.529141
0.141639 -2.240774 1.273689
0.134740 -2.131719 2.106175
0.131191 -2.075628 2.733498
0.131795 -2.085240 3.405698
0.135501 -2.143940 4.169500
0.125381 -1.983880 4.870052
0.133867 -2.118235 5.745499
0.149868 -2.371479 6.183538
0.151111 -2.391250 7.196089
0.141375 -2.237232 7.777912
0.142173 -2.249938 8.586066
0.140246 -2.219498 9.263701
-0.055508 -2.023238 0.405139
-0.059204 -2.157856 0.910526
-0.057070 -2.079945 1.534178
-0.055931 -2.038305 2.159368
-0.056353 -2.053529 3.029360
-0.058255 -2.122678 3.734662
-0.058313 -2.124648 4.391653
-0.055058 -2.005928 5.002054
-0.059701 -2.174898 5.910298
-0.064222 -2.339457 6.537707
-0.060221 -2.193575 7.209176
-0.058506 -2.130908 8.079790
-0.058663 -2.136507 8.735206
-0.052023 -1.894553 9.484345
-0.232954 -1.907920 0.179536
-0.236739 -1.938899 0.679817
-0.254629 -2.085383 1.420269
-0.251121 -2.056615 2.280130
-0.246679 -2.020210 2.803381
-0.243035 -1.990334 3.566385
-0.244303 -2.000685 4.319500
-0.234070 -1.916853 5.003349
-0.258993 -2.120911 5.830033
-0.284546 -2.330146 6.304467
-0.260137 -2.130226 6.974637
-0.247574 -2.027316 7.803273
-0.243313 -1.992388 8.627894
-0.224156 -1.835493 9.314014
-0.372767 -1.733001 0.265724
-0.419118 -1.948465 1.216952
-0.412687 -1.918556 1.681319
-0.409012 -1.901446 2.611191
-0.411877 -1.914746 3.351915
-0.413267 -1.921195 3.895118
-0.428196 -1.990580 4.671302
-0.383844 -1.784378 5.474157
-0.406961 -1.891824 6.273059
-0.462035 -2.147822 6.974083
-0.421915 -1.961311 7.406246
-0.421348 -1.958652 8.189487
-0.411321 -1.912024 9.032886
-0.567862 -1.791014 0.709672
-0.636293 -2.006829 1.523668
-0.592953 -1.870126 2.126297
-0.559672 -1.765152 2.703934
-0.593980 -1.873338 3.665904
-0.624893 -1.970821 4.332118
-0.623260 -1.965662 4.859594
-0.556672 -1.755638 5.733921
-0.551347 -1.738833 6.498890
-0.611491 -1.928503 7.245093
-0.610357 -1.924914 7.927409
-0.595801 -1.878996 8.586777
-0.559333 -1.763975 9.415213
-0.716671 -1.702980 0.265151
-0.797892 -1.895972 0.847286
-0.701696 -1.667380 1.612761
-0.695031 -1.651530 2.575049
-0.779145 -1.851394 3.080862
-0.804799 -1.912342 3.749459
-0.780592 -1.854811 4.492296
-0.809365 -1.923169 5.365539
-0.707011 -1.679954 5.922194
-0.697245 -1.656740 6.759409
-0.736357 -1.749666 7.379925
-0.738714 -1.755255 8.312874
-0.676792 -1.608114 8.915710
-0.820026 -1.532922 2.159093
-0.788407 -1.473810 2.641387
-0.663870 -1.241001 3.366573
-0.822232 -1.537025 4.151120
-1.035984 -1.936591 4.735580
-0.953136 -1.781712 5.588304
-0.838914 -1.568188 6.389660
-0.800938 -1.497191 7.154570
-0.801427 -1.498101 7.641327
-0.785785 -1.468855 8.390208
-0.750589 -1.403055 9.413883
-1.050678 -1.620317 0.812567
-0.981017 -1.512883 1.480029
-0.895170 -1.380486 2.270061
-1.073492 -1.655465 4.382319
-1.186762 -1.830135 4.986369
-1.092192 -1.684275 7.169703
-0.902219 -1.391310 8.030311
-0.871068 -1.343268 8.547156
-0.779056 -1.201372 9.590495
-0.868095 -1.100892 0.613888
-1.037669 -1.315935 1.428249
-0.955542 -1.211782 1.807027
-1.229757 -1.559509 4.284876
-1.362343 -1.727643 4.763702
-1.198245 -1.519525 7.066549
-0.925066 -1.173095 7.756462
-0.965164 -1.223938 8.689144
-0.845965 -1.072777 9.443555
-1.155678 -1.216318 0.656669
-1.125044 -1.184071 1.601815
-1.023582 -1.077282 2.126720
-1.195378 -1.258087 2.818153
-1.413405 -1.487545 3.533013
-1.451060 -1.527170 4.241312
-1.498719 -1.577321 5.121313
-0.974594 -1.025693 7.975319
-0.988162 -1.039967 8.913475
-0.803554 -0.845678 9.662901
-1.081011 -0.944547 2.120164
-1.213023 -1.059890 2.828232
-1.455966 -1.272159 3.602421
-1.507285 -1.316995 4.206392
-1.450101 -1.267025 4.965559
-0.908515 -0.793802 8.185013
-1.027390 -0.897663 8.839384
-0.827557 -0.723061 9.411624
-1.253924 -0.906665 0.229236
-1.246071 -0.900983 1.060821
-1.104637 -0.798715 1.710433
-1.396033 -1.009399 3.749266
-1.602653 -1.158789 4.611974
-1.455297 -1.052241 5.284564
-1.100473 -0.795684 6.169514
-0.563676 -0.407559 6.720095
-0.608688 -0.440102 7.634304
-0.825235 -0.596670 8.259199
-0.905598 -0.654772 9.086581
-1.052642 -0.622576 0.308483
-1.171504 -0.692873 1.008506
-1.094940 -0.647587 1.888583
-1.525722 -0.902362 2.652821
-1.695651 -1.002861 3.207991
-1.485063 -0.878308 3.999113
-1.451851 -0.858661 4.883346
-1.195483 -0.707036 5.434783
-0.756783 -0.447577 6.333685
-0.468662 -0.277175 7.125397
-0.683777 -0.404396 7.716926
-0.946631 -0.559850 8.495574
-0.873553 -0.516628 9.288762
-1.061703 -0.501739 0.434412
-1.167953 -0.551947 1.193469
-1.126188 -0.532208 1.861018
-1.229901 -0.581217 2.500815
-1.208986 -0.571331 3.150401
-1.310942 -0.619508 4.011312
-1.635778 -0.773010 4.856538
-1.314792 -0.621322 5.365879
-0.741089 -0.350209 6.283930
-0.437152 -0.206580 6.943353
-0.618467 -0.292260 7.679300
-0.855258 -0.404155 8.388734
-0.892281 -0.421648 9.379056
-1.085158 -0.395094 0.763134
-1.242193 -0.452267 1.336827
-1.121639 -0.408373 1.825058
-1.476204 -0.537461 2.639389
-1.701802 -0.619593 3.385333
-1.555436 -0.566300 4.258190
-1.339241 -0.487586 4.998160
-0.989891 -0.360394 5.714922
-0.492426 -0.179279 6.477864
-0.353995 -0.128879 7.179093
-0.715238 -0.260395 8.031250
-0.979095 -0.356454 8.786533
-0.956365 -0.348178 9.495457
-1.024053 -0.269404 2.104014
-1.091068 -0.287032 2.750560
-1.445734 -0.380331 3.735073
-1.462057 -0.384623 4.110828
-1.081954 -0.284627 5.150292
-0.817255 -0.214991 5.988593
-0.409906 -0.107832 6.485694
-0.326412 -0.085867 7.238234
-0.688849 -0.181208 8.155269
-0.876186 -0.230487 8.861454
-0.773496 -0.203472 9.647790
-0.999951 -0.166181 2.184551
-0.726991 -0.120816 3.174519
-1.558491 -0.258995 4.461211
-1.153827 -0.191745 5.152758
-0.660330 -0.109733 6.148975
-0.346810 -0.057632 6.784534
-0.452906 -0.075262 7.460056
-0.756061 -0.125637 8.389792
-0.842073 -0.139928 9.164595
-1.047794 -0.077005 0.532817
-1.118005 -0.082163 1.315404
-0.995338 -0.073147 1.912976
-1.212287 -0.089088 2.578939
-1.607691 -0.118141 3.404719
-1.513883 -0.111246 3.945450
-1.129536 -0.083000 4.704972
-0.882859 -0.064872 5.612271
-0.470231 -0.034552 6.324830
-0.365000 -0.026819 7.253085
-0.659615 -0.048464 8.043341
-0.763312 -0.056082 8.813499
-0.713899 -0.052450 9.429589
-1.087363 0.022504 1.064764
-1.004034 0.020781 1.523752
-1.411862 0.029231 3.899111
-0.366389 0.007588 6.996592
-0.516361 0.010695 7.612390
-0.647949 0.013422 8.211093
-0.691508 0.014326 9.237446
-1.257059 0.142284 3.701132
-0.244316 0.027656 6.763324
-0.519394 0.058794 7.641885
-0.701147 0.079369 8.125929
-0.758242 0.157566 0.449083
-1.003382 0.208510 1.416056
-0.799601 0.166164 1.795626
-0.953792 0.198208 2.703923
-1.247495 0.259246 3.544546
-1.349998 0.280550 4.262690
-1.107323 0.230121 5.059728
-0.569173 0.118285 5.770751
-0.218839 0.045479 6.358062
-0.372684 0.077452 7.198833
-0.662878 0.137763 7.998726
-0.744656 0.154760 8.793968
-0.713468 0.148279 9.478471
-0.765166 0.230826 1.405501
-0.732149 0.220867 2.209646
-0.389561 0.117519 2.826379
-1.326122 0.400060 4.515294
-0.882954 0.266368 5.188766
-0.355805 0.107340 6.037504
0.000991 -0.000299 6.664926
-0.221031 0.066682 7.342021
-0.607749 0.183350 8.039005
-0.667959 0.201516 9.058765
-0.383283 0.115633 9.702638
-0.580312 0.234272 0.548994
-0.635921 0.256722 1.008259
-0.669847 0.270420 1.908191
-0.846462 0.341722 2.552144
-1.075166 0.434054 3.400056
-1.120226 0.452247 3.872939
-1.062604 0.428987 4.614748
-0.658213 0.265731 5.459604
-0.226888 0.091599 6.333942
-0.280432 0.113216 7.060284
-0.524860 0.211897 7.725095
-0.641809 0.259114 8.510483
-0.558597 0.225520 9.291808
-0.560139 0.290161 0.813649
-0.669189 0.346653 1.514917
-0.639087 0.331061 2.290948
-0.531044 0.275093 3.018808
-0.777400 0.402714 3.820721
-1.203546 0.623472 4.480063
-0.907789 0.470262 5.006009
-0.336634 0.174387 5.772806
0.015346 -0.007950 6.575143
-0.206776 0.107118 7.351931
-0.598998 0.310305 8.102088
-0.556887 0.288491 8.774775
-0.343761 0.178084 9.653308
-0.293252 0.188237 0.365511
-0.321510 0.206377 0.868654
-0.530541 0.340555 1.559406
-0.460322 0.295482 2.331581
-0.695453 0.446416 3.048736
-1.009317 0.647891 4.020388
-0.225771 0.144927 7.015566
-0.520457 0.334093 7.611343
-0.649729 0.417078 8.522465
-0.426041 0.273488 9.117567
-0.572771 0.445545 0.537691
-0.606546 0.471820 1.250274
-0.489727 0.380950 1.874290
-0.468005 0.364055 2.634219
-0.694656 0.540366 3.623448
-0.914458 0.711350 4.103304
-0.795233 0.618608 4.899347
-0.382162 0.297284 5.796424
-0.066051 0.051381 6.711192
-0.272653 0.212098 7.277755
-0.576793 0.448692 7.894471
-0.549257 0.427273 8.633702
-0.419630 0.326436 9.709572
-0.090239 0.084904 0.407540
-0.170108 0.160051 0.931713
-0.444158 0.417901 1.658566
-0.357632 0.336491 2.612003
-0.534975 0.503354 3.421129
-0.775914 0.730053 3.947371
-0.257218 0.242019 6.927465
-0.489575 0.460647 7.743282
-0.521798 0.490968 8.504714
-0.380302 0.357834 9.281077
-0.646633 0.734371 0.698959
-0.497236 0.564704 1.485613
-0.418258 0.475012 2.099748
-0.338382 0.384299 2.887429
-0.501388 0.569426 3.665374
-0.007211 0.008190 6.590663
-0.230628 0.261929 7.421027
-0.498528 0.566191 8.114881
-0.417626 0.474311 8.794378
-0.229000 0.260084 9.791239
-0.278329 0.380754 0.029534
-0.285775 0.390940 0.954829
-0.328330 0.449158 1.582301
-0.339035 0.463805 2.369235
-0.169816 0.232312 2.905388
-0.275818 0.377326 3.764847
-0.518183 0.708890 4.491343
-0.272256 0.372455 5.145281
-0.066020 0.090318 5.999103
-0.229621 0.314133 6.981982
-0.428826 0.586657 7.639515
-0.432208 0.591286 8.243257
-0.368810 0.504555 9.077127
-0.157433 -0.019009 -0.125677
-0.515666 -0.062264 -0.125677
-0.028163 -0.003401 -0.125677
-0.192997 -0.023303 -0.125677
-0.453816 -0.054796 -0.125677
-0.731436 -0.088317 -0.125677
-0.339932 -0.041045 -0.125677
-0.753928 -0.091033 -0.125677
-0.584884 -0.070622 -0.125677
-0.596933 -0.072076 -0.125677
-0.808428 -0.256049 -0.125677
-0.728717 -0.230802 -0.125677
-0.623412 -0.197450 -0.125677
-0.199517 -0.063192 -0.125677
-0.163348 -0.051736 -0.125677
-0.949766 -0.300814 -0.125677
-1.018519 -0.322590 -0.125677
-0.727343 -0.230367 -0.125677
-0.777584 -0.246280 -0.125677
-1.049702 -0.332466 -0.125677
-1.132644 -0.605391 -0.125677
-0.257481 -0.137622 -0.125677
-0.614663 -0.328534 -0.125677
-1.369634 -0.732061 -0.125677
-1.127159 -0.602459 -0.125677
-0.561837 -0.300299 -0.125677
-1.086057 -0.580491 -0.125677
-0.312280 -0.166912 -0.125677
-1.012699 -0.541281 -0.125677
-0.521535 -0.278757 -0.125677
-0.582821 -0.421416 -0.125677
-0.202508 -0.146426 -0.125677
-0.384179 -0.277785 -0.125677
-0.790813 -0.571807 -0.125677
-0.665036 -0.480863 -0.125677
-1.144448 -0.827508 -0.125677
-0.129785 -0.093843 -0.125677
-0.368701 -0.266594 -0.125677
-0.915474 -0.661945 -0.125677
-0.052784 -0.038166 -0.125677
-0.495589 -0.768559 -0.125677
-0.234195 -0.363189 -0.125677
-0.072112 -0.111831 -0.125677
-0.913349 -1.416421 -0.125677
-0.719946 -1.116493 -0.125677
-0.175876 -0.272748 -0.125677
-0.001742 -0.002702 -0.125677
-0.272982 -0.423341 -0.125677
-0.220395 -0.341789 -0.125677
-0.652450 -1.011819 -0.125677
-0.013576 -0.029066 -0.125677
-0.478263 -1.023985 -0.125677
-0.226070 -0.484027 -0.125677
-0.614157 -1.314941 -0.125677
-0.293546 -0.628497 -0.125677
-0.303060 -0.648866 -0.125677
-0.109090 -0.233568 -0.125677
-0.047581 -0.101873 -0.125677
-0.407816 -0.873154 -0.125677
-0.062676 -0.134193 -0.125677
-0.682030 -1.620665 -0.125677
-0.065023 -0.154510 -0.125677
-0.096938 -0.230347 -0.125677
-0.011924 -0.028333 -0.125677
-0.404876 -0.962080 -0.125677
-0.445753 -1.059215 -0.125677
-0.396365 -0.941856 -0.125677
-0.472496 -1.122764 -0.125677
-0.078794 -0.187233 -0.125677
-0.008524 -0.020254 -0.125677
-0.000545 -0.001720 -0.125677
-0.000274 -0.000865 -0.125677
-0.000068 -0.000214 -0.125677
-0.000586 -0.001849 -0.125677
-0.000822 -0.002596 -0.125677
-0.000930 -0.002938 -0.125677
-0.000717 -0.002266 -0.125677
-0.000259 -0.000819 -0.125677
-0.000412 -0.001300 -0.125677
-0.000761 -0.002404 -0.125677
-0.176123 -0.818802 -0.125677
-0.158498 -0.736861 -0.125677
-0.285483 -1.327218 -0.125677
-0.330560 -1.536783 -0.125677
-0.197848 -0.919800 -0.125677
-0.179459 -0.834309 -0.125677
-0.029410 -0.136727 -0.125677
-0.095609 -0.444490 -0.125677
-0.205387 -0.954851 -0.125677
-0.180360 -0.838500 -0.125677
-0.269264 -1.691994 -0.125677
-0.113650 -0.714152 -0.125677
-0.229437 -1.441733 -0.125677
-0.177999 -1.118509 -0.125677
-0.251681 -1.581507 -0.125677
-0.037111 -0.233194 -0.125677
-0.055680 -0.349881 -0.125677
-0.216521 -1.360568 -0.125677
-0.165486 -1.039879 -0.125677
-0.290148 -1.823226 -0.125677
-0.256305 -1.713226 -0.125677
-0.217063 -1.450920 -0.125677
-0.155037 -1.036318 -0.125677
-0.229393 -1.533339 -0.125677
-0.081178 -0.542624 -0.125677
-0.247696 -1.655680 -0.125677
-0.014432 -0.096471 -0.125677
-0.181615 -1.213974 -0.125677
-0.227106 -1.518048 -0.125677
-0.071693 -0.479220 -0.125677
-0.137708 -0.970699 -0.125677
-0.053644 -0.378138 -0.125677
-0.064644 -0.455676 -0.125677
-0.158686 -1.118573 -0.125677
-0.057933 -0.408372 -0.125677
-0.144772 -1.020498 -0.125677
-0.261323 -1.842063 -0.125677
-0.107875 -0.760406 -0.125677
-0.205923 -1.451548 -0.125677
-0.035215 -0.248230 -0.125677
-0.202549 -1.658896 -0.125677
-0.048126 -0.394155 -0.125677
