-1.045754 -0.143849 1.505711
-1.244839 -0.171234 1.988222
-1.136001 -0.156262 2.570149
-1.206227 -0.165922 3.591161
-1.388314 -0.190969 4.083887
-1.699628 -0.233792 4.724843
-0.735842 -0.101219 7.768229
-1.009788 -0.138901 8.474789
-1.251906 -0.172206 9.003715
-1.333292 -0.183401 9.915927
-1.164771 -0.160220 10.625555
-1.070112 -0.045562 1.280467
-1.269725 -0.054061 2.211041
-1.164690 -0.049589 2.802644
-1.031038 -0.043899 3.257651
-1.276203 -0.054337 4.099451
-1.714080 -0.072981 4.724843
-1.612938 -0.068674 5.371991
-1.186320 -0.050510 6.383910
-0.736683 -0.031366 6.810681
-0.797667 -0.033962 7.564769
-1.092229 -0.046504 8.360302
-1.269921 -0.054070 9.030450
-1.304376 -0.055537 9.782489
-0.990804 -0.042186 10.378178
-1.136376 0.048016 1.645451
-1.065606 0.045026 2.152817
-1.039506 0.043923 2.804318
-1.079499 0.045613 3.715094
-1.388664 0.058676 4.383271
-1.652986 0.069845 4.823801
-1.007448 0.042568 8.019407
-1.284797 0.054288 8.605886
-1.353720 0.057200 9.237296
-1.246352 0.052663 9.936110
-0.582021 0.075756 1.026072
-0.745811 0.097074 1.928061
-1.022213 0.133051 2.362583
-1.018687 0.132592 2.941124
-1.000982 0.130287 3.968949
-1.277239 0.166245 4.560315
-1.687208 0.219606 5.285266
-1.508556 0.196353 5.998189
-0.974037 0.126780 6.760454
-0.632609 0.082340 7.305697
-0.969191 0.126149 8.103181
-1.319839 0.171790 8.774997
-1.295892 0.168673 9.250930
-1.186606 0.154448 10.195965
-0.984213 0.220413 1.570876
-1.039069 0.232698 2.125917
-1.041212 0.233178 3.100331
-1.088586 0.243787 3.801832
-1.050304 0.235214 4.489392
-1.201293 0.269028 5.033079
-1.278759 0.286376 5.816547
-0.856012 0.191703 6.491172
-0.712038 0.159460 7.257100
-0.950971 0.212968 7.770933
-1.227550 0.274908 8.498960
-1.300150 0.291166 9.157277
-1.201489 0.269071 9.882594
-0.703863 0.223763 1.075797
-0.868921 0.276237 1.638704
-0.985486 0.313293 2.407462
-0.988339 0.314200 3.048835
-1.044426 0.332031 3.849504
-0.996186 0.316695 4.256221
-1.089569 0.346382 5.119861
-1.140713 0.362641 5.892073
-0.861556 0.273895 6.626390
-0.747191 0.237538 7.387479
-0.996877 0.316915 7.962726
-1.277794 0.406220 8.715163
-1.308110 0.415858 9.299494
-1.233068 0.392002 10.087595
-0.365583 0.150074 1.270140
-0.657443 0.269884 1.621423
-0.922417 0.378657 2.238593
-0.983484 0.403725 3.317966
-0.940087 0.385911 3.813335
-0.956029 0.392455 4.358179
-1.032941 0.424028 5.270868
-0.841514 0.345446 5.702245
-0.704769 0.289312 6.805658
-0.441712 0.181325 7.273957
-0.783826 0.321765 8.202182
-1.255813 0.515518 8.777389
-1.278267 0.524735 9.421863
-1.095831 0.449845 10.072450
-0.351340 0.182442 1.288439
-0.665170 0.345405 1.882798
-0.895022 0.464761 2.400303
-0.926361 0.481035 3.120624
-0.913896 0.474562 3.711734
-0.972875 0.505188 4.632771
-1.023123 0.531281 5.338461
-0.833919 0.433032 5.873344
-0.646306 0.335609 6.511006
-0.461358 0.239571 7.350710
-0.818585 0.425069 7.983125
-1.288727 0.669202 8.647444
-1.270509 0.659741 9.503620
-1.071860 0.556589 10.231683
-0.431723 0.276231 1.046613
-0.731435 0.467996 1.767482
-0.843025 0.539396 2.292503
-0.885773 0.566747 3.201369
-0.869974 0.556638 3.738662
-0.934131 0.597688 4.722338
-0.946962 0.605898 5.159523
-0.838219 0.536320 6.039779
-0.636097 0.406996 6.646833
-0.430907 0.275709 7.429040
-0.763833 0.488725 8.025044
-1.289827 0.825274 8.749558
-1.226768 0.784927 9.409879
-1.038572 0.664513 10.312004
-0.370730 0.285260 1.203396
-0.649393 0.499678 1.788218
-0.815710 0.627652 2.669691
-0.802857 0.617762 3.060122
-0.820538 0.631366 3.974933
-0.854969 0.657860 4.507319
-0.904584 0.696036 5.423010
-0.735425 0.565876 5.949773
-0.585643 0.450625 6.565350
-0.518497 0.398960 7.607222
-0.781621 0.601422 8.139140
-1.158085 0.891094 8.777962
-1.127940 0.867899 9.563862
-0.948363 0.729722 10.195965
-0.345571 0.315757 1.212526
-0.605621 0.553372 1.806286
-0.762528 0.696743 2.714572
-0.746618 0.682205 3.042160
-0.757971 0.692578 3.903123
-0.808336 0.738599 4.623812
-0.826429 0.755130 5.288773
-0.667271 0.609703 5.814659
-0.532715 0.486756 6.606445
-0.398663 0.364269 7.441838
-0.718718 0.656712 8.295075
-1.072004 0.979518 8.647444
-1.039134 0.949485 9.510634
-0.899861 0.822227 10.267389
-0.463839 0.509344 1.086486
-0.587311 0.644929 1.839642
-0.680359 0.747105 2.427250
-0.718260 0.788725 3.353834
-0.689962 0.757650 3.666848
-0.744952 0.818035 4.704427
-0.786100 0.863220 5.427871
-0.652352 0.716350 6.035293
-0.872037 0.957588 8.138471
-1.006734 1.105499 8.711833
-1.013720 1.113170 9.578096
-0.877452 0.963534 10.368212
-0.315588 0.413407 1.265411
-0.465525 0.609819 2.172418
-0.605918 0.793727 2.599837
-0.542217 0.710282 3.380607
-0.563401 0.738032 3.923902
-0.661358 0.866351 4.587974
-0.726695 0.951940 5.606569
-0.581455 0.761682 6.251325
-0.681539 0.892788 6.824877
-0.809819 1.060829 7.442398
-0.775212 1.015496 8.171247
-0.853059 1.117472 8.955001
-0.785822 1.029393 9.659618
-0.717337 0.939682 10.564248
-0.653850 1.041828 1.488786
-0.583082 0.929068 2.231814
-0.572982 0.912975 2.945638
-0.509452 0.811747 3.519489
-0.677489 1.079494 4.462327
-0.769437 1.226001 4.791319
-0.618132 0.984915 7.012737
-0.540541 0.861284 7.732525
-0.723844 1.153354 8.500458
-0.804991 1.282653 9.249471
-0.738591 1.176852 10.058078
-0.464334 0.739858 10.584184
-0.526745 1.012219 1.143365
-0.511112 0.982178 1.539247
-0.505364 0.971132 2.547179
-0.500199 0.961206 3.008377
-0.538218 1.034266 3.578736
-0.651948 1.252815 4.362192
-0.679213 1.305209 4.950789
-0.634107 1.218530 7.274782
-0.537793 1.033450 8.028629
-0.636101 1.222363 8.562644
-0.659936 1.268165 9.225712
-0.590948 1.135595 10.043063
-0.434697 1.056052 1.170203
-0.425549 1.033828 1.754143
-0.418686 1.017156 2.276604
-0.463307 1.125558 3.095175
-0.587673 1.427692 3.805966
-0.657512 1.597358 4.266290
-0.639950 1.554692 4.999852
-0.555263 1.348954 7.311601
-0.463594 1.126255 8.138761
-0.537272 1.305246 8.591782
-0.548543 1.332630 9.174575
-0.486001 1.180691 9.946662
-0.315041 1.011192 2.036239
-0.377535 1.211782 2.533651
-0.309978 0.994944 3.102678
-0.419249 1.345671 3.731832
-0.566530 1.818403 4.634676
-0.529954 1.701002 5.155094
-0.331542 1.064156 7.927178
-0.441085 1.415758 8.857665
-0.419217 1.345569 9.337005
-0.370962 1.190683 10.190019
-0.221052 1.028518 1.424981
-0.246863 1.148612 1.876606
-0.292025 1.358744 2.470721
-0.328108 1.526630 3.276602
-0.395310 1.839312 3.890501
-0.415458 1.933056 4.784503
-0.341963 1.591094 5.297398
-0.276269 1.285434 5.981184
-0.232457 1.081584 6.987377
-0.181650 0.845185 7.739753
-0.219765 1.022530 8.172021
-0.314842 1.464905 9.101122
-0.296861 1.381245 9.528379
-0.269992 1.256229 10.227126
-0.128837 1.030689 1.075058
-0.149138 1.193102 1.919826
-0.178732 1.429851 2.484667
-0.157792 1.262331 3.395918
-0.197738 1.581894 4.212128
-0.242377 1.939006 4.449517
-0.212478 1.699819 5.355601
-0.190325 1.522595 6.068914
-0.149509 1.196064 6.603120
-0.104055 0.832438 7.517534
-0.129715 1.037718 8.067337
-0.180962 1.447688 8.959455
-0.187346 1.498765 9.769308
-0.178035 1.424275 10.453263
-0.061918 1.538136 2.770699
-0.072772 1.807764 3.481902
-0.080577 2.001673 3.858023
-0.081266 2.018773 4.902727
-0.068420 1.699665 5.583761
-0.059809 1.485754 6.086969
-0.051403 1.276930 6.709092
-0.035049 0.870672 7.434323
-0.040682 1.010596 8.342877
-0.053737 1.334920 8.983795
-0.058185 1.445418 9.730563
-0.058119 1.443777 10.401303
0.065788 1.261586 1.058798
0.070894 1.359493 2.062132
0.080738 1.548277 2.600748
0.065540 1.256829 3.262233
0.116263 2.229521 4.631397
0.107114 2.054079 5.289538
0.057483 1.102323 8.300409
0.067457 1.293593 8.641508
0.083104 1.593649 9.618631
0.085968 1.648557 10.306305
0.224488 1.647299 1.028239
0.221876 1.628136 1.743749
0.215414 1.580712 2.534995
0.228968 1.680173 2.837084
0.273853 2.009540 3.855025
0.290566 2.132186 5.693418
0.224300 1.645921 6.200250
0.171498 1.258462 7.269849
0.134177 0.984598 7.851834
0.157734 1.157460 8.550943
0.205501 1.507974 9.276001
0.220161 1.615549 9.906426
0.365087 1.555890 2.233209
0.392344 1.672052 3.074468
0.396437 1.689496 3.721152
0.470067 2.003287 4.284508
0.504128 2.148442 4.962739
0.441706 1.882420 5.750540
0.379861 1.618856 6.209054
0.371330 1.582496 8.422226
0.341157 1.453907 9.083423
0.512597 1.582123 1.045847
0.518043 1.598930 1.494727
0.499524 1.541773 2.196227
0.663347 2.047410 4.421966
0.690866 2.132348 4.859929
0.563688 1.739813 5.733189
0.493472 1.523094 6.541683
0.524202 1.617942 8.609535
0.487428 1.504438 9.211251
0.666243 1.574322 1.572695
0.647729 1.530574 2.423499
0.854127 2.018289 4.522462
0.915722 2.163838 4.905103
0.801487 1.893902 5.584928
0.710583 1.679097 6.378283
0.733290 1.732753 8.608121
0.663624 1.568135 9.271842
0.656064 1.550270 9.822874
0.902621 1.689274 1.107635
0.914245 1.711028 1.675210
0.794372 1.486685 2.404033
1.034214 1.935553 4.363130
1.153874 2.159501 4.889762
1.116445 2.089451 5.770148
1.007856 1.886225 6.297640
0.902527 1.689099 8.244225
0.838267 1.568835 9.354561
0.861140 1.316547 1.322808
0.934885 1.429292 1.996070
0.930091 1.421962 2.243911
1.262704 1.930475 4.620560
1.419827 2.170693 5.165341
1.356672 2.074138 5.812254
1.212686 1.854006 6.426441
1.034143 1.581041 7.288240
0.762744 1.166116 7.803512
0.827563 1.265214 8.868776
1.023845 1.565297 9.489404
1.024864 1.566856 10.177833
0.961614 1.220585 1.456345
1.111359 1.410658 1.788271
1.135783 1.441660 2.710117
1.416560 1.798052 3.499811
1.527113 1.938379 3.740983
1.536008 1.949669 4.779152
1.647217 2.090828 5.417400
1.579041 2.004292 6.064759
1.093767 1.388329 8.855501
1.169135 1.483994 9.464829
1.139505 1.446384 10.245501
0.998939 1.071969 1.114329
1.184763 1.271378 2.073583
1.240063 1.330721 2.508657
1.559090 1.673071 4.482463
1.777025 1.906939 5.242275
1.707503 1.832334 5.816288
1.498726 1.608294 6.592286
1.255903 1.347719 7.418728
1.234735 1.325003 8.037789
1.267868 1.360558 8.623353
1.288550 1.382753 9.379101
1.204485 1.292542 10.008834
1.051586 0.932122 1.489705
1.343020 1.190448 2.175597
1.414061 1.253418 2.758368
1.740988 1.543205 4.582458
2.000776 1.773480 5.485639
1.924102 1.705517 6.034351
1.659402 1.470888 6.561248
1.459051 1.293297 7.439849
1.414700 1.253984 8.045819
1.411169 1.250855 8.719566
1.396450 1.237808 9.386121
1.301521 1.153663 10.171735
1.277054 0.953363 1.207099
1.482664 1.106858 1.864275
1.530584 1.142631 2.703809
1.540265 1.149859 3.593421
1.382266 1.031907 4.052209
1.650122 1.231870 4.825583
2.053982 1.533365 5.434463
1.944951 1.451970 5.946256
1.696238 1.266298 6.690758
1.528301 1.140927 7.366897
1.596432 1.191789 8.242960
1.555486 1.161222 8.732631
1.561961 1.166055 9.665712
1.330692 0.993406 10.254692
1.539563 0.948146 1.541530
1.725444 1.062621 2.264876
1.625118 1.000835 2.686336
1.642336 1.011439 3.424784
1.610740 0.991980 4.173395
1.860321 1.145686 4.983924
2.125646 1.309087 5.631725
2.027959 1.248926 6.365882
1.783115 1.098138 6.704588
1.698178 1.045829 7.411099
1.690606 1.041166 8.216815
1.702080 1.048232 8.941915
1.709578 1.052850 9.857505
1.453893 0.895385 10.482295
1.755547 0.886091 1.140792
1.936182 0.977264 1.741448
1.802441 0.909760 2.501794
1.723705 0.870019 2.939619
1.766242 0.891489 3.861021
1.786498 0.901713 4.238902
1.878243 0.948020 4.952138
2.032412 1.025835 5.537477
1.969945 0.994306 6.383169
1.900670 0.959340 7.215464
1.945957 0.982198 7.862787
1.891088 0.954504 8.525942
1.841852 0.929652 9.168207
1.566722 0.625463 1.009848
1.824461 0.728357 1.665182
1.868896 0.746096 2.414717
1.853191 0.739827 3.091922
1.836775 0.733273 3.640159
1.926448 0.769072 4.406224
1.964085 0.784097 5.021595
1.901335 0.759046 5.676252
2.032381 0.811362 6.666670
2.099658 0.838220 7.231029
2.079082 0.830006 7.995206
1.990783 0.794755 8.714682
1.935994 0.772883 9.331628
1.827812 0.729695 9.898416
1.601070 0.478244 1.265917
1.852660 0.553395 1.999626
1.949495 0.582320 2.693297
1.968099 0.587877 3.420186
1.971099 0.588773 3.886816
2.009801 0.600333 4.571306
2.062601 0.616104 5.255834
1.927191 0.575657 5.898530
2.003971 0.598592 6.569188
2.148546 0.641776 7.262531
2.161894 0.645763 8.165627
2.074719 0.619724 8.699408
1.987630 0.593710 9.296867
1.918669 0.573112 10.338254
1.705485 0.346879 1.113683
1.944725 0.395538 2.013942
1.975859 0.401871 2.466965
1.983008 0.403325 3.370623
2.006343 0.408071 4.011656
2.060368 0.419059 4.606045
2.095243 0.426152 5.009025
1.936861 0.393939 5.706829
1.999415 0.406662 6.443777
2.220122 0.451551 7.139098
2.241101 0.455818 8.084100
2.185419 0.444493 8.746768
2.166037 0.440551 9.492449
1.989233 0.404591 10.012949
1.716427 0.192050 1.413340
1.959815 0.219282 1.804712
1.998536 0.223615 2.397299
2.038516 0.228088 3.394093
2.046509 0.228982 3.904208
2.084539 0.233237 4.571306
2.122378 0.237471 5.151762
2.107797 0.235840 5.941130
2.230126 0.249527 6.808578
2.343068 0.262164 7.317754
2.334115 0.261162 8.123442
2.223421 0.248777 8.865884
2.125564 0.237828 9.249846
2.004548 0.224287 10.055268
2.017289 0.057553 1.732242
1.970258 0.056211 2.189943
1.989936 0.056773 2.767224
2.113108 0.060287 3.730207
2.127769 0.060705 4.434087
2.103875 0.060023 4.792053
2.020454 0.057643 5.528307
2.064865 0.058910 6.185680
2.328113 0.066421 7.079506
2.261497 0.064520 7.567791
2.291061 0.065364 8.497926
2.258698 0.064440 9.036919
2.139791 0.061048 9.607877
1.918348 0.054730 10.645756
2.006859 -0.126723 1.592914
1.987345 -0.125490 2.118525
2.032829 -0.128362 3.000098
2.077931 -0.131210 3.672296
2.051280 -0.129528 4.267115
2.116096 -0.133620 5.056314
2.018764 -0.127474 5.537013
2.162077 -0.136524 6.436366
2.333242 -0.147332 6.887679
2.249700 -0.142057 7.533224
2.208467 -0.139453 8.296894
2.213960 -0.139800 8.983225
1.796293 -0.272892 1.154901
2.015348 -0.306171 1.643879
1.942348 -0.295081 2.094015
1.978839 -0.300624 2.889206
2.069484 -0.314395 3.767865
2.082406 -0.316358 4.454904
2.099173 -0.318905 4.913585
2.034795 -0.309125 5.737135
2.037280 -0.309503 6.159595
2.323777 -0.353027 7.174318
2.260793 -0.343459 7.561983
2.258041 -0.343040 8.370622
2.188112 -0.332417 8.872616
2.234737 -0.339500 9.912194
1.905286 -0.289450 10.430187
1.575210 -0.374766 1.762728
1.919290 -0.456628 2.216102
1.880747 -0.447458 2.965811
1.956973 -0.465593 3.715720
2.028203 -0.482540 4.298557
2.084078 -0.495834 5.035046
2.008362 -0.477820 5.771916
2.065023 -0.491300 6.472329
2.270897 -0.540281 6.987861
2.232682 -0.531189 7.596513
2.208647 -0.525470 8.318804
2.226443 -0.529704 9.047330
2.191120 -0.521300 9.886268
1.884145 -0.448266 10.378808
1.919244 -0.642565 2.230055
1.830705 -0.612922 2.649325
1.830790 -0.612951 3.442246
1.849498 -0.619214 4.041585
1.918102 -0.642183 4.750986
1.834814 -0.614298 5.615221
1.927587 -0.645359 6.146932
2.202716 -0.737472 6.936127
2.116444 -0.708588 7.328668
2.110264 -0.706519 8.145916
2.183648 -0.731088 9.005948
2.148073 -0.719178 9.674038
1.979869 -0.662863 10.358610
1.846485 -0.811224 2.125579
1.777001 -0.780697 2.771538
1.768469 -0.776949 3.450977
1.808379 -0.794482 4.038452
1.858385 -0.816452 4.963663
1.728148 -0.759234 5.488448
1.873412 -0.823054 6.216542
2.064098 -0.906828 6.616695
2.097375 -0.921448 7.579249
2.039392 -0.895974 8.053229
2.108289 -0.926243 9.005948
2.036168 -0.894558 9.450687
1.884598 -0.827968 10.185793
1.776569 -0.973459 2.256171
1.693711 -0.928058 2.658056
1.695635 -0.929112 3.468438
1.742959 -0.955043 4.134340
1.773903 -0.971999 4.750986
1.648821 -0.903460 5.444729
1.727988 -0.946840 6.349070
1.959639 -1.073771 6.883028
2.001798 -1.096872 7.544714
1.945783 -1.066179 8.119962
2.017334 -1.105385 8.997318
1.931119 -1.058144 9.551567
1.860177 -1.019272 10.540075
1.094584 -0.727774 1.092776
1.597398 -1.062088 1.737660
1.667206 -1.108502 2.275357
1.633315 -1.085968 2.998396
1.638018 -1.089095 3.765107
1.630983 -1.084418 4.297824
1.675398 -1.113949 5.011053
1.660288 -1.103902 5.802706
1.724232 -1.146418 6.591624
1.888246 -1.255468 7.147737
1.862745 -1.238513 7.885367
1.839845 -1.223287 8.575795
1.846424 -1.227662 9.161369
1.161421 -0.935746 1.148875
1.550611 -1.249313 1.698740
1.563454 -1.259661 2.353752
1.522303 -1.226506 2.928609
1.510823 -1.217256 3.529542
1.592884 -1.283372 4.561012
1.585048 -1.277059 5.159047
1.473167 -1.186917 5.658829
1.575237 -1.269154 6.483553
1.710809 -1.378384 6.945592
1.721920 -1.387335 7.781557
1.759874 -1.417914 8.571393
1.777669 -1.432252 9.207960
1.425567 -1.370646 1.900619
1.437952 -1.382554 2.512460
1.430062 -1.374968 2.969915
1.458210 -1.402032 3.811500
1.412706 -1.358281 4.306547
1.456658 -1.400540 5.223990
1.451040 -1.395138 5.907238
1.475880 -1.419022 6.478577
1.615575 -1.553334 7.144594
1.615588 -1.553347 7.902661
1.589293 -1.528065 8.558484
1.566678 -1.506322 9.099009
1.306697 -1.482440 2.592894
1.306369 -1.482068 3.146646
1.283190 -1.455772 3.963044
1.318752 -1.496117 4.897809
1.282388 -1.454862 5.344909
1.388356 -1.575081 5.963088
1.533926 -1.740230 6.684119
1.482732 -1.682151 7.262531
1.476244 -1.674790 8.273274
1.398664 -1.586777 8.610562
1.386834 -1.573355 9.375064
1.314367 -1.491141 10.045348
1.045596 -1.420509 1.658029
1.195568 -1.624256 2.125579
1.144016 -1.554219 2.640594
1.145772 -1.556604 3.221393
1.147183 -1.558522 3.919399
1.182250 -1.606163 4.897809
1.126507 -1.530432 5.414329
1.249154 -1.697056 6.267768
1.354189 -1.839752 6.637491
1.323070 -1.797475 7.328668
1.328459 -1.804796 8.206454
1.257813 -1.708820 8.729968
1.256982 -1.707690 9.453204
1.228497 -1.668992 10.229264
0.912725 -1.509321 1.658029
1.026086 -1.696779 1.987793
0.995697 -1.646527 2.570739
1.011436 -1.672554 3.430849
1.007562 -1.666147 4.015407
1.039997 -1.719783 4.833065
1.001485 -1.656098 5.471281
1.040045 -1.719864 6.160370
1.149774 -1.901315 6.704797
1.155973 -1.911567 7.337316
1.158769 -1.916190 8.299217
1.139295 -1.883986 9.016009
1.146066 -1.895183 9.765192
1.085750 -1.795443 10.470618
0.790291 -1.605773 1.674281
0.890070 -1.808511 2.108163
0.867187 -1.762016 3.024563
0.856310 -1.739915 3.520813
0.868667 -1.765023 4.172433
0.878859 -1.785732 4.702385
0.890417 -1.809215 5.645806
0.912163 -1.853401 6.185680
1.016829 -2.066069 7.076339
1.022614 -2.077824 7.682800
0.909697 -1.848390 8.104990
0.873045 -1.773917 8.863478
0.890103 -1.808577 9.626610
0.821207 -1.668590 10.384441
0.664502 -1.740255 1.635385
0.727118 -1.904239 2.071712
0.698508 -1.829313 2.963504
0.691076 -1.809851 3.503356
0.677660 -1.774715 4.039112
0.710352 -1.860333 5.041073
0.727084 -1.904151 5.767669
0.688301 -1.802582 6.139654
0.759615 -1.989346 6.987653
0.786215 -2.059008 7.645823
0.733863 -1.921904 8.393350
0.727405 -1.904991 9.175116
0.720880 -1.887904 9.729639
0.611887 -1.602464 10.343856
0.494373 -1.734958 1.453881
0.552000 -1.937195 2.440842
0.527173 -1.850066 2.861033
0.519200 -1.822085 3.791359
0.514442 -1.805387 4.255345
0.532259 -1.867914 4.887930
0.565733 -1.985390 5.771916
0.498695 -1.750126 6.360762
0.517163 -1.814936 7.050023
0.567694 -1.992272 7.521550
0.560289 -1.966286 8.443220
0.540531 -1.896944 8.939935
0.363622 -1.864021 1.843897
0.380390 -1.949977 2.407886
0.371560 -1.904716 3.044373
0.355462 -1.822190 3.680555
0.364618 -1.869126 4.269533
0.380577 -1.950938 4.854237
0.396473 -2.032425 5.806691
0.361829 -1.854832 6.455989
0.361481 -1.853049 7.169090
0.396186 -2.030956 7.936293
0.389674 -1.997574 8.697606
0.371370 -1.903740 9.099871
0.193872 -1.912351 2.843567
0.187496 -1.849458 3.476516
0.191145 -1.885455 4.199618
0.193273 -1.906449 4.882970
0.204996 -2.022083 5.445730
0.221407 -2.183963 6.196509
0.186983 -1.844400 6.654693
0.177213 -1.748025 7.382955
0.197423 -1.947378 8.307802
0.193842 -1.912058 8.944665
0.194187 -1.915457 9.672941
0.179990 -1.775423 10.476647
0.023753 -1.729653 2.648248
0.023703 -1.726033 3.410911
0.025842 -1.881734 4.290324
0.029438 -2.143609 4.715241
0.031917 -2.324155 5.520242
0.029829 -2.172108 6.209963
0.024363 -1.774093 6.762757
0.022983 -1.673553 7.466931
0.025393 -1.849064 8.289181
0.024767 -1.803453 8.892704
-0.111883 -1.641529 3.108017
-0.113945 -1.671793 3.638900
-0.102882 -1.509466 4.168748
-0.175615 -2.576594 5.686943
-0.158259 -2.321950 6.090191
-0.132172 -1.939212 7.074198
-0.119781 -1.757410 7.622525
-0.123948 -1.818552 8.286672
-0.128599 -1.886781 9.293434
-0.285113 -1.790311 1.637930
-0.271154 -1.702659 2.577956
-0.265931 -1.669864 3.059250
-0.339909 -2.134397 5.307849
-0.369393 -2.319533 5.658165
-0.343950 -2.159771 7.787511
-0.282673 -1.774991 8.583738
-0.286740 -1.800531 9.417684
-0.268037 -1.683089 10.144099
-0.388127 -1.549563 1.304144
-0.422378 -1.686307 2.082366
-0.409609 -1.635329 2.722732
-0.396236 -1.581936 3.216181
-0.446079 -1.780931 3.931552
-0.536419 -2.141604 4.458359
-0.588559 -2.349770 5.352659
-0.560370 -2.237228 5.844040
-0.414217 -1.653725 8.910577
-0.438762 -1.751718 9.623004
-0.376401 -1.502746 10.066824
-0.472164 -1.357700 1.639290
-0.582492 -1.674945 2.229931
-0.554242 -1.593714 2.740327
-0.694803 -1.997893 4.861509
-0.763292 -2.194833 5.369399
-0.704742 -2.026473 6.071264
-0.636174 -1.829306 8.024918
-0.554845 -1.595447 9.133058
-0.531966 -1.529659 9.698002
-0.436454 -1.255015 10.448299
-0.718421 -1.593315 2.222879
-0.661966 -1.468108 3.004610
-0.837358 -1.857092 4.846728
-0.962287 -2.134161 5.615076
-0.848224 -1.881192 6.041862
-0.792635 -1.757906 8.492666
-0.643861 -1.427955 9.158282
-0.746628 -1.324677 2.843577
-0.905746 -1.606988 3.575523
-1.058525 -1.878050 4.447976
-1.015728 -1.802120 5.207223
-0.941747 -1.670862 5.663217
-0.536796 -0.952391 8.560916
-0.718106 -1.274074 9.340931
-0.726449 -1.288876 10.010854
-0.907783 -1.340931 1.223798
-0.923900 -1.364738 1.831835
-0.860875 -1.271640 2.726508
-0.823658 -1.216665 3.357530
-0.717681 -1.060122 3.701538
-0.971342 -1.434816 4.668514
-1.115670 -1.648010 5.345388
-0.870401 -1.285711 5.891947
-0.737315 -1.089123 8.218584
-0.627355 -0.926696 8.659429
-0.794375 -1.173410 9.363621
-0.777872 -1.149033 10.136513
-0.849160 -1.041125 1.207529
-0.938925 -1.151183 2.045385
-0.935844 -1.147406 2.668729
-1.211983 -1.485970 4.891704
-0.713073 -0.874274 8.887164
-0.914342 -1.121043 9.817529
-0.880740 -1.079845 10.486324
-0.857033 -0.877318 1.408484
-1.075708 -1.101169 2.104108
-1.006498 -1.030321 3.065127
-1.320343 -1.351594 3.747652
-1.495129 -1.530517 4.141119
-1.381643 -1.414345 4.784503
-0.593810 -0.607864 7.676588
-0.665801 -0.681560 8.616737
-0.829508 -0.849141 9.101765
-1.171626 -1.001174 2.130620
-1.069944 -0.914285 2.692621
-1.356557 -1.159200 3.484595
-1.582299 -1.352100 4.272489
-1.509134 -1.289579 4.836805
-0.649218 -0.554767 7.694638
-0.673332 -0.575373 8.355541
-0.943531 -0.806262 9.202149
-0.980405 -0.837771 9.729068
-0.818972 -0.699825 10.726874
-1.258401 -0.904077 2.254323
-1.078726 -0.774992 2.645439
-1.310979 -0.941850 3.538716
-1.409539 -1.012660 4.327786
-1.408170 -1.011676 4.847861
-0.733259 -0.526797 7.902049
-0.757570 -0.544263 8.439477
-0.967571 -0.695135 9.023634
-1.049326 -0.621189 2.843011
-1.212199 -0.717608 3.498370
-1.509784 -0.893775 4.280566
-1.572009 -0.930612 5.120905
-1.342159 -0.794543 5.790347
-1.072994 -0.635200 7.942434
-0.836675 -0.495302 8.592436
-1.001533 -0.592896 9.204584
-1.096888 -0.649345 10.025245
-1.229821 -0.586880 1.037789
-1.184239 -0.565128 1.636686
-1.132299 -0.540342 2.337559
-1.114213 -0.531711 3.012544
-1.011833 -0.482855 3.628924
-1.337423 -0.638228 4.316814
-1.647448 -0.786175 5.112146
-1.303770 -0.622169 5.856669
-0.910377 -0.434439 6.512013
-0.695503 -0.331900 7.210243
-0.816572 -0.389674 8.226203
-0.994566 -0.474615 8.692679
-1.065230 -0.508336 9.354399
-1.160868 -0.553975 10.314787
-1.007013 -0.376432 1.379079
-1.052279 -0.393353 1.852612
-1.190835 -0.445147 2.560384
-1.531168 -0.572367 4.511911
-1.651025 -0.617171 5.194160
-1.356160 -0.506947 5.874395
-0.918035 -0.343171 6.873395
-0.639177 -0.238931 7.505399
-0.783187 -0.292764 8.051776
-1.068237 -0.399318 8.739972
-1.220484 -0.456230 9.686327
-1.106334 -0.413559 10.230205
-0.882308 -0.241153 1.106163
-0.858506 -0.234647 1.703049
-1.147576 -0.313656 2.476923
-1.578002 -0.431300 4.520723
-1.750408 -0.478422 5.356736
-0.887978 -0.242702 8.289263
-1.111927 -0.303912 8.688829
-1.218910 -0.333153 9.552716
-1.162334 -0.317690 10.222754
-0.679054 -0.128100 1.149970
-0.815250 -0.153793 1.968869
-1.080618 -0.203853 2.609886
-1.103292 -0.208130 3.158301
-0.830919 -0.156748 4.071138
-0.484703 -0.091437 7.461833
-0.794393 -0.149858 8.355846
-1.248658 -0.235553 8.934715
-1.309129 -0.246960 9.697005
-1.247724 -0.235376 10.427914
-0.743496 -0.071926 1.837531
-1.096710 -0.106095 2.303475
-1.119254 -0.108276 3.176203
-1.096157 -0.106042 3.676460
-1.364767 -0.132027 4.431029
-0.643512 -0.062253 7.227710
-0.944437 -0.091365 7.986250
-1.320029 -0.127699 8.757207
-1.360621 -0.131626 9.638341
-1.120563 -0.108403 10.051348
-0.639804 -0.005077 1.115367
-0.819847 -0.006506 1.797252
-1.085236 -0.008611 2.421737
-1.105979 -0.008776 2.979231
-1.096257 -0.008699 3.631672
-1.380375 -0.010953 4.312234
-1.730606 -0.013733 4.992195
-1.498570 -0.011891 5.874350
-0.973035 -0.007721 6.715501
-0.735218 -0.005834 7.512509
-1.010757 -0.008020 8.237976
-1.273502 -0.010105 8.656815
-1.358710 -0.010782 9.341910
-1.152402 -0.009144 10.052971
-0.420852 0.034827 1.324049
-0.583046 0.048249 2.065593
-1.036552 0.085778 2.488233
-1.099962 0.091025 3.467752
-0.883391 0.073104 3.992919
-1.109653 0.091827 4.575563
-0.588840 0.048728 7.440063
-0.853063 0.070594 8.133016
-1.251872 0.103596 8.785568
-1.433715 0.118645 9.790937
-1.185432 0.098098 10.257008
-0.490614 0.083053 1.330211
-0.651195 0.110237 2.070035
-1.033010 0.174872 2.586933
-1.021906 0.172993 3.302527
-0.839934 0.142187 3.914703
-1.148963 0.194501 4.933433
-1.388773 0.235097 5.196693
-1.040010 0.176057 6.223737
-0.754750 0.127767 6.946468
-0.909885 0.154029 7.659642
-1.135680 0.192253 8.183693
-1.336661 0.226276 9.054918
-1.413175 0.239228 9.773206
-1.186618 0.200876 10.301663
-0.434219 0.113209 1.359604
-0.660008 0.172076 2.014058
-1.024323 0.267060 2.721486
-1.018989 0.265669 3.464032
-1.052799 0.274484 4.196048
-1.137370 0.296534 4.831429
-1.179765 0.307587 5.584502
-0.914136 0.238332 6.179342
-0.990302 0.258190 6.958101
-1.124477 0.293172 7.359592
-1.161434 0.302807 8.067340
-1.351296 0.352308 9.014906
-1.281460 0.334100 9.670320
-1.095914 0.285725 10.491415
-0.420079 0.151475 1.304792
-0.663569 0.239273 1.985353
-1.008374 0.363605 2.576008
-0.977548 0.352490 3.329450
-1.016008 0.366358 4.133316
-1.100764 0.396920 4.795679
-1.109072 0.399915 5.343380
-0.907059 0.327072 6.147760
-0.982272 0.354193 6.813230
-1.179621 0.425354 7.648630
-1.147816 0.413886 8.147686
-1.367863 0.493232 8.941735
-1.313804 0.473739 9.562039
-1.099471 0.396453 10.440440
-0.330959 0.153142 1.115414
-0.663812 0.307160 2.001978
-0.991042 0.458576 2.511342
-1.008352 0.466586 3.295039
-0.961727 0.445011 3.753778
-1.020790 0.472341 4.656133
-1.035856 0.479312 5.423010
-0.830440 0.384262 5.877724
-0.658170 0.304549 6.624565
-0.670931 0.310454 7.416463
-0.977281 0.452208 8.192889
-1.271350 0.588280 8.841911
-1.308040 0.605257 9.712836
-1.061746 0.491292 10.361371
-0.510651 0.289349 1.026072
-0.851620 0.482551 1.950977
-0.912776 0.517204 2.604876
-0.895171 0.507228 2.959078
-0.913973 0.517882 3.891209
-0.953748 0.540420 4.450178
-1.015673 0.575508 5.271881
-0.910006 0.515634 6.039737
-0.667075 0.377983 6.447108
-0.371902 0.210730 7.160481
-0.658314 0.373019 8.042348
-1.207026 0.683934 8.598166
-1.208915 0.685004 9.448502
-0.959468 0.543661 10.146630
-1.214860 0.840011 1.415442
-0.929400 0.642631 2.346474
-0.862172 0.596146 2.894044
-0.834744 0.577181 3.577055
-0.864594 0.597821 4.301079
-0.889778 0.615234 4.881867
-0.872796 0.603492 5.842477
-0.712830 0.492885 6.437055
-0.677690 0.468587 6.981392
-0.902691 0.624163 7.638018
-1.166781 0.806768 8.618397
-1.096751 0.758345 9.253007
-1.003880 0.694130 9.846902
-0.873594 0.604044 10.841080
-0.940635 0.784070 1.363868
-0.817918 0.681779 2.125917
-0.794081 0.661910 3.012935
-0.771422 0.643022 3.478252
-0.819299 0.682930 4.417671
-0.819160 0.682814 4.948315
-0.808990 0.674337 5.797632
-0.694019 0.578502 6.364439
-0.628502 0.523890 6.954292
-0.900153 0.750327 7.951199
-1.071768 0.893377 8.330709
-1.068085 0.890307 9.179279
-1.038402 0.865564 10.021023
-0.782372 0.652150 10.626932
-0.319846 0.317422 1.405277
-0.458965 0.455486 1.833976
-0.736814 0.731229 2.461311
-0.739527 0.733921 3.356371
-0.740406 0.734793 3.828406
-0.792090 0.786085 4.593470
-0.854657 0.848178 5.495232
-0.670373 0.665291 5.900346
-0.722857 0.717378 6.687564
-0.705091 0.699746 7.520270
-0.753910 0.748195 8.339567
-1.044246 1.036331 9.003744
-1.040015 1.032131 9.705679
-0.800498 0.794430 10.227209
-0.574495 0.676146 1.648958
-0.709755 0.835339 2.565097
-0.667778 0.785935 2.986007
-0.648075 0.762745 3.678600
-0.699716 0.823524 4.333691
-0.750327 0.883090 5.218240
-0.671932 0.790823 5.994870
-0.498730 0.586976 6.465203
-0.295924 0.348285 7.297533
-0.957414 1.126819 8.649870
-0.939610 1.105864 9.210027
-0.802806 0.944854 9.996908
-0.393478 0.562674 1.013927
-0.454157 0.649445 1.753402
-0.646538 0.924550 2.652657
-0.610509 0.873028 3.082398
-0.592466 0.847228 3.747638
-0.640242 0.915547 4.602423
-0.743994 1.063913 5.451972
-0.643654 0.920426 5.905354
-0.455692 0.651640 6.591818
-0.301512 0.431163 7.607728
-0.806215 1.152889 8.574036
-0.844587 1.207760 9.558612
-0.774142 1.107024 10.353076
-0.433538 0.747470 1.089794
-0.450417 0.776571 1.847267
-0.564594 0.973427 2.616857
-0.551692 0.951181 3.178611
-0.679338 1.171259 4.107890
-0.737646 1.271788 4.417550
-0.697879 1.203225 5.245031
-0.629276 1.084946 5.927802
-0.450865 0.777345 6.599355
-0.337333 0.581602 7.345718
-0.534682 0.921855 8.148063
-0.719134 1.239871 8.576533
-0.751458 1.295602 9.551552
-0.635804 1.096200 10.086063
-0.398980 0.859908 1.330327
-0.408316 0.880030 1.798119
-0.484414 1.044041 2.623813
-0.479238 1.032886 3.319384
-0.606529 1.307232 3.997894
-0.738070 1.590737 4.638592
-0.650451 1.401897 5.102361
-0.602361 1.298248 6.060720
-0.469608 1.012131 6.789069
-0.310448 0.669098 7.293329
-0.425473 0.917009 7.923706
-0.605854 1.305778 8.888558
-0.621997 1.340570 9.394070
-0.580955 1.252113 10.363272
-0.332137 0.916453 1.374279
-0.370528 1.022385 2.088462
-0.431995 1.191988 2.515828
-0.364137 1.004749 3.118263
-0.503608 1.389587 4.092258
-0.624464 1.723060 4.484252
-0.564044 1.556346 5.157264
-0.512813 1.414985 5.909741
-0.370806 1.023152 6.654716
-0.275443 0.760020 7.495962
-0.385134 1.062685 8.303233
-0.497866 1.373744 8.873105
-0.516729 1.425791 9.526806
-0.434601 1.199180 10.112795
-0.357519 1.375142 2.548666
-0.408160 1.569926 3.377367
-0.488467 1.878816 4.166940
-0.477858 1.838008 4.769387
-0.365014 1.403973 5.453852
-0.302497 1.163512 6.195849
-0.263206 1.012383 6.822202
-0.204439 0.786345 7.514034
-0.266690 1.025783 8.330599
-0.359771 1.383805 8.853093
-0.373384 1.436164 9.680817
-0.313499 1.205828 10.435514
-0.177849 1.057649 1.316327
-0.194237 1.155101 1.814044
-0.239635 1.425080 2.537850
-0.244811 1.455859 3.177912
-0.295511 1.757369 3.902546
-0.327520 1.947722 4.597785
-0.293943 1.748039 5.255588
-0.267038 1.588043 6.200862
-0.201571 1.198715 6.777744
-0.134062 0.797249 7.382043
-0.179024 1.064636 8.306535
-0.251228 1.494022 9.067840
-0.236538 1.406663 9.485884
-0.224290 1.333824 10.440672
-0.107252 1.257221 1.630277
-0.123386 1.446341 2.287850
-0.103282 1.210683 3.329687
-0.185763 2.177534 4.479160
-0.158454 1.857412 5.195726
-0.091518 1.072784 8.088277
-0.110105 1.290662 8.641508
-0.131348 1.539670 9.624045
-0.128177 1.502500 10.186433
0.004400 1.223818 1.346021
0.004987 1.386844 2.069432
0.006827 1.898582 4.030373
0.007262 2.019556 4.555844
0.006483 1.802990 5.286623
0.006042 1.680225 6.032509
0.004624 1.286089 6.623923
0.003251 0.904124 7.578567
0.003784 1.052398 8.094251
0.005193 1.444328 8.906286
0.005360 1.490669 9.438333
0.005376 1.495235 10.229328
1.958505 -0.122226 2.027291
1.788718 -0.111630 3.022866
1.849580 -0.115429 3.764829
1.848172 -0.115341 4.879382
1.868098 -0.116584 5.453566
1.933746 -0.120681 6.252100
2.129460 -0.132895 7.017452
2.028460 -0.126592 8.001591
1.993409 -0.124405 8.937375
2.050809 -0.127987 9.398743
1.882308 -0.117471 10.019659
1.400110 -0.087378 10.628856
1.901025 -0.274293 2.060589
1.790996 -0.258417 2.979468
1.795624 -0.259085 3.868876
1.888814 -0.272531 4.714882
1.782462 -0.257186 5.267445
1.821024 -0.262750 6.317279
2.115280 -0.305207 7.193824
2.046052 -0.295219 7.964484
2.057710 -0.296901 8.566936
2.052652 -0.296171 9.304059
1.900096 -0.274159 10.114949
1.483480 -0.214047 10.661990
1.701574 -0.385372 2.872702
1.758581 -0.398283 3.755898
1.802310 -0.408187 4.509087
1.747215 -0.395709 5.216223
1.752691 -0.396949 6.285731
1.991546 -0.451045 6.973584
2.031848 -0.460172 7.694211
2.016737 -0.456750 8.392253
1.919375 -0.434699 9.075453
1.821477 -0.412528 9.980590
1.568959 -0.355337 10.768737
1.812731 -0.569502 1.732513
1.739511 -0.546498 2.417875
1.696992 -0.533140 3.538110
1.696510 -0.532989 4.406302
1.678258 -0.527255 5.234458
1.792374 -0.563106 5.761013
1.940654 -0.609691 6.543178
1.954098 -0.613915 7.529222
1.932283 -0.607061 8.136735
1.857632 -0.583608 9.053037
1.851311 -0.581622 9.859815
1.701691 -0.534617 10.314512
1.635062 -0.661824 2.301038
1.577853 -0.638668 3.388905
1.683439 -0.681406 4.007701
1.664396 -0.673698 4.889274
1.662182 -0.672802 5.867515
1.851577 -0.749463 6.401425
1.896731 -0.767740 7.243099
1.852981 -0.750031 8.139525
1.866897 -0.755664 8.859762
1.793925 -0.726127 9.751522
1.696366 -0.862106 2.165588
1.628690 -0.827712 2.936095
1.575388 -0.800624 4.068543
1.712512 -0.870311 4.602866
1.595005 -0.810593 5.465215
1.647961 -0.837506 6.555003
1.863104 -0.946843 7.273264
1.794579 -0.912018 8.188454
1.792187 -0.910802 8.759582
1.794284 -0.911868 9.354434
1.596492 -0.811349 10.422855
1.219100 -0.619555 11.028290
1.580669 -0.976013 2.207730
1.590234 -0.981919 2.832095
1.582360 -0.977057 3.747501
1.581451 -0.976495 4.629628
1.415214 -0.873850 5.530393
1.486093 -0.917615 6.280214
1.698001 -1.048461 7.238761
1.701487 -1.050614 8.030153
1.745889 -1.078031 8.461124
1.673931 -1.033599 9.201419
1.574843 -0.972415 9.932808
1.280101 -0.790422 10.788487
1.384261 -1.021224 2.933589
1.440500 -1.062714 3.790620
1.544167 -1.139194 4.309977
1.445674 -1.066531 5.121543
1.441394 -1.063374 6.217834
1.658760 -1.223734 6.997473
1.640999 -1.210630 7.664649
1.581232 -1.166538 8.504746
1.539353 -1.135642 9.343338
1.531063 -1.129526 9.790147
1.297803 -0.957441 10.742543
1.271847 -1.114923 1.463268
1.292731 -1.133230 2.669815
1.322628 -1.159439 3.590239
1.310219 -1.148560 4.432708
1.333095 -1.168614 5.113644
1.484518 -1.301354 5.790948
1.559162 -1.366788 6.768818
1.508639 -1.322499 7.692959
1.493811 -1.309501 8.300582
1.446577 -1.268094 9.165393
1.423457 -1.247827 9.842065
1.307395 -1.146085 10.432038
1.505398 -1.537413 1.843461
1.255333 -1.282031 2.293378
1.259850 -1.286644 3.136809
1.255915 -1.282625 4.137789
1.301868 -1.329555 4.775965
1.315575 -1.343554 5.590084
1.373367 -1.402574 6.700151
1.420794 -1.451010 7.497091
1.420456 -1.450665 8.010208
1.368664 -1.397772 9.009845
1.379458 -1.408795 9.561489
1.227589 -1.253696 10.336401
1.145487 -1.379756 2.231554
1.178145 -1.419093 2.892745
1.140338 -1.373554 3.946994
1.183076 -1.425032 4.724483
1.039483 -1.252073 5.643778
1.130673 -1.361913 6.466456
1.324687 -1.595605 7.333484
1.292433 -1.556755 8.145353
1.289002 -1.552623 8.725097
1.258381 -1.515739 9.570122
1.152289 -1.387949 10.344731
0.825041 -0.993774 10.692595
0.868564 -1.237905 1.130456
1.026530 -1.463042 2.054530
1.095753 -1.561701 2.736884
1.077332 -1.535447 3.634710
1.028048 -1.465206 4.751532
0.975389 -1.390155 5.503151
1.039583 -1.481647 6.242338
1.181212 -1.683500 7.014691
1.186558 -1.691120 7.763049
1.141123 -1.626364 8.409797
1.096001 -1.562055 9.117073
1.037347 -1.478459 10.184295
0.838833 -1.195531 10.745805
0.892068 -1.533792 2.732949
0.914530 -1.572412 3.364196
0.854873 -1.469839 4.476590
0.907579 -1.560460 5.095505
0.940465 -1.617004 5.786991
0.986913 -1.696866 6.700151
0.994725 -1.710296 7.400494
0.910411 -1.565330 8.506113
0.941644 -1.619031 9.163926
0.930195 -1.599346 9.663666
0.763241 -1.312291 10.386460
0.778673 -1.636671 2.443899
0.718353 -1.509885 3.537231
0.755117 -1.587160 4.094613
0.735039 -1.544957 5.141356
0.704110 -1.479950 5.943897
0.752234 -1.581100 6.714872
0.847100 -1.780495 7.426389
0.797685 -1.676631 8.306691
0.801883 -1.685454 9.072230
0.757397 -1.591950 9.997557
0.646626 -1.359125 10.465285
0.603553 -1.592754 2.774988
0.611439 -1.613566 3.397914
0.607167 -1.602293 4.216375
0.647911 -1.709814 5.026104
0.588400 -1.552765 6.131328
0.616868 -1.627894 6.843346
0.678121 -1.789538 7.651050
0.654352 -1.726812 8.350019
0.635118 -1.676053 9.183480
0.607517 -1.603215 9.844992
0.505059 -1.332832 10.334937
0.371916 -1.298551 1.867169
0.477263 -1.666375 2.635016
0.461295 -1.610621 3.458585
0.378189 -1.320455 4.578541
0.523003 -1.826076 6.118082
0.491938 -1.717613 6.958941
0.501464 -1.750873 7.710594
0.472282 -1.648982 8.475292
0.477187 -1.666108 9.478938
0.462079 -1.613359 10.045275
0.311434 -1.087378 10.749286
0.356911 -1.761162 2.222873
0.331327 -1.634916 3.064218
0.313287 -1.545902 4.078325
0.383068 -1.890229 4.886311
0.413336 -2.039587 5.701497
0.341316 -1.684207 6.555161
0.310424 -1.531771 7.309910
0.329691 -1.626846 8.269951
0.341102 -1.683151 8.695066
0.327918 -1.618097 9.508127
0.281642 -1.389749 10.378852
0.189918 -1.588538 2.631224
0.186608 -1.560851 3.448975
0.223381 -1.868428 4.413805
0.249972 -2.090848 5.624100
0.243462 -2.036394 6.135702
0.188926 -1.580235 6.820583
0.173860 -1.454223 7.490038
0.193067 -1.614874 8.528483
0.197684 -1.653493 9.057392
0.184439 -1.542706 9.752058
0.129091 -1.079759 10.542621
0.060686 -1.595391 2.055351
0.059612 -1.567151 2.842252
0.058490 -1.537665 3.965163
0.076232 -2.004075 4.893321
0.083597 -2.197698 5.908631
0.074822 -1.967020 6.411624
0.054082 -1.421770 6.962639
0.046617 -1.225532 8.038353
0.060931 -1.601846 8.633246
0.059413 -1.561938 9.436577
-0.066589 -1.318431 1.560897
-0.078283 -1.549959 2.550346
-0.072058 -1.426704 3.404122
-0.076622 -1.517086 4.166056
-0.097982 -1.940004 5.237303
-0.105371 -2.086292 6.269241
-0.083561 -1.654467 8.066649
-0.079975 -1.583474 8.830764
-0.072711 -1.439650 9.948868
-0.060479 -1.197446 10.324343
-0.196998 -1.544632 2.603560
-0.208601 -1.635609 3.598255
-0.260171 -2.039965 4.669723
-0.284045 -2.227157 5.517578
-0.253233 -1.985566 6.299444
-0.203500 -1.595615 6.759443
-0.090653 -0.710796 7.594409
-0.181577 -1.423719 9.438867
-0.177140 -1.388933 9.896092
-0.122462 -0.960208 10.824547
-0.325052 -1.500810 2.328354
-0.306378 -1.414591 2.875149
-0.267887 -1.236874 3.694595
-0.439685 -2.030087 6.049625
-0.289320 -1.335831 9.398104
-0.252353 -1.165148 10.214063
-0.403931 -1.327908 2.554887
-0.442068 -1.453282 3.308077
-0.525256 -1.726759 4.708130
-0.603988 -1.985590 5.233539
-0.545827 -1.794388 6.110840
-0.333844 -1.097501 8.047618
-0.262177 -0.861898 9.176928
-0.361572 -1.188655 9.648423
-0.280822 -0.923192 10.678273
-0.413213 -1.046715 1.885719
-0.488677 -1.237872 2.695685
-0.423961 -1.073941 3.421000
-0.677526 -1.716249 5.454541
-0.250197 -0.633776 7.528502
-0.444046 -1.124818 9.165018
-0.644416 -1.315002 2.174883
-0.530513 -1.082572 2.942344
-0.575338 -1.174040 6.446628
-0.339565 -0.692921 8.006183
-0.374192 -0.763580 8.682008
-0.532133 -1.085877 9.422286
-0.470165 -0.959424 10.503171
-0.611142 -1.026740 1.410998
-0.684869 -1.150603 2.215274
-0.579126 -0.972951 3.199274
-0.945841 -1.589046 5.042740
-0.669537 -1.124845 5.572587
-0.503202 -0.845397 6.305561
-0.435512 -0.731675 7.779303
-0.427355 -0.717970 8.632038
-0.547856 -0.920416 9.478329
-0.529321 -0.889278 10.397462
-0.698427 -0.974286 1.402153
-0.705008 -0.983466 2.461586
-0.696309 -0.971331 2.968873
-1.103015 -1.538675 4.912835
-0.750963 -1.047572 5.721087
-0.514056 -0.717093 6.479080
-0.413203 -0.576406 7.944144
-0.463590 -0.646695 8.698367
-0.633048 -0.883084 9.398442
-0.575210 -0.802401 10.535803
-0.694417 -0.822623 2.860703
-0.652200 -0.772612 3.589899
-1.065728 -1.262487 5.565267
-0.740824 -0.877598 6.276253
-0.350409 -0.415103 6.577896
-0.227727 -0.269771 7.398653
-0.496128 -0.587725 8.467464
-0.580066 -0.687160 9.445369
-0.615903 -0.729614 10.118741
-0.375374 -0.444677 10.702137
-0.561037 -0.559610 1.457513
-0.745599 -0.743702 2.449200
-0.785134 -0.783137 3.190284
-1.189646 -1.186620 5.314617
-0.844165 -0.842017 6.039050
-0.544058 -0.542674 6.514625
-0.253885 -0.253239 6.974565
-0.375521 -0.374566 7.940002
-0.656463 -0.654794 8.801071
-0.670887 -0.669181 9.593125
-0.563692 -0.562258 10.624705
-0.724419 -0.614170 2.841500
-0.518556 -0.439637 3.548449
-1.124510 -0.953371 5.547356
-0.832541 -0.705837 6.115154
-0.358281 -0.303754 6.751951
-0.255266 -0.216418 7.682894
-0.652154 -0.552902 8.542638
-0.760605 -0.644849 9.205437
-0.724810 -0.614501 10.145473
-0.437697 -0.371084 10.590186
-0.816604 -0.584482 2.304635
-0.765295 -0.547758 3.278940
-1.100113 -0.787403 4.334405
-1.323496 -0.947289 5.074976
-1.004408 -0.718902 5.810827
-0.504572 -0.361146 6.579872
-0.254010 -0.181807 7.253197
-0.494587 -0.353999 8.384706
-0.844986 -0.604796 9.250774
-0.846389 -0.605801 9.776055
-0.592490 -0.424073 10.411887
-0.748732 -0.450897 2.966209
-0.838377 -0.504882 3.749848
-1.232191 -0.742043 4.620587
-1.240928 -0.747304 5.712737
-0.839091 -0.505312 6.053043
-0.249086 -0.150003 6.839994
-0.311264 -0.187448 7.670617
-0.759283 -0.457251 8.633675
-0.861626 -0.518883 9.290380
-0.779674 -0.469530 10.083521
-0.338617 -0.203920 10.766464
-0.819935 -0.407037 2.257677
-0.676087 -0.335627 3.136116
-1.401125 -0.695554 5.267155
-1.013087 -0.502922 5.982141
-0.575356 -0.285622 6.226545
-0.245543 -0.121894 7.000964
-0.941901 -0.467584 8.938699
-0.863823 -0.428824 9.918446
-0.676029 -0.335598 10.406906
-0.717681 -0.281002 2.750236
-0.841724 -0.329570 3.377049
-1.461915 -0.572400 5.249668
-0.959135 -0.375541 5.884008
-0.377390 -0.147764 6.608000
-0.410301 -0.160650 7.670159
-0.846281 -0.331354 8.647888
-0.946427 -0.370565 9.366347
-0.852184 -0.333665 9.909699
-0.510026 -0.199696 10.595371
-0.754534 -0.231435 1.974774
-0.751012 -0.230355 2.849165
-1.532792 -0.470146 4.911463
-1.239144 -0.380077 5.868033
-0.758721 -0.232719 6.153624
-0.248483 -0.076216 7.055551
-1.028746 -0.315543 8.943795
-0.970589 -0.297704 9.504483
-0.736894 -0.226024 10.464652
-0.879542 -0.189211 2.428293
-0.819202 -0.176230 3.198693
-1.423631 -0.306258 5.115316
-0.905842 -0.194869 5.794372
-0.403523 -0.086808 6.580823
-0.584449 -0.125729 7.450311
-0.960971 -0.206728 8.542676
-1.107635 -0.238279 9.038818
-0.935130 -0.201169 9.962989
-0.611916 -0.131638 10.745642
-0.515895 -0.063465 1.777009
-0.812642 -0.099971 2.561916
-0.674636 -0.082993 3.405237
-1.169859 -0.143916 5.570526
-0.721034 -0.088701 5.939058
-0.262209 -0.032257 6.842655
-1.073711 -0.132088 8.443358
-1.005347 -0.123677 9.384135
-0.889690 -0.109449 10.163839
-0.482181 -0.059318 10.669041
-0.512417 -0.023110 1.922746
-0.787650 -0.035523 2.705447
-0.643318 -0.029014 3.718877
-0.859074 -0.038744 4.690393
-0.978463 -0.044129 5.537518
-0.672917 -0.030349 6.118651
-0.283379 -0.012780 6.964586
-1.087944 -0.049066 8.881668
-1.038721 -0.046846 9.509165
-0.794698 -0.035841 10.312382
-0.327344 0.012572 1.147499
-0.640398 0.024596 2.070981
-0.743048 0.028538 2.956710
-0.724372 0.027821 3.788958
-0.939833 0.036096 4.608241
-1.006611 0.038661 5.448521
-0.636707 0.024454 6.244537
-0.516339 0.019831 7.160795
-0.892938 0.034295 7.817857
-1.112684 0.042735 8.766354
-1.033256 0.039684 9.406680
-0.803317 0.030853 10.111289
-0.889580 0.106787 2.239234
-0.675845 0.081130 3.190088
-0.758657 0.091071 3.975283
-0.915545 0.109904 4.978774
-0.769004 0.092313 5.865519
-0.519252 0.062332 6.280105
-0.706413 0.084799 7.306852
-1.097916 0.131796 8.336890
-1.080811 0.129743 9.131363
-0.952137 0.114297 9.807132
-0.705920 0.084740 10.685000
-0.565716 0.116212 1.833156
-0.791485 0.162590 2.588762
-0.571950 0.117492 3.737817
-0.738163 0.151636 4.614643
-0.992681 0.203921 5.264372
-0.709088 0.145664 6.035878
-0.367956 0.075587 6.716769
-1.247003 0.256164 8.504654
-1.109033 0.227822 9.425702
-0.876578 0.180070 10.172765
-0.411413 0.084514 10.770151
-0.869013 0.250526 2.284444
-0.715390 0.206238 3.163014
-0.697307 0.201025 3.860269
-0.794746 0.229115 4.947567
-0.803587 0.231664 5.747436
-0.545469 0.157252 6.214813
-0.690269 0.198996 7.279926
-1.031255 0.297298 8.254777
-1.032168 0.297561 8.952673
-0.957549 0.276049 9.740381
-0.740617 0.213511 10.464652
-0.874767 0.333093 2.339090
-0.767660 0.292309 3.171878
-0.663594 0.252683 4.278935
-0.814993 0.310332 5.051335
-0.731778 0.278645 5.750798
-0.418578 0.159386 6.454078
-1.120657 0.426722 8.265035
-1.049767 0.399729 9.212187
-0.895176 0.340864 10.100922
-0.636482 0.242359 10.551612
-0.656519 0.312597 1.864347
-0.794106 0.378108 2.544799
-0.701302 0.333920 3.431294
-0.712372 0.339191 4.356536
-0.806951 0.384224 5.393117
-0.665565 0.316904 5.903174
-0.382730 0.182234 6.729839
-0.702744 0.334606 7.657174
-1.070180 0.509558 8.670609
-1.020681 0.485989 9.434564
-0.820720 0.390780 10.239393
-0.447405 0.213029 10.772177
-0.647469 0.378887 1.874051
-0.708396 0.414540 2.759650
-0.653199 0.382240 3.556512
-0.658253 0.385197 4.587751
-0.863295 0.505184 5.142276
-0.595323 0.348372 6.152590
-0.344816 0.201780 6.917475
-0.671989 0.393235 7.761640
-1.014056 0.593407 8.371198
-0.953031 0.557696 9.438685
-0.873489 0.511150 9.936087
-0.480189 0.280998 10.873429
-0.740638 0.523409 2.410444
-0.598826 0.423191 3.404802
-0.615759 0.435157 4.153341
-0.721063 0.509576 5.261918
-0.721562 0.509928 5.937152
-0.476895 0.337022 6.618247
-0.655460 0.463214 7.663135
-0.956707 0.676105 8.500583
-0.968219 0.684241 9.031196
-0.830373 0.586825 9.909405
-0.506692 0.358079 10.615859
-0.519352 0.433920 1.662913
-0.706392 0.590192 2.644121
-0.583256 0.487311 3.404605
-0.663544 0.554392 3.991070
-0.782786 0.654019 5.001089
-0.776208 0.648523 5.858994
-0.568152 0.474692 6.709563
-0.465478 0.388908 7.212840
-0.710114 0.593301 8.117518
-0.921177 0.769645 9.209228
-0.850420 0.710528 9.824987
-0.596308 0.498216 10.585032
-0.544406 0.537472 1.583890
-0.771791 0.761961 2.306533
-0.642790 0.634603 3.028963
-0.700527 0.691605 3.953535
-0.802114 0.791898 5.075577
-0.788530 0.778487 5.713716
-0.582885 0.575461 6.519168
-0.401624 0.396509 7.076854
-0.581621 0.574214 8.252561
-0.881142 0.869919 9.023628
-0.791392 0.781313 9.944686
-0.604361 0.596664 10.293692
-0.769897 0.887348 2.219315
-0.486124 0.560285 3.100268
-0.942091 1.085811 4.933690
-0.889414 1.025098 5.925094
-0.716125 0.825373 6.288905
-0.359088 0.413868 7.139987
-0.518898 0.598058 8.029806
-0.793874 0.914983 8.907383
-0.782415 0.901775 9.501872
-0.562750 0.771714 2.096544
-0.623497 0.855018 2.771243
-0.765272 1.049437 3.676852
-0.749402 1.027675 4.720908
-0.705065 0.966874 5.430312
-0.707323 0.969970 6.099247
-0.440349 0.603862 6.971248
-0.500221 0.685966 7.683995
-0.691958 0.948900 8.603334
-0.737381 1.011189 9.467138
-0.610863 0.837693 10.233385
-0.351834 0.482479 10.603029
-0.401703 0.655447 1.638562
-0.605127 0.987367 2.522927
-0.720248 1.175206 3.465518
-0.830738 1.355490 4.339345
-0.771200 1.258344 5.296499
-0.639823 1.043979 6.106360
-0.474404 0.774070 6.572941
-0.334205 0.545312 7.489443
-0.499510 0.815036 8.096448
-0.635436 1.036822 9.258339
-0.610682 0.996431 9.771935
-0.491320 0.801671 10.674458
-0.579718 1.151494 2.204797
-0.618630 1.228785 3.262781
-0.744466 1.478732 4.303755
-0.796109 1.581311 5.688837
-0.657921 1.306829 6.358239
-0.358873 0.712829 6.975154
-0.370991 0.736899 7.782361
-0.527765 1.048300 8.843985
-0.542452 1.077471 9.705695
-0.408274 1.020903 2.010744
-0.354787 0.887156 2.895206
-0.581034 1.452894 4.869236
-0.559853 1.399931 5.442189
-0.508026 1.270335 6.416424
-0.413660 1.034372 6.859607
-0.260333 0.650972 7.657250
-0.273238 0.683242 8.619875
-0.433360 1.083632 9.377336
-0.429639 1.074328 10.271853
-0.320590 0.801647 10.680882
-0.311461 0.984881 1.657005
-0.384235 1.215000 2.836731
-0.513214 1.622848 3.528723
-0.543453 1.718469 4.639180
-0.485728 1.535935 5.205030
-0.404436 1.278880 6.064347
-0.318601 1.007457 6.691105
-0.200753 0.634806 7.591410
-0.256979 0.812602 8.438936
-0.384603 1.216166 8.966920
-0.400791 1.267354 9.728502
-0.318610 1.007486 10.419257
-0.259499 1.173115 1.582626
-0.323059 1.460449 2.229334
-0.358261 1.619585 3.432189
-0.426954 1.930125 4.223445
-0.391438 1.769567 5.232733
-0.364319 1.646970 6.044187
-0.283567 1.281916 6.610135
