1.222386 -1.411586 2.719834
1.253117 -1.447981 3.691412
1.190086 -1.375875 4.526388
1.191649 -1.378639 5.617700
1.214593 -1.405895 6.411817
1.215640 -1.407957 7.370982
1.251051 -1.449758 8.230153
1.170295 -1.357016 9.253941
1.083454 -1.513328 1.606690
1.092458 -1.526796 2.472875
1.119154 -1.565193 3.502518
1.169264 -1.636037 4.188349
1.200551 -1.680902 5.148522
1.204128 -1.687042 6.153891
1.180548 -1.654972 7.041919
1.140461 -1.599724 7.954840
1.088257 -1.527197 8.674896
0.804285 -1.129383 9.737898
0.858893 -1.446418 0.309535
0.956236 -1.611432 1.231805
0.942820 -1.589594 1.900031
0.952908 -1.607587 2.743212
0.981086 -1.656408 3.808161
0.938193 -1.585044 4.736976
0.979794 -1.656400 5.628067
1.064048 -1.799925 6.448316
1.007344 -1.704877 7.182399
0.983804 -1.666231 8.202093
0.901555 -1.527801 9.049622
0.802433 -1.682303 1.676834
0.806692 -1.692274 2.426128
0.830275 -1.742953 3.267089
0.871189 -1.830480 4.351420
0.886024 -1.862834 5.125251
0.877613 -1.846660 6.134179
0.868068 -1.828056 7.139177
0.852826 -1.797119 7.950269
0.830672 -1.751515 8.735007
0.636504 -1.343164 9.839427
0.697492 -1.841719 1.065680
0.676549 -1.788357 2.189794
0.690035 -1.825178 2.855096
0.705226 -1.866983 3.754901
0.627196 -1.662082 4.827217
0.649425 -1.722529 5.758088
0.745243 -1.978331 6.599443
0.729300 -1.937214 7.263062
0.742645 -1.974877 8.446061
0.694930 -1.849374 9.275380
0.536744 -1.916221 2.244244
0.537104 -1.919521 3.098234
0.536498 -1.919485 4.001908
0.526276 -1.884893 4.866002
0.544911 -1.953975 5.839628
0.563626 -2.023158 6.673032
0.552581 -1.985490 7.504293
0.542357 -1.950842 8.402416
0.502067 -1.808015 9.407091
0.376264 -1.996676 0.248797
0.391267 -2.078592 0.876005
0.354529 -1.886526 1.814989
0.356521 -1.899625 2.563372
0.349603 -1.865804 3.492876
0.336423 -1.798246 4.383394
0.372656 -1.995793 5.472064
0.411450 -2.206846 6.294728
0.395412 -2.123556 7.044798
0.387232 -2.082911 7.962275
0.380350 -2.049774 9.069206
0.208717 -2.219209 1.395621
0.190221 -2.027987 2.183409
0.192961 -2.064171 3.162615
0.197833 -2.121422 3.860149
0.189950 -2.043577 4.819784
0.187865 -2.027301 5.708191
0.198331 -2.147757 6.711745
0.191629 -2.080864 7.523222
0.193505 -2.109090 8.613676
0.178660 -1.953300 9.559730
0.011523 -2.156356 1.467747
0.010548 -2.104692 2.506413
0.010184 -2.125608 3.193775
0.009435 -2.116158 4.236703
0.009147 -2.181350 5.063932
0.008858 -2.285406 6.052322
0.008100 -2.213608 6.750342
0.007307 -2.172090 7.700306
0.006455 -2.098141 8.641883
0.005229 -1.892790 9.710093
-0.141378 -1.825659 0.051078
-0.168379 -2.164563 1.130337
-0.161860 -2.073050 2.029660
-0.161402 -2.061328 2.718803
-0.166782 -2.122699 3.555920
-0.154557 -1.959791 4.487329
-0.160759 -2.029925 5.518640
-0.176224 -2.219197 6.167250
-0.174830 -2.193225 7.133521
-0.171387 -2.142856 7.992522
-0.167417 -2.085282 8.982626
-0.361617 -2.098058 2.493327
-0.368321 -2.133333 3.377668
-0.361425 -2.089803 4.283186
-0.384747 -2.221394 5.043485
-0.394639 -2.274973 5.860218
-0.379273 -2.182759 6.761937
-0.371738 -2.135800 7.677092
-0.364183 -2.088789 8.625296
-0.334079 -1.912161 9.809618
-0.549446 -2.102985 2.397566
-0.549111 -2.099716 3.120402
-0.556252 -2.123814 4.275685
-0.571030 -2.178113 5.020317
-0.584462 -2.226532 5.990944
-0.565502 -2.152467 6.665293
-0.554235 -2.106733 7.735121
-0.553585 -2.101551 8.759653
-0.491008 -1.862099 9.629013
-0.639676 -1.770992 0.401578
-0.756084 -2.091516 1.233342
-0.746901 -2.064860 1.838141
-0.752856 -2.078917 2.989209
-0.765204 -2.111414 3.744605
-0.683020 -1.883085 4.601260
-0.689566 -1.899273 5.591737
-0.766007 -2.108316 6.283141
-0.764162 -2.101062 7.342208
-0.728248 -2.000779 8.152830
-0.729149 -2.001093 9.278435
-0.927331 -2.008525 1.628368
-0.917498 -1.985552 2.629644
-0.937617 -2.027936 3.302205
-0.930442 -2.010859 4.226810
-0.946676 -2.044562 5.031901
-1.002559 -2.163410 6.038205
-0.984726 -2.123140 7.062472
-0.926435 -1.996424 7.719052
-0.926750 -1.995405 8.766212
-0.748817 -1.611269 9.650219
-1.067766 -1.846588 0.410852
-1.151504 -1.990168 1.242738
-1.149161 -1.984563 2.297955
-1.141117 -1.969365 3.194141
-1.124497 -1.939562 3.978600
-1.047041 -1.804769 4.898394
-1.088292 -1.874694 5.749668
-1.128193 -1.942391 6.472234
-1.088277 -1.872267 7.521799
-1.070817 -1.841057 8.417967
-1.017028 -1.747571 9.253133
-1.328111 -1.894350 1.659245
-1.277236 -1.820858 2.406345
-1.296636 -1.847033 3.580273
-1.325168 -1.886656 4.369824
-1.188343 -1.690755 5.361010
-1.200710 -1.707525 6.080554
-1.332484 -1.893821 6.912145
-1.290403 -1.832775 7.939316
-1.264287 -1.794742 8.743014
-0.925232 -1.312733 9.688579
-1.283649 -1.512711 0.493902
-1.488106 -1.752789 1.242738
-1.478467 -1.740447 2.112764
-1.470230 -1.729625 3.113090
-1.453926 -1.709461 4.001774
-1.524655 -1.791426 5.020138
-1.593294 -1.871070 5.839692
-1.498478 -1.758752 6.723094
-1.413298 -1.657735 7.735121
-1.383607 -1.622209 8.429584
-1.332379 -1.561226 9.392849
-1.485083 -1.468464 0.795117
-1.635166 -1.615709 1.903256
-1.589693 -1.570096 2.580204
-1.557182 -1.536928 3.656189
-1.605018 -1.583420 4.363364
-1.661772 -1.638444 5.280479
-1.611768 -1.588181 6.244742
-1.611133 -1.586605 7.194751
-1.551118 -1.526751 7.999516
-1.475690 -1.451738 8.877947
-1.405996 -1.180144 0.624315
-1.741756 -1.461393 1.220313
-1.716180 -1.438983 2.231135
-1.830305 -1.533883 3.011579
-2.006677 -1.680619 3.966609
-1.958791 -1.639618 4.809685
-1.679202 -1.404797 5.723120
-1.588093 -1.327810 6.641999
-1.657195 -1.384704 7.630658
-1.629295 -1.360534 8.636916
-1.417874 -1.183475 9.389063
-2.042208 -1.421866 0.787660
-1.865230 -1.297685 1.869640
-1.840984 -1.280082 2.707674
-1.579267 -1.097535 3.490844
-1.744774 -1.211861 4.318045
-2.058667 -1.428740 5.446234
-1.578988 -1.095243 6.330685
-1.520838 -1.054437 7.011933
-1.792611 -1.241982 8.022725
-1.728037 -1.196460 9.029132
-1.850685 -1.061113 0.434086
-1.993237 -1.142214 1.173307
-1.873380 -1.072777 2.118978
-1.773310 -1.014743 3.094619
-2.043129 -1.168483 3.828288
-2.302955 -1.316110 4.786880
-1.993959 -1.138890 5.579184
-1.454578 -0.830185 6.703534
-1.508876 -0.860562 7.682193
-1.772473 -1.010374 8.351026
-1.583565 -0.902048 9.394410
-1.913356 -0.882421 0.283232
-2.013985 -0.928273 0.989890
-1.909394 -0.879331 1.981972
-1.933330 -0.889680 2.878298
-2.310075 -1.062288 3.695256
-2.512589 -1.154436 4.669765
-2.176419 -0.997873 7.231607
-1.751028 -0.802280 8.155405
-1.709079 -0.782411 9.186136
-2.308212 -0.821688 2.416690
-2.582392 -0.918378 3.366539
-2.365616 -0.840410 4.406906
-2.202555 -0.781944 5.104016
-1.646946 -0.584215 5.997517
-1.098274 -0.389236 7.002083
-1.367511 -0.484132 8.062650
-1.665519 -0.589123 8.892207
-1.969108 -0.507896 0.458393
-2.056844 -0.529978 1.236242
-2.295253 -0.589222 4.001605
-2.316288 -0.593894 4.921896
-1.824247 -0.467183 5.883323
-1.209699 -0.309564 6.563555
-1.225349 -0.313154 7.595451
-1.649460 -0.420970 8.575617
-1.552994 -0.395924 9.442531
-2.077578 -0.345584 0.050750
-2.044433 -0.339309 1.179526
-1.850008 -0.306580 1.945674
-1.942918 -0.321462 2.748486
-2.328744 -0.384610 3.618096
-1.044108 -0.171269 7.276113
-1.314699 -0.215292 8.109214
-1.569880 -0.256544 9.149682
-2.202364 -0.176150 2.581720
-2.604310 -0.207642 3.330586
-2.213353 -0.175822 4.273184
-1.717024 -0.135905 5.225642
-1.120047 -0.088392 6.048213
-0.957512 -0.075248 7.145238
-1.266606 -0.099221 7.912407
-1.473450 -0.114981 8.853599
-1.731605 0.010877 1.482390
-1.802469 0.011894 2.477196
-2.173708 0.014839 3.166827
-2.190755 0.015700 4.229283
-1.669653 0.012340 4.993869
-1.034472 0.007928 5.951287
-0.929927 0.007453 7.113433
-1.276931 0.010582 7.947961
-1.352999 0.011597 8.866837
-0.768605 0.006783 9.838934
-1.224388 0.128325 0.004341
-1.134549 0.119239 0.919817
-1.560233 0.164426 1.806273
-1.342757 0.141953 2.859561
-1.727879 0.183131 3.671272
-2.126811 0.226135 4.692428
-1.468457 0.156557 5.674931
-0.853730 0.091257 6.659153
-1.030970 0.110464 7.451204
-1.362432 0.146365 8.310325
-1.397934 0.150633 9.361843
-1.484529 0.277111 0.593684
-1.648493 0.308126 1.343226
-1.512478 0.283141 2.232504
-1.188666 0.222812 2.999996
-1.437561 0.269928 3.968264
-1.610995 0.302899 4.723679
-0.764586 0.143979 5.730033
-0.682188 0.128713 6.905414
-1.190689 0.224997 7.727070
-1.319247 0.249647 8.561215
-1.209626 0.229249 9.499010
-1.337229 0.376576 1.695400
-1.331861 0.375472 2.596255
-1.673170 0.472327 3.682996
-0.886008 0.251134 7.213037
-1.240727 0.352088 8.153941
-1.183684 0.336230 9.015539
-1.335918 0.509623 1.433684
-1.183874 0.451992 2.305966
-1.465991 0.560147 3.128964
-1.809016 0.691765 3.936553
-1.582758 0.606878 6.832663
-1.132885 0.434654 7.592190
-1.219663 0.468346 8.506852
-0.963545 0.370357 9.642370
-0.455959 0.222048 0.305923
-0.808310 0.393939 1.259817
-1.053674 0.513784 1.894273
-0.951622 0.464427 2.998402
-1.342979 0.655840 3.763293
-1.516676 0.742363 6.629269
-1.110072 0.543652 7.429445
-1.255049 0.615154 8.452178
-1.022353 0.501408 9.307682
-0.916508 0.546079 1.767643
-0.854453 0.509473 2.787171
-1.288655 0.768800 3.537177
-1.467152 0.875862 4.431299
-0.816959 0.487982 5.307179
-0.600625 0.358994 6.266173
-0.930888 0.556808 7.283908
-1.137284 0.680718 8.208522
-1.070496 0.641129 9.098564
-0.817327 0.598695 1.674292
-0.752641 0.551645 2.599272
-0.866884 0.635777 3.548025
-0.995650 0.730661 4.468105
-0.724710 0.532102 5.289291
-0.534391 0.392583 6.185583
-0.821490 0.603907 7.196791
-1.021738 0.751475 7.900555
-0.931929 0.685851 8.906890
-0.538051 0.466402 0.724718
-0.796463 0.690710 1.422272
-0.653546 0.567074 2.279310
-0.667925 0.579944 3.358963
-0.751301 0.652632 4.071285
-0.591770 0.514398 5.169463
0.007905 -0.006874 5.870057
-0.912319 0.794317 7.715202
-0.858377 0.747792 8.688004
-0.595146 0.615397 0.028309
-0.515433 0.533282 0.964245
-0.565399 0.585246 1.693922
-0.509005 0.527167 2.599121
-0.581710 0.602885 3.711936
-0.630388 0.653741 4.707084
-0.434694 0.451016 5.529761
-0.308612 0.320371 6.425714
-0.591019 0.613927 7.408836
-0.770356 0.800598 8.150541
-0.598743 0.622630 9.216378
-0.102102 0.126739 0.770235
-0.493246 0.612608 1.634967
-0.483476 0.600764 2.392400
-0.429399 0.533899 3.374240
-0.473924 0.589570 4.202399
-0.396633 0.493781 5.382370
0.120843 -0.150524 6.380725
-0.800237 0.997912 7.959810
-0.723634 0.902904 8.906890
-0.351803 0.525114 0.293033
-0.400627 0.598318 1.108824
-0.410378 0.613347 2.237808
-0.398233 0.595546 3.118408
-0.424784 0.635638 4.020204
-0.384054 0.575071 5.022127
-0.168234 0.252056 5.952213
-0.334778 0.501875 6.808747
-0.650308 0.975400 7.501474
-0.640214 0.960898 8.511923
-0.328928 0.494008 9.625645
-0.360804 0.661648 1.408050
-0.358290 0.657541 2.441737
-0.381717 0.700934 3.208962
-0.383737 0.705138 4.161705
-0.267831 0.492518 5.195748
-0.039863 0.073353 6.192463
-0.235560 0.433811 7.233829
-0.568742 1.048003 7.902095
-0.472328 0.870910 8.841525
-0.202615 0.464663 0.269743
-0.219145 0.502988 1.245775
-0.300178 0.689428 2.008691
-0.280236 0.644120 2.914321
-0.307490 0.707305 3.814171
-0.333666 0.768127 4.751006
-0.204894 0.472020 5.641790
-0.087787 0.202396 6.619452
-0.307027 0.708533 7.681518
-0.434510 1.003313 8.326390
-0.237196 0.548088 9.284957
-0.285293 0.833704 -0.079332
-0.247212 0.723100 0.843799
-0.258787 0.757835 1.982449
-0.221937 0.650376 2.674140
-0.230119 0.675069 3.722469
-0.301961 0.886540 4.498761
-0.228177 0.670629 5.580462
0.030268 -0.089019 6.366663
-0.370713 1.092682 8.376445
-0.269724 0.795729 9.346387
-0.187534 0.758365 0.100270
-0.155021 0.627783 1.170825
-0.184692 0.748647 1.875688
-0.208155 0.844800 2.795121
-0.235206 0.955706 3.663507
-0.277299 1.128014 4.487651
-0.192897 0.785779 5.579865
-0.011666 0.047572 6.483151
-0.111310 0.454567 7.535794
-0.256029 1.046686 8.243072
-0.196975 0.806319 9.298504
-0.121738 0.798797 1.538216
-0.097892 0.643589 2.483344
-0.117140 0.771467 3.306676
-0.162162 1.070027 4.195289
-0.110253 0.728972 5.199300
-0.020358 0.134863 6.209918
-0.062698 0.416137 7.096932
-0.154415 1.026776 7.893139
-0.150345 1.001622 8.824649
-0.065535 1.031932 0.504878
-0.064470 1.018228 1.113189
-0.039923 0.633829 2.182764
-0.054492 0.869488 3.179577
-0.071689 1.147809 3.841183
-0.072198 1.162581 4.980190
-0.050838 0.821365 5.687649
-0.023519 0.382062 6.855152
-0.038952 0.635322 7.630896
-0.065867 1.080279 8.662069
-0.037448 0.616786 9.620318
0.032371 1.205748 0.087431
0.026328 0.969324 1.090594
0.025913 0.945578 1.868228
0.029935 1.083187 2.602288
0.031254 1.116424 3.748236
0.011523 0.396107 7.411224
0.029990 1.021236 8.216593
0.026100 0.880364 9.175366
0.121561 1.052150 0.516498
0.121104 1.045731 1.374627
0.055256 0.476266 2.069510
0.095254 0.818419 3.219114
0.150061 1.286268 4.055324
0.135305 1.156935 4.980190
0.102267 0.872775 5.729064
0.030035 0.255621 6.862119
0.054025 0.458821 7.648665
0.120706 1.022535 8.523969
0.072718 0.614595 9.506752
0.269116 1.329463 0.169930
0.211295 1.042716 0.826134
0.192926 0.950517 1.843294
0.235822 1.160413 2.608212
0.263193 1.292672 3.766628
0.293863 1.441439 4.563103
0.229490 1.124134 5.464449
0.045605 0.223134 6.320961
0.075847 0.370535 7.302388
0.202539 0.987807 8.280837
0.169185 0.824131 9.108684
0.311965 1.038147 0.504300
0.426420 1.414576 3.242364
0.370875 1.229370 3.936855
0.331706 1.098447 4.825708
0.257006 0.850182 5.800810
0.070772 0.233888 6.777209
0.109632 0.361925 7.750372
0.244309 0.805594 8.734672
0.142475 0.469391 9.622825
0.297430 0.750175 0.279891
0.247244 0.623121 1.122099
0.295344 0.743770 1.970469
0.444284 1.117875 2.905039
0.492242 1.237722 3.622464
0.450536 1.131671 4.781857
0.322501 0.809593 5.474739
0.058276 0.146148 6.703427
0.104185 0.261100 7.480325
0.311045 0.778871 8.325372
0.292746 0.732407 9.344818
0.459419 0.904544 1.710058
0.593385 1.167476 2.612581
0.719440 1.414636 3.364327
0.604741 1.188356 4.195041
0.444038 0.871976 5.110305
0.452970 0.887704 7.802188
0.390367 0.764383 8.943043
0.516765 0.833977 0.028228
0.443945 0.715973 0.997960
0.526418 0.848429 1.925729
0.726633 1.170306 2.893386
0.793336 1.277121 3.572543
0.775011 1.246582 4.766346
0.577106 0.927731 5.628521
0.134201 0.215624 6.502954
0.158399 0.254317 7.589399
0.480444 0.770890 8.423637
0.452143 0.725063 9.293324
0.655599 0.867270 1.647618
0.850706 1.124646 2.618389
0.948380 1.253053 3.483983
0.788434 1.041102 4.424915
0.572952 0.756165 5.283300
0.421716 0.556235 6.254165
0.316848 0.417657 7.265964
0.495022 0.652054 8.353982
0.594969 0.783288 9.178747
0.609659 0.675250 0.566074
0.688663 0.762370 1.363495
0.483182 0.534560 2.383115
0.737213 0.815167 3.210905
0.952385 1.052522 4.043704
0.716021 0.790849 5.003455
0.734220 0.809563 7.772725
0.645947 0.711735 8.946943
0.739196 0.684047 0.302465
0.711214 0.657842 1.054791
0.828871 0.766193 2.039145
1.051999 0.971873 2.960908
1.101103 1.016688 3.810454
1.029943 0.950506 4.618238
0.974144 0.897489 7.353428
0.716246 0.659450 8.497745
0.710980 0.654223 9.456887
0.880007 0.680073 1.646675
0.712207 0.550112 2.457329
1.030853 0.795651 3.565330
1.180315 0.910589 4.263160
0.802372 0.618665 5.190869
0.889334 0.684398 8.210011
0.812542 0.624949 9.132727
0.847358 0.550637 0.624398
0.990923 0.643546 1.489463
1.108051 0.719172 2.374350
1.494997 0.969682 3.290218
0.472830 0.305936 7.037077
0.628395 0.406369 7.834100
0.902353 0.583154 8.750290
0.450293 0.290844 9.713953
0.890612 0.472127 0.409778
0.929273 0.492275 1.338892
1.426149 0.754966 2.228633
1.826531 0.966271 3.069542
1.627060 0.860156 3.980804
1.104752 0.583681 4.838419
0.804552 0.424790 5.773631
0.494820 0.261058 6.852512
0.543095 0.286358 7.647190
0.928522 0.489250 8.495360
0.757012 0.398623 9.418191
1.494001 0.627358 3.468203
1.819106 0.763285 4.309849
1.499530 0.628685 5.261214
1.083822 0.454036 6.234886
0.867802 0.363209 7.332484
0.821138 0.343469 8.055799
0.972995 0.406601 9.151436
1.055737 0.334604 0.349359
1.091790 0.345743 1.110006
1.637886 0.517986 2.305586
2.058391 0.650481 2.957887
1.862565 0.588030 3.840945
1.680696 0.529991 4.923764
1.324387 0.417269 5.770688
0.783336 0.246609 6.579095
0.793216 0.249453 7.584820
1.026905 0.322615 8.502492
0.834714 0.262002 9.389026
1.620335 0.359950 3.642416
1.947893 0.432281 4.284034
1.010764 0.223083 8.152400
1.008367 0.222230 9.168480
1.246788 0.165197 0.371869
1.434502 0.189698 1.173194
1.829998 0.241289 2.357373
2.303489 0.303098 3.155696
2.162011 0.283808 4.124861
1.957186 0.256512 4.793222
1.490420 0.194940 5.683467
1.072865 0.139971 6.795837
1.069138 0.139189 7.689407
1.134567 0.147388 8.588046
0.892223 0.115638 9.621497
1.130215 0.055621 0.206481
1.197302 0.058533 1.239326
1.259015 0.061177 2.175574
1.275480 0.061691 2.888195
1.703276 0.081834 3.875036
2.056801 0.098287 4.654096
1.634705 0.077682 5.546413
1.278156 0.060275 6.765070
1.187485 0.055754 7.449739
1.242199 0.057942 8.445319
0.993477 0.046084 9.350931
1.206999 -0.054641 0.431642
1.474165 -0.067144 1.302279
1.522341 -0.069880 2.422344
1.863232 -0.085918 3.060515
2.068779 -0.096047 4.029818
1.999891 -0.093485 5.038006
1.754133 -0.082444 5.876888
1.470060 -0.069450 6.698913
1.381184 -0.065727 7.830918
1.233809 -0.058968 8.533132
0.897987 -0.043224 9.734467
1.394916 -0.181689 0.228809
1.380859 -0.180199 0.997276
1.370173 -0.179288 2.098399
1.187304 -0.155631 2.821941
1.634068 -0.214720 3.797284
2.079626 -0.273796 4.544050
1.758131 -0.231951 5.433559
1.461994 -0.193381 6.553566
1.347481 -0.178588 7.408399
1.303425 -0.173155 8.419182
1.152970 -0.153470 9.302462
1.400172 -0.315044 1.587187
1.686709 -0.380039 2.504971
2.048951 -0.462365 3.511499
2.064225 -0.466484 4.483297
1.845252 -0.417405 5.169488
1.461247 -0.330926 6.020275
1.280788 -0.290445 6.978279
1.304619 -0.296223 7.863475
1.238302 -0.281545 8.834453
1.222600 -0.388671 0.395353
1.399543 -0.445239 1.042743
1.309875 -0.417122 1.944704
1.409791 -0.449421 2.922113
1.785605 -0.569791 3.800905
1.984992 -0.634176 4.875135
1.588219 -0.507779 5.590200
1.394719 -0.446408 6.651720
1.483903 -0.475405 7.532037
1.341209 -0.430060 8.376517
1.105086 -0.354665 9.290580
1.666075 -0.698234 0.179873
1.745170 -0.731911 0.985773
1.465717 -0.615096 1.699348
1.515250 -0.636476 2.745832
1.464920 -0.615850 3.695799
1.588563 -0.668353 4.572065
1.642630 -0.691671 5.503841
1.498971 -0.631655 6.386327
1.478435 -0.623443 7.209250
1.435113 -0.605699 8.225589
1.314117 -0.555031 9.098154
1.247259 -0.659067 0.630500
1.511277 -0.799156 1.565380
1.458472 -0.771749 2.438845
1.456107 -0.770929 3.170540
1.565224 -0.829427 4.306476
1.566793 -0.830843 5.231326
1.530498 -0.812109 6.071336
1.475195 -0.783301 6.993206
1.419519 -0.754269 7.948295
1.386910 -0.737473 8.932741
0.892113 -0.474580 9.659680
1.221391 -0.793337 0.169538
1.444517 -0.938941 1.200929
1.428189 -0.928859 2.024017
1.381333 -0.898877 2.816331
1.431616 -0.932305 3.910235
1.423724 -0.927741 4.812123
1.445989 -0.942797 5.654138
1.416997 -0.924414 6.484653
1.347733 -0.879845 7.535204
1.309809 -0.855499 8.260907
1.253270 -0.819198 9.428551
1.367960 -1.059770 1.447210
1.410827 -1.093814 2.607476
1.429139 -1.108525 3.311720
1.425991 -1.106680 4.137632
1.379783 -1.071422 5.008674
1.372222 -1.066183 5.927178
1.398218 -1.087018 6.832619
1.434219 -1.115832 7.982271
1.295873 -1.008687 8.783256
0.818148 -0.637177 9.778874
1.144578 -1.061207 0.640090
1.375575 -1.275933 1.313615
1.298461 -1.205218 2.373205
1.318808 -1.224745 3.194655
1.346697 -1.251254 3.957410
1.217903 -1.132275 4.935148
1.257191 -1.169422 5.774721
1.398060 -1.301275 6.750676
1.331071 -1.239546 7.571002
1.253194 -1.167679 8.500353
1.031238 -0.961417 9.497120
1.194924 -1.324815 1.550941
1.208216 -1.340378 2.512316
1.232175 -1.367738 3.403376
1.239134 -1.376300 4.357467
1.306261 -1.451696 5.256838
1.338511 -1.488253 6.009584
1.273918 -1.417339 7.038903
1.217810 -1.355606 7.872409
1.182129 -1.316619 8.781723
0.777622 -0.866548 9.775337
0.955408 -1.267860 0.745611
1.128661 -1.498332 1.301929
1.097016 -1.457398 2.417253
1.115142 -1.482308 3.261105
1.142566 -1.519601 4.092999
1.095010 -1.457224 5.011695
1.124668 -1.497659 5.991931
1.160257 -1.545809 6.735112
1.122445 -1.496374 7.718655
1.073675 -1.432182 8.631231
0.856980 -1.143683 9.468151
0.901989 -1.449023 0.250690
1.000990 -1.609031 1.090912
0.989043 -1.590740 1.898925
1.010732 -1.626532 2.681639
1.038036 -1.671711 3.722104
0.962498 -1.550991 4.584896
1.011818 -1.631636 5.593044
1.108866 -1.789357 6.541327
1.061935 -1.714455 7.248157
1.019605 -1.647201 8.213764
0.955261 -1.544192 9.126408
0.840388 -1.665745 1.723594
0.881982 -1.749393 2.585206
0.879930 -1.746701 3.582142
0.865290 -1.718648 4.326537
0.916921 -1.822689 5.352485
0.902826 -1.795674 6.067841
0.897278 -1.785917 6.987726
0.916205 -1.825170 8.097088
0.682582 -1.714992 2.357373
0.712126 -1.790661 3.220399
0.728449 -1.833120 4.050883
0.686324 -1.728788 5.114031
0.730101 -1.840644 6.036383
0.763134 -1.925308 6.808766
0.749922 -1.893419 7.652712
0.749690 -1.894446 8.593610
0.661293 -1.672548 9.633031
0.567888 -1.899201 2.092705
0.556379 -1.862917 3.113518
0.585266 -1.961777 4.043810
0.538824 -1.807879 4.909533
0.543034 -1.823970 5.844885
0.606289 -2.038468 6.680785
0.587778 -1.977772 7.372002
0.579982 -1.953678 8.339384
0.546606 -1.843372 9.384697
0.343202 -1.621368 0.321462
0.407585 -1.927947 1.112325
0.402456 -1.906043 1.895605
0.400882 -1.901082 2.726753
0.410536 -1.949932 3.719937
0.377501 -1.794986 4.430190
0.391402 -1.864159 5.476274
0.430577 -2.053564 6.328338
0.424371 -2.027395 7.418541
0.425181 -2.033996 8.283276
0.411128 -1.968787 8.963139
0.213568 -1.894179 0.086025
0.239180 -2.125978 0.840646
0.230626 -2.055538 1.785367
0.223569 -1.997291 2.593840
0.224249 -2.010225 3.776007
0.207156 -1.861101 4.556208
0.211346 -1.903138 5.356359
0.237476 -2.143916 6.212852
0.241165 -2.183854 7.265282
0.240162 -2.180740 8.224648
0.227948 -2.074754 9.080835
0.055012 -1.809307 0.589564
0.062719 -2.085091 1.598264
0.059547 -1.996011 2.372448
0.059048 -1.995781 3.144852
0.059176 -2.019263 4.022873
0.061947 -2.133943 4.881072
0.062674 -2.182623 5.865721
0.061515 -2.163367 6.758182
0.060844 -2.160786 7.642268
0.060806 -2.184983 8.696609
0.052534 -1.904117 9.535603
-0.122963 -2.127578 -0.053835
-0.130270 -2.240214 1.047242
-0.122468 -2.095906 1.923844
-0.123604 -2.107377 2.611026
-0.126587 -2.147533 3.519007
-0.114564 -1.933964 4.454929
-0.120491 -2.025171 5.259336
-0.137928 -2.304028 6.379967
-0.133371 -2.217766 7.261073
-0.130084 -2.154520 8.038967
-0.127246 -2.095801 9.138973
-0.319150 -2.134357 2.561530
-0.320428 -2.139194 3.354451
-0.321995 -2.145381 4.266578
-0.329948 -2.194074 5.165334
-0.337839 -2.241993 6.102175
-0.331988 -2.199815 6.819902
-0.333611 -2.205600 7.881372
-0.320164 -2.113653 8.585493
-0.289396 -1.906536 9.640686
-0.387978 -1.610831 0.262728
-0.510262 -2.115411 1.304424
-0.493774 -2.045013 2.016847
-0.506522 -2.095167 2.911446
-0.514559 -2.125387 3.925255
-0.453914 -1.872631 4.822139
-0.453463 -1.868724 5.616393
-0.535911 -2.205294 6.622811
-0.522125 -2.146082 7.478312
-0.517657 -2.125300 8.322229
-0.513452 -2.105197 9.331162
-0.712600 -2.093421 1.605178
-0.709429 -2.082319 2.419357
-0.727923 -2.134044 3.557107
-0.721965 -2.114691 4.412277
-0.757954 -2.217882 5.361404
-0.790307 -2.310774 6.088815
-0.760571 -2.221526 7.108709
-0.710854 -2.074868 7.816338
-0.707458 -2.063169 8.673403
-0.541506 -1.577704 9.736346
-0.864232 -1.978265 0.480270
-0.963655 -2.203986 1.436048
-0.897496 -2.051274 2.219548
-0.899152 -2.053533 3.068571
-0.913862 -2.085283 4.080481
-0.836902 -1.908394 4.875135
-0.860936 -1.961407 5.930626
-0.911889 -2.076245 6.611231
-0.893927 -2.033491 7.691403
-0.888552 -2.019810 8.547481
-0.836358 -1.899701 9.497569
-0.993059 -1.831964 0.481116
-1.086659 -2.003222 1.393980
-1.113738 -2.051971 2.133402
-1.098761 -2.022719 3.203836
-1.041687 -1.916696 3.867240
-0.962441 -1.769780 4.706116
-1.006543 -1.849527 5.663381
-1.121773 -2.059722 6.622812
-1.096182 -2.011411 7.511621
-1.057137 -1.938472 8.426622
-0.972739 -1.782476 9.409867
-1.182209 -1.749511 0.678427
-1.276199 -1.887675 1.382402
-1.301143 -1.923255 2.365998
-1.307346 -1.931211 3.271333
-1.242655 -1.834777 3.969337
-1.158129 -1.708875 4.924519
-1.221933 -1.801905 5.819305
-1.341028 -1.976256 6.734449
-1.280927 -1.886790 7.453745
-1.239439 -1.824519 8.415025
-1.132899 -1.666709 9.339986
-1.385642 -1.728785 0.897138
-1.418489 -1.768765 1.753845
-1.400598 -1.745440 2.638148
-1.445960 -1.800812 3.610781
-1.458003 -1.814936 4.344136
-1.268305 -1.577928 5.224398
-1.247199 -1.550792 6.106326
-1.380330 -1.715320 6.990247
-1.377463 -1.710539 8.103936
-1.312554 -1.629176 8.861226
-1.325257 -1.372611 0.401344
-1.613692 -1.670503 1.184182
-1.534634 -1.587723 2.104896
-1.568926 -1.622341 2.927790
-1.601338 -1.654903 3.821216
-1.622331 -1.675495 4.846741
-1.426329 -1.472378 5.623412
-1.377887 -1.421553 6.548629
-1.580576 -1.629606 7.539138
-1.521739 -1.568204 8.310627
-1.402099 -1.444037 9.328337
-1.684552 -1.468299 1.557879
-1.665465 -1.450710 2.570123
-1.260441 -1.097300 3.475936
-1.839195 -1.599189 5.302723
-1.649390 -1.433330 6.232448
-1.629831 -1.415479 7.188236
-1.685678 -1.463196 8.025051
-1.613489 -1.399743 8.949088
-1.625042 -1.180919 0.481962
-1.858205 -1.349744 1.150163
-1.783760 -1.294905 2.023718
-1.848916 -1.341351 2.960798
-2.146453 -1.556021 4.056079
-2.218947 -1.607891 4.672530
-1.918795 -1.389608 5.557855
-1.737000 -1.257081 6.630461
-1.728109 -1.249948 7.479686
-1.727443 -1.248798 8.296979
-1.541999 -1.114053 9.291281
-1.999460 -1.199123 0.177673
-1.970829 -1.181082 1.184879
-1.822087 -1.091370 1.911097
-2.296281 -1.374441 2.829755
-2.604371 -1.557950 3.583408
-2.366883 -1.414851 4.601093
-2.115640 -1.262467 7.041930
-1.777034 -1.059664 8.104064
-1.662553 -0.990817 8.966870
-1.938490 -0.952113 1.560627
-2.247907 -1.101576 4.337817
-2.315737 -1.134182 5.016661
-1.897179 -0.928438 6.077025
-1.420402 -0.694614 7.068080
-1.520277 -0.742907 7.993393
-1.697867 -0.829178 8.745007
-1.117357 -0.545346 9.670446
-1.690852 -0.651183 0.706610
-2.009587 -0.773434 1.374860
-2.028169 -0.779829 2.385960
-1.723365 -0.662167 3.144166
-1.855211 -0.712102 4.202445
-2.230109 -0.855401 4.898803
-1.878356 -0.719707 6.079491
-1.299346 -0.497548 6.832432
-1.342671 -0.513586 7.991822
-1.621768 -0.619955 8.617636
-1.282879 -0.489968 9.678787
-1.812177 -0.518235 0.565165
-1.923144 -0.549495 1.274827
-2.232246 -0.635677 4.017873
-2.221997 -0.632274 4.650127
-1.804961 -0.513022 5.646271
-1.210734 -0.343696 6.792627
-1.145667 -0.324920 7.608361
-1.557244 -0.441194 8.409104
-1.493962 -0.422819 9.330162
-2.353389 -0.448249 2.755863
-2.691632 -0.512112 3.355088
-2.246524 -0.426651 4.430264
-1.865700 -0.353865 5.227896
-1.269498 -0.240430 6.169792
-0.984600 -0.186199 7.089486
-1.318812 -0.249045 7.887141
-1.575054 -0.296934 8.840294
-1.949398 -0.194584 0.505855
-1.971754 -0.196198 1.473776
-2.069853 -0.204187 4.122878
-1.866179 -0.183567 5.029269
-1.177477 -0.115521 5.931044
-0.950196 -0.092979 6.791192
-1.236839 -0.120640 7.758281
-1.465378 -0.142545 8.572411
-1.321637 -0.128164 9.589566
-1.306242 -0.012624 0.134599
-1.220149 -0.011418 1.108097
-1.670205 -0.015237 1.837322
-1.680766 -0.014749 2.932112
-2.038390 -0.017392 3.669033
-2.333711 -0.019171 4.635841
-1.846237 -0.014746 5.412453
-1.075502 -0.008289 6.419318
-0.998047 -0.007405 7.371936
-1.410723 -0.009997 8.388331
-1.475910 -0.010084 9.211008
-1.351876 0.107316 -0.054815
-1.282921 0.102156 0.715253
-1.580040 0.126255 1.581691
-1.847848 0.148203 2.497702
-2.324901 0.187303 3.585536
-2.252058 0.182027 4.409696
-1.690443 0.137142 5.419499
-1.109173 0.090273 6.328790
-1.027184 0.083843 7.109321
-1.347723 0.110488 8.215707
-1.321709 0.108713 9.106878
-1.532518 0.262008 1.429548
-1.816222 0.311035 2.298895
-2.069599 0.355040 3.184018
-1.874858 0.322187 4.104679
-1.540885 0.265305 5.161338
-1.003089 0.172960 6.014271
-0.996986 0.172264 7.149105
-1.314020 0.227351 7.839806
-1.300136 0.225299 8.701159
-0.928196 0.237167 0.410247
-1.483557 0.379606 1.477500
-1.423507 0.364655 2.342563
-1.643422 0.421448 3.155134
-1.886476 0.484363 4.053241
-1.673177 0.430151 5.058480
-0.834257 0.214935 6.842415
-1.284421 0.331286 7.657875
-1.439160 0.371674 8.643182
-0.987743 0.255324 9.470169
-0.809027 0.285459 0.399220
-1.249759 0.441367 1.294956
-1.211983 0.428402 2.174324
-1.182596 0.418328 2.925423
-1.541041 0.545687 3.928776
-1.569420 0.557148 6.476633
-1.157078 0.411218 7.675250
-1.245355 0.442932 8.454698
-1.095710 0.390100 9.538774
-0.415342 0.188534 -0.055952
-0.903040 0.410261 0.970694
-1.058363 0.481103 1.656670
-0.968201 0.440493 2.687140
-1.405505 0.640039 3.758957
-1.648720 0.751248 4.456168
-0.988015 0.450506 5.375463
-0.644402 0.294044 6.326206
-0.968781 0.442379 7.164854
-1.266532 0.578897 8.293801
-1.155161 0.528368 9.205260
-0.747125 0.424223 0.518864
-1.154286 0.655823 1.365976
-0.962024 0.546877 2.099798
-0.905967 0.515391 3.119268
-1.265579 0.720394 3.897461
-1.134620 0.646310 4.892106
-0.238366 0.135849 5.734056
-0.413501 0.235844 6.803672
-1.091260 0.622794 7.548032
-1.171105 0.668803 8.461750
-0.818312 0.467705 9.699745
-0.746718 0.513260 0.028276
-0.735972 0.506214 1.032689
-0.774800 0.533173 1.736874
-0.777616 0.535483 2.778410
-1.012368 0.697528 3.595193
-1.036248 0.714393 4.453695
-0.657305 0.453446 5.496010
-0.661580 0.456632 6.288024
-1.003776 0.693324 7.334536
-1.019045 0.704185 8.016268
-0.909414 0.628829 9.029010
-0.564365 0.470502 0.568335
-0.811701 0.677108 1.505646
-0.661965 0.552448 2.219495
-0.651563 0.544110 3.217286
-0.753212 0.629387 4.192926
-0.599380 0.501137 5.145493
0.028601 -0.023925 6.047527
-0.996950 0.834961 7.796880
-0.932067 0.781106 8.820681
-0.448919 0.445442 0.341137
-0.601464 0.597127 1.201418
-0.631996 0.627865 2.289968
-0.603284 0.599694 3.241220
-0.589670 0.586411 3.929580
-0.479653 0.477280 4.889996
-0.147297 0.146645 5.804365
-0.427178 0.425602 6.969046
-0.914972 0.912093 7.749500
-0.902885 0.900582 8.734688
-0.419629 0.418775 9.739333
-0.360163 0.423828 -0.091966
-0.383524 0.451630 1.003643
-0.519932 0.612665 2.042348
-0.446445 0.526294 2.722183
-0.498044 0.587522 3.802182
-0.547547 0.646246 4.604730
-0.352824 0.416644 5.490896
-0.313615 0.370579 6.530739
-0.662884 0.783815 7.538851
-0.663924 0.785390 8.252350
-0.421897 0.499383 9.310727
-0.436074 0.621623 1.575941
-0.419442 0.598305 2.563125
-0.429860 0.613564 3.550363
-0.428315 0.611685 4.360738
-0.291141 0.416056 5.385455
0.129781 -0.185565 6.322945
-0.692754 0.991731 7.997063
-0.558588 0.800165 9.018550
-0.330396 0.569479 0.449116
-0.374682 0.646150 1.180165
-0.378694 0.653491 2.080649
-0.360718 0.622953 3.166418
-0.416551 0.719773 3.929580
-0.374095 0.646830 4.845739
-0.191637 0.331562 5.793836
-0.346553 0.600003 6.733457
-0.553216 0.958413 7.561795
-0.534382 0.926367 8.466774
-0.280803 0.487088 9.481154
-0.432823 0.936095 -0.138647
-0.446681 0.966882 0.885675
-0.341478 0.739660 1.717875
-0.285771 0.619434 2.590058
-0.258671 0.561094 3.476217
-0.314434 0.682575 4.408715
-0.230149 0.500051 5.527043
0.041561 -0.090365 6.504690
-0.506554 1.103024 8.155910
-0.392780 0.855888 9.100306
-0.427241 1.181557 0.170322
-0.379683 1.050881 0.991709
-0.286925 0.794805 1.848555
-0.234165 0.649203 2.722183
-0.216108 0.599716 3.716765
-0.296356 0.822962 4.384287
-0.232697 0.646815 5.412347
0.021075 -0.058632 6.412013
-0.100138 0.278825 7.266105
-0.372235 1.037414 8.102954
-0.324492 0.905270 9.195818
-0.339891 1.287036 0.075344
-0.253053 0.959316 0.982622
-0.213296 0.809274 1.645079
-0.149891 0.569456 2.704277
-0.141298 0.537439 3.638742
-0.234064 0.891391 4.596904
-0.170376 0.649383 5.280202
-0.012863 0.049094 6.495336
-0.109765 0.419411 7.330508
-0.285484 1.092231 8.245686
-0.232954 0.892046 9.004751
-0.132924 0.782342 1.814713
-0.104959 0.618551 2.508805
-0.125892 0.743459 3.610331
-0.176232 1.042452 4.450258
-0.120012 0.710948 5.274252
-0.009479 0.056241 6.183715
-0.072893 0.433462 7.366747
-0.179882 1.071469 8.155133
-0.160519 0.957798 9.119088
-0.038367 0.499078 2.479719
-0.056820 0.742188 3.490389
-0.088801 1.163929 4.295048
-0.061122 0.803787 5.142586
-0.027264 0.359716 6.006079
-0.040541 0.537524 7.201659
-0.075061 0.998038 7.826040
-0.069107 0.922335 8.767823
0.000302 0.237391 2.238942
0.002148 1.148983 4.104925
0.001811 0.830936 5.139679
0.001278 0.529285 5.946445
0.001728 0.639185 6.877089
0.003052 1.009415 7.873738
0.003285 0.983203 8.930007
0.089720 0.978256 2.584379
0.110410 1.200839 3.298531
0.106791 1.157737 4.247525
0.075755 0.819092 5.067840
0.051035 0.549949 6.115159
0.053945 0.579619 6.997026
0.080287 0.859551 8.048354
0.083702 0.893657 8.885246
0.180865 0.993257 0.552859
0.183760 1.007873 1.268145
0.074383 0.407272 2.266404
0.118555 0.648268 3.013781
0.210559 1.149191 4.043185
0.206828 1.127308 4.813822
0.145946 0.794216 5.762738
0.005112 0.027778 6.685447
0.078650 0.426577 7.778009
0.193973 1.050410 8.590638
0.125394 0.678116 9.478942
0.375648 1.355167 0.122474
0.297786 1.073357 0.825189
0.257739 0.928055 1.676205
0.353852 1.272383 2.790179
0.390904 1.404170 3.623868
0.287861 1.033163 4.352486
0.201937 0.723969 5.319255
0.067909 0.243195 6.317445
0.076884 0.275004 7.354998
0.208525 0.745132 8.114354
0.214443 0.765376 9.130827
0.403143 1.080852 2.514642
0.480218 1.286643 3.190722
0.467858 1.252283 4.230544
0.393413 1.052219 5.057228
0.372352 0.993275 7.876785
0.309274 0.824241 8.926091
0.398627 0.841482 0.052149
0.384387 0.810680 1.188096
0.373556 0.787395 1.883386
0.531611 1.119459 3.069444
0.609359 1.282437 3.769796
0.556243 1.169693 4.797355
0.406209 0.853635 5.659650
0.056777 0.119244 6.533200
0.128903 0.270529 7.439829
0.352375 0.738954 8.353982
0.324166 0.679248 9.415194
0.525803 0.887399 0.183120
0.467445 0.788471 0.960410
0.535479 0.902591 1.947355
0.713943 1.202627 2.832638
0.774985 1.304597 3.737556
0.718067 1.208001 4.653686
0.533987 0.897721 5.646831
0.124557 0.209278 6.603643
0.149187 0.250525 7.391357
0.399536 0.670477 8.286752
0.382862 0.642016 9.391206
0.666578 0.931269 1.847816
0.818969 1.143624 2.559316
0.899153 1.254840 3.450663
0.797122 1.111658 4.538118
0.552168 0.769702 5.271361
0.347318 0.483859 6.244156
0.306660 0.426897 7.426782
0.452860 0.630122 8.126342
0.516883 0.718763 9.074611
0.366424 0.425710 0.703097
0.674572 0.783287 1.554175
0.848150 0.984283 2.434939
1.116539 1.294985 3.331145
0.973013 1.127874 4.251368
0.660186 0.764843 5.167024
0.702281 0.812205 7.948230
0.603424 0.697385 9.129288
0.830622 0.808108 0.491551
0.840990 0.817823 1.216281
0.565474 0.549547 2.247252
0.950652 0.923296 3.218067
1.068148 1.036907 3.977773
0.865753 0.839847 5.119813
0.672074 0.651711 5.782309
0.212034 0.205476 6.943146
0.318654 0.308656 7.689157
0.658354 0.637315 8.595699
0.511911 0.495236 9.700395
0.975442 0.791608 0.111042
0.811592 0.658220 1.100639
0.850847 0.689725 1.849934
1.126098 0.912260 2.841180
1.211007 0.980544 3.627296
1.097224 0.887939 4.473850
0.890506 0.720128 5.645899
0.284174 0.229686 6.573190
0.244432 0.197467 7.375143
0.731261 0.590326 8.454747
0.783994 0.632519 9.410559
1.190184 0.801029 3.649569
1.165150 0.783781 4.402962
0.823709 0.553732 5.435401
0.480685 0.322925 6.480018
0.381748 0.256294 7.487506
0.648112 0.434880 8.286752
0.803617 0.538840 9.344223
0.977227 0.536721 1.718044
0.726226 0.398631 2.521392
1.063682 0.583476 3.393480
0.920850 0.503069 9.003410
0.896056 0.403207 0.362291
0.930789 0.418568 1.125109
1.520867 0.683232 2.296518
1.951841 0.876263 3.040930
1.741454 0.781249 3.903810
1.387148 0.621859 4.784439
1.060788 0.475252 5.583285
0.615807 0.275674 6.613336
0.637167 0.285020 7.546068
0.991199 0.442999 8.550107
0.819983 0.366209 9.496637
1.529919 0.526784 3.740696
1.863596 0.641131 4.533976
1.511476 0.519638 5.240718
0.850661 0.292183 6.249948
0.680662 0.233573 7.221525
0.938987 0.321894 8.197357
0.986355 0.337790 9.216143
1.248379 0.309419 1.616377
1.267831 0.313843 2.553371
1.746972 0.431870 3.512712
1.976414 0.488128 4.185910
1.713593 0.422674 5.161030
1.393983 0.343502 5.932730
1.061409 0.261188 7.025885
0.977377 0.240208 7.997438
1.135580 0.278725 8.966297
1.293709 0.199316 1.556242
1.528320 0.235052 2.373839
2.017595 0.309607 3.399198
2.026884 0.310583 4.078729
1.797794 0.274970 4.976589
1.503955 0.229551 6.005044
1.103116 0.168041 7.010017
1.050131 0.159641 8.024172
1.005314 0.067733 0.362084
1.320377 0.088599 1.223932
1.626800 0.108720 2.062804
2.003848 0.133332 2.956633
2.147617 0.142109 4.092440
2.036436 0.134210 4.939028
1.682318 0.110474 5.731095
1.329836 0.086913 6.781049
1.246436 0.081079 7.793857
1.243243 0.080620 8.457178
0.993707 0.064147 9.475462
1.350525 -0.026200 1.969485
1.059868 -0.020775 2.627595
1.519166 -0.030334 3.761125
2.113515 -0.042865 4.695165
1.790428 -0.036674 5.371876
1.379024 -0.028675 6.422967
1.205755 -0.025369 7.251462
1.229147 -0.026233 8.238967
1.117740 -0.024136 9.088487
1.327518 -0.147429 1.602684
1.689554 -0.188095 2.436019
2.182771 -0.243747 3.456894
2.164112 -0.242285 4.347819
1.935024 -0.217157 5.210171
1.526752 -0.171662 5.930934
1.272969 -0.143513 6.934854
1.315008 -0.148715 8.061869
1.112453 -0.222980 0.551279
1.323313 -0.265559 1.270550
1.411271 -0.283665 2.249472
1.094323 -0.220256 3.102033
1.434908 -0.289230 3.980063
2.016978 -0.407184 4.866337
1.664668 -0.336455 5.633927
1.442437 -0.292021 6.698913
1.356156 -0.274917 7.550293
1.343484 -0.272840 8.703158
1.064565 -0.216494 9.655403
1.300396 -0.387010 0.240901
1.461803 -0.435576 1.288992
1.438560 -0.428989 1.974471
1.558252 -0.465165 2.864983
1.916123 -0.572634 3.801515
1.994158 -0.596531 4.628124
1.703122 -0.509942 5.468702
1.453167 -0.435593 6.498941
1.423800 -0.427225 7.410940
1.346441 -0.404374 8.230034
1.210973 -0.364153 9.417233
1.453958 -0.575328 1.676788
1.418137 -0.561552 2.445910
1.328184 -0.526478 3.578721
1.512256 -0.599886 4.368460
1.781450 -0.707211 5.166493
1.553476 -0.617158 5.996139
1.436003 -0.571080 7.158615
1.476341 -0.587632 8.122129
1.386539 -0.552332 9.047362
1.304700 -0.654939 0.570771
1.527245 -0.767254 1.553647
1.427891 -0.717822 2.406383
1.529086 -0.769273 3.354609
1.647801 -0.829615 4.287300
1.598463 -0.805187 4.944339
1.523865 -0.768167 5.883663
1.526826 -0.770282 6.926537
1.488500 -0.751400 7.718874
1.342310 -0.678043 8.602920
0.937746 -0.474050 9.725772
1.286427 -0.785528 0.322581
1.423193 -0.869464 1.002693
1.406387 -0.859753 1.908884
1.407839 -0.861218 2.851577
1.448141 -0.886467 3.792894
1.499289 -0.918493 4.888609
1.533818 -0.940143 5.632653
1.546263 -0.948430 6.621945
1.488965 -0.913898 7.595755
1.438689 -0.883587 8.505200
1.248269 -0.767082 9.398484
1.392624 -1.026481 1.435484
1.391426 -1.026328 2.504971
1.458911 -1.076729 3.370243
1.476640 -1.090410 4.193727
1.311810 -0.969253 5.093671
1.341513 -0.991773 5.972653
1.481896 -1.096174 6.809143
1.358337 -1.005342 7.702726
1.237681 -0.916585 8.656941
0.911303 -0.675360 9.869526
1.261645 -1.116662 0.567803
1.403372 -1.242654 1.255180
1.320799 -1.170277 2.244325
1.333656 -1.182202 2.948742
1.394647 -1.237077 3.966804
1.248499 -1.107991 4.767931
1.273599 -1.131048 5.860196
1.377013 -1.223376 6.474001
1.353193 -1.203000 7.524187
1.333838 -1.186588 8.607809
1.169349 -1.040728 9.389029
1.259808 -1.329023 0.109574
1.302838 -1.375261 1.067549
1.251111 -1.321291 1.819225
1.251230 -1.322218 2.769810
1.304953 -1.379897 3.798696
1.317119 -1.393387 4.504223
1.329185 -1.407057 5.519789
1.356757 -1.437008 6.358351
1.325245 -1.404356 7.190683
1.281661 -1.359055 8.251280
1.184925 -1.257089 9.071657
0.952382 -1.204898 0.640460
1.148980 -1.454336 1.384542
1.178364 -1.492584 2.459755
1.176153 -1.490481 3.175553
1.175944 -1.491087 4.069638
1.145385 -1.453241 5.032183
1.170825 -1.486228 5.763118
1.243311 -1.579417 6.902152
1.190738 -1.513295 7.600325
1.147541 -1.459293 8.581378
0.961081 -1.222892 9.576351
1.004134 -1.532542 0.308457
1.050925 -1.604754 1.020225
1.012376 -1.546847 1.911726
1.006527 -1.538713 2.662934
1.043438 -1.596182 3.597993
1.028910 -1.575087 4.638015
1.047842 -1.605104 5.569693
1.080869 -1.656613 6.370011
1.066535 -1.635699 7.319041
1.075985 -1.651096 8.122726
1.009535 -1.550064 9.045856
0.972895 -1.811586 0.132274
0.942807 -1.756790 1.041748
0.871189 -1.624257 1.783079
0.901997 -1.682737 2.588223
0.927710 -1.731762 3.381826
0.933252 -1.743406 4.356489
0.954268 -1.783835 5.212751
0.979500 -1.832367 6.188789
0.980381 -1.835384 7.177461
0.964794 -1.807487 8.132010
0.901718 -1.690367 8.995350
0.754722 -1.750362 0.062667
0.789852 -1.833588 1.146638
0.737994 -1.714084 1.735283
0.742025 -1.725185 2.883463
0.763679 -1.776681 3.619243
0.754774 -1.757250 4.457518
0.776023 -1.808490 5.574905
0.807869 -1.883696 6.169100
0.824159 -1.923485 7.247238
0.796114 -1.859200 7.992290
0.759406 -1.774886 8.943527
0.601119 -1.858119 2.480220
0.611559 -1.892227 3.368199
0.611177 -1.893316 4.473065
0.633416 -1.964064 5.337739
0.647828 -2.010374 6.077025
0.635158 -1.972949 6.975623
0.619499 -1.926109 7.859612
0.435059 -1.860073 2.154762
0.447329 -1.915080 3.076718
0.450053 -1.929706 4.144158
0.444938 -1.909835 4.900995
0.460029 -1.977319 5.851274
0.478952 -2.060924 6.611065
0.478471 -2.061544 7.530500
0.483151 -2.084855 8.597108
0.443158 -1.914488 9.460999
0.219464 -1.616644 0.180606
0.267916 -1.978103 1.134984
0.261307 -1.933112 1.953939
0.264162 -1.958472 2.853431
0.269914 -2.005645 3.787654
0.231659 -1.724158 4.487362
0.250914 -1.872292 5.549552
0.295314 -2.208986 6.522366
0.286361 -2.145556 7.223063
0.288639 -2.168307 8.322229
0.266243 -2.003729 9.131401
0.089807 -1.760020 0.730869
0.107991 -2.124813 1.352430
0.105821 -2.096026 2.401784
0.105426 -2.098929 3.207270
0.105071 -2.104416 4.143721
0.107598 -2.166399 4.959484
0.111203 -2.254636 6.032686
0.109463 -2.231380 6.877855
0.105916 -2.172504 7.855675
0.103304 -2.128248 8.550643
0.090628 -1.878254 9.541036
-0.079664 -2.030665 2.090260
-0.079518 -2.011603 3.026534
-0.083875 -2.103112 4.120473
-0.082911 -2.065372 4.947789
-0.083648 -2.070045 5.786323
-0.090063 -2.211790 6.750342
-0.088902 -2.169926 7.556620
-0.088250 -2.141097 8.355058
-0.083029 -1.999359 9.391943
-0.209837 -1.718815 0.203640
-0.263790 -2.155329 1.141944
-0.265971 -2.167508 2.117735
-0.257838 -2.096305 3.007844
-0.260676 -2.114620 3.860149
-0.228068 -1.846294 4.675780
-0.240739 -1.943684 5.694802
-0.273780 -2.206667 6.321577
-0.271419 -2.182298 7.276881
-0.268671 -2.154941 8.241000
-0.261788 -2.095401 9.075628
-0.340218 -1.597757 0.462687
-0.452070 -2.121097 1.037483
-0.453622 -2.125497 1.897251
-0.453083 -2.119055 3.073974
-0.451679 -2.109828 3.881113
-0.403072 -1.880209 4.787118
-0.412666 -1.922649 5.563243
-0.480923 -2.237568 6.418410
-0.473469 -2.200008 7.280034
-0.466569 -2.164525 8.329025
-0.439371 -2.035839 9.179108
-0.599590 -1.940764 -0.123829
-0.640759 -2.071333 1.014269
-0.657021 -2.121880 1.848654
-0.655098 -2.113770 2.639697
-0.655745 -2.113428 3.654048
-0.626191 -2.016420 4.436809
-0.689763 -2.218674 5.399238
-0.724541 -2.328760 6.065750
-0.695688 -2.233228 7.205347
-0.675758 -2.167484 7.957884
-0.886129 -2.119533 1.173307
-0.874219 -2.089051 2.229825
-0.863350 -2.061693 2.975867
-0.889775 -2.122682 4.078089
-0.769539 -1.834862 4.708854
-0.788992 -1.879236 5.909493
-0.891441 -2.121764 6.665245
-0.852105 -2.026568 7.563849
-0.850456 -2.021041 8.477889
-0.775183 -1.840987 9.258427
-0.956884 -1.850827 0.457856
-1.056319 -2.041903 1.231166
-1.024249 -1.978715 1.999348
-1.013650 -1.956879 2.884840
-1.047855 -2.021432 3.811881
-1.002308 -1.932084 4.805757
-1.000838 -1.928069 5.595478
-1.081839 -2.082666 6.468733
-1.060429 -2.039755 7.557912
-1.049136 -2.016596 8.497968
-0.972879 -1.869116 9.173848
-1.211434 -1.904872 0.340150
-1.271409 -1.998206 1.021057
-1.180638 -1.854397 1.896138
-1.173383 -1.841621 2.956154
-1.227430 -1.925177 3.881341
-1.224290 -1.919319 4.571816
-1.223019 -1.915952 5.594021
-1.258751 -1.971021 6.245392
-1.251402 -1.957933 7.410406
-1.186740 -1.855862 8.138732
-1.166153 -1.822362 9.198156
-1.369671 -1.775992 1.766463
-1.342992 -1.740672 2.396160
-1.387342 -1.796906 3.439239
-1.400122 -1.812520 4.219390
-1.270203 -1.643256 5.241592
-1.293212 -1.672093 6.088647
-1.412579 -1.825290 7.020309
-1.338824 -1.729159 7.781535
-1.430339 -1.551802 0.608690
-1.611963 -1.747998 1.356048
-1.553037 -1.683140 2.240088
-1.606940 -1.740593 3.094226
-1.654904 -1.791566 3.936888
-1.632659 -1.766478 4.826681
-1.515108 -1.638247 5.847302
-1.439440 -1.555671 6.634307
-1.476823 -1.595129 7.568226
-1.500583 -1.619664 8.680007
-1.300915 -1.403530 9.460123
-1.475814 -1.359121 0.132429
-1.636223 -1.505785 1.221750
-1.625679 -1.495218 2.116493
-1.793637 -1.648758 2.984964
-1.925839 -1.769484 3.665742
-1.910538 -1.754242 4.712102
-1.796943 -1.649111 5.513500
-1.687936 -1.548189 6.429985
-1.676630 -1.536863 7.419013
-1.630999 -1.494206 8.317430
-1.471392 -1.347247 9.246773
-1.611596 -1.237469 0.260441
-1.786754 -1.370978 1.336880
-1.777722 -1.363225 2.242723
-1.959416 -1.501694 3.086941
-2.219763 -1.700159 3.995945
-2.153063 -1.648370 4.640920
-1.888836 -1.445173 5.627162
-1.645505 -1.258325 6.486957
-1.681671 -1.285225 7.386733
-1.772416 -1.353665 8.410172
-1.599910 -1.221234 9.328337
-1.947620 -1.235297 0.143069
-2.021984 -1.281637 1.043546
-1.853640 -1.174302 1.803341
-2.238816 -1.417272 2.808482
-2.536170 -1.604370 3.769806
-2.332909 -1.474909 4.623985
-2.166633 -1.367205 7.321377
-1.782043 -1.123922 8.169153
-1.606271 -1.012494 9.035535
-2.015690 -1.038173 0.977146
-1.842234 -0.948173 1.866805
-2.173468 -1.117875 2.729551
-2.436795 -1.252666 3.355088
-2.378423 -1.221761 4.285528
-2.266939 -1.163498 5.382325
-1.657624 -0.850355 6.100625
-1.454387 -0.745553 7.083504
-1.708687 -0.875276 7.987335
-1.714181 -0.877388 9.042049
-1.973241 -0.800517 1.410520
-1.972476 -0.799417 2.481709
-2.174353 -0.880441 3.444743
-2.306525 -0.933308 4.188084
-2.248653 -0.909217 4.999778
-1.886500 -0.762079 6.064326
-1.260081 -0.508672 6.946690
-1.339286 -0.540122 8.027239
-1.670578 -0.673222 8.811841
-1.171072 -0.471632 9.641312
-1.989521 -0.621576 0.527637
-2.054420 -0.641263 1.340025
-2.207872 -0.687143 3.925339
-2.324470 -0.722660 4.858454
-1.937256 -0.601651 5.839628
-1.233427 -0.382756 6.678312
-1.243464 -0.385458 7.662219
-1.677467 -0.519423 8.589285
-1.515145 -0.468727 9.483179
-2.009939 -0.440100 0.353389
-2.078826 -0.454475 1.364048
-2.156874 -0.469715 3.876574
-1.880283 -0.408921 4.798792
-1.450735 -0.315084 5.733904
-1.194476 -0.258997 6.883415
-1.145897 -0.248186 7.648303
-1.480126 -0.320130 8.527338
-1.432094 -0.309349 9.398484
-1.893161 -0.231702 0.319596
-1.858349 -0.226927 1.173366
-1.749920 -0.213103 2.209173
-1.191013 -0.144805 2.857556
-2.122050 -0.256707 4.680812
-1.707772 -0.206009 5.798180
-1.185879 -0.142743 6.705380
-1.117053 -0.134179 7.521852
-1.481561 -0.177463 8.543970
-1.421949 -0.170021 9.245039
-1.580205 -0.057927 0.121979
-1.548937 -0.056213 1.276470
-1.705366 -0.061450 2.082685
-1.597901 -0.057201 2.831355
-1.936608 -0.068798 3.665925
-2.252797 -0.079339 4.597661
-1.767854 -0.061844 5.398413
-1.062502 -0.036835 6.506327
-1.034229 -0.035561 7.439288
-1.374012 -0.046843 8.333973
-1.411203 -0.047758 9.150553
-1.639521 0.087711 1.756135
-1.899602 0.102067 2.471435
-2.291725 0.123865 3.437221
-2.027803 0.110201 4.386356
-1.531671 0.083669 5.332236
-1.069384 0.058688 6.213339
-1.023244 0.056425 7.073566
-1.354702 0.075154 8.104622
-1.301930 0.072578 9.000319
-1.392452 0.197456 0.157919
-1.258769 0.178902 1.154232
-1.566381 0.223105 2.100496
-0.989414 0.141156 2.858730
-1.981647 0.283869 4.589607
-1.116744 0.160334 5.708570
-0.762850 0.109760 6.746099
-1.150187 0.165816 7.588902
-1.369716 0.197819 8.381263
-1.294792 0.187393 9.382964
-1.358667 0.320816 1.860863
-1.347356 0.318480 2.608076
-1.667558 0.394779 3.685130
-0.953505 0.226825 7.264577
-1.322015 0.314879 8.116451
-1.246964 0.297358 9.017242
-1.220675 0.405145 1.616377
-1.119093 0.371782 2.525079
-1.495723 0.497451 3.542829
-1.785665 0.594281 4.153807
-1.170564 0.389945 5.140617
-0.735853 0.245400 6.267594
-0.997981 0.333162 7.240381
-1.278490 0.427183 8.057303
-1.211220 0.405033 8.870007
-0.675266 0.286429 0.460350
-1.200419 0.509612 1.414135
-1.031394 0.438220 2.373380
-1.365393 0.580624 3.324927
-1.724468 0.733820 4.072003
-1.529661 0.652448 6.789607
-1.199912 0.512224 7.820567
-1.186525 0.506876 8.682380
-0.734439 0.313998 9.744167
-0.424996 0.226769 0.233694
-0.727059 0.388245 1.261972
-0.909431 0.485936 2.091487
-0.726688 0.388510 2.858172
-1.162765 0.622221 4.041161
-1.303556 0.697881 4.633881
