0.325956 -1.732004 0.484334
0.353223 -1.970547 1.113219
0.335125 -1.941692 1.586931
0.307931 -1.923143 2.478971
0.308171 -2.062621 3.236393
0.292794 -2.077025 3.843521
0.281633 -2.128982 4.466792
0.269972 -2.204897 5.173864
0.238044 -2.070351 5.744317
0.210681 -1.995733 6.457288
0.184904 -1.973426 7.354876
0.162482 -1.944857 8.134916
0.141804 -1.846747 8.679748
0.105750 -1.562073 9.465082
0.168787 -1.912760 0.879327
0.166532 -1.999194 1.235812
0.134390 -1.925642 2.223874
0.120387 -2.004354 2.930024
0.112390 -2.067443 3.342276
0.090221 -2.080817 4.150293
0.070748 -2.009323 4.762875
0.047973 -2.152760 5.703832
0.029710 -2.243667 6.364576
0.011050 -2.111341 6.993966
-0.009913 -2.048397 7.775021
-0.033232 -2.050659 8.650094
-0.048495 -1.891591 9.427593
0.004185 -1.685053 0.266487
-0.021440 -2.005668 1.226382
-0.032849 -2.022274 1.631768
-0.059013 -2.005637 2.598001
-0.070987 -1.992404 3.054783
-0.099344 -2.101549 3.899944
-0.124993 -2.168805 4.654547
-0.135051 -2.072903 5.224430
-0.167866 -2.184846 6.074042
-0.176278 -2.152339 6.457917
-0.194684 -2.091304 7.310080
-0.223549 -2.132514 8.188849
-0.225222 -2.001291 8.809804
-0.197435 -1.641723 9.502680
-0.179163 -1.881321 0.633983
-0.221413 -2.121577 1.287719
-0.229458 -1.984876 2.105900
-0.239720 -1.983757 2.484833
-0.260363 -1.990369 3.205683
-0.293107 -2.068069 3.987430
-0.302012 -2.014659 4.586525
-0.351249 -2.149589 5.545589
-0.406446 -2.340877 6.253300
-0.391395 -2.188733 6.659575
-0.416995 -2.154781 7.742076
-0.415294 -2.081080 8.204031
-0.414129 -1.988131 8.875781
-0.374980 -2.025425 0.235379
-0.406490 -2.104396 0.798485
-0.405267 -1.961672 1.746122
-0.410163 -1.932410 2.145173
-0.436239 -1.956753 2.892305
-0.467010 -1.997384 3.648586
-0.531655 -2.148335 4.582241
-0.537318 -2.112623 5.065026
-0.582391 -2.175392 5.986112
-0.595458 -2.183516 6.331943
-0.619278 -2.171126 7.208275
-0.621786 -2.110512 7.878899
-0.609241 -2.007533 8.528459
-0.592776 -1.872066 9.499481
-0.521668 -1.785257 0.246212
-0.577423 -1.910806 0.915155
-0.604333 -1.913841 1.821562
-0.606507 -1.885055 2.220672
-0.649415 -1.927512 3.222219
-0.678940 -1.970464 3.721235
-0.708627 -1.994531 4.423015
-0.758253 -2.064637 5.196341
-0.812793 -2.162942 5.735404
-0.863269 -2.205110 6.747798
-0.850375 -2.123554 7.348630
-0.826153 -2.014655 8.002704
-0.854635 -2.017005 8.894750
-0.773667 -1.793584 9.461710
-0.781790 -1.940701 0.752614
-0.768201 -1.843467 1.623515
-0.782562 -1.840991 2.143626
-0.822661 -1.870565 3.050385
-0.860492 -1.904954 3.777681
-0.868196 -1.886182 4.303888
-0.891269 -1.891109 4.972500
-0.977724 -2.008905 5.883096
-1.037497 -2.076908 6.640548
-1.024254 -2.006775 7.307063
-0.989676 -1.905480 7.871285
-1.027754 -1.923794 8.757207
-0.923071 -1.702368 9.304032
-0.877012 -1.704047 0.718615
-0.931449 -1.777537 1.254671
-0.918404 -1.710510 1.995582
-0.965456 -1.761402 2.626289
-1.031106 -1.823761 3.586905
-1.035664 -1.801829 4.112656
-0.992682 -1.685482 4.914800
-1.015657 -1.685926 5.656926
-1.112482 -1.817320 6.162266
-1.181671 -1.880357 7.030319
-1.180921 -1.832599 7.903248
-1.165066 -1.776591 8.531855
-1.180783 -1.761603 9.315049
-1.095970 -1.652042 1.832313
-1.125436 -1.659455 2.579142
-1.140808 -1.651640 3.205683
-1.192901 -1.695032 3.846290
-1.113470 -1.544147 4.719783
-1.199107 -1.631612 5.377070
-1.433418 -1.899068 6.271957
-1.365425 -1.784901 6.781348
-1.346109 -1.722021 7.586567
-1.323990 -1.669597 8.132486
-1.194370 -1.473239 2.083600
-1.230646 -1.484766 2.879655
-1.286841 -1.522709 3.578384
-1.294059 -1.499546 4.344575
-1.355661 -1.540509 5.054983
-1.471048 -1.641467 5.705036
-1.530367 -1.682135 6.252570
-1.499073 -1.613086 7.063461
-1.520263 -1.595749 8.006417
-1.505160 -1.556385 8.591566
-1.488243 -1.504299 9.487992
-1.400215 -1.436467 1.802703
-1.430261 -1.437651 2.549012
-1.403624 -1.397457 2.903826
-1.439760 -1.394714 3.911183
-1.373543 -1.310430 4.489492
-1.541183 -1.433551 5.403154
-1.664642 -1.532823 5.753017
-1.670223 -1.506374 6.528379
-1.697058 -1.497123 7.353868
-1.646565 -1.428181 8.012087
-1.634996 -1.392083 8.725815
-1.498334 -1.253196 9.461710
-1.527157 -1.302227 1.821562
-1.535571 -1.283923 2.531990
-1.554229 -1.274486 3.233970
-1.544088 -1.248593 3.741395
-1.470440 -1.170002 4.338105
-1.652962 -1.279357 5.309106
-1.861580 -1.410689 6.029276
-1.861754 -1.382639 6.757473
-1.755904 -1.289311 7.195543
-1.706070 -1.229137 7.901234
-1.783364 -1.251190 8.847845
-1.618326 -1.116790 9.508922
-1.610421 -1.138388 1.624687
-1.599207 -1.104641 2.422294
-1.657297 -1.113740 3.358938
-1.649294 -1.091131 3.895118
-1.521178 -0.986161 4.606655
-1.647283 -1.047782 5.233698
-1.963652 -1.212982 6.159498
-1.899878 -1.160746 6.542418
-1.886274 -1.119900 7.506173
-1.824543 -1.066112 8.057302
-1.820978 -1.033961 9.020137
-1.615053 -0.897007 9.827422
-1.701138 -0.961513 2.203386
-1.692058 -0.942303 2.669766
-1.718813 -0.926894 3.668538
-1.779674 -0.942871 4.206392
-1.758255 -0.905797 5.065846
-1.795317 -0.903867 5.756635
-1.927404 -0.957298 6.139085
-1.997030 -0.962790 7.011576
-1.964369 -0.920607 7.856330
-1.900783 -0.869047 8.600323
-1.822561 -0.818531 9.146118
-1.747796 -0.786276 1.997020
-1.770412 -0.778103 2.631970
-1.779008 -0.764128 3.250403
-1.796664 -0.748459 4.061335
-1.682144 -0.686011 4.635100
-1.857464 -0.731340 5.516850
-2.135461 -0.821741 6.047298
-2.133558 -0.796429 6.804574
-2.002002 -0.728818 7.451078
-2.007017 -0.704627 8.332029
-1.683568 -0.613640 0.740182
-1.808479 -0.637292 1.523047
-1.794118 -0.616646 2.093059
-1.822260 -0.607171 2.785136
-1.877494 -0.602225 3.609275
-1.894405 -0.586402 4.363448
-1.744895 -0.527800 4.866017
-1.858266 -0.537559 5.759504
-2.090997 -0.588821 6.251731
-2.026349 -0.551176 6.937551
-1.975977 -0.515338 7.746764
-1.997964 -0.500730 8.477981
-1.908521 -0.455065 9.398484
-1.861745 -0.476184 0.936044
-1.881603 -0.467566 1.436922
-1.850755 -0.440155 2.178187
-1.873829 -0.421423 3.080288
-1.882636 -0.414217 3.422898
-1.949403 -0.401274 4.420058
-1.788945 -0.357421 4.875497
-1.846558 -0.346910 5.729848
-2.096888 -0.372391 6.434341
-2.046752 -0.346062 7.069795
-1.961117 -0.306107 8.057449
-2.009525 -0.294284 8.775365
-1.863388 -0.256680 9.481477
-1.907144 -0.328335 0.283476
-2.046758 -0.331721 0.997876
-1.867158 -0.290746 1.457917
-1.808433 -0.263449 2.182889
-1.806828 -0.240141 3.108099
-1.895614 -0.229554 3.960248
-1.896080 -0.218934 4.372832
-1.758329 -0.180280 5.349052
-1.894023 -0.180361 5.871765
-2.049985 -0.178395 6.457525
-1.937842 -0.144706 7.412513
-1.841743 -0.126293 7.900244
-1.824814 -0.106676 8.685810
-1.648393 -0.078431 9.585479
-1.811606 -0.122528 0.682762
-2.039156 -0.114391 1.517560
-1.916403 -0.094103 2.034835
-1.839272 -0.073180 2.724825
-1.863674 -0.053428 3.543908
-1.907497 -0.038662 4.161738
-1.876372 -0.019853 4.887482
-1.948383 -0.003503 5.534171
-2.096271 0.020867 6.391911
-2.017467 0.040149 7.160277
-1.870598 0.051729 7.785060
-1.866550 0.069715 8.535145
-1.717796 0.077270 9.168893
-2.036564 0.035853 0.442824
-2.069570 0.048734 0.875523
-1.821717 0.061734 1.641200
-1.828329 0.076382 2.220801
-1.781399 0.091944 2.949022
-1.864942 0.118487 3.821110
-1.918123 0.139287 4.486283
-1.909850 0.156054 5.161812
-1.922420 0.175841 5.886494
-1.898056 0.195139 6.740328
-1.892564 0.212871 7.470269
-1.804074 0.214960 7.996688
-1.771958 0.227862 8.726404
-1.537313 0.212035 9.509825
-1.730465 0.210196 0.798255
-1.848246 0.240990 1.440030
-1.712005 0.241239 2.208168
-1.642107 0.248718 2.978625
-1.524683 0.243840 3.605578
-1.742271 0.294584 4.246084
-1.999964 0.357580 4.913684
-1.751075 0.328741 5.599750
-1.690939 0.336708 6.441237
-1.770556 0.372813 7.262826
-1.641323 0.355353 7.728198
-1.607321 0.364106 8.478132
-1.524021 0.363076 9.372641
-1.679476 0.353790 0.713251
-1.823748 0.405881 1.544176
-1.660990 0.385676 2.228772
-1.576800 0.379027 2.809163
-1.242702 0.310116 3.486786
-1.493581 0.389981 4.273322
-1.985850 0.533335 4.727805
-1.876248 0.525264 5.534171
-1.684369 0.489895 6.327699
-1.626333 0.490608 7.097498
-1.601841 0.497246 7.718679
-1.582008 0.509293 8.535285
-1.469406 0.486272 9.203848
-1.445741 0.458731 0.736468
-1.646020 0.534472 1.226625
-1.574236 0.526716 1.887597
-1.848005 0.679440 4.039545
-1.988233 0.751175 4.680044
-1.841275 0.761941 7.037688
-1.458657 0.615114 7.639450
-1.501866 0.656769 8.652021
-1.392470 0.624417 9.414254
-1.281734 0.525775 0.307174
-1.475052 0.623853 1.107009
-1.405966 0.611402 1.856110
-1.374734 0.614360 2.606766
-1.041205 0.472911 3.090901
-1.922802 0.922328 4.545181
-1.792599 0.883919 5.371482
-1.509361 0.757630 5.956911
-1.361056 0.703779 6.902702
-1.343694 0.709825 7.583190
-1.384104 0.749794 8.384939
-1.233643 0.679250 8.964146
-1.246641 0.667786 0.604297
-1.406554 0.765882 1.107009
-1.344082 0.752705 1.989917
-1.289181 0.737348 2.666053
-0.945889 0.547505 3.085566
-1.837619 1.113677 4.476183
-1.683841 1.044117 5.258273
-1.345487 0.850759 5.983282
-1.010262 0.654798 6.917262
-1.085615 0.718463 7.640372
-1.260503 0.849979 8.266507
-1.168531 0.803422 9.002511
-1.248841 0.829063 1.024063
-1.242098 0.840862 1.694800
-1.152117 0.788875 2.094388
-1.177721 0.828494 3.036084
-1.495498 1.076773 3.814372
-1.625559 1.183216 4.178108
-1.547433 1.155346 5.091989
-1.371694 1.084435 7.216058
-1.088074 0.878166 8.072763
-1.057666 0.869988 8.810578
-0.888315 0.746207 9.688806
-1.203605 0.989521 1.299645
-1.053029 0.886671 2.182292
-1.417764 1.212683 2.722870
-1.618540 1.409216 3.344439
-1.392483 1.240818 4.224510
-1.302328 1.183003 4.952402
-0.654657 0.642846 8.101191
-0.858247 0.852176 8.472283
-0.828756 0.843990 9.485718
-1.153014 1.129694 0.600861
-1.034957 1.039216 1.514068
-0.937979 0.952112 1.924362
-1.068027 1.107620 2.710054
-1.281418 1.362326 3.600713
-1.254488 1.359146 4.303319
-1.038753 1.147218 5.060530
-0.815300 0.911966 5.590711
-0.536253 0.612611 6.468248
-0.364718 0.424774 7.267837
-0.624967 0.745621 8.119253
-0.791213 0.957446 8.607277
-0.705628 0.874149 9.553490
-0.869463 1.021482 0.720921
-0.983840 1.171401 1.204981
-0.820822 0.999905 2.052212
-1.071335 1.324840 2.572921
-1.260223 1.601109 3.516717
-1.084193 1.396659 4.043739
-0.945756 1.243329 4.805186
-0.783215 1.053447 5.675207
-0.542462 0.744784 6.499087
-0.362254 0.504172 7.061815
-0.513316 0.733839 8.003896
-0.644091 0.940052 8.714204
-0.574088 0.847707 9.175812
-0.805842 1.133356 0.681508
-0.737223 1.063377 1.569727
-0.716281 1.047843 2.063294
-0.697515 1.047167 2.964453
-0.880012 1.355404 3.810321
-0.907401 1.411117 4.131440
-0.623640 0.995928 5.104481
-0.500096 0.818708 5.991492
-0.327270 0.544430 6.601896
-0.258641 0.439986 7.400759
-0.452097 0.785715 8.052551
-0.580630 1.033343 8.795144
-0.514902 0.932942 9.434133
-0.606656 1.046933 0.260468
-0.615136 1.084040 0.934992
-0.581127 1.047619 1.661026
-0.687425 1.332225 3.890844
-0.240704 0.510333 6.767358
-0.263108 0.576441 7.744021
-0.405658 0.912671 8.450950
-0.430541 0.942834 0.416865
-0.539136 1.225173 1.442562
-0.450940 1.041857 1.906264
-0.558827 1.339245 2.871087
-0.674343 1.664256 3.608451
-0.601485 1.515280 4.156381
-0.482847 1.246347 4.816547
-0.369703 0.983210 5.618040
-0.212291 0.583487 6.523452
-0.138848 0.388959 7.041176
-0.249652 0.729877 8.021484
-0.321292 0.971162 8.763444
-0.298551 0.925618 9.375717
-0.415659 1.193971 0.606874
-0.362323 1.078297 1.421742
-0.339856 1.043472 2.121890
-0.344640 1.092065 2.808550
-0.456372 1.510435 3.688948
-0.446967 1.510247 4.114553
-0.300268 1.064920 5.153886
-0.203509 0.749859 5.961936
-0.109089 0.413554 6.578870
-0.120221 0.473307 7.292513
-0.201046 0.833810 8.176271
-0.188599 0.804961 8.698093
-0.168391 0.756443 9.605482
-0.329852 1.351944 0.729495
-0.254676 1.076990 1.267957
-0.240379 1.071367 2.131568
-0.240398 1.108934 2.673228
-0.272413 1.317298 3.373720
-0.289054 1.480494 4.190273
-0.207125 1.127293 5.079058
-0.127781 0.726011 5.717677
-0.072710 0.432051 6.353175
-0.071336 0.451257 7.134947
-0.117571 0.816005 8.142846
-0.120009 0.867837 8.583019
-0.109836 0.853497 9.342737
-0.158272 1.049504 0.406885
-0.145909 1.009024 0.863356
-0.136218 1.010063 1.581947
-0.136414 1.310712 3.842818
-0.029279 0.431181 6.741151
-0.033889 0.593038 7.557642
-0.041605 0.872387 8.244456
-0.030534 0.826300 9.112313
-0.011330 0.366947 9.725469
-0.058618 0.985100 0.446574
-0.050353 1.000895 1.135689
-0.043618 0.995024 1.621880
-0.019960 1.307291 3.746630
0.012157 0.480726 6.997311
0.018888 0.599746 7.464209
0.037131 0.890235 8.209634
0.031729 0.983614 0.077667
0.043853 0.996050 0.961014
0.051972 0.971863 1.671576
0.105955 1.302119 3.737010
0.050555 0.425510 6.721432
0.080788 0.625441 7.488548
0.132984 0.948430 8.276170
0.136307 0.901730 9.142441
0.080406 0.505391 9.876722
0.104790 0.852734 0.087682
0.105325 0.788057 0.888336
0.127110 0.903046 1.411304
0.223940 1.304133 3.657458
0.073314 0.347108 6.735140
0.134411 0.599876 7.655762
0.227385 0.975765 8.245451
0.217679 0.897334 8.984229
0.135820 0.537710 9.843868
0.185619 0.838912 0.107167
0.178407 0.772662 0.800494
0.210097 0.868858 1.577769
0.224834 0.887064 2.406257
0.196738 0.746198 3.143015
0.298120 1.084025 3.912838
0.098965 0.317870 6.616544
0.176631 0.545653 7.459467
0.304252 0.912475 8.070689
0.304757 0.879412 9.013401
0.181929 0.512747 9.709572
0.158363 0.485713 0.363997
0.206858 0.615515 1.048862
0.291025 0.845654 1.587502
0.278252 0.776462 2.549531
0.286717 0.778178 3.226409
0.421494 1.107244 4.003905
0.486258 1.245346 4.630594
0.307501 0.769008 5.323809
0.146209 0.356924 6.047376
0.181074 0.432138 6.663055
0.330352 0.764193 7.477018
0.391901 0.883300 8.202536
0.470260 1.070505 0.850057
0.363757 0.810657 1.451230
0.325199 0.713594 1.895770
0.333366 0.711453 2.699546
0.446519 0.927252 3.482271
0.595566 1.209480 4.111990
0.537630 1.065311 4.875464
0.298406 0.578234 5.651110
0.145999 0.277175 6.364922
0.311095 0.572195 7.341219
0.515372 0.925581 8.048592
0.508174 0.893284 8.782839
0.359027 0.623218 9.296142
0.553290 0.998394 0.725011
0.472087 0.835502 1.351038
0.391310 0.680793 1.915296
0.406115 0.686702 2.855720
0.460309 0.761188 3.594247
0.673651 1.087170 4.374016
0.611209 0.971483 4.911280
0.290837 0.454548 5.588022
0.187289 0.285434 6.523122
0.353604 0.529015 7.140257
0.610906 0.889876 8.023705
0.543197 0.782336 8.472221
0.425116 0.598965 9.354813
0.130446 0.194592 0.128868
0.169002 0.245880 1.019493
0.480529 0.681811 1.893126
0.472856 0.661808 2.383723
0.383184 0.524756 3.183344
0.488684 0.652805 4.075316
0.565291 0.743467 4.634091
0.362390 0.467152 5.429345
0.216593 0.273329 6.277242
0.390283 0.485137 6.807167
0.678800 0.821814 7.732032
0.686681 0.816856 8.414251
0.594311 0.692869 9.245960
0.465346 0.568599 0.224860
0.508932 0.610832 0.888336
0.531069 0.625156 1.610341
0.542321 0.627646 2.245570
0.557015 0.630527 3.077979
0.559542 0.621318 3.806545
0.544395 0.594851 4.422662
0.405243 0.435293 5.108020
0.259079 0.272307 5.988138
0.408815 0.422420 6.620744
0.647478 0.658563 7.174227
0.714398 0.712319 7.937739
0.675938 0.657123 8.958684
0.427908 0.411294 9.507005
0.775041 0.765884 0.629240
0.649118 0.631257 1.236182
0.571442 0.544767 1.993392
0.587544 0.546658 2.914271
0.580156 0.533942 3.328532
0.587861 0.530334 4.087907
0.496290 0.438852 4.868755
0.384532 0.331538 5.865303
0.300642 0.254907 6.534005
0.551497 0.457893 7.287085
0.829930 0.677380 7.872991
0.801124 0.640702 8.670216
0.625233 0.490441 9.485210
0.352713 0.293865 0.059109
0.522579 0.424413 1.008961
0.633100 0.508499 1.415257
0.657396 0.515010 2.333318
0.633740 0.485477 3.160348
0.621285 0.468593 3.733732
0.650207 0.480988 4.442175
0.491675 0.356592 5.196335
0.343900 0.245507 5.808318
0.609225 0.423151 6.764370
0.876501 0.598115 7.348359
1.016482 0.681011 7.980997
0.958940 0.624317 9.041721
0.527844 0.338531 9.729290
0.270215 0.180697 1.078121
0.681413 0.449710 1.522559
0.706099 0.454310 2.401557
0.662631 0.419118 2.994411
0.746933 0.459309 3.949995
0.770224 0.462598 4.747606
0.541093 0.321285 5.173152
0.412416 0.238227 6.133509
0.672257 0.378770 6.920697
0.926449 0.512729 7.460025
0.910936 0.491920 8.278589
0.747779 0.392264 2.078336
0.710623 0.367174 2.551309
0.700734 0.353508 3.289483
0.769138 0.378962 4.001462
0.644610 0.308655 4.881604
0.445515 0.209587 5.444261
0.478606 0.218920 6.276873
0.780994 0.345351 7.208508
0.999980 0.431880 7.838543
0.974062 0.412948 8.375503
0.800452 0.330601 9.164595
0.975844 0.423948 0.590937
0.888396 0.373879 1.457898
0.757299 0.311593 2.070034
0.728310 0.292760 2.689784
0.781003 0.303329 3.579760
0.818692 0.308271 4.364774
0.558121 0.205805 4.927905
0.364269 0.130170 5.743195
0.219472 0.076642 6.338236
0.506336 0.170678 7.140079
1.029217 0.333957 7.921407
1.050447 0.329933 8.662126
0.834678 0.253425 9.485475
0.916481 0.299892 0.612028
0.808557 0.252377 1.648200
0.756361 0.232017 2.022676
0.784622 0.228654 3.089878
0.796769 0.224955 3.728547
0.785492 0.215650 4.283062
0.619836 0.162020 5.251581
0.385592 0.098029 5.812283
0.434170 0.106031 6.544832
0.789549 0.184628 7.247665
1.116403 0.247562 8.080352
1.105022 0.233386 8.880926
0.799056 0.162522 9.563268
0.350430 0.081655 0.237090
0.613301 0.134996 1.167264
0.853272 0.181934 1.656787
0.784447 0.161548 2.188590
0.747591 0.145422 3.025803
0.831830 0.151908 3.894272
0.939766 0.162604 4.592004
0.755848 0.122753 5.413011
0.481912 0.074500 6.050586
0.728612 0.105711 6.735045
1.101938 0.148268 7.469098
1.123485 0.142903 8.032020
1.011131 0.117084 8.950100
0.554180 0.058737 9.853693
0.857095 0.114080 0.633228
1.079534 0.132069 1.423746
0.829614 0.096169 1.912624
0.688216 0.071862 2.785377
0.887545 0.085729 3.358210
1.145291 0.098395 4.135173
0.970292 0.073523 4.925594
0.693909 0.046725 5.613983
0.344281 0.019969 6.400136
0.618162 0.028330 7.306995
1.120897 0.040205 7.983673
1.195384 0.032832 8.628760
0.935462 0.018199 9.333483
0.483863 0.022489 0.157515
0.622846 0.021938 1.010365
0.971100 0.026045 1.632730
0.805630 0.014945 2.266652
1.141020 0.008787 3.061905
1.372754 -0.004853 3.885417
0.924542 -0.027395 5.937299
0.857720 -0.036728 6.974678
1.096515 -0.057030 7.643996
1.246453 -0.077749 8.422097
0.684517 -0.034939 0.313283
0.725298 -0.044820 1.124905
1.077535 -0.076649 1.812134
0.773728 -0.058756 2.190116
1.637034 -0.162235 3.845727
1.193515 -0.128718 4.550399
0.852852 -0.100567 5.359101
0.679605 -0.087088 6.168556
0.750302 -0.101569 6.710889
1.001768 -0.144712 7.358488
1.195992 -0.183979 8.034742
1.265003 -0.212024 9.078225
0.836437 -0.147534 9.878631
0.850807 -0.121734 0.175364
0.811340 -0.124225 0.916975
1.125064 -0.180894 1.470073
0.875212 -0.151410 2.378736
1.806180 -0.349595 3.785948
1.522471 -0.310214 4.553526
1.042376 -0.218427 5.041271
0.743980 -0.165352 6.024663
0.508970 -0.118236 6.815932
0.756297 -0.181465 7.335728
1.250451 -0.315789 8.158477
1.272647 -0.336122 9.008077
0.904428 -0.247513 9.822826
1.197958 -0.303253 0.347042
1.412278 -0.379128 1.408717
1.318175 -0.365756 2.038254
1.678371 -0.485134 2.808653
0.885638 -0.309953 7.120698
1.072141 -0.385045 7.716078
1.232295 -0.458801 8.589530
1.140698 -0.434960 9.238211
1.402209 -0.486187 0.067004
1.286902 -0.458718 0.710805
1.231105 -0.451413 1.385871
1.070915 -0.403696 2.070585
1.912064 -0.772861 3.752160
1.634097 -0.672321 4.246084
0.751431 -0.341780 7.193950
1.066820 -0.501790 8.123078
1.109017 -0.534816 8.875911
0.970347 -0.476624 9.492237
1.168290 -0.541283 0.500565
1.269400 -0.603331 1.228462
1.384032 -0.675210 1.980360
1.631166 -0.809382 2.459454
1.870308 -0.958950 3.405698
1.607281 -0.839617 4.000044
1.058688 -0.592813 6.286546
0.768246 -0.440139 7.111023
1.008261 -0.591392 7.851347
1.084355 -0.643955 8.256458
1.117166 -0.677372 8.969601
1.135199 -0.659221 0.509830
1.182106 -0.695678 0.941289
1.250266 -0.758580 1.936704
0.917745 -0.567586 2.599534
1.755187 -1.125718 3.730643
0.681180 -0.474709 6.828480
0.745345 -0.529210 7.500579
0.990479 -0.717985 8.204301
1.112260 -0.823703 8.970319
1.130107 -0.801194 0.297575
1.175927 -0.854851 1.178817
1.254805 -0.932409 1.950299
1.102680 -0.835171 2.644829
1.720191 -1.344969 3.710511
1.491013 -1.200297 4.795432
1.260156 -1.030917 5.429034
0.992386 -0.826512 6.153585
0.692855 -0.586351 6.833870
0.756466 -0.654399 7.665054
0.997748 -0.879707 8.331629
1.092604 -0.977984 8.888175
1.244849 -1.100215 1.381654
1.499096 -1.401307 3.410612
1.584872 -1.503889 3.947805
1.236508 -1.201254 4.879881
1.089409 -1.083803 5.805978
0.835192 -0.843000 6.420826
0.650974 -0.667669 7.091533
0.870186 -0.913271 7.921832
1.071543 -1.149010 8.689144
1.027249 -1.115007 9.181513
1.049352 -1.085991 0.277389
1.081701 -1.136382 0.830910
1.086834 -1.163243 1.518226
1.320118 -1.439904 2.193942
1.627392 -1.815125 2.968640
1.646371 -1.881760 3.845693
1.587683 -1.851030 4.571132
1.418548 -1.680891 5.196341
0.877574 -1.125888 8.308629
1.009133 -1.318388 8.940510
0.858910 -1.143704 9.728348
0.896948 -1.123436 0.498438
1.128927 -1.453610 1.478966
1.010530 -1.314426 1.849500
0.814001 -1.079421 2.560237
1.509233 -2.101217 4.155483
1.428884 -2.031690 4.896828
1.256899 -1.821932 5.607233
1.061193 -1.628412 7.649858
0.888159 -1.398150 8.617441
0.819602 -1.306199 9.082870
1.026354 -1.550067 0.037879
1.043785 -1.605962 0.661890
0.932005 -1.461917 1.312164
1.133269 -1.904856 3.545859
1.279050 -2.196761 4.198686
1.212963 -2.142013 5.090119
0.608637 -1.167626 7.939746
0.733356 -1.437091 8.547156
0.710152 -1.433900 9.496726
0.744082 -1.404066 0.591748
0.854774 -1.646191 1.203287
0.773782 -1.520329 1.808810
0.890122 -1.795122 2.560282
1.092257 -2.313583 3.914329
1.031623 -2.234284 4.549204
0.690197 -1.670758 7.729630
0.674893 -1.673381 8.379965
0.621502 -1.588104 9.213303
0.766232 -1.830468 0.150971
0.774349 -1.888080 0.678344
0.671298 -1.683064 1.394690
0.640924 -1.667952 2.328384
0.643670 -1.722095 3.001657
0.768987 -2.118899 3.665022
0.848019 -2.385546 4.115122
0.786213 -2.309506 5.112432
0.695118 -2.094984 5.723787
0.612103 -1.919133 6.631650
0.569326 -1.843228 7.346371
0.535251 -1.767659 7.790531
0.515252 -1.786106 8.808972
0.440372 -1.576884 9.537836
0.538607 -1.701453 0.208784
0.584318 -1.908193 0.896290
0.542282 -1.854431 1.825508
0.517661 -1.810964 2.274394
0.507357 -1.865771 3.222056
0.564332 -2.158750 3.914001
0.600891 -2.381366 4.511979
0.554248 -2.275640 5.136578
0.474837 -2.048274 6.002474
0.415699 -1.848429 6.537004
0.401159 -1.864603 7.242381
0.377558 -1.856080 8.108514
0.342535 -1.775270 8.912794
0.275389 -1.498955 9.692116
0.353644 -1.703898 0.655728
0.388077 -1.976015 1.433814
0.361541 -1.900532 1.872755
0.339539 -1.918140 2.811472
0.330446 -1.932124 3.238626
0.328330 -2.093441 4.241312
0.329824 -2.224818 4.844555
0.296506 -2.120764 5.474438
0.262557 -2.030721 6.264656
0.241796 -2.004350 6.914643
0.217608 -1.922782 7.493354
0.197285 -1.988774 8.543034
0.166395 -1.828721 9.219289
0.257871 -2.169924 0.281431
0.237040 -2.158611 0.929295
0.199065 -1.927410 1.408577
0.177501 -1.952782 2.307258
0.162067 -1.911627 2.756777
0.149979 -2.002328 3.472106
0.137676 -2.104226 4.156709
0.111652 -2.032647 4.941950
0.093009 -2.105034 5.730809
0.077619 -2.193328 6.373688
0.051622 -2.104377 7.210896
0.032959 -2.042966 7.865312
0.015710 -1.964897 8.511271
-0.002975 -1.759869 9.320930
0.031928 -1.763892 0.598284
0.015615 -2.010287 1.348961
0.001335 -2.009504 1.868707
-0.012561 -1.990850 2.381072
-0.035653 -2.031907 3.203375
-0.058029 -2.061999 3.980886
-0.076021 -2.065575 4.620890
-0.103067 -2.156192 5.423579
-0.128544 -2.245149 6.112169
-0.147232 -2.219726 6.795562
-0.157996 -2.120601 7.432286
-0.170360 -2.044109 8.121467
-0.179288 -2.047918 1.224610
-0.203545 -1.997888 2.266218
-0.216754 -2.004246 2.720569
-0.243985 -2.047964 3.514185
-0.270334 -2.098230 4.213114
-0.273312 -1.968684 4.958465
-0.299141 -2.018660 5.635410
-0.344890 -2.209192 6.182131
-0.363013 -2.177420 6.964708
-0.372785 -2.097199 7.796137
-0.402389 -2.121909 8.672743
-0.389027 -1.980111 9.221551
-0.320289 -1.910473 0.463003
-0.342243 -1.966588 0.915155
-0.366181 -1.969828 1.755553
-0.394599 -1.993465 2.605551
-0.416289 -2.015444 3.210483
-0.439240 -2.031038 3.893344
-0.451374 -2.004303 4.526742
-0.516897 -2.194537 5.226320
-0.574675 -2.331623 5.969669
-0.560267 -2.194928 6.612629
-0.542029 -2.050389 7.286100
-0.569988 -2.044612 8.313235
-0.553776 -1.946552 8.747093
-0.518011 -1.742755 9.723176
-0.434033 -1.628888 0.342624
-0.532932 -1.947391 0.829661
-0.526516 -1.865157 1.418025
-0.577097 -1.937662 2.464191
-0.590655 -1.941861 2.890221
-0.616618 -1.955338 3.639169
-0.638667 -1.968386 4.247419
-0.675333 -2.010398 5.006529
-0.729116 -2.104565 5.691574
-0.773204 -2.156801 6.481635
-0.768958 -2.086247 7.166567
-0.754161 -1.988912 7.895650
-0.783278 -1.993915 8.807117
-0.722994 -1.807453 9.341821
-0.720976 -1.935026 0.640199
-0.760641 -1.991027 1.240743
-0.713228 -1.823002 1.833635
-0.739242 -1.835487 2.562128
-0.787029 -1.881525 3.535559
-0.810750 -1.892753 4.162695
-0.790338 -1.801862 4.816903
-0.861620 -1.905872 5.636766
-0.940864 -2.051443 6.014197
-0.965031 -2.043919 6.846883
-0.979126 -2.020128 7.622628
-0.982208 -1.978739 8.351904
-0.866232 -1.793875 0.745362
-0.911358 -1.832027 1.602334
-0.882336 -1.753764 1.937499
-0.924305 -1.779001 2.892305
-0.969891 -1.825628 3.561253
-0.995974 -1.844716 4.053272
-0.978987 -1.761219 4.973774
-1.016275 -1.785701 5.720175
-1.116547 -1.933328 6.163396
-1.131802 -1.914940 6.922268
-1.098404 -1.819061 7.659114
-1.130100 -1.824897 8.516455
-1.074588 -1.707052 9.120874
-1.136279 -1.878125 0.872353
-1.025180 -1.670532 1.341468
-1.059755 -1.677873 2.286725
-1.055049 -1.642101 2.858697
-1.052881 -1.612501 3.403995
-1.127304 -1.681531 4.291227
-1.204206 -1.755754 5.062913
-1.268267 -1.812288 5.751909
-1.272673 -1.792832 6.256639
-1.276758 -1.759304 7.049725
-1.297223 -1.746840 7.884482
-1.298575 -1.717874 8.544626
-1.246600 -1.620654 9.224526
-1.214794 -1.597586 1.821562
-1.235372 -1.597076 2.426488
-1.281076 -1.617403 3.266971
-1.311994 -1.623871 3.978022
-1.217435 -1.480836 4.631340
-1.352893 -1.610527 5.393751
-1.555680 -1.816399 6.057909
-1.489475 -1.708054 6.748430
-1.409157 -1.592965 7.314293
-1.445045 -1.590808 8.316763
-1.393929 -1.516731 8.788042
-1.218352 -1.303889 9.507833
-1.277288 -1.408904 1.106978
-1.326556 -1.436183 1.786419
-1.315914 -1.399072 2.452397
-1.357405 -1.412901 3.229184
-1.369019 -1.412158 3.562076
-1.371051 -1.380324 4.464182
-1.488471 -1.470167 5.154853
-1.654371 -1.597295 5.968174
-1.671462 -1.583623 6.673353
-1.632063 -1.520501 7.321636
-1.570328 -1.441166 7.914442
-1.573480 -1.414758 8.703759
-1.499416 -1.320752 9.530599
-1.465426 -1.314004 1.539732
-1.470329 -1.292593 2.260046
-1.452503 -1.250230 3.033020
-1.475749 -1.246866 3.708973
-1.458184 -1.201993 4.615728
-1.582101 -1.279958 5.279028
-1.803851 -1.434854 5.851740
-1.825726 -1.417923 6.720091
-1.712445 -1.313009 7.219438
-1.664150 -1.252254 7.925637
-1.708669 -1.251524 8.913528
-1.557637 -1.123682 9.531619
-1.582513 -1.182943 1.700195
-1.626131 -1.182803 2.654575
-1.670968 -1.189540 3.401195
-1.669463 -1.175199 3.792544
-1.522628 -1.050800 4.505382
-1.606570 -1.083191 5.303581
-1.845347 -1.221090 5.906064
-1.902334 -1.224119 6.856243
-1.820884 -1.152513 7.445794
-1.812377 -1.121072 8.241618
-1.805260 -1.090091 9.076559
-1.555943 -0.925069 9.694730
-1.687271 -1.010993 2.003585
-1.726464 -1.008291 2.826290
-1.692959 -0.970919 3.410996
-1.706706 -0.956376 4.146337
-1.556816 -0.857387 4.717655
-1.676520 -0.898354 5.560977
-1.960143 -1.027310 6.195933
-1.900318 -0.967662 7.097345
-1.783756 -0.896157 7.539389
-1.862738 -0.908581 8.424969
-1.815392 -0.863822 9.193269
-1.775618 -0.859189 2.097981
-1.785870 -0.850528 2.552690
-1.779303 -0.819937 3.486545
-1.780650 -0.802229 4.118006
-1.626046 -0.717471 4.717655
-1.771528 -0.753404 5.702801
-1.996888 -0.836485 6.069004
-2.009303 -0.819506 6.777111
-1.972495 -0.775525 7.749150
-1.962445 -0.751453 8.437849
-1.897094 -0.707111 9.149151
-1.858125 -0.684582 2.220672
-1.799465 -0.650067 2.690597
-1.812658 -0.630064 3.586101
-1.837404 -0.621164 4.215451
-1.683494 -0.553430 4.863456
-1.729859 -0.552379 5.497012
-2.041452 -0.625537 6.326441
-2.032404 -0.605578 6.913825
-2.010088 -0.569369 7.953861
-2.010962 -0.551983 8.581509
-1.883605 -0.502926 9.158901
-1.714982 -0.503646 0.483986
-1.905354 -0.539031 1.208395
-1.869634 -0.509161 1.929448
-1.866917 -0.490594 2.584720
-1.886299 -0.474909 3.344879
-1.916350 -0.457288 4.259633
-1.769768 -0.408805 4.818615
-1.871367 -0.410183 5.646083
-2.136239 -0.451209 6.172226
-2.097536 -0.415657 7.125528
-1.940227 -0.373818 7.563591
-1.941549 -0.351238 8.439247
-1.915334 -0.326606 9.231437
-1.857484 -0.352018 0.671828
-1.979821 -0.355374 1.377246
-1.902481 -0.319471 2.204973
-1.865838 -0.300202 2.711454
-1.902196 -0.281905 3.623913
-1.923173 -0.268789 4.234346
-1.799249 -0.233488 4.983293
-1.836019 -0.224049 5.549949
-2.068193 -0.226396 6.443520
-2.042069 -0.203008 7.202298
-2.026263 -0.184801 7.827629
-1.923589 -0.162419 8.369587
-1.831599 -0.130616 9.412280
-1.631160 -0.158855 0.581372
-1.928953 -0.166754 1.370783
-1.874092 -0.151288 1.790283
-1.763133 -0.127443 2.415512
-1.773473 -0.104039 3.418657
-1.819619 -0.095903 3.855022
-1.917880 -0.075516 4.833248
-1.653248 -0.056330 5.269001
-1.739334 -0.039705 6.104799
-1.949614 -0.028386 6.693011
-1.876139 -0.005992 7.575477
-1.810437 0.010818 8.298264
-1.749835 0.025598 8.988423
-1.819985 -0.000231 0.872382
-1.930807 0.009230 1.229041
-1.772118 0.029300 2.100588
-1.734067 0.048837 2.962748
-1.816400 0.066419 3.577430
-1.932489 0.091915 4.379153
-1.947243 0.110268 5.050578
-1.667505 0.104368 5.539480
-1.690219 0.122455 6.279557
-1.880718 0.152381 6.891858
-1.857142 0.177059 7.985480
-1.824030 0.183415 8.393064
-1.708404 0.192540 9.362385
-1.738628 0.160099 0.912267
-1.851211 0.181563 1.345340
-1.749246 0.194400 2.301563
-1.685533 0.199008 2.812671
-1.610189 0.208269 3.645575
-1.794100 0.245970 4.192621
-2.073220 0.308554 5.010123
-1.843814 0.289764 5.654120
-1.752111 0.297190 6.588631
-1.840786 0.330604 7.309414
-1.741664 0.329082 8.026883
-1.649149 0.323971 8.611452
-1.514792 0.310601 9.296223
-1.389545 0.254812 0.508384
-1.669563 0.318881 1.046768
-1.616128 0.322326 1.649454
-1.573620 0.335884 2.647047
-1.654591 0.363233 3.071660
-1.973021 0.456433 3.870677
-2.132819 0.517255 4.632440
-1.945643 0.488388 5.254517
-1.581045 0.417334 6.231237
-1.496504 0.408071 6.869213
-1.656079 0.471405 7.688870
-1.567518 0.459356 8.310294
-1.519611 0.460916 9.060781
-1.674750 0.474140 0.674732
-1.716424 0.505632 1.452626
-1.536701 0.470864 2.263765
-1.783522 0.597042 4.145790
-1.929072 0.665217 4.797147
-1.810948 0.648395 5.693349
-1.445163 0.531369 6.406148
-1.324472 0.499848 7.085203
-1.520881 0.595162 7.978737
-1.497912 0.596235 8.436350
-1.384769 0.572443 9.503789
-1.668359 0.634825 0.265724
-1.694822 0.659469 0.815499
-1.435619 0.576835 1.635060
-1.405980 0.583783 2.490188
-1.527574 0.645634 2.950053
-1.863481 0.811256 3.707753
-2.011213 0.902583 4.516620
-1.891956 0.871472 5.262068
-1.542872 0.721090 5.739331
-1.245541 0.602044 6.792511
-1.250677 0.618335 7.479623
-1.335703 0.673085 8.050401
-1.319844 0.682282 8.862900
-1.025586 0.542311 9.688806
-1.428725 0.720408 1.059308
-1.373391 0.703890 1.549062
-1.308643 0.684852 2.185679
-1.436867 0.770253 2.914030
-1.742994 0.962069 3.788567
-1.859324 1.045472 4.354076
-1.764580 1.009669 4.923106
-1.546136 0.945340 7.153439
-1.227740 0.766440 7.950625
-1.186589 0.755312 8.648549
-0.935906 0.610797 9.627715
-1.194355 0.755307 0.537159
-1.283585 0.825260 1.090260
-1.212410 0.792844 1.668468
-1.496781 1.044703 3.883460
-1.680897 1.198570 4.602063
-1.593385 1.160242 5.356441
-1.386240 1.064690 7.335169
-1.145439 0.904460 8.442793
-1.149648 0.857903 0.172541
-1.232945 0.947119 1.204122
-1.140972 0.885404 1.572644
-1.379049 1.137950 3.772386
-1.539891 1.301390 4.618098
-1.377813 1.180676 5.157576
-1.133959 1.029799 7.400648
-0.850399 0.787857 8.259899
-0.960634 0.895298 0.538686
-1.038067 0.987190 1.285108
-0.956964 0.922141 1.780162
-1.160449 1.186982 3.979093
-1.376258 1.432311 4.583671
-1.210423 1.284061 5.330062
-0.832644 0.902253 6.224328
-0.524118 0.579691 7.101271
-0.543427 0.609539 7.643391
-0.779746 0.895577 8.487759
-0.781667 0.916019 9.273478
-0.810013 0.904605 0.607733
-0.911308 1.031854 1.114125
-0.820961 0.945434 1.745404
-1.152329 1.360404 2.624350
-1.302287 1.564692 3.241063
-1.111667 1.360849 3.948778
-1.108105 1.393189 4.920410
-0.903097 1.146338 5.317990
-0.599685 0.776146 6.117751
-0.437192 0.577621 6.939963
-0.501989 0.678400 7.770145
-0.624728 0.859498 8.394878
-0.654350 0.924888 9.395546
-0.827247 1.124619 0.921429
-0.757212 1.047151 1.531231
-0.707264 0.992583 2.056566
-0.682515 0.977214 2.765995
-0.868191 1.273301 3.576910
-0.912878 1.365956 4.261216
-0.621689 0.948164 4.992065
-0.503366 0.789536 6.005360
-0.347570 0.555400 6.709705
-0.266107 0.433146 7.390922
-0.452579 0.752043 8.038581
-0.577926 0.987262 8.938926
-0.460631 0.795347 9.368996
-0.603659 0.995167 0.589274
-0.668101 1.129172 1.405110
-0.632237 1.078066 1.697226
-0.807805 1.418697 2.626098
-0.935163 1.685635 3.422898
-0.850831 1.571687 4.205103
-0.749681 1.403399 4.645749
-0.550410 1.052170 5.359157
-0.315298 0.617800 6.217499
-0.232515 0.465648 6.938629
-0.341454 0.705105 7.844668
-0.441867 0.937015 8.606139
-0.421993 0.915628 9.314486
-0.623365 1.295857 0.527192
-0.502134 1.077847 1.458349
-0.474746 1.040748 2.060920
-0.494898 1.113360 2.783336
-0.620340 1.437882 3.574372
-0.631092 1.509202 4.407239
-0.434086 1.062280 5.088722
-0.318216 0.800189 5.857852
-0.189463 0.484978 6.389371
-0.195366 0.521841 7.503842
-0.276901 0.753526 7.932512
-0.327413 0.927819 8.917373
-0.274440 0.790039 9.349063
-0.384647 1.014534 0.261388
-0.396984 1.074189 0.889316
-0.379136 1.071188 1.925598
-0.446946 1.377683 3.886773
-0.171141 0.606352 6.978575
-0.189137 0.688789 7.522172
-0.221809 0.837780 8.215238
-0.222043 0.879393 9.122984
-0.350868 1.288296 0.288385
-0.322738 1.231949 1.011369
-0.268960 1.067043 1.714100
-0.256556 1.048052 2.229900
-0.160105 0.675535 2.814740
-0.346340 1.610774 4.299328
-0.263208 1.305118 5.307863
-0.128981 0.664308 5.968568
-0.039831 0.216637 6.831985
-0.066248 0.380160 7.539526
-0.138371 0.837453 8.137295
-0.123936 0.789999 8.797765
-0.087649 0.596903 9.641009
-0.174576 0.996194 0.407457
-0.180633 1.084209 1.035733
-0.155719 0.986466 1.680108
-0.172680 1.197089 2.667588
-0.194325 1.407546 3.105367
-0.195625 1.535350 3.875778
-0.173621 1.471668 4.582339
-0.117203 1.094115 5.451553
-0.062336 0.631130 6.167220
-0.043741 0.504019 7.125259
-0.061944 0.805473 7.839317
-0.063394 0.925935 8.478004
-0.050910 0.870537 9.287725
-0.080276 0.980986 0.126209
-0.068194 0.970429 0.990824
-0.063377 1.049033 1.726202
-0.044529 1.329521 3.724763
0.002050 0.420536 6.814781
0.009307 0.622527 7.572120
0.025857 1.017385 8.313360
0.028400 0.876699 8.902726
0.016805 0.404203 9.768326
0.011755 0.788587 0.575988
0.027999 1.109190 1.345354
0.028328 0.904546 1.811325
0.046332 1.062581 2.727303
0.071238 1.346059 3.402549
0.090354 1.482275 3.989332
0.102191 1.397002 4.915342
0.073089 0.908778 5.540300
0.038723 0.425702 6.436399
0.051718 0.520129 7.081083
0.097627 0.884296 7.862205
0.106011 0.903493 8.400194
0.106678 0.826948 9.339313
0.097919 0.813004 0.838949
0.126006 0.962350 1.613306
0.127652 0.918645 2.210131
0.104703 0.712286 2.822566
0.170539 1.067087 3.741348
0.265614 1.576924 4.314976
0.220955 1.244943 5.022799
0.125982 0.671936 5.856801
0.063839 0.322085 6.729822
0.102544 0.498433 7.267887
0.199454 0.911474 8.169262
0.208679 0.911818 8.929522
0.149695 0.634831 9.533437
0.115938 0.575062 0.431959
0.157750 0.739939 1.270688
0.186508 0.839669 1.911289
0.170896 0.746132 2.416353
0.246852 1.025879 3.225566
0.357067 1.406230 4.129144
0.142177 0.487002 7.002392
0.283048 0.927098 7.875211
0.314980 1.000153 8.551811
0.252503 0.784758 9.102562
0.127497 0.417143 0.394328
0.162913 0.520486 0.904367
0.244710 0.756719 1.611465
0.234999 0.701538 2.408261
0.303767 0.868667 3.394773
0.431448 1.195983 4.101424
0.417893 1.141294 4.470059
0.273391 0.720036 5.442313
0.124335 0.318509 6.237712
0.192235 0.479601 6.918959
0.339683 0.826679 7.525191
0.345760 0.821186 8.209634
0.311033 0.718388 9.040402
0.170986 0.426773 0.226585
0.219210 0.530592 1.041230
0.323995 0.762644 1.785876
0.319749 0.739610 2.266652
0.244607 0.547836 3.187756
0.364647 0.795074 3.930519
0.523083 1.113467 4.585778
0.344605 0.721646 5.128713
0.204187 0.415522 6.054719
0.245564 0.489619 6.678932
0.399583 0.776587 7.427833
0.481252 0.916319 8.054116
0.426003 0.791648 8.886946
0.226832 0.410408 9.909625
0.372494 0.718526 0.146341
0.509403 0.964860 0.706675
0.395733 0.734556 1.346026
0.399747 0.722669 2.187064
0.396595 0.700434 2.943544
0.456824 0.791004 3.582014
0.111848 0.177678 6.638988
0.313817 0.487557 7.366050
0.512264 0.783806 7.841728
0.564910 0.840923 8.827641
0.429671 0.631471 9.368039
0.381820 0.598088 0.195667
0.539011 0.831708 0.708666
0.481919 0.724602 1.608092
0.454840 0.676285 2.001756
0.471615 0.682793 2.941494
0.446947 0.637350 3.487111
0.554807 0.771706 4.365392
0.475127 0.650009 4.988603
0.299396 0.399437 5.967743
0.218144 0.287230 6.489061
0.365636 0.471998 7.199075
0.587926 0.741785 8.002673
0.623327 0.767539 8.936788
0.497052 0.600866 9.719407
0.263457 0.329606 0.966675
0.506328 0.620371 1.728575
0.496590 0.600167 2.238940
0.507631 0.600764 3.023699
0.542451 0.629502 3.757798
0.549758 0.626603 4.439094
0.434584 0.484371 5.320185
0.308506 0.336697 6.167254
0.422928 0.455396 6.665264
0.657952 0.695202 7.339472
0.691807 0.712872 8.319050
0.591540 0.608149 1.677437
0.539537 0.543902 2.426121
0.538483 0.531188 3.252691
0.620705 0.599461 4.050173
0.590308 0.563511 4.500706
0.456163 0.424882 5.474655
0.290305 0.266365 6.096728
0.537411 0.480459 7.052327
0.737033 0.651090 7.465730
0.718061 0.618652 8.452785
0.595675 0.504955 9.134425
0.866654 0.745412 0.802333
0.688171 0.585894 1.187532
0.590775 0.491374 2.063156
0.566520 0.463821 2.654423
0.615038 0.491195 3.574980
0.653158 0.510133 4.400094
0.500893 0.385102 5.012769
0.357208 0.269096 5.804353
0.288207 0.214155 6.336523
0.627219 0.453113 7.316198
0.920434 0.653248 7.900849
0.910473 0.630918 8.793880
0.691974 0.470828 9.547062
0.596696 0.430004 0.322622
0.641472 0.449554 1.318619
0.731805 0.503474 1.968363
0.670191 0.452087 2.668398
0.657439 0.435257 3.328532
0.738097 0.476681 4.186523
0.641370 0.404652 5.015048
0.445425 0.276225 5.650863
0.399936 0.242967 6.378396
0.632101 0.376672 6.998629
0.913627 0.532512 7.693283
0.941179 0.532728 8.687419
0.715008 0.398515 9.280805
0.745333 0.418033 1.804116
0.703436 0.385153 2.580584
0.675608 0.364041 3.094181
0.767643 0.403581 3.862345
0.692865 0.355858 4.604609
0.503870 0.252408 5.413429
0.424692 0.208099 6.113814
0.684428 0.326863 6.852320
1.002588 0.466620 7.561348
0.986782 0.448610 8.267249
0.804072 0.357059 9.015919
0.031283 0.014748 0.199348
0.249594 0.114261 1.059803
0.769400 0.345754 1.570230
0.716947 0.313982 2.297523
0.699727 0.298611 3.016034
0.791409 0.328472 3.764928
0.725012 0.291518 4.624137
0.546536 0.213629 5.399897
0.455603 0.173826 6.050586
0.795023 0.292552 6.916213
1.074876 0.387513 7.371831
1.047881 0.362862 8.373704
0.386210 0.138378 0.295953
0.585925 0.204571 0.912294
0.752366 0.255076 1.591945
0.738012 0.243533 2.209646
0.742255 0.237092 2.935830
0.811838 0.247696 3.923510
0.824506 0.243089 4.643758
0.617579 0.178445 5.091192
0.392468 0.109348 5.871485
0.625948 0.167191 6.670509
0.998758 0.253546 7.567286
1.102541 0.269156 8.265576
0.565094 0.148317 0.117810
0.817745 0.206521 0.818870
0.874378 0.210044 1.694556
0.821535 0.188729 2.450294
0.785632 0.175148 2.943544
0.804845 0.171266 3.679788
0.844967 0.170698 4.465240
0.677779 0.130013 5.244352
0.539595 0.098530 5.959585
0.758969 0.129995 6.779269
1.009016 0.163849 7.406985
1.125930 0.172848 8.061021
1.094359 0.155005 8.989861
0.704064 0.094720 9.654265
0.905722 0.140163 0.729613
0.951885 0.138508 1.409327
0.889027 0.120814 2.124096
0.821012 0.102944 2.912242
0.868895 0.099841 3.694147
1.016465 0.105241 4.533931
0.802677 0.078499 4.998360
0.515420 0.043493 6.075963
0.524786 0.039168 6.835599
0.828867 0.055839 7.345194
1.177143 0.068161 8.011317
1.186579 0.053650 9.010056
0.761293 0.030284 9.556646
0.914088 0.057867 0.700432
1.150504 0.065973 1.140567
0.981779 0.046890 1.865777
1.001283 0.034091 2.898036
1.284223 0.032603 3.525293
1.462063 0.023139 4.224939
0.773564 -0.017732 7.316198
1.137554 -0.034602 7.827761
1.269291 -0.053546 8.722887
1.046372 -0.051860 9.366313
0.735113 -0.020751 0.312846
0.877168 -0.034628 1.159152
1.099668 -0.051806 1.723776
0.779956 -0.046037 2.640968
0.712308 -0.073811 6.052520
0.849048 -0.098189 6.955191
1.091542 -0.136816 7.653673
1.219288 -0.162433 8.233227
0.927635 -0.116625 0.252771
0.884768 -0.117509 0.778791
1.135763 -0.164449 1.653707
0.898163 -0.137872 2.308976
1.855372 -0.322945 3.723758
1.590443 -0.292306 4.458050
1.179677 -0.226433 5.110564
0.806337 -0.164729 6.084648
0.462976 -0.098763 6.825218
0.758923 -0.168877 7.457962
1.238640 -0.289592 8.193000
1.243279 -0.303576 8.966134
0.906191 -0.230342 9.813105
0.938004 -0.201822 0.174873
0.871406 -0.195042 0.798258
1.594876 -0.409920 3.104629
1.808119 -0.478195 3.600713
1.517162 -0.415955 4.308489
1.213552 -0.350136 5.357562
0.842248 -0.251276 6.115213
0.466537 -0.142078 6.628990
0.803139 -0.255395 7.525760
1.142260 -0.372025 7.996151
1.177308 -0.400668 9.026638
0.899187 -0.312119 9.589297
1.060686 -0.334594 0.474027
1.336255 -0.436752 1.238056
1.320235 -0.447615 2.056003
1.685015 -0.586863 2.643331
1.977355 -0.712535 3.405698
1.913747 -0.706978 4.002592
0.936836 -0.389942 7.246756
1.104372 -0.472783 7.996151
1.131240 -0.492432 8.466460
1.204606 -0.543914 9.520697
1.183673 -0.499959 0.250289
1.165205 -0.503190 0.847658
1.278178 -0.569100 1.680434
0.937123 -0.425249 2.233034
1.810382 -0.867636 3.710420
1.557022 -0.762848 4.385223
1.343042 -0.673134 5.096381
0.957401 -0.489480 5.773030
0.561208 -0.293722 6.592092
0.827486 -0.447897 7.626989
1.125695 -0.620256 8.139226
1.166464 -0.655543 8.787813
1.014094 -0.585001 9.727441
1.320388 -0.725921 1.263236
1.437795 -0.814088 2.184332
1.676768 -0.963459 2.631970
0.834207 -0.546120 7.159434
0.990753 -0.663883 7.957549
1.159599 -0.795165 8.750483
1.124181 -0.780307 9.209902
1.113521 -0.736952 0.297998
1.115839 -0.751193 0.884298
1.236941 -0.854250 1.761770
1.155226 -0.810886 2.334237
1.883409 -1.389219 3.986739
1.569878 -1.168634 4.357133
1.344170 -1.027581 5.350926
1.039016 -0.810580 6.158909
0.634196 -0.500852 6.711440
0.680331 -0.547634 7.427833
1.006685 -0.831766 8.337379
1.281097 -1.062646 1.457840
1.518746 -1.326070 3.299964
1.665856 -1.490153 4.160482
1.260802 -1.142859 4.718216
1.050890 -0.970535 5.459728
0.851604 -0.803779 6.333929
0.686005 -0.658966 7.057506
0.842818 -0.828434 7.909284
1.027431 -1.030448 8.636612
1.060473 -1.081316 9.273946
1.116353 -1.089108 0.200582
1.149212 -1.142212 0.886934
1.140996 -1.160718 1.745968
1.420569 -1.475307 2.481250
1.671785 -1.793723 3.634483
1.625069 -1.777356 4.338235
1.471522 -1.639779 5.052009
0.895036 -1.080082 8.203130
1.078151 -1.328761 8.937621
0.913817 -1.142722 9.564759
0.996032 -1.172464 0.554364
1.060654 -1.273994 1.286412
1.067521 -1.303668 1.886248
1.131709 -1.411559 2.641437
1.420251 -1.811368 3.395389
1.571163 -2.045406 4.090577
1.510804 -2.000845 4.703932
1.361248 -1.839065 5.441540
0.636400 -0.892867 7.018686
0.654961 -0.937224 7.735409
0.870359 -1.265185 8.222543
0.910147 -1.357658 9.140322
0.851042 -1.219755 0.478587
0.947531 -1.384936 1.152233
0.952206 -1.424690 1.951468
1.102933 -1.691029 2.758275
1.333564 -2.085005 3.368839
1.376440 -2.191112 3.948558
1.303491 -2.109300 4.499402
1.192325 -1.985162 5.456313
0.950362 -1.678574 7.465004
0.797734 -1.446227 8.386525
0.820073 -1.525628 9.216423
0.767194 -1.328757 0.143376
0.831360 -1.485619 1.132384
0.867723 -1.589387 1.898468
0.967658 -1.812864 2.575423
0.906138 -1.730284 3.163081
0.946426 -1.854745 3.930982
1.131359 -2.266100 4.520722
1.039910 -2.124647 5.123537
0.876991 -1.851362 6.128386
0.631495 -1.355211 6.711423
0.634894 -1.402999 7.558793
0.738625 -1.669393 8.144543
0.710972 -1.654602 8.985416
0.550665 -1.314154 9.802151
0.604644 -1.328755 0.239470
0.706729 -1.602236 1.092765
0.722859 -1.676783 1.707555
0.818117 -2.053487 3.726579
0.910627 -2.363460 4.520722
0.838592 -2.251581 5.366030
0.695965 -1.900840 5.841475
0.615734 -1.738519 6.674094
0.602013 -1.746951 7.324038
0.583658 -1.753009 8.129367
0.472589 -1.355179 0.287567
0.594908 -1.788740 1.344372
0.588466 -1.825082 2.015928
0.585190 -1.876979 2.724492
0.491457 -1.626461 3.397449
0.545553 -1.867153 4.051889
0.672830 -2.390821 4.716650
0.602637 -2.187921 5.157062
0.497162 -1.878701 5.962082
0.449396 -1.763423 6.678811
0.449288 -1.838211 7.413514
0.427492 -1.820221 8.114204
0.391963 -1.667664 0.532577
0.442347 -1.988985 1.404515
0.400943 -1.874662 2.006474
0.392611 -1.924224 2.696169
0.365969 -1.905187 3.545740
0.374944 -2.063922 4.272581
0.396687 -2.294655 4.871446
0.340200 -2.076368 5.557524
0.301073 -1.961172 6.334664
0.291132 -2.038362 7.112478
0.268620 -1.986964 7.695666
0.239867 -1.925802 8.517239
0.199869 -1.720498 9.216423
0.222182 -1.543603 0.181479
0.250544 -1.910027 1.096729
0.247035 -1.978300 1.548054
0.218742 -1.963841 2.524378
0.206704 -1.981253 3.035917
0.195718 -2.041895 3.648586
0.180473 -2.182163 4.594925
0.153288 -2.078810 5.271476
0.134818 -2.008635 5.775491
0.118704 -2.135652 6.617494
0.097025 -2.029280 7.226249
0.075261 -1.961575 7.963065
0.054009 -1.892287 8.739927
0.027048 -1.676101 9.773097
0.087566 -1.659246 0.419060
0.087473 -2.025053 1.112414
0.072995 -1.994472 1.595218
0.046174 -2.005266 2.588572
0.025201 -2.048205 3.372941
0.014110 -2.090239 3.777681
-0.004350 -2.141466 4.419833
-0.025956 -2.144219 5.166247
-0.045259 -2.127140 5.853000
-0.067203 -2.116948 6.641010
-0.092299 -2.083949 7.598697
-0.104896 -2.050731 8.130884
-0.127139 -2.019958 9.048539
-0.116484 -1.632037 9.815172
-0.102999 -2.062233 0.630786
-0.118861 -2.005377 1.311246
-0.141944 -1.997140 2.171919
-0.157659 -2.009015 2.711142
-0.180087 -2.044143 3.410612
-0.217392 -2.130407 4.419833
-0.215954 -1.977160 4.967900
-0.245266 -2.044673 5.748423
-0.301654 -2.303189 6.514369
-0.299643 -2.188960 6.974083
-0.304864 -2.084668 7.692747
-0.333740 -2.089497 8.703759
-0.318369 -1.889706 9.421037
-0.261837 -1.844173 0.501881
-0.320364 -2.127896 1.108393
-0.319008 -1.982995 1.849850
-0.351566 -2.017225 2.803381
-0.381905 -2.075436 3.490319
-0.394620 -2.057811 4.043867
-0.398538 -1.973329 4.781731
-0.420693 -2.002922 5.354390
-0.485710 -2.207390 6.032919
-0.525419 -2.241217 7.052686
-0.496194 -2.071951 7.451078
-0.540933 -2.127321 8.504452
-0.514912 -1.974725 9.013949
-0.490439 -2.035272 0.809050
-0.494480 -1.977866 1.432778
-0.507067 -1.956121 2.066679
-0.533746 -1.976844 2.803381
-0.570039 -2.007857 3.749459
-0.590653 -2.031447 4.213114
-0.571084 -1.898128 4.920724
-0.642707 -2.036630 5.899977
-0.719955 -2.221293 6.444332
-0.725773 -2.173032 7.123201
-0.717179 -2.080031 7.878899
-0.727639 -2.046685 8.619722
-0.666628 -1.837398 9.177789
-0.655719 -1.882300 1.538621
-0.670584 -1.865819 2.258418
-0.701166 -1.889351 3.014877
-0.760372 -1.969736 3.965758
-0.749506 -1.913582 4.335232
-0.828017 -2.040725 5.215094
-0.921458 -2.199749 6.020607
-0.935040 -2.173647 6.738467
-0.938973 -2.123602 7.507550
-0.921260 -2.038533 8.146985
-0.921169 -1.992893 8.813487
-0.849406 -1.790069 9.657170
-0.804460 -1.794189 0.708138
-0.867068 -1.893721 1.280178
-0.848037 -1.817931 1.802703
-0.873875 -1.826922 2.511316
-0.915247 -1.858240 3.351688
-0.955476 -1.884945 4.194314
-0.877811 -1.699494 4.785977
-0.939314 -1.771730 5.573437
-1.096358 -2.020413 6.248088
-1.080999 -1.961784 6.743888
-1.068247 -1.892697 7.530273
-1.072507 -1.861857 8.207632
-1.090770 -1.835018 9.270953
-1.016289 -1.734163 1.878136
-1.033221 -1.722526 2.626289
-1.064528 -1.739392 3.278748
-1.104875 -1.776848 3.796493
-1.075368 -1.692130 4.533242
-1.170778 -1.797837 5.339070
-1.326622 -1.991841 6.067233
-1.314113 -1.935991 6.733959
-1.315126 -1.898714 7.451479
-1.261612 -1.796557 7.968909
-1.252638 -1.747065 8.735206
-1.144264 -1.562013 9.588324
-1.166571 -1.628933 1.755553
-1.185697 -1.616948 2.579142
-1.205568 -1.621104 3.071436
-1.257830 -1.652726 3.883933
-1.205177 -1.558754 4.460987
