-1.055373 -1.788567 6.796432
-1.008501 -1.707187 7.573028
-0.988170 -1.670495 8.498343
-0.939376 -1.586366 9.228764
-1.126840 -1.578885 0.245680
-1.206132 -1.688436 0.875523
-1.105093 -1.545427 1.580906
-1.073850 -1.500029 2.372423
-1.075582 -1.501010 3.039557
-0.881348 -1.228790 3.735073
-0.991504 -1.380878 4.477109
-1.287006 -1.790835 5.033257
-1.202241 -1.670967 5.865560
-1.121065 -1.557099 6.367082
-1.113997 -1.545739 7.086003
-1.125540 -1.559796 7.993181
-1.084049 -1.501395 8.449913
-1.054948 -1.459137 9.453817
-1.269209 -1.436634 0.463337
-1.359482 -1.537730 0.970344
-1.222192 -1.381520 1.460016
-1.182118 -1.334879 2.195514
-1.423855 -1.605968 3.022803
-1.514526 -1.706742 3.643657
-1.425409 -1.604639 4.419833
-1.486365 -1.671732 5.076480
-1.352684 -1.520109 5.724261
-1.221234 -1.371083 6.470460
-1.194200 -1.339508 7.167966
-1.208092 -1.354067 7.739113
-1.170324 -1.310487 8.483049
-1.071535 -1.198350 9.506266
-1.194567 -1.124626 0.352646
-1.354317 -1.273567 1.184345
-1.273625 -1.197111 1.540229
-1.246355 -1.169823 2.582433
-1.334254 -1.251381 3.127058
-1.560578 -1.462414 3.715873
-1.697104 -1.588741 4.434938
-1.608931 -1.504693 5.186964
-1.375077 -1.285155 5.720384
-1.025285 -0.957229 6.600812
-1.021413 -0.952848 7.219886
-1.222590 -1.139261 8.011267
-1.192427 -1.110187 8.696170
-1.021676 -0.950101 9.677443
-1.294715 -0.996764 2.214490
-1.621420 -1.247348 2.718608
-1.770852 -1.360461 3.658307
-1.634391 -1.254817 4.134448
-1.704667 -1.307508 4.811570
-1.496713 -1.144635 6.981928
-1.214387 -0.927749 7.832971
-1.276406 -0.974109 8.600800
-1.156972 -0.882391 9.127125
-1.306926 -0.817910 0.449233
-1.386866 -0.866914 1.230142
-1.323539 -0.826613 1.807027
-1.649320 -1.026992 3.765667
-1.855495 -1.153672 4.710847
-1.705604 -1.059679 5.235657
-1.548821 -0.959213 7.419707
-1.264834 -0.782519 8.214819
-1.274330 -0.787515 8.993481
-0.945547 -0.583774 9.776335
-1.297355 -0.653815 2.120164
-1.697039 -0.854247 2.777679
-1.969370 -0.990277 3.377115
-1.796656 -0.901986 4.341461
-1.682606 -0.844224 4.713689
-1.569758 -0.786306 5.721714
-0.665889 -0.332945 7.018180
-0.893429 -0.446072 7.869814
-1.220365 -0.608555 8.558488
-1.177855 -0.586690 9.286606
-1.227151 -0.480450 0.529067
-1.356726 -0.530552 1.121334
-1.287125 -0.502719 1.739237
-1.659403 -0.645311 3.889012
-2.012086 -0.781412 4.513744
-1.775413 -0.688810 5.048335
-0.941162 -0.363076 8.142808
-1.135449 -0.437444 8.798762
-0.944862 -0.363442 9.699276
-1.580301 -0.440582 0.343115
-1.491127 -0.415231 0.793280
-1.284677 -0.356836 1.770548
-1.236730 -0.343121 2.217363
-1.014892 -0.280908 3.148047
-1.695410 -0.467717 4.344111
-1.156637 -0.318407 5.239632
-0.912550 -0.250825 5.884599
-0.727185 -0.199566 6.530462
-0.538916 -0.147651 7.238362
-0.849659 -0.232355 7.916279
-1.053225 -0.287496 8.604055
-1.024455 -0.279030 9.498695
-1.320789 -0.231234 0.374898
-1.328444 -0.232157 0.826638
-1.237401 -0.215478 1.726134
-1.198111 -0.208132 2.337834
-0.843876 -0.146117 3.194930
-1.619244 -0.278914 4.426299
-1.137854 -0.195387 5.275946
-0.856699 -0.146789 5.877335
-0.521574 -0.089155 6.551134
-0.519886 -0.088558 7.459775
-0.935767 -0.159020 7.992954
-1.085682 -0.184011 8.642771
-0.937385 -0.158458 9.372363
-1.168794 -0.087185 2.030494
-1.432592 -0.106274 2.621911
-1.790806 -0.131670 3.561013
-1.690570 -0.123540 4.236132
-1.361314 -0.099001 4.803557
-1.056023 -0.076358 5.478525
-0.585749 -0.042068 6.307573
-0.360175 -0.025715 7.011215
-0.721802 -0.051092 7.899848
-0.916850 -0.064570 8.419650
-0.928816 -0.065013 9.097343
-1.165458 0.017560 0.347779
-1.229941 0.019130 1.070657
-1.235239 0.019829 1.814129
-1.513998 0.026295 3.754204
-0.365063 0.007017 6.764778
-0.492653 0.009680 7.415628
-0.793750 0.016029 8.212527
-0.799542 0.016431 8.778246
-0.714767 0.015110 9.748839
-1.337151 0.147906 0.672865
-1.158335 0.128674 1.372440
-1.088763 0.121409 2.005749
-1.130589 0.126807 2.965238
-1.495442 0.168220 3.416836
-1.584555 0.179139 4.238641
-1.111397 0.126055 4.847010
-0.778957 0.088661 5.500906
-0.518655 0.059313 6.369700
-0.460070 0.052800 7.011920
-0.673307 0.077635 7.807323
-0.823718 0.095459 8.688341
-0.778820 0.090517 9.228511
-0.919698 0.198130 0.369431
-1.135306 0.245294 1.266172
-0.990278 0.214375 1.874170
-1.105943 0.239955 2.566875
-1.275709 0.277334 3.164476
-1.452513 0.316598 3.960615
-1.428260 0.311932 4.585576
-1.034013 0.226306 5.310053
-0.571926 0.125526 6.297755
-0.358111 0.078734 6.907710
-0.626915 0.138162 7.640755
-0.821716 0.181539 8.417384
-0.710149 0.157200 9.107672
-0.216519 0.048000 9.744537
-0.918112 0.291528 1.876801
-1.069210 0.340216 2.771839
-1.321562 0.421239 3.496157
-1.424517 0.454858 4.250665
-1.274005 0.407281 4.787709
-0.865747 0.277169 5.491654
-0.337612 0.108219 6.134680
-0.278965 0.089571 6.921760
-0.647219 0.208252 7.817116
-0.805350 0.259502 8.436880
-0.708796 0.228740 9.176113
-0.596987 0.251683 0.803848
-0.975606 0.411609 1.192232
-0.868685 0.367023 1.965610
-1.006256 0.425747 2.715709
-1.266828 0.536681 3.380941
-1.374446 0.583208 4.231524
-1.216870 0.516745 4.672323
-0.857451 0.364721 5.637560
-0.326209 0.138855 6.134680
-0.396782 0.169189 7.110212
-0.648374 0.276722 7.576239
-0.797145 0.340803 8.524581
-0.644126 0.275640 9.104039
-0.716599 0.392558 0.478036
-0.916372 0.502806 1.493604
-0.761918 0.418380 1.989222
-0.725851 0.399119 2.863484
-1.012374 0.557198 3.441099
-1.330378 0.733189 4.238096
-0.419369 0.232123 7.223595
-0.676483 0.374782 7.776312
-0.772403 0.428459 8.592757
-0.597911 0.331910 9.139564
-0.721297 0.486493 0.662451
-0.657909 0.444249 1.465054
-0.638381 0.431400 2.014318
-0.614102 0.415404 2.713082
-0.875198 0.592674 3.460455
-1.142358 0.774369 4.128296
-0.967145 0.656412 5.027219
-0.467089 0.317213 5.554722
-0.132295 0.089933 6.331251
-0.333261 0.226876 7.351793
-0.611084 0.416336 7.855370
-0.677987 0.462361 8.545941
-0.579104 0.395367 9.406590
-0.651645 0.537710 0.653167
-0.700395 0.578348 1.177802
-0.556209 0.459814 2.036688
-0.423151 0.350020 2.480641
-0.625319 0.517985 3.523716
-0.984237 0.816006 4.120684
-0.302192 0.251420 6.912898
-0.598442 0.498440 7.683139
-0.675643 0.563327 8.470095
-0.558144 0.465655 9.003753
-0.494930 0.497058 0.949539
-0.561642 0.564489 1.523622
-0.544026 0.547152 2.033854
-0.481129 0.484459 2.924418
-0.639381 0.644290 3.474994
-0.923715 0.932001 4.399805
-0.718357 0.725214 4.870249
-0.327595 0.331057 5.731442
-0.126105 0.127569 6.583911
-0.293174 0.296906 7.420857
-0.542541 0.549825 7.889093
-0.580230 0.588454 8.462130
-0.493832 0.501410 9.416377
-0.649202 0.786266 0.640269
-0.516125 0.625612 1.259159
-0.420234 0.509769 1.833798
-0.377608 0.458624 2.753851
-0.501210 0.609405 3.545693
-0.675585 0.822203 4.224277
-0.622051 0.757581 4.757137
-0.324836 0.395986 5.542665
-0.131360 0.160313 6.455990
-0.291235 0.355753 7.125095
-0.480286 0.587175 7.707927
-0.554414 0.678571 8.563542
-0.454127 0.556230 9.172531
-0.092621 0.139617 0.516518
-0.173760 0.262244 1.365779
-0.380176 0.574219 1.891268
-0.355124 0.536766 2.395359
-0.274293 0.415005 3.108008
-0.401828 0.608703 3.937152
-0.482698 0.731857 4.543163
-0.240125 0.364555 5.544196
-0.085093 0.129315 6.301445
-0.256468 0.390176 7.031622
-0.472333 0.719333 7.706384
-0.468680 0.714414 8.362937
-0.358529 0.546889 8.917965
-0.127491 0.194643 9.688503
-0.483016 0.897983 0.640269
-0.381956 0.710653 1.132312
-0.328955 0.612897 2.018529
-0.340284 0.634754 2.763880
-0.199559 0.372605 3.392842
-0.253821 0.474562 4.246946
-0.350239 0.655301 4.679423
-0.189460 0.354990 5.650479
-0.097238 0.182328 6.159720
-0.246953 0.463647 6.938629
-0.378061 0.710543 7.565340
-0.390602 0.735030 8.378385
-0.332345 0.626186 9.237446
-0.336315 0.800251 0.545558
-0.277981 0.662565 1.458339
-0.253059 0.603964 2.178149
-0.249194 0.595388 2.769642
-0.228634 0.547092 3.594855
-0.234556 0.562111 4.417764
-0.221123 0.530586 5.111533
-0.108383 0.260317 5.689567
-0.040417 0.097203 6.453565
-0.139240 0.335239 7.021095
-0.298400 0.719397 7.683139
-0.349913 0.845042 8.616096
-0.263648 0.637376 9.263260
-0.185759 0.602843 1.737019
-0.176514 0.573859 2.496836
-0.170491 0.555186 3.199782
-0.181558 0.592128 3.849988
-0.189525 0.619370 4.721773
-0.132553 0.433928 5.491139
-0.054343 0.178225 6.336897
-0.137056 0.450140 6.918529
-0.235290 0.773857 7.462622
-0.209357 0.689737 8.229299
-0.177905 0.587321 9.167876
-0.073550 0.243188 9.959254
-0.010724 0.051090 0.986659
-0.122236 0.583394 1.522312
-0.114425 0.547425 2.252982
-0.119000 0.571139 3.229239
-0.137255 0.660213 3.893641
-0.131004 0.631395 4.502950
-0.075563 0.364868 5.110010
-0.040424 0.195810 6.120029
-0.105633 0.512888 6.796262
-0.177703 0.864491 7.325395
-0.208877 1.018656 8.054116
-0.168153 0.821701 8.727343
-0.084558 0.414364 9.722365
-0.060964 0.600884 1.698973
-0.060161 0.596008 2.477207
-0.060878 0.606136 3.236818
-0.065605 0.655427 3.746697
-0.068360 0.686174 4.457578
-0.043111 0.435283 5.382717
-0.019780 0.200637 6.129953
-0.050347 0.513424 6.889449
-0.088456 0.906645 7.583579
-0.102091 1.050341 8.121963
-0.081670 0.844105 8.869792
-0.039967 0.415523 9.893267
-0.003777 0.316240 0.415475
-0.003546 0.312025 1.296531
-0.007572 0.697219 2.047894
-0.006942 0.665843 2.708946
-0.006341 0.624512 3.126707
-0.006008 0.621414 3.869606
-0.004722 0.516057 4.679037
-0.002925 0.340712 5.579125
-0.002088 0.256762 6.304220
-0.004067 0.521785 6.786427
-0.006107 0.833287 7.457518
-0.005077 0.738444 8.194381
-0.003655 0.571547 9.000996
0.086738 1.015605 0.620869
0.070253 0.817027 1.493296
0.058211 0.673768 2.117877
0.050973 0.587409 2.694951
0.051702 0.592829 3.356866
0.058241 0.663241 4.261712
0.039681 0.450272 4.767535
0.023676 0.267076 5.600440
0.017017 0.190727 6.509994
0.037285 0.416174 7.041176
0.073959 0.820088 7.888091
0.075868 0.838103 8.417384
0.065194 0.716052 9.276579
0.208209 1.128056 0.763672
0.149633 0.808379 1.542067
0.122691 0.661580 2.059112
0.110952 0.597115 2.594970
0.112353 0.602571 3.543320
0.123443 0.660196 4.310691
0.089162 0.475711 5.003946
0.054386 0.289412 5.768763
0.034155 0.181411 6.326970
0.087133 0.461352 7.174351
0.153331 0.809958 7.775456
0.161835 0.852943 8.421396
0.131065 0.689015 9.208088
0.185499 0.654505 1.724814
0.170066 0.598957 2.455875
0.174743 0.614154 3.283601
0.170295 0.597655 3.869606
0.147078 0.515210 4.636497
0.100521 0.351337 5.575322
0.083603 0.291821 6.133132
0.168909 0.588478 6.860878
0.253158 0.880041 7.725029
0.251924 0.874389 8.380736
0.395292 0.991277 0.484382
0.310737 0.778008 1.307029
0.244877 0.612522 1.814202
0.233603 0.583150 2.869641
0.227001 0.566265 3.246630
0.258276 0.643015 4.278346
0.202677 0.504217 4.695482
0.134208 0.333374 5.535805
0.122880 0.304740 6.424262
0.214418 0.531098 7.051806
0.324906 0.803670 7.735612
0.377116 0.931357 8.563510
0.314148 0.774835 9.329564
0.318081 0.624319 0.920179
0.363157 0.712005 1.591945
0.330979 0.648336 2.144273
0.300155 0.587195 2.946045
0.338992 0.662463 3.599500
0.413566 0.807421 4.173882
0.320111 0.624049 5.113542
0.137938 0.268701 5.656012
0.010346 0.020131 6.416775
0.194703 0.378198 7.460309
0.455403 0.883889 7.850401
0.448399 0.869339 8.559648
0.317593 0.615131 9.273050
0.271411 0.423312 1.004035
0.475620 0.741017 1.724956
0.417097 0.649173 2.435888
0.580795 0.903051 3.097417
0.754101 1.171266 3.796303
0.691486 1.073218 4.316243
0.482211 0.747712 5.017190
0.214123 0.331700 5.762936
0.043439 0.067206 6.735627
0.227950 0.352359 7.307365
0.585781 0.904300 8.106708
0.598992 0.923999 8.642771
0.474275 0.730751 9.560094
0.644743 0.819701 0.533192
0.630768 0.800898 1.475253
0.567934 0.720645 1.957258
0.767538 0.972948 2.665708
1.005725 1.273639 3.337977
0.416993 0.525550 7.032591
0.606496 0.763595 7.763015
0.680786 0.856388 8.398808
0.608685 0.764752 9.375717
0.547632 0.577121 0.693125
0.769544 0.810183 1.422744
0.687143 0.722840 2.040510
0.968869 1.018038 2.865565
1.231849 1.293709 3.207473
0.505441 0.528315 6.949742
0.658121 0.687352 7.534314
0.814750 0.849802 8.532221
0.764893 0.797076 9.269806
1.168682 1.018564 3.094370
1.403642 1.222273 3.707485
1.242161 1.080893 4.251687
0.491022 0.425577 7.434453
0.785243 0.680173 7.820244
0.856451 0.741028 8.665866
0.703754 0.608463 9.294591
1.010376 0.716376 1.321336
1.086673 0.769520 2.185385
1.373771 0.972265 2.565241
1.541341 1.089811 3.217222
0.593343 0.417453 6.920404
0.840577 0.590575 7.883813
0.951351 0.667750 8.576727
0.935128 0.655893 9.115584
1.228177 0.708612 1.429904
1.303472 0.751210 2.145856
1.568920 0.903528 2.594018
0.647863 0.370661 7.027955
0.855037 0.488676 7.689738
1.033470 0.589927 8.478105
1.034270 0.589842 9.103131
1.082210 0.497526 0.395800
1.183434 0.543505 0.972162
1.232456 0.565265 1.721254
0.885969 0.405828 2.470882
1.935843 0.884399 3.850149
1.613088 0.736201 4.458069
1.327586 0.605246 5.113149
0.848233 0.386304 5.797102
0.534986 0.243226 6.865562
0.719850 0.326969 7.374782
1.023600 0.464322 8.085909
1.137309 0.515325 8.719245
1.016060 0.459807 9.505129
1.232184 0.417458 0.924046
1.324505 0.448104 1.555687
1.319379 0.445580 2.355089
1.831870 0.617481 3.165355
2.188986 0.736578 3.896163
1.926827 0.647793 4.319500
0.702035 0.234626 7.252782
1.083071 0.361207 8.163262
1.278597 0.425697 8.909235
1.248256 0.415020 9.575319
1.327619 0.316874 0.268969
1.390542 0.331121 1.045428
1.400197 0.332586 1.880569
1.578499 0.374322 2.416358
2.040915 0.483015 3.036580
2.297215 0.542195 3.899851
2.249898 0.530335 4.332133
0.791757 0.185097 7.359982
1.239182 0.288935 8.173739
1.484876 0.345441 8.895033
1.288002 0.299244 9.408431
1.352017 0.189442 0.307392
1.546623 0.215689 1.261437
1.469458 0.204413 1.772598
1.711693 0.237239 2.495033
2.169745 0.299980 2.952772
2.335350 0.321719 3.645072
2.286571 0.313958 4.304088
2.168690 0.296613 5.093171
1.265377 0.170678 8.081458
1.530353 0.205672 8.768102
1.375542 0.184204 9.555671
1.788999 0.069825 1.357733
1.672183 0.064495 2.039963
2.582258 0.095827 4.090577
2.501160 0.091584 4.818922
1.189510 0.041565 7.574678
1.590967 0.054726 8.331405
1.438075 -0.078610 0.306738
1.655700 -0.091475 1.162584
1.750887 -0.097337 1.663737
2.257291 -0.129025 3.911171
2.594102 -0.149575 4.597580
2.426937 -0.140883 5.190667
1.385264 -0.082819 8.005581
1.686563 -0.101699 8.731695
1.470882 -0.089171 9.296305
1.822779 -0.274708 1.431590
1.706762 -0.257993 2.084586
2.007667 -0.304568 2.843103
2.422550 -0.368390 3.324751
2.557769 -0.390411 4.118396
2.486911 -0.380650 4.731809
2.313682 -0.355209 5.424365
1.869192 -0.287886 6.215744
1.629221 -0.251543 6.821388
1.731871 -0.268150 7.454362
1.857519 -0.288750 8.352932
1.517498 -0.386591 0.382056
1.798019 -0.458974 1.080158
1.844969 -0.471760 1.675499
1.776244 -0.454862 2.201845
1.634409 -0.419398 2.938431
1.999075 -0.514161 3.723916
2.449039 -0.631296 4.455711
2.335260 -0.602676 4.888849
2.125353 -0.549812 5.774795
1.942424 -0.503537 6.565646
1.834907 -0.476249 7.038704
1.850994 -0.481602 7.945906
1.838807 -0.479449 8.749387
1.639833 -0.428181 9.349838
1.761863 -0.633682 0.766989
1.984869 -0.714558 1.194630
1.856946 -0.669715 2.041345
1.860572 -0.671663 2.486625
1.779369 -0.643405 3.264536
1.960396 -0.709868 3.912163
2.280478 -0.827426 4.810789
2.183855 -0.793457 5.475003
2.013248 -0.732534 6.199845
1.926493 -0.701802 6.791844
1.874187 -0.683573 7.392617
1.892013 -0.691311 8.270699
1.732440 -0.633540 8.733193
1.368719 -0.501213 9.526442
2.004535 -0.950178 0.553061
1.937055 -0.919652 1.447420
1.831524 -0.870553 2.104381
1.822749 -0.867280 2.692287
1.883318 -0.896892 3.189350
1.929681 -0.920184 3.934717
2.018666 -0.963965 4.722800
1.965285 -0.939757 5.517439
1.966762 -0.941685 6.270498
1.964595 -0.941492 6.795880
1.900005 -0.911871 7.673942
1.823475 -0.875723 8.089489
1.887570 -1.116757 0.544084
1.844140 -1.092579 1.428634
1.752910 -1.039189 1.839092
1.755335 -1.041963 2.662083
1.815780 -1.079197 3.462114
1.909480 -1.136243 4.219726
1.895084 -1.128790 4.860917
1.941117 -1.157454 5.552379
1.957820 -1.168170 5.972461
1.912040 -1.142468 6.912897
1.782092 -1.065575 7.414595
1.796432 -1.075366 8.172197
1.758610 -1.053886 8.932307
1.437018 -0.862178 9.846502
1.649700 -1.202560 0.423982
1.823913 -1.330948 1.142625
1.705241 -1.245552 1.816301
1.687363 -1.233970 2.648834
1.711875 -1.253070 3.299861
1.733606 -1.269909 3.809808
1.717744 -1.259504 4.488803
1.837937 -1.349026 5.194490
1.976126 -1.452051 5.942449
1.952010 -1.436201 6.873451
1.859297 -1.368767 7.306003
1.847565 -1.361921 8.262844
1.791993 -1.322104 8.916605
1.543906 -1.140135 9.696242
1.500643 -1.350694 0.593989
1.699737 -1.531369 1.282116
1.592877 -1.436441 1.965294
1.574310 -1.420493 2.372488
1.597731 -1.443072 3.097938
1.648918 -1.491206 4.019939
1.656558 -1.499521 4.704064
1.738965 -1.575428 5.299092
1.846840 -1.674881 6.031165
1.786182 -1.620988 6.556290
1.734391 -1.575627 7.347494
1.659159 -1.508401 7.929525
1.666587 -1.516930 8.819802
1.508118 -1.373925 9.571074
1.397062 -1.522086 0.386017
1.521620 -1.659020 0.917907
1.451462 -1.583886 1.541348
1.464539 -1.599945 2.350282
1.475642 -1.613313 2.905865
1.472896 -1.611442 3.417092
1.507488 -1.651371 4.332169
1.427875 -1.565462 4.959533
1.491971 -1.637502 5.742535
1.677805 -1.843334 6.444491
1.642082 -1.805308 6.957285
1.639544 -1.804489 7.776501
1.577183 -1.736917 8.260471
1.514595 -1.669815 9.119662
1.256910 -1.644267 0.630786
1.319284 -1.728159 1.559001
1.283442 -1.681999 1.891514
1.332440 -1.748349 2.744355
1.342624 -1.763608 3.498994
1.353310 -1.779223 4.123010
1.269079 -1.670053 4.809082
1.313149 -1.730072 5.634056
1.455266 -1.918343 5.978990
1.486967 -1.962083 6.681922
1.468321 -1.940038 7.640602
1.407084 -1.860505 8.204430
1.398061 -1.850742 9.072375
1.212445 -1.606495 9.843177
1.171319 -1.894913 0.974799
1.139601 -1.844884 1.427598
1.126810 -1.825712 1.974687
1.138939 -1.847451 2.708800
1.147175 -1.862972 3.464002
1.166682 -1.896356 4.048053
1.088630 -1.771622 4.859594
1.123638 -1.830347 5.483831
1.298492 -2.117852 6.263222
1.326783 -2.166261 6.946607
1.291205 -2.110537 7.709590
1.251578 -2.047729 8.375867
1.211166 -1.983344 8.991244
1.053666 -1.727442 9.880887
0.941290 -1.910193 1.674040
0.962029 -1.955059 2.491060
0.974267 -1.982231 3.159093
0.964141 -1.963460 3.701130
0.961244 -1.960288 4.510494
0.996168 -2.033574 5.091547
1.058359 -2.162802 5.681617
1.102131 -2.256137 6.672315
1.099222 -2.252476 7.273609
1.080553 -2.216515 7.897523
1.071488 -2.200743 8.670750
0.992448 -2.040585 9.366695
0.797582 -2.156200 0.832413
0.744213 -2.014890 1.531956
0.749753 -2.033293 2.322122
0.750559 -2.037187 2.718186
0.763407 -2.076371 3.698456
0.760364 -2.069751 4.079109
0.745169 -2.031967 4.924250
0.786467 -2.148239 5.720823
0.851612 -2.329549 6.379391
0.835373 -2.287103 6.803335
0.825140 -2.262453 7.528787
0.812733 -2.232296 8.381816
0.769395 -2.115821 9.010280
0.590731 -2.231959 1.169008
0.546818 -2.070217 1.899539
0.543358 -2.060685 2.522862
0.554040 -2.104459 3.076929
0.563830 -2.147128 3.991822
0.525076 -2.002873 4.611477
0.583546 -2.230735 5.362841
0.650088 -2.490180 6.055210
0.623562 -2.392946 6.737754
0.612200 -2.354347 7.523409
0.572566 -2.204389 7.970693
0.559188 -2.156556 8.616944
0.535045 -2.068410 9.544377
0.355046 -2.104966 1.777403
0.352336 -2.097847 2.797313
0.352802 -2.103794 3.156560
0.356064 -2.129927 3.903714
0.323750 -1.942120 4.605837
0.340829 -2.049734 5.196197
0.397687 -2.401579 6.128076
0.389651 -2.357315 6.570327
0.382765 -2.322386 7.276909
0.374140 -2.277692 8.101632
0.361473 -2.207187 8.854129
0.335002 -2.050718 9.520086
0.144659 -2.038857 0.593560
0.153799 -2.182494 1.285852
0.150073 -2.146281 2.078001
0.151740 -2.181290 2.594272
0.150477 -2.181720 3.454621
0.151985 -2.221403 4.257212
0.136470 -2.003020 4.706297
0.141247 -2.089099 5.463474
0.163821 -2.438467 6.039875
0.166542 -2.497355 6.760799
0.160776 -2.429379 7.532724
0.153852 -2.338561 8.142585
0.152297 -2.336181 9.056638
0.130514 -2.016518 9.871461
-0.058111 -2.133424 1.768007
-0.058870 -2.124880 2.447681
-0.060251 -2.144606 3.013410
-0.063215 -2.196366 4.013465
-0.059646 -2.051114 4.470238
-0.066505 -2.236594 5.411907
-0.074661 -2.484331 5.840893
-0.074534 -2.445830 6.472400
-0.073623 -2.370538 7.360913
-0.069914 -2.228313 7.873315
-0.073347 -2.293634 8.779308
-0.067929 -2.102884 9.330977
-0.249135 -2.075215 0.291657
-0.266179 -2.209443 0.890461
-0.257661 -2.131177 1.503778
-0.258920 -2.134748 2.059218
-0.264083 -2.167210 2.868336
-0.261869 -2.142333 3.419563
-0.269033 -2.189991 4.297794
-0.240453 -1.952430 4.779140
-0.254482 -2.057986 5.495624
-0.300647 -2.419869 6.290880
-0.289401 -2.322583 6.841551
-0.277092 -2.214325 7.656157
-0.275373 -2.193896 8.233545
-0.270214 -2.144696 8.963612
-0.465881 -2.150051 0.872353
-0.456654 -2.102338 1.607091
-0.442543 -2.033690 2.157808
-0.442435 -2.028951 2.791947
-0.454378 -2.079708 3.375049
-0.467284 -2.132218 4.310278
-0.430087 -1.958003 5.043363
-0.450152 -2.046435 5.472881
-0.535615 -2.427165 6.407294
-0.511312 -2.312974 6.981590
-0.473881 -2.140560 7.478035
-0.493245 -2.220868 8.495804
-0.472811 -2.124959 9.120148
-0.648496 -1.994742 0.771426
-0.677309 -2.080800 1.295233
-0.656913 -2.015036 1.957318
-0.643788 -1.971135 2.754298
-0.623105 -1.905047 3.387233
-0.626033 -1.911610 3.930042
-0.634679 -1.933689 4.904261
-0.672604 -2.046997 5.367243
-0.723969 -2.199861 6.033610
-0.708040 -2.148271 6.701631
-0.679902 -2.058860 7.601339
-0.650333 -1.966879 8.187374
-0.792961 -1.837991 0.943452
-0.867803 -2.009996 1.323377
-0.824607 -1.907163 2.101342
-0.799527 -1.846332 2.920594
-0.791804 -1.826517 3.502911
-0.842107 -1.939388 4.366612
-0.857323 -1.972086 5.002935
-0.818816 -1.881242 5.673088
-0.820069 -1.882553 6.128386
-0.848609 -1.944869 7.022167
-0.827242 -1.893187 7.831520
-0.818406 -1.870455 8.593578
-0.771803 -1.762048 9.237874
-0.967720 -1.738498 0.235890
-1.058794 -1.900111 0.882372
-0.958501 -1.718658 1.417003
-0.940206 -1.683957 2.119911
-0.923866 -1.652376 2.997353
-0.950241 -1.698025 3.555188
-1.033566 -1.844481 4.366612
-1.039321 -1.853399 4.824427
-0.891964 -1.589028 5.506493
-0.931550 -1.657186 6.409440
-0.987608 -1.755605 6.867505
-0.956197 -1.697760 7.649858
-1.004191 -1.780329 8.602999
-0.899663 -1.593998 9.080239
-1.060143 -1.533852 1.876803
-1.036036 -1.497125 2.726779
-1.061785 -1.532615 3.496563
-1.230118 -1.773922 4.113169
-1.310532 -1.887951 4.800167
-1.200288 -1.727797 5.365539
-1.092520 -1.571188 6.055687
-1.043324 -1.499132 6.688291
-1.097723 -1.575163 7.636341
-1.122478 -1.609017 8.373161
-1.025160 -1.468684 8.827414
-1.193612 -1.408107 1.991859
-1.395326 -1.641278 4.075609
-1.504333 -1.767294 4.959087
-1.380597 -1.620736 5.525355
-1.061360 -1.245204 6.064873
-1.032025 -1.209438 6.912131
-1.183571 -1.385581 7.657852
-1.130736 -1.322634 8.306170
-1.070288 -1.250730 9.067309
-1.156940 -1.135406 0.705761
-1.294871 -1.269716 1.309342
-1.247696 -1.222301 2.007084
-1.180867 -1.156083 2.490860
-0.998165 -0.976139 3.330568
-1.693280 -1.652507 4.743109
-1.591896 -1.552055 5.481410
-1.369927 -1.334464 6.192424
-1.195291 -1.163700 6.659501
-1.242014 -1.207684 7.597958
-1.214241 -1.179914 8.106461
-1.207382 -0.963000 0.621264
-1.413996 -1.126939 1.157594
-1.313840 -1.046351 1.686356
-1.250509 -0.994894 2.427624
-0.972573 -0.772876 3.296507
-1.746431 -1.385367 4.475886
-1.656177 -1.312672 5.094754
-1.350074 -1.069075 5.824925
-0.912655 -0.721833 6.815822
-0.959601 -0.758155 7.608029
-1.245480 -0.983287 8.090912
-1.254129 -0.989086 8.876592
-0.917431 -0.722967 9.604957
-1.294397 -0.849172 2.037698
-1.633378 -1.070286 2.811472
-1.838852 -1.203987 3.311471
-1.752975 -1.146608 3.996837
-1.859649 -1.214921 4.791820
-0.972305 -0.632753 7.672118
-1.320077 -0.857871 8.578125
-1.223197 -0.794213 9.238836
-1.252609 -0.659419 0.345324
-1.379574 -0.725265 1.175463
-1.335147 -0.701235 1.761770
-1.754808 -0.918053 4.096178
-1.908760 -0.997619 4.667289
-1.673415 -0.874035 5.108722
-1.375695 -0.715881 7.467548
-1.078682 -0.560594 8.370025
-1.356608 -0.552233 0.239470
-1.390644 -0.565332 0.928380
-1.283987 -0.521082 1.816043
-1.681324 -0.679760 3.731760
-1.958326 -0.790748 4.347808
-1.731910 -0.698293 5.140771
-0.946571 -0.379656 8.079041
-1.192508 -0.477553 8.863735
-0.906517 -0.362677 9.469516
-1.236075 -0.374028 0.423559
-1.447754 -0.437160 1.282368
-1.278874 -0.385668 1.818618
-1.558506 -0.467629 3.867532
-0.644802 -0.192080 7.042386
-0.657955 -0.195794 7.488144
-0.954328 -0.283477 8.196925
-1.216678 -0.246653 0.424159
-1.334726 -0.269793 1.268635
-1.283934 -0.259050 1.800665
-1.578416 -0.316082 3.937061
-0.413607 -0.082074 6.795055
-0.575644 -0.113902 7.621699
-0.918224 -0.181248 8.272105
-1.151235 -0.226623 9.035541
-0.856854 -0.168368 9.663993
-1.321202 -0.129455 0.981089
-1.215960 -0.118698 1.524837
-1.178097 -0.114447 2.223632
-1.133208 -0.109516 2.974906
-1.442766 -0.138781 3.615814
-1.658069 -0.158809 4.201052
-1.250008 -0.119161 4.926461
-0.930696 -0.088302 5.657008
-0.559897 -0.052854 6.453794
-0.531335 -0.049849 7.366240
-0.838943 -0.078286 8.088561
-1.023369 -0.095027 8.763444
-0.933948 -0.086407 9.323761
-1.165784 -0.001671 0.367099
-1.182223 -0.001082 1.139762
-1.113588 -0.000471 1.878584
-1.450042 0.001331 3.858027
-0.398956 0.001093 6.809541
-0.560007 0.001788 7.494016
-0.809391 0.002898 8.055054
-0.838385 0.003415 8.830799
-0.755033 0.003521 9.800929
-1.339022 0.118466 0.615197
-1.140246 0.101543 1.479739
-1.111180 0.099593 2.334755
-1.083467 0.097569 2.969406
-1.459573 0.132020 3.527060
-1.575019 0.143337 4.337131
-1.107912 0.101261 4.985876
-0.754228 0.069241 5.655118
-0.428727 0.039557 6.426539
-0.459731 0.042628 7.134947
-0.739377 0.068877 7.752292
-0.803188 0.075205 8.487404
-0.818489 0.077098 9.374897
-1.272929 0.242799 0.702694
-1.041687 0.199077 1.240677
-1.016628 0.194998 2.252426
-1.052919 0.202340 2.775734
-1.274077 0.245363 3.349614
-1.419454 0.274056 4.042901
-1.134215 0.219648 4.930607
-0.699818 0.135778 5.531863
-0.497000 0.096758 6.565443
-0.548432 0.107019 7.238362
-0.698587 0.136559 7.728227
-0.825988 0.161968 8.633704
-0.812927 0.159757 9.300310
-0.808281 0.235700 0.467953
-0.966027 0.282155 1.116282
-0.906616 0.265376 1.994772
-1.056122 0.309517 2.481587
-1.266173 0.371860 3.318398
-1.339437 0.393877 3.825097
-0.384173 0.113780 6.952378
-0.611458 0.181396 7.621147
-0.754611 0.224172 8.183240
-0.766778 0.228262 9.089210
-0.412917 0.123078 9.751950
-0.666348 0.263578 0.440241
-0.938903 0.371959 1.223017
-0.861960 0.341761 1.654470
-1.040638 0.413488 2.742821
-1.255239 0.499398 3.383330
-1.300004 0.517686 3.853887
-0.356223 0.142623 6.863538
-0.593643 0.237983 7.508157
-0.780914 0.313603 8.417384
-0.699066 0.280971 8.903651
-0.424654 0.170973 9.945804
-0.480828 0.249801 0.462050
-0.563449 0.293090 1.235900
-0.710932 0.370053 1.640744
-1.053372 0.550417 3.994251
-0.236972 0.124318 6.649822
-0.573818 0.301538 7.670161
-0.773689 0.407016 8.337762
-0.686072 0.361270 8.991578
-0.480679 0.253429 9.879950
-0.306965 0.197229 0.266726
-0.398338 0.256149 0.837308
-0.672417 0.432881 1.601705
-0.659390 0.424893 2.248704
-0.413793 0.266936 3.048949
-0.084070 0.054499 6.567407
-0.387596 0.251616 7.514381
-0.743684 0.483277 8.170694
-0.682464 0.443890 8.836795
-0.493816 0.321526 9.667116
-0.170612 0.133679 0.456296
-0.314623 0.246660 0.888392
-0.637498 0.500436 1.826152
-0.568575 0.446713 2.458843
-0.530089 0.416848 3.122377
-0.770840 0.606669 3.703279
-0.943018 0.743216 4.708043
-0.579855 0.457364 5.367868
-0.267838 0.211433 6.055615
-0.348426 0.275365 6.913376
-0.540156 0.427176 7.375380
-0.685014 0.542364 8.224978
-0.581267 0.460515 8.751059
-0.404928 0.321167 9.686567
-0.521705 0.503335 0.890197
-0.513387 0.495599 1.331163
-0.514238 0.497084 2.341460
-0.515616 0.498875 3.039794
-0.685222 0.663335 3.431278
-0.927821 0.899432 4.441404
-0.726486 0.704732 4.990092
-0.333462 0.323817 5.883178
-0.051553 0.050091 6.408133
-0.294723 0.286744 7.391261
-0.586894 0.571412 7.868583
-0.628248 0.612390 8.779859
-0.468473 0.457039 9.523638
-0.613837 0.713971 0.437480
-0.557294 0.648765 1.082007
-0.430238 0.501354 1.833798
-0.373250 0.435311 2.469103
-0.518390 0.605322 3.367577
-0.700428 0.818498 3.898954
-0.307705 0.360968 6.938228
-0.496704 0.583150 7.502141
-0.562543 0.661246 8.421396
-0.467863 0.550394 9.088111
-0.453480 0.650796 0.556465
-0.405691 0.582770 1.233323
-0.379252 0.545302 1.902380
-0.344563 0.495871 2.545906
-0.318494 0.458791 3.231473
-0.496964 0.716770 4.089137
-0.502132 0.724725 4.582116
-0.229216 0.331211 5.488783
-0.106935 0.154692 6.346824
-0.262085 0.379425 6.869274
-0.451436 0.654295 7.638854
-0.479756 0.695997 8.323952
-0.221584 0.391401 0.887165
-0.306341 0.541671 1.550681
-0.295862 0.523600 2.122292
-0.315037 0.558313 3.026521
-0.325954 0.578123 3.548216
-0.417299 0.741280 4.536572
-0.316855 0.563297 5.081391
-0.138940 0.247330 6.014356
-0.078222 0.139336 6.474661
-0.239955 0.428059 7.405784
-0.393015 0.701583 7.800286
-0.393400 0.703094 8.590789
-0.271876 0.486398 9.349877
-0.386291 0.859666 0.505529
-0.309913 0.690456 1.133893
-0.243419 0.543152 2.014328
-0.262758 0.587059 2.740235
-0.225193 0.503733 3.430308
-0.232273 0.520167 4.083972
-0.263326 0.590367 4.711972
-0.151779 0.340799 5.624709
-0.117090 0.263292 6.482488
-0.230197 0.518033 6.889893
-0.344789 0.777007 7.657660
-0.352667 0.795816 8.431137
-0.275078 0.621515 9.224095
-0.192027 0.581337 1.865781
-0.197161 0.597790 2.553948
-0.213106 0.647064 3.200723
-0.206461 0.627667 3.766293
-0.202404 0.616638 4.731574
-0.121370 0.370136 5.228500
-0.079085 0.241647 6.141465
-0.171432 0.524632 6.811289
-0.257851 0.790275 7.447767
-0.270604 0.830768 8.224978
-0.212084 0.651896 8.837400
-0.148760 0.458173 9.843943
-0.171719 0.752647 0.761983
-0.147216 0.646330 1.313422
-0.126743 0.557683 2.045192
-0.127697 0.563282 2.863797
-0.132378 0.584896 3.405941
-0.133919 0.593130 4.198924
-0.093695 0.415894 4.951646
-0.050673 0.225404 5.687393
-0.035357 0.157642 6.484595
-0.111977 0.500322 7.135098
-0.203481 0.911554 7.924905
-0.190566 0.855289 8.563542
-0.142501 0.640913 9.334559
-0.620212 -0.000889 0.207311
-0.898628 -0.001288 0.207311
-0.546155 -0.000783 0.207311
-0.547808 -0.000785 0.207311
-0.705849 -0.001012 0.207311
-0.185396 -0.000266 0.207311
-1.025325 -0.001470 0.207311
-0.265709 -0.000381 0.207311
-1.009944 -0.001448 0.207311
-0.484336 -0.000694 0.207311
-1.063557 -0.029832 0.207311
-1.210796 -0.033962 0.207311
-0.947965 -0.026589 0.207311
-1.167715 -0.032753 0.207311
-0.628970 -0.017642 0.207311
-0.765304 -0.021466 0.207311
-0.920512 -0.025819 0.207311
-1.236194 -0.034674 0.207311
-0.425804 -0.011943 0.207311
-0.225767 -0.006333 0.207311
-0.097745 -0.012703 0.207311
-0.493245 -0.064103 0.207311
-0.714429 -0.092849 0.207311
-1.062463 -0.138080 0.207311
-0.671334 -0.087248 0.207311
-0.909379 -0.118185 0.207311
-0.570915 -0.074197 0.207311
-0.938002 -0.121905 0.207311
-0.343810 -0.044682 0.207311
-0.135237 -0.017576 0.207311
-1.550847 -0.203038 0.207311
-1.345998 -0.176219 0.207311
-0.565382 -0.074020 0.207311
-0.002243 -0.000294 0.207311
-1.547107 -0.202549 0.207311
-0.287435 -0.037631 0.207311
-1.333640 -0.174601 0.207311
-0.667208 -0.087351 0.207311
-0.388318 -0.050839 0.207311
-1.245180 -0.163020 0.207311
-0.249524 -0.036052 0.207311
-0.279030 -0.040315 0.207311
-0.080348 -0.011609 0.207311
-0.840003 -0.121366 0.207311
-0.514403 -0.074323 0.207311
-0.410282 -0.059279 0.207311
-1.224685 -0.176946 0.207311
-0.658552 -0.095150 0.207311
-0.952052 -0.137555 0.207311
-0.683604 -0.098769 0.207311
-0.642888 -0.112552 0.207311
-0.275576 -0.048246 0.207311
-1.202826 -0.210582 0.207311
-0.911888 -0.159646 0.207311
-0.837949 -0.146702 0.207311
-0.938395 -0.164287 0.207311
-0.480075 -0.084048 0.207311
-0.115249 -0.020177 0.207311
-1.282879 -0.224597 0.207311
-0.812930 -0.142322 0.207311
-0.163672 -0.033181 0.207311
-1.102236 -0.223453 0.207311
-1.076725 -0.218281 0.207311
-0.001544 -0.000313 0.207311
-0.214272 -0.043439 0.207311
-0.056719 -0.011499 0.207311
-0.204965 -0.041552 0.207311
-1.086881 -0.220340 0.207311
-0.587300 -0.119061 0.207311
-0.434106 -0.088005 0.207311
-0.187522 -0.043014 0.207311
-0.463740 -0.106374 0.207311
-0.843576 -0.193502 0.207311
-0.027619 -0.006335 0.207311
-0.197175 -0.045229 0.207311
-0.903369 -0.207217 0.207311
-0.553327 -0.126923 0.207311
-1.180790 -0.270853 0.207311
-0.725371 -0.166388 0.207311
-1.046474 -0.240043 0.207311
-0.540480 -0.131550 0.207311
-0.672322 -0.163640 0.207311
-0.892992 -0.217350 0.207311
-0.556330 -0.135408 0.207311
-0.233453 -0.056821 0.207311
-0.575536 -0.140083 0.207311
-0.902649 -0.219700 0.207311
-0.730914 -0.177901 0.207311
-0.676532 -0.164665 0.207311
-0.551644 -0.134267 0.207311
-0.757645 -0.211229 0.207311
-0.502664 -0.140141 0.207311
-0.130179 -0.036293 0.207311
-0.895202 -0.249579 0.207311
-0.289194 -0.080626 0.207311
-0.370797 -0.103377 0.207311
-0.634233 -0.176822 0.207311
-1.537719 -0.428710 0.207311
-0.872099 -0.243138 0.207311
-0.417385 -0.116365 0.207311
-0.789077 -0.238770 0.207311
-1.038411 -0.314217 0.207311
-1.194755 -0.361525 0.207311
-0.731448 -0.221331 0.207311
-0.928482 -0.280953 0.207311
-0.145567 -0.044048 0.207311
-1.136974 -0.344041 0.207311
-0.164645 -0.049821 0.207311
-1.139084 -0.344680 0.207311
-0.198529 -0.060074 0.207311
-0.320818 -0.107752 0.207311
-1.106745 -0.371719 0.207311
-1.285532 -0.431768 0.207311
-0.404561 -0.135879 0.207311
-1.004315 -0.337317 0.207311
-0.825549 -0.277275 0.207311
-1.217855 -0.409038 0.207311
-1.336685 -0.448949 0.207311
-0.501279 -0.168363 0.207311
-1.021906 -0.343225 0.207311
-0.554302 -0.196198 0.207311
-0.632595 -0.223910 0.207311
-0.041723 -0.014768 0.207311
-0.638762 -0.226093 0.207311
-1.240843 -0.439202 0.207311
-1.167124 -0.413109 0.207311
-1.482076 -0.524588 0.207311
-0.739612 -0.261789 0.207311
-1.438459 -0.509149 0.207311
-0.564454 -0.199791 0.207311
-1.147283 -0.449180 0.207311
-0.646155 -0.252980 0.207311
-0.039364 -0.015412 0.207311
-0.519195 -0.203273 0.207311
-0.178185 -0.069763 0.207311
-0.727023 -0.284641 0.207311
-0.962694 -0.376911 0.207311
-0.057878 -0.022660 0.207311
-0.056255 -0.022025 0.207311
-1.060938 -0.415375 0.207311
-0.594089 -0.241835 0.207311
-1.335668 -0.543709 0.207311
-1.019435 -0.414981 0.207311
-0.704233 -0.286671 0.207311
-0.508684 -0.207070 0.207311
-0.384449 -0.156497 0.207311
-0.267880 -0.109046 0.207311
-0.509241 -0.207296 0.207311
-1.351206 -0.550034 0.207311
-0.758577 -0.308793 0.207311
-1.373572 -0.604135 0.207311
-0.322461 -0.141827 0.207311
-0.335384 -0.147511 0.207311
-0.353969 -0.155685 0.207311
-1.388018 -0.610489 0.207311
-0.160016 -0.070379 0.207311
-0.307792 -0.135375 0.207311
-0.427598 -0.188069 0.207311
-0.304342 -0.133858 0.207311
-0.178569 -0.078540 0.207311
-0.847729 -0.392018 0.207311
-1.136418 -0.525517 0.207311
-1.245322 -0.575878 0.207311
-0.339885 -0.157174 0.207311
-0.865735 -0.400344 0.207311
-0.789642 -0.365157 0.207311
-0.358871 -0.165954 0.207311
-0.209450 -0.096857 0.207311
-0.340834 -0.157613 0.207311
-0.982830 -0.454493 0.207311
-0.858245 -0.412186 0.207311
-1.282719 -0.616046 0.207311
-0.160778 -0.077216 0.207311
-1.338876 -0.643016 0.207311
-0.506054 -0.243041 0.207311
-0.737854 -0.354366 0.207311
-0.036712 -0.017632 0.207311
-0.973199 -0.467394 0.207311
-0.628693 -0.301940 0.207311
-1.221445 -0.586618 0.207311
-0.301717 -0.158835 0.207311
-0.009144 -0.004814 0.207311
-0.411042 -0.216388 0.207311
-0.872688 -0.459414 0.207311
-1.219626 -0.642056 0.207311
-0.035664 -0.018775 0.207311
-0.836152 -0.440181 0.207311
-1.060744 -0.558414 0.207311
-0.863930 -0.454804 0.207311
-0.996594 -0.524643 0.207311
-0.688380 -0.398434 0.207311
-0.331014 -0.191591 0.207311
-1.059515 -0.613247 0.207311
-0.459248 -0.265813 0.207311
-0.888040 -0.513998 0.207311
-1.027382 -0.594649 0.207311
-0.024843 -0.014379 0.207311
-0.178237 -0.103164 0.207311
-1.350927 -0.781917 0.207311
-0.343491 -0.198813 0.207311
-0.519135 -0.301491 0.207311
-0.662969 -0.385023 0.207311
-1.173497 -0.681515 0.207311
-0.751690 -0.436548 0.207311
-0.122190 -0.070963 0.207311
-0.440210 -0.255655 0.207311
-0.961701 -0.558513 0.207311
-0.119067 -0.069149 0.207311
-0.230877 -0.134083 0.207311
-0.641858 -0.372763 0.207311
-0.840571 -0.526052 0.207311
-1.124352 -0.703650 0.207311
-0.034864 -0.021819 0.207311
-1.262508 -0.790112 0.207311
-0.199970 -0.125147 0.207311
-0.540729 -0.338403 0.207311
-0.929744 -0.581859 0.207311
-0.906615 -0.567384 0.207311
-0.205076 -0.128342 0.207311
-0.685841 -0.429218 0.207311
-0.775849 -0.546332 0.207311
-0.076951 -0.054187 0.207311
-0.709931 -0.499914 0.207311
-0.672571 -0.473606 0.207311
-0.679102 -0.478206 0.207311
-0.054126 -0.038114 0.207311
-1.161770 -0.818087 0.207311
-1.125015 -0.792205 0.207311
-1.156460 -0.814348 0.207311
-1.007105 -0.709176 0.207311
-0.477121 -0.407259 0.207311
-0.944804 -0.806461 0.207311
-0.159888 -0.136476 0.207311
-0.063180 -0.053929 0.207311
-0.688704 -0.587861 0.207311
-0.363977 -0.310682 0.207311
-0.036906 -0.031502 0.207311
-0.956383 -0.816345 0.207311
-0.426924 -0.364411 0.207311
-1.140119 -0.973177 0.207311
-0.441096 -0.380525 0.207311
-0.932504 -0.804453 0.207311
-0.894428 -0.771606 0.207311
-0.841923 -0.726311 0.207311
-1.175582 -1.014152 0.207311
-1.113813 -0.960865 0.207311
-0.165774 -0.143010 0.207311
-0.316490 -0.273030 0.207311
-0.386549 -0.333469 0.207311
-0.138534 -0.119511 0.207311
-1.044897 -0.947033 0.207311
-1.056759 -0.957785 0.207311
-0.530091 -0.480443 0.207311
-0.713782 -0.646930 0.207311
-0.640319 -0.580348 0.207311
-0.455890 -0.413192 0.207311
-1.086390 -0.984640 0.207311
-0.850285 -0.770648 0.207311
-0.088577 -0.080281 0.207311
-0.302901 -0.274532 0.207311
-1.162572 -1.094504 0.207311
-1.129632 -1.063492 0.207311
-0.203300 -0.191397 0.207311
-0.592304 -0.557625 0.207311
-0.450899 -0.424499 0.207311
-0.657451 -0.618958 0.207311
-1.007769 -0.948765 0.207311
-1.025062 -0.965046 0.207311
-0.597328 -0.562355 0.207311
-0.060194 -0.056669 0.207311
-0.329734 -0.339888 0.207311
-1.118086 -1.152518 0.207311
-0.731062 -0.753575 0.207311
-0.917696 -0.945957 0.207311
-0.682745 -0.703771 0.207311
-0.618940 -0.638001 0.207311
-0.602362 -0.620912 0.207311
-0.486010 -0.500977 0.207311
-0.649895 -0.669909 0.207311
-0.995571 -1.026230 0.207311
-0.977007 -1.031989 0.207311
-0.209517 -0.221308 0.207311
-0.313762 -0.331419 0.207311
-0.624352 -0.659489 0.207311
-1.254983 -1.325609 0.207311
-1.207719 -1.275686 0.207311
-0.570847 -0.602973 0.207311
-0.843694 -0.891174 0.207311
-0.823019 -0.869335 0.207311
-1.009280 -1.066078 0.207311
-0.818535 -0.926510 0.207311
-0.150934 -0.170844 0.207311
-0.085708 -0.097014 0.207311
-0.438615 -0.496474 0.207311
-0.735414 -0.832425 0.207311
-0.059736 -0.067616 0.207311
-0.658057 -0.744863 0.207311
-0.721092 -0.816214 0.207311
-0.742525 -0.840474 0.207311
-1.220751 -1.381784 0.207311
-0.484556 -0.617374 0.207311
-0.571607 -0.728286 0.207311
-0.255644 -0.325717 0.207311
-0.343534 -0.437698 0.207311
-1.003925 -1.279103 0.207311
-0.337236 -0.429674 0.207311
-0.497672 -0.634085 0.207311
-0.939636 -1.197192 0.207311
-0.404108 -0.514876 0.207311
-0.914713 -1.165438 0.207311
-0.296584 -0.386766 0.207311
-0.638058 -0.832072 0.207311
-0.920192 -1.199994 0.207311
-0.522058 -0.680800 0.207311
-1.052061 -1.371961 0.207311
-0.945397 -1.232864 0.207311
-0.827112 -1.078612 0.207311
-0.447759 -0.583909 0.207311
-0.784530 -1.023082 0.207311
-0.302806 -0.394880 0.207311
-0.913217 -1.231248 0.207311
-0.143776 -0.193847 0.207311
-0.662862 -0.893707 0.207311
-0.490247 -0.660978 0.207311
-0.143403 -0.193343 0.207311
-0.784382 -1.057546 0.207311
-0.271986 -0.366707 0.207311
-0.449633 -0.606219 0.207311
-0.241029 -0.324968 0.207311
-0.113633 -0.153206 0.207311
-0.268667 -0.376446 0.207311
-0.813204 -1.139431 0.207311
-0.172665 -0.241932 0.207311
-0.692702 -0.970587 0.207311
-0.834763 -1.169638 0.207311
-0.109385 -0.153266 0.207311
-0.191718 -0.268629 0.207311
-0.976122 -1.367705 0.207311
-0.465485 -0.652220 0.207311
-0.717783 -1.005731 0.207311
-0.200447 -0.324905 0.207311
-0.342903 -0.555810 0.207311
-0.961324 -1.558209 0.207311
-0.902801 -1.463349 0.207311
-0.006289 -0.010194 0.207311
-0.220786 -0.357871 0.207311
-0.255826 -0.414668 0.207311
-0.691433 -1.120742 0.207311
-0.210984 -0.341984 0.207311
-0.394568 -0.639555 0.207311
-0.586353 -1.003398 0.207311
-0.931095 -1.593337 0.207311
-0.411597 -0.704346 0.207311
-0.568241 -0.972403 0.207311
-0.781283 -1.336971 0.207311
-0.423818 -0.725260 0.207311
-0.196267 -0.335862 0.207311
-0.111575 -0.190933 0.207311
-0.269522 -0.461219 0.207311
-0.184481 -0.315694 0.207311
-0.055351 -0.099438 0.207311
-0.288952 -0.519099 0.207311
-0.332242 -0.596869 0.207311
-0.045962 -0.082571 0.207311
-0.856608 -1.538886 0.207311
-0.163284 -0.293337 0.207311
-0.342531 -0.615353 0.207311
-0.797219 -1.432194 0.207311
-0.333435 -0.599012 0.207311
-0.692705 -1.244436 0.207311
-0.553554 -1.120583 0.207311
-0.836014 -1.692377 0.207311
-0.474223 -0.959989 0.207311
-0.222517 -0.450450 0.207311
-0.615757 -1.246502 0.207311
-0.048666 -0.098516 0.207311
-0.455443 -0.921972 0.207311
-0.655052 -1.326048 0.207311
-0.487842 -0.987559 0.207311
-0.701278 -1.419627 0.207311
-0.733318 -1.863986 0.207311
-0.165097 -0.419654 0.207311
-0.548767 -1.394885 0.207311
-0.138757 -0.352700 0.207311
-0.654501 -1.663646 0.207311
-0.400046 -1.016858 0.207311
-0.483543 -1.229095 0.207311
-0.541010 -1.375167 0.207311
-0.076565 -0.194616 0.207311
-0.536782 -1.364420 0.207311
-0.606760 -1.661407 0.207311
-0.314698 -0.861695 0.207311
-0.049192 -0.134697 0.207311
-0.142936 -0.391383 0.207311
-0.238181 -0.652177 0.207311
-0.066420 -0.181869 0.207311
-0.387837 -1.061959 0.207311
-0.491883 -1.346854 0.207311
-0.444213 -1.216327 0.207311
-0.291564 -0.798348 0.207311
-0.625084 -1.810254 0.207311
-0.407891 -1.181261 0.207311
-0.231536 -0.670532 0.207311
-0.195099 -0.565011 0.207311
-0.371094 -1.074696 0.207311
-0.597771 -1.731155 0.207311
-0.395745 -1.146084 0.207311
-0.466743 -1.351696 0.207311
-0.613550 -1.776850 0.207311
-0.650848 -1.884866 0.207311
-0.428136 -1.450032 0.207311
-0.405371 -1.372930 0.207311
-0.412097 -1.395708 0.207311
-0.159888 -0.541517 0.207311
-0.342658 -1.160530 0.207311
-0.107404 -0.363760 0.207311
-0.231398 -0.783711 0.207311
-0.031395 -0.106329 0.207311
-0.382558 -1.295666 0.207311
-0.534038 -1.808704 0.207311
-0.336903 -1.278273 0.207311
-0.202118 -0.766871 0.207311
-0.158979 -0.603197 0.207311
-0.436107 -1.654671 0.207311
-0.423780 -1.607901 0.207311
-0.192013 -0.728531 0.207311
-0.149859 -0.568593 0.207311
-0.452395 -1.716469 0.207311
-0.156461 -0.593641 0.207311
-0.449535 -1.705619 0.207311
-0.167996 -0.883303 0.207311
-0.113104 -0.594686 0.207311
-0.169176 -0.889509 0.207311
-0.208200 -1.094689 0.207311
-0.182674 -0.960476 0.207311
-0.152034 -0.799379 0.207311
-0.145426 -0.764635 0.207311
-0.316915 -1.666304 0.207311
-0.030668 -0.161246 0.207311
-0.274417 -1.442854 0.207311
-0.134430 -0.734194 0.207311
-0.111677 -0.609925 0.207311
-0.290232 -1.585110 0.207311
-0.173804 -0.949235 0.207311
-0.133018 -0.726482 0.207311
-0.244760 -1.336761 0.207311
-0.078409 -0.428231 0.207311
-0.337248 -1.841887 0.207311
-0.243123 -1.327824 0.207311
-0.153194 -0.836673 0.207311
-0.211680 -1.352545 0.207311
-0.276529 -1.766903 0.207311
-0.265384 -1.695692 0.207311
-0.307165 -1.962655 0.207311
-0.073566 -0.470054 0.207311
-0.203242 -1.298634 0.207311
-0.144094 -0.920700 0.207311
-0.001135 -0.007254 0.207311
-0.173026 -1.105562 0.207311
-0.108058 -0.690448 0.207311
-0.200621 -1.359589 0.207311
-0.009304 -0.063050 0.207311
-0.183769 -1.245385 0.207311
-0.006423 -0.043525 0.207311
-0.204629 -1.386754 0.207311
-0.267605 -1.813538 0.207311
-0.086638 -0.587135 0.207311
-0.003566 -0.024169 0.207311
-0.231004 -1.565497 0.207311
-0.266277 -1.804536 0.207311
-0.209183 -1.742425 0.207311
-0.225662 -1.879691 0.207311
-0.221679 -1.846512 0.207311
-0.201743 -1.680452 0.207311
-0.182872 -1.523268 0.207311
-0.139422 -1.161340 0.207311
-0.212684 -1.771585 0.207311
-0.010438 -0.086941 0.207311
-0.091288 -0.760402 0.207311
-0.242345 -2.018654 0.207311
0.045301 -0.638482 0.207311
0.111923 -1.577467 0.207311
0.055725 -0.785404 0.207311
0.060470 -0.852277 0.207311
0.087726 -1.236434 0.207311
0.063271 -0.891748 0.207311
0.002850 -0.040165 0.207311
0.000609 -0.008580 0.207311
0.092884 -1.309122 0.207311
0.136020 -1.917100 0.207311
0.008717 -0.053716 0.207311
0.002029 -0.012500 0.207311
0.007974 -0.049135 0.207311
0.014725 -0.090740 0.207311
0.001950 -0.012014 0.207311
0.005565 -0.034292 0.207311
0.015397 -0.094876 0.207311
0.002194 -0.013519 0.207311
0.000833 -0.005131 0.207311
0.007227 -0.044535 0.207311
0.331253 -1.657169 0.207311
0.246822 -1.234781 0.207311
0.086510 -0.432786 0.207311
0.107417 -0.537377 0.207311
0.077315 -0.386787 0.207311
0.291424 -1.457915 0.207311
0.328832 -1.645057 0.207311
0.192773 -0.964388 0.207311
0.096590 -0.483214 0.207311
0.345525 -1.728565 0.207311
0.005307 -0.016460 0.207311
0.137211 -0.425561 0.207311
0.136854 -0.424453 0.207311
0.410919 -1.274470 0.207311
0.223748 -0.693958 0.207311
0.595692 -1.847544 0.207311
0.026249 -0.081411 0.207311
0.331347 -1.027676 0.207311
0.526273 -1.632243 0.207311
0.295710 -0.917149 0.207311
0.390318 -0.719719 0.207311
0.795019 -1.465959 0.207311
0.563904 -1.039799 0.207311
0.556797 -1.026695 0.207311
0.075468 -0.139159 0.207311
0.663439 -1.223335 0.207311
0.862371 -1.590152 0.207311
0.915388 -1.687910 0.207311
0.672708 -1.240427 0.207311
0.325788 -0.600730 0.207311
0.986304 -1.485688 0.207311
0.072043 -0.108520 0.207311
0.916233 -1.380139 0.207311
0.790225 -1.190332 0.207311
0.276826 -0.416988 0.207311
0.565076 -0.851184 0.207311
0.838872 -1.263608 0.207311
0.752662 -1.133750 0.207311
0.111513 -0.167974 0.207311
0.803984 -1.211056 0.207311
0.399192 -0.581435 0.207311
0.879971 -1.281705 0.207311
0.851690 -1.240512 0.207311
1.007584 -1.467577 0.207311
0.250783 -0.365273 0.207311
0.124992 -0.182054 0.207311
0.182215 -0.265401 0.207311
0.062736 -0.091377 0.207311
1.209203 -1.761240 0.207311
0.419715 -0.611328 0.207311
0.955520 -1.348538 0.207311
1.018981 -1.438101 0.207311
0.605534 -0.854598 0.207311
0.842801 -1.189456 0.207311
0.061451 -0.086727 0.207311
0.714430 -1.008285 0.207311
0.411818 -0.581205 0.207311
0.128377 -0.181181 0.207311
0.231085 -0.326133 0.207311
0.770534 -1.087464 0.207311
1.043564 -1.211718 0.207311
0.757105 -0.879101 0.207311
0.383552 -0.445355 0.207311
1.108250 -1.286827 0.207311
0.906160 -1.052173 0.207311
0.343630 -0.399000 0.207311
0.441305 -0.512414 0.207311
0.310561 -0.360603 0.207311
1.190687 -1.382547 0.207311
0.895362 -1.039636 0.207311
1.187605 -1.338397 0.207311
0.245414 -0.276575 0.207311
0.420034 -0.473366 0.207311
0.717797 -0.808937 0.207311
0.029628 -0.033390 0.207311
0.360697 -0.406495 0.207311
1.059710 -1.194263 0.207311
0.617804 -0.696247 0.207311
0.097873 -0.110300 0.207311
0.944207 -1.064094 0.207311
0.439394 -0.478716 0.207311
0.223682 -0.243700 0.207311
0.674213 -0.734549 0.207311
1.026398 -1.118251 0.207311
1.081557 -1.178347 0.207311
0.546662 -0.595584 0.207311
0.046443 -0.050600 0.207311
0.129031 -0.140578 0.207311
1.356411 -1.477798 0.207311
0.068979 -0.075151 0.207311
0.861159 -0.870032 0.207311
0.597246 -0.603400 0.207311
0.528248 -0.533691 0.207311
1.217539 -1.230085 0.207311
0.745278 -0.752958 0.207311
0.750345 -0.758077 0.207311
1.146704 -1.158520 0.207311
1.129537 -1.141176 0.207311
1.093761 -1.105031 0.207311
1.462039 -1.477104 0.207311
0.423902 -0.428100 0.207311
1.502072 -1.516947 0.207311
0.018073 -0.018252 0.207311
0.191409 -0.193305 0.207311
0.803247 -0.811202 0.207311
1.269137 -1.281704 0.207311
1.388009 -1.401754 0.207311
1.413657 -1.427656 0.207311
1.239178 -1.251449 0.207311
0.220442 -0.222625 0.207311
0.730343 -0.706342 0.207311
0.119305 -0.115384 0.207311
0.617277 -0.596992 0.207311
0.310276 -0.300079 0.207311
1.067887 -1.032793 0.207311
0.865363 -0.836924 0.207311
1.056853 -1.022122 0.207311
0.554599 -0.536374 0.207311
0.900800 -0.871197 0.207311
1.320066 -1.276685 0.207311
0.628386 -0.565595 0.207311
0.288169 -0.259374 0.207311
0.375825 -0.338271 0.207311
0.572118 -0.514950 0.207311
0.188656 -0.169805 0.207311
0.567337 -0.510647 0.207311
1.222232 -1.100103 0.207311
0.123841 -0.111466 0.207311
1.316456 -1.184912 0.207311
0.111498 -0.100356 0.207311
1.072772 -0.900090 0.207311
0.427242 -0.358470 0.207311
0.868790 -0.728942 0.207311
0.985644 -0.826986 0.207311
1.394301 -1.169862 0.207311
0.798081 -0.669616 0.207311
