1.015007 -0.812358 3.337962
1.665944 -1.335550 5.510230
1.361040 -1.091541 6.104243
1.145215 -0.919178 7.255068
1.240477 -0.996267 8.120573
1.201883 -0.965801 8.910770
1.030480 -0.828617 9.924494
1.245981 -1.174338 1.992556
1.291231 -1.218031 3.175198
1.595822 -1.506464 4.153348
1.571304 -1.484568 5.321264
1.359194 -1.284675 5.918663
0.948302 -0.896770 6.738653
0.922034 -0.872433 7.579857
1.115972 -1.056668 8.526545
1.032763 -0.978482 9.452858
0.591653 -0.560744 10.104424
1.089655 -1.210666 0.738566
1.252554 -1.392713 1.773160
1.070338 -1.191007 2.830763
1.262202 -1.405672 3.957314
1.530736 -1.705803 4.778756
1.353253 -1.508903 5.622363
0.960740 -1.071921 6.606797
0.886957 -0.990229 7.538571
1.074932 -1.200860 8.402313
1.038926 -1.161189 9.104747
0.736022 -0.823093 10.029611
0.916362 -1.205536 1.168162
0.983148 -1.294359 2.158406
0.667687 -0.879549 2.973951
1.243250 -1.640602 5.226618
0.996451 -1.315683 6.069161
0.514546 -0.679743 6.918833
0.928476 -1.228319 8.782781
0.799714 -1.058529 9.575126
0.860655 -1.340898 0.760152
0.933569 -1.455707 1.801149
1.012854 -1.580889 3.027731
1.243972 -1.943262 4.044525
1.109281 -1.733946 4.864056
0.967061 -1.512604 5.713081
0.817380 -1.279217 6.494874
0.646228 -1.012036 7.423854
0.687592 -1.077530 8.283727
0.746680 -1.171087 9.351666
0.565313 -0.887144 10.213519
0.630071 -1.183036 0.994090
0.707093 -1.329043 2.196608
0.644069 -1.211455 3.040371
0.778720 -1.466210 4.188996
0.871535 -1.642297 5.104311
0.661203 -1.246940 6.095854
0.378737 -0.714528 6.665518
0.355940 -0.672085 7.690353
0.614819 -1.162036 8.762802
0.639575 -1.209546 9.475706
0.298130 -0.564098 10.282907
0.648254 -1.499120 0.525845
0.629636 -1.457625 1.608202
0.578377 -1.340196 2.551447
0.689963 -1.600567 3.674609
0.837787 -1.945466 4.661194
0.711663 -1.654197 5.692637
0.488781 -1.136562 6.172985
0.308865 -0.718719 7.002135
0.400165 -0.932373 8.329607
0.537919 -1.254275 9.049510
0.413792 -0.965526 9.882975
0.499304 -1.479353 2.263028
0.377479 -1.119524 3.138158
0.386202 -1.148025 5.099733
0.272202 -0.809993 6.054648
0.242639 -0.722586 6.754305
0.235855 -0.703295 7.905543
0.408582 -1.219905 8.918170
0.420940 -1.257969 9.734334
0.356073 -1.423294 2.229423
0.261817 -1.047788 3.046854
0.326083 -1.309019 5.071244
0.219264 -0.881405 6.045915
0.176192 -0.708995 6.780173
0.186965 -0.753410 7.737454
0.290667 -1.173240 8.786301
0.290137 -1.172622 9.683704
0.191425 -1.160710 1.002141
0.230466 -1.401240 2.212620
0.201286 -1.226249 3.112337
0.248009 -1.513986 4.003808
0.236339 -1.445431 4.847346
0.173902 -1.065872 5.878404
0.135254 -0.830099 6.529179
0.108092 -0.664912 7.617291
0.180642 -1.113610 8.534863
0.195373 -1.207210 9.590275
0.100770 -0.623202 10.152908
0.115419 -1.418171 1.910232
0.120181 -1.483401 2.930097
0.148814 -1.845160 3.911681
0.139619 -1.737833 4.783285
0.099190 -1.240049 5.843201
0.063533 -0.795918 6.385748
0.053598 -0.674240 7.364710
0.085036 -1.074874 8.395918
0.094279 -1.197883 9.565527
0.065651 -0.835794 10.118520
-0.000877 -1.528095 0.519299
-0.001425 -1.490292 1.583442
-0.001724 -1.348835 2.489649
-0.002708 -1.554223 3.772727
-0.004071 -1.971391 4.628581
-0.003693 -1.562813 5.518651
-0.002514 -0.984265 6.153895
-0.002553 -0.887660 7.103025
-0.003403 -1.047233 8.162705
-0.004089 -1.129991 9.233233
-0.003754 -0.959014 10.157450
-0.109219 -1.359835 2.146046
-0.063885 -0.792697 2.952381
-0.116887 -1.436846 5.019263
-0.074581 -0.913157 6.014524
-0.044733 -0.546045 6.793440
-0.058670 -0.712746 7.911092
-0.098355 -1.189610 8.869380
-0.097690 -1.177599 9.690178
-0.217777 -1.329767 0.566663
-0.213872 -1.302449 1.755246
-0.223690 -1.359785 2.557788
-0.254009 -1.539940 3.752151
-0.280079 -1.693697 4.875451
-0.236931 -1.431060 5.455057
-0.121860 -0.735043 6.183411
-0.120393 -0.724427 7.333234
-0.190167 -1.141860 8.249320
-0.166333 -0.996543 9.341676
-0.132656 -0.793495 10.177866
-0.299274 -1.203888 1.972878
-0.257592 -1.035095 2.694408
-0.387111 -1.549973 5.018973
-0.276321 -1.105273 5.749356
-0.193459 -0.772912 6.607305
-0.244320 -0.974790 7.501381
-0.307920 -1.226695 8.485416
-0.282960 -1.125649 9.505562
-0.136263 -0.541711 10.131652
-0.304536 -0.897922 1.249385
-0.381279 -1.122540 2.502561
-0.477581 -1.404521 3.420574
-0.556237 -1.633575 4.577814
-0.419313 -1.230575 5.247217
-0.228732 -0.670820 5.917250
-0.255288 -0.747713 7.081121
-0.368563 -1.078193 8.083612
-0.374251 -1.093789 8.937722
-0.334793 -0.977364 9.997688
-0.462141 -1.080052 2.007831
-0.452069 -1.055487 3.000186
-0.584610 -1.363337 4.168625
-0.769763 -1.793458 5.053501
-0.560027 -1.304107 5.667964
-0.274211 -0.638040 6.605304
-0.371722 -0.864012 7.684243
-0.483514 -1.122855 8.574132
-0.403889 -0.937101 9.589763
-0.227967 -0.528693 10.187996
-0.370265 -0.699745 1.381874
-0.543142 -1.025392 2.575310
-0.682098 -1.286760 3.423152
-0.790877 -1.490628 4.443652
-0.497353 -0.936651 5.461035
-0.270791 -0.509762 6.029771
-0.358357 -0.673997 7.086149
-0.512156 -0.962325 8.203646
-0.520480 -0.977151 9.218630
-0.441946 -0.829360 9.780439
-0.740323 -1.164829 0.218963
-0.494929 -0.778229 1.036070
-0.626767 -0.984756 2.028617
-0.510898 -0.802082 3.038846
-0.663725 -1.041245 3.956361
-0.747539 -1.171828 4.926497
-0.479890 -0.751854 5.707055
-0.354008 -0.554156 6.874175
-0.545336 -0.852999 7.829955
-0.665783 -1.040727 8.640991
-0.586751 -0.916636 9.483075
-0.544048 -0.713326 1.456913
-0.675371 -0.884785 2.559009
-0.692278 -0.906410 3.343460
-0.692578 -0.905957 4.618834
-0.595877 -0.779049 5.372423
-0.345420 -0.451331 6.274011
-0.494429 -0.645581 7.207433
-0.725467 -0.946618 8.072654
-0.644862 -0.840791 9.199809
-0.550171 -0.717026 9.849863
-0.814024 -0.894596 1.985144
-0.741576 -0.814446 2.903543
-0.770042 -0.845201 3.745521
-0.748104 -0.820505 4.813065
-0.510718 -0.559844 5.627161
-0.434171 -0.475655 6.493200
-0.676261 -0.740324 7.511820
-0.832774 -0.911008 8.511867
-0.716332 -0.783207 9.339474
-0.369695 -0.403960 10.388625
-0.827392 -0.784690 2.556757
-0.815388 -0.772934 3.234333
-0.783677 -0.742319 4.295311
-0.627803 -0.594293 5.228487
-0.410274 -0.388130 6.183593
-0.648453 -0.613053 7.082085
-0.907126 -0.856992 8.051380
-0.837891 -0.791105 8.958518
-0.662645 -0.625244 9.968723
-0.944016 -0.759298 1.833119
-0.800405 -0.643298 2.890105
-0.837516 -0.672762 3.632176
-0.791191 -0.634984 4.875917
-0.649533 -0.520983 5.736369
-0.641164 -0.513993 6.502387
-0.827916 -0.663115 7.720313
-0.933727 -0.747398 8.579903
-0.796063 -0.636845 9.439678
-0.473224 -0.378372 10.332154
-0.757166 -0.509725 1.343514
-0.944516 -0.635287 2.486170
-0.946573 -0.636331 3.182314
-0.880603 -0.591456 4.357836
-0.736847 -0.494616 5.144698
-0.501410 -0.336390 5.924255
-0.664873 -0.445640 7.149551
-0.990916 -0.663683 8.072654
-0.962234 -0.644071 8.927325
-0.753379 -0.503903 10.000117
-1.231147 -0.699544 0.197444
-0.829274 -0.470877 1.024101
-0.994814 -0.564405 2.020165
-0.818014 -0.463670 3.151213
-0.902535 -0.511253 3.918132
-0.834444 -0.472238 5.074344
-0.612318 -0.346354 5.736507
-0.725590 -0.410002 7.002694
-1.134844 -0.640808 7.781897
-1.036234 -0.584685 8.750654
-0.772136 -0.357115 0.598640
-0.985191 -0.455196 1.668925
-0.955592 -0.441082 2.736103
-0.936833 -0.432010 3.767706
-0.973052 -0.448370 4.587451
-0.798775 -0.367746 5.558224
-0.653033 -0.300367 6.611052
-0.888889 -0.408458 7.626687
-1.129838 -0.518698 8.599492
-0.998231 -0.458017 9.270689
-0.562895 -0.258080 10.237244
-0.845892 -0.311378 1.231725
-1.049611 -0.385841 2.467566
-1.010458 -0.371047 3.460705
-1.054694 -0.386887 4.410425
-0.837062 -0.306731 5.415661
-0.585707 -0.214464 6.153378
-0.779324 -0.284982 7.364985
-1.152629 -0.421046 8.284501
-1.056551 -0.385560 9.264448
-0.828283 -0.302049 9.996430
-1.050840 -0.288404 1.088223
-1.087693 -0.298049 2.213809
-0.975578 -0.266944 3.255402
-0.989047 -0.270237 4.301847
-0.964105 -0.263094 5.209214
-0.702373 -0.191461 6.045178
-0.804893 -0.219085 7.113042
-1.210294 -0.328991 8.020266
-1.246946 -0.338554 8.887087
-0.993072 -0.269299 9.858336
-1.254195 -0.242421 1.798422
-1.106619 -0.213511 2.749819
-0.949579 -0.182790 3.976507
-1.064788 -0.204567 4.996905
-0.917974 -0.176088 5.840976
-0.740396 -0.141867 6.463888
-0.945737 -0.180784 7.699822
-1.215179 -0.231805 8.770030
-1.029946 -0.196197 9.572866
-0.542767 -0.103304 10.173896
-1.047915 -0.113222 0.425236
-1.113213 -0.119844 1.504066
-1.113884 -0.119502 2.538193
-1.122957 -0.120005 3.706813
-1.326119 -0.141374 4.405159
-0.995030 -0.105776 5.299326
-0.630662 -0.066875 6.111214
-0.811662 -0.085689 7.427913
-1.193963 -0.125715 8.160640
-1.135093 -0.119186 9.020916
-0.907668 -0.095034 9.958259
-1.231278 -0.032125 2.145409
-1.360861 -0.035013 3.151668
-1.296683 -0.032891 4.179609
-1.187789 -0.029715 5.182816
-1.077005 -0.026721 5.788793
-0.796093 -0.019477 6.828602
-1.064798 -0.025715 7.699468
-1.240665 -0.029443 8.888608
-1.331398 0.077265 0.669032
-1.274609 0.074453 1.727617
-1.370990 0.080652 2.879684
-1.608856 0.095163 3.757001
-1.620558 0.096431 4.748314
-1.228725 0.073504 5.695671
-0.785515 0.047144 6.327356
-0.932648 0.056314 7.354846
-1.245815 0.075714 8.439248
-1.172136 0.071622 9.422408
-0.859967 0.052729 10.132603
-1.360891 0.187901 1.185223
-1.150095 0.159184 2.120205
-1.760101 0.245167 4.492841
-1.516495 0.211637 5.255550
-0.949790 0.132756 5.947482
-0.803174 0.112519 6.876191
-1.125942 0.158141 7.844799
-1.208753 0.170267 9.002753
-1.044543 0.147369 9.691482
-1.125132 0.256115 0.921717
-1.308472 0.298376 1.986173
-1.572496 0.359211 3.029538
-1.500157 0.343271 4.072961
-1.425769 0.326758 5.036380
-1.286036 0.295066 5.752206
-0.721845 0.165825 6.627311
-0.955799 0.219967 7.736277
-1.242992 0.286459 8.562630
-1.435576 0.441041 1.985708
-1.694073 0.521163 3.026277
-1.723577 0.530832 3.896636
-1.488609 0.459025 4.885269
-1.211946 0.374100 5.749871
-0.865649 0.267496 6.688432
-1.042807 0.322601 7.574446
-1.173399 0.363439 8.542997
-1.186964 0.367984 9.316424
-0.765482 0.237532 10.198853
-1.364926 0.550700 0.795405
-1.497573 0.604729 1.606696
-1.619254 0.654572 2.639866
-1.791415 0.724943 3.656765
-1.401787 0.567893 4.771828
-1.187770 0.481487 5.409222
-0.929725 0.377159 6.180832
-0.813760 0.330423 7.144912
-1.062941 0.432060 8.171700
-1.188652 0.483740 9.376534
-1.020163 0.415354 9.880112
-1.235650 0.616436 1.377315
-1.191753 0.594914 2.087786
-1.787153 0.894213 4.625537
-1.610116 0.806041 5.220089
-1.076237 0.539057 5.899210
-0.592475 0.297004 6.963991
-0.787802 0.395231 7.846593
-1.109576 0.557256 9.027846
-1.105860 0.555683 9.656493
-1.395418 0.839892 1.857194
-1.491563 0.898689 3.118378
-1.619108 0.976277 4.036174
-1.552529 0.936850 4.991846
-1.426503 0.861285 5.711607
-0.882096 0.532916 6.596558
-0.700142 0.423285 7.538046
-0.992980 0.600803 8.497902
-1.137001 0.688442 9.405469
-0.865169 0.524112 10.143761
-1.066926 0.768105 1.340413
-1.172527 0.844740 2.291315
-1.540136 1.111271 4.262268
-1.146086 0.827499 5.211826
-0.993380 0.717654 6.015446
-0.582228 0.420848 6.832748
-0.728142 0.526683 7.762834
-1.040579 0.753350 8.928532
-1.018534 0.737871 9.850946
-0.914315 0.794093 1.051300
-1.189539 1.033850 2.001052
-1.466975 1.276279 3.378868
-1.527262 1.329609 4.278581
-1.254674 1.092879 5.059980
-1.124272 0.979854 5.885430
-0.765539 0.667528 6.659159
-0.703756 0.614099 7.715614
-1.010177 0.882168 8.756962
-1.048928 0.916470 9.479769
-0.493963 0.431729 10.156473
-1.077936 1.082436 2.134814
-1.548656 1.557539 4.231566
-1.181099 1.188491 5.018951
-0.954366 0.960850 5.816613
-0.770267 0.775989 6.765498
-0.662421 0.667751 7.684243
-0.906354 0.914201 8.500452
-0.982743 0.991915 9.459105
-0.575789 0.581350 10.083444
-0.972005 1.143905 0.925922
-1.071830 1.262245 1.855571
-0.941310 1.109349 2.872796
-1.239932 1.463575 4.988805
-0.981403 1.158949 5.683330
-0.922250 1.089754 6.549318
-0.734000 0.867780 7.366271
-0.680005 0.804434 8.261359
-0.846233 1.001877 9.359941
-0.661651 0.783766 10.220387
-0.920753 1.298692 0.628573
-0.940716 1.327955 1.716618
-0.902539 1.275029 2.713868
-1.157649 1.636778 3.758643
-1.308980 1.852098 4.683793
-1.107717 1.568292 5.538703
-0.851899 1.206685 6.244155
-0.525418 0.744597 6.998352
-0.608215 0.862653 8.121001
-0.862182 1.223748 9.019647
-0.682867 0.969857 9.988721
-0.754312 1.277459 1.108943
-0.894378 1.516355 2.449317
-1.161017 1.970137 3.458454
-1.223065 2.077053 4.385969
-1.059687 1.801173 5.486833
-0.857180 1.457635 6.112335
-0.503629 0.856928 6.973208
-0.512116 0.872048 7.960204
-0.729534 1.243147 8.764698
-0.671157 1.144367 9.575126
-0.724835 1.472041 1.896623
-0.719387 1.462107 2.748587
-0.884384 1.799837 4.172375
-1.004973 2.047356 5.267494
-0.865312 1.763547 5.758225
-0.535644 1.092239 6.465185
-0.491015 1.002196 7.579662
-0.698735 1.427291 8.387265
-0.650547 1.330006 9.409476
-0.378697 0.774709 10.303788
-0.606440 1.547789 0.454003
-0.605723 1.548000 1.694550
-0.650992 1.665302 2.596957
-0.775088 1.985476 3.855125
-0.873094 2.238556 4.669219
-0.746366 1.915649 5.706491
-0.546701 1.403824 6.229630
-0.478148 1.229172 7.351944
-0.568878 1.463981 8.351635
-0.560696 1.444098 9.156191
-0.436525 1.124982 9.853699
-0.478402 1.595145 1.473247
-0.470795 1.571869 2.487799
-0.701566 2.348837 4.508408
-0.626944 2.101366 5.395427
-0.497574 1.668949 6.016115
-0.434446 1.459013 7.018058
-0.476784 1.603449 8.094371
-0.455240 1.532213 8.740433
-0.384528 1.295474 9.579123
-0.328238 1.546335 1.134720
-0.352061 1.662086 2.323685
-0.300619 1.421371 3.193449
-0.441499 2.095916 5.392144
-0.357698 1.700425 6.233262
-0.332457 1.582036 6.834008
-0.344833 1.644096 7.935520
-0.326503 1.558887 8.771265
-0.279264 2.103764 0.320998
-0.224011 1.691114 1.088791
-0.232731 1.762298 2.178550
-0.239862 1.820831 3.070743
-0.278540 2.120584 4.080357
-0.286619 2.188746 5.159395
-0.233052 1.782572 5.801285
-0.197721 1.516168 6.769854
-0.213043 1.637927 7.704678
-0.206503 1.591329 8.571412
-0.181563 1.402466 9.504486
-0.099107 0.767012 10.398311
-0.081895 1.715708 0.785783
-0.090542 1.908797 1.601229
-0.081293 1.726091 2.541448
-0.077528 1.658539 3.523500
-0.085441 1.843536 4.613373
-0.091555 1.990301 5.558425
-0.083245 1.822618 6.504778
-0.078790 1.738599 7.530716
-0.077511 1.718013 8.114552
-0.070983 1.584764 9.088505
-0.054871 1.232803 10.006538
0.054044 1.633615 1.273419
0.058777 1.758184 2.229702
0.059069 1.750707 3.087669
0.061664 1.805669 4.222739
0.065160 1.888900 5.179127
0.066568 1.912450 6.049728
0.065560 1.868413 6.850608
0.060258 1.699043 7.961086
0.058205 1.629588 8.703911
0.196493 1.685726 0.634995
0.216217 1.848515 1.733806
0.217633 1.856495 2.441846
0.209894 1.784110 3.590208
0.221983 1.880258 4.716252
0.222198 1.877269 5.552521
0.211325 1.780210 6.529472
0.218410 1.836372 7.157912
0.213029 1.784786 8.364123
0.209930 1.755233 9.067676
0.166385 1.388090 9.925486
0.373695 1.883948 1.860477
0.332326 1.671602 3.071716
0.352190 1.768746 3.896636
0.360385 1.806827 4.801050
0.367542 1.839611 5.701822
0.381301 1.904723 6.760283
0.360535 1.798009 7.690074
0.343115 1.708246 8.650561
0.330689 1.644540 9.294683
0.228262 1.133993 10.016190
0.459706 1.616876 1.502609
0.491447 1.726311 2.426980
0.506009 1.775380 3.278363
0.524628 1.838323 4.221496
0.530818 1.856791 5.497953
0.554673 1.938489 6.152172
0.534619 1.866090 7.093153
0.519317 1.810384 8.062717
0.497786 1.733223 9.010709
0.423487 1.473019 9.872319
0.695489 1.851341 1.707762
0.647204 1.721127 2.603265
0.628969 1.670473 3.789523
0.647661 1.718345 4.732765
0.695521 1.843479 5.639803
0.706241 1.869882 6.633884
0.676058 1.788667 7.333010
0.646895 1.709726 8.338294
0.604696 1.596699 9.268152
0.492078 1.298479 9.987481
0.731817 1.535897 1.169577
0.797615 1.672616 2.044041
0.794091 1.663668 3.050322
0.832888 1.743286 4.071459
0.729445 1.525433 5.056545
0.771350 1.611888 5.842180
0.858127 1.791451 6.899789
0.835274 1.742300 7.828294
0.833043 1.736421 8.621822
0.753064 1.568521 9.526427
0.440880 0.917843 10.272556
0.963798 1.677118 1.610066
0.913910 1.589068 2.543923
0.902781 1.568404 3.549325
0.929021 1.612746 4.473526
0.929130 1.611350 5.664734
0.956674 1.657891 6.559240
0.937001 1.622559 7.506348
0.944195 1.633973 8.296968
0.903519 1.562727 9.000489
0.714841 1.235610 9.898295
1.245389 1.811848 1.408627
1.060570 1.542279 1.993018
1.010213 1.467646 3.234250
1.052047 1.527235 4.237406
0.972823 1.411449 4.974560
1.002605 1.453494 6.022372
1.129769 1.636725 6.889619
1.088435 1.575655 7.909798
1.081971 1.565331 8.744108
1.004210 1.452194 9.372908
0.628185 0.907873 10.380342
1.176208 1.443088 1.803770
1.109098 1.359788 2.768837
1.123360 1.376379 3.651560
1.148436 1.406094 4.626694
1.208586 1.478805 5.481161
1.235697 1.510957 6.406459
1.239530 1.514724 7.246851
1.198529 1.463428 8.403777
1.129130 1.378008 9.133394
0.908763 1.108450 10.025926
1.375360 1.419914 1.428128
1.243231 1.282769 2.227935
1.195597 1.232697 3.269663
1.293445 1.332812 4.059331
1.269315 1.306849 5.237050
1.299927 1.337599 6.037199
1.324339 1.361737 7.051309
1.366040 1.403843 7.823285
1.328901 1.364694 8.870976
1.217393 1.249546 9.653306
0.654789 0.671802 10.485010
1.409557 1.239339 1.762959
1.329756 1.168425 2.648093
1.299254 1.140808 3.636243
1.163958 1.021282 4.648286
1.244793 1.091335 5.752646
1.453881 1.273750 6.693324
1.434776 1.256323 7.470936
1.402763 1.227372 8.546583
1.358179 1.187877 9.147941
1.058225 0.925030 10.042863
1.413032 1.059266 2.508796
1.434324 1.074473 3.441826
1.461375 1.094145 4.161435
1.514340 1.132858 5.267461
1.623259 1.213560 6.111527
1.556993 1.163197 7.082970
1.522184 1.136348 8.108507
1.457811 1.087555 9.066192
1.262691 0.941564 9.763008
1.483704 0.932131 3.008027
1.515067 0.951058 4.026792
1.408969 0.883805 4.971066
1.477680 0.926214 5.907451
1.691583 1.059550 6.751614
1.626971 1.018186 7.889419
1.650989 1.032716 8.509794
1.503518 0.939803 9.479346
0.995798 0.622158 10.241738
1.712697 0.884404 1.770253
1.571040 0.810515 2.807681
1.511488 0.779108 3.807768
1.446581 0.745223 4.470353
1.513405 0.778887 5.578315
1.708386 0.878400 6.636498
1.708308 0.877772 7.409792
1.617997 0.830595 8.516732
1.542604 0.791406 9.262144
1.249337 0.640571 10.053192
1.605356 0.669408 1.419265
1.621900 0.675693 2.309770
1.597980 0.665108 3.228693
1.661993 0.691154 4.075116
1.684077 0.699585 5.138342
1.719274 0.713404 6.253685
1.744769 0.723290 7.209848
1.738780 0.720284 7.945475
1.725001 0.713979 8.800732
1.791171 0.585812 1.742560
1.658998 0.541940 2.719726
1.619707 0.528413 3.797520
1.500741 0.489061 4.724044
1.620498 0.527477 5.666788
1.868869 0.607638 6.560971
1.826682 0.593323 7.409792
1.779429 0.577405 8.251285
1.698132 0.550479 9.112942
1.340350 0.434003 10.191126
1.662829 0.397614 2.442888
1.709874 0.408299 3.305860
1.706013 0.406672 4.396599
1.794618 0.427271 5.155349
1.916508 0.455646 6.031728
1.940023 0.460548 6.976710
1.824529 0.432386 8.103518
1.784114 0.422240 8.984476
1.624064 0.383994 9.651593
1.825714 0.276619 1.844598
1.731538 0.261756 2.779071
1.763252 0.265995 3.631106
1.560849 0.234851 4.724044
1.674480 0.251341 5.707785
1.909185 0.285857 6.703510
1.837662 0.274580 7.577774
1.844657 0.275078 8.409178
1.781060 0.265035 9.315742
1.399561 0.207908 10.149816
1.824564 0.127192 1.535237
1.839469 0.127676 2.363844
1.784294 0.123196 3.372679
1.783750 0.122572 4.284073
1.864122 0.127375 5.349060
2.019456 0.137414 6.121687
1.975156 0.133761 7.037734
1.881222 0.126741 8.052519
1.809297 0.121249 9.096844
1.629002 0.108844 9.719470
2.222039 -0.009142 1.347968
1.856775 -0.008092 2.033835
1.797501 -0.008378 2.875056
1.795198 -0.009098 4.006345
1.663197 -0.008993 4.971066
1.706738 -0.009886 6.050839
1.993539 -0.012081 6.761783
1.821396 -0.011725 7.868901
1.778506 -0.011890 8.593814
1.705897 -0.011881 9.426040
1.152049 -0.008346 10.397669
1.680720 -0.151506 0.726291
1.869272 -0.169215 1.762959
1.761635 -0.160087 2.727909
1.775832 -0.161960 3.631106
1.865690 -0.170703 4.432713
1.924186 -0.176732 5.399652
1.985582 -0.183049 6.341314
1.946627 -0.180088 7.257030
1.905525 -0.176890 8.164442
1.764934 -0.164446 9.184534
1.450210 -0.135508 10.039961
1.801130 -0.318515 1.324650
1.815601 -0.321780 2.363844
1.740885 -0.309125 3.275164
1.646217 -0.293051 4.494924
1.563304 -0.278819 5.426105
1.741335 -0.311023 6.110448
1.858211 -0.332583 7.102290
1.767747 -0.316947 7.991533
1.685245 -0.302721 8.952096
1.508037 -0.271270 9.714021
1.728529 -0.449651 1.437066
1.791407 -0.466638 2.343427
1.661885 -0.433587 3.428724
1.683636 -0.439805 4.269484
1.584139 -0.414452 5.340267
1.701861 -0.445848 6.249620
1.863221 -0.488700 7.046770
1.743162 -0.457790 7.960867
1.675293 -0.440676 9.124742
1.543938 -0.406478 9.787464
1.541100 -0.533762 1.213109
1.696113 -0.588187 2.277284
1.580657 -0.548759 3.243673
1.595547 -0.554584 4.265146
1.781425 -0.619805 5.100937
1.810132 -0.630546 6.137488
1.726869 -0.602137 7.024149
1.621228 -0.565831 7.879114
1.698206 -0.593287 8.756421
2.438598 -1.076554 1.243609
1.770749 -0.782147 1.819731
1.603154 -0.708880 2.928340
1.320232 -0.584297 3.873843
1.533686 -0.679350 4.741791
1.532973 -0.679703 5.769303
1.384286 -0.614317 6.722883
1.598875 -0.710246 7.725516
1.642509 -0.730072 8.364123
1.523069 -0.677585 9.356222
1.020661 -0.454399 10.286655
1.563856 -0.847179 1.597948
1.509626 -0.818487 2.572177
1.417551 -0.769177 3.508078
1.658832 -0.900930 4.559283
1.788012 -0.971961 5.591887
1.621613 -0.882025 6.314927
1.526370 -0.830821 7.197030
1.530453 -0.833600 8.001908
1.467250 -0.799846 9.039954
1.317751 -0.718738 9.751300
1.886707 -1.227939 0.077742
1.465674 -0.954647 1.046672
1.514999 -0.987650 2.166601
1.510703 -0.985447 2.934252
1.713658 -1.118832 4.040294
1.866714 -1.219695 4.990772
1.608091 -1.051361 5.823078
1.383307 -0.905040 6.788433
1.371556 -0.898099 7.884315
1.396482 -0.914849 8.498659
1.230506 -0.806762 9.619728
0.714120 -0.468341 10.184996
1.311101 -1.016474 0.798084
1.423141 -1.104304 1.967179
1.266839 -0.983693 2.900489
1.480519 -1.150505 3.919204
1.776166 -1.381143 4.744372
1.617992 -1.259128 5.824629
1.287228 -1.002290 6.663899
1.180226 -0.919495 7.477422
1.301502 -1.014623 8.335231
1.219934 -0.951678 9.314782
0.899721 -0.702221 10.120182
1.266392 -1.158110 1.339978
1.207753 -1.105408 2.498065
0.675966 -0.618947 3.143425
1.535906 -1.408856 5.507120
1.231190 -1.129926 6.292791
1.055927 -0.969655 7.182202
1.164236 -1.069778 8.043648
1.119531 -1.029490 9.172500
0.915071 -0.841876 9.944289
1.059617 -1.141462 1.125699
1.092815 -1.178148 2.209765
0.899881 -0.970870 3.265479
1.430774 -1.546134 5.425991
1.190056 -1.286553 6.073536
1.008251 -1.090565 6.846525
1.039725 -1.125354 7.786758
1.018856 -1.103570 8.850368
0.895160 -0.970067 9.616533
1.000882 -1.274370 2.098569
1.005505 -1.280948 2.828586
1.176584 -1.500390 4.152972
1.341338 -1.711833 5.182900
1.169716 -1.493567 5.914805
0.783992 -1.001441 6.555450
0.732942 -0.936836 7.475787
0.918715 -1.175191 8.496569
0.872412 -1.116605 9.335158
0.533131 -0.682655 10.101172
0.898383 -1.357199 0.809401
0.988012 -1.493663 1.707545
0.916737 -1.387097 2.805904
1.121505 -1.698221 3.745965
1.169910 -1.772899 4.729111
0.998426 -1.514285 5.838332
0.769950 -1.168254 6.454873
0.641111 -0.973392 7.350830
0.751417 -1.141871 8.483435
0.764154 -1.161842 9.192468
0.586982 -0.893006 10.098862
0.651907 -1.182242 1.247270
0.775454 -1.407462 2.209765
0.437220 -0.794121 3.093768
0.877295 -1.596681 5.424082
0.750393 -1.366360 6.023738
0.368084 -0.670676 6.965098
0.701818 -1.280959 8.938702
0.626021 -1.143297 9.720081
0.660542 -1.471100 0.577195
0.664896 -1.482641 1.867463
0.678387 -1.514114 2.816163
0.839851 -1.876271 3.763769
0.887966 -1.985991 4.909178
0.756537 -1.693230 5.685146
0.516458 -1.156772 6.576183
0.371144 -0.831751 7.229044
0.448960 -1.007259 8.400627
0.560697 -1.259010 9.264813
0.430783 -0.967862 9.990965
0.509531 -1.441643 1.983955
0.411339 -1.165321 3.133086
0.530337 -1.503938 3.977514
0.471767 -1.339231 4.912695
0.311183 -0.884313 5.930846
0.232612 -0.661632 6.795566
0.213060 -0.606653 7.764753
0.391314 -1.115583 8.792210
0.397853 -1.135365 9.714856
0.194059 -0.554036 10.286490
0.392118 -1.474029 1.994251
0.406937 -1.531534 2.802108
0.490798 -1.850553 4.043632
0.573143 -2.164041 4.960462
0.470328 -1.777465 5.648034
0.278319 -1.053018 6.566493
0.209499 -0.793513 7.406934
0.255020 -0.967137 8.272660
0.307931 -1.169384 9.214657
0.243161 -0.924550 10.178353
0.272934 -1.516175 0.488416
0.262081 -1.459239 1.604057
0.236786 -1.321253 2.661205
0.301381 -1.685082 3.608090
0.352527 -1.976672 4.948508
0.293982 -1.650067 5.483217
0.170756 -0.959792 6.295703
0.129662 -0.729879 7.070169
0.152098 -0.858050 8.149712
0.201855 -1.140956 9.066825
0.185814 -1.052370 10.098862
0.130082 -1.347299 1.449693
0.125671 -1.306448 2.442112
0.153181 -1.598123 3.369294
0.160354 -1.679805 4.443652
0.126754 -1.332328 5.391272
0.088946 -0.937597 6.221008
0.064721 -0.683721 6.858706
0.082344 -0.873221 7.867539
0.105989 -1.129083 9.062526
0.100347 -1.072079 9.876331
0.018954 -1.345604 2.197761
0.010310 -0.742382 2.794700
0.019911 -1.522383 5.008780
0.013204 -1.028860 5.776211
0.007329 -0.586847 6.846876
0.008800 -0.722895 7.748332
0.012398 -1.051607 8.811540
0.012180 -1.063219 9.799581
-0.086109 -1.399050 1.750147
-0.080324 -1.297280 2.785432
-0.097623 -1.566448 3.890625
-0.095636 -1.527428 4.710042
-0.073099 -1.162250 5.555801
-0.047826 -0.756045 6.664567
-0.048639 -0.765753 7.417374
-0.067991 -1.064127 8.458439
-0.074651 -1.162849 9.324759
-0.049225 -0.764102 10.097199
-0.223074 -1.492476 0.499659
-0.217485 -1.451001 1.645298
-0.202789 -1.350090 2.518561
-0.229127 -1.521479 3.574971
-0.246853 -1.635250 4.556479
-0.203226 -1.343306 5.507789
-0.139008 -0.917078 6.383837
-0.120617 -0.793977 7.370168
-0.154198 -1.013110 8.147423
-0.145467 -0.953577 9.162089
-0.135781 -0.888674 9.881263
-0.235266 -0.979833 1.092697
-0.312016 -1.297589 2.006869
-0.186179 -0.773167 2.952381
-0.321127 -1.329046 5.098680
-0.236830 -0.979102 5.859690
-0.131289 -0.542013 6.862406
-0.174000 -0.717441 7.674739
-0.252785 -1.040374 8.847246
-0.268068 -1.102169 9.511941
-0.382467 -1.183591 0.489163
-0.401203 -1.239910 1.584247
-0.373731 -1.153725 2.500374
-0.452930 -1.396265 3.631817
-0.529326 -1.629588 4.707810
-0.413447 -1.271721 5.490939
-0.192861 -0.592685 6.365573
-0.219450 -0.673716 7.217377
-0.360939 -1.106526 8.347662
-0.352499 -1.079783 9.052123
-0.247919 -0.758642 10.048331
-0.392943 -0.948907 1.112055
-0.442941 -1.068382 2.282469
-0.542530 -1.307325 3.226888
-0.639286 -1.538441 4.515439
-0.511149 -1.229140 5.322593
-0.289796 -0.696564 5.839331
-0.274321 -0.658723 6.853783
-0.391197 -0.938462 7.809084
-0.447953 -1.073608 8.756548
-0.438348 -1.049542 9.811066
-0.702918 -1.371904 -0.040421
-0.456229 -0.889535 1.113575
-0.571601 -1.113665 1.941760
-0.489005 -0.951872 2.997291
-0.602502 -1.171724 4.027311
-0.744745 -1.447072 5.005265
-0.501848 -0.974492 5.815909
-0.229859 -0.446058 6.660220
-0.370929 -0.719228 7.580009
-0.514779 -0.997275 8.566080
-0.494860 -0.957918 9.545578
-0.525353 -0.846051 0.571299
-0.649546 -1.045046 1.781221
-0.575315 -0.924888 2.783426
-0.695410 -1.117131 3.697242
-0.773229 -1.240899 4.947047
-0.528860 -0.848278 5.690531
-0.341828 -0.547925 6.593808
-0.498119 -0.797900 7.443804
-0.617061 -0.987615 8.477111
-0.535949 -0.857162 9.491857
-0.342081 -0.546910 10.058062
-0.543263 -0.738979 1.618962
-0.691651 -0.940267 2.402985
-0.714977 -0.971149 3.548069
-0.792256 -1.075287 4.574579
-0.589648 -0.799827 5.420704
-0.351197 -0.476140 6.179022
-0.462230 -0.626231 7.133615
-0.685675 -0.928064 8.399645
-0.712666 -0.964092 9.127345
-0.529799 -0.716257 10.104792
-0.524664 -0.600626 1.012365
-0.726523 -0.830903 2.357418
-0.661565 -0.756163 3.195454
-0.753857 -0.860888 4.427930
-0.804548 -0.918294 5.158340
-0.469138 -0.535172 6.007533
-0.552734 -0.630101 6.981725
-0.754965 -0.860037 7.933040
-0.680494 -0.774687 8.926254
-0.599428 -0.681923 9.989652
-0.864655 -0.840395 1.995527
-0.743178 -0.721806 3.020678
-0.775424 -0.752493 4.204777
-0.777570 -0.754055 5.187399
-0.514842 -0.499014 5.986498
-0.615685 -0.596417 6.787458
-0.871277 -0.843356 7.849585
-0.851077 -0.823283 8.781820
-0.877118 -0.723857 1.817817
-0.879683 -0.725585 2.556757
-0.828450 -0.682840 3.551673
-0.806124 -0.663944 4.590884
-0.700450 -0.576561 5.453535
-0.538817 -0.443205 6.483769
-0.738895 -0.607383 7.370627
-0.927690 -0.762060 8.290090
-0.780915 -0.641044 9.341676
-0.547745 -0.449468 9.970623
-0.935213 -0.652041 0.278370
-0.797427 -0.555593 1.186681
-0.941902 -0.655730 2.232552
-0.852904 -0.593390 3.091116
-0.851580 -0.592024 4.089226
-0.702960 -0.488283 5.259921
-0.481111 -0.333988 6.099147
-0.706762 -0.490295 6.997745
-1.010273 -0.700222 8.144753
-1.049595 -0.727106 8.830832
-0.839466 -0.581114 9.910501
-0.743326 -0.435747 0.639222
-1.033960 -0.605616 1.651511
-0.872680 -0.510685 2.780234
-0.918818 -0.537298 3.663439
-0.945761 -0.552636 4.594445
-0.752225 -0.439207 5.589646
-0.637596 -0.371974 6.637822
-0.898865 -0.523990 7.574442
-1.020686 -0.594548 8.523337
-0.875160 -0.509415 9.481420
-0.557932 -0.324599 10.230219
-0.862694 -0.412997 1.156907
-0.935169 -0.447216 2.322208
-0.885096 -0.422939 3.187679
-0.920573 -0.439474 4.232075
-0.771445 -0.367978 5.169493
-0.596278 -0.284218 6.005854
-0.868945 -0.413804 6.998986
-1.143982 -0.544290 7.958053
-1.057508 -0.502759 8.854560
-0.860627 -0.408877 9.696803
-1.324970 -0.508309 -0.006710
-0.934083 -0.357951 1.042003
-1.140080 -0.436463 1.954000
-0.961207 -0.367564 3.041540
-0.991289 -0.378711 3.925505
-0.929170 -0.354566 5.039264
-0.699909 -0.266862 5.860346
-0.819479 -0.312101 6.924415
-1.164253 -0.442971 7.813151
-1.113945 -0.423431 8.740266
-0.892572 -0.339031 9.525628
-0.111872 -0.042473 10.199055
-1.058979 -0.306795 0.709752
-1.187150 -0.343373 1.912490
-0.980619 -0.283294 2.829971
-1.025816 -0.296027 3.653017
-1.029310 -0.296633 4.677782
-0.853048 -0.245570 5.526810
-0.679414 -0.195332 6.552697
-0.932288 -0.267590 7.788510
-1.217654 -0.349160 8.475049
-0.993304 -0.284527 9.356217
-0.468599 -0.134125 10.099775
-0.813320 -0.169121 0.445263
-0.985386 -0.204559 1.378605
-1.144814 -0.237187 2.473576
-1.087260 -0.224877 3.437111
-1.121418 -0.231569 4.337602
-0.859412 -0.177121 5.468018
-0.666135 -0.137135 6.133807
-0.870525 -0.178865 7.213170
-1.218087 -0.249817 8.201495
-1.183371 -0.242334 9.075423
-0.918329 -0.187740 10.132943
-0.894587 -0.103792 0.883572
-1.184142 -0.136860 2.107829
-1.045526 -0.120458 3.130229
-1.114802 -0.127995 4.240021
-1.157669 -0.132607 4.985991
-0.821865 -0.093931 5.757342
-0.825706 -0.094008 7.013180
-1.181559 -0.134104 7.963821
-1.248377 -0.141259 8.944871
-1.230028 -0.051655 0.724357
-1.257372 -0.052296 1.850255
-1.062209 -0.043860 2.704830
-1.011289 -0.041356 3.830309
-1.217398 -0.049359 4.799016
-1.020783 -0.041108 5.607036
-0.774299 -0.030928 6.591042
-1.039630 -0.041157 7.574442
-1.257875 -0.049372 8.516521
-1.122422 -0.043721 9.424660
-0.673954 -0.026141 10.030100
-1.145752 0.050328 0.462387
-1.157918 0.051339 1.613388
-1.071787 0.047807 2.369996
-1.190913 0.053607 3.509289
-1.472280 0.066831 4.547932
-1.188131 0.054221 5.272563
-0.806665 0.037070 6.243395
-0.874133 0.040415 7.045171
-1.227877 0.057264 8.144753
-1.263057 0.059295 9.042547
-0.942390 0.044549 10.091119
-1.343748 0.166433 1.236926
-1.169172 0.145288 2.371806
-1.471871 0.183388 3.260698
-1.739595 0.217536 4.485670
-1.402544 0.175828 5.400647
-0.999625 0.125494 5.959839
-0.815127 0.102636 7.055129
-1.091737 0.137902 8.151576
-1.233626 0.156207 9.017473
-1.071661 0.218407 1.077808
-1.242172 0.253573 1.971008
-1.506468 0.308212 3.175848
-1.497158 0.306685 3.855065
-1.313458 0.269970 5.768902
-0.763894 0.157209 6.570041
-1.053910 0.217321 7.647365
-1.315267 0.271755 8.746616
-1.229666 0.254475 9.701906
-0.594743 0.123174 10.321607
-1.443761 0.420687 1.834605
-1.610522 0.470014 2.994217
-1.750872 0.511611 3.914373
-1.679208 0.491277 4.851677
-1.374745 0.402635 5.715662
-0.850844 0.249369 6.340594
-0.893819 0.262389 7.605889
-1.213426 0.356639 8.485416
-1.212471 0.356742 9.341311
-0.755297 0.222411 10.121806
-1.290947 0.499951 0.341185
-1.156727 0.448539 1.537331
-1.493686 0.579959 2.750718
-1.766840 0.686723 3.689855
-1.613553 0.627829 4.735322
-1.346472 0.524294 5.475692
-0.955033 0.372127 6.197311
-0.846823 0.330230 7.008816
-1.091690 0.426301 8.306086
-1.165890 0.455653 9.115133
-0.913176 0.357181 10.011177
-0.971232 0.474317 1.251856
-1.168023 0.570944 2.251496
-1.655476 0.810863 4.445908
-1.475405 0.723216 5.319737
-1.095529 0.537321 6.036204
-0.631788 0.310051 6.785045
-0.795829 0.390957 7.945829
-1.144151 0.562547 8.841197
-1.098683 0.540600 9.739508
-1.365920 0.796293 1.769572
-1.471979 0.859053 3.071716
-1.609668 0.940040 3.870857
-1.490589 0.871311 5.022396
-1.354566 0.792340 5.883752
-0.891022 0.521365 6.376197
-0.739109 0.432801 7.359815
-1.032714 0.605272 8.440231
-1.119303 0.656546 9.442795
-0.737729 0.432877 10.003222
-1.187901 0.826531 1.484911
-1.140079 0.793704 2.224884
-1.592313 1.110634 4.641820
-1.268438 0.885135 5.293098
-0.912855 0.637383 6.152964
-0.576950 0.403010 6.785045
-0.738105 0.516052 8.003119
-1.122227 0.785170 8.879688
-1.013418 0.709589 9.985786
-1.201316 0.991049 2.052479
-1.426273 1.177630 3.188782
-1.528953 1.263400 4.243556
-1.393006 1.151693 5.012283
-1.205078 0.996866 5.805421
-0.787500 0.651681 6.417926
-0.654121 0.541708 7.511804
-0.976846 0.809556 8.464682
-1.077177 0.893235 9.289672
-0.641704 0.532386 10.149974
-1.225369 1.194297 0.533423
-1.220715 1.190784 1.722266
-0.990240 0.966569 2.617654
-1.411738 1.380113 4.706904
-1.147749 1.122675 5.552255
-0.884915 0.865987 6.272417
-0.582668 0.570540 7.196943
-0.777375 0.761684 8.084209
-1.005744 0.986167 9.089159
-0.826140 0.810439 9.846083
-1.003482 1.148816 1.278766
-1.127801 1.292299 2.502430
-1.391813 1.596009 3.492307
-1.611778 1.850015 4.761034
-1.422869 1.634117 5.584199
-0.938602 1.078439 6.330951
-0.530711 0.609924 6.776134
-0.542658 0.624177 7.988332
-0.893374 1.028320 8.921049
-0.856758 0.986689 9.699368
-0.791465 1.075160 1.146621
-0.962596 1.308788 2.308769
-1.213747 1.651740 3.458709
-1.376314 1.874122 4.238321
-1.183339 1.612642 5.341782
-0.985481 1.343620 6.007599
-0.495308 0.675614 6.760826
-0.879300 1.201252 8.784046
-0.830305 1.348650 0.649132
-0.875845 1.424045 1.884727
-0.653166 1.062473 2.477455
-1.172441 1.911238 5.038125
-1.004201 1.637955 5.823078
-0.757283 1.235858 6.565522
-0.582774 0.951771 7.579662
-0.680178 1.111597 8.417577
-0.760369 1.243616 9.395043
-0.552476 0.903937 9.990965
-0.760171 1.486277 1.322101
-0.844009 1.652138 2.631943
-1.038305 2.034202 3.547009
-1.060130 2.079168 4.725377
-0.980315 1.923947 5.516856
-0.783447 1.538379 6.175918
-0.528052 1.037451 6.902638
-0.508253 0.999306 7.798111
-0.619816 1.219981 9.028831
-0.588843 1.159848 9.900003
-0.629739 1.543957 2.115577
-0.607979 1.491776 2.879941
-0.870590 2.141127 5.068992
-0.734279 1.807342 5.907129
-0.502141 1.236719 6.614422
-0.477175 1.176484 7.699086
-0.622990 1.537621 8.687971
-0.562318 1.388867 9.454806
-0.326084 0.805758 10.080221
-0.486285 1.507021 1.477518
-0.567266 1.760395 2.572636
-0.695734 2.162101 3.665793
-0.725913 2.259024 4.769833
-0.666958 2.077206 5.435891
-0.485599 1.513629 6.206786
-0.418047 1.304446 7.124333
-0.485016 1.515286 8.120573
-0.468663 1.465822 9.069547
-0.389761 1.220087 9.865124
-0.398113 1.694330 2.060895
-0.387814 1.653035 3.012481
-0.459026 1.960537 4.230580
-0.524199 2.242189 5.099243
-0.449150 1.923260 5.815534
-0.380372 1.631197 6.804463
-0.378118 1.623650 7.632858
-0.372350 1.601373 8.632049
-0.344902 1.484804 9.300300
-0.196567 0.847234 10.251407
-0.236244 1.609700 1.646270
-0.252475 1.724016 2.500491
-0.283071 1.937884 3.496301
-0.324702 2.229543 4.646351
-0.312163 2.147891 5.476368
-0.251720 1.736056 6.476622
-0.225790 1.560441 7.344064
-0.233208 1.615020 8.171524
-0.228344 1.583989 8.868263
-0.190344 1.322751 9.672237
-0.108045 1.623370 1.223377
-0.118729 1.793497 2.197263
-0.115016 1.747406 3.246820
-0.131173 2.005087 4.329393
-0.141293 2.169206 5.095086
-0.121349 1.871861 5.996390
-0.110536 1.712773 6.846730
-0.107555 1.676423 7.935520
-0.104650 1.638545 8.780333
0.025629 1.517050 0.884718
0.031545 1.830417 1.815479
0.030557 1.742719 2.650102
0.029649 1.652544 3.792658
0.034050 1.854611 4.937474
0.035185 1.886169 5.759272
0.032601 1.724588 6.491125
0.033124 1.715660 7.643370
0.033953 1.734062 8.426156
0.032718 1.645497 9.331522
0.024263 1.204676 10.203758
0.172764 1.691668 1.521700
0.182220 1.778344 2.447428
0.181639 1.766118 3.492957
0.199402 1.932682 4.375859
0.184368 1.781015 5.349470
0.181110 1.743373 6.378503
0.194134 1.863601 7.163488
0.182973 1.751406 8.037638
0.170546 1.627648 8.949062
0.143724 1.368390 9.742125
0.289047 1.589038 1.254189
0.335052 1.838816 2.073026
0.323771 1.773216 3.093400
0.334594 1.828580 4.138187
0.313236 1.709299 4.892625
0.320870 1.747129 5.981454
0.344951 1.874696 6.913100
0.323074 1.753201 7.689815
0.319079 1.728121 8.706349
0.287108 1.552021 9.742443
0.144242 0.779266 10.261824
0.508584 1.875055 1.729514
0.466887 1.718598 2.846495
0.475646 1.748495 3.786885
0.482718 1.771889 4.821472
0.515608 1.890286 5.680510
0.508040 1.859869 6.713696
0.478410 1.749718 7.428941
0.484172 1.768960 8.180210
0.457855 1.670395 9.272384
0.349789 1.275203 9.924494
0.695432 1.973951 0.261278
0.571763 1.621700 0.916870
0.599669 1.698353 2.187041
0.587328 1.661895 2.977327
0.613153 1.733020 3.952519
0.584094 1.649220 4.851677
0.591807 1.669010 5.903545
0.644497 1.815225 7.046770
0.627732 1.766431 7.858756
0.626508 1.761715 8.515973
0.570378 1.602308 9.456784
0.378823 1.063308 10.383806
0.762544 1.705074 1.433152
0.731887 1.634935 2.437204
0.750751 1.675526 3.388321
0.759034 1.691919 4.671509
0.808495 1.800659 5.531501
0.819367 1.823495 6.320978
0.763383 1.697324 7.332263
0.757823 1.683731 8.118945
0.736908 1.635856 9.061819
0.623636 1.383552 9.806691
1.169472 2.123664 1.310682
0.859079 1.558995 2.098444
0.852602 1.545990 3.046737
0.889162 1.611153 3.863309
0.810946 1.468358 4.741791
0.850222 1.538022 5.856275
0.961674 1.738062 6.899789
0.947277 1.711059 7.599038
0.912397 1.646746 8.581886
0.838862 1.512836 9.587863
0.596484 1.075303 10.207343
0.949026 1.443699 1.379636
0.959676 1.458622 2.490254
1.015194 1.541945 3.357689
1.009017 1.531118 4.565405
1.080117 1.637940 5.385955
1.098296 1.664269 6.341314
1.067037 1.615956 7.113521
1.007772 1.524956 8.210849
1.023440 1.547900 8.861962
0.852782 1.288973 9.789976
1.395781 1.758824 1.357008
1.106877 1.394026 2.098444
1.079293 1.358323 3.059212
1.091558 1.372833 3.970959
1.023791 1.286866 4.765572
1.101346 1.383274 5.815348
1.258962 1.580106 6.757462
1.200092 1.505170 7.741605
1.151406 1.443062 8.775765
1.075395 1.347165 9.471138
0.736459 0.922198 10.200172
1.337505 1.424861 1.698970
1.287307 1.370530 2.560520
1.220864 1.298867 3.551827
1.131000 1.202398 4.566741
1.214045 1.289623 5.706632
1.357314 1.440854 6.607617
1.329448 1.410446 7.445770
1.285166 1.362601 8.368367
1.221471 1.294394 9.143621
0.981906 1.039949 10.046570
1.325936 1.207189 2.357265
1.305396 1.187623 3.364858
1.359104 1.235726 4.209647
1.442753 1.310703 5.338552
1.427272 1.295658 6.400406
1.424780 1.292795 7.056958
1.386019 1.256690 8.123921
1.400182 1.268918 8.815476
1.244268 1.126937 9.747851
1.457918 1.119516 2.084878
1.362541 1.045420 3.190064
1.417344 1.086642 4.205179
1.403104 1.075190 4.879091
1.440091 1.102748 5.838332
1.575657 1.205585 6.909960
1.449521 1.108241 7.976151
1.456418 1.112926 8.709919
1.377446 1.051956 9.567382
0.921986 0.703899 10.165396
1.568673 1.029629 1.692994
1.442611 0.946140 2.701301
1.487537 0.974754 3.809977
1.363163 0.892626 4.727776
1.387549 0.907879 5.742385
1.579059 1.032329 6.779206
1.529470 0.999287 7.603098
1.550026 1.012039 8.480619
1.500757 0.979228 9.366856
1.212256 0.790605 10.101861
1.767044 0.945742 1.566724
1.577635 0.843509 2.746315
1.510528 0.806977 3.687459
1.434859 0.765924 4.648866
1.591874 0.849041 5.583932
1.781055 0.949295 6.347413
1.708034 0.909702 7.231130
1.606690 0.854917 8.379154
1.577719 0.839002 9.102716
1.359924 0.722693 9.989340
1.635888 0.720821 2.447428
1.605825 0.706975 3.316093
1.572925 0.691803 4.341171
1.762879 0.774724 5.145156
1.828801 0.802924 6.125616
1.766935 0.775012 7.144077
1.709815 0.749255 8.144327
1.713816 0.750461 8.917474
1.547279 0.676980 9.844024
1.836545 0.643341 1.299421
1.710484 0.598589 2.156382
1.637109 0.572158 3.298006
1.720583 0.600720 4.171650
1.717531 0.598914 5.247266
1.820016 0.634023 6.096735
1.827769 0.636142 6.898464
1.715614 0.596534 7.771793
1.701073 0.590836 8.746199
1.663627 0.431849 2.951001
1.717799 0.445224 3.988658
1.589029 0.411435 4.686710
1.657902 0.428666 5.636048
1.885588 0.486647 6.847548
1.874667 0.483402 7.455955
1.804203 0.464596 8.419382
1.726841 0.444147 9.270621
1.222256 0.314033 10.159082
1.932286 0.339701 1.678613
1.737752 0.304770 2.817912
1.664365 0.291323 3.759199
1.593309 0.278351 4.679677
1.755637 0.306061 5.665720
1.925852 0.334982 6.709378
1.911882 0.332050 7.435587
1.875461 0.325204 8.215403
1.744861 0.301969 9.194763
1.473383 0.254546 10.119512
1.732837 0.152220 1.559848
1.784455 0.156182 2.437204
1.768731 0.154129 3.492957
1.805998 0.156685 4.548048
1.930719 0.166916 5.379282
1.976480 0.170157 6.381994
1.878591 0.161104 7.337732
1.845652 0.157714 8.215765
1.775106 0.151129 9.133394
1.502124 0.127458 10.037087
1.813458 0.020363 2.226182
1.778388 0.019368 3.164970
1.784740 0.018713 4.294298
1.661836 0.016921 5.159099
1.728905 0.016981 6.165677
1.947285 0.018632 6.847548
1.814945 0.016713 7.899551
1.836721 0.016407 8.689494
1.677788 0.014576 9.442418
0.926691 0.007872 10.206152
1.740916 -0.123216 2.719726
1.786043 -0.127039 3.689888
1.736120 -0.124063 4.615636
1.755541 -0.126225 5.846042
1.965063 -0.141800 6.540619
1.889001 -0.136886 7.414558
1.854175 -0.135023 8.439792
1.804626 -0.131924 9.264641
1.332453 -0.097687 10.000695
1.750385 -0.266096 1.407704
1.715385 -0.261480 2.520968
1.768278 -0.270153 3.452050
1.797912 -0.275393 4.527613
1.749258 -0.268569 5.519717
1.881657 -0.289368 6.188446
1.858947 -0.286658 7.358130
1.843333 -0.284689 8.027087
1.751703 -0.271241 9.184534
1.536938 -0.238249 9.728238
2.059498 -0.495295 0.200448
1.682620 -0.405144 0.956754
1.795309 -0.433091 2.134261
1.716139 -0.414587 3.046737
1.731024 -0.418791 3.968203
1.752845 -0.424655 4.845143
1.854012 -0.449894 5.874030
1.934864 -0.470253 6.879449
1.826602 -0.444656 7.955674
1.793615 -0.437162 8.775765
1.682163 -0.410471 9.577623
1.003757 -0.245078 10.168228
1.746905 -0.568396 2.015035
1.666037 -0.542741 3.008027
1.704230 -0.555755 3.848212
1.743777 -0.569457 5.008940
1.923442 -0.628698 5.730474
1.885417 -0.617058 6.802464
1.795299 -0.588076 7.552495
1.657430 -0.543589 8.640324
1.573993 -0.516677 9.417778
1.104922 -0.362949 10.144604
1.671178 -0.710391 2.146164
1.612354 -0.685975 3.008027
1.395429 -0.594243 3.975796
1.559859 -0.664859 4.858266
1.512693 -0.645344 5.793696
1.377065 -0.588041 6.794996
1.582242 -0.676301 7.740792
1.544378 -0.660725 8.713073
1.532477 -0.656031 9.356222
1.033458 -0.442644 10.064514
1.633477 -0.862816 1.914521
1.553621 -0.821131 2.609161
1.167827 -0.617695 3.516393
1.664316 -0.882135 5.867660
1.606840 -0.852221 6.633301
1.564702 -0.830562 7.623191
1.488384 -0.790564 8.416619
1.420610 -0.755077 9.251224
1.039305 -0.552794 10.220954
1.360525 -0.861032 0.516488
1.427696 -0.904444 1.763265
1.443124 -0.914882 2.672616
1.017573 -0.645403 3.306964
1.728250 -1.098340 5.736950
1.540503 -0.979502 6.396622
1.376668 -0.876016 7.442453
1.421288 -0.904914 8.160848
1.361706 -0.867569 9.072293
1.103586 -0.703484 9.848219
1.282022 -0.955788 1.436403
1.368927 -1.021302 2.373059
1.237524 -0.923856 3.235179
1.499798 -1.120543 4.265142
1.724416 -1.289444 5.351636
1.351901 -1.011419 6.122587
1.172724 -0.878006 7.156762
1.302584 -0.975984 8.192060
1.330407 -0.997275 8.805384
1.132303 -0.849251 9.653064
1.218483 -1.084062 1.213109
1.336940 -1.190326 2.217710
1.383396 -1.232624 3.257946
1.619200 -1.443786 4.234288
1.619256 -1.444944 5.290898
1.361499 -1.215588 6.092211
1.179166 -1.053513 7.096581
1.163590 -1.040263 8.018083
1.170523 -1.046898 8.618165
1.039241 -0.929998 9.469437
0.479810 -0.429541 10.240756
1.203354 -1.266322 1.970424
1.066541 -1.123160 2.985008
1.335425 -1.407344 3.962136
1.487120 -1.568465 5.047705
1.304927 -1.377028 5.816675
0.869112 -0.917634 6.696037
0.833306 -0.880236 7.371937
1.043293 -1.102947 8.490966
0.986804 -1.043842 9.370276
0.651403 -0.689396 10.230618
0.993174 -1.217784 0.679979
1.074428 -1.318304 1.592011
1.028380 -1.262735 2.598727
1.221864 -1.501497 3.646579
1.394892 -1.715494 4.699829
1.282701 -1.578748 5.787729
0.995579 -1.225885 6.455323
0.825402 -1.016985 7.393361
0.952111 -1.173965 8.393539
0.958192 -1.181986 9.024013
0.763720 -0.942558 9.812169
0.787652 -1.138916 1.437826
0.869927 -1.258843 2.425746
0.804496 -1.165081 3.467043
0.989500 -1.434006 4.348419
1.116166 -1.618989 5.463843
0.877077 -1.273016 6.381631
0.526683 -0.764753 7.035269
0.616871 -0.896254 7.834687
0.814744 -1.184754 8.923968
0.705129 -1.026074 9.933916
0.685211 -1.199387 1.235509
0.760515 -1.332350 2.264920
0.490185 -0.859199 2.923918
0.993856 -1.745637 5.311285
0.836056 -1.469269 6.013850
0.421362 -0.740888 6.808417
0.694999 -1.223956 8.673011
0.613215 -1.080841 9.784881
0.671069 -1.412466 1.961641
0.684201 -1.441605 3.080914
0.832695 -1.756499 4.287104
0.753266 -1.589962 4.998544
0.566829 -1.197282 5.830997
0.497368 -1.051148 6.474160
0.372650 -0.788185 7.407025
0.479285 -1.014811 8.566080
0.544017 -1.152779 9.428353
0.357653 -0.758253 10.118520
0.560671 -1.497878 0.476297
0.556434 -1.488752 1.819357
0.535446 -1.433782 2.576111
0.616552 -1.653164 3.771710
0.804273 -2.158941 4.738413
0.692100 -1.859479 5.588936
0.410247 -1.102929 6.312313
0.256956 -0.691407 7.201736
0.350920 -0.945310 8.230905
0.458432 -1.236225 9.169378
0.376137 -1.015119 10.005089
0.361689 -1.258062 1.005752
0.418091 -1.456406 2.095446
0.383164 -1.336192 2.908370
0.455553 -1.591281 4.120086
0.453111 -1.584483 4.933403
0.330751 -1.157691 5.699685
0.204618 -0.716987 6.606291
0.158483 -0.556098 7.707401
0.300316 -1.055269 8.701409
0.342038 -1.203278 9.573507
0.177071 -0.623453 10.391729
0.310429 -1.530910 0.568830
0.320375 -1.582590 1.465808
0.291215 -1.441335 2.520508
0.334915 -1.660682 3.500455
0.343410 -1.706334 4.615636
0.279370 -1.390229 5.479483
0.208442 -1.038262 6.061741
0.136445 -0.680497 6.827133
0.154977 -0.774617 8.046375
0.240871 -1.206066 8.950861
0.232737 -1.167060 9.797946
0.192803 -1.767715 0.106463
0.142392 -1.309334 0.985043
0.167633 -1.546271 1.911911
0.149121 -1.380796 3.068968
0.178425 -1.658827 4.247600
0.171715 -1.600803 5.066891
0.128100 -1.196885 5.799477
0.082541 -0.773014 6.580541
0.072124 -0.677100 7.343655
0.116295 -1.096778 8.670171
0.130610 -1.235715 9.625370
0.073581 -0.697122 10.195166
0.049080 -1.489213 0.480007
0.048299 -1.481421 1.462786
0.042691 -1.327392 2.702598
0.054721 -1.723435 3.815323
0.066475 -2.117080 4.749379
0.049327 -1.585418 5.624197
0.029290 -0.947564 6.300183
0.024729 -0.808147 7.228416
0.030194 -0.996097 8.033275
0.034328 -1.148839 9.268619
0.031493 -1.062066 9.970118
-0.063212 -1.281889 2.373780
-0.035286 -0.712757 2.960312
-0.071094 -1.413651 5.112170
-0.049482 -0.979189 5.863897
-0.028668 -0.564261 6.719514
-0.034170 -0.668353 7.638349
-0.052781 -1.023835 8.817526
-0.057105 -1.101156 9.709685
-0.164287 -1.280805 1.979512
-0.154748 -1.203104 2.964089
-0.194234 -1.506077 3.885956
-0.197464 -1.526951 4.857780
-0.162049 -1.250715 5.581571
-0.100424 -0.772929 6.680789
-0.092726 -0.712091 7.527752
-0.135039 -1.033950 8.583539
-0.150034 -1.145815 9.536752
-0.108596 -0.828229 10.139489
-0.226568 -1.072194 0.321042
-0.232683 -1.099140 1.351240
-0.249425 -1.175778 2.531524
-0.302960 -1.425458 3.582936
-0.348792 -1.638447 4.484668
-0.287278 -1.347785 5.246481
-0.196968 -0.922823 6.110407
-0.172239 -0.805724 7.044640
-0.215549 -1.006651 7.996466
-0.223310 -1.041358 8.878511
-0.194635 -0.906226 9.864103
-0.328461 -1.087884 1.106113
-0.366794 -1.212902 2.344758
-0.376764 -1.244662 3.096991
-0.437618 -1.443827 4.086189
-0.411892 -1.357207 5.101844
-0.262279 -0.863581 5.765688
-0.132485 -0.435669 6.861279
-0.211059 -0.693372 7.617047
-0.312227 -1.024106 8.847246
-0.327626 -1.073639 9.584775
-0.480584 -1.230877 1.896662
-0.464869 -1.189627 2.696739
-0.532394 -1.360442 4.071469
-0.596043 -1.521456 5.073695
