-1.446319 0.867157 1.370013
-1.434679 0.860671 2.261256
-1.390678 0.834708 3.072949
-1.201758 0.721768 4.074110
-1.826749 1.340197 0.225262
-1.411841 1.036274 0.995843
-1.340810 0.984767 2.068956
-1.331214 0.978126 2.768962
-1.389705 1.021702 3.754088
-1.236400 1.096339 1.816504
-1.248879 1.107931 2.647221
-1.532269 1.603159 0.474775
-1.232674 1.290312 1.306970
-1.183397 1.239266 2.066612
-1.130304 1.184241 2.926901
-1.093170 1.145940 3.863178
-1.054349 1.329949 1.682334
-1.049665 1.324730 2.573649
-0.934070 1.428485 1.213137
-0.929520 1.422471 2.283995
-0.901943 1.380969 3.107284
-0.821889 1.259151 4.089087
-0.843227 1.592386 1.018677
-0.848418 1.603355 2.073902
-0.839039 1.586679 3.036821
-0.820032 1.551557 3.811942
-0.750039 1.798228 1.708619
-0.748151 1.795049 2.642676
-0.745839 1.790917 3.627476
-0.534830 1.284808 4.233647
-0.618012 1.951399 1.668975
-0.608184 1.922101 2.578541
-0.620238 1.962064 3.533778
-0.503411 1.593591 4.267607
-0.463740 2.153116 1.805735
-0.455266 2.115947 2.545944
-0.460229 2.142257 3.630595
-0.296864 2.382358 2.295019
-0.289002 2.324899 3.332095
0.178631 3.049464 1.117756
0.180988 3.077440 1.909081
0.462194 3.112437 1.638603
0.464685 3.124287 2.417947
0.730087 2.938888 1.060172
0.733470 2.948885 2.039420
0.714735 2.870758 2.827493
0.694972 2.788408 3.691429
0.943170 2.739382 1.659898
0.929835 2.698881 2.353093
0.936831 2.716534 3.385431
1.173761 2.590647 1.579950
1.182905 2.608906 2.528501
1.192048 2.627042 3.525693
1.396858 2.466262 1.287464
1.363594 2.406227 2.087698
1.404479 2.476774 3.034621
1.347322 2.374806 3.774678
1.570554 2.251947 1.618806
1.598875 2.291153 2.603190
1.572057 2.251674 3.360099
1.755872 2.126879 1.242829
1.750389 2.118983 2.241339
1.758559 2.127643 3.217518
1.602391 1.937957 3.888662
2.007144 2.011509 1.509760
1.988680 1.991819 2.531445
1.996899 1.999026 3.412775
2.097319 1.746829 1.114534
2.124787 1.768710 2.064259
2.190128 1.822024 3.058015
2.085844 1.734459 3.859008
2.369923 1.630122 1.766074
2.368180 1.627993 2.680487
2.577069 1.456902 1.318715
2.591274 1.463963 2.287937
2.578104 1.455604 3.214254
2.381475 1.343803 4.093627
2.777949 1.259091 0.919854
2.810120 1.272642 1.955612
2.806058 1.269993 2.772717
2.785617 1.260042 3.488065
3.091591 1.056651 1.517977
3.076945 1.050870 2.284832
4.196711 -0.534552 2.743410
4.052820 -0.863002 1.543444
3.968031 -0.845969 2.366924
3.997598 -0.853315 3.198122
3.781137 -0.808164 4.112652
3.835887 -1.226089 1.001232
3.837711 -1.227698 1.809735
3.776554 -1.209002 2.509314
3.625828 -1.499879 0.855390
3.627036 -1.501482 1.722848
3.625764 -1.502147 2.660572
3.599274 -1.491993 3.316143
3.418464 -1.801307 1.416610
3.386774 -1.785762 2.311106
3.382869 -1.784634 3.034400
3.318628 -1.751918 3.973598
3.271390 -2.125970 1.746697
3.253980 -2.115495 2.354015
3.265245 -2.124137 3.304732
2.994585 -2.353812 1.258221
2.998846 -2.358306 2.048182
3.030577 -2.384836 3.123979
2.934491 -2.310134 3.778901
2.829769 -2.690997 1.118323
2.813557 -2.676845 1.907558
2.857748 -2.720006 2.590602
2.555861 -2.928193 1.347284
2.544253 -2.916302 2.148513
2.548575 -2.922889 3.076457
2.474929 -2.839741 3.856793
2.335893 -3.219856 1.036599
2.304479 -3.177926 1.722848
2.315638 -3.195084 2.601999
2.124279 -3.586326 1.531180
2.081461 -3.516202 2.433666
2.077209 -3.510581 3.084521
1.885989 -3.879198 2.001190
1.868606 -3.845383 2.660964
-0.023238 -3.579739 1.115510
-0.023509 -3.505217 1.844010
-0.313484 -3.294980 1.296360
-0.315937 -3.310680 2.269238
-0.295579 -3.081641 3.930186
-0.595979 -3.098161 1.126751
-0.598904 -3.108669 2.079899
-0.593671 -3.077823 2.839191
-0.589703 -3.052650 3.800026
-0.830084 -2.903568 1.596809
-0.836593 -2.923274 2.541488
-0.829373 -2.895832 3.233813
-0.714615 -2.492634 4.190214
-1.069219 -2.780308 1.084735
-1.061983 -2.759551 1.891335
-1.044508 -2.712012 2.795748
-1.031686 -2.676781 3.632976
-1.319422 -2.654723 1.447038
-1.289957 -2.593992 2.210162
-1.282974 -2.578204 3.138061
-1.165981 -2.341395 4.164278
-1.502470 -2.448932 0.830104
-1.504109 -2.450156 1.731006
-1.504545 -2.449326 2.692177
-1.466366 -2.386057 3.414756
-1.722688 -2.292822 0.491068
-1.715818 -2.282752 1.158076
-1.694878 -2.253514 2.167209
-1.696002 -2.253852 3.012977
-1.604264 -2.130803 3.910462
-1.942570 -2.153926 0.946451
-1.915408 -2.122569 1.942529
-1.908533 -2.114048 2.670350
-1.892251 -2.094775 3.684016
-2.188838 -2.005570 0.559907
-2.127848 -1.948816 1.321026
-2.120792 -1.941275 2.269900
-2.102542 -1.923671 3.069712
-2.009820 -1.837879 3.976332
-2.616859 -2.035543 0.150405
-2.289033 -1.779737 0.899719
-2.272430 -1.765869 1.801141
-2.273789 -1.765903 2.762312
-2.521739 -1.572199 1.645331
-2.529132 -1.576076 2.357906
-2.560704 -1.594779 3.292071
-2.235023 -1.391270 4.079592
-2.831764 -1.474364 0.464139
-2.762159 -1.437140 1.418718
-2.769647 -1.440230 2.198571
-2.791259 -1.450633 3.001833
-2.648592 -1.375441 4.081597
-3.082682 -1.254383 1.052728
-3.035636 -1.234489 1.772767
-2.992181 -1.215804 2.762988
-3.024016 -1.227620 3.844629
-3.037503 -0.922323 0.893945
-2.964524 -0.899421 1.675413
-2.917397 -0.884198 2.669565
-2.726619 -0.562879 1.945923
-2.744888 -0.565985 2.743717
-2.423648 -0.273547 1.441172
-2.423601 -0.272770 2.529904
-2.342315 -0.263176 3.188228
-2.117554 -0.237226 4.343174
-2.266494 -0.049749 0.414953
-2.207734 -0.047923 1.258725
-2.230649 -0.047688 2.399200
-2.238073 -0.047280 3.280438
-2.066602 -0.043121 4.205232
-2.508874 0.180717 0.165029
-2.147012 0.155197 1.046224
-2.105354 0.152765 2.000266
-2.096247 0.152558 2.752656
-2.095980 0.153144 3.757922
-2.065680 0.337446 0.511847
-2.005327 0.328003 1.216106
-1.968345 0.322513 2.184954
-1.952592 0.320487 3.156045
-1.767746 0.290545 3.941637
-2.265168 0.587277 0.000000
-1.764174 0.457825 0.814504
-1.792300 0.465661 1.796302
-1.807579 0.470079 2.611301
-1.826343 0.475505 3.595727
-1.786360 0.625388 0.478320
-1.685826 0.590671 1.366904
-1.693737 0.593891 2.194931
-1.662774 0.583609 3.280178
-1.445336 0.507669 4.122955
-1.854743 0.849887 0.107256
-1.572666 0.721198 1.152440
-1.556874 0.714440 2.054605
-1.563850 0.718178 3.053996
-1.530545 0.703308 3.866477
-1.520176 0.873723 1.836378
-1.465816 0.842893 2.585662
-1.587481 1.119985 0.489718
-1.397812 0.986687 1.357229
-1.386967 0.979564 2.259975
-1.442052 1.019127 3.328148
-1.256366 0.888349 4.195285
-1.614911 1.366209 0.142762
-1.281028 1.084331 1.081655
-1.309749 1.109311 2.126642
-1.311615 1.111469 3.029987
-1.258695 1.067068 3.760461
-1.222927 1.255105 1.812387
-1.177334 1.208799 2.525597
-1.176629 1.208811 3.600058
-0.751450 0.772309 4.361981
-1.246620 1.521167 0.382004
-1.081739 1.320618 1.225145
-1.038752 1.268775 2.094182
-1.047737 1.280553 3.179423
-0.953287 1.165734 4.113214
-0.960856 1.434885 1.020415
-0.955209 1.427443 2.150653
-0.951317 1.422291 2.909928
-0.950509 1.421924 3.876299
-0.868907 1.581342 1.858256
-0.879208 1.601061 2.757993
-0.891697 1.624936 3.791340
-0.733381 1.664095 1.581745
-0.742091 1.685169 2.588844
-0.729627 1.657725 3.264479
-0.587859 1.336779 4.422144
-0.613717 1.860826 1.971318
-0.603655 1.831747 2.787569
-0.604674 1.836169 3.543857
-0.482364 2.043515 1.738475
-0.472334 2.002801 2.432661
-0.462663 1.964075 3.345052
-0.347536 1.476929 4.233828
-0.316179 2.240174 2.028966
-0.308028 2.186093 2.841340
-0.309489 2.200386 3.699729
-0.119240 2.458237 2.481238
0.116776 2.774422 1.007794
0.118677 2.802941 1.862835
0.410423 3.054443 1.198536
0.411911 3.059972 2.013772
0.421671 3.124880 3.106367
0.687964 3.008011 1.326496
0.685207 2.992567 2.166238
0.686480 2.993376 3.346413
0.907697 2.808805 1.003690
0.906651 2.803768 1.646292
0.906471 2.800561 2.594115
1.132828 2.619388 1.087905
1.129775 2.610100 2.154250
1.129694 2.608224 2.964434
1.086187 2.506154 3.786407
1.328139 2.451403 1.406103
1.324506 2.443101 2.345486
1.331988 2.455240 3.321069
1.119473 2.062269 4.238047
1.565210 2.327055 1.112591
1.565399 2.326289 1.827708
1.564018 2.322951 2.708588
1.553439 2.305706 3.770307
1.680889 2.081988 0.963164
1.699461 2.103887 1.843697
1.727946 2.138074 2.688288
1.949381 2.022518 1.276507
1.936739 2.008467 2.074772
1.969249 2.040812 3.223620
1.778068 1.842053 3.837082
2.120673 1.817427 1.546655
2.117168 1.813407 2.497777
2.116421 1.811989 3.227366
1.720061 1.471879 4.162351
2.312908 1.642442 2.002162
2.305170 1.636212 2.730420
2.265933 1.607361 3.746875
2.434188 1.409208 1.393578
2.435754 1.409047 2.519738
2.490935 1.440082 3.432189
2.641109 1.227073 1.378654
2.622244 1.217643 2.093318
2.634911 1.222551 3.136235
2.500508 1.159629 3.784215
2.950233 1.080418 1.510825
2.965069 1.084978 2.394722
3.253313 0.862659 2.533734
4.531145 -0.487291 1.190803
4.477465 -0.482323 1.777899
4.406047 -0.475941 2.752752
4.197571 -0.848078 1.198752
4.160918 -0.841902 2.140612
4.103487 -0.831172 2.837370
4.049607 -0.821382 3.731715
3.990031 -1.198695 1.474494
3.892271 -1.170617 2.491953
3.909347 -1.176977 3.450023
3.609031 -1.087342 4.145319
3.687059 -1.447377 1.322085
3.664613 -1.439404 1.985085
3.703407 -1.456060 3.091905
3.640496 -1.432202 3.797443
3.471639 -1.788623 1.129732
3.447416 -1.777008 1.793405
3.427993 -1.768272 2.779563
3.244694 -2.025773 1.715535
3.243226 -2.026120 2.655491
3.263280 -2.039579 3.342942
2.999679 -2.271897 1.385649
2.975452 -2.254956 2.396805
2.975687 -2.256208 3.167643
2.849264 -2.595369 1.085392
2.830849 -2.579747 1.829833
2.813907 -2.565787 2.794309
2.853953 -2.603893 3.813384
2.588363 -2.836283 1.440309
2.573789 -2.821476 2.128212
2.602698 -2.855028 3.215347
2.534105 -2.781198 4.076639
2.352793 -3.088878 1.221728
2.342523 -3.077054 2.091420
2.346120 -3.083571 3.030790
2.354879 -3.096621 3.833943
2.117781 -3.388246 0.683102
2.090972 -3.347467 1.630645
2.127730 -3.408414 2.551829
2.105385 -3.374494 3.389947
1.883921 -3.741273 1.405622
1.836880 -3.650681 2.445025
1.603961 -4.090660 2.110333
1.606477 -4.100585 3.071797
0.045425 -3.680424 1.147275
-0.286001 -3.451640 1.407076
-0.287871 -3.463564 2.261224
-0.566255 -3.275111 1.689714
-0.561472 -3.242626 2.538210
-0.560428 -3.231476 3.446581
-0.470791 -2.710983 4.269512
-0.819421 -3.053713 1.358999
-0.821426 -3.056969 2.534061
-0.823296 -3.061087 3.326985
-0.745529 -2.769300 4.175325
-1.023655 -2.831738 1.340479
-1.030462 -2.847977 2.331858
-1.021983 -2.822585 3.093969
-0.963266 -2.658229 4.013941
-1.261205 -2.643702 1.097678
-1.253177 -2.625212 1.940266
-1.253994 -2.625145 2.842471
-1.256841 -2.629094 3.864501
-1.468134 -2.497437 0.771203
-1.469125 -2.497617 1.671581
-1.470406 -2.498115 2.678927
-1.666891 -2.332927 0.432609
-1.665568 -2.329644 1.427034
-1.653228 -2.311414 2.107457
-1.687542 -2.357993 3.066142
-1.578661 -2.204819 3.847274
-2.093391 -2.407216 0.081226
-1.889163 -2.171127 1.052205
-1.878367 -2.157543 1.977610
-1.858640 -2.133881 2.777230
-1.836938 -2.107875 3.662732
-2.207104 -2.127462 0.197842
-2.092585 -2.015945 1.156726
-2.095820 -2.018122 1.951946
-2.093374 -2.014788 2.784067
-2.083048 -2.003574 3.878433
-2.260408 -1.801328 1.472945
-2.252901 -1.794389 2.363412
-2.221580 -1.768487 3.270419
-2.766012 -1.827721 0.150405
-2.421674 -1.599310 1.016545
-2.425633 -1.601044 1.881862
-2.415982 -1.593939 2.608824
-2.797650 -1.482773 0.325092
-2.633670 -1.395055 1.143041
-2.618944 -1.386384 2.031333
-2.651294 -1.402488 3.059003
-2.622092 -1.386237 3.883338
-2.898879 -1.223626 0.743473
-2.918614 -1.231157 1.533159
-2.937359 -1.238095 2.486160
-3.006675 -1.266210 3.541284
-3.101608 -0.983246 1.077762
-3.058905 -0.968869 1.926690
-3.063581 -0.969393 2.892193
-3.076347 -0.972623 3.707778
-2.902834 -0.638131 1.656994
-2.883777 -0.633363 2.312610
-2.611105 -0.318507 1.152394
-2.634614 -0.320845 1.834088
-2.605838 -0.316672 2.707847
-2.415452 -0.099734 0.460779
-2.435823 -0.099908 1.405745
-2.397546 -0.097739 2.271381
-2.350818 -0.095254 3.129070
-2.223770 -0.089543 4.022355
-2.248103 0.112887 0.972667
-2.196802 0.110793 1.734494
-2.193611 0.111219 2.663243
-2.174773 0.110763 3.464303
-1.611096 0.082479 4.443341
-2.098629 0.298775 0.642408
-2.042029 0.291173 1.406002
-2.051087 0.292958 2.228849
-2.025300 0.289756 3.043418
-1.816521 0.260456 4.142993
-2.156096 0.513187 0.332346
-1.874115 0.446450 1.003831
-1.908602 0.455259 2.031013
-1.916376 0.457695 3.036693
-1.864481 0.445806 3.942422
-1.743776 0.587773 1.485074
-1.759931 0.593747 2.431815
-1.755278 0.592759 3.478099
-1.374418 0.464493 4.325530
-1.646494 0.727142 1.750416
-1.637908 0.723812 2.579802
-1.846810 1.031387 0.142762
-1.512864 0.845520 1.260453
-1.515453 0.847395 2.017440
-1.504676 0.841977 3.102012
-1.488734 0.833457 3.828268
-1.458385 0.999705 1.571553
-1.422713 0.975946 2.740255
-1.393277 0.956272 3.636098
-1.279659 1.068228 1.539068
-1.213311 1.013350 2.410904
-1.257975 1.051200 3.313529
-0.991314 0.828797 4.243150
-1.194259 1.174147 0.925441
-1.202523 1.183015 2.031744
-1.175767 1.157152 2.732892
-1.163902 1.146204 3.858821
-1.069103 1.263997 1.888640
-1.047983 1.239611 2.710377
-1.063662 1.258899 3.736413
-0.969664 1.384955 1.502158
-0.951533 1.359860 2.478945
-0.961746 1.375296 3.491925
-0.628212 0.898749 4.298682
-0.847300 1.481600 1.213137
-0.850851 1.488672 2.090624
-0.846440 1.481683 2.837882
-0.847444 1.484442 3.864291
-0.710811 1.561475 1.501306
-0.732229 1.609898 2.629234
-0.747954 1.645605 3.541956
-0.510354 1.123545 4.420229
-0.610108 1.752129 1.880079
-0.619341 1.780291 2.886427
-0.626601 1.802747 3.846806
-0.509673 2.015337 2.359833
-0.489207 1.936024 3.058821
-0.442942 1.755181 4.145341
-0.338026 2.105160 1.915879
-0.336338 2.097713 2.715400
-0.338292 2.113415 3.622859
-0.139302 2.246051 2.291091
-0.139056 2.251296 3.171840
0.065526 2.550861 1.779453
0.350432 2.911602 1.226097
0.350496 2.904598 2.278932
0.348706 2.883711 3.136235
0.662194 3.131448 0.951425
0.657963 3.107766 1.765331
0.653541 3.082664 2.709783
0.890468 2.848725 1.294625
0.894507 2.859035 2.181697
0.886346 2.830744 2.944152
1.128369 2.724588 1.704641
1.127013 2.719315 2.594115
1.129072 2.722547 3.367857
0.942224 2.270725 4.096080
1.356669 2.573260 1.273535
1.327344 2.516053 2.165948
1.328391 2.516537 3.011226
1.220937 2.311594 3.879702
1.516520 2.381196 0.831072
1.503219 2.359046 1.663769
1.508913 2.366250 2.802261
1.767830 2.280439 1.321026
1.725600 2.224942 2.085272
1.715524 2.210670 3.049860
1.600593 2.061621 3.832657
1.891385 2.028774 1.699889
1.890167 2.026357 2.639858
1.880021 2.014500 3.477335
2.135048 1.905226 1.356876
2.106125 1.878472 2.214026
2.084407 1.858283 2.967881
1.938028 1.726809 3.952542
2.250168 1.663316 1.687191
2.243173 1.657303 2.521203
2.468309 1.494348 1.321026
2.416659 1.462175 2.260841
2.401756 1.452295 3.166954
2.209627 1.335345 4.072534
2.682113 1.308564 1.282965
2.641041 1.287811 2.032518
2.620964 1.277167 2.935907
2.521010 1.227725 3.756413
2.793520 1.058131 1.376241
2.826759 1.069925 2.215372
2.837558 1.073092 3.185343
3.086583 0.850557 1.764295
4.392225 -0.804076 1.441349
4.337563 -0.795372 2.403439
4.161203 -0.765063 3.985448
4.102083 -1.149555 1.289972
4.072743 -1.142700 2.323043
4.029725 -1.131730 3.167803
3.789566 -1.430252 0.932419
3.781848 -1.428093 1.513039
3.730086 -1.409756 2.462271
3.725383 -1.409245 3.458277
3.425846 -1.296632 4.086305
3.561898 -1.746733 1.504367
3.529691 -1.732061 2.362609
3.531842 -1.734166 3.164005
3.430349 -1.685263 3.909379
3.339725 -2.018626 1.015641
3.322159 -2.009187 1.884728
3.307874 -2.001413 2.526729
3.106067 -2.271159 1.657392
3.133549 -2.292289 2.376845
3.111989 -2.277579 3.123979
2.847871 -2.085385 4.006308
2.811783 -2.500127 1.374201
2.852168 -2.537137 2.093914
2.929699 -2.607521 2.992969
2.832543 -2.522352 3.865945
2.676514 -2.835945 0.890133
2.650007 -2.809705 1.988643
2.650025 -2.811206 2.870930
2.634915 -2.796345 3.573501
2.406353 -3.096300 0.729947
2.405530 -3.096946 1.620215
2.429617 -3.129568 2.452350
2.413226 -3.109858 3.186806
2.128002 -3.304741 1.140459
2.130713 -3.310791 1.985085
2.144708 -3.334515 2.886876
1.812742 -3.480874 1.700042
1.807974 -3.473806 2.523718
1.578817 -3.846964 2.383934
1.586697 -3.869670 3.441769
-0.215819 -3.594911 0.976956
-0.217143 -3.600691 1.885609
-0.532660 -3.423443 1.441663
-0.529708 -3.397509 2.494650
-0.524435 -3.358032 3.367192
-0.462751 -2.958616 4.186523
-0.776738 -3.113075 1.253020
-0.777142 -3.110348 2.368717
-0.776251 -3.104122 3.056327
-0.737529 -2.945511 4.100137
-1.019080 -2.891330 1.478571
-1.021660 -2.895556 2.621461
-1.027620 -2.909975 3.532559
-0.857944 -2.427959 4.263265
-1.237592 -2.715209 1.271306
-1.241183 -2.721361 2.088439
-1.239804 -2.715976 3.212381
-1.160239 -2.540343 3.910872
-1.565999 -2.722053 0.162642
-1.459434 -2.535477 0.945898
-1.450054 -2.517628 1.858500
-1.445976 -2.508603 3.007725
-1.423656 -2.468729 3.705271
-1.645132 -2.348046 1.520572
-1.626519 -2.320181 2.424672
-1.615714 -2.303578 3.260613
-1.368639 -1.950365 4.091323
-1.903495 -2.244023 0.466866
-1.832851 -2.159768 1.228960
-1.836351 -2.162887 2.013862
-1.845642 -2.172460 3.081408
-1.798939 -2.116329 4.018597
-2.047479 -2.008688 1.555647
-2.044893 -2.005026 2.516808
-2.014718 -1.974480 3.354256
-2.511240 -2.086732 0.046333
-2.212517 -1.837495 0.970382
-2.198316 -1.824699 1.895752
-2.191360 -1.818103 2.658653
-2.418778 -1.631548 0.467139
-2.435803 -1.642074 1.389522
-2.416905 -1.628650 2.057062
-2.401653 -1.617405 3.007725
-2.318623 -1.560590 3.934296
-2.870647 -1.607526 -0.057882
-2.529187 -1.415438 0.841304
-2.595170 -1.451514 1.691983
-2.598239 -1.452205 2.720895
-2.507995 -1.400854 3.679739
-2.803067 -1.247525 1.548395
-2.843550 -1.264611 2.478909
-2.877260 -1.278696 3.375395
-3.084691 -1.048921 1.239962
-3.068468 -1.042561 2.076240
-3.036816 -1.031089 2.799408
-3.022011 -1.025003 3.874598
-3.117712 -0.747586 1.868695
-3.063060 -0.733706 2.686554
-2.918335 -0.427401 1.716310
-2.818157 -0.411933 2.670350
-2.368963 -0.345223 4.209546
-2.590389 -0.134606 1.577386
-2.573348 -0.133174 2.309307
-2.499895 -0.128781 3.130072
-2.239455 -0.114689 4.200322
-2.366850 0.087660 0.544106
-2.304299 0.085762 1.172923
-2.289118 0.085808 2.098898
-2.268763 0.085651 3.027784
-2.146057 0.081606 3.993596
-2.131536 0.280575 0.927354
-2.137546 0.281968 1.891010
-2.125171 0.280787 2.618740
-2.115027 0.280013 3.539623
-2.429722 0.545196 0.082562
-2.054109 0.461577 1.154523
-2.032439 0.457189 1.941885
-2.054885 0.462785 2.824055
-2.034528 0.458653 3.567478
-1.845138 0.599590 1.481693
-1.824905 0.593678 2.632231
-1.801947 0.586631 3.378502
-1.410976 0.459787 4.407591
-1.839038 0.767925 0.501089
-1.738437 0.726378 1.292039
-1.747509 0.730688 2.177985
-1.710332 0.715706 3.165037
-1.540603 0.645096 3.988859
-2.134061 1.131113 0.141780
-1.614924 0.856500 1.065998
-1.569151 0.832637 1.787380
-1.538157 0.816642 2.594731
-1.558332 0.827940 3.629928
-1.708081 1.118915 0.405183
-1.427497 0.935579 1.213137
-1.501883 0.984948 2.218899
-1.480505 0.971428 3.050535
-1.321320 0.867386 3.827052
-1.329421 1.055755 1.694345
-1.298442 1.031609 2.454902
-1.293426 1.028237 3.481877
-0.931584 0.740993 4.485920
-1.495617 1.425295 0.285850
-1.234789 1.177334 1.189120
-1.209621 1.154024 2.237221
-1.190121 1.135942 3.047162
-1.151530 1.099672 3.959503
-1.225742 1.409520 0.502521
-1.087146 1.250663 1.226536
-1.078095 1.240926 2.178363
-1.063433 1.224676 3.072949
-0.899628 1.036585 4.028002
-0.976444 1.358065 1.695306
-1.000894 1.392805 2.572191
-1.022607 1.423799 3.485999
-0.857556 1.452908 1.394040
-0.852248 1.444806 2.345374
-0.867369 1.471280 3.223860
-0.757547 1.285817 4.236211
-0.748007 1.584471 1.031831
-0.743888 1.577073 2.173429
-0.732025 1.552859 2.993971
-0.716531 1.520920 3.830433
-0.610025 1.670453 1.835336
-0.618839 1.696065 2.819469
-0.623217 1.709370 3.685705
-0.485957 1.856796 1.602047
-0.486224 1.860178 2.691980
-0.489623 1.875175 3.603586
-0.345632 1.325027 4.516791
-0.353120 1.990407 1.658007
-0.349231 1.970637 2.316171
-0.350031 1.978143 3.225806
-0.182513 2.177090 1.973075
-0.177253 2.120096 2.762976
0.260335 2.615708 1.081854
0.573105 2.956789 1.363784
0.574018 2.956357 2.473062
0.571680 2.940341 3.340621
0.898517 3.076739 1.137028
0.907358 3.104289 1.937150
0.884623 3.020832 3.667835
1.088070 2.783634 1.422876
1.098278 2.807087 2.519670
1.091381 2.787551 3.317307
0.935173 2.386961 4.145535
1.301004 2.571975 1.215841
1.292046 2.552836 1.989303
1.298961 2.564496 3.067927
1.245009 2.456293 4.032648
1.488538 2.400455 0.901294
1.479711 2.384692 1.886252
1.488662 2.397909 2.660200
1.677020 2.233889 1.558367
1.654354 2.202630 2.358572
1.679801 2.235158 3.356204
1.379605 1.834800 4.231060
1.825057 2.008565 1.432024
1.854396 2.039705 2.393738
1.878357 2.064968 3.297645
1.570157 1.725390 4.096020
2.068166 1.899360 1.241383
2.052565 1.884205 1.992779
2.056485 1.886754 2.944456
1.997078 1.831320 3.823805
2.229933 1.685870 1.616925
2.206396 1.667140 2.546108
2.191422 1.655013 3.360099
2.346642 1.465506 1.512398
2.356405 1.470830 2.322054
2.390369 1.491076 3.307436
2.060334 1.284628 4.039382
2.541758 1.305988 1.228244
2.552289 1.310528 2.152996
2.561418 1.314297 3.126372
2.390932 1.225961 4.121848
2.741539 1.102808 1.132041
2.690480 1.080848 2.690610
2.658568 1.067226 3.586208
2.933075 0.879733 1.373828
4.226655 -1.089781 1.433556
4.192445 -1.082152 2.317455
3.951594 -1.022088 3.999784
3.955099 -1.436082 1.212245
3.886728 -1.412220 1.941561
3.870290 -1.407550 2.933290
3.806100 -1.385134 3.658837
3.621933 -1.693596 0.831090
3.629561 -1.698554 1.879106
3.625982 -1.697997 2.724104
3.393121 -2.000555 1.414074
3.379446 -1.993583 2.214376
3.367599 -1.987898 3.177299
3.208831 -1.895168 3.964496
3.136361 -2.245894 1.211035
3.138787 -2.248703 1.965801
3.107809 -2.227989 3.022970
3.088153 -2.214793 3.669257
2.939621 -2.539960 1.290215
2.923550 -2.527209 2.034323
2.878081 -2.488970 2.748567
2.886848 -2.498225 3.863651
2.720951 -2.828807 0.912408
2.654998 -2.761789 1.852691
2.627451 -2.734256 2.542686
2.445784 -3.054255 1.380700
2.438793 -3.047232 2.295567
2.427146 -3.034316 3.179192
2.305747 -2.883721 3.863656
2.160454 -3.219391 1.004831
2.163703 -3.226162 1.930387
2.134591 -3.184542 2.804075
2.116221 -3.158935 3.692131
1.891123 -3.466351 1.676233
1.890536 -3.467699 2.658985
1.603555 -3.726868 2.366924
1.308218 -3.977824 1.984558
-0.775805 -3.280925 1.629954
-0.782160 -3.303568 2.601532
-0.778267 -3.283769 3.380727
-0.677872 -2.857600 4.109695
-0.994938 -3.054508 1.380599
-1.026478 -3.147937 2.455728
-1.002680 -3.072817 3.158874
-0.874256 -2.676703 4.156760
-1.254385 -2.849809 1.418718
-1.231212 -2.795114 2.342136
-1.250009 -2.835450 3.379346
-1.135989 -2.575310 4.145054
-1.449698 -2.674242 1.514369
-1.457508 -2.687003 2.388697
-1.437762 -2.649002 3.257117
-1.289868 -2.375294 4.025582
-1.679729 -2.505899 0.384492
-1.618590 -2.413495 1.168408
-1.610979 -2.400743 2.093318
-1.618299 -2.410102 3.112872
-1.563571 -2.327669 3.756413
-1.911119 -2.364478 0.128091
-1.794188 -2.218566 1.064514
-1.804844 -2.230292 2.152996
-1.817896 -2.245400 2.914245
-1.791320 -2.211230 3.941432
-1.987862 -2.036961 0.725313
-1.968274 -2.015937 1.534050
-1.992962 -2.039799 2.728833
-1.977008 -2.022626 3.447883
-2.291185 -1.961776 0.326237
-2.186061 -1.870989 1.028827
-2.197982 -1.879982 2.116688
-2.199018 -1.879918 2.972672
-2.146314 -1.833795 3.967128
-2.687583 -1.897744 -0.023153
-2.327545 -1.642610 0.865679
-2.330546 -1.643797 1.778799
-2.353749 -1.659138 2.774000
-2.517805 -1.457009 1.273535
-2.560995 -1.480857 2.417619
-2.573794 -1.487636 3.037462
-2.334844 -1.348715 3.955157
-2.920441 -1.346311 0.255130
-2.683080 -1.236088 1.097037
-2.669039 -1.228734 2.032518
-2.715976 -1.249487 2.919119
-2.658056 -1.222104 3.710492
-2.852694 -1.035994 1.304758
-2.861851 -1.038512 2.155862
-2.929846 -1.062086 3.284388
-2.721379 -0.985958 3.925173
-3.228377 -0.819778 1.156819
-2.837570 -0.211666 1.615044
-2.833168 -0.210558 2.553371
-2.519016 0.044326 0.612945
-2.534105 0.045094 1.296462
-2.521510 0.045542 2.217696
-2.472795 0.045263 3.061086
-2.312094 0.043033 4.145743
-2.335808 0.256764 0.923100
-2.286631 0.251912 1.754207
-2.259739 0.249567 2.694226
-2.282822 0.252780 3.693376
-1.691584 0.187593 4.325249
-2.195049 0.455029 0.379604
-2.088766 0.433548 1.260893
-2.072796 0.430773 2.131134
-2.078707 0.432587 3.073892
-1.919242 0.399847 3.866313
-2.050837 0.615616 0.321029
-1.976148 0.593881 1.429824
-2.008591 0.604140 2.239476
-2.006055 0.603871 3.028041
-1.790947 0.539639 3.982794
-2.099345 0.853809 0.331964
-1.763984 0.717881 1.123951
-1.765521 0.718963 1.901847
-1.793938 0.731144 2.918981
-1.730862 0.705871 3.681524
-2.102874 1.083343 0.201087
-1.643323 0.846993 0.873889
-1.624041 0.837603 1.809300
-1.595755 0.823505 2.663694
-1.632570 0.843054 3.599813
-1.518942 0.950544 1.534705
-1.515345 0.948892 2.531859
-1.448107 0.907188 3.235868
-1.122815 0.703869 4.325568
-1.564565 1.192239 0.417816
-1.361193 1.037853 1.381243
-1.371846 1.046547 2.306707
-1.335735 1.019526 3.189640
-1.178807 0.900239 4.139668
-1.544546 1.446546 0.309316
-1.187636 1.112747 1.046793
-1.228307 1.151453 1.959659
-1.232174 1.155735 2.959630
-1.171485 1.099353 3.836929
-1.389313 1.529207 0.297760
-1.130355 1.244815 1.201810
-1.138688 1.254698 2.187908
-1.116693 1.230978 2.925245
-1.041141 1.148419 4.048334
-1.642442 -0.136698 -0.023153
-1.800898 -0.149886 -0.023153
-1.152575 -0.095927 -0.023153
-0.340328 -0.028325 -0.023153
-1.950822 -0.162363 -0.023153
-1.018064 -0.084732 -0.023153
-0.698425 -0.058129 -0.023153
-0.252182 -0.020989 -0.023153
-2.067124 -0.172043 -0.023153
-2.205533 -0.183563 -0.023153
-2.258855 -1.041322 -0.023153
-1.169464 -0.539118 -0.023153
-2.770647 -1.277256 -0.023153
-1.849204 -0.852475 -0.023153
-0.183877 -0.084766 -0.023153
-0.671504 -0.309560 -0.023153
-0.337644 -0.155653 -0.023153
-0.931721 -0.429519 -0.023153
-0.454509 -0.209527 -0.023153
-0.076304 -0.035176 -0.023153
-1.125418 -0.596479 -0.023153
-0.130456 -0.069143 -0.023153
-2.273758 -1.205106 -0.023153
-0.024383 -0.012923 -0.023153
-2.024926 -1.073224 -0.023153
-1.870953 -0.991617 -0.023153
-1.089288 -0.577330 -0.023153
-0.673847 -0.357143 -0.023153
-1.576901 -0.835768 -0.023153
-2.409157 -1.276869 -0.023153
-0.120477 -0.067466 -0.023153
-2.737235 -1.532817 -0.023153
-0.871438 -0.487994 -0.023153
-2.687099 -1.504741 -0.023153
-1.134452 -0.635279 -0.023153
-2.366210 -1.325047 -0.023153
-0.891830 -0.499413 -0.023153
-0.737259 -0.412856 -0.023153
-2.043485 -1.144325 -0.023153
-0.181790 -0.101800 -0.023153
-2.296288 -1.363270 -0.023153
-2.554155 -1.516361 -0.023153
-2.327665 -1.381898 -0.023153
-1.239011 -0.735581 -0.023153
-1.013373 -0.601623 -0.023153
-0.845487 -0.501952 -0.023153
-1.674634 -0.994204 -0.023153
-2.370447 -1.407297 -0.023153
-0.601873 -0.357323 -0.023153
-1.739405 -1.032657 -0.023153
-0.863847 -0.528608 -0.023153
-2.495000 -1.526749 -0.023153
-0.899592 -0.550481 -0.023153
-1.380491 -0.844755 -0.023153
-2.749134 -1.682259 -0.023153
-1.980561 -1.211951 -0.023153
-1.701547 -1.041216 -0.023153
-0.536560 -0.328334 -0.023153
-0.321027 -0.196444 -0.023153
-0.469393 -0.287233 -0.023153
-0.143758 -0.094992 -0.023153
-1.408552 -0.930741 -0.023153
-1.383371 -0.914102 -0.023153
-1.910912 -1.262690 -0.023153
-1.964961 -1.298404 -0.023153
-0.408887 -0.270184 -0.023153
-0.305711 -0.202007 -0.023153
-1.201417 -0.793871 -0.023153
-1.595354 -1.054175 -0.023153
-0.871390 -0.575796 -0.023153
-0.783114 -0.552969 -0.023153
-1.824709 -1.288456 -0.023153
-0.649514 -0.458632 -0.023153
-0.289197 -0.204206 -0.023153
-1.610134 -1.136941 -0.023153
-1.066114 -0.752799 -0.023153
-1.189414 -0.839864 -0.023153
-0.877940 -0.619927 -0.023153
-1.196605 -0.844941 -0.023153
-1.330237 -0.939301 -0.023153
-1.007804 -0.730864 -0.023153
-1.648816 -1.195728 -0.023153
-1.210607 -0.877937 -0.023153
-1.769026 -1.282905 -0.023153
-1.096719 -0.795345 -0.023153
-0.701125 -0.508459 -0.023153
-0.022151 -0.016064 -0.023153
-2.519863 -1.827415 -0.023153
-2.700250 -1.958232 -0.023153
-0.213604 -0.154906 -0.023153
-1.262916 -0.982369 -0.023153
-0.877058 -0.682226 -0.023153
-0.797135 -0.620057 -0.023153
-0.682076 -0.530558 -0.023153
-0.333065 -0.259077 -0.023153
-1.690785 -1.315190 -0.023153
-1.936426 -1.506263 -0.023153
-0.238858 -0.185798 -0.023153
-1.755008 -1.365146 -0.023153
-0.284894 -0.221607 -0.023153
-0.406045 -0.337406 -0.023153
-1.052920 -0.874931 -0.023153
-1.766414 -1.467814 -0.023153
-2.101749 -1.746462 -0.023153
-0.423471 -0.351886 -0.023153
-1.369734 -1.138190 -0.023153
-0.072678 -0.060392 -0.023153
-0.827934 -0.687977 -0.023153
-1.283465 -1.066504 -0.023153
-0.232468 -0.193171 -0.023153
-0.098101 -0.083997 -0.023153
-0.460704 -0.394468 -0.023153
-0.944649 -0.808834 -0.023153
-0.176630 -0.151235 -0.023153
-2.010082 -1.721088 -0.023153
-0.706256 -0.604716 -0.023153
-0.848744 -0.726718 -0.023153
-1.017998 -0.871638 -0.023153
-0.078568 -0.067272 -0.023153
-0.248613 -0.212870 -0.023153
-2.144230 -1.929175 -0.023153
-1.980646 -1.781999 -0.023153
-0.405250 -0.364605 -0.023153
-2.049041 -1.843534 -0.023153
-0.861348 -0.774960 -0.023153
-1.056731 -0.950746 -0.023153
-1.565005 -1.408044 -0.023153
-0.738239 -0.664198 -0.023153
-0.044888 -0.040386 -0.023153
-1.980872 -1.782201 -0.023153
-1.713971 -1.652124 -0.023153
-0.950635 -0.916332 -0.023153
-0.260544 -0.251143 -0.023153
-1.316622 -1.269113 -0.023153
-0.681299 -0.656715 -0.023153
-1.486895 -1.433242 -0.023153
-0.188146 -0.181357 -0.023153
-0.484404 -0.466925 -0.023153
-1.362691 -1.313520 -0.023153
-1.380824 -1.330998 -0.023153
-0.484357 -0.508819 -0.023153
-0.997393 -1.047766 -0.023153
-2.076908 -2.181801 -0.023153
-0.324599 -0.340992 -0.023153
-0.299852 -0.314996 -0.023153
-1.636668 -1.719327 -0.023153
-0.479465 -0.503680 -0.023153
-0.626395 -0.658030 -0.023153
-1.994243 -2.094961 -0.023153
-0.034711 -0.036464 -0.023153
-0.576463 -0.662882 -0.023153
-1.672209 -1.922893 -0.023153
-1.708322 -1.964420 -0.023153
-0.833248 -0.958162 -0.023153
-0.645345 -0.742090 -0.023153
-1.842076 -2.118226 -0.023153
-1.909700 -2.195987 -0.023153
-0.622258 -0.715542 -0.023153
-0.707579 -0.813654 -0.023153
-1.983095 -2.280386 -0.023153
-1.871103 -2.314969 -0.023153
-1.891970 -2.340786 -0.023153
-1.167831 -1.444866 -0.023153
-1.043333 -1.290834 -0.023153
-1.088256 -1.346414 -0.023153
-0.313380 -0.387720 -0.023153
-0.827331 -1.023591 -0.023153
-1.322584 -1.636329 -0.023153
-0.156138 -0.193177 -0.023153
-0.151872 -0.187900 -0.023153
-1.015505 -1.283399 -0.023153
-1.815423 -2.294341 -0.023153
-0.157325 -0.198828 -0.023153
-1.069724 -1.351922 -0.023153
-0.658497 -0.832211 -0.023153
-0.681673 -0.861501 -0.023153
-1.178210 -1.489027 -0.023153
-1.804955 -2.281110 -0.023153
-0.308508 -0.389894 -0.023153
-1.797192 -2.271299 -0.023153
-1.612617 -2.551964 -0.023153
-1.167008 -1.846787 -0.023153
-0.443648 -0.702072 -0.023153
-0.025322 -0.040071 -0.023153
-1.632735 -2.583801 -0.023153
-1.085753 -1.718203 -0.023153
-1.401157 -2.217328 -0.023153
-0.778774 -1.232409 -0.023153
-0.727660 -1.151521 -0.023153
-1.600660 -2.533041 -0.023153
-0.881198 -1.531718 -0.023153
-1.490226 -2.590344 -0.023153
-0.742974 -1.291453 -0.023153
-0.132574 -0.230442 -0.023153
-0.256117 -0.445188 -0.023153
-1.409937 -2.450784 -0.023153
-1.373427 -2.387320 -0.023153
-1.369180 -2.379938 -0.023153
-0.779508 -1.354958 -0.023153
-1.506498 -2.618627 -0.023153
-0.788383 0.867767 -0.023153
-0.675379 0.743385 -0.023153
-0.935001 1.029149 -0.023153
-0.172950 0.190365 -0.023153
-0.718428 0.790769 -0.023153
-0.544509 0.599337 -0.023153
-0.610071 0.671501 -0.023153
-0.040968 0.045093 -0.023153
-0.075060 0.082618 -0.023153
-1.064310 1.171479 -0.023153
-0.507513 0.483651 -0.023153
-0.343998 0.327824 -0.023153
-1.230025 1.172191 -0.023153
-0.856843 0.816555 -0.023153
-1.214759 1.157642 -0.023153
-0.103840 0.098958 -0.023153
-0.516171 0.491901 -0.023153
-0.094990 0.090523 -0.023153
-0.505512 0.481744 -0.023153
-0.427571 0.407467 -0.023153
-1.455071 1.362748 -0.023153
-0.707156 0.662288 -0.023153
-1.116821 1.045960 -0.023153
-0.764082 0.715602 -0.023153
-1.402577 1.313585 -0.023153
-1.405122 1.315969 -0.023153
-0.327093 0.306339 -0.023153
-0.904321 0.846942 -0.023153
-1.252917 1.173421 -0.023153
-0.902351 0.845098 -0.023153
-1.551024 1.312160 -0.023153
-1.278842 1.081895 -0.023153
-0.609163 0.515350 -0.023153
-0.853421 0.721990 -0.023153
-0.018052 0.015272 -0.023153
-1.445495 1.222883 -0.023153
-0.248543 0.210266 -0.023153
-1.065020 0.901002 -0.023153
-1.502298 1.270938 -0.023153
-0.434721 0.367773 -0.023153
-0.933638 0.684965 -0.023153
-1.314408 0.964317 -0.023153
-1.745922 1.280898 -0.023153
-0.302593 0.221998 -0.023153
-1.816986 1.333035 -0.023153
-0.759966 0.557550 -0.023153
-0.695669 0.510378 -0.023153
-0.160650 0.117861 -0.023153
-1.273193 0.934080 -0.023153
-1.140700 0.836877 -0.023153
-0.175436 0.108002 -0.023153
-0.352809 0.217196 -0.023153
-0.125566 0.077301 -0.023153
-0.503838 0.310173 -0.023153
-0.445448 0.274227 -0.023153
-0.284597 0.175204 -0.023153
-0.735630 0.452869 -0.023153
-1.505881 0.927052 -0.023153
-0.291804 0.179640 -0.023153
-0.443887 0.273266 -0.023153
-1.490408 0.832348 -0.023153
-1.640233 0.916021 -0.023153
-0.543061 0.303283 -0.023153
-1.764624 0.985489 -0.023153
-1.182470 0.660373 -0.023153
-0.286429 0.159962 -0.023153
-0.722400 0.403438 -0.023153
-1.233655 0.688959 -0.023153
-0.469306 0.262093 -0.023153
-0.960390 0.536349 -0.023153
-1.022308 0.541852 -0.023153
-0.294723 0.156212 -0.023153
-1.999146 1.059604 -0.023153
-1.914373 1.014672 -0.023153
-1.080715 0.572809 -0.023153
-1.926209 1.020945 -0.023153
-1.930417 1.023176 -0.023153
-1.630114 0.864007 -0.023153
-1.072984 0.568712 -0.023153
-0.814120 0.431507 -0.023153
-0.306883 0.158098 -0.023153
-1.021895 0.526452 -0.023153
-1.566055 0.806788 -0.023153
-0.225427 0.116134 -0.023153
-0.739909 0.381180 -0.023153
-0.380861 0.196209 -0.023153
-0.002968 0.001529 -0.023153
-0.347719 0.179135 -0.023153
-1.098680 0.566009 -0.023153
-0.657325 0.338635 -0.023153
-1.800947 0.868985 -0.023153
-1.420987 0.685648 -0.023153
-1.319455 0.636658 -0.023153
-1.843173 0.889360 -0.023153
-1.376565 0.664214 -0.023153
-0.856464 0.413257 -0.023153
-1.082888 0.522511 -0.023153
-1.559900 0.752676 -0.023153
-0.493161 0.237958 -0.023153
-1.112578 0.536836 -0.023153
-1.142383 0.523467 -0.023153
-1.514484 0.693972 -0.023153
-1.407796 0.645085 -0.023153
-0.006473 0.002966 -0.023153
-0.581657 0.266529 -0.023153
-0.569227 0.260833 -0.023153
-1.397434 0.640337 -0.023153
-0.008338 0.003821 -0.023153
-1.046101 0.479348 -0.023153
-1.208838 0.553918 -0.023153
-0.571204 0.232310 -0.023153
-1.001803 0.407436 -0.023153
-1.940463 0.789191 -0.023153
-1.118472 0.454885 -0.023153
-0.260781 0.106060 -0.023153
-0.081121 0.032992 -0.023153
-0.333391 0.135591 -0.023153
-0.039782 0.016180 -0.023153
-1.007211 0.409635 -0.023153
-1.862492 0.757480 -0.023153
-0.965929 0.382871 -0.023153
-0.460941 0.182706 -0.023153
-1.887428 0.748131 -0.023153
-0.037563 0.014889 -0.023153
-0.442753 0.175497 -0.023153
-1.183841 0.469246 -0.023153
-0.678563 0.268966 -0.023153
-0.493377 0.195563 -0.023153
-1.706001 0.676218 -0.023153
-0.346847 0.137482 -0.023153
-0.815660 0.304397 -0.023153
-1.763220 0.658018 -0.023153
-0.767528 0.286435 -0.023153
-0.224304 0.083708 -0.023153
-1.693122 0.631858 -0.023153
-0.847191 0.316164 -0.023153
-0.160397 0.059859 -0.023153
-1.856153 0.692700 -0.023153
-0.848902 0.316803 -0.023153
-1.177178 0.439312 -0.023153
-0.902372 0.270872 -0.023153
-0.738357 0.221638 -0.023153
-1.181119 0.354546 -0.023153
-1.176557 0.353176 -0.023153
-1.716946 0.515389 -0.023153
-0.047788 0.014345 -0.023153
-1.332982 0.400132 -0.023153
-0.478228 0.143554 -0.023153
-0.052827 0.015857 -0.023153
-1.222797 0.367056 -0.023153
-1.665069 0.431693 -0.023153
-1.924348 0.498915 -0.023153
-1.151871 0.298639 -0.023153
-2.022834 0.524449 -0.023153
-1.540415 0.399375 -0.023153
-1.230647 0.319063 -0.023153
-1.716758 0.445094 -0.023153
-2.177093 0.564443 -0.023153
-1.584151 0.410714 -0.023153
-0.994895 0.257941 -0.023153
-0.058333 0.013884 -0.023153
-1.677342 0.399236 -0.023153
-0.306716 0.073004 -0.023153
-1.711655 0.407403 -0.023153
-0.178567 0.042502 -0.023153
-1.621987 0.386060 -0.023153
-0.637358 0.151702 -0.023153
-0.679193 0.161659 -0.023153
-0.872575 0.207688 -0.023153
-0.966553 0.230056 -0.023153
-1.764090 0.395837 -0.023153
-0.229583 0.051515 -0.023153
-1.653089 0.370930 -0.023153
-1.290703 0.289616 -0.023153
-0.221988 0.049811 -0.023153
-2.331599 0.523178 -0.023153
-1.838578 0.412551 -0.023153
-1.698846 0.381197 -0.023153
-0.115865 0.025999 -0.023153
-2.357625 0.529018 -0.023153
-1.847130 0.186262 -0.023153
-0.654142 0.065963 -0.023153
-0.781134 0.078769 -0.023153
-0.798499 0.080520 -0.023153
-1.276582 0.128729 -0.023153
-1.049677 0.105848 -0.023153
-0.770498 0.077696 -0.023153
-0.590397 0.059535 -0.023153
-1.561092 0.157419 -0.023153
-0.464830 0.046873 -0.023153
-0.276645 0.022655 -0.023153
-0.219300 0.017959 -0.023153
-0.589281 0.048257 -0.023153
-0.006605 0.000541 -0.023153
-1.597740 0.130842 -0.023153
-0.103365 0.008465 -0.023153
-0.753624 0.061716 -0.023153
-1.272728 0.104226 -0.023153
-0.838975 0.068705 -0.023153
-1.456491 0.119275 -0.023153
-0.725926 0.052289 -0.023153
-1.918180 0.138168 -0.023153
-0.095307 0.006865 -0.023153
-0.095248 0.006861 -0.023153
-1.588376 0.114412 -0.023153
-1.433748 0.103274 -0.023153
-2.070797 0.149162 -0.023153
-2.244534 0.161676 -0.023153
-0.487967 0.035149 -0.023153
-1.872765 0.134897 -0.023153
-1.174074 -0.024498 4.485920
-0.395753 -0.008258 4.485920
-0.651389 -0.013592 4.485920
-1.358054 -0.028336 4.485920
-2.045890 -0.042688 4.485920
-0.289891 -0.006049 4.485920
-1.700232 -0.035476 4.485920
-0.018489 -0.000386 4.485920
-0.101508 -0.002118 4.485920
-1.316270 -0.027465 4.485920
-1.417132 -0.072576 4.485920
-1.914295 -0.098037 4.485920
-0.245763 -0.012586 4.485920
-0.329336 -0.016866 4.485920
-1.575718 -0.080697 4.485920
-0.946320 -0.048464 4.485920
-1.641412 -0.084062 4.485920
-0.645359 -0.033051 4.485920
-0.672650 -0.034449 4.485920
-0.849269 -0.043494 4.485920
-1.121195 -0.125605 4.485920
-0.074125 -0.008304 4.485920
-0.512971 -0.057467 4.485920
-0.439170 -0.049199 4.485920
-1.523733 -0.170701 4.485920
-0.182347 -0.020428 4.485920
-1.236891 -0.138567 4.485920
-1.555381 -0.174247 4.485920
-1.313812 -0.147184 4.485920
-1.834676 -0.205535 4.485920
-2.050498 -0.298814 4.485920
-1.352401 -0.197082 4.485920
-1.552957 -0.226309 4.485920
-1.359053 -0.198051 4.485920
-1.401839 -0.204287 4.485920
-1.993313 -0.290481 4.485920
-1.336101 -0.194707 4.485920
-1.040734 -0.151664 4.485920
-2.201804 -0.320863 4.485920
-1.494940 -0.217854 4.485920
-1.308156 -0.223994 4.485920
-0.654354 -0.112044 4.485920
-1.781398 -0.305026 4.485920
-0.799183 -0.136843 4.485920
-0.737043 -0.126203 4.485920
-0.072396 -0.012396 4.485920
-0.614152 -0.105160 4.485920
-1.252540 -0.214471 4.485920
-1.435023 -0.245717 4.485920
-1.240084 -0.212338 4.485920
-1.313823 -0.242783 4.485920
-2.094802 -0.387101 4.485920
-0.913041 -0.168722 4.485920
-0.558338 -0.103176 4.485920
-0.402775 -0.074429 4.485920
-0.670558 -0.123913 4.485920
-1.505466 -0.278197 4.485920
-0.873417 -0.161400 4.485920
-1.886931 -0.348688 4.485920
-1.024491 -0.189317 4.485920
-1.315716 -1.148551 4.485920
-0.703238 -0.613890 4.485920
-0.055915 -0.048811 4.485920
-1.900516 -1.659052 4.485920
-1.683203 -1.469349 4.485920
-1.398056 -1.220430 4.485920
-1.629861 -1.422784 4.485920
-0.994369 -0.868032 4.485920
-0.901499 -0.786962 4.485920
-0.481513 -0.420336 4.485920
-0.333271 -0.474924 4.485920
-1.177394 -1.677833 4.485920
-1.185717 -1.689694 4.485920
-0.117361 -0.167243 4.485920
-0.017323 -0.024686 4.485920
-1.191107 -1.697375 4.485920
-0.803310 -1.144749 4.485920
-0.751426 -1.070811 4.485920
-0.270046 -0.384826 4.485920
-0.507927 -0.723817 4.485920
-1.038047 -2.084491 4.485920
-0.355908 -0.714696 4.485920
-0.991967 -1.991959 4.485920
-0.984865 -1.977698 4.485920
-1.085234 -2.179248 4.485920
-0.526318 -1.056894 4.485920
-0.902162 -1.811622 4.485920
-0.262185 -0.526491 4.485920
-1.056753 -2.122054 4.485920
-0.412996 -0.829334 4.485920
-0.063754 -0.144533 4.485920
-0.228608 -0.518258 4.485920
-0.775035 -1.757021 4.485920
-0.793255 -1.798325 4.485920
-0.989242 -2.242632 4.485920
-0.945724 -2.143975 4.485920
-0.699640 -1.586098 4.485920
-0.089593 -0.203109 4.485920
-0.789042 -1.788775 4.485920
-0.442758 -1.003741 4.485920
-0.437032 -1.236789 4.485920
-0.777267 -2.199645 4.485920
-0.321822 -0.910749 4.485920
-0.671030 -1.898999 4.485920
-0.064685 -0.183057 4.485920
-0.429261 -1.214798 4.485920
-0.697319 -1.973394 4.485920
-0.254543 -0.720350 4.485920
-0.728348 -2.061208 4.485920
-0.744700 -2.107482 4.485920
-0.166776 -0.510615 4.485920
-0.337581 -1.033568 4.485920
-0.140330 -0.429647 4.485920
-0.262098 -0.802463 4.485920
-0.311550 -0.953869 4.485920
-0.240770 -0.737162 4.485920
-0.591062 -1.809650 4.485920
-0.387794 -1.187306 4.485920
-0.803974 -2.461520 4.485920
-0.616913 -1.888798 4.485920
-0.687839 -2.399237 4.485920
-0.376682 -1.313897 4.485920
-0.655952 -2.288014 4.485920
-0.222874 -0.777403 4.485920
-0.064894 -0.226354 4.485920
-0.655549 -2.286606 4.485920
-0.159649 -0.556869 4.485920
-0.594795 -2.074694 4.485920
-0.024094 -0.084041 4.485920
-0.147978 -0.516160 4.485920
-0.000620 -0.002302 4.485920
-0.563523 -2.093232 4.485920
-0.633558 -2.353380 4.485920
-0.409272 -1.520258 4.485920
-0.710848 -2.640475 4.485920
-0.274511 -1.019684 4.485920
-0.514786 -1.912194 4.485920
-0.678853 -2.521629 4.485920
-0.705618 -2.621051 4.485920
-0.538704 -2.001040 4.485920
-0.586151 -2.340943 4.485920
-0.228828 -0.913884 4.485920
-0.017930 -0.071607 4.485920
-0.116065 -0.463537 4.485920
-0.288964 -1.154051 4.485920
-0.714171 -2.852224 4.485920
-0.643726 -2.570884 4.485920
-0.503584 -2.011193 4.485920
-0.232639 -0.929103 4.485920
-0.511397 -2.042394 4.485920
-0.612273 -2.581066 4.485920
-0.259740 -1.094947 4.485920
-0.059826 -0.252198 4.485920
-0.249775 -1.052935 4.485920
-0.059190 -0.249517 4.485920
-0.102275 -0.431145 4.485920
-0.652037 -2.748692 4.485920
-0.265905 -1.120935 4.485920
-0.070634 -0.297760 4.485920
-0.052499 -0.221313 4.485920
-0.307309 -1.769595 4.485920
-0.407065 -2.344028 4.485920
-0.398986 -2.297505 4.485920
-0.139425 -0.802859 4.485920
-0.191463 -1.102514 4.485920
-0.363538 -2.093385 4.485920
-0.087320 -0.502817 4.485920
-0.202484 -1.165977 4.485920
-0.142071 -0.818098 4.485920
-0.137735 -0.793125 4.485920
-0.148962 -0.952392 4.485920
-0.193487 -1.237068 4.485920
-0.285542 -1.825621 4.485920
-0.005086 -0.032518 4.485920
-0.221335 -1.415114 4.485920
-0.294470 -1.882706 4.485920
-0.411682 -2.632104 4.485920
-0.404737 -2.587698 4.485920
-0.425181 -2.718410 4.485920
-0.065776 -0.420543 4.485920
-0.074285 -0.651294 4.485920
-0.132459 -1.161329 4.485920
-0.087398 -0.766262 4.485920
-0.078110 -0.684830 4.485920
-0.257335 -2.256175 4.485920
-0.162273 -1.422722 4.485920
-0.184135 -1.614402 4.485920
-0.114886 -1.007263 4.485920
-0.232839 -2.041412 4.485920
-0.250818 -2.199039 4.485920
1.804178 -1.523050 4.485920
1.598930 -1.349784 4.485920
0.279874 -0.236264 4.485920
0.084773 -0.071564 4.485920
2.419126 -2.042177 4.485920
2.020301 -1.705497 4.485920
0.675811 -0.570506 4.485920
1.773298 -1.496982 4.485920
0.345175 -0.291389 4.485920
0.286765 -0.242081 4.485920
1.079454 -0.408557 4.485920
0.209860 -0.079429 4.485920
1.405135 -0.531823 4.485920
0.602592 -0.228072 4.485920
0.473897 -0.179363 4.485920
1.923866 -0.728155 4.485920
2.493400 -0.943715 4.485920
0.962008 -0.364106 4.485920
0.626840 -0.237250 4.485920
1.566473 -0.592887 4.485920
1.123206 -0.338404 4.485920
2.054784 -0.619073 4.485920
3.597205 -1.083779 4.485920
1.611114 -0.485402 4.485920
1.695196 -0.510735 4.485920
1.047128 -0.315483 4.485920
2.437436 -0.734360 4.485920
1.455744 -0.438592 4.485920
1.165120 -0.351031 4.485920
2.738934 -0.825196 4.485920
3.714612 -0.793946 4.485920
1.129353 -0.241383 4.485920
1.885203 -0.402935 4.485920
0.994076 -0.212470 4.485920
2.520282 -0.538675 4.485920
2.357692 -0.503923 4.485920
2.557178 -0.546561 4.485920
2.595863 -0.554829 4.485920
0.743263 -0.158862 4.485920
3.594279 -0.768226 4.485920
2.315317 1.187189 4.485920
2.367296 1.213842 4.485920
0.776876 0.398347 4.485920
0.871792 0.447015 4.485920
0.924763 0.474177 4.485920
0.262180 0.134434 4.485920
0.170596 0.087474 4.485920
1.604909 0.822925 4.485920
0.115776 0.059365 4.485920
0.417362 0.214004 4.485920
0.358997 0.202572 4.485920
1.447529 0.816802 4.485920
0.176460 0.099572 4.485920
1.699936 0.959229 4.485920
1.132303 0.638929 4.485920
2.095341 1.182345 4.485920
0.377524 0.213027 4.485920
1.180807 0.666298 4.485920
2.279693 1.286370 4.485920
1.728241 0.975200 4.485920
1.552642 1.024257 4.485920
1.161578 0.766278 4.485920
0.981556 0.647519 4.485920
1.764838 1.164240 4.485920
1.701189 1.122251 4.485920
0.676954 0.446577 4.485920
0.270438 0.178405 4.485920
1.390705 0.917430 4.485920
1.764536 1.164041 4.485920
0.766921 0.505928 4.485920
1.111014 0.950709 4.485920
0.541735 0.463570 4.485920
0.581218 0.497356 4.485920
0.130510 0.111679 4.485920
0.668108 0.571709 4.485920
0.900103 0.770230 4.485920
1.132153 0.968798 4.485920
0.762478 0.652463 4.485920
1.346940 1.152594 4.485920
0.805435 0.689221 4.485920
0.901261 0.866183 4.485920
1.618411 1.555420 4.485920
0.235117 0.225966 4.485920
1.148932 1.104214 4.485920
1.224783 1.177113 4.485920
1.299150 1.248586 4.485920
0.070731 0.067978 4.485920
0.009261 0.008901 4.485920
1.072926 1.031167 4.485920
0.175029 0.168216 4.485920
1.238477 1.360918 4.485920
0.662212 0.727682 4.485920
1.011654 1.111671 4.485920
1.056266 1.160694 4.485920
1.393809 1.531608 4.485920
0.911717 1.001854 4.485920
0.597365 0.656424 4.485920
1.247805 1.371169 4.485920
1.309021 1.438437 4.485920
1.075181 1.181479 4.485920
1.337282 1.778513 4.485920
0.112757 0.149960 4.485920
1.011721 1.345534 4.485920
0.829543 1.103247 4.485920
1.304906 1.735454 4.485920
1.319833 1.755306 4.485920
1.053730 1.401404 4.485920
1.358324 1.806497 4.485920
0.933378 1.241342 4.485920
0.896431 1.192205 4.485920
0.075801 0.128349 4.485920
1.081913 1.831946 4.485920
0.281515 0.476674 4.485920
1.160197 1.964501 4.485920
0.686891 1.163077 4.485920
1.095535 1.855012 4.485920
0.815202 1.380338 4.485920
0.653891 1.107199 4.485920
1.126421 1.907310 4.485920
1.134574 1.921115 4.485920
0.205324 0.378244 4.485920
0.140062 0.258020 4.485920
0.352277 0.648958 4.485920
0.230285 0.424227 4.485920
0.712696 1.312912 4.485920
0.547697 1.008956 4.485920
0.464637 0.855944 4.485920
0.519698 0.957376 4.485920
0.812073 1.495983 4.485920
0.090569 0.166844 4.485920
0.193808 0.467069 4.485920
0.399084 0.961777 4.485920
0.757919 1.826557 4.485920
0.842682 2.030834 4.485920
0.560688 1.351237 4.485920
0.547590 1.319672 4.485920
0.200742 0.483781 4.485920
0.756120 1.822222 4.485920
0.935610 2.254786 4.485920
0.436300 1.051468 4.485920
0.039916 0.101883 4.485920
0.505281 1.289694 4.485920
0.399633 1.020034 4.485920
0.224517 0.573063 4.485920
0.737232 1.881730 4.485920
0.338552 0.864129 4.485920
0.446371 1.139329 4.485920
0.810273 2.068162 4.485920
0.533981 1.362949 4.485920
0.170934 0.436297 4.485920
-0.146716 0.623499 4.485920
-0.121424 0.516019 4.485920
-0.189636 0.805897 4.485920
-0.345594 1.468674 4.485920
-0.207773 0.882978 4.485920
-0.302132 1.283973 4.485920
-0.027525 0.116974 4.485920
-0.307666 1.307493 4.485920
-0.116810 0.496410 4.485920
-0.172226 0.731911 4.485920
-0.150051 0.594587 4.485920
-0.065679 0.260258 4.485920
-0.178837 0.708652 4.485920
-0.271745 1.076804 4.485920
-0.014649 0.058047 4.485920
-0.435764 1.726736 4.485920
-0.396555 1.571369 4.485920
-0.185961 0.736880 4.485920
-0.327711 1.298573 4.485920
-0.249126 0.987175 4.485920
-0.045060 0.172742 4.485920
-0.312452 1.197826 4.485920
-0.306801 1.176162 4.485920
-0.015502 0.059431 4.485920
-0.018362 0.070393 4.485920
-0.184062 0.705626 4.485920
-0.290378 1.113202 4.485920
-0.208873 0.800744 4.485920
-0.122521 0.469701 4.485920
-0.321115 1.231038 4.485920
-0.074301 0.247837 4.485920
-0.321911 1.073755 4.485920
-0.290983 0.970594 4.485920
-0.229681 0.766118 4.485920
-0.277936 0.927076 4.485920
-0.247995 0.827205 4.485920
-0.415113 1.384638 4.485920
-0.470949 1.570882 4.485920
-0.400813 1.336940 4.485920
-0.172472 0.575291 4.485920
-0.075152 0.237901 4.485920
-0.056068 0.177489 4.485920
-0.294213 0.931357 4.485920
-0.044432 0.140653 4.485920
-0.407167 1.288922 4.485920
-0.006061 0.019187 4.485920
-0.186403 0.590076 4.485920
-0.498598 1.578356 4.485920
