-0.038334 -1.404934 10.803579
-0.228401 -1.964751 2.307102
-0.215950 -1.857640 3.147627
-0.210518 -1.810914 4.096757
-0.217869 -1.874149 4.877573
-0.211080 -1.815751 5.519658
-0.214979 -1.849287 6.591298
-0.238881 -2.054901 7.234985
-0.226627 -1.949492 8.037028
-0.224637 -1.932374 8.649680
-0.227671 -1.958467 9.354965
-0.213019 -1.832433 10.147626
-0.166862 -1.435378 10.712823
-0.378969 -1.903096 2.521356
-0.353100 -1.773189 3.506515
-0.358154 -1.798565 4.139460
-0.359480 -1.805227 5.165331
-0.369345 -1.854764 5.811862
-0.379315 -1.904832 6.495304
-0.391981 -1.968438 7.462776
-0.382757 -1.922119 8.152947
-0.375486 -1.885605 8.982212
-0.385811 -1.937451 9.461405
-0.356169 -1.788600 10.266517
-0.267329 -1.342464 11.044776
-0.493878 -1.733665 1.774580
-0.513536 -1.802671 2.613275
-0.498224 -1.748922 3.343697
-0.498618 -1.750304 4.105253
-0.526638 -1.848664 4.851928
-0.500044 -1.755311 5.772089
-0.509050 -1.786923 6.783430
-0.570598 -2.002978 7.184427
-0.544931 -1.912877 8.034591
-0.544238 -1.910445 8.694590
-0.544525 -1.911451 9.402241
-0.496412 -1.742561 10.334491
-0.385428 -1.352971 10.794970
-0.662769 -1.717338 1.689624
-0.708613 -1.836126 2.393093
-0.642632 -1.665160 3.428708
-0.672841 -1.743434 4.046097
-0.654202 -1.695138 5.157303
-0.726222 -1.881753 5.665648
-0.747460 -1.936783 6.571752
-0.751027 -1.946026 7.266873
-0.710113 -1.840012 8.102210
-0.715905 -1.855019 8.686139
-0.692022 -1.793136 9.732158
-0.657695 -1.704189 10.249528
-0.492820 -1.276972 10.877288
-0.737013 -1.527687 1.829196
-0.810531 -1.680076 2.699299
-0.816444 -1.692333 3.259591
-0.789996 -1.637512 4.181933
-0.880314 -1.824723 5.086810
-0.942410 -1.953436 6.011343
-0.909747 -1.885732 6.778159
-0.882934 -1.830153 7.369917
-0.854610 -1.771443 8.020115
-0.838525 -1.738103 8.832911
-0.839625 -1.740383 9.549548
-0.792875 -1.643479 10.117733
-0.562926 -1.166839 10.697926
-0.951302 -1.621642 1.482270
-0.957483 -1.632178 2.570881
-0.925275 -1.577274 3.318211
-0.899347 -1.533075 4.292461
-1.069818 -1.823671 5.060675
-1.143022 -1.948458 6.058158
-0.967557 -1.649351 6.596906
-0.921245 -1.570405 7.194268
-0.968986 -1.651787 8.231694
-0.990224 -1.687989 8.598918
-0.957829 -1.632768 9.365304
-0.891478 -1.519661 10.185471
-0.709793 -1.209952 10.820798
-1.093777 -1.552873 2.111805
-0.969637 -1.376627 3.141748
-1.062999 -1.509177 3.823984
-1.238062 -1.757719 5.110620
-1.386285 -1.968157 5.921307
-1.283012 -1.821537 6.241586
-1.080226 -1.533634 7.182024
-1.089589 -1.546927 7.703913
-1.064880 -1.511847 8.734833
-1.065060 -1.512102 9.453635
-0.997644 -1.416390 10.065943
-0.768210 -1.090655 10.774775
-1.080051 -1.289390 1.018214
-1.088101 -1.299000 2.143888
-1.156800 -1.381015 2.722486
-1.140369 -1.361398 3.797207
-1.497202 -1.787394 4.523930
-1.591574 -1.900057 5.622141
-1.474614 -1.760428 6.445603
-1.243948 -1.485053 6.961738
-1.156023 -1.380086 7.462234
-1.176654 -1.404716 8.471893
-1.190974 -1.421812 9.180447
-1.189022 -1.419482 9.700977
-1.142886 -1.142842 1.824402
-1.309130 -1.309080 2.603565
-1.278747 -1.278698 3.369190
-1.800412 -1.800343 5.265553
-1.656313 -1.656249 6.295124
-1.431064 -1.431009 6.840187
-1.240212 -1.240165 7.249160
-1.159222 -1.159177 8.309739
-1.227543 -1.227496 9.137694
-1.238878 -1.238830 9.822910
-1.328567 -1.126413 1.726912
-1.370046 -1.161581 2.670339
-1.318585 -1.117951 3.710761
-1.614956 -1.369226 4.749885
-1.888219 -1.600910 5.473247
-1.820205 -1.543244 6.153213
-1.546237 -1.310963 6.649016
-1.089664 -0.923862 7.207045
-1.367696 -1.159589 8.989708
-1.303799 -1.105414 9.779519
-1.189617 -1.008606 10.326167
-0.700599 -0.593996 11.013865
-1.265368 -0.906137 2.022780
-1.366956 -0.978884 2.882242
-1.413851 -1.012466 3.753797
-1.731163 -1.239695 4.716231
-1.912923 -1.369855 5.524863
-1.788453 -1.280721 6.333862
-1.614239 -1.155966 6.792586
-1.103888 -0.790500 7.474034
-1.082282 -0.775028 8.309699
-1.410283 -1.009911 8.905708
-1.380571 -0.988634 9.839213
-1.385332 -0.825104 1.710000
-1.555455 -0.926429 2.636336
-1.704806 -1.015382 3.468233
-1.925386 -1.146760 4.774999
-1.954343 -1.164007 5.443023
-1.847481 -1.100359 5.987014
-1.573588 -0.937229 6.785020
-1.257001 -0.748670 7.565727
-1.269231 -0.755954 7.916763
-1.362805 -0.811687 8.765647
-1.419726 -0.845589 9.547160
-1.322057 -0.787417 10.154746
-0.842064 -0.501533 10.773052
-1.374327 -0.666088 2.152736
-1.594310 -0.772707 2.859639
-1.540295 -0.746527 3.616053
-2.050715 -0.993910 5.509538
-1.828294 -0.886110 6.199531
-1.511631 -0.732635 6.953553
-0.926225 -0.448909 7.248629
-1.334774 -0.646918 9.003666
-1.379556 -0.668622 9.905778
-1.418791 -0.548214 1.730853
-1.462388 -0.565059 2.895655
-1.506553 -0.582124 3.588494
-2.324857 -0.898313 5.580568
-2.096492 -0.810074 6.348451
-1.644004 -0.635235 6.663767
-0.990492 -0.382721 7.126726
-0.766175 -0.296046 7.967951
-1.180659 -0.456201 9.065668
-1.440417 -0.556570 9.845768
-1.590345 -0.462640 2.551501
-1.650047 -0.480007 3.392682
-1.900184 -0.552773 4.691178
-1.999371 -0.581627 5.387947
-1.528391 -0.444617 5.763517
-1.379166 -0.401206 6.531808
-1.193070 -0.347070 7.128963
-0.872932 -0.253940 7.924308
-1.198656 -0.348695 8.672612
-1.465691 -0.426377 9.540134
-1.259494 -0.253720 1.708511
-1.653025 -0.332995 2.352716
-1.627188 -0.327790 3.201503
-1.958556 -0.394543 4.200467
-2.007710 -0.404445 5.254448
-1.581103 -0.318507 5.779631
-1.328763 -0.267674 6.452083
-1.152412 -0.232148 7.380183
-0.983571 -0.198136 7.854813
-1.188372 -0.239393 8.837094
-1.420488 -0.286151 9.676578
-1.398337 -0.281689 10.072714
-1.002408 -0.201931 10.663565
-1.390149 -0.162316 1.573569
-1.594332 -0.186156 2.479642
-1.540205 -0.179836 3.137956
-2.039191 -0.238099 5.162068
-1.644909 -0.192062 5.482263
-1.261089 -0.147246 6.389359
-1.128951 -0.131818 7.137549
-0.912979 -0.106601 7.778457
-1.105125 -0.129036 8.824598
-1.473632 -0.172063 9.245792
-1.404635 -0.164007 10.141555
-1.109661 -0.129565 10.705263
-1.345649 -0.039936 1.570372
-1.622534 -0.048153 2.436880
-1.444772 -0.042878 3.404058
-1.681318 -0.049898 4.334903
-1.918938 -0.056950 5.088181
-1.520374 -0.045121 5.656042
-1.305809 -0.038754 6.353229
-1.051376 -0.031203 7.067980
-0.814690 -0.024178 7.994259
-1.252513 -0.037172 8.537369
-1.428818 -0.042404 9.386932
-1.367527 -0.040585 10.408561
-1.041284 -0.030903 10.702305
-1.214817 0.067407 1.926180
-1.474665 0.081826 2.526598
-1.443491 0.080096 3.334751
-1.738791 0.096482 4.317924
-2.071389 0.114937 5.254036
-1.702772 0.094483 6.155090
-1.247452 0.069218 6.458551
-0.915675 0.050809 7.480352
-1.051793 0.058362 8.180328
-1.347124 0.074749 9.155193
-1.409366 0.078203 9.606898
-1.258046 0.173814 1.014188
-1.250338 0.172750 1.884233
-1.418617 0.195999 2.699518
-1.177601 0.162700 3.582731
-1.932507 0.266999 5.466144
-1.605378 0.221803 6.175891
-1.024750 0.141582 6.847845
-0.713873 0.098630 7.542286
-0.963232 0.133082 8.418727
-1.358689 0.187719 9.294580
-1.330922 0.183883 9.968806
-1.161509 0.160477 10.518261
-1.147478 0.257639 2.083413
-1.342158 0.301350 2.837272
-0.896674 0.201327 3.659663
-1.838078 0.412698 5.509783
-1.534590 0.344556 6.161328
-1.047432 0.235176 6.708565
-0.634937 0.142560 7.411880
-1.365758 0.306649 9.407839
-1.356286 0.304523 9.718833
-1.076016 0.241594 10.480073
-0.932808 0.287842 0.994384
-1.043076 0.321868 2.026603
-1.247715 0.385015 3.009809
-1.191152 0.367561 3.782928
-1.433249 0.442266 4.848428
-1.595157 0.492227 5.684686
-1.360489 0.419814 6.050111
-0.968072 0.298724 6.738543
-0.863466 0.266445 7.532817
-1.177012 0.363197 8.295548
-1.394767 0.430391 9.115351
-1.289847 0.398015 9.934305
-1.048330 0.323489 10.514843
-0.984362 0.398070 2.096194
-1.226629 0.496041 2.966639
-1.216742 0.492043 3.679408
-1.482436 0.599488 4.565621
-1.632535 0.660187 5.403369
-1.295602 0.523934 6.136188
-0.883132 0.357133 6.956653
-0.882682 0.356951 7.749535
-1.221014 0.493771 8.370118
-1.344567 0.543735 9.283735
-1.275099 0.515642 9.796371
-1.005246 0.406515 10.753548
-0.896310 0.459658 1.471002
-1.113446 0.571013 2.482903
-1.031186 0.528827 3.382037
-1.488550 0.763380 5.431032
-1.068687 0.548059 5.839456
-0.629693 0.322928 6.624201
-0.655769 0.336301 7.180506
-0.908328 0.465822 8.319681
-1.275450 0.654094 9.118823
-1.258972 0.645644 9.589684
-1.041879 0.534311 10.375404
-1.048775 0.650602 2.394367
-1.029067 0.638376 3.112361
-1.048689 0.650548 4.250244
-1.420858 0.881421 5.117672
-1.352623 0.839091 5.763517
-0.848208 0.526181 6.337862
-0.654171 0.405811 7.057488
-0.909040 0.563918 7.898833
-1.204354 0.747114 8.719176
-1.206277 0.748307 9.697683
-1.065299 0.660852 10.335927
-0.691695 0.429089 10.702444
-1.026804 0.760841 2.290569
-0.998803 0.740093 2.964561
-0.875666 0.648851 3.773565
-0.967856 0.717162 5.017234
-1.154446 0.855421 5.591154
-0.803386 0.595293 6.243590
-0.558932 0.414157 7.141289
-0.855512 0.633917 7.814537
-1.121961 0.831351 8.813873
-1.135787 0.841595 9.338969
-0.995415 0.737583 9.985526
-0.657310 0.487054 10.676134
-0.918565 0.814888 1.590107
-0.866540 0.768735 2.576358
-0.882817 0.783175 3.190359
-0.802799 0.712188 4.034458
-0.874387 0.775697 4.811668
-0.925017 0.820612 5.479055
-0.687103 0.609551 6.342966
-0.618410 0.548611 7.232416
-0.836764 0.742319 8.122307
-1.074577 0.953292 8.633143
-1.019194 0.904159 9.597387
-0.900327 0.798708 10.184692
-0.586810 0.520578 10.895483
-0.866329 0.907951 2.280814
-0.815195 0.854360 3.120476
-0.745246 0.781050 4.017060
-0.829395 0.869242 4.793782
-0.769232 0.806189 5.698015
-0.624075 0.654058 6.215169
-0.626559 0.656661 7.122691
-0.861835 0.903241 8.116701
-1.002944 1.051130 8.907246
-0.952148 0.997893 9.511201
-0.797884 0.836218 10.167430
-0.545170 0.571362 10.860372
-0.536262 0.659557 1.579062
-0.696120 0.856170 2.512944
-0.676531 0.832076 3.328474
-0.681041 0.837624 4.017060
-0.728023 0.895407 4.855047
-0.650547 0.800118 5.796192
-0.515571 0.634110 6.512934
-0.615921 0.757531 7.253261
-0.853345 1.049543 8.004767
-0.933097 1.147631 8.786949
-0.839755 1.032829 9.761266
-0.693012 0.852347 10.506150
-0.427848 0.526217 10.762420
-0.515721 0.764977 1.850341
-0.621592 0.922017 2.689235
-0.644051 0.955331 3.399391
-0.632166 0.937701 4.094988
-0.625479 0.927782 5.036712
-0.533720 0.791674 5.705376
-0.377977 0.560659 6.643838
-0.579379 0.859401 7.418123
-0.739828 1.097398 8.453435
-0.721217 1.069792 9.070804
-0.691909 1.026319 9.716787
-0.472606 0.844959 1.745525
-0.476837 0.852525 2.756020
-0.490756 0.877409 3.432681
-0.496826 0.888261 4.260662
-0.530633 0.948704 5.132320
-0.451766 0.807700 5.715391
-0.314359 0.562034 6.482387
-0.458266 0.819322 7.699805
-0.675551 1.207800 8.303871
-0.669550 1.197070 9.294580
-0.607071 1.085367 9.959564
-0.478874 1.046083 2.400038
-0.418435 0.914057 3.502657
-0.464437 1.014546 3.990914
-0.474193 1.035857 4.898445
-0.461164 1.007397 5.552570
-0.334959 0.731705 6.556790
-0.328812 0.718279 7.175756
-0.483043 1.055191 7.948673
-0.607984 1.328120 8.989856
-0.554926 1.212215 9.886655
-0.460587 1.006135 10.158832
-0.209590 0.457842 11.088527
-0.313860 0.864664 1.421542
-0.377250 1.039300 2.442512
-0.356947 0.983367 3.258109
-0.393869 1.085086 3.886719
-0.380787 1.049045 5.045400
-0.385356 1.061633 5.817181
-0.312905 0.862033 6.437375
-0.275668 0.759449 6.917051
-0.359924 0.991568 7.959752
-0.472613 1.302019 8.865552
-0.471186 1.298090 9.502585
-0.398659 1.098281 10.241106
-0.270362 0.744831 10.842818
-0.254094 0.963023 1.995856
-0.290583 1.101317 2.821742
-0.258239 0.978732 3.625040
-0.255855 0.969698 4.451752
-0.324063 1.228209 5.375247
-0.260770 0.988325 6.344902
-0.168594 0.638977 6.886260
-0.239499 0.907710 7.699805
-0.326062 1.235786 8.769870
-0.342383 1.297643 9.189695
-0.305925 1.159463 9.924632
-0.230791 0.874705 10.609033
-0.182384 1.013913 1.979577
-0.198931 1.105901 2.926619
-0.216669 1.204508 3.843517
-0.230343 1.280528 4.508290
-0.218425 1.214271 5.487710
-0.182181 1.012786 6.233270
-0.119992 0.667064 6.824591
-0.170487 0.947771 7.603741
-0.222957 1.239468 8.738565
-0.242517 1.348205 9.303199
-0.213076 1.184535 10.184692
-0.155787 0.866052 10.605097
-0.096977 1.006084 1.524752
-0.118652 1.230947 2.324078
-0.089856 0.932211 3.195177
-0.160260 1.662611 5.600190
-0.112714 1.169345 6.182106
-0.061563 0.638684 6.956779
-0.083391 0.865136 8.090558
-0.124792 1.294645 8.901461
-0.131525 1.364503 9.554289
-0.109977 1.140955 10.371259
-0.072766 0.754902 10.900561
-0.004527 0.887972 1.679251
-0.006014 1.179607 2.330640
-0.006624 1.299302 3.297174
-0.007641 1.498900 4.326548
-0.008460 1.659426 4.922650
-0.007691 1.508663 6.029178
-0.005880 1.153365 6.430522
-0.003769 0.739296 7.171715
-0.005082 0.996891 7.880972
-0.006661 1.306601 8.993059
-0.007136 1.399742 9.407839
-0.005562 1.091058 10.102356
-0.003144 0.616680 10.834234
0.075079 0.992444 1.559627
0.094199 1.245184 2.359752
0.107517 1.421234 3.455664
0.121545 1.606660 4.531402
0.121589 1.607238 5.297110
0.121512 1.606226 5.703627
0.086731 1.146468 6.354062
0.054113 0.715305 7.353935
0.076390 1.009772 7.921786
0.091186 1.205357 8.972275
0.092023 1.216420 9.812018
0.079038 1.044774 10.506782
0.046419 0.613603 10.843058
0.164711 1.028229 1.517481
0.204654 1.277578 2.510799
0.229708 1.433980 3.663649
0.272998 1.704217 4.360523
0.245833 1.534638 5.154109
0.224776 1.403189 5.973921
0.181858 1.135270 6.354062
0.127080 0.793311 7.028885
0.159039 0.992819 7.846094
0.192637 1.202557 8.811111
0.202106 1.261666 9.509200
0.271698 1.104039 1.487160
0.317027 1.288231 2.239884
0.345365 1.403383 3.473322
0.438596 1.782225 4.352222
0.404332 1.642992 5.861023
0.324229 1.317498 6.536690
0.215530 0.875800 6.858107
0.189620 0.770518 7.765942
0.234437 0.952628 8.841769
0.291190 1.183242 9.551535
0.296054 1.203009 9.985526
0.189034 0.768134 10.851595
0.396493 1.170258 2.262404
0.366529 1.081818 2.681336
0.504368 1.488654 4.642661
0.462338 1.364603 5.497475
0.476518 1.406456 6.106436
0.340467 1.004898 6.939532
0.234749 0.692869 7.601178
0.259989 0.767365 8.455508
0.381222 1.125185 9.194029
0.404654 1.194347 9.864404
0.333846 0.985356 10.711013
0.489655 1.118350 1.979425
0.520478 1.188749 2.896101
0.621670 1.419867 3.828574
0.684586 1.563564 4.786115
0.630655 1.440388 5.577988
0.591280 1.350457 6.056174
0.400902 0.915642 6.602869
0.288321 0.658512 7.448146
0.354111 0.808774 8.361467
0.455413 1.040143 9.201335
0.531270 1.213397 9.661667
0.467289 1.067268 10.410099
0.562445 1.039595 1.631942
0.701815 1.297198 2.596366
0.781496 1.444477 3.726561
0.887417 1.640257 4.564497
0.800042 1.478756 5.168353
0.681400 1.259464 5.854655
0.569264 1.052198 6.461868
0.407614 0.753412 7.315232
0.435738 0.805396 8.110863
0.570615 1.054696 8.897739
0.627954 1.160677 9.687563
0.747138 1.145018 2.924249
0.953475 1.461237 3.530841
1.000639 1.533518 4.734157
0.974654 1.493695 5.335296
0.827428 1.268066 6.096577
0.637730 0.977345 6.837928
0.412246 0.631782 7.410416
0.368294 0.564425 8.155751
0.579743 0.888479 9.068089
0.719353 1.102436 9.704829
0.723738 0.929489 1.702744
0.923612 1.186185 2.335431
0.732499 0.940741 3.365071
1.340725 1.721878 5.093562
1.063833 1.366269 6.069852
0.823905 1.058132 6.681606
0.711570 0.913861 7.347807
0.541670 0.695661 8.038035
0.594196 0.763119 8.555159
0.824562 1.058976 9.441161
0.774612 0.994826 10.443867
0.456241 0.585946 10.673297
0.918420 0.985553 1.446374
0.976479 1.047856 2.568532
0.880144 0.944479 3.114109
1.082538 1.161668 6.371310
0.890758 0.955869 7.275945
0.705490 0.757058 7.936423
0.649697 0.697188 8.735168
0.918983 0.986157 9.540875
0.884610 0.949271 10.227776
0.545412 0.585280 10.960601
1.089405 0.991925 2.535188
0.948969 0.864055 3.201096
1.599403 1.456288 5.461674
1.462660 1.331780 5.951215
1.102390 1.003747 6.612875
0.935502 0.851792 7.237115
0.776859 0.707345 7.977163
0.776891 0.707375 8.756485
1.043007 0.949678 9.481589
1.136526 0.883423 2.551330
0.880832 0.684672 3.355268
1.647210 1.280379 5.454824
1.551416 1.205918 5.909867
1.277492 0.992996 6.445428
1.033404 0.803266 7.267309
0.842382 0.654785 7.805835
0.784989 0.610173 8.780708
1.125873 0.875143 9.404138
1.005776 0.781791 10.366045
0.557666 0.433475 10.910760
1.319708 0.857791 2.233810
1.346167 0.874988 3.338258
1.735385 1.127975 4.294303
1.886404 1.226134 5.051204
1.707486 1.109841 5.932493
1.520749 0.988464 6.577218
1.234876 0.802651 6.858480
0.741586 0.482020 7.406629
0.767439 0.498824 8.332080
1.151630 0.748542 9.411555
1.166444 0.758172 9.986366
0.875748 0.569223 10.684889
1.155249 0.612010 1.052499
1.293723 0.685369 1.859635
1.314233 0.696234 2.762479
2.105439 1.115387 4.750174
2.022444 1.071419 5.559262
1.734124 0.918677 6.427623
1.397177 0.740175 6.935134
0.899347 0.476442 7.292195
0.841062 0.445565 8.285289
1.244278 0.659174 8.996626
1.221540 0.647129 9.895723
1.015582 0.538019 10.505545
1.141943 0.491885 1.927487
1.346497 0.579995 2.814017
1.235561 0.532210 3.523756
2.023885 0.871775 5.577631
1.850051 0.796898 6.341884
1.610293 0.693623 6.605701
1.086937 0.468191 7.252402
1.066083 0.459208 8.269786
1.392914 0.599989 8.849165
1.302434 0.561015 9.840006
1.159580 0.380619 1.917520
1.289795 0.423361 2.749385
1.303535 0.427871 3.524133
2.177292 0.714672 5.392804
1.921217 0.630618 6.316558
1.623721 0.532969 6.759067
1.373455 0.450822 7.533665
1.440788 0.472923 8.071992
1.436017 0.471357 8.991721
1.356578 0.445282 9.788380
1.293589 0.309211 1.063008
1.399699 0.334575 2.104517
1.422192 0.339951 3.022706
1.321630 0.315913 3.627921
2.143511 0.512370 5.819039
1.979164 0.473086 6.274362
1.542471 0.368702 6.918013
1.340342 0.320386 7.901326
1.435949 0.343239 8.569890
1.470767 0.351562 9.108449
1.391820 0.332691 9.771175
1.091929 0.261007 10.670515
1.471017 0.224940 2.054297
1.579030 0.241457 2.757743
1.421273 0.217334 3.913756
2.211653 0.338195 5.635188
2.034552 0.311113 6.198453
1.598621 0.244453 6.899107
1.377082 0.210576 7.841024
1.478834 0.226136 8.484019
1.463109 0.223731 9.262969
1.393928 0.213152 9.883040
1.148837 0.175674 10.427449
1.526186 0.111598 2.082780
1.532282 0.112044 2.972778
1.661781 0.121513 3.804183
1.965235 0.143702 4.640510
2.061814 0.150764 5.672666
2.004695 0.146587 6.100346
1.656339 0.121115 7.021848
1.579848 0.115522 7.697442
1.592663 0.116459 8.380975
1.521832 0.111279 9.165040
1.450108 0.106035 9.650788
1.403330 -0.014162 1.023729
1.512376 -0.015263 2.187047
1.675376 -0.016908 2.699977
1.553165 -0.015674 3.820004
1.735889 -0.017519 4.479775
1.868364 -0.018855 5.476529
1.839102 -0.018560 6.316611
1.740235 -0.017562 6.740400
1.590788 -0.016054 7.772083
1.618995 -0.016339 8.286882
1.524030 -0.015380 9.173617
1.461795 -0.014752 10.016954
1.325249 -0.130228 1.178881
1.535404 -0.150880 2.179782
1.686871 -0.165764 2.718110
1.640639 -0.161221 3.640701
1.688187 -0.165893 4.590593
1.887424 -0.185472 5.391738
1.747941 -0.171765 6.245118
1.650494 -0.162189 6.753829
1.603054 -0.157527 7.795327
1.610090 -0.158219 8.512029
1.648314 -0.161975 9.031638
1.516268 -0.148999 9.957232
1.625416 -0.309616 1.923087
1.588971 -0.302674 2.906007
1.655163 -0.315282 3.546784
1.687286 -0.321401 4.530904
1.822950 -0.347243 5.198814
1.764100 -0.336033 6.201351
1.790011 -0.340969 6.727140
1.703352 -0.324462 7.517565
1.686178 -0.321190 8.201854
1.670854 -0.318271 8.943016
1.584377 -0.301799 9.619279
1.631477 -0.450677 1.899035
1.625407 -0.449000 2.804461
1.630555 -0.450422 3.460901
1.601415 -0.442372 4.539665
1.754852 -0.484758 5.224783
1.801938 -0.497765 5.963555
1.767781 -0.488329 6.776528
1.666961 -0.460479 7.734593
1.668111 -0.460797 8.250297
1.608924 -0.444447 9.212730
1.556073 -0.429847 9.743741
1.577517 -0.580809 1.863324
1.612275 -0.593607 2.727707
1.516702 -0.558419 3.794946
1.582776 -0.582746 4.692782
1.685371 -0.620519 5.377199
1.781679 -0.655978 5.954088
1.734501 -0.638608 7.000768
1.726349 -0.635606 7.508998
1.644918 -0.605625 8.264626
1.628666 -0.599641 9.262071
1.582545 -0.582661 9.766318
1.614308 -0.747233 2.200719
1.495335 -0.692163 3.097463
1.481525 -0.685771 4.035378
1.605723 -0.743259 4.683670
1.534598 -0.710337 5.455901
1.540503 -0.713070 6.441113
1.699595 -0.786711 7.099042
1.671459 -0.773687 7.799507
1.673711 -0.774730 8.420946
1.597818 -0.739601 9.515419
1.505398 -0.696821 10.193624
1.187000 -0.549440 10.779549
1.581007 -0.909509 2.159673
1.488375 -0.856221 2.926790
1.496058 -0.860640 3.787876
1.577190 -0.907314 4.691848
1.488293 -0.856173 5.699952
1.618800 -0.931250 6.223254
1.665152 -0.957916 7.112401
1.581513 -0.909800 8.074903
1.571895 -0.904268 8.780335
1.592312 -0.916013 9.265338
1.503427 -0.864880 9.916597
1.145914 -0.659212 10.852448
1.748502 -1.209298 1.666042
1.361030 -0.941315 2.490545
1.418879 -0.981324 3.039417
1.348890 -0.932919 4.086827
1.494025 -1.033297 4.700345
1.393100 -0.963495 5.447370
1.387837 -0.959855 6.475236
1.623065 -1.122543 7.017583
1.553475 -1.074413 7.919690
1.517782 -1.049727 8.751810
1.476639 -1.021273 9.469270
1.431249 -0.989880 10.023349
1.134358 -0.784544 10.649351
1.339026 -1.096024 1.813778
1.301168 -1.065036 2.491740
1.344202 -1.100260 3.143360
1.325993 -1.085356 4.104409
1.419031 -1.161510 4.801902
1.372998 -1.123830 5.849531
1.401612 -1.147252 6.585716
1.452694 -1.189063 7.464481
1.476310 -1.208394 8.050416
1.470211 -1.203401 8.737310
1.406287 -1.151078 9.747202
1.332715 -1.090857 10.266312
0.967700 -0.792085 10.823740
1.239114 -1.196794 3.246391
1.258506 -1.215523 4.079050
1.304059 -1.259520 4.937554
1.279860 -1.236147 5.916606
1.346296 -1.300315 6.557364
1.370570 -1.323759 7.553543
1.391212 -1.343697 8.047944
1.366581 -1.319906 8.737310
1.334245 -1.288675 9.684003
1.229253 -1.187269 10.492163
0.858204 -0.828893 10.868106
1.115493 -1.269395 2.344184
1.077086 -1.225690 3.476838
1.180220 -1.343053 3.976929
1.181282 -1.344261 5.005564
1.185174 -1.348690 5.865576
1.246309 -1.418260 6.414569
1.251140 -1.423757 7.396657
1.240004 -1.411084 8.276704
1.265229 -1.439791 8.776667
1.228826 -1.398365 9.650061
1.146278 -1.304427 10.330233
0.858813 -0.977302 10.663373
1.089895 -1.474976 2.325361
1.028245 -1.391543 3.160399
1.056267 -1.429467 3.934080
1.098652 -1.486827 4.759450
1.107983 -1.499455 5.569152
1.105530 -1.496135 6.507864
1.114301 -1.508005 7.472962
1.118779 -1.514065 8.259745
1.120137 -1.515902 8.920727
1.114033 -1.507642 9.714207
1.051886 -1.423538 10.283420
0.789493 -1.068436 10.650055
0.904514 -1.477297 2.372362
0.887787 -1.449979 3.168129
0.908725 -1.484176 3.890850
0.934369 -1.526058 4.853140
0.908996 -1.484618 5.707585
0.945719 -1.544596 6.410053
1.010644 -1.650634 7.343858
1.004520 -1.640632 8.090276
0.987130 -1.612230 8.895294
1.033182 -1.687445 9.321150
0.960061 -1.568020 10.041297
0.733087 -1.197314 10.653314
0.763007 -1.509110 2.405183
0.739249 -1.462121 3.459745
0.765259 -1.513565 4.223934
0.806051 -1.594244 4.937883
0.842482 -1.666299 5.560668
0.822480 -1.626739 6.635217
0.872263 -1.725201 7.352323
0.856736 -1.694491 8.299473
0.863130 -1.707138 8.793608
0.852521 -1.686154 9.637894
0.801805 -1.585846 10.389777
0.588211 -1.163391 10.973330
0.728165 -1.810668 1.993262
0.654941 -1.628588 2.703242
0.632413 -1.572569 3.589963
0.659683 -1.640380 4.317988
0.634009 -1.576538 5.193398
0.634357 -1.577402 6.172146
0.697728 -1.734983 7.015995
0.708722 -1.762320 7.877310
0.742484 -1.846274 8.240827
0.706293 -1.756280 9.365304
0.694176 -1.726149 9.922464
0.610831 -1.518902 10.620601
0.525539 -1.720548 2.280092
0.484111 -1.584920 3.140962
0.496840 -1.626594 3.924626
0.531707 -1.740742 4.615510
0.477770 -1.564159 5.626678
0.519899 -1.702084 6.168525
0.585602 -1.917188 6.999001
0.567468 -1.857820 8.014089
0.545112 -1.784630 8.774239
0.567291 -1.857241 9.251786
0.536252 -1.755621 10.198570
0.452695 -1.482067 10.535963
0.383408 -1.753939 2.288594
0.363082 -1.660957 3.168129
0.377867 -1.728589 3.814225
0.395023 -1.807070 4.606927
0.362031 -1.656146 5.523388
0.390833 -1.787906 6.174673
0.437871 -2.003083 7.020989
0.421372 -1.927610 7.994749
0.418163 -1.912931 8.483318
0.421072 -1.926236 9.231523
0.404603 -1.850897 9.876183
0.323255 -1.478763 10.758907
0.242332 -1.857748 2.171150
0.227486 -1.743940 3.023275
0.220668 -1.691667 4.053053
0.230687 -1.768479 4.870151
0.224708 -1.722640 5.395522
0.229529 -1.759601 6.185541
0.251294 -1.926450 7.127543
0.246230 -1.887630 8.067361
0.251750 -1.929949 8.534078
0.248695 -1.906527 9.344907
0.243129 -1.863858 9.820675
0.203090 -1.556911 10.565724
0.083491 -1.879028 2.154189
0.081566 -1.835724 2.896713
0.081192 -1.827308 3.798069
0.082215 -1.850315 4.674726
0.079001 -1.777983 5.267829
0.078339 -1.763090 6.303434
0.086479 -1.946281 7.201884
0.090727 -2.041880 7.616987
0.086183 -1.939620 8.666605
0.085439 -1.922875 9.459974
0.081006 -1.823104 9.977336
0.070388 -1.584147 10.471541
-0.069506 -1.856029 2.083259
-0.066433 -1.773960 2.851130
-0.065200 -1.741028 3.745279
-0.068870 -1.839046 4.411725
-0.070633 -1.886113 5.105512
-0.071854 -1.918727 6.137355
-0.078902 -2.106909 6.727642
-0.074851 -1.998748 7.785807
-0.072877 -1.946029 8.311089
-0.071373 -1.905877 9.173787
-0.070101 -1.871918 9.854598
-0.215627 -1.783964 2.929692
-0.223739 -1.851073 3.499305
-0.221204 -1.830101 4.403235
-0.233618 -1.932807 5.163590
-0.243092 -2.011194 6.049694
-0.250945 -2.076161 6.786580
-0.238131 -1.970148 7.646561
-0.234504 -1.940135 8.070862
-0.229609 -1.899640 9.024559
-0.227105 -1.878922 9.752850
-0.392336 -1.850858 2.700476
-0.386646 -1.824016 3.499305
-0.380347 -1.794302 4.428708
-0.400144 -1.887696 5.214373
-0.406917 -1.919646 5.918324
-0.420885 -1.985540 6.640577
-0.427624 -2.017330 7.450368
-0.406549 -1.917910 8.045486
-0.406050 -1.915556 8.936755
-0.405016 -1.910678 9.703051
-0.535112 -1.788982 1.752572
-0.554445 -1.853617 2.598828
-0.519125 -1.735534 3.635164
-0.538932 -1.801753 4.301419
-0.565369 -1.890138 5.087468
-0.522044 -1.745293 6.032503
-0.556281 -1.859754 6.587025
-0.578156 -1.932885 7.619091
-0.548784 -1.834689 8.339158
-0.563265 -1.883103 8.902925
-0.552729 -1.847878 9.829998
-0.505115 -1.688695 10.325973
-0.346906 -1.159774 10.755465
-0.631437 -1.607165 1.883570
-0.697057 -1.774185 2.666578
-0.657528 -1.673574 3.600614
-0.683139 -1.738760 4.190816
-0.680297 -1.731526 5.342020
-0.714739 -1.819189 5.860019
-0.728711 -1.854753 6.767236
-0.764043 -1.944681 7.349252
-0.700275 -1.782375 8.339158
-0.692114 -1.761603 9.002336
-0.692134 -1.761654 9.620941
-0.654928 -1.666957 10.164323
-0.442175 -1.125445 10.764128
-0.739800 -1.509769 1.924632
-0.813836 -1.660861 2.802263
-0.792661 -1.617648 3.592112
-0.831735 -1.697388 4.131456
-0.875319 -1.786333 5.272212
-0.941761 -1.921927 6.186892
-0.959684 -1.958505 6.657620
-0.906401 -1.849764 7.458798
-0.872432 -1.780442 8.059944
-0.831213 -1.696323 9.019289
-0.827023 -1.687773 9.688765
-0.945081 -1.576089 1.039535
-1.003353 -1.673268 1.871429
-0.926617 -1.545297 2.852163
-0.931599 -1.553606 3.635164
-0.865027 -1.442584 4.334903
-1.144038 -1.907885 6.084193
-1.040936 -1.735944 6.748853
-0.992276 -1.654795 7.659349
-1.017203 -1.696365 8.184231
-1.000363 -1.668282 8.995976
-0.959240 -1.599702 9.897011
-1.002445 -1.400856 1.286238
-1.087359 -1.519518 2.057806
-1.026173 -1.434013 2.945732
-1.054196 -1.473174 3.635164
-1.222643 -1.708568 4.573074
-1.341890 -1.875209 5.666936
-1.302371 -1.819983 6.125192
-1.036371 -1.448265 6.963518
-1.008919 -1.409902 7.617595
-1.141538 -1.595229 8.251873
-1.135217 -1.586396 8.970593
-1.081432 -1.511235 9.799041
-1.164258 -1.361445 1.677582
-1.227338 -1.435208 2.708953
-1.166444 -1.364001 3.471879
-1.138899 -1.331791 4.215638
-1.506810 -1.762014 6.287770
-1.369110 -1.600992 6.644859
-1.184028 -1.384564 7.576944
-1.229607 -1.437862 8.010512
-1.243261 -1.453828 8.793608
-1.217270 -1.423436 9.722688
-1.086342 -1.270333 10.266250
-0.722971 -0.845418 10.900224
-1.256975 -1.238510 1.737135
-1.313593 -1.294295 2.750219
-1.252341 -1.233944 3.496782
-1.773871 -1.747812 5.274240
-1.707180 -1.682101 6.037284
-1.467344 -1.445788 6.804921
-1.228854 -1.210802 7.259655
-1.176414 -1.159132 8.258477
-1.310775 -1.291520 9.008751
-1.246842 -1.228525 9.831425
-1.135885 -1.119198 10.270486
-0.757700 -0.746569 10.723591
-1.235536 -1.033046 1.410522
-1.441420 -1.205188 2.284342
-1.339927 -1.120328 3.186755
-1.001852 -0.837660 3.696679
-1.814282 -1.516942 5.972089
-1.621262 -1.355556 6.710808
-1.305344 -1.091413 6.968826
-1.179958 -0.986576 7.776950
-1.343823 -1.123586 8.712930
-1.325139 -1.107964 9.685756
-1.246823 -1.042483 10.240565
-0.967633 -0.809049 10.754541
-1.214883 -0.850472 1.693354
-1.411868 -0.988371 2.649900
-1.444849 -1.011459 3.144186
-1.650764 -1.155609 4.226066
-1.926171 -1.348406 5.217257
-1.887507 -1.321340 6.081528
-1.705548 -1.193960 6.729072
-1.362850 -0.954056 7.105364
-1.256456 -0.879576 7.794097
-1.396587 -0.977674 8.693450
-1.390496 -0.973409 9.449607
-1.278886 -0.895277 10.317600
-0.980698 -0.686532 10.842107
-1.309072 -0.759406 1.748011
-1.463406 -0.848937 2.856645
-1.631538 -0.946472 3.858790
-1.946635 -1.129262 4.674395
-1.987930 -1.153218 5.217763
-1.791581 -1.039314 6.156306
-1.580060 -0.916609 6.802008
-1.056719 -0.613013 7.401529
-1.061361 -0.615706 7.992445
-1.344455 -0.779932 8.911239
-1.363930 -0.791229 9.807545
-1.739289 -0.825972 2.052508
-1.516523 -0.720183 3.020614
-1.276358 -0.606130 3.766870
-1.898450 -0.901556 5.487964
-1.673748 -0.794847 6.357784
-1.552286 -0.737166 7.001133
-0.982790 -0.466718 7.320020
-1.416718 -0.672786 9.084471
-1.380536 -0.655603 9.931503
-1.185196 -0.562838 10.753643
-1.637034 -0.614443 2.207806
-1.568855 -0.588852 2.830063
-1.262947 -0.474033 3.653791
-2.026389 -0.760583 5.778511
-1.757138 -0.659522 6.364987
-1.469161 -0.551433 6.793116
-0.885474 -0.332353 7.469107
-1.395537 -0.523799 9.336663
-1.410775 -0.529519 9.909811
-1.192363 -0.447540 10.676720
-1.546893 -0.433937 1.419075
-1.598173 -0.448322 2.542961
-1.472648 -0.413110 3.258651
-2.036788 -0.571363 5.211550
-1.673919 -0.469570 5.471491
-1.354211 -0.379885 6.279766
-1.365728 -0.383116 7.148885
-1.023128 -0.287009 7.823239
-1.141228 -0.320139 8.385181
-1.457524 -0.408867 9.475243
-1.500788 -0.421003 10.043335
-1.161604 -0.325855 10.621610
-1.493729 -0.288627 1.607526
-1.643852 -0.317635 2.508810
-1.491716 -0.288238 3.284381
-2.168200 -0.418953 4.942656
-1.609633 -0.311023 5.778640
-1.315465 -0.254182 6.241018
-1.318752 -0.254817 7.045006
-1.086229 -0.209888 7.547531
-1.094539 -0.211493 8.697620
-1.487690 -0.287460 9.216507
-1.453583 -0.280870 10.197552
-1.166289 -0.225357 10.902777
-1.550040 -0.164921 1.283282
-1.581691 -0.168289 2.321982
-1.432569 -0.152423 3.143766
-1.314662 -0.139877 3.584157
-1.942697 -0.206699 5.457684
-1.476048 -0.157049 6.368518
-1.170112 -0.124498 6.803237
-0.804450 -0.085592 7.499305
-1.009036 -0.107359 8.235576
-1.365641 -0.145302 9.285962
-1.481223 -0.157599 10.004234
-1.274689 -0.135624 10.624856
-1.644040 -0.029045 2.071292
-1.471445 -0.025996 2.866438
-1.328440 -0.023469 3.497498
-1.982924 -0.035032 5.607933
-1.649148 -0.029135 6.081879
-1.224667 -0.021636 6.816740
-0.863362 -0.015253 7.288959
-0.992280 -0.017530 8.221152
-1.377935 -0.024344 9.017264
-1.455369 -0.025712 9.775809
-1.320068 -0.023321 10.391639
-1.595957 0.099676 2.112626
-1.569635 0.098032 2.817664
-0.916914 0.057266 3.589643
-1.793104 0.111989 5.697340
-1.558918 0.097363 6.111205
-1.193923 0.074567 6.733886
-0.704596 0.044006 7.397927
-1.355538 0.084661 9.112077
-1.367911 0.085433 9.822226
-1.209669 0.075550 10.586959
-1.395633 0.205228 1.246460
-1.474492 0.216825 2.238545
-1.404250 0.206496 2.995411
-1.614143 0.237360 3.966790
-1.849181 0.271923 4.928455
-1.713277 0.251938 5.572963
-1.412239 0.207670 6.473183
-1.092584 0.160665 6.876614
-0.850683 0.125093 7.810213
-1.278968 0.188073 8.364463
-1.436781 0.211279 9.400450
-1.324555 0.194776 10.137123
-1.056877 0.155414 10.857935
-1.189506 0.273452 1.545294
-1.381248 0.317531 2.410465
-1.292780 0.297193 3.228099
-1.622217 0.372926 3.949949
-1.816020 0.417479 5.021453
-1.799250 0.413624 5.544416
-1.462890 0.336299 6.139484
-0.940071 0.216110 6.912998
-0.926324 0.212950 7.860331
-1.345073 0.309215 8.430157
-1.466358 0.337096 9.267991
-1.302433 0.299412 10.296707
-1.062326 0.244215 10.558314
-1.138731 0.361751 1.419322
-1.313783 0.417361 2.373797
-1.294360 0.411191 3.080846
-1.552882 0.493318 4.043926
-1.809462 0.574828 4.919699
-1.775127 0.563920 5.737264
-1.371464 0.435685 6.345681
-0.793237 0.251995 7.017874
-0.943361 0.299686 7.805219
-1.316031 0.418075 8.539131
-1.356462 0.430920 9.546656
-1.275092 0.405070 10.288079
-0.926427 0.294306 10.825409
-1.063971 0.446438 1.327771
-1.235376 0.518359 2.337083
-1.142111 0.479226 3.043094
-1.712881 0.718719 5.038423
-1.482251 0.621947 5.796737
-1.014615 0.425729 6.433891
-0.787544 0.330451 7.033168
-1.017512 0.426944 7.971567
-1.287781 0.540348 8.931123
-1.280504 0.537295 9.593529
-1.168268 0.490201 10.258088
-0.806121 0.338245 10.971580
-1.201183 0.623454 2.241058
-1.096254 0.568992 3.051749
-1.610151 0.835722 5.165800
-1.412785 0.733282 5.763517
-0.953051 0.494665 6.435597
-0.741281 0.384750 7.103265
-1.009675 0.524055 7.832577
-1.267779 0.658019 8.784800
-1.264140 0.656131 9.412742
-1.080435 0.560781 10.401013
-0.698650 0.362623 11.048361
-1.116112 0.701770 2.195546
-1.012975 0.636921 3.216856
-0.995471 0.625916 3.686985
-1.064624 0.669396 4.938681
-1.215009 0.763953 5.514675
-0.866255 0.544670 6.165141
-0.639090 0.401837 6.826936
-0.854475 0.537263 7.726741
-1.182996 0.743825 8.579115
-1.139720 0.716614 9.549500
-0.998028 0.627524 10.180400
-0.765831 0.481527 10.770332
-0.924371 0.702776 2.118108
-0.959255 0.729298 2.858571
-0.854151 0.649390 3.747391
-1.013411 0.770471 4.663484
-1.041673 0.791958 5.664143
-0.803827 0.611130 6.123103
-0.568297 0.432062 6.881851
-0.775529 0.589615 7.764301
-1.078755 0.820151 8.768692
-1.110184 0.844046 9.433674
-0.965337 0.733922 10.132715
-0.749857 0.570098 10.534334
-0.666632 0.595793 2.107249
-0.865518 0.773545 2.901227
-0.834286 0.745632 3.625681
-0.836472 0.747586 4.717815
-0.911666 0.814789 5.359735
-0.723057 0.646222 6.082535
-0.503547 0.450038 6.928082
-0.750997 0.671193 7.531402
-1.054654 0.942583 8.392739
-1.084088 0.968889 9.391854
-0.948868 0.848038 10.080852
-0.727768 0.650432 10.799229
-0.698119 0.737843 2.333400
-0.756079 0.799102 3.188930
-0.776753 0.820952 3.808477
-0.807637 0.853594 4.716796
-0.856640 0.905385 5.529986
-0.676585 0.715084 6.295921
-0.532079 0.562356 6.851150
-0.707730 0.748001 7.852074
-0.975376 1.030878 8.710570
-0.962030 1.016772 9.407839
-0.818925 0.865524 10.254019
-0.591660 0.625327 10.566128
-0.612598 0.766372 1.407005
-0.670061 0.838259 2.520770
-0.659267 0.824756 3.302010
-0.622737 0.779056 4.243501
-0.704107 0.880852 5.010654
-0.653384 0.817396 5.580895
-0.508241 0.635820 6.255229
-0.617967 0.773088 7.499027
-0.898718 1.124313 8.071468
-0.900214 1.126185 9.201319
-0.825078 1.032188 9.813050
-0.683997 0.855694 10.371663
-0.380084 0.475492 10.887186
-0.562533 0.834710 1.595899
-0.558853 0.829251 2.765409
-0.554358 0.822580 3.467561
-0.558755 0.829105 4.460471
-0.640840 0.950906 5.190670
-0.539706 0.800839 5.670454
-0.378312 0.561356 6.367827
-0.538331 0.798799 7.501532
-0.801800 1.189745 8.197724
-0.784376 1.163891 9.139527
-0.700030 1.038735 9.638912
-0.462810 0.830209 1.414259
-0.499844 0.896642 2.633950
-0.512315 0.919013 3.380690
-0.467423 0.838484 4.348208
-0.547540 0.982200 4.941864
-0.456709 0.819264 5.843807
-0.319150 0.572506 6.533317
-0.449830 0.806925 7.454128
-0.635328 1.139679 8.312633
-0.714690 1.282042 8.838493
-0.619807 1.111836 9.938093
-0.435925 0.971130 2.476394
-0.425855 0.948698 3.205462
-0.422597 0.941439 4.147628
-0.482282 1.074402 4.863126
-0.420634 0.937065 5.641863
-0.311584 0.694131 6.258679
-0.297164 0.662007 7.421759
-0.488232 1.087658 8.029861
-0.582914 1.298584 9.044850
-0.549953 1.225156 9.566752
-0.432588 0.963697 10.454549
-0.233807 0.520864 10.971842
-0.326659 0.922503 1.290539
-0.378368 1.068530 2.311232
-0.339153 0.957785 3.266446
-0.360746 1.018766 4.086536
-0.397131 1.121520 4.750972
-0.375355 1.060022 5.748938
-0.325171 0.918300 6.330823
-0.265556 0.749943 7.252356
-0.377563 1.066257 7.858626
-0.486340 1.373450 8.655815
-0.463524 1.309016 9.593529
-0.382607 1.080502 10.371259
-0.242275 0.684196 10.949621
-0.251647 0.975404 2.288862
-0.281027 1.089283 3.058091
-0.254261 0.985536 3.895416
-0.248408 0.962850 4.781046
-0.304923 1.181908 5.693383
-0.278067 1.077813 6.040355
-0.180201 0.698475 6.760844
-0.247439 0.959096 7.907136
-0.353725 1.371071 8.610447
-0.356635 1.382348 9.270129
-0.309884 1.201138 9.976871
-0.213645 0.828106 10.762703
-0.139868 0.820196 1.129374
-0.156407 0.917184 1.895217
-0.195026 1.143648 2.769668
-0.197314 1.157063 3.834669
-0.221291 1.297667 4.465113
-0.214639 1.258656 5.195354
-0.179110 1.050314 5.854529
-0.123262 0.722819 6.811490
-0.147089 0.862541 7.748922
-0.207439 1.216439 8.396425
-0.230018 1.348844 9.186131
-0.214962 1.260552 9.769296
-0.160504 0.941206 10.455730
-0.073006 0.839713 1.165992
-0.083230 0.957308 1.887659
-0.098046 1.127722 2.839107
-0.119435 1.373735 3.645469
-0.110917 1.275763 4.491303
-0.115607 1.329705 5.338975
-0.111359 1.280848 5.988863
-0.063297 0.728039 6.914835
-0.074661 0.858751 7.801455
-0.102285 1.176484 8.630331
-0.124622 1.433397 9.093021
-0.114875 1.321286 9.787156
-0.076338 0.878036 10.596345
-0.001081 1.264241 2.131478
-0.000929 1.085625 2.820355
-0.001221 1.427676 5.701983
-0.001009 1.179972 6.164763
-0.000615 0.719172 7.053294
-0.000775 0.905875 7.524072
-0.000961 1.123961 8.772474
-0.001116 1.305160 9.370956
-0.000998 1.166903 10.249780
-0.000727 0.849830 10.797742
0.091542 1.087043 1.529106
0.108655 1.290255 2.379160
0.111599 1.325218 3.219469
0.126826 1.506038 4.292220
0.135116 1.604476 5.788183
0.114506 1.359740 6.332927
0.064798 0.769461 7.048706
0.070842 0.841235 7.769179
0.097538 1.158239 8.598859
0.110398 1.310955 9.319146
0.099048 1.176178 10.028648
0.063248 0.751056 10.602990
0.195912 1.174686 1.427989
0.217007 1.301171 2.450346
0.254249 1.524470 3.354175
0.280701 1.683076 4.488362
0.286105 1.715481 4.921543
0.266579 1.598405 5.838475
0.206778 1.239836 6.432599
0.116113 0.696210 7.200500
0.136867 0.820649 7.924116
0.178134 1.068088 8.963688
0.201204 1.206416 9.660178
0.203288 1.218913 10.145703
0.119477 0.716379 10.778803
0.336467 1.307767 2.635480
0.394323 1.532636 3.742921
0.451931 1.756546 4.411686
0.391058 1.519948 5.425490
0.350832 1.363597 6.101749
0.245353 0.953626 6.655201
0.182351 0.708755 7.498314
0.245758 0.955201 8.247320
0.295283 1.147695 9.084933
0.299045 1.162314 9.781446
0.386411 1.125508 1.924886
0.407055 1.185637 2.938605
0.484172 1.410256 3.914115
0.578979 1.686404 4.496706
0.470572 1.370644 5.471680
0.441647 1.286394 5.917291
0.312738 0.910917 6.639653
0.247489 0.720867 7.281126
0.301816 0.879106 8.270894
0.373654 1.088350 9.005270
0.411040 1.197244 9.838460
0.362424 1.055640 10.553622
0.476527 1.069885 1.968239
0.555987 1.248287 2.793346
0.638579 1.433720 3.777171
0.696897 1.564653 4.769062
0.622214 1.396978 5.307748
0.526481 1.182040 6.133056
0.441094 0.990331 6.579946
0.315653 0.708695 7.528231
0.378172 0.849062 8.270894
0.482518 1.083336 8.840467
0.518554 1.164243 9.929448
0.475215 1.066940 10.392751
0.614587 1.117576 1.121621
0.638177 1.160472 2.054963
0.620873 1.129006 3.053002
0.808951 1.471011 3.701354
0.865430 1.573713 4.683504
0.810814 1.474399 5.481498
0.702501 1.277441 6.369995
0.488190 0.887733 6.738543
0.347488 0.631878 7.439349
0.424476 0.771875 8.370219
0.616953 1.121878 8.996506
0.637692 1.159591 10.080980
0.512570 0.932066 10.723591
0.774565 1.173173 2.181958
0.717002 1.085987 3.088192
1.079039 1.634335 4.674337
0.902453 1.366875 5.457401
0.819859 1.241776 6.182408
0.566078 0.857393 6.780151
0.356050 0.539281 7.429511
0.451802 0.684309 8.189961
0.673830 1.020598 9.399498
0.751620 1.138420 9.856704
0.549929 0.832934 10.820470
0.802945 1.005293 1.398234
0.918647 1.150152 2.281488
0.821405 1.028406 2.983904
1.329155 1.664112 5.169482
1.113806 1.394494 5.899593
0.886925 1.110436 6.405898
0.731428 0.915753 7.007384
0.519830 0.650831 7.608070
0.548188 0.686335 8.608778
0.806999 1.010369 9.431423
0.781454 0.978386 10.344578
0.587627 0.735713 10.695511
0.955538 1.013840 2.794197
1.500938 1.592519 4.699445
1.482007 1.572432 5.311328
1.280491 1.358621 5.888182
0.974330 1.033780 6.676396
0.641249 0.680376 7.214253
0.480358 0.509667 8.152651
0.719611 0.763519 9.002030
0.906330 0.961630 9.813050
0.985962 0.888435 1.922858
1.156401 1.042014 2.791024
1.664839 1.500160 4.774999
1.312399 1.182581 5.386346
1.152318 1.038335 5.976534
1.044110 0.940830 6.820947
0.568869 0.512598 7.366490
0.537269 0.484125 8.055869
0.886709 0.798999 8.923738
0.962749 0.867517 9.951219
0.860174 0.775089 10.453478
1.005578 0.766954 1.085215
1.041774 0.794561 2.151174
1.264505 0.964437 2.774858
1.734785 1.323119 4.942787
1.684423 1.284709 5.437462
1.435216 1.094638 6.343377
1.117461 0.852287 6.913790
0.603440 0.460243 7.392844
0.556685 0.424583 8.263937
0.958227 0.730839 8.989602
1.015560 0.774567 10.054918
0.914965 0.697843 10.496866
1.120776 0.716133 1.063008
1.098559 0.701937 2.230086
1.367192 0.873584 2.828119
1.609902 1.028666 4.148662
1.898349 1.212973 5.042826
1.842235 1.177118 5.711318
1.638529 1.046958 6.228232
1.300032 0.830671 6.794850
0.668533 0.427167 7.560722
0.620789 0.396661 8.327934
1.109354 0.708835 9.067307
1.177006 0.752062 9.818201
0.926893 0.592250 10.497457
1.141525 0.595061 1.336069
1.359398 0.708635 1.951331
1.413834 0.737012 2.896549
1.703722 0.888126 4.191257
2.081109 1.084853 4.850345
2.000172 1.042661 5.659736
1.743149 0.908679 6.244002
1.333979 0.695385 7.024597
0.826647 0.430920 7.726017
0.907071 0.472843 8.200717
1.205433 0.628375 9.354920
1.230049 0.641207 9.869878
0.936028 0.487938 10.775812
1.114538 0.466094 1.268736
1.323231 0.553368 1.990019
1.356515 0.567288 2.936000
2.081407 0.870434 5.109655
2.086049 0.872375 5.642983
1.828493 0.764666 6.276662
1.421065 0.594282 6.988386
1.236086 0.516925 7.543031
1.285626 0.537642 8.596338
1.362409 0.569752 9.405366
1.323232 0.553369 9.753971
0.992758 0.415166 10.645285
1.277323 0.416786 2.073499
1.372487 0.447838 2.935197
1.253972 0.409167 3.662141
2.162514 0.705621 5.443023
1.974009 0.644113 6.139453
1.596928 0.521072 6.861432
1.382459 0.451092 7.700862
1.427457 0.465775 8.240874
1.388858 0.453180 9.232162
1.354906 0.442101 9.939203
1.373532 0.321031 1.733237
1.457006 0.340540 2.806324
1.553201 0.363024 3.501963
1.884084 0.440360 4.665949
2.143133 0.500906 5.586023
2.019881 0.472099 6.231090
1.671256 0.390616 6.733491
1.420342 0.331971 7.582915
1.525962 0.356657 8.075241
1.531711 0.358001 8.825579
1.444570 0.337634 9.629751
1.456362 0.211528 1.657403
1.524565 0.221434 2.764362
1.621652 0.235536 3.666333
1.960945 0.284816 4.758704
2.258318 0.328008 5.342967
2.024741 0.294082 6.323827
1.648042 0.239369 6.912650
1.443426 0.209649 7.683671
1.503962 0.218442 8.272387
1.512144 0.219630 8.914519
1.408851 0.204628 9.947807
1.389130 0.086856 1.899765
1.569394 0.098127 2.687251
1.562324 0.097685 3.647968
1.859136 0.116244 4.496646
2.115938 0.132300 5.353797
2.065114 0.129122 6.247945
1.760599 0.110082 6.839298
1.576847 0.098593 7.513706
1.549184 0.096864 8.243867
1.472283 0.092055 9.163425
1.477278 0.092368 9.780444
1.562529 -0.036517 1.821273
1.648642 -0.038529 2.568585
1.627913 -0.038045 3.485386
1.566789 -0.036616 4.506034
1.763305 -0.041209 5.394857
1.893532 -0.044253 6.222079
1.734674 -0.040540 6.849492
1.610036 -0.037627 7.695080
1.541804 -0.036033 8.395298
1.509484 -0.035277 9.242247
1.480303 -0.034595 9.913859
1.491318 -0.155943 0.995272
1.669284 -0.174553 2.055669
1.601823 -0.167498 2.923112
1.564232 -0.163568 3.768607
1.655416 -0.173102 4.531126
1.761372 -0.184182 5.613935
1.825917 -0.190931 6.241425
1.702026 -0.177976 7.026707
1.724352 -0.180311 7.717552
1.649744 -0.172509 8.557390
1.599194 -0.167223 9.387169
1.503445 -0.157211 9.884069
1.160208 -0.121320 10.401425
1.374582 -0.259212 1.272288
1.682820 -0.317338 2.040093
1.596436 -0.301048 3.088119
1.665832 -0.314134 3.658692
1.564025 -0.294936 4.812990
1.683792 -0.317521 5.548187
1.811708 -0.341643 6.215953
1.804382 -0.340262 6.951556
1.687211 -0.318166 7.885611
1.645648 -0.310328 8.713573
1.681870 -0.317159 9.132538
1.519622 -0.286563 10.111887
1.277635 -0.240930 10.512531
1.419503 -0.402244 1.046793
1.547080 -0.438395 2.218011
1.559717 -0.441976 3.096668
1.665926 -0.472073 3.564915
1.676119 -0.474961 4.462739
1.724177 -0.488579 5.309782
1.729264 -0.490021 6.368881
1.813234 -0.513815 7.056642
1.786758 -0.506313 7.540830
1.655442 -0.469102 8.400927
1.612799 -0.457018 9.178585
1.560490 -0.442195 9.975261
1.318022 -0.373487 10.550557
1.520111 -0.562564 1.999999
1.487580 -0.550525 2.983008
1.562135 -0.578116 3.735500
1.684759 -0.623497 4.386150
1.667378 -0.617065 5.352310
1.697611 -0.628254 6.326378
1.798714 -0.665670 6.938007
1.679872 -0.621689 7.795680
1.616899 -0.598383 8.608201
1.678999 -0.621366 9.122492
1.588829 -0.587995 9.997313
1.479703 -0.697498 1.965806
1.440050 -0.678806 3.035189
1.468419 -0.692179 3.846571
1.591545 -0.750218 4.488241
1.654568 -0.779925 5.199299
1.660627 -0.782781 6.241425
1.706867 -0.804578 7.048164
1.705744 -0.804048 7.530229
1.615242 -0.761388 8.452050
1.647372 -0.776533 8.977992
1.555003 -0.732993 9.728369
1.240021 -0.715249 1.141350
1.343537 -0.774958 2.223943
1.417136 -0.817410 2.993264
1.432084 -0.826031 3.838342
1.502339 -0.866555 4.632912
1.502407 -0.866594 5.404041
1.594117 -0.919493 6.056908
1.583178 -0.913183 7.168783
1.555357 -0.897136 7.778674
1.552553 -0.895519 8.534236
1.539926 -0.888235 9.430320
1.501061 -0.865818 9.925117
1.210481 -0.698210 10.537371
1.463088 -1.024710 2.183707
1.395024 -0.977040 2.960895
1.427507 -0.999790 3.813828
1.480528 -1.036924 4.725839
1.369093 -0.958879 5.515639
1.417540 -0.992809 6.330288
1.558937 -1.091840 7.271499
1.549652 -1.085337 8.010512
1.566231 -1.096948 8.570784
1.530487 -1.071915 9.236478
1.419045 -0.993864 10.065943
1.117363 -0.782573 10.744153
1.652116 -1.374926 1.554726
1.307331 -1.087989 2.318594
1.310893 -1.090954 3.021487
1.308017 -1.088560 3.993127
1.377842 -1.146670 4.768347
1.295493 -1.078137 5.472965
1.330236 -1.107051 6.330288
1.492119 -1.241773 7.227270
1.433348 -1.192863 8.120754
1.466775 -1.220681 8.587727
1.413293 -1.176173 9.636781
1.347011 -1.121012 10.095938
1.046504 -0.870923 10.602277
1.271361 -1.245428 2.261686
1.214164 -1.189398 2.969423
1.240343 -1.215042 3.830864
1.295507 -1.269082 4.708842
1.180157 -1.156084 5.575414
1.249134 -1.223654 6.270661
1.421851 -1.392848 7.049687
1.408219 -1.379495 7.697280
1.359019 -1.331298 8.613145
1.339337 -1.312017 9.582197
1.289220 -1.262923 10.087804
0.986349 -0.966230 10.799730
1.134857 -1.323118 2.346807
1.094013 -1.275498 3.150282
1.101653 -1.284406 4.018716
1.178508 -1.374011 4.793629
1.087446 -1.267842 5.600190
1.123381 -1.309739 6.347330
1.268360 -1.478767 7.201884
1.233091 -1.437648 8.002036
1.257670 -1.466304 8.486101
1.231279 -1.435536 9.373780
1.166996 -1.360589 10.015315
0.903317 -1.053168 10.756656
1.084058 -1.507009 1.594437
0.990339 -1.376726 2.457612
0.983281 -1.366915 3.141748
0.999339 -1.389237 3.967546
1.027677 -1.428632 4.938225
0.948183 -1.318122 5.745426
1.015648 -1.411909 6.388580
1.104161 -1.534955 7.413609
1.132140 -1.573851 7.824169
1.100805 -1.530290 8.689429
1.119715 -1.556578 9.370313
1.054779 -1.466307 10.079304
0.837473 -1.164218 10.622868
0.914311 -1.518362 2.278702
0.900676 -1.495719 2.988302
0.882810 -1.466050 3.967546
0.894137 -1.484860 4.938581
0.861653 -1.430914 5.600190
0.873778 -1.451050 6.542018
0.991890 -1.647194 7.294995
1.003781 -1.666941 7.898010
0.953863 -1.584044 8.850612
1.003599 -1.666640 9.234862
0.913079 -1.516316 10.283420
0.760498 -1.262931 10.849483
0.772205 -1.570906 2.329775
0.764622 -1.555478 2.953299
0.766963 -1.560242 3.685202
0.734799 -1.494809 4.752530
0.701057 -1.426168 5.365558
0.721630 -1.468021 6.385586
0.874775 -1.779565 6.983771
0.858402 -1.746257 7.898010
0.840973 -1.710800 8.596199
0.838300 -1.705363 9.455032
0.804982 -1.637583 10.117733
0.683632 -1.390720 10.535963
0.681509 -1.716530 2.169653
0.621348 -1.565000 3.141748
0.616595 -1.553030 3.932874
0.643337 -1.620384 4.607357
0.606681 -1.528058 5.279360
0.633572 -1.595790 6.288988
0.724061 -1.823706 7.151129
0.700912 -1.765401 8.084309
0.720373 -1.814417 8.508695
0.707115 -1.781025 9.502318
0.681322 -1.716058 9.998847
0.556569 -1.401842 10.793228
0.520558 -1.714405 2.297097
0.511983 -1.686163 3.014763
0.504940 -1.662967 3.967825
0.525067 -1.729253 4.802128
