1.417621 0.809610 3.000663
1.685785 0.962186 3.620522
2.181955 1.244369 4.432582
1.958013 1.115969 5.131153
1.721897 0.979585 7.207712
1.594514 0.906354 8.184575
1.582426 0.899019 8.773891
1.358084 0.771068 9.579064
1.851751 0.843018 1.393723
1.669130 0.759463 1.918346
1.948927 0.885949 2.773692
2.261086 1.027002 3.517069
2.157019 0.978935 4.295010
1.874598 0.850164 5.001732
1.567536 0.710605 5.458076
1.472758 0.667129 6.217499
1.341375 0.607093 7.086093
1.428956 0.646102 8.029205
1.619040 0.731517 8.701928
1.503847 0.679069 9.325480
1.825268 0.634642 1.339442
1.745971 0.606423 2.171235
1.941676 0.673703 2.955570
2.259740 0.783373 3.603679
2.192085 0.759441 4.096599
1.850321 0.640329 5.006009
1.477367 0.510826 5.743231
1.202039 0.415228 6.562653
1.031905 0.356184 7.222868
1.326186 0.457369 7.859658
1.588479 0.547274 8.622004
1.523136 0.524231 9.471677
1.685620 0.399124 1.337211
1.666383 0.393830 2.395147
1.483985 0.350412 2.910882
1.860612 0.438611 3.819786
2.033126 0.478877 4.270428
1.578056 0.371173 5.123328
1.390444 0.325864 7.248210
1.336932 0.312829 8.186694
1.481423 0.346189 8.920194
1.366936 0.319104 9.568470
1.593167 0.224996 0.352442
1.690204 0.238029 1.328382
1.610153 0.226468 1.772541
1.652200 0.231904 2.486455
1.556048 0.217988 3.163744
1.823503 0.254921 3.866696
2.136138 0.297788 4.801167
1.644098 0.228967 5.217573
1.513139 0.209326 7.606709
1.420833 0.196106 8.452530
1.365278 0.188178 8.966137
1.705559 0.075882 1.338145
1.565865 0.069209 2.080146
1.649486 0.072565 2.595757
1.919071 0.083781 3.416781
2.104671 0.091203 4.209517
1.832512 0.078845 5.023439
1.427718 0.061178 5.532827
1.035085 0.043987 6.523198
0.904600 0.038181 7.311694
1.303374 0.054636 7.994883
1.387985 0.057864 8.587882
1.339595 0.055534 9.227129
1.655203 -0.088871 0.156425
1.616191 -0.087256 0.900604
1.431830 -0.077576 1.387767
1.803223 -0.099422 3.772044
1.934546 -0.107055 4.268984
1.571992 -0.087506 5.149994
1.032738 -0.057823 6.072798
0.665828 -0.037394 6.589223
0.940427 -0.053109 7.366636
1.302424 -0.073898 7.994883
1.378324 -0.078667 8.871474
1.152271 -0.066053 9.602778
1.271565 -0.181906 0.405024
1.564877 -0.224438 1.303625
1.360426 -0.195353 1.745463
1.501930 -0.216120 2.477207
1.845556 -0.266240 3.353526
1.952649 -0.282146 3.921064
1.821046 -0.263825 4.883815
1.389229 -0.201497 5.365508
0.846656 -0.123053 6.215621
0.836583 -0.121885 7.136714
1.201046 -0.175276 7.693730
1.365315 -0.199715 8.548478
1.196029 -0.175190 9.113332
1.252803 -0.306802 0.740861
1.299439 -0.318630 1.490254
1.280933 -0.314425 2.114329
1.241857 -0.305273 2.970561
1.553523 -0.382393 3.724520
1.912158 -0.471183 4.324159
1.592838 -0.392852 4.901167
0.975026 -0.240771 5.730486
0.653978 -0.161676 6.484397
0.894004 -0.221262 7.132361
1.296066 -0.321332 8.133043
1.262448 -0.313304 8.755094
1.043836 -0.259292 9.400679
0.740087 -0.256395 0.270408
0.949350 -0.329313 1.284659
1.167368 -0.405296 1.970348
0.958970 -0.333143 2.461786
1.079311 -0.375274 3.141519
1.522694 -0.529935 3.842006
0.871271 -0.304425 7.142338
1.228254 -0.429446 7.623631
1.292654 -0.452391 8.394967
1.135339 -0.397742 9.293915
0.550743 -0.256342 0.130818
0.649863 -0.302696 0.842920
1.021081 -0.476072 1.797211
0.991475 -0.462607 2.516322
0.841816 -0.393077 3.280604
1.092491 -0.510531 4.035766
1.251017 -0.584991 4.655915
0.840547 -0.393317 5.395435
0.509313 -0.238446 5.975493
0.780397 -0.365730 6.957347
1.116898 -0.523769 7.544927
1.190780 -0.558761 8.158268
1.078245 -0.506323 8.938979
0.589490 -0.345152 0.251060
0.665625 -0.389998 1.022113
0.877369 -0.514327 1.593198
0.868868 -0.509684 2.342353
0.728431 -0.427615 3.177338
0.808114 -0.474587 3.632050
0.998066 -0.586595 4.483291
0.753477 -0.443174 5.372762
0.463407 -0.272694 5.979485
0.652280 -0.384076 6.666237
1.001258 -0.589997 7.446115
1.070036 -0.630929 8.174761
0.976260 -0.576086 9.121676
0.591351 -0.349114 9.790735
1.062563 -0.764812 0.375130
0.894788 -0.644500 1.221576
0.731296 -0.526986 1.798330
0.781902 -0.563916 2.795808
0.774553 -0.558964 3.559809
0.734231 -0.530169 4.271370
0.702663 -0.507578 4.772987
0.491034 -0.354932 5.607573
0.346346 -0.250495 6.381887
0.623252 -0.451012 7.006057
0.991616 -0.718046 7.743210
0.947567 -0.686510 8.420405
0.709948 -0.514650 9.228532
0.213120 -0.185082 0.040606
0.320898 -0.278921 1.153204
0.615709 -0.535349 1.571904
0.618406 -0.538099 2.535280
0.624456 -0.543551 2.977328
0.678639 -0.591187 3.999040
0.696964 -0.607452 4.633635
0.502331 -0.437981 5.157147
0.375385 -0.327513 6.048032
0.612208 -0.534529 6.966673
0.899954 -0.786190 7.604629
0.801738 -0.700681 8.183431
0.503201 -0.532320 0.140403
0.680689 -0.720454 0.806747
0.560743 -0.593862 1.591916
0.504787 -0.534759 1.977413
0.489949 -0.519373 2.804845
0.520027 -0.551597 3.599240
0.548197 -0.581757 4.222903
0.437992 -0.465124 5.140505
0.269170 -0.285958 5.702112
0.439887 -0.467599 6.448522
0.748605 -0.796362 7.356873
0.990175 -1.054049 8.170122
0.857128 -0.912796 8.766846
0.508618 -0.541977 9.711320
0.447048 -0.573427 1.816947
0.434762 -0.557904 2.351530
0.443001 -0.568860 3.198162
0.492388 -0.632694 4.019909
0.440415 -0.566162 4.588545
0.292702 -0.376509 5.420709
0.202752 -0.260938 6.106674
0.426600 -0.549385 6.884963
0.661435 -0.852371 7.660057
0.550986 -0.710399 8.357087
0.415981 -0.536597 9.054416
0.017904 -0.027945 0.265711
0.131702 -0.205681 0.945260
0.387588 -0.605670 1.646415
0.371149 -0.580380 2.453539
0.368452 -0.576459 3.059763
0.394409 -0.617483 3.844883
0.344558 -0.539765 4.577720
0.248770 -0.389999 5.495056
0.165274 -0.259197 5.964692
0.329429 -0.516982 6.713132
0.540923 -0.849534 7.560887
0.512122 -0.804681 8.145542
0.444495 -0.699026 9.240747
0.245523 -0.486733 1.674399
0.247042 -0.490179 2.604635
0.248292 -0.492975 3.273792
0.269569 -0.535598 4.011489
0.177973 -0.353812 4.638888
0.125024 -0.248772 5.615792
0.115407 -0.229777 6.275311
0.223051 -0.444434 7.047480
0.408830 -0.815354 7.956034
0.399088 -0.796273 8.432566
0.300635 -0.600302 9.333736
0.379610 -0.968110 0.745974
0.251144 -0.641044 1.517012
0.177898 -0.454343 2.031221
0.167651 -0.428526 2.763234
0.188651 -0.482724 3.714404
0.205993 -0.527499 4.382465
0.135798 -0.348065 5.229118
0.049661 -0.127368 5.845806
0.140465 -0.360513 6.440989
0.297179 -0.763597 7.391323
0.343402 -0.882988 8.000581
0.309201 -0.795744 8.820883
0.173093 -0.445786 9.587134
-0.046268 0.159659 0.339046
0.020107 -0.069455 1.062000
0.137969 -0.477036 1.706941
0.129456 -0.448111 2.498805
0.125054 -0.433165 2.967247
0.140989 -0.488997 3.868280
0.148056 -0.514003 4.539633
0.114935 -0.399467 5.347042
0.064484 -0.224360 6.133048
0.130902 -0.455983 6.926328
0.214644 -0.748291 7.441267
0.246960 -0.862075 8.347104
0.192151 -0.671343 9.028373
0.123639 -0.677199 0.672807
0.109645 -0.601600 1.469792
0.082150 -0.451204 1.951767
0.062123 -0.341676 2.588295
0.085421 -0.470821 3.565462
0.105253 -0.580893 4.155166
0.060942 -0.336797 4.810399
0.022323 -0.123616 5.774456
-0.016903 0.093724 6.440176
0.037617 -0.208922 7.154458
0.126349 -0.702772 7.747257
0.149037 -0.830844 8.780895
0.090979 -0.507683 9.330233
0.017902 -0.209045 0.437386
0.036680 -0.430085 1.345327
0.039311 -0.462414 2.052795
0.016702 -0.196933 2.598718
0.038003 -0.450080 3.547648
0.067032 -0.795620 3.989878
0.047638 -0.567989 5.006423
0.019615 -0.234687 5.830351
-0.005694 0.068340 6.593939
0.020739 -0.249691 7.220882
0.062857 -0.759296 7.852369
0.064197 -0.777800 8.510705
0.043319 -0.526749 9.380664
-0.003108 -0.501370 1.807866
-0.001576 -0.248181 2.217675
-0.004498 -0.668572 3.172356
-0.006178 -0.891379 3.676935
-0.005325 -0.728643 4.678827
-0.003709 -0.491349 5.346436
-0.001221 -0.155089 6.271551
-0.002878 -0.353416 6.959440
-0.005697 -0.678495 7.576600
-0.006703 -0.774283 8.259179
-0.005157 -0.574953 9.154778
-0.042575 -0.411428 0.687948
-0.047569 -0.458368 1.455558
-0.033440 -0.321318 2.213219
-0.085774 -0.821803 2.957322
-0.125376 -1.198430 3.545477
-0.079559 -0.758367 4.338863
-0.021037 -0.200042 5.077138
0.015917 0.150832 6.101521
-0.001314 -0.012426 6.621880
-0.056329 -0.530691 7.616909
-0.070596 -0.663851 8.125003
-0.095670 -0.469777 1.869675
-0.108277 -0.531021 2.503838
-0.187690 -0.919350 3.098901
-0.056343 -0.273977 6.973249
-0.127336 -0.618101 7.838271
-0.136817 -0.663419 8.397120
-0.118021 -0.571358 9.291754
-0.143396 -0.473511 1.666568
-0.234703 -0.774236 2.375177
-0.385032 -1.268557 3.225139
-0.295865 -0.973867 3.925765
-0.066100 -0.217011 5.935903
-0.041329 -0.135510 6.914760
-0.155142 -0.508253 7.480825
-0.196644 -0.643427 8.377031
-0.177794 -0.581072 9.285653
-0.176888 -0.433738 1.637391
-0.043514 -0.106649 2.082358
-0.474464 -1.160579 3.780404
-0.293711 -0.717955 4.449070
-0.104041 -0.254122 5.243062
-0.093592 -0.228258 6.653889
-0.193351 -0.471048 7.621953
-0.268129 -0.652733 8.295705
-0.211851 -0.515382 8.977559
-0.222968 -0.427924 1.930259
-0.427446 -0.819569 2.929334
-0.628821 -1.204889 3.580189
-0.596521 -1.142207 4.316809
-0.432322 -0.827386 4.896220
-0.174521 -0.333528 6.526286
-0.080235 -0.153247 7.214791
-0.227776 -0.434756 7.899744
-0.400289 -0.606400 1.806917
-0.611344 -0.925392 2.724812
-0.784831 -1.187225 3.464568
-0.077222 -0.116463 7.305818
-0.259008 -0.390414 7.915063
-0.285638 -0.430282 8.699528
-0.108583 -0.163463 9.595024
-0.516612 -0.644411 1.170781
-0.310399 -0.387028 1.696848
-0.199129 -0.248128 2.529185
-0.793176 -0.987217 3.899023
-0.438619 -0.544675 6.905039
-0.267847 -0.332390 7.839409
-0.369036 -0.457699 8.565923
-0.284411 -0.352616 9.077822
-0.224091 -0.229944 1.014347
-0.807951 -0.827746 3.010516
-0.980304 -1.003712 3.764847
-0.164641 -0.168114 7.530151
-0.345728 -0.352758 8.492055
-0.392098 -0.399889 9.094336
-0.418088 -0.352021 1.028371
-0.890525 -0.748566 3.089814
-1.168204 -0.981267 3.970420
-0.165085 -0.138294 7.682485
-0.378731 -0.317063 8.492055
-0.420018 -0.351480 9.043948
-0.702767 -0.491857 0.199894
-0.713867 -0.499291 1.009341
-0.485898 -0.339676 1.621803
-0.235909 -0.164807 2.449687
-1.318644 -0.919924 4.030731
-0.893580 -0.623154 4.542133
-0.454526 -0.316806 5.255108
-0.220395 -0.153402 7.048951
-0.192359 -0.133813 7.773990
-0.417971 -0.290591 8.446111
-0.474231 -0.329517 9.164849
-0.596793 -0.336800 0.471983
-0.742299 -0.418635 1.209969
-0.530959 -0.299244 1.964001
-0.250144 -0.140922 2.439537
-1.433702 -0.806362 4.135540
-0.977381 -0.549417 4.790311
-0.484912 -0.272051 7.088518
-0.164642 -0.092309 7.921654
-0.383545 -0.214947 8.366287
-0.474654 -0.265804 9.237386
-0.842080 -0.375464 2.177569
-1.214655 -0.541297 2.658689
-1.476079 -0.657103 3.633861
-1.510155 -0.671865 4.203991
0.156000 0.069206 7.281199
-0.259469 -0.115015 8.007622
-0.578380 -0.256116 8.969908
-0.656062 -0.222015 0.873612
-0.648046 -0.219154 1.406557
-0.887765 -0.299828 2.416971
-1.407541 -0.474966 3.042637
-1.683888 -0.567685 3.735698
-1.682413 -0.566561 4.585298
-1.424234 -0.479167 5.350808
-0.377134 -0.126432 8.407658
-0.588865 -0.197228 9.132689
-1.090296 -0.248001 2.106148
-1.141317 -0.259247 2.869743
-1.313794 -0.297962 3.710871
-1.708871 -0.387194 4.192346
-1.562330 -0.353492 4.986281
-0.396264 -0.089166 8.331325
-0.662545 -0.148965 8.735506
-0.752202 -0.096108 0.280613
-1.046014 -0.133235 1.272959
-0.719343 -0.091486 1.776825
-0.670368 -0.085035 2.625981
-1.277390 -0.161641 3.358005
-1.781619 -0.225016 3.911042
-1.722061 -0.216848 4.858364
-1.492388 -0.187650 5.360627
-1.104712 -0.137983 7.580307
-0.713758 -0.088965 8.355911
-0.613798 -0.076336 9.122630
-0.862230 -0.032126 0.639631
-0.782357 -0.028928 1.372696
-1.323460 -0.047698 3.733158
-1.748457 -0.062539 4.380592
-0.545205 -0.018760 8.151925
-0.807266 -0.027491 9.054601
-0.790891 0.047992 0.861227
-0.807133 0.049144 1.391778
-1.355862 0.083862 3.819326
-1.724045 0.106918 4.195257
-1.594662 0.099361 4.956905
-1.212924 0.076011 5.941001
-0.858661 0.054246 7.341477
-0.792729 0.050273 8.002614
-0.866429 0.055234 8.880845
-0.714035 0.112937 1.073661
-0.930914 0.147441 1.606441
-1.322165 0.210621 3.871274
-1.657592 0.264577 4.617568
-1.489764 0.238134 5.219544
-1.126925 0.180504 6.105966
-0.962913 0.154514 6.884225
-0.937954 0.150696 7.406518
-1.007490 0.162185 8.214288
-0.799594 0.128897 8.852598
-0.710429 0.180635 0.240690
-1.043458 0.265727 1.192611
-0.946524 0.241281 1.804612
-1.144245 0.292104 2.679589
-1.094006 0.279546 3.272659
-1.178720 0.301506 3.904371
-1.523937 0.390264 4.581357
-1.389413 0.356274 5.401186
-1.163732 0.298820 6.309847
-1.063499 0.273369 6.994828
-1.096298 0.282100 7.669609
-1.072645 0.276311 8.372145
-0.842734 0.217377 9.304594
-0.883743 0.315437 0.668240
-1.103005 0.394197 1.685752
-0.960493 0.343454 2.141778
-1.168816 0.418460 3.123022
-1.319820 0.472899 3.755001
-1.334251 0.478415 4.341386
-1.329509 0.477246 5.253581
-1.304754 0.468726 5.902880
-1.304541 0.469062 6.633506
-1.169326 0.420721 7.213465
-1.133206 0.408159 8.120869
-1.065919 0.384317 9.016434
-1.157316 0.551049 1.334262
-1.037049 0.493982 1.736489
-1.021627 0.487105 2.693187
-1.187865 0.566774 3.395177
-1.331582 0.635868 4.194894
-1.261611 0.602919 4.974406
-1.305704 0.624415 5.650863
-1.358903 0.650194 6.165856
-1.275005 0.610569 7.046532
-1.202994 0.576418 7.657943
-1.193055 0.572073 8.416149
-0.907599 0.435543 9.333562
-1.082696 0.645832 1.968992
-1.088254 0.649445 2.484492
-1.183220 0.706606 3.250258
-1.270549 0.759428 4.234196
-1.161856 0.694700 4.639393
-1.232125 0.737223 5.411023
-1.369927 0.820398 6.392584
-1.295145 0.775936 6.885196
-1.257944 0.754161 7.681204
-1.208380 0.724849 8.344281
-0.994851 0.597126 9.125508
-1.003795 0.733397 0.890233
-1.185341 0.866562 1.612883
-1.126910 0.824209 2.149347
-1.118765 0.818652 2.743686
-1.194585 0.874711 3.538396
-1.263493 0.925772 4.323471
-1.224328 0.897515 4.927905
-1.287772 0.944578 5.637433
-1.326972 0.973926 6.383821
-1.265836 0.929556 7.066798
-1.303006 0.957585 8.018303
-1.237554 0.910010 8.770894
-0.736581 0.652182 0.338657
-0.933907 0.827371 1.058344
-1.077296 0.954762 1.525482
-1.064621 0.944017 2.177384
-1.119339 0.993321 3.170321
-1.188598 1.055370 3.864258
-1.214388 1.078717 4.386006
-1.312235 1.166536 5.353060
-1.394360 1.240233 6.044242
-1.379083 1.227346 6.780548
-1.335610 1.189317 7.510868
-1.293334 1.152259 8.187426
-1.154230 1.028698 8.706142
-0.600107 0.651531 0.509367
-0.996675 1.082521 1.012471
-1.037027 1.127131 1.885403
-1.042673 1.133772 2.446066
-1.066781 1.160701 3.222540
-1.089844 1.186582 4.060100
-1.064736 1.159726 4.591157
-1.122322 1.223060 5.217573
-1.241581 1.353742 5.869217
-1.233782 1.346079 6.673542
-1.205218 1.315737 7.491385
-1.204090 1.315203 8.186014
-1.168308 1.277027 9.138001
-0.949691 1.250525 2.129149
-0.958742 1.263066 2.728538
-0.944834 1.245377 3.352223
-0.987726 1.302890 4.265604
-0.930946 1.228628 4.914706
-1.004198 1.326203 5.737228
-1.183050 1.563353 6.437905
-1.164962 1.540247 7.086604
-1.116992 1.477516 7.690571
-1.066462 1.411510 8.456374
-0.969048 1.283346 9.263260
-0.834330 1.341180 1.843596
-0.851076 1.369190 2.746223
-0.889806 1.432567 3.587234
-0.916489 1.476436 4.283062
-0.825023 1.329780 4.901519
-0.858060 1.383773 5.512295
-1.040937 1.680051 6.385008
-1.005750 1.623894 6.848885
-1.004229 1.622806 7.830986
-0.943006 1.524494 8.337762
-0.889846 1.439556 9.189449
-0.700413 1.405604 1.657415
-0.721373 1.448867 2.489915
-0.749312 1.506172 3.282001
-0.771333 1.551221 3.789681
-0.729294 1.467981 4.702223
-0.773660 1.558395 5.415294
-0.854345 1.721828 5.924981
-0.880639 1.776174 6.694411
-0.888943 1.794429 7.556877
-0.843296 1.703202 8.138675
-0.813440 1.644124 8.935596
-0.366123 0.966272 0.278514
-0.566479 1.496598 1.136265
-0.597903 1.580361 1.524685
-0.608824 1.611195 2.541550
-0.623078 1.649966 3.068231
-0.633326 1.678288 3.655192
-0.586013 1.554412 4.480745
-0.598846 1.590024 5.311643
-0.689375 1.831602 5.829534
-0.729147 1.939149 6.627581
-0.724419 1.928189 7.342833
-0.694493 1.849958 8.019526
-0.673968 1.797003 8.862781
-0.542627 1.447734 9.520236
-0.472938 1.715767 1.843090
-0.469080 1.703402 2.460040
-0.466379 1.695783 3.294657
-0.478002 1.739924 3.988943
-0.430610 1.569330 4.803337
-0.445436 1.625242 5.553552
-0.528022 1.928279 6.081450
-0.556593 2.035818 7.091032
-0.541243 1.981401 7.677409
-0.545537 1.999415 8.435620
-0.520202 1.908370 9.095512
-0.386599 -0.049395 0.000000
-0.456755 -0.058359 0.000000
-0.038322 -0.004896 0.000000
-0.303248 -0.038746 0.000000
-0.244661 -0.031260 0.000000
-0.556830 -0.071146 0.000000
-0.376493 -0.048104 0.000000
-0.260462 -0.033279 0.000000
-0.009442 -0.001206 0.000000
-0.465473 -0.059473 0.000000
-0.757035 -0.100438 0.000000
-0.638070 -0.084655 0.000000
-0.518533 -0.068796 0.000000
-0.634039 -0.084120 0.000000
-0.821219 -0.108954 0.000000
-0.657751 -0.087266 0.000000
-0.500367 -0.066385 0.000000
-0.284710 -0.037773 0.000000
-0.733706 -0.097343 0.000000
-0.128903 -0.017102 0.000000
-0.174243 -0.036107 0.000000
-0.064043 -0.013271 0.000000
-0.195030 -0.040414 0.000000
-0.380105 -0.078766 0.000000
-0.327735 -0.067913 0.000000
-0.228350 -0.047319 0.000000
-0.545339 -0.113005 0.000000
-0.333504 -0.069109 0.000000
-0.274886 -0.056962 0.000000
-0.033389 -0.006919 0.000000
-0.380329 -0.105098 0.000000
-0.358958 -0.099192 0.000000
-0.565029 -0.156136 0.000000
-0.591995 -0.163588 0.000000
-0.083394 -0.023045 0.000000
-0.232537 -0.064258 0.000000
-0.611435 -0.168960 0.000000
-0.589435 -0.162880 0.000000
-0.563111 -0.155606 0.000000
-0.468369 -0.129426 0.000000
-0.166585 -0.074648 0.000000
-0.285058 -0.127736 0.000000
-0.414454 -0.185719 0.000000
-0.636862 -0.285381 0.000000
-0.531140 -0.238006 0.000000
-0.504990 -0.226288 0.000000
-0.484466 -0.217091 0.000000
-0.710446 -0.318354 0.000000
-0.172538 -0.077315 0.000000
-0.167878 -0.075227 0.000000
-0.159881 -0.086101 0.000000
-0.406154 -0.218725 0.000000
-0.063706 -0.034308 0.000000
-0.227213 -0.122360 0.000000
-0.012056 -0.006493 0.000000
-0.307425 -0.165557 0.000000
-0.446270 -0.240329 0.000000
-0.054558 -0.029381 0.000000
-0.245610 -0.132268 0.000000
-0.063812 -0.034365 0.000000
-0.578625 -0.404972 0.000000
-0.492757 -0.344873 0.000000
-0.701325 -0.490847 0.000000
-0.028920 -0.020240 0.000000
-0.510737 -0.357457 0.000000
-0.531686 -0.372119 0.000000
-0.041751 -0.029221 0.000000
-0.022186 -0.015527 0.000000
-0.641236 -0.448792 0.000000
-0.377040 -0.263885 0.000000
-0.304968 -0.237534 0.000000
-0.269103 -0.209599 0.000000
-0.062871 -0.048969 0.000000
-0.299477 -0.233257 0.000000
-0.040096 -0.031230 0.000000
-0.266011 -0.207191 0.000000
-0.204615 -0.159371 0.000000
-0.247249 -0.192578 0.000000
-0.187200 -0.145807 0.000000
-0.028285 -0.022031 0.000000
-0.238292 -0.228105 0.000000
-0.026400 -0.025271 0.000000
-0.044694 -0.042783 0.000000
-0.002911 -0.002786 0.000000
-0.229519 -0.219706 0.000000
-0.384875 -0.368421 0.000000
-0.414045 -0.396344 0.000000
-0.012673 -0.012131 0.000000
-0.033540 -0.032106 0.000000
-0.378098 -0.361934 0.000000
-0.165516 -0.163991 0.000000
-0.199963 -0.198121 0.000000
-0.250762 -0.248452 0.000000
-0.172130 -0.170545 0.000000
-0.033700 -0.033390 0.000000
-0.300260 -0.297495 0.000000
-0.060050 -0.059497 0.000000
-0.071790 -0.071129 0.000000
-0.195248 -0.193449 0.000000
-0.296715 -0.293982 0.000000
-0.000480 -0.000494 0.000000
-0.213546 -0.220028 0.000000
-0.108576 -0.111872 0.000000
-0.336967 -0.347195 0.000000
-0.114522 -0.117999 0.000000
-0.095533 -0.098433 0.000000
-0.262347 -0.270311 0.000000
-0.241579 -0.248912 0.000000
-0.113564 -0.117012 0.000000
-0.265552 -0.273613 0.000000
0.049291 -0.112673 0.000000
0.040767 -0.093187 0.000000
0.007850 -0.017944 0.000000
0.022089 -0.050492 0.000000
0.003670 -0.008390 0.000000
0.015987 -0.036544 0.000000
0.033590 -0.076783 0.000000
0.023689 -0.054150 0.000000
0.035097 -0.080227 0.000000
0.033056 -0.075562 0.000000
0.277957 -0.535166 0.000000
0.159130 -0.306383 0.000000
0.126911 -0.244350 0.000000
0.037197 -0.071617 0.000000
0.265376 -0.510943 0.000000
0.184877 -0.355954 0.000000
0.221842 -0.427126 0.000000
0.292099 -0.562395 0.000000
0.084855 -0.163376 0.000000
0.090340 -0.173937 0.000000
0.044609 -0.076557 0.000000
0.043357 -0.074409 0.000000
0.090656 -0.155582 0.000000
0.008815 -0.015128 0.000000
0.063181 -0.108430 0.000000
0.077586 -0.133151 0.000000
0.052602 -0.090275 0.000000
0.039662 -0.068068 0.000000
0.017586 -0.030180 0.000000
0.058854 -0.101004 0.000000
0.057045 -0.092885 0.000000
0.044437 -0.072356 0.000000
0.116526 -0.189737 0.000000
0.103171 -0.167992 0.000000
0.056062 -0.091285 0.000000
0.004640 -0.007555 0.000000
0.049749 -0.081005 0.000000
0.117770 -0.191764 0.000000
0.039875 -0.064927 0.000000
0.003372 -0.005491 0.000000
0.085555 -0.134391 0.000000
0.099389 -0.156121 0.000000
0.042647 -0.066991 0.000000
0.160332 -0.251851 0.000000
0.100018 -0.157109 0.000000
0.079579 -0.125004 0.000000
0.137549 -0.216063 0.000000
0.152437 -0.239450 0.000000
0.133798 -0.210171 0.000000
0.042454 -0.066687 0.000000
0.015427 -0.024078 0.000000
0.009007 -0.014059 0.000000
0.013989 -0.021835 0.000000
0.017767 -0.027732 0.000000
0.015278 -0.023846 0.000000
0.009177 -0.014323 0.000000
0.014838 -0.023159 0.000000
0.012963 -0.020234 0.000000
0.001839 -0.002871 0.000000
0.015370 -0.023990 0.000000
0.073470 -0.098392 0.000000
0.045375 -0.060766 0.000000
0.077862 -0.104274 0.000000
0.028999 -0.038835 0.000000
0.083793 -0.112217 0.000000
0.068942 -0.092328 0.000000
0.092329 -0.123648 0.000000
0.107489 -0.143950 0.000000
0.039317 -0.052654 0.000000
0.044987 -0.060247 0.000000
0.151801 -0.192448 0.000000
0.002538 -0.003217 0.000000
0.072740 -0.092217 0.000000
0.133163 -0.168819 0.000000
0.034060 -0.043180 0.000000
0.061230 -0.077625 0.000000
0.108035 -0.136964 0.000000
0.097885 -0.124096 0.000000
0.047677 -0.060443 0.000000
0.099224 -0.125793 0.000000
0.091348 -0.111426 0.000000
0.050074 -0.061080 0.000000
0.103537 -0.126294 0.000000
0.023275 -0.028391 0.000000
0.067393 -0.082206 0.000000
0.054455 -0.066424 0.000000
0.051733 -0.063103 0.000000
0.082325 -0.100419 0.000000
0.103667 -0.126452 0.000000
0.101759 -0.124125 0.000000
0.067341 -0.071238 0.000000
0.317073 -0.335421 0.000000
0.481556 -0.509423 0.000000
0.193266 -0.204450 0.000000
0.134057 -0.141815 0.000000
0.301432 -0.318875 0.000000
0.494948 -0.523589 0.000000
0.142969 -0.151242 0.000000
0.086433 -0.091434 0.000000
0.495830 -0.524522 0.000000
0.049947 -0.052459 0.000000
0.057445 -0.060334 0.000000
0.009182 -0.009643 0.000000
0.024284 -0.025505 0.000000
0.013194 -0.013858 0.000000
0.012681 -0.013319 0.000000
0.001293 -0.001358 0.000000
0.007849 -0.008243 0.000000
0.003671 -0.003855 0.000000
0.033822 -0.035522 0.000000
0.178652 -0.163424 0.000000
0.030659 -0.028046 0.000000
0.197402 -0.180577 0.000000
0.049030 -0.044851 0.000000
0.004033 -0.003689 0.000000
0.187653 -0.171658 0.000000
0.239468 -0.219057 0.000000
0.001856 -0.001698 0.000000
0.106114 -0.097069 0.000000
0.070615 -0.064596 0.000000
0.050158 -0.043559 0.000000
0.209793 -0.182193 0.000000
0.012502 -0.010857 0.000000
0.177326 -0.153997 0.000000
0.008355 -0.007255 0.000000
0.096241 -0.083579 0.000000
0.111819 -0.097108 0.000000
0.074324 -0.064546 0.000000
0.019913 -0.017293 0.000000
0.138135 -0.119962 0.000000
0.076984 -0.064360 0.000000
0.059849 -0.050034 0.000000
0.375543 -0.313957 0.000000
0.219855 -0.183800 0.000000
0.243723 -0.203754 0.000000
0.303294 -0.253556 0.000000
0.324787 -0.271525 0.000000
0.188003 -0.157172 0.000000
0.365244 -0.305347 0.000000
0.392166 -0.327854 0.000000
0.208483 -0.168757 0.000000
0.468893 -0.379545 0.000000
0.318598 -0.257889 0.000000
0.134199 -0.108627 0.000000
0.172968 -0.140009 0.000000
0.020595 -0.016671 0.000000
0.019130 -0.015485 0.000000
0.683108 -0.552941 0.000000
0.096266 -0.077922 0.000000
0.491659 -0.397973 0.000000
0.212915 -0.153252 0.000000
0.643997 -0.463536 0.000000
0.949563 -0.683477 0.000000
0.773186 -0.556525 0.000000
0.272412 -0.196077 0.000000
0.282465 -0.203313 0.000000
0.386178 -0.277964 0.000000
0.053102 -0.038222 0.000000
0.577912 -0.415970 0.000000
0.390404 -0.281005 0.000000
0.030410 -0.020104 0.000000
0.314556 -0.207953 0.000000
0.481843 -0.318547 0.000000
0.668790 -0.442138 0.000000
0.035021 -0.023152 0.000000
0.564142 -0.372954 0.000000
0.146931 -0.097136 0.000000
0.670993 -0.443594 0.000000
0.174421 -0.115310 0.000000
0.079825 -0.052772 0.000000
0.098216 -0.059429 0.000000
0.781770 -0.473035 0.000000
0.086443 -0.052305 0.000000
0.746893 -0.451931 0.000000
0.394981 -0.238996 0.000000
0.014139 -0.008556 0.000000
0.993131 -0.600926 0.000000
0.475257 -0.287569 0.000000
0.500171 -0.302644 0.000000
0.431676 -0.261199 0.000000
0.322157 -0.188626 0.000000
0.239741 -0.140371 0.000000
0.556630 -0.325912 0.000000
0.322514 -0.188835 0.000000
0.416427 -0.243822 0.000000
0.076354 -0.044706 0.000000
0.382129 -0.223740 0.000000
0.070948 -0.041541 0.000000
0.522799 -0.306104 0.000000
0.089235 -0.052248 0.000000
0.647800 -0.355270 0.000000
0.332750 -0.182488 0.000000
0.618513 -0.339208 0.000000
0.586105 -0.321434 0.000000
0.109679 -0.060151 0.000000
0.161045 -0.088321 0.000000
0.158228 -0.086776 0.000000
0.563725 -0.309161 0.000000
0.214831 -0.117819 0.000000
0.235893 -0.129369 0.000000
0.353602 -0.189633 0.000000
0.193284 -0.103656 0.000000
0.424401 -0.227602 0.000000
0.244926 -0.131351 0.000000
0.066956 -0.035908 0.000000
0.358767 -0.192403 0.000000
0.155803 -0.083556 0.000000
0.133685 -0.071694 0.000000
0.266571 -0.142959 0.000000
0.438410 -0.235115 0.000000
0.644411 -0.313408 0.000000
0.747851 -0.363715 0.000000
0.581105 -0.282619 0.000000
0.027908 -0.013573 0.000000
0.152701 -0.074266 0.000000
0.059096 -0.028741 0.000000
0.447128 -0.217460 0.000000
0.178229 -0.086681 0.000000
0.448181 -0.217972 0.000000
0.522797 -0.254261 0.000000
0.098089 -0.045655 0.000000
0.234312 -0.109060 0.000000
0.397565 -0.185046 0.000000
0.520000 -0.242033 0.000000
0.507153 -0.236054 0.000000
0.206998 -0.096347 0.000000
0.377167 -0.175552 0.000000
0.365898 -0.170307 0.000000
0.250839 -0.116753 0.000000
0.172632 -0.080351 0.000000
0.332630 -0.135701 0.000000
0.452111 -0.184445 0.000000
0.298316 -0.121702 0.000000
0.104694 -0.042711 0.000000
0.412196 -0.168161 0.000000
0.275670 -0.112463 0.000000
0.593257 -0.242027 0.000000
0.424197 -0.173057 0.000000
0.606227 -0.247318 0.000000
0.421927 -0.172130 0.000000
0.416957 -0.166462 0.000000
0.927151 -0.370147 0.000000
0.704524 -0.281267 0.000000
1.036954 -0.413984 0.000000
1.118457 -0.446522 0.000000
0.755204 -0.301500 0.000000
1.072903 -0.428335 0.000000
0.626408 -0.250081 0.000000
0.812844 -0.324512 0.000000
0.479163 -0.191297 0.000000
0.367114 -0.137884 0.000000
0.396557 -0.148943 0.000000
0.647709 -0.243273 0.000000
0.265365 -0.099668 0.000000
0.062740 -0.023564 0.000000
0.817682 -0.307112 0.000000
0.678090 -0.254684 0.000000
0.657363 -0.246899 0.000000
0.814481 -0.305910 0.000000
0.407774 -0.153155 0.000000
0.690472 -0.239206 0.000000
0.375640 -0.130136 0.000000
0.325987 -0.112934 0.000000
0.634911 -0.219958 0.000000
0.122170 -0.042324 0.000000
0.675677 -0.234081 0.000000
0.180145 -0.062409 0.000000
0.270794 -0.093814 0.000000
0.379941 -0.131626 0.000000
0.698995 -0.242159 0.000000
0.375890 -0.114423 0.000000
0.435693 -0.132627 0.000000
0.284364 -0.086562 0.000000
0.538023 -0.163777 0.000000
1.032833 -0.314400 0.000000
1.059180 -0.322420 0.000000
0.767072 -0.233501 0.000000
0.583639 -0.177663 0.000000
0.695270 -0.211644 0.000000
0.771734 -0.234920 0.000000
0.853901 -0.193835 0.000000
0.648832 -0.147285 0.000000
0.271190 -0.061560 0.000000
0.817156 -0.185494 0.000000
0.878674 -0.199459 0.000000
0.353221 -0.080181 0.000000
0.773915 -0.175678 0.000000
1.092698 -0.248042 0.000000
0.531531 -0.120657 0.000000
0.135591 -0.030779 0.000000
0.527457 -0.087576 0.000000
0.250305 -0.041559 0.000000
0.095937 -0.015929 0.000000
0.538901 -0.089476 0.000000
1.245227 -0.206750 0.000000
0.401229 -0.066618 0.000000
0.353226 -0.058648 0.000000
0.387145 -0.064279 0.000000
0.617281 -0.102490 0.000000
1.344020 -0.223153 0.000000
0.525572 -0.028219 0.000000
0.101272 -0.005437 0.000000
1.199214 -0.064388 0.000000
0.738021 -0.039626 0.000000
1.643186 -0.088226 0.000000
1.112006 -0.059706 0.000000
0.777832 -0.041763 0.000000
0.845426 -0.045393 0.000000
1.245379 -0.066867 0.000000
0.978929 -0.052561 0.000000
0.017962 0.000531 0.000000
1.097845 0.032441 0.000000
1.720812 0.050849 0.000000
1.601621 0.047327 0.000000
1.297774 0.038349 0.000000
0.726381 0.021464 0.000000
0.212776 0.006287 0.000000
1.624144 0.047993 0.000000
0.002508 0.000074 0.000000
1.643195 0.048556 0.000000
0.131636 0.018590 0.000000
0.602235 0.085051 0.000000
0.371589 0.052478 0.000000
1.244287 0.175725 0.000000
0.712281 0.100592 0.000000
0.682884 0.096441 0.000000
1.362628 0.192438 0.000000
1.206335 0.170365 0.000000
1.328400 0.187604 0.000000
0.622099 0.087856 0.000000
1.251959 0.394850 0.000000
0.547515 0.172678 0.000000
0.105411 0.033245 0.000000
1.596085 0.503382 0.000000
1.466360 0.462469 0.000000
1.277087 0.402775 0.000000
0.638378 0.201335 0.000000
0.410314 0.129407 0.000000
0.741970 0.234007 0.000000
0.280236 0.088383 0.000000
1.462568 0.640119 0.000000
0.847079 0.370739 0.000000
1.560456 0.682961 0.000000
0.590134 0.258283 0.000000
0.106654 0.046679 0.000000
1.303290 0.570408 0.000000
0.632662 0.276896 0.000000
0.883725 0.386778 0.000000
1.941108 0.849561 0.000000
1.497117 0.655240 0.000000
0.737934 0.370995 0.000000
0.501631 0.252194 0.000000
1.253841 0.630367 0.000000
1.081147 0.543545 0.000000
1.231795 0.619283 0.000000
1.699787 0.854565 0.000000
0.218285 0.109743 0.000000
0.747886 0.375999 0.000000
1.787426 0.898625 0.000000
0.610383 0.306869 0.000000
1.242263 0.688616 0.000000
0.680074 0.376981 0.000000
0.174755 0.096871 0.000000
1.587516 0.879998 0.000000
0.861551 0.477578 0.000000
1.494736 0.828568 0.000000
0.525567 0.291335 0.000000
0.222970 0.123598 0.000000
1.211440 0.671531 0.000000
1.328560 0.736453 0.000000
0.017211 0.009855 0.000000
0.726639 0.416074 0.000000
0.899149 0.514854 0.000000
0.388755 0.222602 0.000000
1.238262 0.709030 0.000000
1.659950 0.950489 0.000000
0.868114 0.497083 0.000000
1.352801 0.774615 0.000000
1.464208 0.838407 0.000000
1.802473 1.032098 0.000000
0.221012 0.133290 0.000000
0.616676 0.371912 0.000000
1.107438 0.667887 0.000000
0.664679 0.400862 0.000000
0.306879 0.185076 0.000000
1.522061 0.917943 0.000000
0.221839 0.133789 0.000000
1.097090 0.661646 0.000000
1.173783 0.707899 0.000000
0.222973 0.134473 0.000000
0.552937 0.396047 0.000000
0.484717 0.347183 0.000000
0.636057 0.455582 0.000000
1.368297 0.980056 0.000000
1.432500 1.026042 0.000000
0.967003 0.692625 0.000000
1.408395 1.008777 0.000000
0.146017 0.104586 0.000000
0.180715 0.129439 0.000000
1.070277 0.766596 0.000000
0.163956 0.136451 0.000000
0.809208 0.673454 0.000000
0.099157 0.082522 0.000000
1.224274 1.018889 0.000000
1.350693 1.124100 0.000000
0.207379 0.172589 0.000000
0.403833 0.336086 0.000000
1.672179 1.391653 0.000000
1.036763 0.862835 0.000000
0.356514 0.296705 0.000000
0.193102 0.185394 0.000000
0.010680 0.010253 0.000000
0.538564 0.517067 0.000000
1.242472 1.192877 0.000000
1.302195 1.250216 0.000000
0.723385 0.694510 0.000000
0.261630 0.251187 0.000000
1.134452 1.089169 0.000000
0.058692 0.056349 0.000000
0.189812 0.182236 0.000000
0.700476 0.815219 0.000000
0.172819 0.201128 0.000000
0.021147 0.024611 0.000000
0.934022 1.087022 0.000000
0.650698 0.757287 0.000000
0.403070 0.469097 0.000000
0.756816 0.880789 0.000000
0.752650 0.875940 0.000000
0.805003 0.936869 0.000000
0.406716 0.473339 0.000000
0.025041 0.061383 0.000000
0.013687 0.033550 0.000000
0.080528 0.197396 0.000000
0.061416 0.150547 0.000000
0.078965 0.193566 0.000000
0.070508 0.172835 0.000000
0.048578 0.119079 0.000000
0.016408 0.040220 0.000000
0.031678 0.077652 0.000000
0.014742 0.036136 0.000000
0.072453 0.265458 0.000000
0.229701 0.841597 0.000000
0.076778 0.281304 0.000000
0.315871 1.157313 0.000000
0.203876 0.746977 0.000000
0.343518 1.258607 0.000000
0.278314 1.019709 0.000000
0.336145 1.231594 0.000000
0.038468 0.140944 0.000000
0.365729 1.339988 0.000000
0.115405 0.555924 0.000000
0.085322 0.411013 0.000000
0.193659 0.932889 0.000000
0.133699 0.644052 0.000000
0.127486 0.614124 0.000000
0.210543 1.014222 0.000000
0.190930 0.919741 0.000000
0.232086 1.117996 0.000000
0.110739 0.533448 0.000000
0.125639 0.605227 0.000000
0.067108 0.344534 0.000000
0.077126 0.395970 0.000000
0.104904 0.538582 0.000000
0.086846 0.445872 0.000000
0.047579 0.244272 0.000000
0.024802 0.127336 0.000000
0.044605 0.229003 0.000000
0.056124 0.288143 0.000000
0.097381 0.499958 0.000000
0.031415 0.161285 0.000000
0.061244 0.369008 0.000000
0.073797 0.444644 0.000000
0.048667 0.293228 0.000000
0.172914 1.041843 0.000000
0.014786 0.089087 0.000000
0.152990 0.921799 0.000000
0.063190 0.380735 0.000000
0.168967 1.018063 0.000000
0.016855 0.101553 0.000000
0.013226 0.079687 0.000000
0.055334 0.372431 0.000000
0.149290 1.004819 0.000000
0.125517 0.844815 0.000000
0.088869 0.598144 0.000000
0.002017 0.013573 0.000000
0.064388 0.433376 0.000000
0.003515 0.023661 0.000000
0.001301 0.008758 0.000000
0.041282 0.277854 0.000000
0.158436 1.066376 0.000000
0.007675 0.095659 0.000000
0.022351 0.278575 0.000000
0.018959 0.236305 0.000000
0.002941 0.036657 0.000000
0.024221 0.301886 0.000000
0.043627 0.543760 0.000000
0.059180 0.737610 0.000000
0.058334 0.727065 0.000000
0.012713 0.158448 0.000000
0.024438 0.304588 0.000000
0.077685 1.022589 0.000000
0.014426 0.189891 0.000000
0.027811 0.366079 0.000000
0.019287 0.253885 0.000000
0.010285 0.135386 0.000000
0.050084 0.659266 0.000000
0.008125 0.106956 0.000000
0.024439 0.321692 0.000000
0.075084 0.988354 0.000000
0.079676 1.048795 0.000000
0.021294 0.405988 0.000000
0.020066 0.382573 0.000000
0.061076 1.164489 0.000000
0.011474 0.218761 0.000000
0.059936 1.142745 0.000000
0.055319 1.054724 0.000000
0.041136 0.784299 0.000000
0.012501 0.238341 0.000000
0.011133 0.212271 0.000000
0.025361 0.483541 0.000000
0.019289 0.479313 0.000000
0.024795 0.616136 0.000000
0.032083 0.797228 0.000000
0.028497 0.708102 0.000000
0.018518 0.460138 0.000000
0.034265 0.851451 0.000000
0.013483 0.335027 0.000000
0.021897 0.544120 0.000000
0.012330 0.306374 0.000000
0.013990 0.347645 0.000000
-0.013036 0.662555 0.000000
-0.021392 1.087258 0.000000
-0.011763 0.597888 0.000000
-0.020122 1.022732 0.000000
-0.016898 0.858867 0.000000
-0.002229 0.113276 0.000000
-0.014714 0.747828 0.000000
-0.005032 0.255735 0.000000
-0.009862 0.501255 0.000000
-0.018523 0.941464 0.000000
-0.046950 1.018792 0.000000
-0.015209 0.330026 0.000000
-0.020558 0.446088 0.000000
-0.047674 1.034492 0.000000
-0.010530 0.228485 0.000000
-0.038732 0.840460 0.000000
-0.029632 0.642991 0.000000
-0.045682 0.991261 0.000000
-0.041621 0.903152 0.000000
-0.021593 0.468549 0.000000
-0.005532 0.083168 0.000000
-0.015161 0.227939 0.000000
-0.014971 0.225076 0.000000
-0.014481 0.217705 0.000000
-0.010900 0.163874 0.000000
-0.003774 0.056737 0.000000
-0.004151 0.062409 0.000000
-0.017191 0.258450 0.000000
-0.010098 0.151816 0.000000
-0.000358 0.005378 0.000000
-0.009037 0.094837 0.000000
-0.013592 0.142645 0.000000
-0.011117 0.116668 0.000000
-0.022187 0.232844 0.000000
-0.008424 0.088410 0.000000
-0.007568 0.079423 0.000000
-0.032195 0.337880 0.000000
-0.026834 0.281610 0.000000
-0.004039 0.042384 0.000000
-0.027799 0.291740 0.000000
-0.016247 0.078007 0.000000
-0.029718 0.142689 0.000000
-0.013301 0.063862 0.000000
-0.015016 0.072097 0.000000
-0.025535 0.122605 0.000000
-0.013579 0.065198 0.000000
-0.027222 0.130702 0.000000
-0.010822 0.051962 0.000000
-0.008948 0.042960 0.000000
-0.007517 0.036092 0.000000
-0.240980 1.093796 0.000000
-0.200822 0.911521 0.000000
-0.031573 0.143307 0.000000
-0.181496 0.823802 0.000000
-0.271465 1.232170 0.000000
-0.268750 1.219842 0.000000
-0.061506 0.279171 0.000000
-0.135484 0.614954 0.000000
-0.131194 0.595482 0.000000
-0.176006 0.798885 0.000000
-0.071208 0.289740 0.000000
-0.000803 0.003267 0.000000
-0.035918 0.146148 0.000000
-0.069085 0.281099 0.000000
-0.002278 0.009268 0.000000
-0.068458 0.278548 0.000000
-0.043275 0.176080 0.000000
-0.034412 0.140020 0.000000
-0.068814 0.279996 0.000000
-0.085019 0.345933 0.000000
-0.001073 0.004213 0.000000
-0.051996 0.204216 0.000000
-0.136821 0.537376 0.000000
-0.110123 0.432516 0.000000
-0.165027 0.648156 0.000000
-0.329803 1.295324 0.000000
-0.007389 0.029019 0.000000
-0.277944 1.091645 0.000000
-0.251558 0.988013 0.000000
-0.173325 0.680746 0.000000
-0.013023 0.045347 0.000000
-0.043447 0.151281 0.000000
-0.047188 0.164305 0.000000
-0.063761 0.222012 0.000000
-0.005257 0.018306 0.000000
-0.025683 0.089427 0.000000
-0.002741 0.009542 0.000000
-0.011005 0.038319 0.000000
-0.031809 0.110757 0.000000
-0.014430 0.050245 0.000000
-0.001661 0.005733 0.000000
-0.001361 0.004696 0.000000
-0.036097 0.124560 0.000000
-0.026753 0.092316 0.000000
-0.000558 0.001925 0.000000
-0.001224 0.004223 0.000000
-0.026175 0.090323 0.000000
-0.031177 0.107582 0.000000
-0.033551 0.115774 0.000000
-0.020260 0.069913 0.000000
-0.043832 0.141690 0.000000
-0.011452 0.037020 0.000000
-0.043073 0.139235 0.000000
-0.030826 0.099648 0.000000
-0.040671 0.131471 0.000000
-0.029890 0.096621 0.000000
-0.021980 0.071051 0.000000
-0.019124 0.061820 0.000000
-0.045338 0.146556 0.000000
-0.004382 0.014165 0.000000
-0.007314 0.019696 0.000000
-0.022996 0.061927 0.000000
-0.007777 0.020942 0.000000
-0.031831 0.085720 0.000000
-0.021819 0.058757 0.000000
-0.031764 0.085538 0.000000
-0.020677 0.055683 0.000000
-0.009059 0.024396 0.000000
-0.023287 0.062710 0.000000
-0.033752 0.090892 0.000000
-0.313970 0.828630 0.000000
-0.254036 0.670452 0.000000
-0.031960 0.084350 0.000000
-0.092343 0.243712 0.000000
-0.168112 0.443682 0.000000
-0.032670 0.086223 0.000000
-0.099602 0.262871 0.000000
-0.230671 0.608788 0.000000
-0.064334 0.169792 0.000000
-0.021023 0.055484 0.000000
-0.093992 0.218437 0.000000
-0.001705 0.003963 0.000000
-0.247012 0.574058 0.000000
-0.057867 0.134484 0.000000
-0.319597 0.742745 0.000000
-0.230131 0.534826 0.000000
-0.263032 0.611289 0.000000
-0.130086 0.302322 0.000000
-0.275109 0.639356 0.000000
-0.051903 0.120622 0.000000
-0.558860 1.170398 0.000000
-0.560497 1.173827 0.000000
-0.435473 0.911993 0.000000
-0.044901 0.094035 0.000000
-0.062497 0.130884 0.000000
-0.407219 0.852823 0.000000
-0.296651 0.621265 0.000000
-0.453298 0.949323 0.000000
-0.215335 0.450967 0.000000
-0.137468 0.287893 0.000000
-0.124994 0.249369 0.000000
-0.186855 0.372787 0.000000
-0.061894 0.123483 0.000000
-0.042676 0.085141 0.000000
-0.033743 0.067319 0.000000
-0.048771 0.097301 0.000000
-0.166727 0.332630 0.000000
-0.141023 0.281349 0.000000
-0.304347 0.607190 0.000000
-0.457173 0.912086 0.000000
-0.047783 0.089803 0.000000
-0.029651 0.055724 0.000000
-0.029874 0.056145 0.000000
-0.030399 0.057132 0.000000
-0.025211 0.047381 0.000000
-0.030857 0.057992 0.000000
-0.065983 0.124007 0.000000
-0.013213 0.024832 0.000000
-0.053938 0.101370 0.000000
-0.030330 0.057002 0.000000
-0.249904 0.370702 0.000000
-0.179630 0.266460 0.000000
-0.398270 0.590786 0.000000
-0.664781 0.986123 0.000000
-0.078057 0.115788 0.000000
-0.004668 0.006925 0.000000
-0.252838 0.375054 0.000000
-0.282161 0.418551 0.000000
-0.547221 0.811736 0.000000
-0.413055 0.612717 0.000000
-0.425803 0.581098 0.000000
-0.358467 0.489203 0.000000
-0.629010 0.858417 0.000000
-0.499740 0.682001 0.000000
-0.397917 0.543042 0.000000
-0.289055 0.394476 0.000000
-0.069173 0.094401 0.000000
-0.513332 0.700550 0.000000
-0.472452 0.644760 0.000000
-0.328683 0.448557 0.000000
-0.142501 0.186722 0.000000
-0.243030 0.318445 0.000000
-0.518353 0.679204 0.000000
-0.481555 0.630989 0.000000
-0.067243 0.088110 0.000000
-0.446459 0.585001 0.000000
-0.480382 0.629451 0.000000
-0.397783 0.521221 0.000000
-0.304054 0.398407 0.000000
-0.150601 0.197335 0.000000
-0.125753 0.129308 0.000000
-0.439583 0.452008 0.000000
-0.197795 0.203386 0.000000
-0.681134 0.700387 0.000000
-0.646254 0.664521 0.000000
-0.584619 0.601143 0.000000
-0.056100 0.057686 0.000000
-0.311437 0.320240 0.000000
-0.128793 0.132434 0.000000
-0.457101 0.470021 0.000000
-0.588761 0.565041 0.000000
-0.547574 0.525514 0.000000
-0.543592 0.521692 0.000000
-0.159131 0.152720 0.000000
-0.456073 0.437699 0.000000
-0.366963 0.352180 0.000000
-0.528045 0.506771 0.000000
-0.452731 0.434492 0.000000
-0.070856 0.068002 0.000000
-0.577658 0.554386 0.000000
-0.555713 0.520468 0.000000
-0.051898 0.048606 0.000000
-0.536466 0.502442 0.000000
-0.123928 0.116068 0.000000
-0.266987 0.250054 0.000000
-0.381128 0.356956 0.000000
-0.248193 0.232452 0.000000
-0.148365 0.138955 0.000000
-0.496700 0.465198 0.000000
-0.273050 0.255732 0.000000
-0.126070 0.111624 0.000000
-0.132168 0.117024 0.000000
-0.065124 0.057662 0.000000
-0.246498 0.218254 0.000000
-0.436766 0.386720 0.000000
-0.196211 0.173729 0.000000
-0.017810 0.015769 0.000000
-0.053896 0.047720 0.000000
-0.291573 0.258164 0.000000
-0.479693 0.424729 0.000000
-0.328466 0.241280 0.000000
-0.223279 0.164013 0.000000
-0.451652 0.331769 0.000000
-0.646917 0.475204 0.000000
-0.298200 0.219048 0.000000
-0.607399 0.446176 0.000000
-0.173289 0.127293 0.000000
-0.552033 0.405505 0.000000
-0.399775 0.293662 0.000000
-0.555899 0.408345 0.000000
-0.462134 0.189028 0.000000
-0.358856 0.146784 0.000000
-0.134757 0.055120 0.000000
-0.395407 0.161734 0.000000
-0.132712 0.054283 0.000000
-0.467394 0.191179 0.000000
-0.159345 0.065177 0.000000
-0.077767 0.031809 0.000000
-0.327884 0.134115 0.000000
-0.044632 0.018256 0.000000
-0.547932 0.183575 0.000000
-0.534043 0.178922 0.000000
-0.425811 0.142661 0.000000
-0.053039 0.017770 0.000000
-0.544960 0.182579 0.000000
-0.785263 0.263089 0.000000
-0.289512 0.096996 0.000000
-0.468072 0.156820 0.000000
-0.250898 0.084059 0.000000
-0.464761 0.155710 0.000000
-0.123030 0.031282 0.000000
-0.190464 0.048428 0.000000
-0.560807 0.142592 0.000000
-0.473020 0.120271 0.000000
-0.341618 0.086861 0.000000
-0.454413 0.115540 0.000000
-0.272347 0.069247 0.000000
-0.556380 0.141466 0.000000
-0.134903 0.034301 0.000000
-0.097661 0.024832 0.000000
-0.029081 0.004410 0.000000
-0.234788 0.035607 0.000000
-0.417041 0.063247 0.000000
-0.216299 0.032803 0.000000
-0.113276 0.017179 0.000000
-0.362533 0.054981 0.000000
-0.536647 0.081386 0.000000
-0.064148 0.009728 0.000000
-0.590928 0.089618 0.000000
-0.554493 0.084093 0.000000
-0.022975 -0.034587 9.958633
-0.087405 -0.131581 9.958633
-0.044869 -0.067546 9.958633
-0.058645 -0.088285 9.958633
-0.000085 -0.000128 9.958633
-0.014121 -0.021258 9.958633
-0.063047 -0.094913 9.958633
-0.004408 -0.006636 9.958633
-0.056991 -0.085795 9.958633
-0.033790 -0.050868 9.958633
-0.086658 -0.322492 9.958633
-0.018539 -0.068993 9.958633
-0.002761 -0.010276 9.958633
-0.036316 -0.135148 9.958633
-0.016496 -0.061388 9.958633
-0.069088 -0.257105 9.958633
-0.040508 -0.150748 9.958633
-0.021961 -0.081726 9.958633
-0.061836 -0.230118 9.958633
-0.050474 -0.187837 9.958633
-0.006588 -0.043967 9.958633
-0.029082 -0.194092 9.958633
-0.014631 -0.097647 9.958633
-0.033480 -0.223441 9.958633
-0.036247 -0.241908 9.958633
-0.008593 -0.057352 9.958633
-0.027169 -0.181323 9.958633
-0.019311 -0.128883 9.958633
-0.005958 -0.039765 9.958633
-0.035261 -0.235326 9.958633
0.008008 -0.079309 9.958633
0.001227 -0.012153 9.958633
0.022465 -0.222488 9.958633
0.012232 -0.121144 9.958633
0.020466 -0.202690 9.958633
0.004360 -0.043183 9.958633
0.034909 -0.345730 9.958633
0.015856 -0.157035 9.958633
0.013463 -0.133335 9.958633
0.035850 -0.355050 9.958633
0.150216 -0.386869 9.958633
0.125414 -0.322993 9.958633
0.098140 -0.252750 9.958633
0.171129 -0.440729 9.958633
0.133747 -0.344455 9.958633
0.041917 -0.107953 9.958633
0.089769 -0.231192 9.958633
0.049968 -0.128689 9.958633
0.071279 -0.183574 9.958633
0.050682 -0.130527 9.958633
0.003093 -0.007399 9.958633
0.021806 -0.052163 9.958633
0.137224 -0.328262 9.958633
0.013904 -0.033262 9.958633
0.132293 -0.316467 9.958633
0.137930 -0.329950 9.958633
0.001220 -0.002917 9.958633
0.012076 -0.028887 9.958633
0.127061 -0.303951 9.958633
0.001158 -0.002771 9.958633
0.029521 -0.057339 9.958633
0.053110 -0.103157 9.958633
0.052085 -0.101166 9.958633
0.059782 -0.116117 9.958633
0.061442 -0.119342 9.958633
0.053393 -0.103707 9.958633
0.008293 -0.016109 9.958633
0.048289 -0.093793 9.958633
0.062393 -0.121188 9.958633
0.020046 -0.038936 9.958633
0.402299 -0.583973 9.958633
0.366328 -0.531757 9.958633
0.325609 -0.472650 9.958633
0.316950 -0.460080 9.958633
0.339407 -0.492680 9.958633
0.253848 -0.368483 9.958633
0.246144 -0.357300 9.958633
0.055730 -0.080896 9.958633
0.125395 -0.182021 9.958633
0.313399 -0.454926 9.958633
0.270633 -0.288383 9.958633
0.315436 -0.336124 9.958633
0.366710 -0.390762 9.958633
0.322148 -0.343277 9.958633
0.019114 -0.020367 9.958633
0.063642 -0.067816 9.958633
0.116428 -0.124064 9.958633
0.370681 -0.394993 9.958633
0.425043 -0.452921 9.958633
0.163010 -0.173701 9.958633
0.018500 -0.015582 9.958633
0.053214 -0.044820 9.958633
0.444147 -0.374093 9.958633
0.168423 -0.141858 9.958633
0.134984 -0.113693 9.958633
0.252384 -0.212576 9.958633
0.329656 -0.277660 9.958633
0.080180 -0.067533 9.958633
0.425567 -0.358443 9.958633
0.204786 -0.172485 9.958633
0.195590 -0.130317 9.958633
0.012693 -0.008457 9.958633
0.310312 -0.206754 9.958633
0.255242 -0.170062 9.958633
0.093654 -0.062400 9.958633
0.350334 -0.233420 9.958633
0.102976 -0.068611 9.958633
0.629635 -0.419512 9.958633
0.180105 -0.120000 9.958633
0.401686 -0.267635 9.958633
0.495431 -0.302293 9.958633
0.199439 -0.121690 9.958633
0.088761 -0.054159 9.958633
0.783058 -0.477793 9.958633
0.769738 -0.469665 9.958633
0.681100 -0.415582 9.958633
0.192176 -0.117259 9.958633
0.511652 -0.312190 9.958633
0.791421 -0.482895 9.958633
0.660105 -0.402771 9.958633
0.128664 -0.075959 9.958633
0.238868 -0.141020 9.958633
0.423811 -0.250204 9.958633
0.321926 -0.190055 9.958633
0.373163 -0.220303 9.958633
0.108055 -0.063792 9.958633
0.094668 -0.055889 9.958633
0.038518 -0.022740 9.958633
0.307545 -0.181564 9.958633
0.442039 -0.260965 9.958633
0.253111 -0.140031 9.958633
0.459408 -0.254164 9.958633
0.334341 -0.184971 9.958633
0.137908 -0.076296 9.958633
0.149498 -0.082708 9.958633
0.324202 -0.179362 9.958633
0.624395 -0.345441 9.958633
0.292361 -0.161746 9.958633
0.532621 -0.294668 9.958633
0.040527 -0.022421 9.958633
0.011874 -0.005827 9.958633
0.345261 -0.169434 9.958633
0.059545 -0.029221 9.958633
0.073355 -0.035998 9.958633
0.188896 -0.092699 9.958633
0.363653 -0.178459 9.958633
0.131220 -0.064395 9.958633
0.551234 -0.270513 9.958633
0.264073 -0.129591 9.958633
0.385211 -0.189039 9.958633
0.262202 -0.105800 9.958633
0.823100 -0.332126 9.958633
0.834226 -0.336616 9.958633
0.748567 -0.302052 9.958633
0.877586 -0.354112 9.958633
0.953458 -0.384727 9.958633
0.097897 -0.039502 9.958633
0.773020 -0.311919 9.958633
0.082746 -0.033388 9.958633
0.042216 -0.017034 9.958633
0.024709 -0.009384 9.958633
0.131808 -0.050056 9.958633
0.375544 -0.142618 9.958633
0.703840 -0.267292 9.958633
0.162177 -0.061589 9.958633
0.673431 -0.255744 9.958633
0.659382 -0.250409 9.958633
0.018286 -0.006945 9.958633
0.112022 -0.042542 9.958633
0.705759 -0.268021 9.958633
0.236276 -0.054538 9.958633
0.007191 -0.001660 9.958633
0.363475 -0.083898 9.958633
0.415502 -0.095907 9.958633
0.807531 -0.186396 9.958633
0.744521 -0.171852 9.958633
0.039403 -0.009095 9.958633
0.715178 -0.165079 9.958633
0.232218 -0.053601 9.958633
0.017948 -0.004143 9.958633
0.948463 -0.161092 9.958633
0.755958 -0.128396 9.958633
0.578759 -0.098299 9.958633
0.847259 -0.143903 9.958633
0.699274 -0.118768 9.958633
0.019127 -0.003249 9.958633
0.156653 -0.026607 9.958633
0.302007 -0.051294 9.958633
0.188407 -0.032000 9.958633
0.784417 -0.133230 9.958633
0.364924 -0.035880 9.958633
0.468820 -0.046096 9.958633
1.127643 -0.110873 9.958633
0.698945 -0.068722 9.958633
0.858884 -0.084448 9.958633
0.665224 -0.065407 9.958633
0.227809 -0.022399 9.958633
0.122784 -0.012072 9.958633
0.102462 -0.010074 9.958633
0.520747 -0.051201 9.958633
1.018147 -0.058365 9.958633
0.311514 -0.017857 9.958633
0.022903 -0.001313 9.958633
0.273893 -0.015701 9.958633
1.050711 -0.060231 9.958633
0.259509 -0.014876 9.958633
0.651549 -0.037350 9.958633
0.138871 -0.007961 9.958633
0.846172 -0.048506 9.958633
0.104944 -0.006016 9.958633
0.177057 0.004601 9.958633
0.316891 0.008235 9.958633
