0.885206 -0.016630 3.750325
0.923164 -0.017343 1.273187
0.500632 -0.009405 -1.350611
0.966772 -0.105846 4.553509
0.851323 -0.093206 3.710963
0.931415 -0.101975 2.140049
0.868864 -0.095126 1.295742
0.875334 -0.095835 0.511775
0.674673 -0.073866 -0.346470
0.469728 -0.051428 -1.256491
0.952806 -0.191877 3.027783
0.890686 -0.179367 2.078832
0.883840 -0.177988 1.367965
0.886004 -0.178424 0.354883
0.787703 -0.158628 -0.324416
0.580425 -0.116886 -1.073566
1.004413 -0.293010 7.174751
0.421772 -0.123040 4.928070
1.013501 -0.295662 1.476970
0.924541 -0.361675 2.973745
0.982756 -0.384448 0.488645
0.865053 -0.338403 -0.365082
0.648241 -0.253588 -1.207215
0.438410 -0.171503 -1.838042
0.865726 -0.432146 5.476302
1.014954 -0.506636 2.858364
0.947418 -0.472924 0.717349
0.757865 -0.568411 5.511128
0.611234 -0.458435 3.793937
1.163698 -0.872793 2.782580
0.684682 -0.611646 5.483396
0.652608 -0.582994 3.899024
1.188873 -1.062055 2.968157
0.698786 -0.904039 4.501682
0.943269 -1.220333 3.530611
0.612857 -1.444587 3.548788
0.217562 -0.699056 -2.056873
-1.518900 -1.950195 -1.813247
-1.597612 -1.181536 -2.111806
-1.241895 -0.484180 -2.055779
-1.952362 0.318393 -0.273905
-1.406459 1.391367 -0.304338
-0.390931 1.488505 5.751044
-0.411624 1.567294 1.803978
-0.240372 1.428676 7.793862
-0.250764 1.490442 4.426792
-0.257528 1.530646 3.633230
-0.120857 1.576069 4.585044
-0.578832 7.548457 -2.739159
0.006970 1.290135 5.609445
0.007910 1.464134 4.453198
0.145912 1.488256 4.710208
0.751070 7.660663 -2.754121
0.246998 1.310725 4.625629
0.292044 1.549766 3.630827
0.119104 0.419134 5.283237
0.341564 1.201987 3.620695
0.433582 1.525807 2.865655
0.105819 0.282546 5.409541
0.465490 1.242897 3.644535
0.588094 1.570260 2.735349
0.563679 1.165523 7.664252
0.587013 1.213770 6.883198
0.690715 1.428197 3.464438
0.597228 1.234892 1.216980
0.628577 1.042079 7.658421
0.104678 0.173539 5.423323
0.843043 1.397629 2.810663
0.437661 0.725571 -1.862067
0.743676 1.016276 7.865347
0.123103 0.168227 5.281759
1.005368 1.373894 2.743750
0.369519 0.504969 -1.936066
0.806283 0.930311 7.601743
0.853590 0.984895 3.657260
1.078473 1.244372 2.665528
0.584370 0.674262 -1.075663
0.905629 0.875047 7.865347
1.184728 1.144721 2.675763
0.971251 0.938453 1.331262
0.643186 0.621467 -1.148745
0.743305 0.596249 3.922702
1.054275 0.845697 3.070370
0.957802 0.768310 1.397754
0.844471 0.677401 0.644159
0.635131 0.509477 -0.962694
0.618313 0.409947 5.487261
0.918563 0.609015 3.907389
1.041993 0.690850 3.057775
1.190965 0.789619 1.978299
1.064396 0.705703 1.375243
0.554309 0.367511 -0.997964
0.946655 0.521066 4.614407
0.938169 0.516396 3.847595
1.059298 0.583069 2.852744
0.900935 0.495901 1.415519
0.518694 0.285504 -1.073566
1.289417 0.564276 6.500620
0.392733 0.171868 4.843545
1.009132 0.441618 3.080213
0.918552 0.401977 -0.197801
0.675837 0.295760 -0.901680
0.534259 0.233803 -1.547986
1.115302 0.372442 7.580478
1.036017 0.345966 2.621411
0.649544 0.216908 -1.585967
1.098933 0.259017 7.341975
1.371669 0.323300 6.510920
1.326499 0.312654 5.756854
1.070614 0.160467 7.750428
0.934229 0.054531 2.119192
0.895116 0.052248 1.221823
0.730228 0.042624 -0.576687
1.083390 -0.036587 7.631208
1.375865 -0.046464 5.680942
1.073530 -0.134543 7.620819
0.998524 -0.125143 2.460033
1.108453 -0.138920 1.744937
1.110898 -0.139226 1.152375
1.056970 -0.221116 7.610430
1.377658 -0.288203 6.500620
1.259828 -0.263553 5.588780
0.987737 -0.206633 3.465167
1.459712 -0.305369 2.593943
1.538196 -0.321787 1.826888
1.028549 -0.314669 7.460119
0.987877 -0.302226 3.452504
1.030295 -0.530526 5.575919
0.904946 -0.465980 4.063315
0.919781 -0.710936 4.236734
1.286522 -0.994405 3.347219
0.815978 -0.746494 4.179984
1.207954 -1.105092 3.470086
0.518906 -0.564302 5.483728
0.592775 -0.644633 4.586235
0.967710 -1.052369 3.915389
0.663611 -0.874792 4.107300
0.641840 -1.025621 4.210488
0.048631 -0.232820 5.494221
-0.470102 -0.131974 -2.175744
-2.052894 -0.021651 -0.253105
-1.801068 0.831929 -0.710088
-1.718840 0.990343 -0.699945
-1.716460 1.214443 -0.192101
-1.378284 1.383888 -0.274089
-0.733971 1.604114 5.216456
-0.409467 1.593483 4.494094
-0.178208 1.110846 5.517291
-0.215615 1.344020 4.433988
-0.233880 1.457874 3.630158
-0.090333 1.330463 5.560845
-0.103545 1.525055 4.570564
-0.529804 7.803205 -2.734676
0.010977 0.775021 5.365021
0.015233 1.075467 4.572847
0.020658 1.458486 3.704564
0.126080 1.208502 5.440834
0.135694 1.300660 4.618335
0.158449 1.518765 3.884537
0.822985 7.888493 -2.553435
0.268557 1.352886 4.149971
0.325417 1.639325 3.291642
0.389478 1.328712 6.515167
0.363576 1.240345 4.274549
0.470375 1.604692 3.301870
0.477792 1.238345 4.134784
0.574727 1.489582 2.998904
0.503818 1.018929 3.998214
0.738386 1.493320 2.581927
0.396699 0.648968 5.260276
0.425038 0.695328 4.498038
0.887143 1.451294 2.723310
0.519948 0.850593 -1.229045
0.455029 0.744391 -2.321846
0.470494 0.632438 5.277823
0.927746 1.041479 7.654726
1.008538 1.132175 1.716347
0.931225 0.870387 5.675132
0.899343 0.840588 1.480543
1.020169 0.812607 5.533496
0.849268 0.676478 1.600664
0.557252 0.443874 -1.647878
1.201614 0.782570 6.358372
1.140711 0.742906 5.577836
0.609573 0.396994 -1.395187
1.156877 0.611971 7.607666
1.005630 0.531963 4.239503
0.877584 0.464229 1.093681
0.822441 0.435059 -0.500677
1.057897 0.452353 4.353594
0.938846 0.401447 3.317255
0.485448 0.207576 -1.412979
-0.087421 -0.037381 -2.036692
1.088902 0.354147 5.302764
0.717173 0.233248 4.622053
1.093768 0.355730 2.732062
1.031816 0.335581 2.100505
0.948685 0.308544 1.249869
0.955991 0.310920 0.489286
1.178699 0.256145 5.378711
0.776917 0.168833 4.542820
1.122479 0.243928 2.711321
0.978677 0.212678 1.364394
0.957796 0.208140 0.479189
1.193830 0.159961 7.596299
1.184394 0.059198 5.413301
0.885281 0.044247 3.760767
1.181210 0.059038 2.833895
1.134673 0.056712 2.118500
0.926162 0.046291 1.387935
0.902967 0.045131 0.386195
0.586284 -0.023837 4.695578
1.309361 -0.053236 2.865905
1.155163 -0.046966 0.549576
1.013873 -0.134034 5.330430
1.451630 -0.191906 2.564807
1.145998 -0.151501 0.539207
1.115897 -0.247783 7.543884
1.111624 -0.350405 7.528654
1.382632 -0.435832 6.450989
1.305811 -0.411616 5.798099
0.718356 -0.226439 -1.415238
0.490060 -0.154476 -2.184884
1.046157 -0.436908 7.233518
1.229127 -0.513322 5.550524
1.156643 -0.483051 3.912760
1.408115 -0.588073 3.056211
1.051473 -0.557373 7.523797
1.265447 -0.670798 6.348079
0.976125 -0.517432 4.169601
1.262428 -0.669198 3.095186
0.910833 -0.584868 5.396243
0.937618 -0.602067 4.684070
1.156173 -0.742407 3.608816
0.819247 -0.640389 4.693230
1.173612 -0.917390 3.763791
1.792374 -1.401065 1.298727
0.652621 -0.601282 5.445178
0.770936 -0.710290 4.555031
1.119925 -1.031826 3.843465
1.077685 -1.191985 3.928072
0.282420 -0.567504 5.256212
0.716182 -1.782661 -2.268477
0.316435 -1.540213 4.721417
0.194868 -1.803078 5.209551
0.249778 -2.311147 -1.870899
-1.811601 0.855187 -0.293996
-1.771112 1.517153 0.602930
-1.432860 1.758639 1.097439
-0.467974 1.363518 5.608059
-0.330010 1.349305 5.594799
-0.381133 1.558333 4.571772
-0.352896 1.442881 1.583871
-0.127288 0.844229 5.385999
-0.168504 1.117591 4.608395
-0.217166 1.440338 3.683991
-0.256765 1.702974 2.670429
-0.104587 1.547829 2.734181
0.026192 1.132134 4.829356
0.033190 1.434656 3.966855
0.039483 1.706676 3.123807
0.113430 0.996419 5.545639
0.118340 1.039559 4.745227
0.161344 1.417321 3.884505
0.196391 1.725196 3.172785
0.181424 0.875944 5.316408
0.210635 1.016976 4.682830
0.278793 1.346053 3.869006
0.353648 1.707466 2.956348
0.259954 0.871219 5.420787
0.292270 0.979524 4.547591
0.379420 1.271602 3.894741
0.477419 1.600039 2.972481
0.297660 0.997587 -1.029851
0.516030 0.825096 5.337349
0.683260 1.092486 3.763001
0.829549 1.326392 2.908586
0.650162 0.871071 4.003440
0.814129 1.090751 2.872445
0.776675 1.040570 1.271043
0.412925 0.553227 -1.007813
0.867258 0.961389 3.824991
0.891354 0.988101 2.802096
0.988804 1.096128 1.924277
0.921371 1.021376 1.330382
0.517128 0.573256 -1.236284
1.042189 0.969567 7.670354
0.878611 0.817388 2.728479
0.746763 0.694727 1.165808
0.534316 0.497083 -1.458098
1.173769 0.906859 6.350066
0.767278 0.487734 5.420787
0.533851 0.339352 4.658006
0.805897 0.512283 3.690901
1.008151 0.640850 2.989292
0.982308 0.624422 2.168944
0.884363 0.562161 1.258631
0.911787 0.579594 0.498714
1.108799 0.583355 7.834323
1.039743 0.547024 4.560931
0.970478 0.510583 2.683724
0.942277 0.495745 2.185035
0.902090 0.474603 1.144996
1.000645 0.526454 0.518810
0.480541 0.252820 -1.106565
0.463984 0.244109 -1.909460
1.374287 0.567244 6.370624
1.257452 0.394714 5.626434
1.022433 0.320942 3.019883
0.972871 0.305384 2.271148
0.913116 0.286627 1.512111
0.421286 0.132242 -1.056611
1.191380 0.258349 7.668773
1.021542 0.221520 4.312978
0.922600 0.200065 1.136819
0.907888 0.196874 0.375512
0.812126 0.176109 -0.543815
0.366544 0.079485 -1.333810
-0.264257 -0.057304 -2.034998
0.864719 0.106268 5.330293
0.528057 0.064894 4.659465
1.125907 0.138366 2.858364
1.238067 0.152149 1.853001
1.090722 0.134042 1.288135
0.536908 0.065982 -1.032812
0.353321 0.043420 -2.045147
1.253043 0.050485 7.715539
0.399724 0.016105 -1.332951
1.181997 -0.061559 5.572291
1.159455 -0.157002 5.479024
1.264696 -0.291425 5.661100
1.165085 -0.378027 7.570696
0.631984 -0.205055 5.294848
1.198451 -0.514777 4.377848
1.587235 -0.681773 3.358766
0.997809 -0.539894 3.977465
0.645305 -0.421420 5.333602
0.743677 -0.485663 4.478862
0.921683 -0.728502 4.119985
0.585123 -0.556067 5.413886
0.675347 -0.641812 4.632444
1.284624 -1.220833 3.570803
0.470450 -0.527363 5.417366
0.383725 -0.629552 5.274151
0.231670 -0.602444 5.340288
0.635809 -1.653385 -2.277593
0.217211 -1.994606 -2.009029
-1.897761 -0.505133 -2.143669
-1.999601 -0.339570 -0.283668
-2.385459 -0.405095 -2.228065
-2.024018 -0.172128 -0.557189
-2.445837 -0.208000 -1.964714
-2.083463 0.015985 -0.687948
-2.044982 0.378398 -0.435041
-1.802503 0.874019 -0.283859
-1.657064 0.803497 -1.038801
-1.708133 1.486744 0.956517
-0.793617 1.216360 5.680084
-0.850182 1.303056 4.588071
-0.647302 1.174592 5.612441
-0.720513 1.307439 4.689655
-0.501001 1.149378 4.792931
-0.401766 1.181970 5.668491
-0.395718 1.164177 4.995890
-0.481006 1.415087 4.054128
-0.286514 1.186469 5.651485
-0.300141 1.242899 4.789797
-0.361831 1.498360 3.779350
-0.158971 1.081191 5.468954
-0.165505 1.125633 4.460190
-0.222460 1.512996 3.656167
-0.155035 1.054423 -1.018783
-0.054822 0.993817 5.493581
-0.060898 1.103976 4.400813
0.039354 1.428246 6.327492
0.034173 1.240223 5.616768
0.035387 1.284289 3.972201
0.046744 1.696467 3.001170
0.119121 1.005592 5.437987
0.126917 1.071401 4.804485
0.163528 1.380464 3.773728
0.201076 1.697433 2.835718
0.278364 1.318803 7.674971
0.332540 1.074851 4.125374
0.364355 0.900826 5.326930
0.307884 0.761209 4.550342
0.381974 0.944387 3.569241
0.526446 1.301577 2.775957
0.305399 0.755063 -0.973155
0.719946 1.422062 2.628075
0.393560 0.777373 -1.212174
0.728922 1.163657 2.695320
0.703857 1.123643 1.921601
0.606475 0.968181 1.079014
0.645407 0.845339 5.261156
0.499039 0.653630 4.560802
0.678026 0.888063 3.549549
0.736633 0.964825 2.914865
0.709987 0.929924 1.804838
0.694959 0.910241 1.172362
0.364953 0.478007 -1.368161
0.965170 1.066726 5.755858
0.824665 0.756440 1.786453
0.395178 0.362485 -1.623756
0.893374 0.680514 1.869478
0.867911 0.661118 1.028501
0.343030 0.261298 -1.501167
0.943707 0.603230 1.807210
0.698794 0.361722 3.770542
0.995215 0.515161 3.005554
0.967724 0.500930 2.183604
0.934464 0.483713 1.383402
0.939223 0.486177 0.644582
0.454440 0.235235 -1.635350
1.054027 0.428634 5.250901
0.864349 0.351499 3.724593
1.036893 0.421667 2.650831
1.000924 0.407039 2.017396
0.854988 0.347692 1.262755
0.860031 0.349743 -0.312929
0.480980 0.195597 -1.149450
0.612529 0.249093 -2.134408
1.140652 0.346646 2.958216
1.081453 0.328655 1.463691
1.083318 0.329222 0.622564
1.121877 0.141179 5.199028
0.950473 0.119610 3.722170
1.520490 0.191342 2.818128
1.557035 0.195941 -2.248726
1.378971 0.052556 5.532961
1.125755 -0.063682 5.358103
1.518117 -0.085877 2.653846
1.241325 -0.172609 5.530383
0.793902 -0.110394 3.917085
1.011762 -0.235414 5.264575
1.313064 -0.305520 3.600876
1.191422 -0.393086 5.709861
1.152252 -0.492360 5.699519
1.112847 -0.475522 3.980020
0.607483 -0.331563 5.312434
1.445955 -0.789198 3.304062
0.942941 -0.619977 4.798229
1.478369 -0.972016 3.540200
0.523757 -0.423391 5.175964
1.861829 -1.505051 1.756764
0.843162 -0.802269 4.878044
0.432787 -0.494622 5.242330
1.396526 -1.596057 -2.256322
1.304027 -2.181512 1.699655
0.688697 -1.152124 -2.220886
1.007146 -2.046004 -1.984125
0.213329 -2.044135 -1.986084
-1.115037 -1.623109 -2.234998
-1.769359 -0.824829 -1.930520
-1.956632 -0.700675 -0.293403
-1.960370 -0.523794 -0.384975
-2.437819 -0.651365 -1.840768
-1.554427 -0.268962 -2.382039
-1.979690 -0.160934 -0.821656
-2.056234 0.018908 -0.556814
-1.942390 0.354877 -1.878500
-1.904204 0.528150 -1.908935
-2.204078 0.835371 0.602521
-1.966856 0.745461 -0.303316
-1.042409 1.309358 3.590534
-0.753151 1.141495 5.787789
-0.755349 1.144825 4.924766
-0.643960 1.174685 5.602122
-0.606513 1.106376 4.854977
-0.524959 1.197242 5.554152
-0.550234 1.254887 4.914456
-0.467397 1.400146 6.457057
-0.374512 1.121896 5.023140
-0.467148 1.399400 4.108214
-0.322392 1.364609 6.469718
-0.252865 1.070316 4.770206
-0.349405 1.478948 3.812658
-0.171679 1.135186 4.753620
-0.228339 1.509839 3.884537
-0.061925 1.044482 5.496859
-0.065422 1.103467 4.611401
-0.084175 1.419767 3.843323
-0.055765 0.940582 -1.074259
0.033512 1.041293 5.465662
0.036723 1.141057 4.701762
0.046787 1.453780 3.912809
0.247718 7.697193 -2.797043
0.127047 1.038574 5.496859
0.154869 1.266013 3.628655
0.176045 0.817613 5.260557
0.231833 1.076713 4.138452
0.318414 1.478826 3.481592
0.315674 1.044673 5.458568
0.310680 1.028145 3.878769
0.408807 1.352881 2.899554
0.512242 1.266183 5.608772
0.549900 1.359268 1.718623
0.529584 1.029071 5.565551
0.466784 0.907040 3.842212
0.562929 1.093866 1.459847
0.506358 0.983938 0.581445
0.362184 0.703785 -1.738886
0.602304 0.947864 1.869478
0.594326 0.787225 4.668094
0.572866 0.758801 3.901853
0.754299 0.999121 3.078460
0.670864 0.888606 1.661899
0.667907 0.884689 0.695645
0.899849 0.995061 7.644019
0.756054 0.836050 1.952495
0.390593 0.431921 -1.526936
0.040903 0.045231 -2.146273
0.779683 0.715638 0.686164
1.119105 0.849004 5.529340
0.772838 0.586310 4.532671
0.739344 0.560900 3.925254
0.977500 0.741576 3.080483
0.837701 0.635518 1.362608
0.841767 0.638603 0.582208
0.527798 0.400411 -0.892935
0.818608 0.523801 4.754489
0.784415 0.501922 3.956545
0.963561 0.616552 2.982843
0.911080 0.582971 2.038174
0.884763 0.566131 1.331416
0.889990 0.569476 0.582208
0.540092 0.345588 -1.040649
0.859831 0.446436 5.306091
0.884906 0.459455 3.329832
1.018799 0.528974 2.700951
0.991451 0.514775 1.744937
0.812118 0.334358 4.607124
0.858145 0.353308 3.925254
0.972306 0.400309 1.362608
0.526302 0.216684 -1.801713
0.808716 0.248326 3.859745
1.180476 0.362479 2.861218
1.081122 0.224879 5.371972
0.988607 0.205635 3.738141
1.549937 0.322395 2.824648
1.416436 0.178528 5.683806
1.255503 0.044473 5.551066
1.382311 -0.076582 5.732479
1.097080 -0.160776 5.223176
1.039648 -0.152360 4.575826
1.340217 -0.321332 5.691250
0.979742 -0.322537 5.392853
1.064081 -0.350302 4.525378
1.465111 -0.482324 3.789613
1.464633 -0.634188 3.566937
1.319015 -0.571136 -2.132696
1.254098 -0.684599 6.327492
0.842765 -0.460056 5.424197
0.961901 -0.525092 4.739053
0.645556 -0.431635 5.375494
1.205540 -0.806055 -2.348790
1.152337 -0.916853 6.436493
0.923950 -0.735138 4.812697
0.705899 -0.668320 5.507561
0.750684 -0.862014 4.912345
1.585309 -1.820418 1.645297
0.565797 -0.768436 5.382506
-0.368737 -1.410930 -2.059285
-2.229660 -0.375412 -2.086149
-1.960831 0.194309 -2.255292
