-2.145140 -0.930480 1.435164
-2.134810 -0.925316 2.128956
-2.133356 -0.924062 2.762673
-2.086264 -0.902945 3.519122
-1.820760 -0.787303 4.439524
-2.288510 -0.749613 0.357785
-2.182232 -0.714215 0.981050
-2.230330 -0.729350 1.610045
-2.220781 -0.725597 2.268908
-2.245516 -0.732813 3.164891
-2.264429 -0.738361 3.808048
-1.967789 -0.641234 4.328975
-2.289477 -0.527631 1.084434
-2.303700 -0.530114 1.924707
-2.316356 -0.532501 2.476827
-2.302183 -0.528846 2.900374
-2.279237 -0.522681 3.866428
-1.933454 -0.443121 4.250523
-2.349856 -0.312707 0.961287
-2.369678 -0.314414 1.949401
-2.385650 -0.315978 2.535990
-2.372772 -0.313869 2.967968
-2.418831 -0.319095 3.871893
-2.145511 -0.282725 4.280538
-2.582110 -0.110563 0.459967
-2.526130 -0.107441 1.191537
-2.494567 -0.105688 1.611223
-2.526808 -0.106172 2.500037
-2.462754 -0.103077 2.926204
-2.419340 -0.100729 3.494069
-2.299286 -0.095141 4.173260
-2.780108 0.113724 0.284601
-2.696709 0.111143 1.063954
-2.665462 0.110338 1.524505
-2.690614 0.112254 2.348002
-2.712273 0.114040 3.173705
-2.703909 0.114104 3.567962
-2.636070 0.112117 4.429327
-2.977412 0.422749 0.265451
-2.900519 0.412954 1.219517
-2.887877 0.411486 1.503923
-2.863353 0.408949 2.333234
-2.895603 0.414352 3.013952
-2.863452 0.410231 3.433893
-2.821647 0.405235 4.320820
-3.151838 0.718073 1.284417
-3.114337 0.709865 1.541877
-3.132838 0.715039 2.266707
-3.184904 0.728135 3.169856
-3.140277 0.718294 3.449718
-3.089149 0.707854 4.433508
-3.262898 1.067825 0.354771
-3.225997 1.056554 0.913630
-3.197572 1.048006 1.448596
-3.206853 1.051934 2.067888
-3.214136 1.055380 2.807977
-3.222015 1.059126 3.619363
-3.148682 1.364355 0.160495
-2.997380 1.299743 0.823904
-2.998151 1.301076 1.521193
-2.993725 1.300224 2.271576
-2.909677 1.264299 2.698264
-2.927083 1.273159 3.634033
-2.885295 1.564567 0.254638
-2.671918 1.449524 0.735766
-2.681628 1.456108 1.686104
-2.666481 1.448615 2.219508
-2.638756 1.434300 2.773277
-2.579355 1.402469 3.125540
-2.366757 1.600047 1.274044
-2.345049 1.586048 1.775688
-2.416169 1.634932 2.331388
-2.435327 1.649084 3.177028
-2.368896 1.604667 3.602805
-2.248467 1.524143 4.444897
-2.202547 1.784888 0.490793
-2.132847 1.729055 0.958673
-2.162846 1.754637 1.847486
-2.142369 1.738546 2.221655
-2.108674 1.712170 2.929324
-2.142105 1.740250 3.596892
-2.077440 1.688706 4.344561
-2.070076 2.004237 0.111762
-1.903718 1.844631 1.117591
-1.891118 1.832711 1.317782
-1.884018 1.826928 2.083090
-1.905850 1.849160 2.812726
-1.912414 1.856416 3.423644
-1.940626 1.885194 4.367106
-1.759332 2.060604 1.340607
-1.696203 1.987545 1.901046
-1.716384 2.012459 2.691484
-1.723045 2.021303 3.337071
-1.508906 2.126464 1.292804
-1.524012 2.148733 1.838907
-1.543069 2.176531 2.349848
-1.533315 2.164026 3.048820
-1.547497 2.185702 3.966002
-1.360661 1.922411 4.388651
-1.307107 2.268600 1.535573
-1.315854 2.284484 1.873563
-1.336609 2.322479 2.801868
-1.334986 2.320705 3.299849
-1.109159 2.390104 1.352440
-1.115918 2.406607 2.133414
-1.117365 2.410720 2.533557
-1.108530 2.393179 3.155189
-0.887905 2.515648 1.524505
-0.887071 2.514654 1.958655
-0.889478 2.523015 2.445044
-0.891372 2.531283 3.360412
-0.706313 2.641673 1.339550
-0.707846 2.650091 1.979941
-0.724271 2.715380 2.859809
-0.724279 2.717684 3.390327
-0.480133 2.838251 1.729893
-0.482640 2.857761 2.410574
-0.482793 2.861046 2.756300
-0.476293 2.827059 3.428000
-0.226090 2.960023 1.535832
-0.232690 3.059365 2.337405
-0.231801 3.056783 2.905655
-0.231463 3.065105 3.699760
-0.229586 3.047595 4.162091
0.056078 3.342703 0.864276
0.056947 3.327413 1.705239
0.057042 3.288948 2.278243
0.058534 3.321952 2.967354
0.059605 3.326607 3.712825
0.390150 3.497123 0.884679
0.389945 3.489233 1.357355
0.397670 3.545846 2.317035
0.400018 3.560519 2.798354
0.397316 3.530598 3.259824
0.737538 3.766735 1.401445
0.742080 3.786707 1.793116
0.744932 3.794601 2.604704
0.748004 3.805023 3.242327
0.765400 3.886008 4.134992
1.203422 4.059937 1.309078
1.207435 4.069443 1.960359
1.204979 4.057965 2.482334
1.209136 4.067940 3.136926
1.197129 4.020205 4.363635
1.486222 3.749494 1.284616
1.479202 3.729291 1.842351
1.468021 3.699850 2.127572
1.472729 3.707391 3.104728
1.465215 3.687302 3.375555
1.462001 3.675298 4.279573
1.699159 3.334606 0.836427
1.679679 3.293873 1.592582
1.706678 3.343911 2.454414
1.704481 3.337944 2.952049
1.703344 3.334228 3.400355
1.882229 2.996582 0.681952
1.886668 3.001305 1.549856
1.898201 3.018644 1.920043
1.917514 3.047186 2.712094
1.928089 3.061508 3.618472
2.164019 2.812655 1.043862
2.160466 2.806985 1.490941
2.177426 2.827880 1.970502
2.193260 2.846857 2.636477
2.192070 2.843562 3.374873
2.350859 2.550747 0.886111
2.308220 2.502767 1.734949
2.319082 2.513304 2.345175
2.372421 2.569825 2.959153
2.372302 2.568709 3.436340
2.348663 2.541632 4.168529
2.536089 2.326155 0.793942
2.500930 2.292585 1.506636
2.452428 2.247076 2.088165
2.492784 2.283316 2.484346
2.512670 2.300017 3.300947
2.615555 1.991914 1.401176
2.638792 2.008713 1.935577
2.642079 2.010004 2.659922
2.694707 2.048880 3.337435
2.888077 1.804382 1.226490
2.894586 1.807404 1.870201
2.896073 1.807179 2.583787
2.899461 1.808357 3.163116
2.820008 1.758014 3.678921
3.098595 1.567967 1.012656
3.000920 1.517949 1.406269
2.953114 1.492589 2.200100
2.993290 1.512048 2.759424
2.977517 1.503213 3.342783
3.206344 1.259465 0.920601
3.190002 1.252718 1.141024
3.197612 1.254686 1.826467
3.173599 1.243813 2.814177
3.135402 1.228336 3.168193
3.355622 0.988772 1.028695
3.367034 0.990960 1.822051
3.363507 0.989435 2.152280
3.318111 0.975132 2.809656
3.341191 0.980862 3.531883
3.508126 0.706877 1.177538
3.502320 0.705084 1.599056
3.481940 0.699768 2.428309
3.526170 0.707518 3.195762
3.579667 0.717208 3.887008
3.414241 0.683737 4.139893
3.679341 0.378261 1.617705
3.698268 0.379161 2.305797
3.669224 0.375791 2.569317
3.746616 0.382139 3.592608
3.738130 0.380757 3.932983
3.904247 0.058539 1.198406
3.917911 0.057539 1.948183
3.886621 0.056137 2.544324
3.878467 0.055290 3.006676
3.895314 0.054226 3.830701
4.244677 -0.324631 1.250443
4.285858 -0.329149 2.014594
4.301267 -0.331293 2.550049
4.247821 -0.327600 2.794875
4.238844 -0.328408 3.652446
4.196050 -0.715462 1.745011
4.189398 -0.715461 2.381612
4.105058 -0.701361 2.562715
4.049795 -0.693143 3.284671
3.735183 -0.990798 0.708090
3.722080 -0.988874 1.659811
3.696156 -0.982609 2.046307
3.653455 -0.971924 2.469123
3.614507 -0.962594 3.130114
3.355612 -1.227927 1.026201
3.365994 -1.232952 1.817636
3.401520 -1.247322 2.684718
3.392449 -1.244667 3.117616
3.370343 -1.237288 3.596180
3.171033 -1.501086 0.370764
3.139165 -1.487037 1.037963
3.082814 -1.460846 1.370197
3.075592 -1.458569 2.125412
3.121701 -1.481441 2.775895
3.126937 -1.484804 3.346290
3.029371 -1.765370 -0.067413
2.862713 -1.669428 0.695401
2.857698 -1.667446 1.306772
2.831277 -1.653274 2.125473
2.767749 -1.616711 2.489806
2.706633 -1.581892 3.105773
2.524864 -1.795532 1.033463
2.513582 -1.788725 1.838530
2.498467 -1.778689 2.320313
2.441297 -1.738944 2.981109
2.438396 -1.737870 3.665728
2.334486 -1.664605 4.257230
2.302633 -1.989126 0.855514
2.307829 -1.994923 1.669002
2.234726 -1.932465 2.147613
2.220060 -1.921281 3.125540
2.210453 -1.913851 3.708765
2.058960 -1.783240 4.127116
2.148142 -2.214119 0.486907
2.108380 -2.174354 1.189975
2.036282 -2.100803 1.675646
1.983677 -2.047777 2.448811
1.987387 -2.052645 3.089936
1.958710 -2.023552 3.424788
1.915443 -1.980287 4.360282
1.973473 -2.463789 0.187485
1.836797 -2.294102 0.695205
1.820746 -2.275441 1.443809
1.771346 -2.215147 2.250841
1.742447 -2.180183 2.922420
1.740015 -2.177963 3.392994
1.706798 -2.137449 4.020265
1.744803 -2.630515 0.161919
1.581035 -2.384409 0.550623
1.542369 -2.328029 1.518508
1.521899 -2.298445 2.187132
1.510169 -2.281491 2.579414
1.514423 -2.289174 3.223024
1.306730 -2.437860 1.485194
1.304770 -2.435143 1.892093
1.304927 -2.437114 2.620532
1.310905 -2.449868 3.306755
1.109234 -2.550465 1.259822
1.105831 -2.543687 1.640489
1.108140 -2.551429 2.523613
1.105927 -2.547762 3.045499
1.100321 -2.536462 3.640040
1.012768 -2.336687 4.495272
0.905232 -2.750186 0.945540
0.879151 -2.672670 1.431158
0.887053 -2.699923 2.328318
0.901048 -2.745587 3.164862
0.894723 -2.728202 3.688817
0.841693 -2.568012 4.156284
0.653640 -2.832028 1.263437
0.655246 -2.842576 1.960432
0.657500 -2.855114 2.494514
0.648380 -2.817668 2.921810
0.638112 -2.776999 3.717540
0.589411 -2.568069 4.403335
0.415391 -3.058284 1.376009
0.418590 -3.086898 1.922405
0.414516 -3.063303 2.627868
0.404950 -2.995764 2.987305
0.405777 -3.009237 3.808301
0.384494 -2.857516 4.553048
0.155673 -3.295851 1.069281
0.155924 -3.312923 1.484841
0.156169 -3.343924 2.384716
0.153563 -3.308972 3.122398
0.148524 -3.214376 3.639647
0.140089 -3.042886 4.085134
-0.175171 -3.528737 0.345207
-0.171869 -3.443450 1.013474
-0.172075 -3.435547 1.445100
-0.172098 -3.419417 2.047666
-0.176205 -3.473839 3.020581
-0.176146 -3.452861 3.748642
-0.170659 -3.338134 4.037911
-0.475176 -3.432952 0.767989
-0.476063 -3.432364 1.452372
-0.474083 -3.412612 1.995360
-0.475503 -3.415726 2.699922
-0.469485 -3.369463 3.010961
-0.724257 -3.140711 1.029339
-0.725535 -3.142628 1.659701
-0.724376 -3.133894 2.309237
-0.715459 -3.090214 3.222575
-0.685455 -2.958692 3.600056
-0.652063 -2.809843 4.561644
-0.939201 -2.834704 0.565579
-0.901966 -2.721386 0.825883
-0.899861 -2.711560 1.791492
-0.899703 -2.709753 2.163030
-0.899654 -2.706484 3.038310
-0.900839 -2.707514 3.751961
-0.850178 -2.553619 4.263342
-1.072854 -2.472430 0.942891
-1.076881 -2.480968 1.219582
-1.098074 -2.527194 2.169869
-1.068304 -2.457805 2.505613
-1.058457 -2.433060 3.311095
-1.232618 -2.244555 1.372999
-1.216083 -2.213800 1.688214
-1.233411 -2.243493 2.576251
-1.231016 -2.238104 3.075750
-1.398357 -2.081133 0.269677
-1.382088 -2.055389 1.149869
-1.365473 -2.029902 1.605029
-1.374482 -2.042148 2.268798
-1.380972 -2.050520 3.004591
-1.398107 -2.074649 3.758488
-1.252211 -1.857114 4.467020
-1.591771 -1.936772 0.226182
-1.554746 -1.890511 1.028762
-1.562271 -1.898444 1.831594
-1.545894 -1.877981 2.209537
-1.558604 -1.892156 3.050507
-1.565008 -1.899071 3.622060
-1.411952 -1.712451 4.317849
-1.710192 -1.767578 0.461773
-1.646725 -1.701448 0.865183
-1.628224 -1.681515 1.487633
-1.652046 -1.705313 2.090705
-1.684986 -1.738090 2.991829
-1.685118 -1.737561 3.485347
-1.547331 -1.594473 4.335403
-1.937424 -1.668847 0.243198
-1.778650 -1.531163 1.005752
-1.778394 -1.530223 1.601302
-1.760927 -1.514639 2.067714
-1.758430 -1.511749 2.692676
-1.711382 -1.470539 3.361348
-1.592969 -1.368157 3.975657
-1.917260 -1.370178 0.157324
-1.761565 -1.258300 0.747493
-1.762755 -1.258378 1.495743
-1.885754 -1.345240 2.340687
-1.908937 -1.361060 2.981328
-1.801752 -1.283951 3.650226
-1.659130 -1.181565 4.459224
-2.210351 -1.285566 0.234513
-2.027917 -1.178691 0.962037
-2.018153 -1.172619 1.338961
-2.007668 -1.165784 2.050215
-2.004388 -1.163230 2.675175
-1.938429 -1.124181 3.451678
-1.812523 -1.050542 4.137367
-2.339222 -1.091857 0.147541
-2.076076 -0.968400 0.788387
-2.097388 -0.977679 1.453785
-2.090268 -0.973630 2.191894
-2.078355 -0.967606 2.677252
-2.029175 -0.944001 3.425361
-1.908058 -0.887148 4.010896
-2.149809 -0.767459 1.306006
-2.138674 -0.763212 1.596280
-2.176863 -0.775885 2.596410
-2.137388 -0.761461 2.979508
-2.090156 -0.743790 3.916505
-1.710910 -0.608577 4.317713
-2.333348 -0.603603 0.506124
-2.305836 -0.595747 1.275744
-2.352132 -0.607237 1.754547
-2.343958 -0.604503 2.394476
-2.305691 -0.593962 3.101305
-2.263842 -0.582679 3.644889
-1.983885 -0.510073 4.358766
-2.400825 -0.404242 0.470854
-2.322961 -0.390406 1.250518
-2.349384 -0.394319 1.809688
-2.350920 -0.394180 2.230450
-2.351178 -0.393629 2.863191
-2.277820 -0.380476 3.834411
-2.052045 -0.342475 4.219894
-2.549708 -0.182001 0.052114
-2.383940 -0.169514 0.751009
-2.380309 -0.168659 1.389269
-2.362843 -0.166854 2.003344
-2.414089 -0.169810 2.701760
-2.424497 -0.169934 3.343151
-2.338868 -0.163065 4.309973
-2.681951 0.042375 0.268198
-2.549044 0.041085 1.077672
-2.512356 0.040828 1.418642
-2.474901 0.040879 2.101608
-2.469390 0.041632 2.978464
-2.490907 0.042446 3.442411
-2.425982 0.042011 4.165868
-2.703249 0.289035 0.890301
-2.701394 0.289499 1.504823
-2.698300 0.289606 1.912364
-2.698360 0.290367 2.616016
-2.686564 0.289822 3.297263
-2.978161 0.597673 0.633116
-2.971971 0.597202 1.258427
-2.990155 0.601876 2.080947
-2.940203 0.592229 2.420075
-2.942139 0.593654 3.274794
-2.928723 0.591603 3.822895
-3.337608 0.992739 0.244569
-3.253942 0.968833 0.930544
-3.230699 0.962826 1.575561
-3.216347 0.959374 2.162703
-3.192835 0.952836 2.505286
-3.198465 0.955718 3.368202
-3.255278 1.302719 0.084267
-3.149026 1.261297 0.829055
-3.117850 1.249514 1.313140
-3.139312 1.259385 2.177887
-3.146598 1.263356 2.892569
-3.102541 1.246074 3.179203
-3.012543 1.542038 0.439945
-2.861456 1.465120 0.731662
-2.797907 1.433715 1.535818
-2.752746 1.411180 1.975176
-2.749821 1.410570 2.619328
-2.741345 1.407180 3.318275
-2.700589 1.686720 0.425752
-2.558209 1.598327 0.804836
-2.492620 1.558236 1.451246
-2.498671 1.563325 2.398180
-2.480626 1.552518 2.754121
-2.445397 1.531284 3.365133
-2.436085 1.526461 4.124938
-2.395920 1.816655 0.196948
-2.231117 1.692970 1.112316
-2.186917 1.660066 1.581348
-2.207016 1.675941 2.030146
-2.250263 1.710188 3.032095
-2.258622 1.717356 3.614251
-2.273725 1.729637 4.179809
-2.107534 1.932734 0.464595
-2.021443 1.854382 0.872329
-2.004963 1.840323 1.599877
-2.013776 1.849325 2.223405
-2.005431 1.842799 3.007093
-2.023688 1.860621 3.720606
-1.954760 1.798146 4.373929
-1.796105 2.006172 1.523306
-1.761309 1.967969 1.951532
-1.784588 1.994789 2.462351
-1.842574 2.061162 3.412920
-1.633667 2.169295 1.478896
-1.577918 2.096280 2.074422
-1.576934 2.096090 2.728267
-1.565261 2.081151 3.070945
-1.589741 2.114782 3.697636
-1.412607 1.880095 4.362428
-1.383940 2.227412 1.014464
-1.380887 2.223481 1.518235
-1.387964 2.236205 2.195749
-1.417406 2.285067 2.905677
-1.429002 2.305203 3.619826
-1.377787 2.223434 4.070687
-1.177118 2.366895 0.883745
-1.163723 2.341283 1.457549
-1.180593 2.376853 2.150732
-1.202826 2.423193 2.808313
-1.183236 2.385098 3.397675
-0.960046 2.466817 1.005006
-0.957289 2.461100 1.482392
-0.973824 2.505966 2.287458
-0.973927 2.507221 2.626722
-0.961684 2.477784 3.354388
-0.742629 2.587802 0.839112
-0.739892 2.580157 1.333012
-0.733856 2.561356 1.924031
-0.731774 2.556493 2.559530
-0.736732 2.576743 3.325806
-0.534529 2.687165 1.460460
-0.539176 2.713286 1.952496
-0.553566 2.789885 2.674597
-0.548785 2.769060 3.249883
-0.301648 2.888417 1.203303
-0.302983 2.911399 2.114979
-0.303255 2.918952 2.554596
-0.297446 2.869147 3.113289
-0.040620 3.150137 1.663687
-0.040744 3.197855 2.045483
-0.039017 3.104729 2.489225
-0.037717 3.091282 3.412228
-0.037183 3.089005 3.827898
0.263514 3.370814 1.244400
0.264096 3.364064 2.059426
0.263713 3.350675 2.554078
0.263242 3.333912 3.187674
0.264523 3.335334 4.063323
0.606892 3.561393 1.394955
0.608885 3.562726 2.583966
0.621628 3.629001 3.517567
0.616342 3.595190 3.861845
1.035732 3.836897 1.619836
1.042630 3.857892 2.343248
1.043020 3.855833 2.903208
1.038818 3.838319 3.223467
1.456772 3.981626 1.424260
1.449065 3.958214 1.887887
1.427680 3.893454 3.172027
1.417182 3.861968 3.761370
1.688082 3.589967 1.478736
1.682586 3.575994 2.079489
1.662844 3.532660 2.450760
1.645060 3.492586 3.075773
1.643755 3.487497 3.708875
1.857939 3.145903 1.174676
1.873205 3.169994 1.769857
1.887236 3.191574 2.500266
1.880833 3.179530 2.914967
1.907789 3.222360 3.832665
2.086788 2.897893 0.958931
2.079340 2.886761 1.279451
2.089769 2.899339 2.046182
2.106397 2.920724 2.720495
2.111138 2.925845 3.304968
2.348012 2.680304 0.664578
2.343099 2.673499 1.212147
2.355048 2.685374 2.012548
2.378153 2.710038 2.770896
2.352159 2.679624 3.139474
2.475809 2.408489 1.190751
2.438203 2.370997 1.667310
2.436827 2.368284 2.389344
2.500444 2.428717 3.096480
2.496178 2.423778 3.506583
2.373449 2.303459 4.154633
2.552195 2.060006 1.214455
2.562208 2.066846 1.945615
2.634823 2.124381 2.535109
2.663709 2.146936 2.949401
2.617278 2.108451 3.571468
2.740215 1.813877 1.367231
2.749550 1.819017 2.021975
2.748946 1.818077 2.363092
2.734264 1.807334 3.023044
2.770148 1.829720 3.859948
2.541238 1.677986 4.268032
2.946888 1.590343 1.042155
2.939872 1.585922 1.458233
2.945801 1.588263 2.018732
2.925080 1.575660 2.967354
2.941635 1.583929 3.393618
3.135292 1.346738 0.617097
3.142284 1.348356 1.539225
3.088905 1.325001 1.847815
3.110945 1.333009 2.824897
3.195823 1.368371 3.481279
3.274898 1.049311 0.692606
3.330445 1.065779 1.586082
3.341050 1.068871 1.788348
3.260623 1.041839 2.693645
3.230723 1.031629 3.157197
3.395131 0.771566 1.257259
3.410832 0.774631 1.602940
3.406255 0.772112 2.628142
3.402202 0.770484 3.121776
3.443778 0.779010 3.731204
3.539981 0.474100 0.975749
3.581382 0.478312 1.874950
3.587437 0.478448 2.330081
3.607510 0.479946 3.123488
3.609213 0.479470 3.598775
3.703402 0.143329 1.239747
3.737351 0.143070 2.270473
3.727968 0.142405 2.473141
3.753531 0.142149 3.280605
4.004565 -0.203842 1.318831
3.976883 -0.203156 1.760901
3.964993 -0.203974 2.637709
4.042432 -0.209259 3.416967
4.024805 -0.209132 3.897981
4.265450 -0.616867 1.314034
4.283106 -0.620078 1.675061
4.294611 -0.623346 2.556138
4.239331 -0.615707 2.776139
4.004934 -0.950042 1.454937
3.931091 -0.933901 2.264885
3.916425 -0.931604 2.967119
3.681435 -1.235284 0.349617
3.574535 -1.200379 0.944360
3.530903 -1.186840 1.641491
3.534729 -1.188892 2.119915
3.524036 -1.186099 2.625820
3.527235 -1.188450 3.428215
3.393165 -1.494110 0.293020
3.261433 -1.436729 0.689811
3.236156 -1.426663 1.373095
3.250663 -1.434213 2.106738
3.283247 -1.449795 2.865593
3.261416 -1.440954 3.377595
3.125302 -1.699293 0.277626
3.008231 -1.636891 1.073436
3.006544 -1.636825 1.615274
2.992827 -1.630245 2.184590
2.937497 -1.600835 2.666261
2.924522 -1.595072 3.531956
2.731979 -1.831223 0.695960
2.713220 -1.819912 1.495718
2.683359 -1.800932 2.171388
2.654517 -1.782377 2.696112
2.591020 -1.740513 3.219175
2.387605 -1.943086 1.179537
2.378481 -1.936889 1.959658
2.360984 -1.923271 2.364923
2.297952 -1.872722 2.897738
2.292241 -1.869397 3.783037
2.123855 -1.732689 4.256681
2.239507 -2.189274 0.204693
2.105533 -2.059515 0.944041
2.141959 -2.096247 1.603140
2.129681 -2.085157 2.163050
2.074350 -2.031969 2.782074
2.020665 -1.980192 3.310168
2.031022 -1.991851 4.277789
2.081367 -2.439104 0.136135
1.889657 -2.215257 0.592695
1.887897 -2.214541 1.349334
1.857572 -2.179950 1.911931
1.822465 -2.139875 2.573326
1.824724 -2.143550 3.172356
1.701838 -2.420510 1.321467
1.670141 -2.376272 1.745705
1.624806 -2.313147 2.459357
1.608590 -2.291608 3.269681
1.616900 -2.304568 3.852648
1.437685 -2.049937 4.368301
1.467196 -2.541172 0.446326
1.385250 -2.400416 0.983798
1.371988 -2.378750 1.589982
1.372193 -2.380890 2.413383
1.373150 -2.383284 2.752109
1.388910 -2.412942 3.803938
1.324797 -2.302323 4.188760
1.277373 -2.778882 0.376164
1.177083 -2.562157 0.921948
1.141570 -2.485998 1.365461
1.157137 -2.521783 2.081905
1.182578 -2.579389 2.883384
1.180132 -2.575284 3.344611
1.172088 -2.559600 4.053900
0.955032 -2.636911 1.215738
0.947918 -2.619335 1.856110
0.950882 -2.629239 2.383722
0.947545 -2.622503 3.157610
0.702111 -2.783961 0.972090
0.690375 -2.740703 1.689574
0.685419 -2.723383 2.209536
0.688747 -2.740325 3.023482
0.690529 -2.750036 3.597032
0.656181 -2.616234 4.306583
0.484707 -2.932370 1.003299
0.476825 -2.889900 1.735738
0.477843 -2.900021 2.286638
0.483684 -2.941167 3.069182
0.480596 -2.928074 3.860211
0.443203 -2.702563 4.239410
0.231005 -3.176769 1.346078
0.230076 -3.170728 1.730489
0.227224 -3.143924 2.451170
0.215117 -2.983931 2.921146
0.217082 -3.025589 3.782636
0.201070 -2.809284 4.255304
-0.057576 -3.656112 0.159329
-0.053026 -3.335317 0.533860
-0.053892 -3.330364 1.237929
-0.055468 -3.367384 1.957864
-0.057097 -3.401343 2.738089
-0.056943 -3.340480 3.393618
-0.056599 -3.269842 4.064561
-0.050850 -2.924463 4.310645
-0.409757 -3.683432 0.008372
-0.386320 -3.465320 0.590308
-0.387576 -3.466259 1.400612
-0.391359 -3.489516 2.228114
-0.389464 -3.468020 2.594419
-0.387576 -3.444311 3.149601
-0.680454 -3.375711 0.878383
-0.666025 -3.299994 1.482456
-0.668108 -3.306472 2.042500
-0.667107 -3.297750 2.596407
-0.663863 -3.276238 3.410561
-0.907064 -3.066242 1.013143
-0.891066 -3.010276 1.442031
-0.869295 -2.933412 2.217743
-0.851760 -2.872296 2.687629
-0.845087 -2.847617 3.217384
-1.062288 -2.636143 1.507501
-1.053695 -2.613428 1.975260
-1.051392 -2.605970 2.564709
-1.049655 -2.599489 3.304156
-1.208063 -2.371840 1.394663
-1.206643 -2.368092 1.811489
-1.196643 -2.346761 2.561539
-1.194708 -2.341821 3.068542
-1.373272 -2.163617 0.642701
-1.354675 -2.133367 1.156763
-1.357289 -2.136322 1.783840
-1.344216 -2.115011 2.186968
-1.347747 -2.119288 2.886852
-1.369328 -2.151632 3.743951
-1.238959 -1.946049 4.217032
-1.573299 -2.047490 0.251686
-1.511673 -1.965732 1.228232
-1.490551 -1.937732 1.570166
-1.509786 -1.961338 2.451702
-1.534549 -1.992324 3.184937
-1.548590 -2.009489 3.842487
-1.384913 -1.796754 4.115140
-1.703570 -1.838524 0.139190
-1.607819 -1.734354 0.751595
-1.652555 -1.781195 1.763268
-1.665135 -1.793833 2.418756
-1.630180 -1.755779 2.712594
-1.663067 -1.790145 3.465206
-1.526013 -1.641843 4.100773
-1.919019 -1.727291 0.216971
-1.744036 -1.568864 0.970780
-1.765203 -1.587053 1.652470
-1.759247 -1.581329 1.950920
-1.773503 -1.593005 2.863191
-1.765342 -1.585173 3.269738
-1.653187 -1.483485 4.139046
-1.877953 -1.391788 1.417673
-1.881575 -1.393845 1.969929
-1.868414 -1.383552 2.454437
-1.855282 -1.372807 3.373656
-2.065660 -1.289580 0.505729
-2.034667 -1.269633 1.047829
-2.062107 -1.285943 1.771988
-1.997125 -1.245013 2.153525
-1.937937 -1.207104 3.128464
-1.862201 -1.159364 3.705755
-1.647515 -1.025378 4.112155
-2.264820 -1.135551 0.391155
-2.077432 -1.040922 1.059032
-2.108905 -1.056413 1.329178
-2.100865 -1.051605 2.092333
-2.115837 -1.058520 2.653546
-2.042941 -1.021336 3.385029
-1.876483 -0.937622 3.958037
-2.402622 -0.943532 0.078110
-2.175610 -0.853850 0.621005
-2.182651 -0.855685 1.566329
-2.194589 -0.859734 2.205968
-2.147971 -0.841149 2.543891
-2.162468 -0.845898 3.504929
-2.061747 -0.805809 4.273957
-2.190026 -0.630275 1.209637
-2.200954 -0.632736 1.946720
-2.188567 -0.628682 2.484537
-2.191278 -0.628902 3.093422
-2.270981 -0.442389 1.445033
-2.272949 -0.442305 1.953959
-2.270662 -0.441248 2.622667
-2.307712 -0.447598 3.537183
-2.322974 -0.242232 1.373945
-2.314049 -0.240998 1.707538
-2.322735 -0.241101 2.585648
-2.375415 -0.245790 3.418210
-2.532878 -0.019817 0.339003
-2.475545 -0.018616 1.115039
-2.456570 -0.017819 1.796744
-2.405012 -0.017091 2.176354
-2.466732 -0.016536 3.207327
-2.512442 -0.016422 3.633823
-2.289090 -0.014422 4.272845
-2.609356 0.209353 0.858434
-2.612752 0.210388 1.596252
-2.576551 0.207730 1.850474
-2.543625 0.205696 2.472022
-2.571169 0.208790 3.327553
-2.739906 0.481702 1.277071
-2.743394 0.482963 1.856110
-2.745353 0.483771 2.271643
-2.772148 0.489508 3.172356
-2.793539 0.494024 3.823795
-2.638908 0.467031 4.176838
-2.968696 0.800229 1.077011
-2.970644 0.801538 1.693305
-3.006184 0.812295 2.600178
-2.930762 0.792227 2.856637
-2.952931 0.799388 3.788192
-2.853866 0.773240 4.358719
-3.311982 1.226903 0.218914
-3.256591 1.207598 1.029527
-3.255382 1.207998 1.595799
-3.243293 1.204419 2.206393
-3.172056 1.178421 2.526649
-3.151290 1.171895 3.357042
-3.030555 1.455539 0.601160
-3.036342 1.459723 1.533242
-3.025940 1.455104 1.788548
-2.963096 1.426043 2.585686
-2.899518 1.396286 3.183425
-2.908973 1.401917 3.940297
-2.672918 1.288977 4.610926
-2.647327 1.584431 1.350385
-2.618121 1.567425 1.686104
-2.655957 1.591519 2.687642
-2.619159 1.569968 3.044792
-2.610200 1.565749 3.868177
-2.456484 1.474237 4.424062
-2.486054 1.782533 0.427456
-2.417763 1.734556 1.106161
-2.357663 1.692280 1.702750
-2.346309 1.684944 2.281667
-2.384882 1.713867 3.134122
-2.354934 1.692858 3.502636
-2.268077 1.631184 4.082946
-2.272634 1.971870 0.411013
-2.088111 1.812242 0.742215
-2.046972 1.777433 1.375182
-2.090586 1.816745 2.368347
-2.091905 1.818381 2.706811
-2.063856 1.794940 3.372419
-2.105847 1.832748 4.258641
-1.865393 1.938834 0.769921
-1.881468 1.956598 1.452969
-1.894161 1.970363 1.815854
-1.906707 1.984432 2.465180
-1.909702 1.988922 3.343881
-1.282793 -0.010036 0.000000
-1.423091 -0.011134 0.000000
-2.531200 -0.019804 0.000000
-1.871389 -0.014642 0.000000
-0.904656 -0.007078 0.000000
-0.656045 -0.005133 0.000000
-0.301182 -0.002356 0.000000
-2.369573 -0.018539 0.000000
-1.321045 -0.010336 0.000000
-0.164149 -0.001284 0.000000
-2.178018 -0.155470 0.000000
-1.448438 -0.103391 0.000000
-2.169581 -0.154867 0.000000
-0.350528 -0.025021 0.000000
-2.278640 -0.162652 0.000000
-2.162798 -0.154383 0.000000
-1.057314 -0.075472 0.000000
-1.699732 -0.121329 0.000000
-0.946056 -0.067531 0.000000
-0.687830 -0.049098 0.000000
-1.715727 -0.136554 0.000000
-1.522889 -0.121206 0.000000
-0.961976 -0.076563 0.000000
-1.538615 -0.122458 0.000000
-1.766971 -0.140632 0.000000
-1.992457 -0.158579 0.000000
-1.212332 -0.096489 0.000000
-2.493109 -0.198425 0.000000
-0.641524 -0.051059 0.000000
-1.301313 -0.103571 0.000000
-0.683031 -0.135775 0.000000
-1.185279 -0.235614 0.000000
-1.317551 -0.261908 0.000000
-1.209990 -0.240526 0.000000
-0.261748 -0.052031 0.000000
-0.394869 -0.078494 0.000000
-0.743900 -0.147875 0.000000
-1.985683 -0.394721 0.000000
-1.373937 -0.273116 0.000000
-1.492713 -0.296727 0.000000
-1.562255 -0.511725 0.000000
-2.224623 -0.728686 0.000000
-1.017443 -0.333269 0.000000
-0.886329 -0.290321 0.000000
-0.233357 -0.076437 0.000000
-0.423699 -0.138785 0.000000
-1.171242 -0.383646 0.000000
-1.321095 -0.432731 0.000000
-0.535615 -0.175443 0.000000
-1.015827 -0.332739 0.000000
-1.551589 -0.609323 0.000000
-2.092494 -0.821742 0.000000
-0.566393 -0.222428 0.000000
-0.067281 -0.026422 0.000000
-0.866604 -0.340323 0.000000
-1.755110 -0.689248 0.000000
-1.183300 -0.464693 0.000000
-1.686956 -0.662483 0.000000
-0.261705 -0.102774 0.000000
-0.503323 -0.197659 0.000000
-0.467643 -0.218277 0.000000
-0.363326 -0.169586 0.000000
-2.175772 -1.015565 0.000000
-1.822073 -0.850472 0.000000
-1.687327 -0.787578 0.000000
-1.831110 -0.854690 0.000000
-0.577069 -0.269353 0.000000
-0.018519 -0.008644 0.000000
-1.906402 -0.889833 0.000000
-0.004729 -0.002207 0.000000
-2.141646 -1.026758 0.000000
-1.917191 -0.919149 0.000000
-0.401761 -0.192614 0.000000
-0.313191 -0.150151 0.000000
-1.272188 -0.609919 0.000000
-0.408393 -0.195794 0.000000
-0.406532 -0.194902 0.000000
-1.185147 -0.568189 0.000000
-0.364190 -0.174602 0.000000
-1.162530 -0.557346 0.000000
-0.804783 -0.403508 0.000000
-1.690895 -0.847793 0.000000
-0.188873 -0.094699 0.000000
-1.634826 -0.819681 0.000000
-0.124761 -0.062554 0.000000
-0.180819 -0.090660 0.000000
-1.825902 -0.915483 0.000000
-1.212017 -0.607689 0.000000
-0.622969 -0.312349 0.000000
-1.463344 -0.733701 0.000000
-2.100828 -1.147182 0.000000
-1.528330 -0.834563 0.000000
-1.393053 -0.760693 0.000000
-0.787494 -0.430021 0.000000
-1.121354 -0.612329 0.000000
-1.924023 -1.050636 0.000000
-0.117553 -0.064191 0.000000
-1.802293 -0.984164 0.000000
-0.046316 -0.025291 0.000000
-2.034519 -1.110974 0.000000
-1.932456 -1.123939 0.000000
-1.866091 -1.085341 0.000000
-0.261585 -0.152141 0.000000
-1.323304 -0.769649 0.000000
-0.705592 -0.410380 0.000000
-1.774970 -1.032343 0.000000
-0.958285 -0.557350 0.000000
-0.287050 -0.166952 0.000000
-1.770699 -1.029859 0.000000
-2.138346 -1.243687 0.000000
-0.001057 -0.000618 0.000000
-1.400319 -0.818901 0.000000
-0.547912 -0.320417 0.000000
-1.699939 -0.994118 0.000000
-0.283676 -0.165892 0.000000
-2.160216 -1.263286 0.000000
-0.624836 -0.365402 0.000000
-0.062512 -0.036557 0.000000
-0.181339 -0.106047 0.000000
-1.767685 -1.033736 0.000000
-0.205392 -0.129343 0.000000
-0.694280 -0.437215 0.000000
-0.390373 -0.245833 0.000000
-1.591585 -1.002283 0.000000
-1.252096 -0.788494 0.000000
-1.291151 -0.813088 0.000000
-1.394685 -0.878287 0.000000
-0.632949 -0.398592 0.000000
-0.074880 -0.047155 0.000000
-0.417048 -0.262631 0.000000
-1.791784 -1.190173 0.000000
-1.192833 -0.792326 0.000000
-0.442857 -0.294163 0.000000
-1.830040 -1.215583 0.000000
-0.780528 -0.518457 0.000000
-1.437499 -0.954843 0.000000
-1.456971 -0.967777 0.000000
-0.953653 -0.633453 0.000000
-1.917715 -1.273821 0.000000
-1.993218 -1.323973 0.000000
-1.318222 -0.901470 0.000000
-1.078956 -0.737848 0.000000
-1.238088 -0.846670 0.000000
-0.153302 -0.104836 0.000000
-0.970090 -0.663399 0.000000
-1.488624 -1.018000 0.000000
-1.554465 -1.063026 0.000000
-1.156588 -0.790936 0.000000
-1.927287 -1.317982 0.000000
-0.654348 -0.447478 0.000000
-0.689620 -0.492840 0.000000
-1.472329 -1.052206 0.000000
-1.599805 -1.143307 0.000000
-1.187897 -0.848936 0.000000
-1.650893 -1.179817 0.000000
-0.318223 -0.227419 0.000000
-1.274650 -0.910934 0.000000
-1.319342 -0.942873 0.000000
-1.697557 -1.213166 0.000000
-1.583976 -1.131995 0.000000
-1.659900 -1.335186 0.000000
-1.682625 -1.353465 0.000000
-1.754076 -1.410939 0.000000
-0.113139 -0.091007 0.000000
-0.482079 -0.387773 0.000000
-0.636903 -0.512310 0.000000
-1.729236 -1.390958 0.000000
-0.160137 -0.128810 0.000000
-0.001164 -0.000936 0.000000
-1.658770 -1.334277 0.000000
-1.284813 -1.057533 0.000000
-1.759431 -1.448192 0.000000
-1.667492 -1.372517 0.000000
-1.264129 -1.040508 0.000000
-1.583105 -1.303058 0.000000
-1.543212 -1.270221 0.000000
-1.450624 -1.194012 0.000000
-0.389686 -0.320752 0.000000
-1.663521 -1.369248 0.000000
-1.593171 -1.311343 0.000000
-0.668228 -0.575595 0.000000
-0.710732 -0.612206 0.000000
-1.272906 -1.096448 0.000000
-1.919854 -1.653713 0.000000
-0.445903 -0.384089 0.000000
-0.045140 -0.038883 0.000000
-0.458673 -0.395089 0.000000
-0.038472 -0.033138 0.000000
-0.222191 -0.191390 0.000000
-0.550762 -0.474412 0.000000
-1.214765 -1.052522 0.000000
-0.917921 -0.795324 0.000000
-1.769201 -1.532908 0.000000
-0.382044 -0.331018 0.000000
-0.397260 -0.344202 0.000000
-0.143710 -0.124516 0.000000
-1.423006 -1.232951 0.000000
-1.447632 -1.254288 0.000000
-1.226724 -1.062884 0.000000
-0.812181 -0.703707 0.000000
-1.730105 -1.557251 0.000000
-0.729361 -0.656491 0.000000
-1.415985 -1.274514 0.000000
-0.966649 -0.870071 0.000000
-1.292716 -1.163562 0.000000
-0.672415 -0.605234 0.000000
-0.218040 -0.196256 0.000000
-0.380062 -0.342090 0.000000
-0.605098 -0.544643 0.000000
-1.650585 -1.485676 0.000000
-0.443586 -0.460248 0.000000
-1.805052 -1.872855 0.000000
-0.679352 -0.704870 0.000000
-0.108157 -0.112219 0.000000
-0.694571 -0.720661 0.000000
-1.058826 -1.098598 0.000000
-1.137533 -1.180262 0.000000
-0.561547 -0.582640 0.000000
-0.006330 -0.006568 0.000000
-0.496164 -0.514801 0.000000
-1.007902 -1.087746 0.000000
-0.859594 -0.927689 0.000000
-1.683489 -1.816852 0.000000
-1.255190 -1.354623 0.000000
-0.433336 -0.467664 0.000000
-0.230252 -0.248493 0.000000
-0.780634 -0.842474 0.000000
-1.374586 -1.483478 0.000000
-1.550128 -1.672926 0.000000
-1.232597 -1.330241 0.000000
-1.386314 -1.615705 0.000000
-0.371358 -0.432806 0.000000
-1.707928 -1.990536 0.000000
-1.132099 -1.319426 0.000000
-1.306291 -1.522441 0.000000
-0.218198 -0.254303 0.000000
-0.671642 -0.782778 0.000000
-1.681777 -1.960057 0.000000
-0.429842 -0.500967 0.000000
-0.446513 -0.520397 0.000000
-1.524194 -1.807778 0.000000
-0.127021 -0.150654 0.000000
-0.203928 -0.241870 0.000000
-1.521976 -1.805148 0.000000
-0.992514 -1.177176 0.000000
-0.113898 -0.135090 0.000000
-1.048700 -1.243816 0.000000
-1.427403 -1.692978 0.000000
-0.814217 -0.965706 0.000000
-0.104553 -0.124006 0.000000
-0.850366 -1.034674 0.000000
-0.593592 -0.722247 0.000000
-0.451520 -0.549382 0.000000
-0.329353 -0.400737 0.000000
-0.494881 -0.602141 0.000000
-1.070849 -1.302945 0.000000
-0.913323 -1.111277 0.000000
-1.039230 -1.264472 0.000000
-0.293417 -0.357013 0.000000
-1.434716 -1.745677 0.000000
-0.100325 -0.130563 0.000000
-0.690909 -0.899148 0.000000
-0.744860 -0.969360 0.000000
-0.886055 -1.153111 0.000000
-0.303214 -0.394603 0.000000
-1.309802 -1.704575 0.000000
-0.974649 -1.268407 0.000000
-0.536128 -0.697716 0.000000
-1.563155 -2.034288 0.000000
-0.643789 -0.837826 0.000000
-0.248398 -0.328412 0.000000
-0.084253 -0.111392 0.000000
-0.560492 -0.741039 0.000000
-0.147498 -0.195010 0.000000
-0.915698 -1.210663 0.000000
-0.764862 -1.011240 0.000000
-1.201469 -1.588487 0.000000
-0.684865 -0.905474 0.000000
-1.423812 -1.882451 0.000000
-0.090944 -0.120239 0.000000
-0.104040 -0.151175 0.000000
-0.203926 -0.296311 0.000000
-0.134593 -0.195569 0.000000
-0.940973 -1.367269 0.000000
-1.008247 -1.465020 0.000000
-0.257771 -0.374551 0.000000
-0.780617 -1.134265 0.000000
-0.221210 -0.321427 0.000000
-0.018945 -0.027529 0.000000
-1.034740 -1.503515 0.000000
-0.406620 -0.605160 0.000000
-0.048277 -0.071849 0.000000
-0.733289 -1.091333 0.000000
-0.301196 -0.448261 0.000000
-1.305021 -1.942224 0.000000
-0.597845 -0.889755 0.000000
-0.049275 -0.073334 0.000000
-0.074370 -0.110682 0.000000
-0.234339 -0.348760 0.000000
-0.169737 -0.252615 0.000000
-1.431819 -2.306595 0.000000
-1.166900 -1.879821 0.000000
-1.272943 -2.050651 0.000000
-1.269696 -2.045422 0.000000
-0.236519 -0.381021 0.000000
-0.455623 -0.733987 0.000000
-0.970334 -1.563163 0.000000
-0.123481 -0.198922 0.000000
-1.289360 -2.077099 0.000000
-0.354812 -0.571586 0.000000
-0.464648 -0.873482 0.000000
-0.309896 -0.582567 0.000000
-0.377953 -0.710506 0.000000
-0.384164 -0.722183 0.000000
-0.704676 -1.324706 0.000000
-0.767219 -1.442279 0.000000
-0.018181 -0.034178 0.000000
-0.918431 -1.726539 0.000000
-0.211866 -0.398283 0.000000
-0.736217 -1.383998 0.000000
-0.085852 -0.771748 0.000000
-0.255954 -2.300846 0.000000
-0.361070 -3.245766 0.000000
-0.293137 -2.635096 0.000000
-0.312613 -2.810171 0.000000
-0.400496 -3.600184 0.000000
-0.043772 -0.393479 0.000000
-0.276876 -2.488922 0.000000
-0.353913 -3.181434 0.000000
-0.301229 -2.707842 0.000000
-0.158186 -1.484424 0.000000
-0.145730 -1.367537 0.000000
-0.181368 -1.701957 0.000000
-0.133777 -1.255367 0.000000
-0.080833 -0.758535 0.000000
-0.266713 -2.502843 0.000000
-0.294272 -2.761454 0.000000
-0.130225 -1.222038 0.000000
-0.378519 -3.552028 0.000000
-0.231311 -2.170630 0.000000
-0.236345 -3.171686 0.000000
-0.155575 -2.087775 0.000000
-0.237792 -3.191107 0.000000
-0.193813 -2.600921 0.000000
-0.257529 -3.455971 0.000000
-0.158129 -2.122055 0.000000
-0.174823 -2.346074 0.000000
-0.265175 -3.558585 0.000000
-0.238698 -3.203260 0.000000
-0.060603 -0.813277 0.000000
-0.061172 -1.041145 0.000000
-0.027366 -0.465767 0.000000
-0.096687 -1.645608 0.000000
-0.086805 -1.477416 0.000000
-0.175038 -2.979145 0.000000
-0.127701 -2.173469 0.000000
-0.175373 -2.984849 0.000000
-0.141598 -2.409993 0.000000
-0.039799 -0.677383 0.000000
-0.140146 -2.385296 0.000000
-0.090901 -1.831155 0.000000
-0.067444 -1.358617 0.000000
-0.111100 -2.238055 0.000000
-0.074823 -1.507269 0.000000
-0.039237 -0.790410 0.000000
-0.044944 -0.905381 0.000000
-0.081927 -1.650373 0.000000
-0.005015 -0.101016 0.000000
-0.036334 -0.731930 0.000000
-0.012988 -0.261644 0.000000
-0.034512 -2.191523 0.000000
-0.020085 -1.275394 0.000000
-0.002849 -0.180903 0.000000
-0.023583 -1.497554 0.000000
-0.043023 -2.731965 0.000000
-0.015842 -1.005984 0.000000
-0.014356 -0.911581 0.000000
-0.015753 -1.000345 0.000000
-0.007877 -0.500179 0.000000
-0.035913 -2.280513 0.000000
-0.016134 -1.054470 0.000000
-0.040504 -2.647245 0.000000
-0.019373 -1.266150 0.000000
-0.050696 -3.313343 0.000000
-0.051894 -3.391673 0.000000
-0.055479 -3.625972 0.000000
-0.054479 -3.560586 0.000000
-0.004199 -0.274452 0.000000
-0.044385 -2.900879 0.000000
-0.027954 -1.826982 0.000000
0.070388 -0.895721 0.000000
0.031166 -0.396606 0.000000
0.240975 -3.066523 0.000000
0.159214 -2.026073 0.000000
0.184544 -2.348406 0.000000
0.127606 -1.623850 0.000000
0.105093 -1.337359 0.000000
0.031046 -0.395081 0.000000
0.177921 -2.264128 0.000000
0.119129 -1.515972 0.000000
0.616551 -2.014016 0.000000
0.630455 -2.059433 0.000000
0.852879 -2.786001 0.000000
0.341061 -1.114104 0.000000
0.857381 -2.800706 0.000000
0.031097 -0.101581 0.000000
0.436065 -1.424443 0.000000
0.379057 -1.238222 0.000000
0.292481 -0.955415 0.000000
0.268011 -0.875481 0.000000
0.619910 -1.348593 0.000000
1.190892 -2.590745 0.000000
1.048910 -2.281869 0.000000
0.803383 -1.747733 0.000000
0.491575 -1.069406 0.000000
0.469369 -1.021097 0.000000
1.207963 -2.627883 0.000000
0.787061 -1.712224 0.000000
0.436399 -0.949372 0.000000
0.787336 -1.712824 0.000000
0.098699 -0.178538 0.000000
1.079237 -1.952238 0.000000
0.947199 -1.713395 0.000000
0.181335 -0.328018 0.000000
0.843667 -1.526114 0.000000
0.505778 -0.914904 0.000000
1.453171 -2.628650 0.000000
0.259364 -0.469165 0.000000
1.429050 -2.585017 0.000000
0.493019 -0.891825 0.000000
1.632106 -2.460609 0.000000
1.639245 -2.471372 0.000000
1.721510 -2.595398 0.000000
0.954739 -1.439392 0.000000
0.801852 -1.208895 0.000000
1.686875 -2.543181 0.000000
0.915171 -1.379738 0.000000
0.295761 -0.445898 0.000000
0.659056 -0.993612 0.000000
0.462695 -0.697572 0.000000
0.482431 -0.709774 0.000000
0.410710 -0.604255 0.000000
0.828195 -1.218478 0.000000
0.706104 -1.038851 0.000000
0.467260 -0.687454 0.000000
0.665359 -0.978905 0.000000
0.068998 -0.101514 0.000000
1.377332 -2.026391 0.000000
0.219281 -0.322616 0.000000
0.158809 -0.233647 0.000000
1.595670 -2.244365 0.000000
1.074775 -1.511708 0.000000
0.748095 -1.052222 0.000000
1.525867 -2.146184 0.000000
1.435126 -2.018555 0.000000
1.680364 -2.363491 0.000000
1.616399 -2.273521 0.000000
1.756827 -2.471037 0.000000
1.688158 -2.374452 0.000000
1.466498 -2.062680 0.000000
0.943332 -1.204324 0.000000
1.045086 -1.334230 0.000000
0.110183 -0.140667 0.000000
1.792426 -2.288337 0.000000
0.406498 -0.518964 0.000000
1.556794 -1.987512 0.000000
1.072570 -1.369318 0.000000
0.693339 -0.885165 0.000000
0.459355 -0.586445 0.000000
1.558822 -1.990101 0.000000
1.906131 -2.379716 0.000000
0.246966 -0.308326 0.000000
0.559221 -0.698161 0.000000
1.826190 -2.279913 0.000000
1.845186 -2.303629 0.000000
1.369482 -1.709734 0.000000
1.182232 -1.475961 0.000000
1.762533 -2.200441 0.000000
1.406063 -1.755404 0.000000
1.608002 -2.007515 0.000000
1.899901 -2.226449 0.000000
1.025089 -1.201277 0.000000
0.904480 -1.059939 0.000000
1.403811 -1.645092 0.000000
0.973614 -1.140955 0.000000
1.303277 -1.527279 0.000000
0.694897 -0.814333 0.000000
1.011880 -1.185799 0.000000
1.520058 -1.781320 0.000000
0.071240 -0.083484 0.000000
0.759643 -0.814762 0.000000
1.852918 -1.987365 0.000000
0.298673 -0.320344 0.000000
0.384360 -0.412249 0.000000
1.330815 -1.427378 0.000000
1.007608 -1.080719 0.000000
1.206483 -1.294024 0.000000
1.582646 -1.697482 0.000000
0.380973 -0.408616 0.000000
0.113917 -0.122183 0.000000
1.086205 -1.115077 0.000000
1.975447 -2.027957 0.000000
0.148928 -0.152887 0.000000
0.449304 -0.461247 0.000000
1.490181 -1.529791 0.000000
1.362304 -1.398516 0.000000
0.142398 -0.146183 0.000000
1.499042 -1.538888 0.000000
0.765715 -0.786068 0.000000
1.725391 -1.771253 0.000000
1.296060 -1.266989 0.000000
1.370297 -1.339561 0.000000
1.699942 -1.661811 0.000000
0.489831 -0.478844 0.000000
0.992728 -0.970460 0.000000
1.530586 -1.496254 0.000000
1.764988 -1.725399 0.000000
0.621034 -0.607104 0.000000
2.230424 -2.180395 0.000000
0.817227 -0.798896 0.000000
1.420096 -1.307170 0.000000
0.793836 -0.730710 0.000000
1.895123 -1.744423 0.000000
0.501361 -0.461493 0.000000
0.425364 -0.391539 0.000000
0.402477 -0.370472 0.000000
1.003742 -0.923925 0.000000
1.580385 -1.454713 0.000000
1.480158 -1.362456 0.000000
0.064126 -0.059026 0.000000
0.937411 -0.830004 0.000000
0.704357 -0.623653 0.000000
0.597561 -0.529094 0.000000
1.991312 -1.763151 0.000000
0.838161 -0.742126 0.000000
1.886974 -1.670768 0.000000
0.909844 -0.805595 0.000000
0.772114 -0.683647 0.000000
1.249154 -1.106028 0.000000
2.037412 -1.803969 0.000000
0.282343 -0.169529 0.000000
2.127295 -1.277308 0.000000
1.006690 -0.604455 0.000000
0.567498 -0.340747 0.000000
0.324071 -0.194585 0.000000
1.690541 -1.015064 0.000000
1.653517 -0.992833 0.000000
2.197733 -1.319601 0.000000
2.257547 -1.355516 0.000000
1.621922 -0.973863 0.000000
0.063719 -0.037132 0.000000
0.672078 -0.391654 0.000000
0.952496 -0.555068 0.000000
1.183693 -0.689799 0.000000
0.009141 -0.005327 0.000000
0.312768 -0.182266 0.000000
0.881474 -0.513680 0.000000
1.621134 -0.944718 0.000000
2.192854 -1.277888 0.000000
1.040650 -0.606440 0.000000
2.381250 -1.379528 0.000000
2.518632 -1.459117 0.000000
1.270634 -0.736116 0.000000
1.244524 -0.720989 0.000000
2.063875 -1.195664 0.000000
1.180981 -0.684177 0.000000
0.050960 -0.029523 0.000000
1.533081 -0.888159 0.000000
0.021819 -0.012640 0.000000
1.084545 -0.628309 0.000000
2.132153 -1.159297 0.000000
2.474535 -1.345457 0.000000
1.127240 -0.612904 0.000000
2.941356 -1.599278 0.000000
2.543571 -1.382994 0.000000
1.137455 -0.618459 0.000000
0.059668 -0.032443 0.000000
0.854766 -0.464754 0.000000
2.600403 -1.413895 0.000000
1.449311 -0.788021 0.000000
2.168305 -1.091345 0.000000
1.308085 -0.658381 0.000000
1.731112 -0.871298 0.000000
2.549365 -1.283139 0.000000
2.141598 -1.077902 0.000000
2.174546 -1.094486 0.000000
1.956957 -0.984969 0.000000
1.808445 -0.910221 0.000000
1.155431 -0.581548 0.000000
2.777422 -1.397923 0.000000
1.638051 -0.796049 0.000000
2.705893 -1.314991 0.000000
1.519647 -0.738508 0.000000
3.050649 -1.482533 0.000000
2.923173 -1.420583 0.000000
1.161124 -0.564275 0.000000
2.097655 -1.019404 0.000000
2.305303 -1.120315 0.000000
2.891521 -1.405201 0.000000
1.582209 -0.768911 0.000000
0.604214 -0.286019 0.000000
0.872045 -0.412804 0.000000
1.753338 -0.829985 0.000000
3.162839 -1.497207 0.000000
3.067853 -1.452243 0.000000
2.682250 -1.269708 0.000000
2.395286 -1.133867 0.000000
1.742722 -0.824960 0.000000
1.353951 -0.640925 0.000000
1.736115 -0.821832 0.000000
2.857713 -1.310822 0.000000
1.408114 -0.645897 0.000000
0.337129 -0.154640 0.000000
2.578865 -1.182916 0.000000
3.062373 -1.404699 0.000000
1.959538 -0.898833 0.000000
2.528655 -1.159885 0.000000
0.872608 -0.400262 0.000000
1.704746 -0.781961 0.000000
1.159432 -0.531827 0.000000
0.328234 -0.144531 0.000000
1.131863 -0.498393 0.000000
1.749704 -0.770446 0.000000
2.428084 -1.069157 0.000000
1.506563 -0.663384 0.000000
0.774652 -0.341102 0.000000
2.389223 -1.052045 0.000000
1.724448 -0.759325 0.000000
0.666107 -0.293306 0.000000
1.771233 -0.779926 0.000000
1.288365 -0.551181 0.000000
1.125864 -0.481661 0.000000
2.917003 -1.247935 0.000000
1.922070 -0.822289 0.000000
2.153227 -0.921181 0.000000
2.993700 -1.280747 0.000000
1.386733 -0.593264 0.000000
1.620755 -0.693382 0.000000
2.273364 -0.972577 0.000000
1.773113 -0.758563 0.000000
1.995449 -0.788415 0.000000
1.007466 -0.398057 0.000000
3.105389 -1.226960 0.000000
0.191600 -0.075703 0.000000
0.503962 -0.199119 0.000000
0.484465 -0.191415 0.000000
1.201133 -0.474576 0.000000
2.583494 -1.020756 0.000000
1.560758 -0.616666 0.000000
2.447741 -0.967119 0.000000
3.329443 -1.249955 0.000000
1.603658 -0.602052 0.000000
1.338719 -0.502588 0.000000
0.914343 -0.343267 0.000000
0.279549 -0.104949 0.000000
2.593428 -0.973637 0.000000
1.179186 -0.442695 0.000000
3.389189 -1.272385 0.000000
0.791857 -0.297283 0.000000
0.470153 -0.176507 0.000000
1.552199 -0.551088 0.000000
1.791153 -0.635926 0.000000
1.281928 -0.455132 0.000000
0.156032 -0.055397 0.000000
2.387222 -0.847553 0.000000
0.919174 -0.326341 0.000000
1.360085 -0.482881 0.000000
0.456407 -0.162041 0.000000
1.031581 -0.366250 0.000000
0.906754 -0.321932 0.000000
3.213719 -1.078344 0.000000
2.549271 -0.855393 0.000000
0.937744 -0.314655 0.000000
3.115317 -1.045326 0.000000
3.084790 -1.035083 0.000000
2.941832 -0.987115 0.000000
0.339193 -0.113814 0.000000
1.243700 -0.417316 0.000000
0.487616 -0.163617 0.000000
2.768484 -0.928949 0.000000
2.821914 -0.923927 0.000000
0.081584 -0.026712 0.000000
2.203352 -0.721403 0.000000
0.980215 -0.320933 0.000000
3.451477 -1.130053 0.000000
3.482432 -1.140188 0.000000
1.275820 -0.417718 0.000000
1.699357 -0.556389 0.000000
0.000864 -0.000283 0.000000
3.327281 -1.089390 0.000000
-0.413131 0.399992 0.000000
-0.643751 0.623276 0.000000
-0.567674 0.549619 0.000000
-0.927185 0.897695 0.000000
-0.965172 0.934474 0.000000
-0.827039 0.800735 0.000000
-0.318078 0.307962 0.000000
-0.098918 0.095772 0.000000
-2.029128 1.964591 0.000000
-0.598262 0.579234 0.000000
-1.849035 1.581856 0.000000
-1.827768 1.563662 0.000000
-0.830368 0.710383 0.000000
-1.856502 1.588244 0.000000
-0.540961 0.462794 0.000000
-1.680148 1.437373 0.000000
-1.500779 1.283922 0.000000
-1.053847 0.901570 0.000000
-1.619771 1.385720 0.000000
-1.198429 1.025261 0.000000
-0.636051 0.504985 0.000000
-1.050141 0.833746 0.000000
-2.334449 1.853406 0.000000
-1.818924 1.444111 0.000000
-1.875914 1.489358 0.000000
-1.003487 0.796706 0.000000
-1.734578 1.377146 0.000000
-0.089410 0.070986 0.000000
-2.154486 1.710527 0.000000
-1.726327 1.370595 0.000000
-0.949958 0.720286 0.000000
-1.373368 1.041326 0.000000
-1.914522 1.451645 0.000000
-0.664796 0.504067 0.000000
-0.861422 0.653155 0.000000
-1.137140 0.862212 0.000000
-0.482770 0.366050 0.000000
-1.755717 1.331235 0.000000
-1.764967 1.338249 0.000000
-2.216189 1.680378 0.000000
-1.478926 1.114570 0.000000
-1.343831 1.012758 0.000000
-1.165965 0.878712 0.000000
-0.496366 0.374079 0.000000
-0.033878 0.025532 0.000000
-1.793471 1.351622 0.000000
-1.246124 0.939122 0.000000
-1.447864 1.091160 0.000000
-0.681317 0.513464 0.000000
-0.536634 0.404426 0.000000
-1.413463 0.925183 0.000000
-2.220020 1.453115 0.000000
-0.270959 0.177357 0.000000
-1.715961 1.123183 0.000000
-0.860976 0.563552 0.000000
-0.767164 0.502147 0.000000
-2.323929 1.521129 0.000000
-1.489760 0.975123 0.000000
-2.484861 1.626467 0.000000
-0.176587 0.115585 0.000000
-0.113532 0.070670 0.000000
-0.992161 0.617591 0.000000
-1.186363 0.738476 0.000000
-0.457235 0.284616 0.000000
-0.719725 0.448008 0.000000
-1.766974 1.099890 0.000000
-1.527315 0.950709 0.000000
-0.812065 0.505487 0.000000
-0.425401 0.264800 0.000000
-2.185639 1.360496 0.000000
-1.300719 0.705322 0.000000
-2.403682 1.303410 0.000000
-0.755579 0.409717 0.000000
-0.930515 0.504577 0.000000
-1.984802 1.076270 0.000000
-2.119789 1.149468 0.000000
-0.647352 0.351030 0.000000
-2.826909 1.532907 0.000000
-0.768644 0.416802 0.000000
-1.211548 0.656969 0.000000
-2.757885 1.195019 0.000000
-1.263106 0.547316 0.000000
-0.494529 0.214284 0.000000
-3.004968 1.302083 0.000000
-0.315963 0.136910 0.000000
-1.219135 0.528263 0.000000
-1.549499 0.671413 0.000000
-1.055157 0.457210 0.000000
-0.427823 0.185380 0.000000
-0.500501 0.216872 0.000000
-1.133718 0.453699 0.000000
-2.115027 0.846406 0.000000
-1.349512 0.540057 0.000000
-2.937023 1.175358 0.000000
-0.919514 0.367977 0.000000
-1.273495 0.509636 0.000000
-1.205554 0.482447 0.000000
-1.632674 0.653375 0.000000
-0.242699 0.097125 0.000000
-1.027039 0.411008 0.000000
-0.862053 0.336901 0.000000
-0.222838 0.087088 0.000000
-1.561941 0.610425 0.000000
-2.812278 1.099071 0.000000
-0.826332 0.322940 0.000000
-2.449404 0.957256 0.000000
-2.623947 1.025469 0.000000
-0.496829 0.194167 0.000000
-1.931600 0.754892 0.000000
-2.530845 0.989084 0.000000
-2.794540 1.035220 0.000000
-3.238769 1.199782 0.000000
-2.570494 0.952223 0.000000
-1.390742 0.515192 0.000000
-1.542827 0.571531 0.000000
-3.131710 1.160123 0.000000
-2.703014 1.001315 0.000000
-1.544865 0.572286 0.000000
-2.002109 0.741669 0.000000
-1.737393 0.643606 0.000000
-2.238705 0.799086 0.000000
-1.395269 0.498029 0.000000
-1.667049 0.595039 0.000000
-2.511581 0.896487 0.000000
-0.219978 0.078519 0.000000
-1.230519 0.439223 0.000000
-1.086967 0.387983 0.000000
-1.968950 0.702800 0.000000
-1.383879 0.493964 0.000000
-1.407238 0.502302 0.000000
-1.921187 0.628733 0.000000
-1.778976 0.582193 0.000000
-1.364866 0.446670 0.000000
-0.639082 0.209148 0.000000
-1.372515 0.449173 0.000000
-1.315040 0.430364 0.000000
-0.055714 0.018233 0.000000
-1.545777 0.505875 0.000000
-1.016196 0.332563 0.000000
-0.935366 0.306110 0.000000
-2.514181 0.800864 0.000000
-2.415205 0.769336 0.000000
-1.930931 0.615076 0.000000
-2.257623 0.719140 0.000000
-2.024798 0.644976 0.000000
