1.068673 -1.300930 2.130154
1.091372 -1.328562 3.046490
1.097296 -1.335774 3.731106
1.059493 -1.289755 4.587289
1.140878 -1.388828 5.391769
1.257080 -1.530284 6.273451
1.245109 -1.515711 7.048789
1.219360 -1.484367 7.768707
1.130522 -1.376222 8.561448
0.916351 -1.115503 9.436063
0.729587 -1.077750 0.279359
0.988621 -1.460398 1.008974
0.954615 -1.410163 2.022450
0.942971 -1.392963 2.525341
0.970875 -1.434183 3.494993
0.941297 -1.390490 4.230462
0.794521 -1.173672 5.193527
0.884026 -1.305889 5.792521
1.101825 -1.627622 6.786465
1.091406 -1.612232 7.642668
1.015985 -1.500820 8.232677
0.944478 -1.395188 9.153289
0.903037 -1.644091 -0.148230
0.870014 -1.583969 0.721325
0.784621 -1.428501 1.513749
0.804377 -1.464468 2.344425
0.850596 -1.548617 3.320679
0.821490 -1.495624 4.012453
0.841033 -1.531205 4.815242
0.911073 -1.658723 5.529678
0.914240 -1.664487 6.547537
0.916758 -1.669073 7.288989
0.894139 -1.627891 7.957910
0.833148 -1.516849 9.019298
0.627777 -1.447547 0.426779
0.693895 -1.600004 1.200862
0.687477 -1.585206 2.021155
0.678950 -1.565544 2.876374
0.626779 -1.445245 3.702725
0.686424 -1.582778 4.419139
0.774357 -1.785536 5.188135
0.762285 -1.757700 5.861293
0.772967 -1.782330 6.801349
0.760955 -1.754632 7.726400
0.717925 -1.655414 8.434064
0.652777 -1.505192 9.399973
0.568972 -1.734577 0.042406
0.579357 -1.766238 0.805139
0.502220 -1.531077 1.674629
0.501386 -1.528534 2.551507
0.461394 -1.406615 3.194333
0.532183 -1.622424 4.023087
0.641721 -1.956363 5.087258
0.516111 -1.573424 5.813482
0.468314 -1.427711 6.449644
0.527304 -1.607548 7.240833
0.539910 -1.645979 8.094315
0.512787 -1.563290 8.982965
0.374058 -1.633793 -0.212847
0.347624 -1.518333 0.747310
0.375351 -1.639440 1.565018
0.371361 -1.622009 2.227334
0.396536 -1.731970 3.138137
0.468425 -2.045963 3.918879
0.488877 -2.135292 4.526008
0.425840 -1.859961 5.279414
0.380466 -1.661778 6.132716
0.387884 -1.694180 6.935888
0.388295 -1.695975 7.882381
0.203031 -1.538053 -0.266911
0.190608 -1.443938 0.685007
0.217236 -1.645664 1.640550
0.214983 -1.628589 2.292669
0.189462 -1.435259 3.100032
0.231947 -1.757100 3.919858
0.288808 -2.187849 4.662505
0.254342 -1.926756 5.533195
0.219074 -1.659582 6.257583
0.225143 -1.705558 7.257532
0.235736 -1.785808 8.057847
0.217875 -1.650502 8.844060
0.063146 -1.554101 0.619212
0.069638 -1.713865 1.074060
0.067199 -1.653829 2.067632
0.076885 -1.892209 2.692361
0.090608 -2.229950 3.471310
0.088438 -2.176546 4.420972
0.080969 -1.992721 5.170945
0.065406 -1.609705 6.180234
0.058108 -1.430097 6.924221
0.066246 -1.630379 7.594198
0.064853 -1.596090 8.423136
0.054411 -1.339120 9.540431
-0.083418 -1.575061 0.373433
-0.090830 -1.714997 1.148479
-0.084359 -1.592829 1.867679
-0.102076 -1.927340 2.849250
-0.125436 -2.368427 3.627351
-0.119896 -2.263810 4.315253
-0.107012 -2.020554 5.199279
-0.095341 -1.800172 5.780784
-0.085173 -1.608188 6.640099
-0.080776 -1.525169 7.448329
-0.083369 -1.574131 8.561744
-0.074862 -1.413512 9.318258
-0.241859 -1.659258 0.319269
-0.250501 -1.718548 0.935243
-0.232753 -1.596787 1.727927
-0.307107 -2.106890 2.464722
-0.361825 -2.482277 3.477843
-0.302650 -2.076309 4.153074
-0.271208 -1.860603 4.874022
-0.231029 -1.584955 5.788860
-0.192135 -1.318126 6.643212
-0.222655 -1.527507 7.533774
-0.234171 -1.606513 8.306072
-0.206216 -1.414733 9.269656
-0.355958 -1.457691 -0.053451
-0.321657 -1.317226 0.654564
-0.390565 -1.599411 1.278498
-0.456351 -1.868812 3.925980
-0.457236 -1.872439 4.642708
-0.387314 -1.586099 5.295191
-0.266864 -1.092841 6.146510
-0.253284 -1.037228 7.021766
-0.317899 -1.301834 7.795800
-0.537276 -1.565234 0.585686
-0.583427 -1.699683 1.294809
-0.503344 -1.466380 1.976837
-0.389342 -1.134261 2.794674
-0.496270 -1.445771 3.739484
-0.659865 -1.922368 5.962373
-0.448794 -1.307459 6.789215
-0.403228 -1.174713 7.815229
-0.484638 -1.411884 8.647287
-0.414661 -1.208021 9.385133
-0.683238 -1.503679 0.298176
-0.707386 -1.556826 0.861414
-0.658596 -1.449448 1.803691
-0.804651 -1.770887 2.710039
-0.950289 -2.091409 3.359854
-0.790001 -1.738645 4.034298
-0.512708 -1.128376 4.987282
-0.512437 -1.127778 7.536654
-0.545503 -1.200550 8.314755
-0.554315 -1.219944 9.324834
-0.704541 -1.240619 0.310604
-0.725001 -1.276646 1.177239
-0.738856 -1.301043 1.893833
-0.696103 -1.225760 2.930590
-0.842379 -1.483337 3.754757
-0.639533 -1.126147 8.679616
-0.606692 -1.068317 9.396713
-0.907055 -1.293175 0.565474
-0.945636 -1.348178 1.289148
-0.831099 -1.184885 1.917655
-0.673886 -0.960748 2.785659
-0.843978 -1.203246 3.647960
-0.763150 -1.088010 8.717191
-0.642276 -0.915683 9.365909
-1.198155 -1.410269 0.052973
-1.171168 -1.378503 0.806175
-0.909139 -1.070087 1.501027
-1.086916 -1.279336 2.472136
-1.307601 -1.539090 3.341629
-1.196141 -1.407897 4.158626
-0.877532 -1.032884 4.907236
-0.707572 -0.832836 5.764896
-0.363596 -0.427964 6.581993
-0.424290 -0.499403 7.546258
-0.846481 -0.996337 8.261048
-0.856906 -1.008607 8.921398
-0.896809 -0.876108 0.505627
-1.104982 -1.079475 1.228381
-1.292879 -1.263036 3.766386
-1.357374 -1.326041 4.603356
-1.020965 -0.997399 5.268507
-0.634043 -0.619408 6.239172
-0.554372 -0.541576 7.230948
-0.755764 -0.738319 7.908150
-0.820506 -0.801567 8.587891
-0.694236 -0.678211 9.607100
-1.224431 -0.997428 0.544137
-1.276484 -1.039830 1.278498
-1.061637 -0.864815 1.856962
-0.825028 -0.672072 2.652187
-1.119431 -0.911894 3.639569
-0.719069 -0.585757 6.945976
-0.738388 -0.601494 7.636295
-0.949140 -0.773174 8.706515
-0.867172 -0.706403 9.365909
-1.201616 -0.813922 0.256889
-1.148849 -0.778181 0.975805
-1.095786 -0.742238 1.945232
-1.094870 -0.741617 2.764376
-1.316976 -0.892063 3.314220
-1.540990 -1.043800 4.285750
-1.155284 -0.782539 5.218242
-0.804467 -0.544911 5.970748
-0.724226 -0.490559 6.787422
-0.834100 -0.564983 7.524747
-1.031028 -0.698374 8.330248
-0.963391 -0.652560 9.230079
-1.249986 -0.686703 0.235632
-1.236709 -0.679409 0.910898
-1.161391 -0.638032 1.977446
-1.157698 -0.636003 2.742898
-1.429793 -0.785484 3.493272
-1.644943 -0.903680 4.198318
-1.202135 -0.660416 5.035967
-0.727669 -0.399759 5.869750
-0.667330 -0.366610 6.717105
-0.918957 -0.504846 7.606616
-1.093425 -0.600694 8.341007
-1.024251 -0.562692 9.251641
-1.215773 -0.529966 0.246969
-1.181872 -0.515188 1.042774
-1.119285 -0.487906 1.896336
-1.048088 -0.456871 2.711909
-1.392142 -0.606847 3.352609
-0.723932 -0.315569 6.734728
-0.957318 -0.417303 7.450557
-1.222139 -0.532741 8.502518
-1.111294 -0.484423 9.218712
-1.141792 -0.375927 0.355470
-1.252401 -0.412345 1.192478
-1.252698 -0.412443 1.848580
-1.179356 -0.388295 2.683548
-1.415899 -0.466175 3.602876
-0.848577 -0.279388 6.896005
-1.106634 -0.364352 7.550723
-1.247537 -0.410743 8.529279
-1.083829 -0.356843 9.133013
-1.153162 -0.264489 0.776022
-1.197761 -0.274718 1.496943
-1.084867 -0.248825 2.226278
-1.208599 -0.277204 3.008177
-1.569672 -0.360019 3.806985
-1.728577 -0.396466 4.618082
-1.192365 -0.273480 5.438411
-0.662364 -0.151919 6.529025
-0.912730 -0.209343 7.280137
-1.296172 -0.297289 7.998870
-1.290033 -0.171096 0.257871
-1.305824 -0.173191 1.149518
-1.194791 -0.158464 2.080658
-1.045088 -0.138609 2.870135
-1.266567 -0.167984 3.741741
-1.452108 -0.192592 4.340322
-0.946770 -0.125570 5.320824
-0.679432 -0.090113 6.248311
-0.958924 -0.127181 7.028376
-1.304142 -0.172968 7.800657
-1.285944 -0.170554 8.454076
-1.023771 -0.135782 9.329099
-0.924824 -0.035630 -0.043388
-0.907917 -0.034979 0.803124
-1.159070 -0.044655 1.650759
-1.205143 -0.046430 2.523710
-0.982160 -0.037839 3.245754
-1.095116 -0.042191 4.184448
-1.169594 -0.045061 5.039809
-0.754956 -0.029086 5.702795
-0.990939 -0.038178 6.578202
-1.328127 -0.051168 7.341485
-1.346374 -0.051871 8.084745
-1.186091 -0.045696 8.997650
-1.275748 0.068826 0.408550
-1.318622 0.071139 1.256915
-1.120532 0.060452 1.922720
-1.117512 0.060289 2.724413
-1.200227 0.064752 3.738056
-1.129844 0.060955 4.508318
-0.841749 0.045412 5.236284
-0.693867 0.037434 6.146284
-0.969637 0.052312 6.904873
-1.408464 0.075986 7.893262
-1.361665 0.073461 8.406163
-1.059359 0.057152 9.448051
-0.940698 0.136058 0.000000
-0.995443 0.143976 0.649561
-1.145793 0.165722 1.596843
-1.108994 0.160399 2.355815
-1.056151 0.152756 3.043096
-1.075659 0.155578 3.847071
-0.928795 0.134336 4.794131
-0.746198 0.107926 5.691901
-0.976130 0.141182 6.390069
-1.336649 0.193326 7.182138
-1.377617 0.199251 8.053245
-1.223287 0.176930 9.099756
-1.105757 0.269716 1.727328
-1.021193 0.249089 2.826886
-1.068535 0.260637 3.442842
-1.090967 0.266108 4.432774
-0.838897 0.204624 5.200437
-0.655751 0.159951 6.015334
-0.975698 0.237992 6.653992
-1.343390 0.327679 7.753922
-1.311069 0.319796 8.577653
-1.110981 0.270990 9.143801
-0.876355 0.298310 -0.141010
-0.957214 0.325835 0.920170
-1.100222 0.374514 1.704673
-1.032946 0.351613 2.281692
-1.033308 0.351737 3.345638
-1.059926 0.360798 4.171027
-0.887163 0.301989 4.783288
-0.733085 0.249541 5.833483
-0.982086 0.334301 6.548398
-1.322348 0.450126 7.295584
-1.357703 0.462160 8.256811
-1.186114 0.403752 9.061869
-0.973683 0.441550 1.860302
-0.943147 0.427703 2.599774
-1.007730 0.456990 3.518432
-1.001225 0.454040 4.216848
-0.865850 0.392650 5.288306
-0.706275 0.320285 6.011360
-1.039679 0.471479 6.864120
-1.294057 0.586835 7.557391
-1.184887 0.537328 8.352156
-1.096744 0.497357 9.402502
-1.222016 0.691880 0.546570
-1.041328 0.589579 1.293222
-0.976782 0.553034 2.388196
-0.930808 0.527004 3.075520
-0.936781 0.530386 3.739027
-0.881447 0.499057 4.785154
-0.758423 0.429404 5.630825
-0.456448 0.258431 6.352016
-0.694106 0.392988 7.215611
-1.197639 0.678079 8.101163
-1.107792 0.627209 8.695746
-0.703074 0.398066 9.784707
-0.966592 0.677580 0.625143
-1.005258 0.704685 1.464650
-0.911407 0.638896 2.226278
-0.831647 0.582984 3.025280
-0.825416 0.578616 3.811025
-1.015984 0.712204 4.583096
-0.899102 0.630270 5.444670
-0.588452 0.412504 6.298977
-0.879543 0.616559 7.199098
-1.202196 0.842738 7.926214
-1.048879 0.735263 8.615127
-0.739946 0.518702 9.542899
-0.651524 0.547885 0.249949
-0.697765 0.586770 0.944189
-0.890225 0.748615 1.726237
-0.651027 0.547466 2.448230
-0.860131 0.723308 3.429884
-1.223673 1.029021 4.185233
-0.915852 0.770165 5.047421
-0.593904 0.499430 5.844371
-0.777023 0.653420 6.718936
-0.982696 0.826377 7.372150
-1.055388 0.887505 8.358050
-0.927346 0.779831 9.105373
-0.901683 0.910077 0.666561
-0.878154 0.886329 1.323863
-0.707316 0.713900 2.080354
-0.986855 0.996041 3.157556
-0.743641 0.750564 7.101819
-1.053273 1.063078 8.065251
-0.933689 0.942380 8.706454
-0.581008 0.586416 9.538640
-0.823243 1.008805 0.354570
-0.833853 1.021807 1.203217
-0.845355 1.035901 1.697135
-1.037342 1.271163 2.656408
-1.229626 1.506789 3.348085
-1.086230 1.331071 4.355360
-0.774352 0.948894 5.262805
-0.543605 0.666136 5.898705
-0.653460 0.800753 6.972046
-0.819452 1.004160 7.570262
-0.904721 1.108649 8.481407
-0.771247 0.945089 9.251015
-0.926232 1.367464 -0.298176
-0.817218 1.206519 0.727815
-0.771867 1.139564 1.426916
-0.483871 0.714374 2.229451
-0.967236 1.428001 3.946126
-0.602659 0.889749 6.309354
-0.543550 0.802482 7.039211
-0.800517 1.181861 8.101785
-0.761644 1.124471 8.733246
-0.482423 0.712235 9.576289
-0.681458 1.252854 0.235632
-0.688098 1.265061 1.070927
-0.653792 1.201989 1.835510
-0.847427 1.557986 2.764711
-0.990530 1.821080 3.379464
-0.884832 1.626756 4.426246
-0.642866 1.181903 5.028410
-0.449297 0.826027 6.097478
-0.454016 0.834704 6.930835
-0.588062 1.081147 7.627471
-0.690388 1.269271 8.545650
-0.643079 1.182295 9.130957
-0.734198 1.690602 3.026154
-0.686592 1.580982 3.677963
-0.505884 1.164875 6.421665
-0.451382 1.039377 7.244119
-0.512821 1.180847 8.041073
-0.549586 1.265504 8.829780
-0.442311 1.018488 9.653314
-0.362763 1.121380 0.495810
-0.477583 1.476313 1.431247
-0.380812 1.177172 2.208497
-0.608985 1.882507 3.717840
-0.415198 1.283468 6.122711
-0.320625 0.991122 7.160310
-0.406633 1.256990 7.955919
-0.456912 1.412413 8.839956
-0.380765 1.177027 9.645228
-0.349526 1.536440 -0.128036
-0.341006 1.498986 0.961403
-0.344104 1.512605 1.420571
-0.252841 1.111434 2.257240
-0.457497 2.011057 3.805515
-0.204479 0.898843 7.338886
-0.279610 1.229104 8.158654
-0.328762 1.445168 9.054280
-0.209879 1.637931 0.255580
-0.221074 1.725298 1.041497
-0.210087 1.639556 2.025039
-0.213220 1.664004 2.825007
-0.246414 1.923056 3.561701
-0.288729 2.253289 4.357175
-0.235124 1.834943 5.222594
-0.168998 1.318887 5.829136
-0.136418 1.064628 6.909364
-0.151620 1.183270 7.824943
-0.193251 1.508162 8.540382
-0.179469 1.400608 9.194673
-0.063956 1.749841 -0.201816
-0.056885 1.556378 0.736635
-0.058693 1.605848 1.568024
-0.063715 1.743266 2.318681
-0.081404 2.227248 3.143942
-0.084305 2.306615 3.749603
-0.067634 1.850487 4.641031
-0.055699 1.523931 5.429522
-0.039757 1.087773 6.395789
-0.028350 0.775652 7.095879
-0.042057 1.150696 8.124992
0.090039 1.522827 0.000000
0.093448 1.580479 0.778836
0.091749 1.551734 1.505978
0.084519 1.429457 2.530779
0.111424 1.884510 3.267720
0.137861 2.331634 4.021723
0.125934 2.129904 4.884951
0.075190 1.271686 8.099838
0.089940 1.521139 9.123459
0.225295 1.508852 0.085467
0.233749 1.565465 0.757501
0.233247 1.562107 1.505016
0.214059 1.433598 2.411438
0.288165 1.929904 3.422061
0.348768 2.335773 4.029572
0.325491 2.179887 4.844033
0.214140 1.434141 8.331753
0.235086 1.574425 9.085119
0.368311 1.480381 0.042733
0.388387 1.561075 0.799660
0.389144 1.564118 1.685289
0.422409 1.697823 2.403664
0.539985 2.170403 3.238356
0.601811 2.418908 3.836802
0.569370 2.288514 4.665381
0.489417 1.967154 7.265908
0.379574 1.525652 8.060809
0.390745 1.570552 8.977911
0.573276 1.654027 -0.074354
0.592812 1.710392 0.869811
0.525960 1.517508 1.546702
0.672749 1.941027 2.469505
0.830335 2.395695 3.213188
0.793240 2.288670 3.886053
0.753419 2.173778 4.810605
0.646808 1.866180 5.399429
0.513433 1.481366 6.384115
0.482554 1.392272 7.159693
0.525171 1.515231 7.965443
0.531607 1.533800 8.887082
0.735066 1.648222 0.572829
0.665033 1.491187 1.588331
0.818092 1.834389 3.768212
0.921558 2.066387 4.496290
0.812758 1.822429 5.364313
0.697786 1.564628 6.185883
0.697879 1.564837 6.940270
0.720136 1.614743 8.020454
0.686229 1.221008 0.107174
0.829809 1.476481 1.191765
0.829686 1.476261 1.830997
0.958596 1.705631 2.507580
1.057783 1.882115 3.499072
1.035808 1.843016 4.066227
1.061421 1.888589 5.137264
0.935548 1.664622 5.818982
0.870386 1.548679 6.721152
0.845547 1.504482 7.421600
0.848134 1.509086 8.449958
0.788853 1.403607 9.272100
0.938742 1.358095 0.191685
1.015637 1.469340 0.912819
0.973546 1.408447 1.691614
0.984056 1.423650 2.500858
0.908622 1.314519 3.399536
1.020890 1.476940 4.142729
1.173931 1.698346 4.936523
1.085755 1.570781 5.818982
1.032751 1.494099 6.354466
1.005028 1.453992 7.237763
0.952126 1.377458 8.061918
0.910580 1.317351 9.015499
1.058637 1.242328 0.724570
1.138358 1.335882 1.519531
1.109678 1.302226 2.171324
1.147491 1.346600 3.042594
1.166366 1.368750 3.670917
1.213037 1.423519 4.585123
1.260522 1.479244 5.533195
1.227627 1.440641 6.200796
1.226892 1.439778 7.083383
1.131889 1.328291 7.781836
1.063191 1.247672 8.614980
0.884525 1.038005 9.637006
1.056467 1.030695 0.192544
1.301058 1.269320 1.156138
1.255437 1.224812 2.041102
1.248419 1.217965 2.702743
1.268602 1.237656 3.384379
1.318661 1.286493 4.341481
1.292347 1.260821 5.077465
1.352207 1.319221 6.016986
1.359763 1.326593 6.699883
1.351410 1.318444 7.731284
1.343072 1.310309 8.529377
1.145970 1.118016 9.341858
1.296665 1.061148 0.053212
1.384348 1.132906 1.018938
1.283578 1.050438 1.608609
1.324316 1.083777 2.587526
1.383139 1.131916 3.265497
1.435886 1.175082 4.232787
1.225671 1.003049 4.716324
1.292169 1.057469 5.561418
1.490044 1.219404 6.401792
1.434855 1.174238 7.155933
1.431892 1.171814 8.047705
1.352666 1.106978 9.093674
1.242481 0.842001 0.181732
1.478037 1.001631 0.880982
1.419305 0.961830 1.744775
1.429872 0.968992 2.447718
1.496329 1.014027 3.498900
1.503152 1.018651 4.097667
1.511064 1.024014 4.837847
1.625607 1.101636 5.843258
1.628868 1.103846 6.503371
1.616573 1.095515 7.542752
1.585374 1.074371 8.354698
1.427302 0.967250 9.211366
1.339770 0.730066 0.149566
1.596362 0.869888 1.166741
1.514834 0.825462 1.968012
1.509609 0.822615 2.704474
1.551451 0.845415 3.320679
1.619763 0.882639 4.362674
1.706394 0.929847 4.973505
1.799288 0.980466 5.905866
1.771475 0.965310 6.646968
1.745353 0.951076 7.590769
1.682368 0.916754 8.476346
1.461968 0.796654 9.068148
1.422187 0.619030 0.213529
1.637321 0.712670 0.891594
1.574713 0.685419 1.808563
1.583752 0.689354 2.447718
1.643702 0.715447 3.329165
1.660841 0.722908 4.055248
1.745558 0.759782 4.860327
1.852669 0.806404 5.716066
1.807421 0.786709 6.524496
1.794323 0.781008 7.563885
1.778397 0.774076 8.349433
1.580044 0.687740 8.987413
1.452213 0.474291 0.416642
1.658760 0.541749 1.232733
1.598755 0.522151 2.098233
1.581296 0.516449 2.622775
1.622652 0.529956 3.497226
1.653910 0.540165 4.546661
1.838718 0.600523 5.286615
1.959172 0.639863 5.817805
1.918461 0.626567 6.940443
1.860647 0.607685 7.695502
1.782719 0.582234 8.407583
1.667825 0.544710 9.338866
1.614573 0.355735 0.468555
1.633629 0.359934 1.320254
1.623822 0.357773 2.206042
1.610235 0.354780 2.773566
1.605470 0.353730 3.631757
1.495487 0.329497 4.484401
1.634449 0.360114 5.224625
1.930686 0.425384 6.252332
1.900848 0.418810 6.822488
1.936317 0.426624 7.822248
1.836966 0.404735 8.550551
1.601140 0.352776 9.501721
1.609750 0.208541 1.332601
1.621287 0.210035 2.154187
1.635114 0.211826 3.105585
1.644385 0.213028 3.780845
1.531741 0.198435 4.807746
1.586775 0.205564 5.603988
1.854265 0.240217 6.215330
1.910889 0.247553 7.273800
1.887835 0.244566 8.058724
1.875792 0.243006 8.826097
1.430652 0.185339 9.538287
1.788827 0.071377 1.071994
1.687245 0.067324 1.724615
1.727242 0.068920 2.468975
1.704993 0.068032 3.197337
1.714982 0.068430 4.108147
1.850846 0.073852 5.049805
1.954235 0.077977 5.790434
1.943302 0.077541 6.366015
1.900773 0.075844 7.278409
1.913165 0.076338 8.233122
1.778264 0.070955 9.119835
1.759907 -0.099985 0.977118
1.679580 -0.095421 1.575659
1.708498 -0.097064 2.587526
1.683118 -0.095622 3.252581
1.726062 -0.098062 4.225073
1.813266 -0.103016 4.763628
1.958970 -0.111294 5.832694
1.971598 -0.112011 6.545618
1.909962 -0.108510 7.199769
1.887433 -0.107230 7.995232
1.854298 -0.105347 9.012300
1.694335 -0.249660 1.702247
1.688836 -0.248850 2.523727
1.662249 -0.244932 3.478178
1.570925 -0.231475 4.315912
1.775539 -0.261625 5.186819
2.015594 -0.296997 5.994006
1.971485 -0.290498 6.651202
1.891472 -0.278708 7.462923
1.830348 -0.269701 8.169355
1.707585 -0.251612 9.109986
1.644563 -0.408096 1.852272
1.664339 -0.413004 2.640687
1.648536 -0.409082 3.401511
1.577992 -0.391577 4.430405
1.678030 -0.416401 5.260505
1.805307 -0.447985 5.826400
1.851839 -0.459532 6.600438
1.875501 -0.465404 7.437056
1.810856 -0.449362 8.243504
1.742673 -0.432442 9.295381
1.563433 -0.539294 0.511149
1.739644 -0.600077 1.070617
1.583637 -0.546264 1.970534
1.617049 -0.557789 2.576893
1.669915 -0.576024 3.598949
1.552541 -0.535537 4.353036
1.627673 -0.561453 5.207360
1.848224 -0.637531 5.952671
1.853713 -0.639424 6.613181
1.846415 -0.636907 7.674370
1.783030 -0.615043 8.338794
1.641094 -0.566083 9.152495
1.531251 -0.698428 2.119514
1.536406 -0.700780 2.973972
1.512144 -0.689713 3.554926
1.388840 -0.633472 4.441671
1.525331 -0.695728 5.245910
1.775747 -0.809947 6.093877
1.746941 -0.796808 7.100047
1.714787 -0.782142 7.842051
1.715656 -0.782538 8.571722
1.518520 -0.692621 9.517101
1.440906 -0.819148 2.110223
1.449924 -0.824275 3.029097
1.467618 -0.834334 3.831633
1.331268 -0.756820 4.484401
1.445949 -0.822015 5.334419
1.738653 -0.988416 6.237793
1.688887 -0.960124 6.801349
1.689459 -0.960450 7.753227
1.615103 -0.918179 8.444655
1.446437 -0.822293 9.495812
1.384875 -0.976346 1.852272
1.408146 -0.992753 2.757624
1.383715 -0.975528 3.337690
1.312372 -0.925231 4.249207
1.464518 -1.032495 5.165599
1.607568 -1.133347 5.864385
1.552094 -1.094237 6.547537
1.577667 -1.112266 7.558102
1.537828 -1.084179 8.317623
1.440759 -1.015745 9.157397
1.291589 -1.096780 1.852272
1.296584 -1.101023 2.428015
1.301163 -1.104910 3.497226
1.287631 -1.093419 4.089490
1.353557 -1.149402 4.844022
1.461599 -1.241148 5.871870
1.496071 -1.270421 6.623745
1.462193 -1.241653 7.363036
1.464616 -1.243710 8.264850
1.367976 -1.161646 9.183507
1.165581 -1.200255 1.927963
1.168738 -1.203505 2.825007
1.159226 -1.193711 3.576218
1.144147 -1.178182 4.353036
1.237015 -1.273813 5.232587
1.368872 -1.409593 6.016060
1.305864 -1.344711 6.846079
1.299711 -1.338375 7.746759
1.314537 -1.353641 8.460515
1.169735 -1.204532 9.345714
1.061492 -1.314443 1.745892
1.082937 -1.340998 2.768253
1.061976 -1.315042 3.305776
1.023004 -1.266783 4.225196
0.915428 -1.133571 5.112069
1.031852 -1.277739 5.891734
1.238368 -1.533468 6.818153
1.188500 -1.471717 7.357116
1.175383 -1.455473 8.386406
1.104400 -1.367575 9.136159
0.884757 -1.339771 0.629082
0.966280 -1.463219 1.477047
0.940254 -1.423809 2.086256
0.939918 -1.423300 2.865740
0.949278 -1.437474 3.667334
0.983598 -1.489445 4.713609
1.000067 -1.514382 5.335320
1.046766 -1.585098 6.243125
1.032885 -1.564078 6.988111
1.026285 -1.554085 7.857593
1.004521 -1.521127 8.518902
0.780713 -1.182220 9.431193
0.820635 -1.493504 0.531764
0.891213 -1.621950 1.399097
0.812170 -1.478097 2.183353
0.810885 -1.475760 2.910135
0.807035 -1.468751 3.703945
0.867265 -1.578366 4.421298
0.836055 -1.521567 5.313639
0.852854 -1.552141 6.231135
0.883651 -1.608188 6.765645
0.893760 -1.626586 7.825816
0.862951 -1.570515 8.726052
0.684098 -1.245015 9.339683
0.736558 -1.698276 0.222487
0.768722 -1.772436 0.708435
0.669723 -1.544175 1.596940
0.666631 -1.537045 2.418926
0.697063 -1.607213 3.140146
0.781857 -1.802722 4.081947
0.803714 -1.853115 4.781505
0.625589 -1.442415 5.586195
0.604210 -1.393121 6.545831
0.683738 -1.576489 7.246901
0.714029 -1.646330 8.147817
0.679917 -1.567679 8.811747
0.484093 -1.476362 0.501782
0.527508 -1.608767 1.170490
0.532705 -1.624615 2.150058
0.532416 -1.623735 2.908275
0.524382 -1.599233 3.778435
0.589682 -1.798382 4.561026
0.605951 -1.847997 5.177566
0.527620 -1.609109 5.894914
0.530914 -1.619155 6.887103
0.541762 -1.652237 7.749963
0.520545 -1.587531 8.641530
0.448610 -1.368147 9.312488
0.382268 -1.682758 -0.106288
0.345141 -1.519324 0.768659
0.366573 -1.613668 1.512781
0.350199 -1.541588 2.082266
0.356112 -1.567620 3.216170
0.443871 -1.953939 3.971193
0.487186 -2.144611 4.599514
0.435673 -1.917850 5.519099
0.372920 -1.641608 6.157882
0.382194 -1.682432 7.146694
0.399517 -1.758691 8.068455
0.231970 -1.760386 -0.095536
0.239756 -1.819477 0.869252
0.220540 -1.673651 1.713976
0.254430 -1.930837 3.912893
0.277191 -2.103566 4.790279
0.252486 -1.916082 5.804701
0.227201 -1.724200 6.651043
0.226310 -1.717435 7.321303
0.212076 -1.609417 8.061377
0.207389 -1.573849 9.176130
0.059890 -1.552547 0.501782
0.065237 -1.691153 1.149215
0.063824 -1.654528 2.078280
0.072780 -1.886697 2.958769
0.085327 -2.211947 3.547033
0.086592 -2.244729 4.572610
0.077426 -2.007118 5.276481
0.059044 -1.530605 5.995846
0.052694 -1.365989 6.847108
0.061109 -1.584144 7.747228
0.063915 -1.656881 8.700178
0.051652 -1.338978 9.324834
-0.083734 -1.523223 0.053417
-0.082648 -1.503464 0.641380
-0.090784 -1.651468 1.491485
-0.110994 -2.019100 3.905359
-0.125063 -2.275032 4.834670
-0.088365 -1.607453 8.119737
-0.083883 -1.525931 8.919941
-0.227053 -1.538386 0.597861
-0.243280 -1.648334 1.107372
-0.230575 -1.562251 2.050261
-0.224020 -1.517838 2.921292
-0.276382 -1.872617 3.608610
-0.319481 -2.164629 4.505004
-0.293698 -1.989937 5.297583
-0.257555 -1.745055 6.025518
-0.219765 -1.489007 6.911197
-0.216445 -1.466516 7.612125
-0.240374 -1.628643 8.646934
-0.199613 -1.352472 9.545268
-0.421533 -1.699047 -0.074354
-0.436633 -1.759911 0.997074
-0.399287 -1.609382 1.597962
-0.525863 -2.119563 2.535065
-0.581622 -2.344309 3.275881
-0.469738 -1.893342 3.944597
-0.419725 -1.691760 4.783372
-0.403138 -1.624904 7.145069
-0.333540 -1.344377 8.144054
-0.345751 -1.393596 9.076236
-0.540606 -1.566543 0.724107
-0.530748 -1.537977 1.439162
-0.599365 -1.736811 4.063254
-0.557141 -1.614457 4.701361
-0.473942 -1.373368 7.185590
-0.404869 -1.173209 7.938491
-0.431808 -1.251274 8.808523
-0.664912 -1.455839 0.021326
-0.659419 -1.443812 0.960176
-0.620528 -1.358659 1.840375
-0.808086 -1.769322 2.710039
-0.942862 -2.064416 3.330593
-0.528451 -1.157056 8.335836
-0.551414 -1.207334 9.271156
-0.991592 -1.737811 0.158306
-0.972828 -1.704925 0.982665
-0.732231 -1.283269 1.455380
-0.950753 -1.666239 3.873102
-0.708564 -1.241791 4.691445
-0.539270 -0.945095 5.732490
-0.319447 -0.559845 6.624480
-0.301437 -0.528282 7.566451
-0.577414 -1.011945 8.313399
-0.674033 -1.181274 8.969524
-0.806714 -1.148750 0.503705
-0.878050 -1.250331 1.464209
-0.995827 -1.418044 3.773615
-1.107069 -1.576452 4.417755
-0.867961 -1.235965 5.322667
-0.489370 -0.696857 6.177848
-0.443132 -0.631014 7.209171
-0.582479 -0.829442 8.074401
-0.728382 -1.037206 8.900188
-0.594492 -0.846548 9.763564
-0.924348 -1.089960 0.535513
-1.015945 -1.197968 1.259610
-0.889363 -1.048707 1.974938
-0.714631 -0.842669 2.877323
-0.945720 -1.115161 3.832225
-0.609729 -0.718971 7.032731
-0.600544 -0.708142 7.775924
-0.774471 -0.913230 8.701127
-0.796731 -0.939478 9.623702
-1.164440 -1.134819 0.191808
-1.134156 -1.105305 0.800171
-1.050386 -1.023666 1.798750
-1.143425 -1.114338 2.359586
-1.306927 -1.273682 3.411855
-1.289062 -1.256271 4.185165
-1.001400 -0.975926 4.847463
-0.646305 -0.629864 5.670742
-0.447512 -0.436129 6.504291
-0.630586 -0.614545 7.526311
-0.893450 -0.870723 8.341007
-0.936133 -0.912320 9.185235
-1.305754 -1.059642 0.691721
-1.051187 -0.853056 1.492206
-1.043004 -0.846415 2.310248
-1.191579 -0.966987 3.243682
-1.401855 -1.137629 3.745173
-1.231791 -0.999620 4.737658
-0.854901 -0.693767 5.466269
-0.568756 -0.461555 6.542775
-0.630106 -0.511342 7.291770
-0.977041 -0.792886 8.147898
-0.897404 -0.728259 8.744237
-1.146047 -0.761896 0.235932
-1.180735 -0.784956 1.168026
-1.104409 -0.734214 1.998922
-1.039574 -0.691112 2.780387
-1.274790 -0.847484 3.491495
-1.536150 -1.021237 4.362674
-1.230556 -0.818077 5.076752
-0.791734 -0.526347 5.829864
-0.682780 -0.453914 6.763198
-0.890552 -0.592042 7.714721
-1.045334 -0.694941 8.496838
-0.986880 -0.656081 9.429846
-1.232567 -0.666293 0.225064
-1.224734 -0.662059 1.147330
-1.140011 -0.616260 1.892737
-1.227147 -0.663363 2.726968
-1.568191 -0.847723 3.501140
-1.678993 -0.907620 4.023720
-1.290239 -0.697469 4.991169
-0.883689 -0.477699 6.021165
-0.717589 -0.387910 6.887054
-0.882631 -0.477127 7.503096
-1.120991 -0.605978 8.346588
-0.997224 -0.539073 9.100645
-1.244019 -0.526117 0.128772
-1.184503 -0.500947 0.913796
-1.156727 -0.489200 1.549781
-1.054429 -0.445936 2.343543
-1.362269 -0.576127 3.474543
-1.712081 -0.724069 4.264566
-1.352783 -0.572115 4.806187
-0.879627 -0.372010 5.685367
-0.644095 -0.272399 6.649050
-0.850708 -0.359779 7.619318
-1.154816 -0.488392 8.126385
-1.134341 -0.479732 9.191502
-0.911231 -0.291536 0.704572
-1.209172 -0.386858 1.226251
-1.146859 -0.366922 2.059116
-1.116135 -0.357092 3.100124
-1.438055 -0.460086 3.805991
-0.965003 -0.308739 7.143107
-1.256231 -0.401914 7.945180
-1.274511 -0.407762 8.872941
-0.931874 -0.298140 9.639601
-0.926751 -0.213001 0.184282
-1.166587 -0.268124 1.303995
-1.213313 -0.278863 1.873617
-1.137158 -0.261360 2.688637
-1.427570 -0.328107 3.594464
-1.606657 -0.369268 4.179911
-1.140721 -0.262179 5.039809
-0.571246 -0.131293 5.928043
-0.826348 -0.189925 6.926277
-1.301896 -0.299223 7.774331
-1.270996 -0.292121 8.486309
-1.159969 -0.266603 9.451397
-1.291118 -0.161122 -0.225637
-1.247011 -0.155618 0.699254
-1.145851 -0.142994 1.521354
-1.137953 -0.142008 2.375903
-1.119336 -0.139685 3.179581
-1.316564 -0.164298 3.986418
-1.316306 -0.164266 4.878119
-0.867892 -0.108307 5.652547
-0.555356 -0.069304 6.413801
-0.969468 -0.120983 7.362315
-1.335274 -0.166633 7.950968
-1.330256 -0.166006 8.996550
-1.427136 -0.057991 0.471255
-1.240954 -0.050426 1.140946
-1.154371 -0.046907 2.083288
-1.116903 -0.045385 3.050063
-1.213416 -0.049307 3.867294
-1.169055 -0.047504 4.624091
-0.861077 -0.034989 5.377553
-0.725712 -0.029489 6.186097
-1.006192 -0.040886 6.965550
-1.405054 -0.057094 7.871831
-1.396306 -0.056738 8.679543
-1.007857 -0.040954 9.552057
-0.399984 0.021110 0.065941
-1.162008 0.061329 1.737019
-1.101971 0.058160 2.486895
-1.113983 0.058794 3.332739
-1.070720 0.056511 4.197881
-0.870276 0.045932 5.066889
-0.735117 0.038798 5.917013
-1.032976 0.054519 6.682313
-1.406819 0.074250 7.626415
-1.379314 0.072798 8.368773
-1.221747 0.064482 9.375183
-1.315310 0.193353 0.558350
-1.355271 0.199227 1.233868
-1.141921 0.167864 2.061719
-1.131913 0.166393 2.722696
-1.191403 0.175138 3.488039
-1.151884 0.169329 4.351744
-0.897314 0.131907 5.338311
-0.721595 0.106076 6.040606
-1.041290 0.153071 6.935284
-1.339068 0.196845 7.603754
-1.416136 0.208174 8.716993
-1.066744 0.156813 9.626823
-1.269293 0.306440 0.644652
-1.126235 0.271902 1.618410
-1.106215 0.267069 2.224874
-1.088229 0.262726 3.071652
-1.126894 0.272061 4.068751
-0.972089 0.234687 4.676905
-0.715007 0.172621 5.561146
-0.866332 0.209155 6.583689
-1.207704 0.291571 7.146297
-1.321374 0.319014 7.892382
-1.177531 0.284286 8.878892
-1.044254 0.359232 0.550743
-1.196345 0.411552 1.075699
-1.097435 0.377526 2.180340
-1.072120 0.368818 2.929464
-1.118786 0.384871 3.533347
-1.017185 0.349920 4.459952
-0.744862 0.256238 5.199261
-0.719786 0.247612 6.247632
-1.004615 0.345595 7.134250
-1.325677 0.456043 7.850398
-1.344537 0.462531 8.674152
-0.960789 0.330519 9.367292
-0.251188 0.113422 0.099218
-1.058397 0.477911 1.683108
-1.017289 0.459349 2.681235
-1.017521 0.459454 3.343533
-0.979298 0.442195 4.219495
-0.799516 0.361016 4.911728
-0.710139 0.320658 5.866146
-0.972875 0.439295 6.576753
-1.246575 0.562881 7.412000
-1.250550 0.564676 8.325877
-1.108065 0.500339 9.342883
-0.305239 0.173592 0.231078
-0.428486 0.243683 1.184553
-0.943536 0.536596 1.664691
-0.976083 0.555105 2.778381
-0.992928 0.564686 3.352217
-0.941089 0.535204 4.295131
-0.767232 0.436331 4.955166
-0.687045 0.390728 6.109332
-0.970926 0.552173 6.868394
-1.215580 0.691309 7.439527
-1.187357 0.675259 8.416890
-1.004916 0.571503 9.197730
-1.171358 0.818751 0.535513
-1.042533 0.728705 1.301520
-0.988324 0.690815 2.091428
-1.044989 0.730422 3.135313
-1.052263 0.735507 3.806241
-1.089266 0.761371 4.474941
-0.951593 0.665141 5.534921
-0.490636 0.342942 6.340303
-0.716880 0.501082 7.358818
-1.120806 0.783417 8.058262
-1.026912 0.717786 8.835654
-0.750559 0.524623 9.804290
-0.686848 0.582723 0.141099
-0.735609 0.624091 1.062206
-0.875944 0.743151 1.953866
-0.846751 0.718384 2.594869
-1.030754 0.874492 3.453383
-1.237024 1.049492 4.398436
-0.913535 0.775043 5.058194
-0.574075 0.487045 5.858887
-0.803425 0.681626 6.645726
-1.074250 0.911394 7.626415
-1.126666 0.955864 8.460155
-0.972476 0.825049 9.158660
-0.892974 0.913120 0.365546
-1.027875 1.051064 1.241431
-0.836965 0.855847 1.919081
-1.105934 1.130885 2.885570
-1.229649 1.257390 3.514000
-1.016917 1.039859 6.150151
-0.814087 0.832453 6.849064
-0.936956 0.958094 7.795800
-0.947611 0.968990 8.486511
-0.725626 0.741996 9.350733
-0.708925 0.874161 -0.021585
-0.653294 0.805563 0.962857
-0.857916 1.057880 1.696058
-1.062171 1.309742 2.589182
-1.212226 1.494771 3.403112
-1.200728 1.480594 4.237950
-1.020136 1.257910 5.004214
-0.680488 0.839096 5.678472
-0.461757 0.569384 6.699454
-0.629409 0.776112 7.481444
-0.889388 1.096687 8.272670
-0.779902 0.961681 8.997311
-0.791525 1.186467 0.246342
-0.811531 1.216455 0.963243
-0.759078 1.137830 1.824783
-0.956996 1.434502 2.778882
-1.120281 1.679260 3.331081
-0.943745 1.414638 4.195862
-0.692653 1.038262 5.248742
-0.505497 0.757721 5.902233
-0.552806 0.828636 6.755594
-0.741345 1.111249 7.774331
-0.815416 1.222279 8.540332
-0.732280 1.097660 9.454537
-0.775893 1.429842 0.319678
-0.793708 1.462674 1.032855
-0.670368 1.235378 2.080852
-0.839924 1.547841 2.936415
-0.979512 1.805079 3.444883
-0.818844 1.508995 4.344729
-0.642555 1.184122 5.235554
-0.501194 0.923618 6.158020
-0.494762 0.911764 6.993680
-0.622113 1.146451 7.613241
-0.678155 1.249728 8.674152
-0.583003 1.074378 9.261781
-0.627493 1.475135 0.447831
-0.673671 1.583692 1.265414
-0.568415 1.336253 2.013991
-0.710579 1.670456 2.644533
-0.830188 1.951638 3.629864
-0.677685 1.593129 4.472279
-0.531295 1.248988 5.310668
-0.399692 0.939612 5.963317
-0.352048 0.827609 6.783222
-0.477054 1.121477 7.696827
-0.534679 1.256944 8.416890
-0.495948 1.165894 9.342124
-0.378911 1.145658 0.700140
-0.486509 1.470985 1.367188
-0.369915 1.118456 2.038862
-0.630378 1.905980 3.757660
-0.568183 1.717930 4.495547
-0.490713 1.483694 5.337285
-0.308822 0.933738 6.212859
-0.333901 1.009566 7.279245
-0.413766 1.251042 7.811398
-0.456968 1.381666 8.824050
-0.356983 1.079357 9.761243
-0.301544 1.316404 -0.032193
-0.310323 1.354729 1.061570
-0.355701 1.552828 1.825021
-0.357966 1.562717 2.466216
-0.434250 1.895737 3.348085
-0.461697 2.015560 4.103075
-0.396064 1.729036 5.027628
-0.289436 1.263546 5.943940
-0.163549 0.713981 6.542775
-0.223572 0.976015 7.492270
-0.335361 1.464035 8.454884
-0.344143 1.502371 9.198229
-0.169615 1.267566 0.516057
-0.211688 1.581986 1.269470
-0.242265 1.810496 1.994773
-0.305993 2.286752 2.863647
-0.307365 2.297000 3.843820
-0.242312 1.810847 4.429076
-0.185445 1.385866 5.239679
-0.140171 1.047525 6.356533
-0.125888 0.940784 7.210601
-0.166569 1.244807 7.756595
-0.199662 1.492112 8.588466
-0.161424 1.206352 9.456348
-0.063018 1.553298 0.565835
-0.067698 1.668651 1.235105
-0.082703 2.038510 2.237601
-0.095984 2.365866 3.585539
-0.085040 2.096102 4.376891
-0.071406 1.760041 5.126416
-0.058822 1.449884 5.964384
-0.048122 1.186144 6.834022
-0.050825 1.252758 7.745838
-0.062970 1.552108 8.689905
-0.054579 1.345285 9.459434
0.068910 1.449322 0.192667
0.072949 1.534277 0.908001
0.100217 2.107776 3.514117
0.111725 2.349824 4.178625
0.098849 2.079010 4.870171
0.085961 1.807940 7.328667
0.071513 1.504072 8.353440
0.074117 1.558852 9.171166
0.188871 1.289831 0.494242
0.245438 1.676140 1.202403
0.345085 2.356649 3.731863
0.339858 2.320948 4.560802
0.310217 2.118530 5.322690
0.269192 1.838362 6.141193
0.203257 1.388081 6.907130
0.187233 1.278650 7.939377
0.218615 1.492963 8.486950
0.197589 1.349369 9.637006
0.341933 1.435861 0.203241
0.361237 1.516924 0.832705
0.379282 1.592699 1.694865
0.361920 1.519793 2.608132
0.460825 1.935119 3.280444
0.545588 2.291058 3.966835
0.528967 2.221264 5.068367
0.447716 1.880072 5.804701
0.248474 1.043405 6.453814
0.243815 1.023838 7.493810
0.358577 1.505754 8.310989
0.347272 1.458281 9.016588
0.446733 1.303778 0.461131
0.531889 1.552304 1.097429
0.535442 1.562675 2.003742
0.475945 1.389033 2.700379
0.612621 1.787920 3.576860
0.770968 2.250052 4.186367
0.698184 2.037633 5.042672
0.577342 1.684960 5.805687
0.519804 1.517035 6.893833
0.528886 1.543542 7.461615
0.515561 1.504653 8.391142
0.436487 1.273877 9.243963
0.531161 1.187589 0.193404
0.647845 1.448475 0.938842
0.668457 1.494560 1.694865
0.764834 1.710043 2.757626
0.935851 2.092410 3.582049
0.966488 2.160908 4.081845
0.892355 1.995159 5.091950
0.746460 1.668963 5.950452
0.644504 1.441006 6.601614
0.682877 1.526801 7.542089
0.672555 1.503723 8.535061
0.584415 1.306657 9.167560
0.702816 1.240998 0.235632
0.795870 1.405310 1.066155
0.822205 1.451810 1.832169
0.920582 1.625520 2.683502
0.971123 1.714764 3.356495
1.032033 1.822314 4.345308
1.054003 1.861109 5.119536
0.918753 1.622290 5.685045
0.873644 1.542639 6.699922
0.846391 1.494517 7.511342
0.805425 1.422181 8.236964
0.787228 1.390049 9.218790
0.852776 1.235795 0.277941
0.961222 1.392949 1.149215
0.959318 1.390191 1.735254
0.950804 1.377852 2.397641
0.898879 1.302605 3.218220
1.000529 1.449911 4.060434
1.150607 1.667396 5.027247
1.075593 1.558689 5.713175
1.021938 1.480935 6.706290
1.008386 1.461297 7.280227
0.972469 1.409248 8.120665
0.888745 1.287920 8.967761
0.806692 0.956113 0.193649
1.057023 1.252812 1.033517
1.080966 1.281189 1.991818
1.089729 1.291575 2.642377
1.163169 1.378618 3.456472
1.217006 1.442427 4.293593
1.128121 1.337079 5.225295
1.095648 1.298590 5.763578
1.156771 1.371036 6.674462
1.091856 1.294096 7.383730
1.124660 1.332977 8.391549
1.028135 1.218572 9.095784
1.101884 1.092100 0.266911
1.256191 1.245037 1.189475
1.217735 1.206923 1.744775
1.213434 1.202660 2.544994
1.277804 1.266459 3.403432
1.392539 1.380175 4.274782
1.244542 1.233492 4.857731
1.275255 1.263932 5.901192
1.368052 1.355905 6.706203
1.325955 1.314182 7.493552
1.285929 1.274511 8.343942
1.174544 1.164116 9.239265
1.308055 1.084654 1.361953
1.297801 1.076151 2.172714
1.322883 1.096949 3.035860
1.392642 1.154794 4.034037
1.290680 1.070246 4.651148
1.353422 1.122273 5.472982
1.527116 1.266302 6.294569
1.489548 1.235150 7.042693
1.464075 1.214027 7.926715
1.246492 0.839687 0.438287
1.424887 0.959861 1.169741
1.392545 0.938074 2.045027
1.445964 0.974060 3.033919
1.484084 0.999739 3.575426
1.456582 0.981212 4.684756
1.526001 1.027976 5.515537
1.635079 1.101455 6.058310
1.608050 1.083247 7.063835
1.550225 1.044294 7.636001
1.528251 1.029492 8.492359
1.237619 0.833710 9.424377
1.450704 0.789341 0.287527
1.593242 0.866897 1.018283
1.497273 0.814680 2.054354
1.510123 0.821672 2.704474
1.537365 0.836495 3.418412
1.585111 0.862474 4.227596
1.732552 0.942697 5.195380
1.772550 0.964461 5.867449
1.682319 0.915366 6.642750
1.661412 0.903990 7.488815
1.642068 0.893464 8.497611
1.395150 0.759114 9.288536
1.537530 0.677145 0.595952
1.572012 0.692331 1.159110
1.496702 0.659163 2.164841
1.581653 0.696577 2.832025
1.634177 0.719709 3.800634
1.553940 0.684372 4.400684
1.650291 0.726806 5.250472
1.830326 0.806095 6.237793
1.779634 0.783770 6.811919
1.782413 0.784994 7.774365
1.755952 0.773340 8.719851
1.464051 0.644783 9.443664
1.685813 0.559998 0.265377
1.673117 0.555781 0.987737
1.612468 0.535634 1.948001
1.626697 0.540361 2.630055
1.717204 0.570426 3.520112
1.733951 0.575989 4.203693
1.861171 0.618249 5.110876
1.872076 0.621871 5.733937
1.822060 0.605257 6.816247
1.773828 0.589235 7.372363
1.771884 0.588589 8.487021
1.608401 0.534283 9.195843
1.593134 0.370896 0.895030
1.489626 0.346799 1.506939
1.578706 0.367538 2.347423
1.674963 0.389947 3.356820
1.709316 0.397945 3.996715
1.789273 0.416559 4.728794
1.846115 0.429793 5.550844
1.892503 0.440592 6.355446
1.815335 0.422627 7.208895
1.847576 0.430133 8.270062
1.818510 0.423366 9.054666
1.687768 0.231132 1.478942
1.672122 0.228990 2.204632
1.710129 0.234194 3.131527
1.747573 0.239322 3.834921
1.633801 0.223742 4.838160
1.739926 0.238275 5.635814
1.925843 0.263735 6.203476
1.898493 0.259990 7.078894
1.905912 0.261006 8.032492
1.500518 0.066235 0.342080
1.720749 0.075956 1.307934
1.659955 0.073272 2.184750
1.716850 0.075784 3.035860
1.754925 0.077464 3.760585
1.547256 0.068298 4.633912
1.642750 0.072513 5.380411
1.964611 0.086720 6.026623
1.936804 0.085493 6.921979
1.904372 0.084061 7.694664
1.908248 0.084232 8.566331
1.654468 0.073030 9.463872
1.654125 -0.073540 2.078280
1.685398 -0.074931 2.952694
1.720932 -0.076511 3.667334
1.500165 -0.066695 4.444488
1.641263 -0.072969 5.369759
1.986171 -0.088303 6.163905
1.950108 -0.086699 6.854191
1.916325 -0.085197 7.626353
1.898909 -0.084423 8.524012
1.658196 -0.073721 9.372831
1.592557 -0.223875 1.600007
1.597743 -0.224604 2.219523
1.688874 -0.237415 3.186703
1.736861 -0.244161 3.986094
1.785635 -0.251017 4.862150
1.851023 -0.260210 5.543795
1.948502 -0.273913 6.503371
1.902216 -0.267406 7.242076
1.880729 -0.264385 8.037563
1.846364 -0.259555 8.932530
1.244068 -0.292322 0.440802
1.697435 -0.398851 1.190239
1.647148 -0.387035 2.279101
1.661187 -0.390334 2.876374
1.680876 -0.394960 3.709850
1.468055 -0.344953 4.714614
1.615178 -0.379523 5.486900
1.920808 -0.451338 6.068872
1.916770 -0.450389 6.949273
1.865935 -0.438444 7.747555
1.837976 -0.431874 8.582307
1.546254 -0.363328 9.502873
1.654245 -0.556441 1.243357
1.559645 -0.524620 1.875945
1.587165 -0.533878 2.782438
1.640409 -0.551787 3.752361
1.444538 -0.485902 4.420305
1.525957 -0.513289 5.124675
1.887576 -0.634927 6.185018
1.834334 -0.617018 6.759067
1.826024 -0.614223 7.668654
1.773183 -0.596449 8.386406
1.586595 -0.533686 9.324429
1.532994 -0.676789 1.981176
1.564688 -0.690781 2.929542
1.566872 -0.691745 3.561024
1.398675 -0.617489 4.463037
1.479251 -0.653062 5.177972
1.779682 -0.785697 5.889266
1.767099 -0.780142 6.737923
1.775902 -0.784028 7.742657
1.738866 -0.767677 8.524012
1.512828 -0.667886 9.239265
1.453744 -0.813365 2.259270
1.481157 -0.828703 2.748752
1.518153 -0.849402 3.580001
1.326629 -0.742245 4.604798
1.428642 -0.799321 5.327151
1.746846 -0.977355 6.248347
1.740022 -0.973537 7.086540
1.670895 -0.934861 7.736978
1.633438 -0.913904 8.508200
1.448526 -0.810446 9.372831
1.396958 -0.959114 2.321651
1.412539 -0.969812 3.282401
1.437976 -0.987276 3.890493
1.294152 -0.888530 4.598961
1.412079 -0.969496 5.685508
1.620811 -1.112806 6.340837
1.578132 -1.083504 7.068317
1.595292 -1.095285 7.964002
1.282726 -1.071715 1.896033
1.285639 -1.074150 2.793081
1.315885 -1.099420 3.582288
1.253287 -1.047119 4.494335
1.334543 -1.115008 5.334890
1.530878 -1.279046 6.206130
1.506644 -1.258799 6.917584
1.468445 -1.226883 7.858256
1.457892 -1.218066 8.635221
1.287548 -1.075744 9.447341
1.184424 -1.195688 2.119514
1.185024 -1.196294 2.910135
1.216565 -1.228136 3.731106
1.152248 -1.163207 4.742299
1.239438 -1.251226 5.494221
1.378763 -1.391876 6.298581
1.356727 -1.369631 7.142345
1.349193 -1.362025 8.000765
1.254429 -1.266360 8.683604
0.891395 -0.899873 9.660802
1.079617 -1.309384 2.364199
1.068713 -1.296159 2.856932
1.083248 -1.313788 3.722854
1.075258 -1.304097 4.552457
1.177252 -1.427798 5.589710
1.228035 -1.489389 6.118908
1.230152 -1.491957 7.174064
1.203092 -1.459138 7.873804
1.135461 -1.377113 8.694217
0.835491 -1.013302 9.535579
0.944697 -1.397118 2.183353
0.961231 -1.421572 3.003967
0.964298 -1.426107 3.914238
0.943306 -1.395062 4.499261
1.033166 -1.527957 5.547328
1.086921 -1.607455 6.182337
1.064751 -1.574668 6.994263
1.055720 -1.561312 7.842051
1.006433 -1.488421 8.747272
0.788638 -1.166322 9.501334
0.812651 -1.472882 0.723643
0.882530 -1.599533 1.431801
0.823456 -1.492465 2.054354
0.831406 -1.506874 3.067751
0.771098 -1.397569 3.657715
0.832145 -1.508214 4.613343
0.783893 -1.420760 5.220602
0.804577 -1.458248 6.204363
0.929251 -1.684213 6.979254
0.918807 -1.665284 7.926715
0.850861 -1.542136 8.588059
0.670186 -1.214672 9.415588
0.560053 -1.283988 -0.160761
0.632051 -1.449053 0.650821
0.732169 -1.678584 1.548407
0.687962 -1.577236 2.341427
0.691474 -1.585287 3.174039
0.723442 -1.658578 3.787599
0.774543 -1.775734 4.512908
0.737430 -1.690646 5.547328
0.677093 -1.552318 6.221715
0.714548 -1.638187 6.927125
0.753211 -1.726827 7.963478
0.720258 -1.651278 8.768489
0.526114 -1.206180 9.546320
0.516282 -1.567674 -0.031948
0.487293 -1.479650 0.757985
0.526226 -1.597867 1.575659
0.530051 -1.609483 2.321651
0.537560 -1.632283 3.035860
0.633539 -1.923720 3.937001
0.672011 -2.040541 4.594931
0.595969 -1.809640 5.441527
0.590139 -1.791937 6.473455
0.562754 -1.708786 7.133167
0.509546 -1.547221 7.838290
0.347164 -1.513510 0.427052
0.378443 -1.649879 1.159853
0.373471 -1.628202 1.874745
0.382428 -1.667251 2.576893
0.401601 -1.750837 3.649699
0.441830 -1.926223 4.187567
0.468939 -2.044410 4.996525
0.382588 -1.667947 6.011900
0.345417 -1.505895 6.849131
0.387677 -1.690132 7.596371
0.388385 -1.693219 8.359675
0.360793 -1.572928 9.395163
0.205601 -1.537124 -0.160147
0.206300 -1.542346 0.661912
0.215494 -1.611086 1.396539
0.216213 -1.616458 2.507262
0.292237 -2.184834 4.641509
0.258763 -1.934577 5.413448
0.230975 -1.726826 6.519380
0.218040 -1.630122 7.260609
0.216143 -1.615939 7.971107
0.210698 -1.575231 8.849967
0.077230 -1.598740 0.095966
0.085066 -1.760959 0.987737
0.077683 -1.608109 1.642649
0.079449 -1.644682 2.741616
0.093500 -1.935553 3.551130
0.099933 -2.068721 4.134680
0.100141 -2.073025 5.020802
0.087571 -1.812798 5.692287
0.075477 -1.562439 6.516248
0.076664 -1.587024 7.370333
0.079934 -1.654703 8.221159
0.072926 -1.509631 9.070032
-0.067734 -1.555353 0.704611
-0.079383 -1.822827 1.368192
-0.072862 -1.673083 1.959891
-0.066167 -1.519356 3.072758
-0.079322 -1.821434 3.925451
-0.098174 -2.254329 4.656493
-0.085235 -1.957214 5.283237
-0.055758 -1.280348 6.177244
-0.051892 -1.191570 7.010734
-0.064339 -1.477378 7.723877
-0.065668 -1.507895 8.722117
-0.053252 -1.222809 9.591409
-0.234713 -1.709567 -0.095659
-0.229037 -1.668218 0.808766
-0.215409 -1.568957 1.611697
-0.253897 -1.849290 4.103018
-0.269608 -1.963723 4.882683
-0.261011 -1.901111 7.231500
-0.217472 -1.583986 8.066428
-0.212842 -1.550260 8.967761
-0.345088 -1.487473 0.341862
-0.358102 -1.543571 0.842840
-0.335724 -1.447113 1.658591
-0.455669 -1.964124 2.652062
-0.524985 -2.262904 3.368141
-0.447657 -1.929590 4.229806
-0.405858 -1.749416 5.003207
-0.338373 -1.458530 5.935491
-0.213975 -0.922322 6.763981
-0.236469 -1.019281 7.461371
-0.330793 -1.425857 8.395965
-0.308539 -1.329934 9.103854
-0.484652 -1.451618 0.619607
-0.537782 -1.610755 1.330045
-0.568815 -1.703703 3.906744
-0.569056 -1.704426 6.074747
-0.423997 -1.269948 7.117742
-0.404157 -1.210524 7.730270
-0.472519 -1.415278 8.759628
-0.378264 -1.132969 9.575766
-0.625102 -1.421566 0.437728
-0.630455 -1.433738 1.110208
-0.599663 -1.363713 1.754834
-0.656151 -1.492174 2.860583
-0.780417 -1.774772 3.561701
-0.813480 -1.849962 4.364245
-0.598732 -1.361597 4.955935
-0.430918 -0.979964 6.121763
-0.309446 -0.703721 6.760668
-0.364321 -0.828515 7.521668
-0.516617 -1.174855 8.389591
-0.501237 -1.139881 9.358647
-0.757080 -1.356168 0.459079
-0.800284 -1.433558 1.129384
-0.694332 -1.243765 1.961720
-0.474404 -0.849806 2.788886
-0.613614 -1.099174 8.631221
-0.527724 -0.945319 9.431451
-0.876876 -1.283120 0.533809
-0.929743 -1.360480 1.321099
-1.001168 -1.464995 3.683881
-0.517970 -0.757938 6.891738
-0.594915 -0.870530 7.897338
-0.774706 -1.133616 8.684934
-0.656374 -0.960463 9.446431
-1.137688 -1.363108 -0.031845
-1.159194 -1.388875 0.816781
-0.934463 -1.119616 1.606141
-1.062312 -1.272797 2.537603
-1.204248 -1.442856 3.983954
-0.840729 -1.007310 4.759984
-0.775381 -0.929014 7.519806
-0.745105 -0.892739 8.302617
-0.779342 -0.933760 9.013636
-1.148787 -1.150203 0.106560
-1.136644 -1.138045 0.788999
-1.030878 -1.032149 1.616843
-1.180280 -1.181735 2.333781
-1.327251 -1.328887 3.151275
-1.253617 -1.255162 4.177224
-0.971213 -0.972410 5.057417
-0.634647 -0.635429 5.815412
-0.227288 -0.227568 6.508310
-0.405371 -0.405871 7.652338
-0.820137 -0.821148 8.291835
-0.868205 -0.869275 9.067466
-1.279213 -1.054484 0.756048
-1.043069 -0.859825 1.438554
-1.062243 -0.875631 2.448210
-1.212602 -0.999575 3.079520
-1.396255 -1.150964 3.787599
-1.220116 -1.005769 4.694988
-0.858828 -0.707951 5.552649
-0.543463 -0.447989 6.368320
-0.610935 -0.503607 7.182963
-0.898886 -0.740971 8.066061
-0.809916 -0.554149 0.682465
-1.195298 -0.817829 1.338565
-1.454888 -0.995442 3.824302
-1.515881 -1.037174 4.513874
-1.181724 -0.808542 5.486089
-0.598040 -0.409182 6.175195
-0.646988 -0.442673 7.139425
-0.985630 -0.674373 7.959127
-1.002003 -0.685576 8.776520
-0.760880 -0.520598 9.618852
-1.285997 -0.723521 -0.074879
-1.209568 -0.680521 0.986526
-1.117840 -0.628913 1.591799
-1.249811 -0.703162 2.562905
-1.526808 -0.859004 3.140146
-1.560858 -0.878161 4.100287
-1.232670 -0.693518 4.976053
-0.787875 -0.443270 5.681595
-0.584837 -0.329038 6.631317
-0.861987 -0.484967 7.561895
-1.102676 -0.620382 8.303576
-1.011920 -0.569321 9.219296
-1.079946 -0.476165 0.614365
-1.299756 -0.573082 1.253725
-1.454191 -0.641175 3.583060
-1.433434 -0.632023 4.350672
-1.025991 -0.452375 5.430472
-0.604048 -0.266334 6.084573
-0.772477 -0.340597 7.050149
-1.128651 -0.497639 7.772182
-1.167757 -0.514882 8.593626
-0.988275 -0.435745 9.420647
-1.231832 -0.417123 -0.064468
-1.095235 -0.370868 0.679459
-1.116231 -0.377978 1.488060
-1.019658 -0.345277 2.456045
-1.228791 -0.416093 3.101096
-1.610065 -0.545200 3.948644
-1.452005 -0.491678 4.917623
-1.011662 -0.342569 5.768496
-0.583503 -0.197586 6.449641
-0.772385 -0.261545 7.313525
-1.137068 -0.385034 8.238490
-1.101162 -0.372875 8.889860
-0.755134 -0.176731 0.065327
-0.870862 -0.203816 1.227052
