1.924197 -1.123413 2.571775
1.987931 -1.154502 3.121896
2.033196 -1.172644 3.843839
2.158942 -1.234203 4.753845
2.125567 -1.210401 5.168293
2.117051 -1.194431 6.146703
2.081750 -1.169599 6.598304
2.070080 -1.152028 7.614201
1.974024 -1.094645 8.023161
1.981562 -1.452861 0.083755
2.057497 -1.497345 0.928455
1.873181 -1.356965 1.458764
1.876568 -1.349074 2.330718
1.913080 -1.368773 2.872467
1.938031 -1.379785 3.434637
1.973585 -1.395383 4.223305
1.887604 -1.326773 4.912357
1.956876 -1.367161 5.597707
2.132407 -1.477954 6.481540
2.060778 -1.421541 7.049563
2.010602 -1.378157 7.804438
1.990047 -1.353378 8.738988
1.826697 -1.235531 9.442704
1.680604 -1.481836 0.768072
1.825792 -1.603286 1.248573
1.787513 -1.558478 2.101768
1.779314 -1.544750 2.609114
1.833217 -1.578561 3.581236
1.839881 -1.577817 4.071233
1.793965 -1.525865 5.067541
1.860620 -1.575448 5.598941
2.013330 -1.694808 6.273165
1.985736 -1.660501 7.090001
1.978110 -1.644193 7.832243
1.878956 -1.555594 8.354659
1.812431 -1.489597 9.293692
1.609201 -1.722336 0.084001
1.570261 -1.670058 0.841764
1.678415 -1.774386 1.555866
1.624682 -1.712492 1.915149
1.652466 -1.729722 2.747094
1.676355 -1.745987 3.345807
1.692010 -1.753242 3.965864
1.618670 -1.667726 4.671813
1.674772 -1.715868 5.347386
1.809480 -1.841492 6.138678
1.840156 -1.859907 6.977935
1.824674 -1.834079 7.672765
1.756401 -1.758039 8.225295
1.664838 -1.656547 9.012909
1.457383 -1.884144 0.009327
1.480028 -1.904202 0.568481
1.513706 -1.935205 1.303499
1.463914 -1.860018 2.027128
1.489484 -1.879660 2.821678
1.528092 -1.918531 3.417836
1.537087 -1.921051 3.953674
1.469554 -1.823790 4.802573
1.522647 -1.878865 5.477859
1.668538 -2.044022 6.310196
1.662712 -2.027350 6.880318
1.663860 -2.015579 7.676525
1.604516 -1.935225 8.238015
1.511509 -1.813102 8.959890
1.333607 -2.098519 0.548637
1.375231 -2.151031 1.197608
1.282213 -1.990293 2.036458
1.292991 -1.997093 2.579232
1.315684 -2.019868 3.243314
1.352297 -2.061815 4.000197
1.297897 -1.969320 4.553086
1.374478 -2.071958 5.266854
1.499972 -2.246658 5.955019
1.504995 -2.236206 6.865425
1.462585 -2.162803 7.434074
1.478864 -2.170975 8.279345
1.461688 -2.130734 9.119702
1.245301 -1.808344 9.687833
1.094779 -2.102404 2.083109
1.101151 -2.105019 2.532593
1.124167 -2.133403 3.252633
1.153080 -2.168969 4.133426
1.056955 -1.978841 4.635130
1.130348 -2.093809 5.704372
1.269509 -2.337182 6.287126
1.254997 -2.300408 6.745741
1.255716 -2.284543 7.532099
1.244043 -2.246061 8.352779
1.200363 -2.155293 8.971781
0.860743 -2.151544 0.841151
0.897505 -2.231825 1.268127
0.897389 -2.205421 2.251019
0.893457 -2.185017 2.665112
0.916521 -2.216231 3.621134
0.928411 -2.234125 4.033970
0.909098 -2.167124 4.858591
0.959648 -2.268022 5.594896
1.034796 -2.425318 6.300939
1.037564 -2.412247 7.024242
1.049219 -2.419057 7.778388
1.023672 -2.341881 8.513251
0.977922 -2.223506 9.121315
0.546689 -1.906855 0.339679
0.668371 -2.304137 1.081706
0.640661 -2.196128 1.450475
0.648029 -2.191802 2.323061
0.660087 -2.211646 2.942081
0.669039 -2.220153 3.582318
0.667083 -2.192608 4.229289
0.726796 -2.351960 5.270670
0.763313 -2.456211 5.643648
0.782042 -2.492460 6.305501
0.774644 -2.442197 7.085829
0.773284 -2.408238 7.979143
0.772336 -2.384514 8.624413
0.760722 -2.320549 9.548105
0.385851 -1.999288 0.537035
0.471152 -2.406477 1.173203
0.465039 -2.326641 2.120427
0.468487 -2.325492 2.485949
0.479068 -2.338907 3.264327
0.489593 -2.357094 3.931472
0.457788 -2.166623 4.791820
0.484633 -2.257116 5.581786
0.553656 -2.553359 6.027920
0.574862 -2.602623 6.967873
0.569553 -2.550254 7.559892
0.567444 -2.504085 8.352779
0.194004 -2.123492 0.150316
0.234451 -2.462361 1.060730
0.222247 -2.299988 1.402690
0.230788 -2.313020 2.151548
0.239891 -2.336928 2.835126
0.248339 -2.351540 3.539796
0.253426 -2.312514 4.500338
0.270524 -2.406160 5.172036
0.287983 -2.503429 5.786013
0.297413 -2.531503 6.374884
0.312884 -2.589140 7.182678
0.314274 -2.534272 7.973439
0.312215 -2.459566 8.720408
0.307764 -2.366163 9.533599
0.009240 -2.312541 0.616872
0.017718 -2.411320 1.417238
0.023471 -2.320342 2.086148
0.032279 -2.335963 2.977301
0.037081 -2.311696 3.516905
0.044879 -2.286577 4.391388
0.050605 -2.255628 5.082187
0.058052 -2.395993 5.500463
0.071106 -2.581558 6.282250
0.078987 -2.562825 7.095106
0.082180 -2.484041 7.676186
0.086779 -2.420346 8.388551
0.096226 -2.420354 9.383107
-0.205264 -2.178099 0.628502
-0.224790 -2.440266 1.126665
-0.206191 -2.331849 2.009931
-0.194817 -2.286494 2.783155
-0.185391 -2.237713 3.353501
-0.180954 -2.288167 4.257341
-0.164438 -2.155194 4.952412
-0.169843 -2.323921 5.712597
-0.185046 -2.603110 6.152766
-0.169539 -2.474961 6.812167
-0.155141 -2.393347 7.744768
-0.146176 -2.356030 8.453107
-0.136800 -2.306733 9.162915
-0.383177 -2.048230 0.348105
-0.413058 -2.226191 0.702003
-0.410046 -2.261014 1.674898
-0.392529 -2.186258 2.101596
-0.373729 -2.121942 2.907969
-0.369264 -2.126165 3.485283
-0.372725 -2.187027 4.247841
-0.369225 -2.219205 5.207596
-0.378731 -2.310249 5.777972
-0.399328 -2.480074 6.449140
-0.371996 -2.344076 7.037573
-0.351979 -2.272260 7.983736
-0.343002 -2.244366 8.505162
-0.313498 -2.092806 9.305651
-0.566185 -1.952992 0.310923
-0.619359 -2.168930 1.273689
-0.620737 -2.189912 1.741610
-0.599059 -2.137546 2.459339
-0.572039 -2.058103 2.985230
-0.582329 -2.127224 3.926206
-0.579547 -2.141622 4.638474
-0.574765 -2.142152 5.164493
-0.605668 -2.286139 5.917990
-0.608432 -2.325845 6.682210
-0.583265 -2.262380 7.582281
-0.559886 -2.196112 8.278059
-0.531025 -2.096211 8.691518
-0.460632 -1.845199 9.658417
-0.700716 -1.806663 0.633069
-0.755886 -1.963194 1.222838
-0.742759 -1.943769 1.836434
-0.727131 -1.920587 2.584839
-0.723240 -1.925480 3.219898
-0.743388 -2.003754 4.200688
-0.745823 -2.024096 4.742404
-0.738103 -2.024032 5.568346
-0.772875 -2.134101 6.098431
-0.798999 -2.232839 7.028244
-0.739042 -2.078555 7.571808
-0.717526 -2.038152 8.373096
-0.703917 -2.020084 9.198724
-0.909515 -1.791639 0.396004
-1.001026 -1.985882 1.077871
-0.920284 -1.840670 1.875424
-0.895755 -1.800021 2.332218
-0.890994 -1.802592 2.986595
-0.916499 -1.873453 3.978022
-0.917666 -1.885696 4.482629
-0.921538 -1.911038 5.361696
-0.980850 -2.050558 6.117144
-0.976049 -2.052015 6.659418
-0.884396 -1.873237 7.424006
-0.866331 -1.847266 8.083792
-0.850318 -1.828672 8.929140
-0.685533 -1.481683 9.528306
-1.021290 -1.641032 0.245680
-1.167905 -1.889890 1.002911
-1.073998 -1.750722 1.800100
-1.033818 -1.693062 2.305596
-1.052759 -1.738979 3.231641
-0.996341 -1.656845 3.966861
-0.994300 -1.660037 4.398051
-1.088133 -1.831562 5.254529
-0.983211 -1.664545 5.914843
-0.980901 -1.669538 6.499403
-1.049275 -1.802602 7.489872
-0.980584 -1.692779 8.053677
-0.919857 -1.195499 0.315648
-1.138979 -1.490955 1.155099
-1.139718 -1.501727 1.922766
-1.117964 -1.481919 2.628180
-1.180765 -1.570761 3.038102
-1.322366 -1.770023 3.735952
-1.360159 -1.833544 4.553623
-1.279201 -1.734420 5.250759
-1.032391 -1.407919 6.005506
-0.964532 -1.322388 6.664184
-1.098661 -1.518306 7.575477
-1.074457 -1.492560 8.210881
-1.031176 -1.441303 8.982177
-1.191986 -1.298379 1.967666
-1.131834 -1.239144 2.593797
-1.546891 -1.725562 4.806045
-1.421082 -1.593199 5.446258
-1.128292 -1.273214 6.327124
-1.063026 -1.206179 7.036166
-1.147138 -1.308389 7.664484
-1.101646 -1.262445 8.279691
-1.064845 -1.230013 9.315125
-1.337250 -1.200974 1.034283
-1.332477 -1.202518 1.623406
-1.221026 -1.106608 2.146226
-1.541958 -1.407791 3.008361
-1.660136 -1.530343 4.157475
-1.613452 -1.495939 4.870294
-1.497246 -1.414802 7.249377
-1.193561 -1.134108 8.045442
-1.119894 -1.068521 8.603184
-0.973977 -0.936285 9.636042
-1.421369 -1.062726 1.110966
-1.280839 -0.963114 1.785373
-1.219977 -0.920853 2.239932
-1.136669 -0.864946 3.210834
-1.450459 -1.108373 3.672227
-1.835787 -1.414874 4.625097
-1.739593 -1.347231 5.215094
-1.470306 -1.156943 7.200169
-1.180919 -0.936258 8.218688
-1.207119 -0.725634 0.316548
-1.299798 -0.785628 0.908594
-1.233948 -0.750694 1.620558
-1.629688 -1.014130 4.064247
-1.854664 -1.160054 4.594925
-0.747899 -0.479928 7.749789
-1.106541 -0.713851 8.283551
-1.088424 -0.707220 9.145597
-1.432657 -0.693906 0.830317
-1.320703 -0.644965 1.628981
-1.217724 -0.598736 2.299124
-1.337425 -0.662972 3.089200
-1.632653 -0.814319 3.662749
-1.682520 -0.843618 4.174180
-1.620980 -0.819573 5.011737
-0.863213 -0.449578 8.241384
-1.080716 -0.565752 8.734878
-0.917488 -0.484456 9.721783
-1.559498 -0.584168 0.761885
-1.324009 -0.500670 1.535402
-1.238896 -0.472297 2.204615
-1.422429 -0.546713 2.864978
-1.717708 -0.666281 3.593819
-1.665900 -0.651121 4.233569
-1.394228 -0.550206 5.086813
-0.868246 -0.354030 8.085933
-1.081206 -0.444260 8.737211
-0.882988 -0.365633 9.514809
-1.120725 -0.303112 0.531317
-1.226994 -0.334473 1.020998
-1.194538 -0.330783 2.016563
-1.364499 -0.380425 2.439736
-1.324263 -0.373494 3.186580
-1.369025 -0.390442 3.908699
-0.363019 -0.108060 7.006465
-0.616186 -0.185279 7.679962
-0.857559 -0.260446 8.351543
-0.949587 -0.292079 9.265969
-1.270484 -0.221156 0.731568
-1.165867 -0.206084 1.381126
-1.079795 -0.194300 2.150922
-1.035614 -0.189685 2.932735
-1.391048 -0.260171 3.831986
-1.512560 -0.285644 4.254210
-1.099783 -0.212001 5.260288
-0.775285 -0.151299 5.899273
-0.379479 -0.074870 6.504395
-0.394272 -0.079355 7.504831
-0.689034 -0.140079 7.954156
-0.909168 -0.188450 8.910077
-0.740509 -0.155479 9.641272
-1.055497 -0.081326 0.339073
-1.170669 -0.093873 1.110795
-1.035631 -0.086823 2.018263
-1.316663 -0.113123 2.513973
-1.630765 -0.145490 3.297484
-1.583289 -0.146045 4.044844
-1.365004 -0.129452 4.713772
-1.000712 -0.097856 5.505550
-0.416808 -0.041825 6.254578
-0.266169 -0.027537 7.089645
-0.586999 -0.062718 7.907108
-0.844688 -0.092649 8.588862
-0.896139 -0.100803 9.310627
-1.238666 0.029270 0.703689
-1.089338 0.022173 1.520542
-1.073787 0.019010 2.181485
-1.019167 0.015420 2.828124
-1.415084 0.015508 3.831986
-1.484929 0.012685 4.426006
-0.977767 0.006485 4.974146
-0.581312 0.001975 5.863085
-0.231682 0.000038 6.767900
-0.365775 -0.000753 7.327144
-0.760416 -0.004352 8.208349
-0.739462 -0.005788 8.770609
-0.550916 -0.005816 9.549256
-0.853728 0.101131 0.438401
-0.837339 0.097667 0.887095
-0.949891 0.107007 1.867085
-1.283910 0.134204 3.845526
-0.298117 0.027642 6.991034
-0.481837 0.043616 7.528979
-0.697592 0.060434 8.500699
-0.669116 0.056679 9.015929
-1.089902 0.231567 0.715850
-0.874756 0.182580 1.616700
-0.804486 0.166147 2.148057
-0.615090 0.125033 2.948088
-1.023341 0.204908 3.647066
-1.343171 0.265085 4.304110
-0.862823 0.167457 5.166760
-0.320342 0.061201 6.006184
-0.014557 0.002745 6.694844
-0.323303 0.059992 7.396388
-0.619610 0.113427 7.970389
-0.675207 0.120941 8.970690
-0.494099 0.087111 9.752100
-0.699268 0.219499 0.254189
-0.541063 0.168473 0.834990
-0.736442 0.226636 1.661422
-1.060308 0.316466 3.767753
-0.113532 0.032483 6.840506
-0.345797 0.097874 7.544623
-0.647780 0.180949 8.383230
-0.546571 0.151346 9.010818
-0.202094 0.055308 9.916277
-0.594849 0.247611 0.941061
-0.720056 0.298610 1.269802
-0.696892 0.285794 2.260042
-0.462237 0.188217 2.909105
-0.737195 0.297500 3.672588
-1.145916 0.459225 4.232533
-0.826309 0.327522 5.234906
-0.303505 0.119370 6.006184
-0.010402 0.004063 6.674899
-0.289467 0.112042 7.431062
-0.650239 0.249093 8.264251
-0.541434 0.206348 8.747365
-0.384295 0.144970 9.702638
-0.497567 0.261624 0.609077
-0.716046 0.373762 1.356723
-0.568577 0.294815 2.050742
-0.641148 0.329817 2.861686
-0.948153 0.484059 3.605773
-1.109435 0.562370 4.309639
-0.832966 0.420231 4.831819
-0.350864 0.175777 5.630742
-0.074465 0.036961 6.651479
-0.217903 0.107672 7.094435
-0.545648 0.266847 8.098981
-0.541288 0.263383 8.627667
-0.443286 0.213926 9.522703
-0.530199 0.350328 0.499980
-0.653248 0.428567 1.318619
-0.514174 0.335295 2.022740
-0.487090 0.315878 2.665499
-0.786619 0.505995 3.569796
-1.038107 0.663825 4.213253
-0.216062 0.134886 7.153885
-0.493962 0.306055 7.981211
-0.529155 0.326123 8.602225
-0.426559 0.260877 9.552226
-0.596633 0.478654 0.752216
-0.454931 0.363226 1.345615
-0.431426 0.342016 2.223505
-0.339678 0.267583 3.013726
-0.599010 0.468665 3.824256
-0.965689 0.750773 4.547211
-0.695109 0.537894 5.166760
-0.263831 0.203110 5.893386
0.056926 -0.043592 6.638393
-0.175672 0.133698 7.366805
-0.559320 0.422283 8.283823
-0.441667 0.332349 8.743442
-0.245160 0.183077 9.794393
-0.257796 0.250078 0.395146
-0.362438 0.349237 1.240194
-0.397920 0.381755 1.789768
-0.231955 0.221251 2.535648
-0.441661 0.418657 3.305496
-0.825215 0.776210 4.225088
-0.236566 0.217582 7.233243
-0.434500 0.397792 7.783999
-0.488298 0.444045 8.655198
-0.309818 0.280639 9.236991
-0.527438 0.615911 0.526811
-0.383571 0.444534 1.473233
-0.373999 0.431125 2.143406
-0.391052 0.448236 2.852002
-0.551995 0.628894 3.589508
-0.736363 0.834212 4.266740
-0.601573 0.678626 4.825448
-0.219114 0.245633 5.711487
0.117463 -0.130989 6.481418
-0.131556 0.145639 7.371769
-0.459255 0.505242 8.092298
-0.430077 0.470373 8.878760
-0.296354 0.322476 9.610853
-0.328937 0.463183 0.893919
-0.302571 0.423325 1.663173
-0.309593 0.430837 2.303702
-0.217830 0.301696 2.889527
-0.377264 0.519139 3.648699
-0.056173 0.075451 6.711192
-0.221593 0.296026 7.346896
-0.370753 0.492444 8.024848
-0.317978 0.419040 9.052455
-0.104285 0.136665 9.873215
-0.418992 0.722964 0.506947
-0.307213 0.525830 1.393733
-0.243731 0.415313 1.891945
-0.176895 0.298752 2.891516
-0.338763 0.568380 3.597198
-0.559973 0.935132 4.073223
-0.393543 0.652748 4.874861
-0.094731 0.156050 5.744758
0.057394 -0.093809 6.707350
-0.109391 0.177800 7.307299
-0.363293 0.585922 8.121666
-0.343733 0.551156 8.823778
-0.189356 0.302361 9.400112
0.017460 -0.038354 0.249696
-0.020867 0.045415 1.146071
-0.178896 0.386724 1.786110
-0.188733 0.404798 2.546637
-0.199615 0.425449 3.159396
-0.293088 0.618893 4.050311
-0.304742 0.638348 4.842473
-0.106866 0.222892 5.339138
-0.013044 0.026947 6.352654
-0.126100 0.258932 6.931658
-0.267105 0.544476 7.626332
-0.294488 0.595473 8.457494
-0.197112 0.395891 9.230804
-0.195415 0.558965 0.854040
-0.171633 0.486554 1.564824
-0.169813 0.476885 2.315135
-0.131692 0.366304 3.096848
-0.163566 0.451090 3.784538
-0.248867 0.681032 4.392752
-0.163278 0.442054 5.316275
-0.037506 0.100899 5.909599
-0.086164 0.229607 6.703877
-0.197504 0.521051 7.513666
-0.224459 0.588216 8.083686
-0.165196 0.429690 8.786728
-0.040973 0.105664 9.654594
-0.006060 0.024247 1.146855
-0.103844 0.411263 1.746669
-0.110146 0.430701 2.517073
-0.064415 0.249849 3.028265
-0.085458 0.326984 3.869372
-0.129983 0.489543 4.849552
-0.046225 0.172763 5.389754
0.000210 -0.000777 6.173154
-0.080551 0.294198 6.887400
-0.177831 0.640280 7.777941
-0.157944 0.564153 8.341394
-0.113283 0.399767 9.227129
-0.088261 0.582893 0.736259
-0.073051 0.475184 1.309971
-0.079865 0.505078 2.393834
-0.079531 0.495946 2.948464
-0.075700 0.463502 3.686071
-0.071171 0.427494 4.478526
-0.048649 0.286763 5.292284
-0.009604 0.055662 6.061089
-0.034807 0.198548 6.742714
-0.097359 0.546706 7.380886
-0.106072 0.586885 8.049920
-0.032880 0.536851 2.007293
-0.030646 0.479843 2.672882
-0.028548 0.430638 3.291934
-0.027031 0.393127 3.923282
-0.025385 0.354438 4.658818
-0.013661 0.180472 5.734831
-0.004122 0.052528 6.482199
-0.026690 0.330510 7.025852
-0.054936 0.652699 7.851829
-0.063215 0.722422 8.711951
-0.043198 0.480932 9.388405
0.009565 0.260771 0.534910
0.011935 0.358604 1.393534
0.015850 0.505241 1.870960
0.012188 0.437465 2.765294
0.010501 0.408353 3.313932
0.009426 0.421539 4.169907
0.007192 0.375265 4.997927
0.003433 0.210356 5.760699
0.000928 0.066748 6.418091
0.004422 0.405750 7.144635
0.005802 0.734677 7.865146
0.003571 0.656190 8.531821
0.001169 0.443348 9.335579
0.057309 0.436867 0.788608
0.055556 0.432120 1.439939
0.058415 0.463783 2.090258
0.057576 0.469066 2.891420
0.056273 0.471355 3.735308
0.047137 0.404610 4.471734
0.029515 0.260133 5.266179
0.003887 0.035011 5.931561
0.034179 0.318407 6.833299
0.074878 0.718651 7.571075
0.088160 0.869134 8.254194
0.070095 0.709198 8.974411
0.012761 0.131623 9.628317
-0.091268 -0.381930 0.151250
0.033958 0.144469 1.093258
0.093790 0.401896 1.490254
0.090320 0.392412 2.262344
0.084710 0.373091 3.017880
0.104817 0.468241 3.784538
0.099380 0.449786 4.495154
0.027603 0.126522 5.224478
-0.024047 -0.111939 6.099745
0.058225 0.274735 6.758748
0.148462 0.711171 7.468157
0.131073 0.636173 8.171902
0.096763 0.477741 9.104009
0.142391 0.424480 1.715901
0.139655 0.420616 2.497363
0.144889 0.441496 3.378323
0.146587 0.451536 4.193721
0.107254 0.332139 4.609417
0.041624 0.130285 5.446777
-0.001002 -0.003172 6.307055
0.122608 0.392249 7.041176
0.240261 0.776931 7.755949
0.215401 0.702745 8.430529
0.130506 0.429538 9.155658
0.254635 0.583872 0.598007
0.260062 0.600720 1.274232
0.190432 0.442859 1.901790
0.166903 0.391078 2.597699
0.184900 0.437492 3.486651
0.188336 0.449625 4.302016
0.159768 0.384786 5.112887
0.070870 0.171531 5.601944
0.028084 0.068487 6.314227
0.174723 0.430483 7.184201
0.269165 0.668922 7.919409
0.239615 0.599803 8.596409
0.189042 0.477743 9.506489
0.404135 0.731694 0.526443
0.291507 0.531739 1.325060
0.238028 0.437701 2.187224
0.199857 0.369843 2.865827
0.231415 0.431372 3.634322
0.235201 0.440735 4.190836
0.142173 0.268451 5.027971
0.030440 0.057874 5.804082
0.079836 0.152915 6.583911
0.271338 0.522937 7.169631
0.418530 0.814206 8.101191
0.354949 0.693637 8.616154
0.230952 0.454288 9.391950
-0.108905 -0.159323 0.020058
0.041860 0.061817 1.135331
0.266661 0.396113 1.813181
0.248350 0.371219 2.546637
0.269184 0.404097 3.048949
0.313881 0.474717 3.914241
0.255849 0.388956 4.534553
0.151120 0.231308 5.365208
0.003000 0.004616 6.059300
0.174464 0.270688 6.976416
0.418675 0.652715 7.457962
0.452740 0.710505 8.230588
0.408637 0.646285 9.179681
0.318441 0.388688 1.811927
0.281629 0.345757 2.536783
0.371659 0.459461 3.386312
0.413681 0.514191 4.053114
0.365143 0.456805 4.869012
0.211120 0.265260 5.446868
0.096950 0.122792 6.494529
0.311598 0.397225 7.258049
0.574478 0.735527 7.719738
0.620697 0.799123 8.406378
0.500922 0.649661 9.394403
0.651000 0.641943 0.719886
0.561155 0.557027 1.552904
0.436367 0.434882 2.061974
0.510133 0.511738 2.881245
0.637018 0.642318 3.513914
0.707714 0.718962 4.446635
0.453256 0.462799 5.140195
0.073994 0.075948 5.899652
0.211115 0.218147 6.744279
0.532055 0.551926 7.164747
0.711237 0.743057 8.034726
0.729994 0.767848 8.918525
0.433478 0.458097 9.654149
0.707500 0.575145 0.583705
0.642711 0.525479 1.287529
0.569681 0.468444 1.996172
0.914489 0.756648 2.727387
1.268094 1.057909 3.690614
1.038144 0.869303 4.179246
0.694940 0.586447 5.202095
0.205282 0.173713 5.649959
0.226263 0.192849 6.571564
0.599857 0.514470 7.281914
0.825157 0.713075 8.193842
0.836699 0.726474 8.803554
0.547382 0.478235 9.722729
0.852134 0.575633 1.231854
0.738176 0.502306 2.085166
1.098354 0.751160 2.638962
1.473297 1.013746 3.302370
0.523574 0.371682 7.179466
0.888162 0.634466 7.857902
0.936420 0.672862 8.567065
0.724879 0.523563 9.281433
0.603988 0.328361 0.626541
0.966415 0.528181 1.171203
0.955371 0.526505 2.044465
1.268692 0.702791 2.562571
1.662257 0.926657 3.186544
0.629852 0.363879 7.223451
0.923230 0.535628 7.629891
1.030562 0.602201 8.414390
0.864206 0.508250 9.201465
1.085681 0.468505 1.342512
0.751640 0.327070 2.118799
1.768892 0.784441 3.756219
1.570618 0.701942 4.492942
0.914881 0.417379 6.553566
0.751144 0.345301 7.335444
1.031478 0.478512 8.172929
1.484153 0.472097 0.171928
1.517971 0.488071 0.935276
1.655774 0.548589 3.095778
1.825788 0.609739 3.661720
1.413947 0.477106 4.483428
1.056622 0.366194 6.612835
0.962965 0.337987 7.650092
1.189524 0.421520 8.377778
1.255920 0.448412 8.982667
1.598882 0.353518 0.619491
1.443705 0.323106 1.254563
1.465925 0.334264 2.241526
1.815770 0.420369 3.027910
2.163704 0.506787 3.620829
1.981510 0.470636 4.404300
0.838218 0.208465 7.266961
1.175597 0.296510 8.054035
1.369607 0.349819 8.788851
1.218438 0.313485 9.289703
1.545607 0.191926 0.181479
1.609932 0.205778 1.058551
1.526378 0.197880 1.501281
1.438645 0.190670 2.206394
2.391271 0.333348 3.770253
2.125327 0.302273 4.476183
0.764662 0.115695 6.940229
0.980358 0.151185 7.635939
1.357863 0.213466 8.310528
1.572894 0.251796 8.987739
1.611649 0.052430 0.619934
1.802434 0.063138 1.223987
2.193501 0.096359 3.358361
2.434988 0.113434 3.975175
2.080539 0.104725 4.934870
1.226332 0.074290 7.665886
1.615014 0.104091 8.575763
1.647336 0.110882 9.308687
1.792814 -0.106982 0.986851
1.777925 -0.103869 1.291302
2.256655 -0.111020 3.493930
2.557474 -0.118426 4.158516
2.409337 -0.102345 5.106815
1.433265 -0.045332 8.013664
1.776289 -0.050222 8.798942
1.609830 -0.042376 9.350177
1.712194 -0.267422 0.256602
1.854488 -0.282691 1.145635
1.825638 -0.274435 1.649494
2.020296 -0.297017 2.424737
2.534861 -0.363487 3.238419
2.709521 -0.382714 3.725378
2.709109 -0.371246 4.719322
1.230433 -0.156075 7.481898
1.727000 -0.212499 8.334678
1.805559 -0.216881 9.061280
1.998078 -0.504361 0.508404
1.971687 -0.490757 1.310299
1.895954 -0.464537 2.203386
1.773201 -0.431898 2.544768
2.263362 -0.542230 3.420951
2.752550 -0.648317 4.284715
2.608107 -0.610005 4.680002
2.399992 -0.552162 5.594896
1.610198 -0.355683 7.944596
1.934653 -0.422532 8.476996
1.841524 -0.396181 9.307537
1.807117 -0.638330 0.813153
1.970503 -0.690088 1.458927
1.851692 -0.644512 1.928058
2.021281 -0.693487 2.994623
2.455974 -0.835571 3.572260
2.644631 -0.894354 3.989995
2.558651 -0.855621 4.818649
2.353988 -0.779742 5.544356
1.941779 -0.636488 6.391604
1.812236 -0.589414 6.995911
1.922799 -0.618668 7.771087
1.953113 -0.621792 8.549880
1.836473 -0.580011 9.174743
2.001889 -0.930246 0.178111
2.110488 -0.971324 1.056050
1.947954 -0.891649 1.560132
1.925987 -0.873617 2.391288
2.016411 -0.908574 2.988127
2.251681 -1.007941 3.557417
2.436202 -1.080184 4.390011
2.365144 -1.042727 4.910430
2.151273 -0.939338 5.815320
1.988788 -0.863318 6.378243
2.053254 -0.881713 7.349739
1.990986 -0.848456 8.064695
1.978046 -0.835937 8.835291
1.710129 -0.718239 9.488066
1.982544 -1.150341 0.832413
2.065906 -1.192261 1.390297
1.942905 -1.114824 1.997060
1.913571 -1.091954 2.573641
1.916418 -1.084685 3.423997
2.056949 -1.155771 4.164117
2.283974 -1.273280 4.943911
2.144481 -1.189059 5.529754
2.051825 -1.128916 6.355690
2.084330 -1.139193 7.046902
1.987349 -1.079658 7.706886
1.945055 -1.051287 8.261667
1.901365 -1.018213 9.264456
1.762558 -1.286716 0.131336
1.941594 -1.406311 1.025772
1.887907 -1.358917 1.739075
1.872445 -1.338283 2.547479
1.858247 -1.323762 2.925511
1.949334 -1.378482 3.754346
2.003848 -1.408030 4.474748
1.913795 -1.335748 5.261736
1.929306 -1.339987 5.824656
2.020568 -1.395914 6.421217
2.041523 -1.398551 7.395700
1.965667 -1.339955 7.994710
1.854058 -1.256794 8.691887
1.589410 -1.071533 9.430491
1.834935 -1.596337 0.093130
1.925941 -1.663545 0.937737
1.787039 -1.538467 1.335316
1.797853 -1.534405 2.364653
1.796446 -1.525958 2.928471
1.798981 -1.521365 3.455803
1.869799 -1.568548 4.409582
1.751354 -1.461295 5.078525
1.847472 -1.531748 5.825591
1.991361 -1.644379 6.282250
1.974606 -1.617255 7.281734
1.870197 -1.526876 7.701977
1.862826 -1.508676 8.701704
1.689469 -1.363268 9.220428
1.603734 -1.671194 0.794429
1.717440 -1.784246 1.153743
1.686549 -1.738270 2.108018
1.697420 -1.738051 2.894137
1.708146 -1.739922 3.522767
1.723448 -1.749770 3.916451
1.694382 -1.706636 4.888849
1.731093 -1.734529 5.520446
1.867080 -1.862638 6.023552
1.844534 -1.829275 6.759880
1.839332 -1.812776 7.537510
1.813479 -1.774661 8.438997
1.724990 -1.679270 9.137086
1.486357 -1.871517 0.736745
1.593422 -1.997358 1.253286
1.501447 -1.874263 1.744593
1.491844 -1.849683 2.541921
1.527159 -1.880235 3.364438
1.514716 -1.857507 3.838260
1.495513 -1.817988 4.886595
1.566009 -1.897497 5.261365
1.733281 -2.081765 6.278014
1.747748 -2.086705 6.994751
1.717859 -2.041464 7.576778
1.647152 -1.948325 8.179868
1.249389 -1.914906 0.551855
1.327699 -2.026118 1.025023
1.311290 -1.986689 1.820488
1.305194 -1.968262 2.336657
1.328829 -1.986711 3.292302
1.329202 -1.979580 3.726369
1.373231 -2.028028 4.664232
1.478606 -2.169959 5.349656
1.556636 -2.271703 5.964815
1.528529 -2.216205 6.721888
1.528716 -2.201390 7.515866
1.523003 -2.180441 8.202759
1.446120 -2.061114 8.769964
1.332010 -1.884540 9.716809
1.072388 -2.043310 0.205634
1.191077 -2.251088 1.002710
1.121295 -2.109249 1.474224
1.128224 -2.103848 2.344279
1.109583 -2.061174 2.732423
1.145162 -2.108326 3.630456
1.184389 -2.163628 4.415683
1.163898 -2.115220 4.954083
1.214032 -2.190337 5.693102
1.334653 -2.387288 6.550451
1.350162 -2.401169 7.151651
1.282175 -2.270306 7.648732
1.268095 -2.227095 8.541086
1.191699 -2.081212 9.199488
0.890545 -2.187830 1.943145
0.891926 -2.175667 2.543774
0.902725 -2.183316 3.266703
0.921489 -2.208922 4.027579
0.871564 -2.077840 4.519469
0.937746 -2.213098 5.384672
1.049830 -2.460514 5.950101
1.064347 -2.472879 6.721888
1.055674 -2.434678 7.395630
1.026874 -2.349916 8.127649
0.704029 -2.285432 0.802014
0.690137 -2.214237 1.598933
0.698377 -2.220852 2.207598
0.702711 -2.214711 2.827847
0.737375 -2.288329 3.903511
0.720524 -2.221491 4.375699
0.765017 -2.330780 5.214834
0.844104 -2.543598 5.977839
0.840269 -2.514003 6.509191
0.833372 -2.471241 7.182678
0.834492 -2.454326 7.808096
0.836984 -2.433923 8.686360
0.781620 -2.257747 9.261945
0.523886 -2.500448 1.244006
0.497256 -2.337466 1.988352
0.497930 -2.317984 2.467290
0.507197 -2.326655 3.199046
0.527168 -2.373773 4.136433
0.487139 -2.165592 4.829307
0.506094 -2.224734 5.413480
0.585556 -2.542864 6.009392
0.601183 -2.580356 6.634240
0.617643 -2.604114 7.613768
0.604096 -2.519864 8.238927
0.577093 -2.381012 8.906640
0.495853 -2.020693 9.740549
0.249035 -2.340770 1.793815
0.256385 -2.338776 2.562443
0.263175 -2.342543 3.210707
0.271393 -2.358502 3.859708
0.263878 -2.230405 4.653858
0.282188 -2.328368 5.336441
0.328232 -2.633487 6.116100
0.340591 -2.668227 6.837700
0.337988 -2.603390 7.382435
0.347125 -2.595295 8.350118
0.327941 -2.423105 8.788663
0.307713 -2.206316 9.891516
0.049061 -2.348241 1.691130
0.056415 -2.323022 2.508258
0.062755 -2.326331 3.156997
0.070461 -2.350279 3.881181
0.072762 -2.229728 4.541469
0.088402 -2.448442 5.358276
0.108033 -2.748493 6.089133
0.110808 -2.658056 6.689753
0.117439 -2.618450 7.480388
0.122584 -2.551008 8.297112
0.125067 -2.456856 9.043293
0.117486 -2.195012 9.788416
-0.161079 -2.050737 0.056491
-0.172528 -2.284287 0.776305
-0.168511 -2.301561 1.327918
-0.158454 -2.267322 2.126613
-0.154603 -2.331064 2.977301
-0.146537 -2.273872 3.435274
-0.136905 -2.235723 4.216679
-0.132771 -2.300445 5.065516
-0.130834 -2.369627 5.667059
-0.134142 -2.573472 6.388829
-0.126192 -2.557065 7.076551
-0.109799 -2.328085 7.671773
-0.101852 -2.337686 8.577200
-0.093684 -2.316257 9.381566
-0.372179 -2.049725 0.291657
-0.394112 -2.218193 1.198798
-0.388778 -2.221843 1.827132
-0.381506 -2.220532 2.569909
-0.362961 -2.139564 3.086313
-0.373363 -2.247067 3.898986
-0.356616 -2.184698 4.600987
-0.365283 -2.275708 5.237491
-0.390212 -2.471007 5.827379
-0.378181 -2.448684 6.667819
-0.365342 -2.418646 7.499414
-0.341923 -2.298166 8.086540
-0.336582 -2.319376 8.994236
-0.290333 -2.038672 9.756757
-0.568043 -2.033625 0.554670
-0.613827 -2.229696 1.449419
-0.589910 -2.163233 2.034520
-0.583982 -2.168444 2.796564
-0.565471 -2.117779 3.320849
-0.552704 -2.093848 4.016362
-0.518248 -1.993511 4.947825
-0.521725 -2.025355 5.491693
-0.581362 -2.284117 6.159989
-0.576885 -2.300255 7.028244
-0.546129 -2.203441 7.744319
-0.534755 -2.186359 8.529903
-0.512800 -2.126379 9.377063
-0.759092 -1.969524 0.507668
-0.794593 -2.072700 0.937317
-0.756183 -1.996450 1.908933
-0.734170 -1.946572 2.251904
-0.727808 -1.954117 3.255209
-0.739937 -2.005299 3.991082
-0.742593 -2.027326 4.570074
-0.681711 -1.875358 5.197932
-0.724703 -2.017101 6.101522
-0.788567 -2.211365 6.654464
-0.739058 -2.087691 7.256044
-0.718050 -2.046587 7.974553
-0.719223 -2.077626 9.032347
-0.587818 -1.705558 9.491760
-0.898901 -1.829793 0.678344
-0.934409 -1.913367 1.240743
-0.893511 -1.848402 2.215869
-0.860438 -1.788338 2.665924
-0.905213 -1.902610 3.718554
-0.932332 -1.968106 4.119586
-0.912332 -1.940332 4.830353
-0.960638 -2.065815 5.855947
-0.962446 -2.080936 6.364815
-0.893306 -1.944158 7.017176
-0.852665 -1.868556 7.694220
-0.869863 -1.926685 8.703759
-0.797024 -1.778274 9.452266
-1.136945 -1.836957 0.478771
-1.104108 -1.799539 1.420269
-1.035960 -1.697061 1.973839
-0.995952 -1.644466 2.832399
-1.045327 -1.735595 3.422493
-1.103551 -1.847875 4.322775
-1.104614 -1.857376 4.770566
-1.027103 -1.741380 5.686565
-0.997766 -1.700717 6.278042
-1.078164 -1.853282 7.163099
-1.012087 -1.747056 7.652537
-0.975292 -1.694333 8.373161
-0.914941 -1.600289 9.156049
-1.130812 -1.510014 0.558290
-1.252756 -1.678023 0.912510
-1.113048 -1.499162 1.563110
-1.085676 -1.470541 2.220801
-1.228093 -1.677632 3.189350
-1.310203 -1.800967 3.895264
-1.262089 -1.744102 4.523133
-1.271146 -1.767328 5.228226
-1.055148 -1.473429 5.798965
-0.979391 -1.375893 6.535982
-1.095916 -1.550439 7.332640
-1.093475 -1.557651 8.155807
-1.149730 -1.269374 0.627671
-1.263025 -1.404438 1.486300
-1.191180 -1.329231 1.918810
-1.392030 -1.582778 4.166111
-1.513396 -1.730952 4.856268
-1.423426 -1.658068 7.115400
-1.191779 -1.394382 7.743159
-1.123331 -1.319913 8.306170
-1.043387 -1.235021 9.276989
-1.095515 -1.003530 0.507300
-1.292297 -1.192060 1.349211
-1.227669 -1.135460 1.676836
-1.164813 -1.083914 2.427624
-0.956034 -0.895703 3.289543
-1.671102 -1.582609 4.503595
-1.545430 -1.472646 5.282713
-1.245927 -1.195242 6.185171
-1.109914 -1.069924 6.830994
-1.207769 -1.171906 7.637161
-1.220411 -1.192327 8.513903
-1.140825 -1.119450 9.108491
-1.450200 -1.101333 0.986142
-1.285459 -0.980971 1.564820
-1.246187 -0.958633 2.515289
-1.318370 -1.018912 3.064331
-1.625701 -1.264043 3.742746
-1.812341 -1.416089 4.294739
-1.741829 -1.370751 5.155121
-1.526258 -1.222636 7.360074
-1.180440 -0.950836 8.146060
-1.467671 -0.915778 1.264643
-1.264509 -0.794776 2.078878
-1.543351 -0.977351 2.887936
-1.835152 -1.177933 4.347806
-1.871997 -1.209427 5.067112
-1.011024 -0.669162 8.054035
-1.212712 -0.806327 8.544458
-0.999390 -0.668148 9.273478
-1.216557 -0.604051 0.297786
-1.321124 -0.662080 1.206699
-1.277012 -0.644088 1.842226
-1.661659 -0.857356 4.070069
-1.882262 -0.977225 4.661249
-0.688527 -0.367267 7.722198
-0.977188 -0.524770 8.383378
-1.004932 -0.542953 9.041721
-1.384766 -0.534415 0.402017
-1.462805 -0.568138 0.926396
-1.294593 -0.506410 1.526896
-1.651155 -0.664884 3.945962
-1.835258 -0.742762 4.354012
-1.649937 -0.673528 5.123287
-0.573194 -0.237905 6.807167
-0.580554 -0.243377 7.734216
-0.913276 -0.385582 8.319050
-1.066819 -0.454381 9.109357
-1.504891 -0.426419 0.706769
-1.356483 -0.388654 1.429904
-1.168326 -0.337850 2.046921
-1.419083 -0.415942 2.926492
-1.721317 -0.508101 3.368783
-1.652170 -0.493085 4.116057
-1.205440 -0.363140 4.817069
-0.909874 -0.277159 5.643373
-0.581323 -0.178962 6.464599
-0.404326 -0.125716 7.233403
-0.790860 -0.248912 8.059313
-1.035086 -0.329329 8.819256
-0.884330 -0.283034 9.314038
-1.194646 -0.221519 0.752412
-1.138996 -0.214187 1.382100
-1.113367 -0.213773 2.333113
-0.885958 -0.172258 2.935345
-1.188955 -0.234443 3.571331
-1.517293 -0.304165 4.321097
-0.985221 -0.200660 5.168262
-0.659072 -0.136616 6.109808
-0.369289 -0.077389 6.730571
-0.337769 -0.071609 7.351866
-0.721689 -0.155738 8.223708
-1.055728 -0.094231 0.455321
-1.116342 -0.102097 0.996322
-1.098760 -0.104161 1.820535
-1.393467 -0.144165 3.930650
-0.380664 -0.044007 7.159350
-0.586304 -0.069031 7.670782
-0.845873 -0.102803 8.598606
-0.806334 -0.099401 9.063549
-0.788283 0.009858 0.673603
-1.158530 0.011192 1.372440
-0.979822 0.007632 1.846359
-1.233091 0.005424 2.675348
-1.568944 0.002314 3.371374
-1.489566 -0.001809 4.046757
-1.135087 -0.004741 4.833959
-0.781605 -0.005244 5.530197
-0.469471 -0.004889 6.540377
-0.374359 -0.004876 7.243211
-0.559393 -0.008725 7.883004
-0.697986 -0.013418 8.811854
-0.640676 -0.013690 9.399666
-1.101188 0.120558 0.232182
-1.033695 0.111049 0.736749
-0.938065 0.097486 1.604718
-1.321237 0.125864 3.715148
-0.204540 0.017163 6.762556
-0.354164 0.028814 7.401270
-0.641143 0.049923 8.255872
-0.751222 0.144034 0.752216
-1.130126 0.214811 1.140567
-0.888010 0.166317 1.821055
-1.018867 0.187005 2.719524
-1.310936 0.237550 3.258384
-1.363279 0.242757 4.010224
-0.980607 0.171896 4.734418
-0.604444 0.103627 5.747175
-0.348418 0.058811 6.459424
-0.338479 0.056306 7.085157
-0.563575 0.092036 7.818747
-0.643313 0.103282 8.512225
-0.607825 0.095763 9.301617
-0.679146 0.200250 0.273932
-0.716030 0.208883 0.997082
-0.792344 0.228567 1.746872
-0.782037 0.223350 2.412987
-0.662191 0.187281 3.071272
-0.945931 0.264545 3.780955
-1.294251 0.356688 4.688261
-0.860313 0.234646 5.423533
-0.287191 0.077417 6.285777
-0.212594 0.056722 6.975478
-0.444513 0.117283 7.657439
-0.597047 0.155216 8.582611
-0.557763 0.143542 9.248974
-0.565276 0.225389 0.333558
-0.647619 0.256176 1.018045
-0.677982 0.265684 1.820198
-0.897546 0.347857 2.744673
-1.090640 0.420739 3.117702
-1.126104 0.429938 3.981801
-1.061694 0.402173 4.646979
-0.694600 0.260829 5.436295
-0.180896 0.067454 6.120029
-0.169158 0.062507 6.900789
-0.448628 0.163811 7.859658
-0.524344 0.190116 8.441123
-0.505002 0.181501 9.196227
-0.450022 0.235068 0.226271
-0.417386 0.216450 0.975187
-0.639359 0.329414 1.634399
-0.938924 0.473798 3.724590
-0.180630 0.088497 6.876291
-0.454447 0.220655 7.750667
-0.542065 0.261477 8.410093
-0.499055 0.239030 9.160574
-0.516436 0.327468 0.568995
-0.563685 0.354324 1.558322
-0.524708 0.328228 2.111013
-0.347865 0.216456 2.727745
-0.639320 0.395052 3.489534
-1.000924 0.614621 4.151587
-0.698643 0.426272 4.916888
-0.244610 0.148254 5.758865
0.055214 -0.033218 6.678372
-0.150889 0.090186 7.396591
-0.488007 0.289876 8.035736
-0.524085 0.308797 8.969254
-0.276347 0.162117 9.557462
-0.144406 0.114310 0.397055
-0.236161 0.185791 1.158020
-0.431522 0.337908 1.720984
-0.448186 0.348764 2.488746
-0.714221 0.552307 3.229399
-0.964839 0.740716 4.078261
-0.200660 0.150475 7.134071
-0.418173 0.311454 7.942870
-0.454523 0.337372 8.366682
-0.380533 0.280342 9.349022
-0.414524 0.393014 1.011769
-0.426513 0.402932 1.463417
-0.417265 0.391985 2.172867
-0.269013 0.251416 2.840151
-0.490013 0.454891 3.665762
-0.036644 0.033273 6.606154
-0.279017 0.251744 7.376519
-0.499466 0.447021 8.373437
-0.445817 0.396788 9.128628
-0.108600 0.096210 9.869822
-0.567645 0.652535 0.750116
-0.396802 0.454387 1.236759
-0.376550 0.428122 2.133585
-0.389919 0.441064 2.773483
-0.561763 0.630825 3.667484
0.111221 -0.122269 6.541555
-0.114576 0.124995 7.490960
-0.414599 0.450218 8.005230
-0.352506 0.380820 8.710004
-0.185870 0.199751 9.474746
-0.505590 0.702748 0.789077
-0.353823 0.489863 1.266193
-0.318965 0.438606 2.085924
-0.348945 0.476972 2.802929
-0.506148 0.686336 3.745442
-0.683027 0.921364 4.341072
-0.512760 0.688034 5.020670
-0.161149 0.215286 5.649959
0.085424 -0.113263 6.671790
-0.101310 0.133416 7.481030
-0.382075 0.500399 8.083686
-0.395802 0.514957 8.927764
-0.256062 0.331248 9.732227
-0.176302 0.294707 0.909385
-0.242700 0.402947 1.665477
-0.239943 0.395714 2.416845
-0.163341 0.267802 3.093351
-0.315045 0.512382 3.980232
-0.457326 0.739902 4.543163
-0.258373 0.414974 5.434418
-0.036925 0.059058 5.987307
-0.104417 0.165955 6.712949
-0.289681 0.456881 7.558090
-0.378854 0.593119 8.406902
-0.046521 0.099682 0.467497
-0.084745 0.180373 1.121524
-0.186671 0.393838 1.973425
-0.177927 0.372384 2.767201
-0.247862 0.515135 3.447580
-0.364001 0.750213 4.250845
-0.307814 0.631024 4.803337
-0.126292 0.256639 5.758865
-0.016567 0.033521 6.248737
-0.129439 0.259729 7.074958
-0.251180 0.499905 7.883004
-0.275220 0.544254 8.553184
-0.183182 0.359979 9.282648
0.021967 -0.062152 0.389787
-0.025968 0.072723 1.214975
-0.180485 0.500998 1.908990
-0.165666 0.455295 2.722105
-0.122456 0.334270 3.288857
-0.191658 0.518597 3.995555
-0.217123 0.582053 4.764260
-0.062137 0.165176 5.542383
-0.018724 0.049250 6.482199
-0.098907 0.258479 7.005666
-0.196249 0.507881 7.814224
-0.218839 0.561779 8.523751
-0.166246 0.423399 9.280074
-0.122539 0.470053 1.970699
-0.112120 0.426678 2.467796
-0.059312 0.222849 3.290246
-0.098495 0.364632 4.225005
-0.135110 0.496265 4.718384
-0.043231 0.157146 5.453014
-0.019838 0.071060 6.457919
-0.082192 0.291861 7.010823
-0.157866 0.554364 7.725095
-0.168975 0.587201 8.449337
-0.115277 0.396578 9.217265
-0.106606 0.701656 0.440241
-0.091984 0.593881 1.168075
-0.067084 0.425333 1.874844
-0.072313 0.449380 2.664876
-0.060844 0.370460 3.496263
-0.060255 0.361324 4.126257
-0.073782 0.432359 5.089675
-0.007949 0.046177 5.521346
0.020724 -0.117810 6.512775
-0.042602 0.237463 7.342021
-0.105558 0.581716 7.793814
-0.119892 0.649892 8.551414
-0.082050 0.437120 9.440416
-0.051068 0.813708 0.770674
-0.034759 0.532920 1.396637
-0.028422 0.417712 2.112871
-0.033165 0.467502 2.842181
-0.035434 0.480376 3.555572
-0.034239 0.444802 4.376923
-0.023698 0.298735 4.998289
-0.000337 0.004082 5.895670
-0.004155 0.048983 6.462274
-0.040241 0.456051 7.277762
-0.059113 0.646882 8.058604
-0.051186 0.545584 8.723790
-0.033593 0.344623 9.751718
-0.010004 -0.291587 0.301680
-0.002245 -0.072993 1.209969
0.011385 0.403941 1.846542
0.010030 0.380080 2.303395
0.010278 0.461797 3.348773
0.010366 0.505619 3.791770
0.007475 0.455567 4.846362
0.002751 0.196654 5.508854
-0.000357 -0.030496 6.147362
0.002897 0.377343 7.129733
0.003643 0.742048 7.781616
0.001836 0.567730 8.262842
-0.000043 0.359512 9.209858
0.108810 0.885162 0.837190
0.069659 0.574062 1.237618
0.052236 0.444077 2.170541
0.045054 0.392106 2.857934
0.044613 0.396856 3.483993
0.045547 0.414623 4.130460
0.032135 0.302071 5.027971
0.003939 0.038265 5.951493
0.007587 0.075157 6.467875
0.044410 0.452654 7.134947
0.083585 0.889392 8.116461
0.066304 0.718122 8.588740
0.028039 0.315925 9.642974
0.193142 0.863355 0.438094
0.125168 0.569289 1.365250
0.095521 0.441750 2.249370
0.081621 0.381423 2.798719
0.092308 0.439222 3.728027
0.085366 0.409440 4.140322
0.054440 0.265300 4.971995
0.005373 0.026636 5.881723
0.031245 0.156919 6.514395
0.116271 0.593589 7.248138
0.173207 0.901194 8.110917
0.144857 0.762505 8.709911
0.066450 0.356293 9.715592
0.025558 0.079384 0.318519
0.069609 0.219071 1.289296
0.140131 0.445949 2.090258
0.119233 0.382097 2.599490
0.120839 0.391153 3.323796
0.152752 0.500467 4.178119
0.122527 0.404827 4.790527
0.029373 0.098025 5.553671
0.011485 0.038861 6.556335
0.130472 0.445893 7.184201
0.232120 0.803138 7.975849
0.207249 0.723422 8.612233
0.124301 0.437554 9.280074
0.349429 0.813597 0.496503
0.226988 0.532974 1.267073
0.170847 0.404516 2.032566
0.147652 0.352122 2.690138
0.171118 0.412722 3.708319
0.172358 0.418059 4.216311
0.116448 0.285031 5.057649
0.024295 0.060035 5.957434
0.073491 0.182889 6.579463
0.244135 0.611894 7.135387
0.311448 0.789804 8.147040
0.228351 0.582466 8.725755
0.142701 0.367828 9.738724
0.268730 0.494749 0.658191
0.280523 0.521004 1.581203
0.233338 0.435562 2.118338
0.189326 0.356237 2.966475
0.223322 0.422426 3.516190
0.247715 0.472885 4.476061
0.105479 0.202682 5.210290
-0.035979 -0.069625 6.011580
0.150590 0.293628 6.749596
0.394047 0.774867 7.540088
0.396043 0.783395 8.160957
0.339149 0.676281 9.046523
0.147194 0.295492 9.883398
-0.038211 -0.056238 -0.009995
0.065575 0.097226 0.865309
0.232572 0.347042 1.608609
0.240156 0.360635 2.349513
0.272967 0.412759 3.157217
0.297150 0.452155 3.887458
0.248819 0.380387 4.445897
0.156790 0.241686 5.444401
-0.027355 -0.042354 6.027515
0.169624 0.264778 6.936859
0.469082 0.736770 7.559565
0.474395 0.749168 8.199900
0.355191 0.563931 8.892355
0.298079 0.368689 1.744256
0.277206 0.344929 2.487508
0.296592 0.371238 3.218480
0.363202 0.457713 4.051706
0.304875 0.386307 4.741312
0.139434 0.177743 5.534857
0.080521 0.103173 6.202063
0.309564 0.399369 7.002392
0.592337 0.770172 7.894635
0.561359 0.732489 8.355571
0.400126 0.525193 9.175123
0.403707 0.410730 1.778709
0.333386 0.341442 2.623655
0.559125 0.575500 3.228656
0.648881 0.672222 4.032002
0.495387 0.515856 4.712004
0.301471 0.315572 5.422149
0.086061 0.090672 6.315648
0.328659 0.348248 6.997311
0.649530 0.692339 7.675583
0.674046 0.723201 8.524688
0.472343 0.509131 9.208088
0.640359 0.539172 0.604428
0.577924 0.489536 1.348848
0.506967 0.431880 2.059112
0.847839 0.726725 2.791182
1.099771 0.948034 3.460005
0.967624 0.838997 4.197709
0.603983 0.527459 5.157987
0.075701 0.066339 5.706712
0.156919 0.138380 6.505592
0.655676 0.583045 7.457046
0.799353 0.713378 7.882675
0.005832 0.003973 0.059846
0.670344 0.462476 1.522559
0.496752 0.344919 2.289108
1.253965 0.882255 3.761102
0.515316 0.367176 5.382676
-0.039359 -0.028204 6.191463
0.145126 0.104502 6.757198
0.766585 0.555635 7.422278
0.936473 0.683685 8.269559
0.802391 0.456419 1.712819
0.755924 0.433231 2.526498
1.556005 0.903893 3.895721
1.109625 0.648644 4.637107
0.644087 0.377924 5.126034
0.362795 0.216003 6.834504
0.862699 0.517517 7.582193
1.022950 0.617178 8.200301
0.900473 0.396542 0.368912
0.985058 0.437830 1.220440
1.024803 0.457842 1.693554
1.337029 0.602277 2.436276
1.765444 0.800647 3.021394
1.568448 0.717951 3.904069
0.561474 0.264381 6.807167
0.973991 0.463595 7.799820
1.065958 0.509767 8.254222
0.963527 0.464293 9.060262
1.172115 0.385900 0.375961
1.404796 0.468340 1.292854
1.383709 0.465268 1.927126
1.676110 0.567880 2.472477
1.923220 0.658463 3.231641
1.639452 0.566739 3.989610
0.637437 0.228312 6.969048
0.982777 0.355205 7.644834
1.169962 0.427556 8.524290
1.131387 0.416161 9.087257
1.737101 0.414723 0.521943
1.413990 0.342071 1.265036
1.475265 0.362133 2.086961
1.804512 0.447654 2.666059
2.115015 0.532301 3.464002
1.934621 0.491874 4.074377
0.800609 0.213985 7.345194
1.073330 0.289299 7.833152
1.229724 0.335208 8.537686
1.274099 0.351522 9.334694
1.470369 0.208045 0.459445
1.654058 0.237719 0.990396
1.539964 0.226899 1.864339
1.213028 0.182256 2.588581
2.250603 0.353415 4.117052
1.964085 0.313759 4.804024
1.083874 0.179434 6.366488
0.792526 0.132916 6.964745
1.050120 0.179065 7.620206
1.347641 0.233691 8.281721
1.507306 0.266767 9.146507
1.330630 0.061021 0.038452
1.366434 0.067360 0.883671
1.600778 0.084917 1.794912
1.817410 0.101595 2.478414
2.284139 0.132956 3.000336
2.527806 0.154752 3.700835
0.901368 0.067853 7.461665
1.386124 0.109833 8.377722
1.536994 0.124440 8.787215
1.296218 0.108405 9.546458
1.889542 -0.082210 0.804279
1.760077 -0.072041 1.434678
2.272821 -0.072095 3.634301
2.511780 -0.073697 4.183165
2.288443 -0.060093 4.962668
1.349791 -0.020181 7.982303
1.704506 -0.020103 8.716116
1.563302 -0.015330 9.270713
1.897767 -0.262896 0.784793
1.799544 -0.243644 1.536917
2.259407 -0.287721 3.425919
2.679970 -0.331198 4.272738
2.542870 -0.307515 4.923281
1.419502 -0.155910 7.873950
1.797701 -0.192345 8.509155
1.678909 -0.174342 9.349838
1.664741 -0.395490 0.532577
1.857081 -0.434766 1.324492
1.823338 -0.424169 1.667240
2.099189 -0.479897 2.577374
2.512736 -0.567949 3.134054
2.667152 -0.593571 3.912791
2.653428 -0.582706 4.590061
1.824711 -0.372625 8.415602
1.815528 -0.366551 8.991854
2.095130 -0.726736 0.852976
1.990300 -0.686552 1.269849
1.864988 -0.636257 2.097981
2.013314 -0.679772 2.853697
2.421936 -0.810909 3.426432
2.704988 -0.894906 4.253971
2.602354 -0.853081 4.925907
1.908538 -0.601429 7.914140
1.940086 -0.605722 8.584157
1.842253 -0.569194 9.376685
2.070074 -0.920188 0.758154
2.004123 -0.883398 1.510976
1.846371 -0.809311 2.019549
2.139711 -0.931136 2.639035
2.379566 -1.027472 3.300942
2.432320 -1.039022 4.232723
2.513960 -1.065911 4.870524
2.258792 -0.952739 5.367583
1.967062 -0.822565 6.181056
1.876737 -0.778956 6.862635
1.964071 -0.805709 7.886253
1.956422 -0.796253 8.594275
1.857520 -0.749763 9.366526
1.481117 -0.852586 0.370910
1.865294 -1.066485 1.070832
1.909159 -1.085550 1.642270
1.919434 -1.081614 2.573641
1.890542 -1.060387 3.058159
2.089252 -1.160947 3.999607
2.340042 -1.289583 4.812921
2.188440 -1.202147 5.170104
2.050145 -1.115593 6.173757
1.989855 -1.078367 6.612629
1.951623 -1.049984 7.383088
1.925198 -1.027366 8.248749
1.832323 -1.278356 1.894033
1.831556 -1.270089 2.581143
1.893558 -1.306537 3.140595
1.975968 -1.352514 4.036902
2.026921 -1.379400 4.682848
1.938671 -1.312279 5.308430
1.968192 -1.322998 6.099591
2.020385 -1.351005 6.686726
2.014813 -1.336622 7.603340
1.884719 -1.246091 8.032521
1.578062 -1.361919 0.413960
1.729054 -1.482497 1.188570
1.724414 -1.468518 1.995609
1.708484 -1.450020 2.401367
1.771274 -1.495016 3.054226
1.837519 -1.540534 3.847583
1.880128 -1.565679 4.645615
1.926521 -1.594673 5.359816
1.971039 -1.621193 6.115281
1.895099 -1.552056 6.654000
1.872149 -1.523168 7.467511
1.833028 -1.484821 8.019067
1.626381 -1.675709 0.466997
1.759313 -1.797050 1.496712
1.673046 -1.702683 1.941728
1.666981 -1.688725 2.495278
1.699488 -1.710819 3.252633
1.756836 -1.755364 4.149019
1.711409 -1.699080 4.935446
1.742821 -1.724072 5.367583
1.942322 -1.905466 6.342665
1.918825 -1.871877 7.041851
1.852018 -1.799814 7.537510
1.822452 -1.758831 8.420427
1.678803 -1.614267 8.938202
1.391801 -1.746593 0.299756
1.510730 -1.887071 0.838696
1.509811 -1.870631 1.791198
1.517919 -1.872300 2.314614
1.522232 -1.867480 2.952167
1.548455 -1.889705 3.569320
1.608376 -1.947609 4.483575
1.618964 -1.948027 5.240651
1.638973 -1.964303 5.712700
1.715855 -2.043298 6.467490
1.665517 -1.973962 7.062188
1.677824 -1.971493 8.121839
1.624130 -1.898485 8.794788
1.480966 -1.723644 9.404127
1.325569 -2.011802 0.391422
1.390990 -2.091342 1.422385
1.294881 -1.939457 1.851167
1.348173 -2.003513 2.717139
1.374040 -2.029464 3.399221
1.367995 -2.011065 3.928614
1.332262 -1.947743 4.562419
1.417925 -2.058313 5.350521
1.534454 -2.213224 6.051787
1.536209 -2.201250 6.809969
1.504470 -2.143819 7.471126
1.503254 -2.127241 8.294534
1.129756 -2.130756 0.568481
1.182672 -2.212811 1.357344
1.110360 -2.063371 2.047281
1.132468 -2.093102 2.588560
1.173047 -2.150845 3.389913
1.168719 -2.131826 3.919301
1.140309 -2.063756 4.733776
1.193066 -2.148345 5.242754
1.334014 -2.381113 6.112026
1.332613 -2.362607 6.823519
1.313286 -2.315248 7.432635
1.313323 -2.297752 8.254915
1.264738 -2.199398 8.943421
1.081717 -1.870816 9.657071
0.915260 -2.200229 0.261142
0.990341 -2.366662 0.760805
0.923178 -2.183895 1.633921
0.913946 -2.153392 1.981917
0.932209 -2.176814 2.758426
0.936033 -2.167280 3.502468
0.940864 -2.162468 4.154784
0.981102 -2.238241 4.807303
1.029535 -2.323566 5.763261
1.052634 -2.364740 6.175762
1.091877 -2.431443 6.967873
1.069761 -2.366381 7.602399
1.060753 -2.326616 8.414426
1.019159 -2.218639 9.167875
0.675455 -2.165634 0.889166
0.712139 -2.259682 1.596602
0.705962 -2.228560 1.953901
0.730539 -2.272262 2.982296
0.732423 -2.257569 3.623767
0.728300 -2.231223 4.061438
0.737442 -2.229441 5.020866
0.768373 -2.305761 5.552380
0.842274 -2.500524 6.310196
0.857614 -2.523611 6.967873
0.863613 -2.511664 7.861679
0.809749 -2.342831 8.305579
0.802263 -2.292196 9.311305
0.497159 -2.281003 1.897867
0.493597 -2.240313 2.444634
0.511956 -2.284620 3.306432
0.529293 -2.337637 3.838260
0.507677 -2.215692 4.478784
0.544973 -2.344027 5.241027
0.613813 -2.603749 5.950101
0.621887 -2.599854 6.754495
0.611354 -2.527935 7.387746
0.622295 -2.540216 8.125293
0.625555 -2.514058 9.048354
0.545553 -2.173725 9.664909
0.251469 -2.152507 0.835447
0.281908 -2.367406 1.362319
0.282117 -2.320619 1.953901
0.293285 -2.348280 2.739765
0.297028 -2.328787 3.371790
0.303112 -2.325195 4.042765
0.306202 -2.294463 4.787356
0.326227 -2.393271 5.459225
0.365501 -2.611394 6.300939
0.379640 -2.653617 7.041851
0.369096 -2.541749 7.589306
0.370351 -2.490304 8.463593
0.362024 -2.390118 9.174359
0.067779 -2.335661 1.935224
0.070384 -2.287065 2.360471
0.080013 -2.331016 3.213042
0.091300 -2.400557 4.102157
0.089813 -2.224476 4.694695
0.099232 -2.342242 5.164590
0.119750 -2.648359 5.811351
0.129272 -2.639997 6.731615
0.132759 -2.585360 7.332134
0.141828 -2.572073 8.281916
0.143211 -2.472677 9.008989
0.132063 -2.199959 9.624815
-0.172678 -2.418544 1.099545
-0.163052 -2.369513 1.717883
-0.153207 -2.301073 2.255945
-0.141920 -2.231240 2.976596
-0.136114 -2.265364 3.824137
-0.127374 -2.221105 4.494626
-0.130050 -2.416013 5.324890
-0.132951 -2.578493 5.851830
-0.125542 -2.591931 6.616030
