1.456698 0.640858 -2.876180
1.518555 0.668071 -3.242191
1.497379 0.552094 -3.179419
1.866957 0.547716 -3.144597
-0.647377 -1.324331 -13.195822
-0.862827 -1.522800 -13.301159
-0.373274 -0.573694 -12.605187
-0.844785 -1.298372 -13.129331
-1.116868 -1.716543 -13.309937
-0.296777 -0.395224 -12.896644
-0.685233 -0.912541 -13.011476
-0.998903 -1.330263 -13.193250
-1.289342 -1.717048 -13.390550
0.002804 0.003288 -12.361864
-0.571015 -0.669611 -12.914370
-0.932075 -1.093015 -13.188473
-1.236277 -1.449742 -13.293747
-1.550371 -1.818071 -13.483665
-1.852645 -2.172538 -13.675504
-0.036964 -0.037790 -12.577732
-0.429882 -0.439486 -12.764841
-1.150675 -1.176381 -13.170698
-1.390923 -1.421996 -13.159172
-0.295426 -0.266803 -12.460948
-1.231926 -1.112568 -13.188742
-1.607810 -1.452034 -13.374532
-1.506070 -1.202949 -13.439003
-2.614925 -0.419726 -13.248026
-2.851286 -0.097691 -13.102614
-3.252998 -0.111454 -13.108573
-3.371014 0.311863 -13.029844
-3.770767 0.600763 -13.101074
-4.688427 0.746966 -13.388047
-3.557146 1.031371 -13.011572
-3.059230 1.333977 -12.822569
-2.693167 1.377142 -12.686321
-2.524320 1.997787 -13.067783
-2.256546 2.021851 -13.001696
1.600152 -1.620837 -4.450705
-2.380921 2.411698 -13.033882
-2.388023 2.769099 -13.183309
-2.098662 2.771251 -13.057130
1.136911 -1.703728 -4.783930
-1.836592 2.752241 -12.904078
-2.097656 3.143461 -13.057891
-1.449443 2.523256 -12.860535
-1.238632 2.511009 -12.767801
-1.465307 2.970535 -12.908137
-1.165676 2.808654 -12.899239
2.608921 10.347700 -10.724741
0.006074 0.004358 -12.245430
0.453764 0.325605 -12.601169
1.255668 0.901024 -13.043953
-0.492842 -0.310215 -12.442623
0.004235 0.002666 -12.640313
0.250296 0.157547 -12.576288
0.858811 0.540571 -13.093098
1.255966 0.790557 -13.329048
1.423109 0.895764 -13.215778
-0.578895 -0.311351 -12.191182
-0.097856 -0.052630 -12.427111
0.363081 0.195278 -12.654453
0.786490 0.423003 -12.889988
1.214561 0.653235 -13.115229
1.626818 0.874962 -13.341169
-0.779920 -0.359131 -12.108763
-0.475552 -0.218978 -12.075740
-0.086154 -0.039671 -12.227533
0.609158 0.280501 -12.841424
1.050832 0.483879 -13.073152
1.493949 0.687922 -13.289739
1.917386 0.882903 -13.502926
-0.471495 -0.182936 -12.377187
0.014181 0.005502 -12.611178
0.488644 0.189590 -12.852747
0.961277 0.372967 -13.073264
1.398405 0.542569 -13.308906
1.837351 0.712876 -13.530283
-0.309615 -0.098478 -12.601781
0.192684 0.061286 -12.833535
0.673536 0.214229 -13.058434
1.085060 0.345122 -13.213239
1.608199 0.511515 -13.501446
1.821975 0.579510 -13.459366
-1.028760 -0.252901 -12.118735
-0.670558 -0.164844 -12.595999
-0.160581 -0.039476 -12.833096
0.334471 0.082223 -13.072992
0.831010 0.204288 -13.296709
1.309652 0.321953 -13.519947
1.565433 0.384832 -13.487932
-0.538756 -0.060117 -12.637760
-0.216226 -0.024127 -13.019646
0.130835 0.014599 -13.078074
1.278817 0.142696 -13.721903
1.448763 0.161659 -13.575551
-0.677994 -0.033854 -12.432631
0.005199 0.000260 -12.684359
0.455071 0.022723 -12.843490
0.965135 0.048192 -13.070698
1.449589 0.072382 -13.287995
1.843748 0.092064 -13.379279
-0.894906 0.009815 -12.330108
-0.307512 0.003373 -12.538356
0.218478 -0.002396 -12.770209
0.725509 -0.007957 -12.999953
1.194371 -0.013100 -13.244337
1.681124 -0.018439 -13.454120
-0.809069 0.063804 -12.594531
-0.327318 0.025813 -12.596730
0.307889 -0.024281 -13.024266
0.564538 -0.044520 -12.910503
1.304114 -0.102844 -13.469353
1.609766 -0.126949 -13.530853
-1.054127 0.148033 -12.574003
-0.857950 0.120483 -12.282194
0.017204 -0.002416 -13.047814
0.504870 -0.070900 -13.295875
-1.248856 0.261321 -12.523559
-0.686092 0.143564 -12.759906
-0.341298 0.071416 -12.744140
0.128553 -0.026900 -12.906388
0.854427 -0.178788 -13.441766
-0.998153 0.763171 -12.782750
-0.541165 0.413766 -13.010612
-0.394633 0.301730 -12.793445
0.099084 -0.075758 -13.196084
0.457023 -0.349433 -13.382522
-0.516465 0.447343 -12.830583
-0.086191 0.074655 -13.164846
0.051149 -0.044303 -12.989253
-0.562456 0.551193 -12.765667
-0.182652 0.178994 -13.008935
0.183766 -0.180086 -13.249878
-0.735755 1.073896 -12.759286
-0.101639 0.148350 -13.372457
-0.459153 0.767141 -12.920647
