-1.772475 -1.700197 6.970905
-1.801393 -1.602511 7.936751
-1.759754 -1.501411 8.493132
-1.738947 -1.414786 9.119662
-1.363974 -1.685462 1.699765
-1.470957 -1.676417 2.674817
-1.487578 -1.640049 3.081847
-1.583062 -1.600291 4.148115
-1.456560 -1.420318 4.624207
-1.624555 -1.496663 5.308836
-1.845501 -1.618379 5.882338
-1.923733 -1.551010 6.919404
-1.839244 -1.434671 7.356832
-1.891754 -1.370089 8.269809
-1.443123 -1.549767 1.062212
-1.533356 -1.543913 1.849882
-1.527282 -1.482251 2.305016
-1.617065 -1.456686 3.217672
-1.629113 -1.407585 3.731968
-1.591231 -1.275730 4.661884
-1.835806 -1.381556 5.390887
-2.040687 -1.464675 5.920297
-2.023628 -1.378528 6.546870
-2.006694 -1.278748 7.337005
-1.992283 -1.180151 8.185745
-1.992747 -1.102342 8.960180
-1.775549 -0.926943 9.669308
-1.688416 -1.363529 2.179716
-1.729271 -1.334136 2.725597
-1.761465 -1.293408 3.311471
-1.781957 -1.228218 4.053903
-1.633735 -1.063467 4.741371
-1.778686 -1.083558 5.472881
-2.085249 -1.176865 6.258126
-2.086074 -1.099526 6.990922
-1.978768 -0.994053 7.519584
-2.071405 -0.938232 8.542585
-1.983506 -0.858419 9.010547
-1.466750 -1.170260 0.094629
-1.584513 -1.195152 0.764228
-1.794908 -1.280831 1.406779
-1.774338 -1.173055 2.286228
-1.799705 -1.126440 2.900678
-1.860956 -1.096439 3.560376
-1.852488 -1.035765 4.125531
-1.830990 -0.955750 4.850183
-1.993069 -0.935697 5.887316
-2.186424 -0.970782 6.383858
-2.156829 -0.895961 7.005264
-2.142951 -0.799116 7.955686
-2.198344 -0.744796 8.729547
-1.990692 -0.637238 9.230436
-1.694718 -1.072535 0.546852
-1.860433 -1.116416 1.126354
-1.813288 -1.038636 1.628231
-1.827356 -0.963696 2.488870
-1.877868 -0.909898 3.330461
-1.899100 -0.872141 3.843521
-1.886041 -0.789431 4.699555
-1.986360 -0.787048 5.166247
-2.239115 -0.808712 5.895079
-2.188268 -0.723687 6.593823
-2.080109 -0.624813 7.322676
-2.075346 -0.536782 8.326153
-1.721958 -0.918104 0.103867
-1.833976 -0.930502 0.602544
-1.981268 -0.917074 1.482839
-1.908109 -0.836590 1.986956
-1.887216 -0.760192 2.737448
-1.911745 -0.713601 3.372941
-1.994217 -0.655970 4.347808
-1.789600 -0.547150 4.906412
-1.986482 -0.542174 5.640798
-2.300894 -0.550942 6.379118
-2.160895 -0.453055 7.129081
-2.079228 -0.375555 7.867458
-2.015235 -0.312388 8.531044
-1.913236 -0.234552 9.395585
-1.917457 -0.798014 0.206984
-2.072996 -0.783660 1.012281
-1.868359 -0.665679 1.491454
-1.866219 -0.590880 2.373348
-1.877605 -0.525536 3.210299
-1.904768 -0.480772 3.847927
-1.896697 -0.439497 4.338246
-1.780234 -0.338404 5.360421
-1.879190 -0.323006 5.791969
-2.183068 -0.288788 6.720585
-2.061995 -0.223874 7.343494
-1.990044 -0.172183 7.923570
-1.947699 -0.111503 8.693279
-1.671268 -0.043071 9.597902
-1.959993 -0.607587 0.225964
-2.081129 -0.586165 0.863602
-1.887592 -0.462810 1.710866
-1.887869 -0.410292 2.365610
-1.852783 -0.349442 3.054120
-1.913191 -0.283929 4.023549
-1.978036 -0.239531 4.687436
-1.875377 -0.191448 5.174955
-2.045363 -0.125161 6.175471
-2.107998 -0.078790 6.767974
-2.051699 -0.011399 7.594660
-1.994534 0.029426 8.132914
-1.847368 0.071885 8.799502
-1.506854 0.108447 9.765733
-1.721791 -0.345365 0.579293
-1.873932 -0.318690 1.305580
-1.801727 -0.271004 1.783381
-1.769627 -0.199945 2.700268
-1.896493 -0.151929 3.501010
-2.049085 -0.124699 3.962057
-2.125069 -0.046930 4.918395
-1.994514 0.004872 5.554576
-1.938848 0.058987 6.273059
-1.971861 0.125878 7.118176
-1.919198 0.175787 7.840276
-1.847033 0.209945 8.425070
-1.762148 0.260737 9.333445
-1.969422 -0.208690 0.537812
-2.080810 -0.185881 0.940725
-1.788152 -0.107370 1.670838
-1.755799 -0.056208 2.368036
-1.990089 -0.003444 3.101946
-2.118919 0.064554 3.887738
-2.043848 0.097563 4.325816
-2.066877 0.161481 5.079591
-1.721545 0.180400 5.801801
-1.631191 0.231219 6.749933
-1.720528 0.277603 7.225558
-1.671038 0.326440 8.091294
-1.576263 -0.046764 0.219528
-1.820142 0.014365 1.147284
-1.753339 0.068964 1.929682
-1.664957 0.105788 2.536683
-1.753259 0.168872 3.342711
-2.092777 0.261645 4.012759
-2.261538 0.341914 4.628441
-2.032443 0.350434 5.177374
-1.741581 0.350009 5.921104
-1.639260 0.397329 6.949853
-1.671432 0.445361 7.526127
-1.635873 0.490052 8.330986
-1.543666 0.513176 9.140322
-1.477717 0.121010 0.670002
-1.690545 0.181577 1.294083
-1.595827 0.219819 2.042880
-1.965231 0.457755 4.300652
-2.178164 0.566674 4.910090
-1.915246 0.680727 7.145786
-1.516535 0.580614 7.858834
-1.491706 0.618810 8.585298
-1.269787 0.558978 9.213173
-1.459366 0.228527 0.248871
-1.591800 0.312797 1.211078
-1.516061 0.343434 1.931198
-1.868528 0.595662 4.039545
-2.087959 0.721581 4.610359
-1.915176 0.712397 5.218755
-1.482106 0.604300 6.078685
-1.217891 0.535099 6.821210
-1.328354 0.644170 7.771432
-1.367018 0.710812 8.492161
-1.233342 0.674695 9.085463
-1.363666 0.457782 2.091417
-1.527678 0.579525 3.047459
-1.833071 0.733403 3.465168
-1.954083 0.851303 4.200688
-1.875177 0.900371 5.126633
-1.553036 0.895674 7.096534
-1.208719 0.756372 8.115109
-1.160701 0.755114 8.590979
-0.947349 0.666065 9.614616
-1.343378 0.493429 0.584699
-1.369085 0.544365 1.244991
-1.286381 0.543728 1.785974
-1.543273 0.814728 3.910786
-1.781511 1.024178 4.774880
-0.759370 0.560156 7.909764
-1.059357 0.809374 8.268224
-1.023489 0.845326 9.280241
-1.147809 0.637790 2.089228
-1.409131 0.839795 2.826216
-1.640691 1.023510 3.307091
-1.504820 1.026758 4.344307
-1.322524 0.949188 4.970001
-0.674806 0.601796 7.847099
-0.826733 0.778679 8.518749
-0.732994 0.745976 9.582690
-1.148716 0.666680 0.365285
-1.120410 0.698204 1.154166
-1.063455 0.706514 1.888583
-1.277198 1.017316 4.029573
-0.412772 0.405767 6.885196
-0.526089 0.555380 7.795845
-0.644902 0.703134 8.183108
-0.643617 0.750484 9.069098
-0.920451 0.773292 2.318541
-0.916331 0.807728 2.918339
-1.105995 1.034467 3.636823
-1.151892 1.142066 4.359581
-0.740885 0.777441 5.157480
-0.567915 0.634231 5.998335
-0.390438 0.454616 6.586790
-0.278329 0.342774 7.351693
-0.476392 0.619471 7.986738
-0.571755 0.788781 8.701479
-0.453135 0.660157 9.439786
-0.995196 0.894476 0.913128
-0.825340 0.789465 1.702024
-0.965193 1.095687 3.836146
-0.239472 0.340760 6.834504
-0.294414 0.444520 7.548261
-0.425780 0.681326 8.197182
-0.482929 0.834825 9.075271
-0.801306 0.828286 0.289817
-0.801865 0.883426 1.090713
-0.682131 0.804418 1.949040
-0.764670 0.942005 2.482511
-0.893669 1.167971 3.187140
-0.891439 1.261458 4.136578
-0.819369 1.216939 4.719653
-0.607202 0.970125 5.621749
-0.263659 0.440528 6.247371
-0.198073 0.358764 7.193956
-0.304778 0.592714 7.930191
-0.367000 0.762648 8.598606
-0.353907 0.785691 9.277986
-0.529285 0.677272 0.769597
-0.706014 0.933270 1.159074
-0.566669 0.806005 2.050216
-0.680444 1.029486 2.762099
-0.828907 1.315696 3.285429
-0.753880 1.292306 4.152009
-0.543321 0.982589 4.785621
-0.375232 0.734778 5.682428
-0.205280 0.431355 6.476864
-0.172117 0.391404 7.282700
-0.257517 0.624847 7.856282
-0.253737 0.678294 8.731506
-0.228081 0.673463 9.589097
-0.478495 0.833908 2.071079
-0.418860 0.779718 2.789370
-0.580742 1.190428 3.743990
-0.611779 1.337592 4.359000
-0.369689 0.873834 5.165734
-0.186078 0.474408 5.924325
-0.077973 0.210575 6.481364
-0.140528 0.424938 7.381253
-0.203869 0.687331 8.155269
-0.175338 0.667371 9.009841
-0.109023 0.443910 9.509383
-0.460283 0.956387 1.579725
-0.410441 0.898193 2.089039
-0.374967 0.885258 2.802951
-0.435642 1.125731 3.580977
-0.462532 1.315085 4.349053
-0.308796 0.925292 4.815395
-0.134690 0.447105 5.658604
-0.065898 0.245790 6.506694
-0.100230 0.430018 7.351693
-0.143835 0.711420 8.081303
-0.128676 0.756628 8.907389
-0.091460 0.629351 9.598668
-0.360247 0.961164 1.338502
-0.312926 0.903822 1.983661
-0.277173 0.898553 2.853506
-0.319013 1.178604 3.715987
-0.337401 1.368487 4.269274
-0.215320 0.951398 4.815395
-0.089229 0.453642 5.629060
-0.036034 0.227560 6.654324
-0.056135 0.419874 7.262983
-0.069846 0.704601 8.116148
-0.053578 0.751057 8.848785
-0.028716 0.630078 9.579064
-0.207092 0.846029 2.232699
-0.116350 0.517180 2.738006
-0.207318 1.368053 4.467311
-0.120029 0.931319 5.097714
-0.040642 0.415436 5.979980
-0.002942 0.040879 6.730200
-0.015802 0.339169 7.351866
-0.011333 0.730139 8.100856
0.009945 0.692206 8.915708
0.016943 0.439778 9.640420
-0.137806 0.673867 0.910392
-0.138308 0.738075 1.329309
-0.111228 0.737915 2.240500
-0.053909 0.452529 3.060904
-0.079290 1.304426 4.457520
-0.030485 0.988735 5.268924
-0.004930 0.422693 5.857620
-0.000027 -0.001831 6.635003
0.018499 0.343147 7.618901
0.060604 0.756749 8.227886
0.076030 0.717387 8.929236
0.056095 0.433866 9.630565
-0.094049 0.826041 0.604428
-0.059913 0.754283 1.475845
-0.041378 0.734520 2.064594
-0.016821 0.610705 2.810796
0.005643 0.912554 3.650101
0.002624 0.021763 6.764637
0.048570 0.327591 7.435929
0.145320 0.785977 8.290600
0.155232 0.729557 9.026982
0.102283 0.436171 9.669980
-0.009628 0.328283 0.395418
0.000832 0.396300 1.204164
0.017902 0.672267 1.822733
0.030121 0.606613 2.416640
0.055895 0.711925 3.147387
0.106060 1.019678 3.765979
0.141137 1.018151 4.640589
0.094466 0.558245 5.482180
0.029889 0.156507 6.104314
0.067212 0.305325 6.823410
0.179867 0.696578 7.703407
0.231053 0.792361 8.510886
0.193663 0.614739 9.135933
0.056074 0.828541 0.545940
0.081806 0.778159 1.494339
0.081436 0.651857 2.000342
0.107858 0.680293 2.844101
0.160849 0.894445 3.355868
0.261844 1.202914 4.251811
0.251811 1.005580 5.073862
0.126754 0.462322 5.737368
0.019593 0.065155 6.457919
0.118560 0.343928 7.470411
0.277491 0.737357 8.128878
0.278866 0.694601 8.725590
0.207756 0.477830 9.555661
0.010962 0.075642 0.109492
0.041187 0.217871 1.219900
0.119074 0.576451 1.640090
0.135159 0.552070 2.577130
0.189890 0.696528 3.235396
0.322135 1.037606 4.092580
0.141023 0.324943 7.040852
0.286311 0.617154 7.640148
0.366724 0.722623 8.555695
0.305502 0.563975 9.324760
0.228485 0.900929 0.476365
0.220407 0.748674 1.445531
0.205637 0.633452 2.157050
0.182033 0.510937 2.895260
0.249204 0.661542 3.345258
0.431255 1.048698 4.067522
0.381471 0.852380 4.880424
0.131898 0.276613 5.602711
0.013096 0.024979 6.660444
0.180192 0.320923 7.366645
0.392286 0.660776 7.928158
0.407856 0.645185 8.680614
0.323084 0.474457 9.657298
0.163677 0.452929 0.620189
0.192933 0.506394 1.061607
0.205619 0.487852 1.958143
0.254850 0.553562 2.791180
0.249151 0.516489 3.258695
0.349993 0.660915 4.210851
0.399036 0.698225 5.037384
0.166890 0.277036 5.711487
0.046003 0.072232 6.413763
0.228792 0.339107 7.060903
0.446856 0.620916 7.795845
0.494427 0.637291 8.752783
0.314744 0.391866 9.287310
0.000538 0.001221 0.069820
0.059297 0.123776 0.894528
0.298818 0.571700 1.775008
0.289513 0.526561 2.318541
0.234763 0.390061 3.338923
0.305138 0.479946 3.963342
0.365903 0.548677 4.519433
0.197073 0.274293 5.476517
0.077943 0.101428 6.365353
0.221810 0.275955 6.907710
0.459322 0.537296 7.644726
0.463256 0.512962 8.377547
0.406603 0.421121 9.307877
0.405527 0.695564 0.526811
0.379720 0.613433 1.203131
0.318660 0.483192 1.945615
0.371427 0.531179 2.640366
0.331284 0.447346 3.349364
0.325401 0.409762 4.227282
0.296960 0.358460 4.774113
0.181441 0.201902 5.861810
0.079595 0.084059 6.582866
0.331258 0.331555 7.233442
0.670649 0.627926 8.027600
0.689712 0.609542 8.797096
0.424517 0.361207 9.398999
0.294222 0.436397 -0.058987
0.354615 0.493888 0.696513
0.360658 0.465189 1.640090
0.341300 0.421566 2.184199
0.383723 0.440872 3.099428
0.439870 0.478820 3.785888
0.398310 0.418207 4.260731
0.265143 0.259828 5.189009
0.109501 0.102008 5.891669
0.380261 0.330244 6.756917
0.663833 0.545985 7.398615
0.677770 0.523878 8.205497
0.528776 0.392451 8.778641
0.228792 0.160343 9.619707
-0.079015 -0.094817 0.150125
0.440104 0.467082 1.706414
0.434957 0.433488 2.514721
0.402147 0.384242 3.062283
0.465636 0.413556 3.997093
0.480148 0.399559 4.832898
0.264144 0.212376 5.314718
0.059997 0.045681 6.056997
0.380380 0.268322 6.957924
0.763091 0.504828 7.661398
0.594471 0.367906 8.520268
0.409291 0.240890 9.179056
0.667311 0.647954 0.524971
0.582635 0.523493 1.513861
0.472332 0.411798 1.903702
0.420703 0.339849 2.875607
0.447178 0.339393 3.656274
0.512665 0.369341 4.294066
0.405165 0.276833 4.961154
0.184837 0.119249 5.697308
0.166483 0.100841 6.455990
0.539982 0.304035 7.223590
0.828820 0.437409 7.880609
0.750280 0.369154 8.662947
0.510804 0.233343 9.513390
0.364561 0.306493 0.029534
0.554569 0.441054 0.723922
0.486305 0.363579 1.491829
0.463963 0.327585 2.192506
0.476086 0.315782 2.942355
0.542439 0.337760 3.678101
0.545861 0.316539 4.493148
0.325539 0.180696 5.017674
0.136328 0.070957 5.758588
0.440039 0.209047 6.668361
0.782123 0.347958 7.257220
0.830745 0.343951 7.940059
0.699297 0.266871 8.725590
0.301838 0.105876 9.577238
0.164986 0.115296 -0.029759
0.325630 0.210346 0.908130
0.520810 0.317781 1.560490
0.513265 0.287826 2.506651
0.463922 0.248595 3.005418
0.561013 0.278569 3.798312
0.593509 0.270434 4.659742
0.342738 0.145664 5.370335
0.135763 0.053989 6.024850
0.441314 0.161356 6.712294
0.841883 0.276011 7.525191
0.907957 0.265635 8.369302
0.672655 0.183157 8.935278
0.566280 0.268330 1.903702
0.526478 0.230706 2.665499
0.537709 0.219111 3.337233
0.612502 0.229831 4.053114
0.443173 0.155911 4.613336
0.246979 0.078365 5.458014
0.221606 0.063366 6.224940
0.594325 0.145320 7.184363
0.880368 0.198531 7.603037
0.869227 0.171313 8.332078
0.684567 0.112705 9.227661
0.543421 0.197738 1.935798
0.602198 0.196912 2.779444
0.662433 0.197660 3.445453
0.622053 0.166558 4.183330
0.386545 0.090900 5.014242
0.136666 0.028785 5.669177
0.125815 0.023094 6.365353
0.538095 0.076754 7.351410
0.886845 0.108864 7.798452
0.948673 0.083006 8.717130
0.766513 0.045804 9.511147
0.616476 0.169931 1.657415
0.592832 0.143778 2.455875
0.624970 0.127186 3.411031
0.658483 0.119353 3.962194
0.614993 0.095476 4.623741
0.479401 0.059629 5.434418
0.331920 0.033300 6.085268
0.662803 0.040419 7.061974
0.956927 0.035933 7.621758
1.016703 0.010110 8.342455
0.814020 -0.013117 9.092809
0.697972 0.115062 2.007344
0.556182 0.074041 2.814692
0.774895 0.087182 3.318770
1.030903 0.075738 4.285391
0.838496 0.047405 4.744454
0.585665 0.014453 5.609809
0.316336 0.000290 6.281509
0.612762 -0.018698 7.061815
1.065519 -0.069756 7.892359
1.075815 -0.104043 8.716462
0.735827 -0.085134 9.309416
0.422743 0.060445 0.236600
0.609024 0.070471 0.922101
0.824619 0.079760 1.394771
0.706661 0.040020 2.419718
1.028969 0.032989 3.022045
1.337301 0.009553 3.626050
0.509743 -0.056750 6.806097
0.966216 -0.135402 7.465730
1.104949 -0.184313 8.124591
0.201611 0.011221 0.218233
0.418047 0.008829 1.104731
0.930338 -0.012440 1.965610
1.228414 -0.053172 2.704267
1.679944 -0.116630 3.321334
0.686461 -0.147370 7.125646
1.038349 -0.258131 7.902042
1.065770 -0.285859 8.383378
0.862044 -0.258706 9.226503
0.476984 -0.019856 0.285495
0.589024 -0.041275 1.011067
1.012818 -0.099896 1.717719
1.381834 -0.184055 2.556614
1.776543 -0.286707 3.214662
0.719750 -0.219821 6.862090
0.969079 -0.326695 7.567286
1.070804 -0.402145 8.445283
0.954153 -0.393820 9.337237
1.142850 -0.162202 0.463699
1.178994 -0.202048 1.187201
1.060445 -0.216650 1.996070
1.465371 -0.344110 2.702417
1.899588 -0.529100 3.684778
1.736938 -0.508994 4.037970
0.681388 -0.296753 7.453288
1.019566 -0.462751 7.779422
1.127326 -0.567950 8.825219
0.886258 -0.464097 9.314486
1.190303 -0.340137 1.610498
0.859785 -0.271195 2.318705
1.688992 -0.651217 3.817100
0.606286 -0.290296 5.988151
0.603647 -0.314768 6.885989
0.869013 -0.478431 7.421787
1.013127 -0.596334 8.142388
1.164541 -0.403690 0.665136
1.426200 -0.525831 1.147622
1.437383 -0.572920 1.797474
1.718636 -0.756265 2.654682
0.755718 -0.499764 7.125595
0.915323 -0.647015 7.900849
0.991472 -0.736776 8.505016
1.027994 -0.807596 9.203318
1.509667 -0.686854 0.714274
1.331569 -0.663430 1.599116
1.338806 -0.693499 1.991334
1.585776 -0.898489 2.906892
1.826254 -1.098560 3.525377
1.661160 -1.079855 4.410624
0.667597 -0.534245 7.125649
0.914227 -0.790924 8.063680
1.037426 -0.951709 8.788851
0.972615 -0.929325 9.347512
1.350334 -0.711426 -0.028675
1.292147 -0.726346 0.650861
1.309950 -0.789456 1.405711
1.426141 -0.936554 2.361920
1.746325 -1.199258 2.844300
1.884471 -1.375451 3.533030
1.794788 -1.406240 4.382036
1.510994 -1.234215 4.933686
1.034406 -0.895692 5.753695
0.637660 -0.581006 6.498312
0.668993 -0.653167 7.393122
0.863477 -0.884076 7.956219
0.959893 -1.034643 8.594640
0.896435 -1.026904 9.414750
1.199208 -0.825138 0.555551
1.290697 -0.946139 1.297791
1.269127 -0.955992 1.623188
1.194842 -0.955063 2.345075
1.517108 -1.312006 3.271682
1.791305 -1.652833 4.021729
1.496351 -1.432517 4.523493
1.246388 -1.262858 5.278830
0.982309 -1.068921 6.242798
0.679511 -0.779233 6.999311
0.774888 -0.947098 7.786917
0.893819 -1.130835 8.182195
0.924174 -1.257961 9.086147
1.140290 -0.944038 0.536013
1.301136 -1.117298 0.979471
1.195629 -1.097169 1.803163
1.122854 -1.079802 2.391157
1.410724 -1.456875 3.241063
1.702834 -1.875739 3.982179
1.608725 -1.871963 4.660847
1.396614 -1.700162 5.252595
1.000331 -1.301981 6.169696
0.648625 -0.879262 6.776891
0.708685 -1.053241 7.877853
0.845113 -1.316113 8.375392
0.858720 -1.420885 9.070552
1.193683 -1.180274 0.409243
1.242661 -1.289489 1.005824
1.186452 -1.326465 1.928299
1.322963 -1.565056 2.603671
1.567629 -1.934289 3.075873
1.629335 -2.132918 3.758577
1.540618 -2.199813 4.772442
1.357332 -2.032791 5.358276
0.985748 -1.532880 5.893763
0.623644 -1.049333 6.912465
0.585171 -1.038225 7.521205
0.766530 -1.489377 8.409245
1.188456 -1.510180 1.191239
1.072503 -1.454645 1.974326
0.888049 -1.264320 2.564849
1.405252 -2.284813 3.964752
1.289392 -2.302933 4.977333
1.116632 -2.064321 5.383119
0.823267 -1.652818 6.319295
0.564907 -1.219593 7.148062
0.575894 -1.364836 8.021692
0.662216 -1.646372 8.395312
0.593879 -1.616120 9.206919
1.043815 -1.536810 0.672312
1.041223 -1.619652 1.295190
0.951585 -1.615706 2.264931
0.863141 -1.536040 2.778162
1.023033 -1.942489 3.414621
1.168325 -2.421732 4.226535
1.052037 -2.305842 4.774792
0.776774 -2.229107 7.126610
0.604206 -1.906174 7.932999
0.542606 -1.894219 8.668318
0.438117 -1.655751 9.270361
1.011734 -1.787260 0.414260
1.060521 -1.938759 0.768631
0.913121 -1.787893 1.471523
0.841033 -1.788226 2.277289
0.764155 -1.737547 2.910098
0.829574 -2.110732 3.861564
0.907003 -2.424326 4.229643
0.795935 -2.426128 5.246126
0.668061 -2.191212 5.814344
0.546164 -2.007291 6.617520
0.480228 -1.936766 7.212507
0.421574 -1.929762 7.938590
0.360838 -1.922057 8.712163
0.265898 -1.694071 9.565633
0.723919 -1.947996 1.892884
0.661146 -1.973659 2.695871
0.594813 -1.952934 3.382359
0.601155 -2.178837 4.014130
0.625624 -2.469352 4.498872
0.524590 -2.373980 5.274487
0.404180 -2.231745 6.261926
0.335099 -2.128225 6.866446
0.270418 -2.078919 7.565113
0.213131 -2.063705 8.253251
0.142406 -1.999310 9.102020
0.738955 -2.128807 0.383780
0.752188 -2.261617 0.699446
0.596150 -2.025713 1.561264
0.536902 -2.061426 2.333198
0.489759 -2.096412 2.954910
0.428572 -2.135245 3.729273
0.376541 -2.238368 4.497496
0.338460 -2.254176 4.934610
0.265596 -2.262651 5.739530
0.210783 -2.305426 6.378940
0.131818 -2.276503 7.231198
0.055935 -2.213068 8.081403
-0.006534 -2.117465 8.841505
-0.054711 -1.876915 9.592197
0.484861 -2.128753 0.694158
0.474605 -2.298316 1.185973
0.372497 -2.151273 1.981205
0.295950 -2.147217 2.830804
0.236673 -2.225889 3.590117
0.184745 -2.275163 4.201234
0.127908 -2.231123 4.797733
0.072763 -2.302333 5.428276
-0.015100 -2.534468 6.328473
-0.086160 -2.428594 7.092694
-0.118269 -2.225699 7.585166
-0.201499 -2.236006 8.529903
-0.216836 -2.023857 9.023369
0.335889 -2.074405 0.103417
0.289753 -2.087536 0.658072
0.236322 -2.218635 1.433856
0.181045 -2.203549 2.026627
0.103822 -2.220381 2.892288
0.038172 -2.266913 3.624945
-0.031280 -2.328276 4.366359
-0.078552 -2.155639 4.961798
-0.129879 -2.256313 5.473534
-0.224372 -2.484382 6.249412
-0.315381 -2.457824 7.199235
-0.336760 -2.320848 7.647640
-0.384264 -2.206110 8.402196
-0.454496 -2.136348 9.386442
0.117594 -2.124866 0.356995
0.052708 -2.319949 1.149472
0.004436 -2.191359 1.661024
-0.059322 -2.158186 2.387827
-0.118644 -2.182727 3.046568
-0.197276 -2.235426 3.873723
-0.232543 -2.250461 4.241707
-0.332717 -2.301313 5.243056
-0.419520 -2.404939 5.951758
-0.524504 -2.548507 6.680898
-0.575830 -2.453086 7.394392
-0.581167 -2.297051 7.867799
-0.622823 -2.217083 8.555238
-0.627041 -2.005840 9.368589
-0.115627 -2.183340 0.834840
-0.176643 -2.322853 1.392328
-0.203119 -2.165462 1.831119
-0.296028 -2.174702 2.856883
-0.366075 -2.227597 3.531368
-0.418789 -2.250846 4.048629
-0.465695 -2.156397 4.773075
-0.562310 -2.253856 5.549745
-0.684875 -2.429517 6.272764
-0.764444 -2.411707 7.081642
-0.764551 -2.289603 7.495463
-0.805127 -2.206547 8.217277
-0.903463 -2.187729 9.296472
-0.245477 -2.162380 0.009381
-0.344751 -2.214771 1.020908
-0.362024 -2.146765 1.332758
-0.459104 -2.203841 2.268589
-0.516003 -2.231685 2.801855
-0.610053 -2.267140 3.673076
-0.667729 -2.212310 4.425593
-0.721543 -2.166550 5.134643
-0.801014 -2.216560 5.755150
-0.884449 -2.287104 6.295657
-0.934354 -2.240789 6.957285
-0.974612 -2.153776 7.731633
-1.007395 -2.072063 8.455752
-1.008147 -1.937719 9.195201
-0.528611 -2.148242 0.871719
-0.606103 -2.135698 1.734776
-0.645107 -2.103321 2.253138
-0.705872 -2.106921 2.882920
-0.760944 -2.076588 3.573975
-0.847257 -2.075053 4.472657
-0.935657 -2.149017 5.030202
-1.081465 -2.291775 5.753978
-1.164538 -2.272943 6.565147
-1.173736 -2.156788 7.213705
-1.252187 -2.126873 8.070685
-1.285953 -2.038617 8.875689
-1.168449 -1.784924 9.390214
-0.721483 -2.091121 0.862348
-0.767184 -2.068105 1.425526
-0.828219 -2.034249 2.196887
-0.905038 -2.037212 2.967229
-0.947190 -1.998520 3.573975
-1.003030 -1.973738 4.257212
-1.145293 -2.064057 5.142200
-1.267009 -2.158883 5.720980
-1.336212 -2.126617 6.477011
-1.407702 -2.077747 7.347948
-1.432681 -2.010077 7.962648
-1.448404 -1.911811 8.729668
-1.359390 -1.701732 9.458706
-0.949141 -1.946903 1.652847
-1.038517 -1.957798 2.487450
-1.086800 -1.931058 3.100588
-1.161539 -1.887306 4.066794
-1.148817 -1.788926 4.554576
-1.278173 -1.876078 5.213202
-1.483807 -2.022587 6.045393
-1.506924 -1.954970 6.649217
-1.536396 -1.896698 7.265427
-1.561735 -1.810114 8.069310
-1.598147 -1.729411 8.959890
-1.472666 -1.506798 9.761960
-1.113645 -1.895245 1.228669
-1.148488 -1.847602 1.840500
-1.236865 -1.852387 2.637350
-1.243652 -1.797694 3.046568
-1.312534 -1.762602 3.907456
-1.323046 -1.675381 4.620331
-1.439183 -1.742799 5.147704
-1.652526 -1.867616 5.961760
-1.720496 -1.815729 6.816563
-1.757145 -1.760199 7.479389
-1.712920 -1.648847 8.013364
-1.767982 -1.584447 8.934905
-1.639998 -1.381497 9.802106
-1.285639 -1.807240 1.068501
-1.305595 -1.778418 1.434899
-1.357204 -1.729180 2.225013
-1.414834 -1.710319 2.854813
-1.484726 -1.666050 3.761351
-1.474916 -1.558658 4.513744
-1.629427 -1.621982 5.237491
-1.863190 -1.740288 5.990265
-1.905594 -1.687811 6.653428
-1.806256 -1.537901 7.182586
-1.815253 -1.430445 8.167058
-1.878523 -1.403662 8.822931
-1.776367 -1.264753 9.468087
-1.462757 -1.701400 1.095813
-1.445563 -1.633959 1.445321
-1.502404 -1.579728 2.329819
-1.528740 -1.539863 2.858953
-1.596829 -1.506965 3.660954
-1.575403 -1.414250 4.288302
-1.725962 -1.448486 5.100908
-1.882702 -1.484106 5.844233
-1.876481 -1.400384 6.519036
-1.891742 -1.338652 7.164836
-1.913453 -1.264669 7.983736
-2.005446 -1.229334 8.850933
-1.841650 -1.081892 9.399607
-1.675740 -1.634462 0.999264
-1.596747 -1.491917 1.529734
-1.645744 -1.434674 2.376718
-1.673426 -1.392415 2.943391
-1.753147 -1.353877 3.839046
-1.688237 -1.263932 4.222514
-1.830146 -1.283520 4.979194
-2.021604 -1.306299 5.900151
-1.999837 -1.234343 6.430375
-2.036401 -1.162950 7.295580
-1.969565 -1.069405 7.867731
-1.995523 -1.011327 8.601498
-1.881246 -0.887301 9.384553
-1.810210 -1.479279 0.887223
-1.712897 -1.320567 1.587156
-1.705425 -1.234351 2.334888
-1.749033 -1.186939 3.081382
-1.829846 -1.175320 3.701130
-1.827663 -1.101050 4.419833
-1.893983 -1.071893 5.093171
-2.080629 -1.091674 5.861995
-2.119023 -1.033280 6.603041
-2.139107 -0.960125 7.412854
-2.092601 -0.866020 8.188008
-2.048092 -0.789352 8.841618
-1.821709 -0.660725 9.433375
-1.573897 -1.114504 0.396863
-1.799633 -1.206207 1.023137
-1.826143 -1.136676 1.851224
-1.835415 -1.067706 2.588636
-1.828388 -1.013579 3.102418
-1.948748 -0.987481 4.013465
-1.922648 -0.905794 4.736421
-1.938736 -0.865711 5.245133
-2.183816 -0.888105 6.052939
-2.179004 -0.820662 6.715281
-2.026260 -0.711262 7.327881
-2.095049 -0.645515 8.314402
-1.979319 -0.578439 8.725413
-1.776488 -0.446062 9.799000
-1.624546 -0.942264 0.350123
-1.831770 -0.973350 1.261360
-1.857960 -0.928689 1.874068
-1.847767 -0.866771 2.490668
-1.867982 -0.803117 3.297588
-1.873893 -0.738463 4.062027
-1.892076 -0.680219 4.819439
-2.043307 -0.664606 5.568346
-2.202436 -0.658020 6.150151
-2.117547 -0.574751 6.809789
-2.038712 -0.481836 7.673942
-1.981845 -0.430072 8.164881
-2.014279 -0.349760 9.252781
-1.909691 -0.881252 0.366655
-2.059653 -0.884248 1.020908
-1.835590 -0.749199 1.472586
-1.894665 -0.684952 2.473616
-1.877739 -0.633620 3.007615
-1.868216 -0.569597 3.744082
-1.932529 -0.533795 4.398034
-1.813601 -0.439386 5.216509
-1.986896 -0.420525 5.926280
-2.216381 -0.394165 6.710991
-1.984943 -0.311564 7.278507
-1.930493 -0.246411 8.034790
-1.968372 -0.184817 8.897657
-1.705051 -0.116687 9.638826
-1.681792 -0.585427 0.559899
-1.931294 -0.609023 1.282032
-1.963138 -0.577140 1.762434
-1.885473 -0.487429 2.582861
-1.864118 -0.440218 3.108645
-1.925480 -0.378242 4.048985
-1.971306 -0.331050 4.734588
-1.868632 -0.267605 5.358451
-1.932369 -0.224779 6.018755
-2.058679 -0.173336 6.805844
-1.940090 -0.116271 7.450295
-1.858602 -0.065703 8.104737
-1.866120 0.002703 9.067601
-1.811674 -0.356810 1.772629
-1.770814 -0.271127 2.833094
-1.891961 -0.234259 3.538831
-2.024907 -0.209066 4.030851
-2.025423 -0.162161 4.605367
-1.968071 -0.083380 5.558541
-1.930201 -0.042535 6.079732
-1.958273 0.030391 7.033232
-1.900087 0.079769 7.726846
-1.893034 0.142074 8.585930
-1.672641 0.151346 9.045234
-1.767794 -0.253224 0.816085
-1.829055 -0.200048 1.640021
-1.732506 -0.157303 2.102094
-2.037972 -0.005706 4.259891
-2.187547 0.076051 5.177586
-1.856196 0.095886 5.654120
-1.736865 0.142536 6.446194
-1.874708 0.228617 7.432435
-1.792806 0.257779 8.006169
-1.685283 0.283332 8.653015
-1.420415 0.289484 9.638401
-1.527434 -0.092136 0.525693
-1.745886 -0.057709 1.197251
-1.658060 -0.002054 1.992353
-1.995120 0.175337 4.178108
-2.221516 0.271837 4.997923
-1.991530 0.393236 6.881478
-1.654377 0.370361 7.603282
-1.668422 0.442621 8.618485
-1.438226 0.414182 9.235686
-1.851909 0.050240 0.303029
-1.840932 0.110728 1.118045
-1.631304 0.127010 1.563703
-1.537638 0.159520 2.209679
-1.711494 0.230771 2.962748
-2.103029 0.357782 3.781630
-2.172723 0.432488 4.466516
-2.014898 0.445411 5.013717
-1.737386 0.443159 5.869488
-1.315616 0.372340 6.615023
-1.300395 0.408738 7.364428
-1.447248 0.496683 8.010551
-1.642240 0.203328 0.495248
-1.676326 0.252706 1.151408
-1.491555 0.251814 1.597978
-1.480809 0.301668 2.442378
-1.350492 0.310338 3.078777
-1.742948 0.471495 4.000044
-2.126058 0.622615 4.466516
-1.983801 0.656866 5.356135
-1.523459 0.533104 5.860472
-0.964024 0.369609 6.728122
-1.036395 0.436577 7.565805
-1.401214 0.649318 8.400316
-1.262942 0.610717 8.871670
-1.390200 0.413468 2.283032
-1.518559 0.493771 2.906568
-1.823530 0.650654 3.583529
-1.938408 0.768831 4.435603
-1.838538 0.764512 4.860621
-1.572152 0.822123 7.130007
-1.216895 0.690793 8.111140
-1.179579 0.701047 8.644918
-1.012762 0.654568 9.694908
-1.387578 0.438508 0.526817
-1.508058 0.515648 1.107009
-1.401461 0.519139 1.742636
-1.675180 0.802433 4.013266
-1.802862 0.909923 4.511145
-1.647005 0.892356 5.263833
-1.203602 0.683483 5.849688
-0.661744 0.401355 6.706286
-0.682774 0.454532 7.814465
-0.930165 0.653761 8.416292
-0.937202 0.693097 9.054855
-1.527053 0.632261 0.323822
-1.429895 0.627650 0.850008
-1.188990 0.573826 1.760933
-1.499832 0.892176 3.910786
-1.744205 1.087947 4.401138
-1.522322 1.008084 5.116004
-0.723422 0.608680 8.256738
-0.867616 0.778443 9.054855
-1.108566 0.583967 0.346797
-1.147540 0.650768 1.125321
-1.071701 0.657034 1.986244
-1.256885 0.814998 2.606766
-1.320727 0.905383 3.242609
-1.289388 0.933441 3.889362
-1.344481 1.051629 4.813325
-1.097083 0.898822 5.430966
-0.641255 0.550059 6.109689
-0.415158 0.381735 7.071449
-0.546696 0.532066 7.786079
-0.732331 0.762467 8.619631
-0.680896 0.741774 9.240271
-0.923524 0.604587 0.425659
-1.123559 0.803202 1.450116
-0.948925 0.715298 2.096621
-1.157777 0.913056 2.627764
-1.368568 1.143690 3.311858
-1.244605 1.106617 4.093360
-1.016036 0.966655 4.982496
-0.739756 0.736935 5.627730
-0.377274 0.397469 6.443969
-0.258753 0.288121 7.208702
-0.485101 0.575549 7.972645
-0.615119 0.771455 8.647024
-0.541826 0.713676 9.310627
-0.843910 0.770996 2.176886
-1.000826 0.964115 2.827184
-1.191422 1.210981 3.473548
-1.088909 1.166053 4.140255
-0.788865 0.895671 4.933365
-0.566579 0.672341 5.544137
-0.330762 0.421490 6.517182
-0.257606 0.348715 7.312271
-0.464565 0.677047 8.162348
-0.506205 0.772119 8.703628
-0.449015 0.726670 9.446514
-0.684316 0.744677 2.068177
-0.579706 0.665831 2.760169
-0.781130 0.970591 3.713374
-0.876254 1.148826 4.352500
-0.613386 0.858164 5.199825
-0.381034 0.569665 6.066467
-0.167755 0.262392 6.680380
-0.182080 0.303160 7.421027
-0.318115 0.569966 8.211093
-0.387738 0.748378 9.002552
-0.273718 0.550849 9.520236
-0.577033 0.661866 0.360213
-0.616939 0.739071 0.903418
-0.626673 0.803106 1.737112
-0.720021 1.122652 4.054330
-0.183428 0.365359 6.927936
-0.244254 0.521944 7.631516
-0.294310 0.689924 8.518485
-0.292096 0.737397 9.212513
-0.665344 0.950372 0.792109
-0.526713 0.804377 1.584169
-0.650814 1.194434 3.604284
-0.090034 0.225342 6.857097
-0.170762 0.468589 7.627394
-0.229587 0.672139 8.125929
-0.201573 0.673433 9.162749
-0.392668 0.674996 0.575988
-0.515799 0.938898 1.191393
-0.411317 0.810930 2.035077
-0.452170 0.942843 2.591670
-0.539980 1.220537 3.344889
-0.541391 1.347480 4.205782
-0.380116 1.023498 4.927822
-0.193926 0.569144 5.707936
-0.087318 0.272946 6.256089
-0.106906 0.375401 7.095300
-0.159058 0.653553 8.072717
-0.152490 0.695814 8.682612
-0.121873 0.619377 9.285556
-0.307323 0.788265 2.234259
-0.217689 0.590209 2.720629
-0.314870 0.958703 3.610823
-0.392952 1.346242 4.416206
-0.241235 0.901773 5.058837
-0.086962 0.366391 5.885362
-0.005807 0.027037 6.516470
-0.055775 0.322319 7.539836
-0.091584 0.597133 7.995421
-0.078018 0.651227 8.872765
-0.045500 0.488929 9.637372
-0.245770 0.657305 0.185884
-0.242249 0.730376 1.142867
-0.224962 0.734338 1.729781
-0.262774 0.945012 2.381795
-0.294515 1.208589 3.178578
-0.264025 1.287647 4.105272
-0.218010 1.232770 4.807436
-0.126810 0.840492 5.518747
-0.032828 0.261593 6.270240
-0.023459 0.235780 6.960859
-0.040950 0.643688 7.832233
-0.024279 0.755810 8.651312
-0.006024 0.633758 9.295358
-0.169544 0.661425 0.685273
-0.168004 0.731887 1.329309
-0.140278 0.735457 2.279583
-0.064457 0.392424 2.966475
-0.130777 1.303950 4.486373
-0.072272 0.941835 5.136585
-0.019887 0.415314 5.970119
-0.002833 0.157745 6.811425
0.003745 0.373991 7.519781
0.029237 0.754123 8.208349
0.055736 0.797350 9.034282
0.043770 0.458979 9.814400
-0.081253 0.470279 0.265806
-0.068669 0.487108 1.063079
-0.078365 0.689144 1.743185
-0.057346 0.686510 2.509489
-0.048960 0.895783 3.229399
-0.038092 1.148853 3.752811
-0.004952 1.033992 4.492002
0.012277 0.557107 5.252601
0.016251 0.257483 6.383469
0.025219 0.313484 6.833299
0.063111 0.578684 7.538012
0.110580 0.757100 8.473643
0.109356 0.640238 9.155529
-0.028194 0.350525 0.167940
-0.018678 0.362187 0.908758
-0.009251 0.700441 1.880169
0.001269 0.598394 2.279297
0.027703 0.718780 3.206062
0.072810 1.087082 3.896225
0.098651 1.062872 4.556660
0.063747 0.549271 5.223131
0.022078 0.146438 6.187936
0.039852 0.228036 6.797637
0.136413 0.635846 7.738756
0.182478 0.745436 8.483409
0.151543 0.566176 9.109000
0.036881 0.747197 1.251147
0.051237 0.633217 2.060543
0.068158 0.647482 2.679556
0.127757 0.915866 3.521187
0.194294 1.158340 4.199863
0.208800 1.022479 5.122317
0.098777 0.448522 5.609362
0.007513 0.030230 6.392523
0.086851 0.300741 7.346948
0.220779 0.686798 8.061749
0.215434 0.628575 8.590593
0.183158 0.485927 9.450961
0.028194 0.275092 0.138590
0.044451 0.334738 0.909385
0.106025 0.635335 1.755411
0.108440 0.584744 2.220425
0.089465 0.414680 2.984150
0.164758 0.670812 3.692583
0.261172 0.927210 4.530543
0.151989 0.496991 5.167728
0.047228 0.136800 6.168066
0.100565 0.272538 6.704701
0.251488 0.620768 7.468561
0.285274 0.655304 8.145490
0.254883 0.533301 9.128628
0.015691 0.077443 0.447911
0.042533 0.186987 1.061991
0.137619 0.546589 1.641228
0.153773 0.524928 2.628044
0.174177 0.545420 3.248877
0.268047 0.768626 3.906733
0.315394 0.823355 4.679475
0.161511 0.387046 5.514617
0.043751 0.099132 6.102635
0.169695 0.355352 6.849014
0.354507 0.669620 7.879325
0.369379 0.658159 8.538024
0.352607 0.585475 9.387015
0.274211 0.888647 0.515250
0.242180 0.708917 1.280458
0.225618 0.596913 2.109548
0.245188 0.605505 2.708946
0.289856 0.647731 3.631342
0.422517 0.883554 4.252548
0.387814 0.746724 5.121620
0.111035 0.205823 5.624072
0.005005 0.008679 6.416775
0.181604 0.289260 7.361748
0.388257 0.584539 7.973724
0.448564 0.625757 8.917154
0.295355 0.397374 9.457300
0.386279 0.906519 0.805728
0.294897 0.660258 1.252019
0.273291 0.555474 2.209080
0.313151 0.593402 2.934210
0.291266 0.514558 3.702819
0.284443 0.484159 4.123260
0.286544 0.454806 4.934688
0.131330 0.197208 5.643893
0.033474 0.046881 6.541961
0.270990 0.353678 7.371400
0.486962 0.599546 8.060545
0.491904 0.566864 8.942736
0.380158 0.415377 9.712890
0.336735 0.625337 0.802171
0.284292 0.501845 1.355433
0.274820 0.456941 2.026951
0.303190 0.471208 2.804870
0.336290 0.492663 3.504074
0.355229 0.482157 4.437387
0.229967 0.298034 5.047292
0.108543 0.132299 5.867822
0.256737 0.295890 6.563610
0.546811 0.584356 7.482136
0.575090 0.592808 7.956352
0.497425 0.485593 8.717853
0.328210 0.296488 9.840665
0.241849 0.382148 0.265990
0.314537 0.468308 0.962666
0.356366 0.500606 1.658566
0.325042 0.436470 2.213679
0.355418 0.449330 2.961992
0.428249 0.503057 3.883847
0.405472 0.459636 4.346073
0.260585 0.276260 5.248243
0.126669 0.126493 6.070406
0.346707 0.324624 6.874450
0.587523 0.525282 7.423588
0.606440 0.516806 8.055054
0.553336 0.443703 8.880339
0.229219 0.172396 9.840501
0.135543 0.181238 -0.059478
0.243395 0.301411 0.898261
0.388521 0.461986 1.403543
0.384417 0.426355 2.290696
0.402598 0.420216 3.069981
0.472918 0.462832 3.893641
0.460995 0.430866 4.493148
0.277535 0.246548 5.189009
0.128445 0.107495 6.000914
0.382917 0.300046 6.800892
0.755818 0.550823 7.636709
0.670542 0.470041 8.152597
0.539164 0.356178 8.937563
0.219895 0.241122 0.069200
0.511901 0.528682 0.830934
0.433429 0.425230 1.491829
0.410340 0.384174 2.094301
0.425972 0.374692 2.893258
0.481751 0.395454 3.768899
0.479124 0.371363 4.496249
0.353950 0.257787 5.300206
0.128279 0.090231 5.778453
0.350978 0.230550 6.578870
0.669818 0.412231 7.291674
0.901466 0.515096 8.102581
0.776700 0.416964 8.848015
0.332863 0.169275 9.584216
0.500239 0.401277 1.696615
0.443784 0.336299 2.410169
0.458975 0.327483 3.150680
0.508331 0.340808 3.899031
0.514952 0.317894 4.875470
0.253847 0.150856 5.361553
0.164912 0.089476 6.416300
0.477357 0.242890 7.056610
0.777600 0.375613 7.540088
0.768916 0.339238 8.466119
0.587543 0.241659 9.200914
0.503133 0.327121 1.875592
0.450484 0.280282 2.392179
0.503951 0.288398 3.337233
0.587726 0.311963 4.151061
0.525151 0.259440 4.918091
0.304327 0.143017 5.466635
0.204710 0.088369 6.328322
0.471976 0.190362 6.918959
0.882285 0.315980 7.880609
0.887004 0.293336 8.536334
0.734538 0.218179 9.407107
0.974418 0.575816 0.628354
0.660840 0.363659 1.417233
0.546182 0.281220 2.130628
0.491019 0.241031 2.628044
0.528086 0.241384 3.337233
0.641859 0.262143 4.386006
0.394858 0.153898 4.839827
0.169368 0.058425 5.917457
0.191099 0.060237 6.629069
0.501632 0.146782 7.120415
0.895157 0.225454 8.047047
0.846010 0.195578 8.583019
0.642768 0.125418 9.572627
0.180795 0.089434 0.178555
0.446177 0.203111 1.004035
0.579338 0.250971 1.471189
0.567922 0.220841 2.446066
0.583129 0.207167 3.205162
0.656169 0.212642 3.920308
0.609367 0.181852 4.532356
0.393347 0.105984 5.264383
0.200522 0.046515 6.229161
0.508254 0.101998 6.968131
0.910365 0.162098 7.466270
1.016748 0.148253 8.278589
0.653229 0.199385 2.018529
0.577797 0.160745 2.663653
0.633889 0.152756 3.558013
0.642228 0.141031 4.082501
0.427011 0.079967 4.918688
0.260446 0.039942 5.812302
0.268517 0.033105 6.595822
0.568793 0.057766 7.110728
1.038818 0.071019 7.888093
1.084888 0.039152 8.735820
0.792925 0.010982 9.410514
0.738473 0.152638 1.945939
0.554889 0.102110 2.518209
0.757848 0.111114 3.438285
1.027179 0.123362 4.078924
0.865717 0.074801 4.958771
0.543124 0.033117 5.666646
0.240535 0.009492 6.284403
0.575060 0.005935 6.997920
1.060994 -0.027678 7.863306
1.033907 -0.048394 8.420014
0.825969 -0.065672 9.349063
0.837438 0.155756 0.194849
0.844347 0.143024 0.604005
0.844643 0.116898 1.374313
0.808594 0.088314 2.109047
1.160540 0.079238 3.117702
1.414415 0.065034 3.656729
0.470658 -0.031624 6.722140
0.952527 -0.095612 7.500004
1.091170 -0.128144 7.915962
1.069892 -0.166995 8.931797
0.589784 -0.103202 9.556071
0.951951 0.022494 1.905946
0.698785 0.006602 2.282758
0.724403 -0.103210 6.189416
0.746957 -0.130780 7.023145
1.028556 -0.214409 7.814873
1.182601 -0.276466 8.418250
1.025570 -0.263504 9.040891
0.963511 -0.054009 1.661865
1.253215 -0.107896 2.401962
0.617287 -0.159559 6.792717
0.988870 -0.291506 7.606064
1.180428 -0.390684 8.431733
1.044976 -0.375429 9.141155
0.625910 -0.064460 0.460768
0.786526 -0.100854 1.093279
1.216131 -0.201169 1.997286
1.579518 -0.312550 2.761488
0.775212 -0.292575 7.120791
0.992244 -0.400338 7.668627
1.169291 -0.522024 8.585821
1.025884 -0.486585 9.237839
1.158094 -0.228369 0.540595
1.386115 -0.308825 1.150894
1.414216 -0.369587 2.061205
1.741313 -0.514023 2.821585
1.951089 -0.634961 3.485941
0.765724 -0.373771 7.237737
0.944654 -0.486024 7.751403
1.102724 -0.616334 8.620623
1.062682 -0.630838 9.324978
1.155176 -0.338728 0.424459
1.401122 -0.468050 1.350286
1.393250 -0.504326 1.973611
1.673452 -0.653332 2.575049
0.746149 -0.456294 7.223037
0.894686 -0.567591 7.620206
1.018183 -0.689454 8.373908
1.118239 -0.825363 9.417888
0.961844 -0.357921 -0.029084
1.050148 -0.420842 0.599356
1.423511 -0.626308 1.423810
1.508641 -0.724707 2.249403
1.744499 -0.871997 2.620634
1.917262 -1.057755 3.604694
1.713285 -0.999907 4.228280
1.067451 -0.745301 6.398516
0.764413 -0.567527 7.227595
0.913066 -0.713841 7.841689
1.102219 -0.926130 8.709671
1.101982 -0.970761 9.325031
1.389484 -0.691444 0.229236
1.316069 -0.680912 0.622150
1.358074 -0.765174 1.509761
1.475314 -0.888792 2.227178
1.830998 -1.185011 2.990293
1.991177 -1.353509 3.525333
1.884007 -1.384631 4.441066
1.583601 -1.226713 5.118802
1.070979 -0.871782 5.830493
0.689094 -0.592349 6.610594
0.685510 -0.623922 7.354239
0.876232 -0.839633 7.971354
1.044515 -1.063369 8.707209
0.948157 -1.025598 9.539528
1.254482 -0.784158 0.469016
1.391111 -0.926194 1.180790
1.328534 -0.941489 1.908008
1.196534 -0.894241 2.549366
1.874236 -1.584961 3.953674
1.495783 -1.315903 4.495519
1.243612 -1.163580 5.309098
1.000167 -0.996544 6.160885
0.695267 -0.726468 6.853863
0.787351 -0.870153 7.555370
0.936657 -1.102055 8.312460
0.960395 -1.189685 8.961953
1.326184 -1.036200 0.685216
1.451384 -1.180416 1.164564
1.270216 -1.096038 1.895765
0.975146 -0.881339 2.494741
1.801460 -1.866458 4.069057
1.643527 -1.820539 4.909688
0.766432 -1.037497 7.621127
0.952918 -1.388756 8.447311
0.931479 -1.464454 9.355901
1.255895 -1.152424 0.475519
1.355918 -1.333190 1.324492
1.187146 -1.218435 1.865877
1.148751 -1.262423 2.715580
1.444654 -1.683582 3.393412
1.679472 -2.054022 3.930654
1.582293 -2.077411 4.782900
1.377402 -1.871595 5.233715
1.054364 -1.532445 6.111631
0.685643 -1.046427 6.806562
0.689207 -1.152282 7.861520
0.844389 -1.479108 8.311966
0.815706 -1.555055 9.238522
1.092304 -1.210726 0.552783
1.160549 -1.328754 0.949587
1.151612 -1.411896 1.783381
1.346187 -1.771834 2.609248
1.468105 -2.004693 3.020095
1.447388 -2.112564 3.781631
1.427671 -2.259507 4.680002
1.277094 -2.131707 5.294747
0.967450 -1.946784 7.332058
0.762159 -1.647777 8.135064
1.070300 -1.422680 0.531432
1.176870 -1.683449 1.384671
1.061954 -1.572359 1.788995
1.147082 -1.871140 2.856883
1.310849 -2.285040 3.530011
1.285098 -2.379670 4.149554
1.191697 -2.360208 4.834942
1.036617 -2.158931 5.366030
0.771303 -1.723355 6.126217
0.671498 -1.672767 7.143956
0.701134 -1.858980 7.648509
0.645397 -1.877133 8.414459
0.542214 -1.696666 9.039122
1.154772 -1.785363 0.009395
1.140216 -1.928802 0.992818
0.990255 -1.785816 1.677680
0.924109 -1.733262 2.088542
0.905080 -1.832374 2.850470
0.989994 -2.175933 3.602489
1.000011 -2.413003 4.414954
0.912962 -2.389846 5.112476
0.774053 -2.154012 5.651267
0.652795 -1.969366 6.316655
0.572670 -1.995572 7.352903
0.517427 -1.936727 7.842581
0.455481 -2.010871 8.825697
0.357514 -1.762375 9.491760
0.906640 -1.935789 0.883013
0.858205 -1.917785 1.307457
0.772066 -1.851354 1.944133
0.755658 -1.999210 2.767116
0.706717 -2.022986 3.391393
0.666250 -2.130114 4.197948
0.664473 -2.439121 5.079054
0.547184 -2.200273 5.674047
0.460575 -2.082224 6.354622
0.407465 -2.135172 7.087257
0.322635 -2.098524 8.023427
0.271992 -2.021084 8.531044
0.201777 -1.886236 9.282147
0.738495 -1.890347 0.471088
0.775364 -2.100232 0.927271
0.688274 -2.022692 1.560132
0.629077 -2.028026 2.229857
0.578041 -2.072139 2.936134
0.521539 -2.143200 3.754699
0.479189 -2.198913 4.347763
0.403393 -2.275122 5.312260
0.338680 -2.273297 6.005569
0.275668 -2.317589 6.743298
0.223961 -2.181694 7.181049
0.141245 -2.231476 8.175082
0.081184 -2.118332 8.850901
0.020823 -1.813180 9.640624
0.511827 -1.780484 0.303029
0.523684 -2.107833 1.192033
0.469250 -2.123743 1.831119
0.412426 -2.154876 2.526762
0.349016 -2.178849 3.271585
0.307586 -2.212399 3.780082
0.242225 -2.294238 4.587718
0.170331 -2.257688 5.338635
0.105519 -2.361762 6.090262
0.042976 -2.463546 6.756360
-0.024858 -2.360823 7.487518
-0.084602 -2.287476 8.182205
-0.117590 -2.107306 8.713159
-0.168579 -1.831979 9.735390
0.341203 -1.847298 0.397436
0.333953 -2.169129 1.125536
0.284335 -2.146743 1.643463
0.208024 -2.185494 2.545514
0.156697 -2.187071 3.121589
0.105012 -2.250961 3.730550
0.023621 -2.311893 4.625097
-0.049981 -2.445250 5.367583
-0.101900 -2.523249 5.851025
-0.194406 -2.490105 6.797977
-0.221167 -2.326650 7.258236
-0.280106 -2.256314 8.008116
-0.366086 -2.269737 8.944514
-0.337348 -1.863692 9.557165
0.226803 -2.214902 0.121777
0.153561 -2.182661 0.900487
0.117188 -2.275084 1.356947
0.038996 -2.245947 2.193698
-0.030603 -2.302107 2.942081
-0.077034 -2.345278 3.418466
-0.140155 -2.316732 4.101752
-0.203723 -2.148789 4.971185
-0.291548 -2.247309 5.818524
-0.368511 -2.468848 6.258706
-0.466968 -2.485371 7.198191
-0.512158 -2.441230 7.741261
-0.597544 -2.428294 8.624413
-0.610359 -2.225105 9.362876
0.040448 -2.176220 0.150098
-0.034146 -2.314536 0.962620
-0.090453 -2.236374 1.593065
-0.152990 -2.245949 2.268589
-0.235504 -2.280992 3.121896
-0.292832 -2.328442 3.663741
-0.358061 -2.303207 4.385038
-0.412485 -2.277985 5.005808
-0.495471 -2.367069 5.668203
-0.600087 -2.480339 6.421284
-0.676202 -2.462151 7.193020
-0.733886 -2.386809 7.975553
-0.731101 -2.225084 8.505790
-0.761607 -2.068994 9.461452
-0.155187 -1.920260 0.132290
-0.271514 -2.228178 1.123900
-0.299240 -2.140748 1.559001
-0.398073 -2.208262 2.523097
-0.431769 -2.205859 2.890191
-0.522808 -2.186732 3.911171
-0.555047 -2.173707 4.291592
-0.673975 -2.327970 5.056556
-0.785134 -2.405201 5.878881
-0.872986 -2.417313 6.648631
-0.930927 -2.378932 7.318851
-0.972026 -2.278236 8.107886
-0.984349 -2.163254 8.745182
-0.920973 -1.915820 9.362033
-0.451026 -2.239673 0.757602
-0.520953 -2.294649 1.353982
-0.563872 -2.169501 2.118797
-0.601542 -2.141635 2.599880
-0.660729 -2.111040 3.327818
-0.723523 -2.129892 3.920532
-0.759186 -2.014372 4.751791
-0.860648 -2.076068 5.552379
-1.031344 -2.296419 6.235615
-1.057153 -2.242590 6.705017
-1.098655 -2.140409 7.575386
-1.130985 -2.068874 8.254608
-1.166954 -1.997915 9.000588
-0.619849 -2.119100 0.674908
-0.691999 -2.167068 1.272762
-0.736799 -2.084595 2.026627
-0.828011 -2.113062 2.850673
-0.862321 -2.051082 3.458993
-0.945082 -2.041159 4.338402
-0.986873 -2.001198 4.951097
-1.084672 -2.047004 5.665888
-1.223319 -2.175891 6.258706
-1.335847 -2.178297 7.202298
-1.321378 -2.057913 7.752336
-1.375232 -1.992441 8.614875
-1.339330 -1.855534 9.197427
-0.893331 -1.962419 1.945097
-0.949512 -1.953278 2.566125
-1.024843 -1.957233 3.299703
-1.060603 -1.918693 3.860576
-1.069083 -1.767214 4.850183
-1.176567 -1.852299 5.378296
-1.369408 -2.046789 5.928859
-1.420369 -1.993118 6.672616
-1.508242 -1.955065 7.629687
-1.570408 -1.911515 8.413832
-1.056658 -1.984392 1.226883
-1.119552 -1.917885 2.185924
-1.152828 -1.882613 2.704877
-1.170703 -1.813612 3.295095
-1.296370 -1.835298 4.319679
-1.288655 -1.729833 4.961798
-1.399767 -1.762089 5.724936
-1.606343 -1.921850 6.305170
-1.647773 -1.864392 7.003089
-1.661960 -1.769496 7.785814
-1.697194 -1.703396 8.549658
-1.666398 -1.605904 9.100409
-1.253524 -1.808474 1.839165
-1.335439 -1.770095 2.826704
-1.345582 -1.700761 3.398326
-1.396400 -1.678698 4.004086
-1.375296 -1.570775 4.645790
-1.482237 -1.590497 5.410307
-1.750970 -1.746830 6.272522
-1.765587 -1.691282 6.789143
-1.795414 -1.602402 7.692659
-1.748355 -1.479253 8.399662
-1.742734 -1.398245 9.091569
-1.304527 -1.666311 1.015226
-1.390403 -1.668035 1.765445
-1.453581 -1.660631 2.356249
-1.516485 -1.622685 3.156806
-1.526252 -1.572873 3.623449
-1.489680 -1.447203 4.369753
-1.690512 -1.512675 5.366705
-1.868179 -1.597097 5.900948
-1.873909 -1.502719 6.700850
-1.894922 -1.432086 7.435546
-1.880927 -1.331862 8.247643
-1.871145 -1.259286 8.875971
-1.796236 -1.137202 9.645036
-1.474748 -1.609399 0.675399
-1.546446 -1.577411 1.500507
-1.505657 -1.455577 2.165651
-1.545861 -1.412974 2.855761
-1.619224 -1.394621 3.581733
-1.689754 -1.367439 4.338425
-1.693598 -1.300046 4.984151
-1.823544 -1.303449 5.822704
-2.022190 -1.361629 6.491020
-1.999368 -1.292377 6.976593
-1.918059 -1.161062 7.759187
-1.918738 -1.090312 8.479706
-1.876471 -0.987802 9.343241
-1.391314 -1.297973 0.321504
-1.625958 -1.431739 1.023137
-1.630441 -1.354532 1.730422
-1.652566 -1.285322 2.524688
-1.684363 -1.243991 3.140034
-1.728047 -1.207967 3.784359
-1.690500 -1.096024 4.665228
-1.941917 -1.164942 5.501607
-2.196036 -1.239645 6.119703
-2.168044 -1.146161 6.826371
-2.057416 -1.027872 7.442132
-1.961222 -0.912191 8.192451
-1.597253 -1.213173 0.556279
-1.751471 -1.276090 1.041905
-1.737407 -1.204706 1.617654
-1.745184 -1.114535 2.554744
-1.718143 -1.047861 3.071436
-1.765207 -1.008147 3.783124
-1.782134 -0.936982 4.655803
-1.980696 -0.974493 5.299464
-2.258693 -1.025476 6.031165
-2.126296 -0.907967 6.631204
-2.094433 -0.808324 7.542329
-2.036401 -0.729077 8.192451
-1.607496 -1.061434 -0.056696
-1.729181 -1.068984 0.678344
-1.884779 -1.092562 1.370280
-1.807011 -0.964936 2.234701
-1.826196 -0.917482 2.850470
-1.815204 -0.867960 3.337670
-1.906685 -0.817450 4.350936
-1.817735 -0.727084 4.980894
-1.923140 -0.714220 5.593728
-2.193658 -0.734328 6.369597
-2.066782 -0.635073 7.030956
-1.987890 -0.551300 7.760119
-2.024804 -0.482921 8.700473
-1.866907 -0.408377 9.237874
-1.645390 -0.851342 0.303029
-1.721315 -0.836142 0.926591
-1.794119 -0.832750 1.359371
-1.805225 -0.752012 2.345025
-1.783485 -0.702380 2.832399
-1.846006 -0.647267 3.772407
-1.866862 -0.612301 4.278511
-1.830666 -0.543452 4.997469
-1.963288 -0.516297 5.771372
-2.054568 -0.486767 6.377957
-2.002330 -0.398834 7.311032
-1.939061 -0.340852 7.910280
-1.906668 -0.276701 8.699367
-1.738401 -0.201469 9.504925
-2.019103 -0.817483 0.375238
-2.068115 -0.787019 0.890461
-1.802717 -0.632764 1.541954
-1.835777 -0.583364 2.280573
-1.832741 -0.524160 3.004656
-1.861484 -0.462071 3.881808
-1.910303 -0.443993 4.250193
-1.981065 -0.380311 5.213066
-2.015179 -0.334262 5.846726
-2.012936 -0.281005 6.499806
-1.948618 -0.221196 7.170419
-1.951227 -0.152070 8.082002
-1.931460 -0.088119 8.929006
-1.585934 -0.039498 9.570087
