1.609065 -1.052185 5.699511
1.847782 -1.209752 6.650690
1.766951 -1.156832 6.676493
1.814687 -1.189158 7.432319
1.681233 -1.101744 7.509681
1.727415 -1.133118 8.349528
1.738430 -1.141089 8.925548
1.691028 -1.110738 9.567470
1.325634 -1.061505 0.797233
1.445390 -1.158289 1.448104
1.519614 -1.219108 2.381332
1.476909 -1.184370 2.040036
1.540142 -1.236295 2.877751
1.586566 -1.274559 3.545075
1.461841 -1.174248 3.483508
1.512872 -1.216723 4.537179
1.521161 -1.223665 4.733856
1.582978 -1.274524 5.502388
1.523399 -1.226692 5.619898
1.681007 -1.355101 6.561926
1.600151 -1.289879 6.560032
1.594453 -1.286054 7.105204
1.628498 -1.314733 7.948126
1.539774 -1.243344 8.165774
1.552497 -1.254518 8.839681
1.460169 -1.180625 9.465619
1.364248 -1.313138 1.708084
1.357607 -1.306529 1.563641
1.359062 -1.308518 1.957501
1.452902 -1.400923 3.233896
1.452902 -1.400923 3.233896
1.440325 -1.390232 4.152537
1.352567 -1.305309 4.024426
1.385135 -1.337595 4.589700
1.429592 -1.381626 5.297033
1.489781 -1.441126 6.119526
1.589203 -1.538428 6.759049
1.600264 -1.549857 7.186521
1.485149 -1.438414 7.262401
1.549667 -1.502229 8.069955
1.507035 -1.461685 8.604457
1.523498 -1.478667 9.264918
1.384554 -1.344076 9.532419
1.262598 -1.494237 2.193823
1.232260 -1.457867 1.921205
1.280177 -1.516387 2.959992
1.325194 -1.570714 3.507414
1.308618 -1.551055 3.504040
1.276073 -1.513352 4.015528
1.290455 -1.531890 4.866247
1.210105 -1.437106 5.262629
1.271754 -1.511287 5.817447
1.341591 -1.594366 5.842685
1.369383 -1.628671 6.541036
1.405928 -1.673409 7.220789
1.379451 -1.642565 7.610479
1.430525 -1.704922 8.432250
1.343197 -1.601138 8.653542
1.135838 -1.634142 1.653374
1.096577 -1.578479 2.086108
1.119906 -1.612956 2.539111
1.122333 -1.617432 3.038352
1.132318 -1.632494 3.377367
1.137640 -1.641646 4.125145
1.097031 -1.583366 4.306277
1.108923 -1.602054 5.105049
1.184311 -1.712496 5.835860
1.168309 -1.689100 5.712931
1.280269 -1.853450 6.813531
1.205446 -1.745041 6.805694
1.186500 -1.719151 7.597768
1.166471 -1.691013 8.073399
1.175786 -1.705380 8.522562
1.209788 -1.755941 9.145435
1.124332 -1.632857 9.740300
0.833845 -1.476620 0.714066
0.982937 -1.742292 1.412128
0.945130 -1.676854 2.120452
0.950565 -1.686791 2.250923
0.971266 -1.725068 2.918876
0.979222 -1.740435 3.452718
0.974392 -1.732504 3.740657
0.961152 -1.710020 4.215572
0.957621 -1.706068 5.267897
0.968418 -1.725815 5.492544
1.046039 -1.865365 5.966473
1.110844 -1.983110 6.793376
1.028468 -1.835829 6.744339
1.016715 -1.816327 7.399150
1.002728 -1.792634 7.990603
0.980617 -1.753818 8.337965
1.057680 -1.894010 9.317470
0.891590 -1.596516 9.405489
0.734935 -1.646051 0.925241
0.760502 -1.705318 1.689121
0.791562 -1.777489 2.610259
0.821284 -1.845485 3.046038
0.845435 -1.902136 3.859351
0.803726 -1.807258 3.497251
0.846040 -1.906108 4.765350
0.790860 -1.781221 4.578356
0.795189 -1.792552 5.166791
0.842098 -1.899892 5.707374
0.903926 -2.041732 6.448336
0.927546 -2.097540 7.233580
0.878091 -1.985937 7.350400
0.839386 -1.899350 7.728438
0.803872 -1.819922 8.116955
0.850533 -1.928253 9.077283
0.764098 -1.732796 9.365586
0.586924 -1.761051 1.516981
0.612735 -1.841257 2.298976
0.602441 -1.810013 2.211913
0.619138 -1.861280 2.518537
0.635722 -1.913705 3.220209
0.643236 -1.938341 3.767479
0.618229 -1.863452 3.912693
0.620427 -1.872869 4.708669
0.597514 -1.805467 5.250650
0.620846 -1.877233 5.600740
0.664961 -2.012192 5.992731
0.688951 -2.088321 6.901319
0.654290 -1.983734 7.064276
0.656294 -1.992422 7.796679
0.677300 -2.059363 8.649437
0.679201 -2.067093 9.191261
0.585858 -1.782844 9.246866
0.456208 -2.014387 1.655279
0.424489 -1.874814 1.761351
0.420722 -1.858755 1.879966
0.440861 -1.953017 2.895450
0.449303 -1.992170 3.223864
0.453438 -2.012320 3.562069
0.478668 -2.129455 4.465638
0.451583 -2.009703 4.628788
0.441834 -1.971039 5.562498
0.438934 -1.957776 5.500899
0.466775 -2.083955 5.844941
0.475614 -2.127271 6.541971
0.460468 -2.062125 7.057483
0.462302 -2.074642 7.885306
0.435348 -1.954409 8.075040
0.470483 -2.117727 9.101043
0.242760 -1.869095 1.101390
0.245979 -1.898505 1.644558
0.248055 -1.916785 1.905572
0.250433 -1.940023 2.463664
0.254768 -1.978830 3.049051
0.257706 -2.005271 3.449313
0.267098 -2.086422 4.304064
0.258383 -2.021314 4.647006
0.239368 -1.875858 5.073731
0.255003 -2.003920 5.677442
0.285833 -2.254923 6.503044
0.276175 -2.181424 6.806369
0.261408 -2.066612 7.043802
0.252272 -1.998309 7.523371
0.249120 -1.978362 8.130655
0.247582 -1.970473 8.658826
0.251556 -2.010367 9.644822
0.044943 -1.795189 0.711258
0.048605 -1.961262 1.146128
0.046810 -1.902771 1.465866
0.046932 -1.950898 2.415640
0.046941 -1.951558 2.422501
0.047844 -2.034824 3.363867
0.047513 -2.026883 3.490360
0.047754 -2.067405 4.092502
0.045651 -2.008635 4.765689
0.040558 -1.791057 4.957400
0.043255 -1.946449 5.693994
0.048525 -2.234765 6.556419
0.048208 -2.243400 6.969271
0.046884 -2.209325 7.479523
0.044264 -2.101519 7.810320
0.043841 -2.118303 8.506451
0.042802 -2.091232 8.959671
0.038549 -1.892167 9.217635
-0.127271 -1.859905 0.420019
-0.141584 -2.056582 1.134744
-0.132588 -1.921373 1.423208
-0.131397 -1.897688 1.831847
-0.141670 -2.024279 3.121291
-0.139083 -1.991826 2.847514
-0.145145 -2.065511 3.616707
-0.154916 -2.188149 4.526807
-0.147977 -2.088034 4.672011
-0.145106 -2.039201 5.199558
-0.140529 -1.969175 5.587031
-0.143419 -2.003784 5.961299
-0.158977 -2.208308 6.671061
-0.146336 -2.030372 6.873009
-0.147703 -2.036799 7.701637
-0.146883 -2.019088 8.143482
-0.141990 -1.945360 8.632673
-0.272967 -1.638363 0.097166
-0.287832 -1.723517 0.767998
-0.311409 -1.862030 1.170179
-0.321053 -1.914035 2.008550
-0.333224 -1.981520 2.735198
-0.328929 -1.954614 2.939435
-0.327500 -1.943969 3.260855
-0.335912 -1.988202 4.086880
-0.329563 -1.948287 4.446079
-0.345090 -2.038417 4.669771
-0.356739 -2.103800 5.138386
-0.335749 -1.974254 6.042422
-0.324918 -1.909700 6.196338
-0.372582 -2.181989 7.227413
-0.356264 -2.083602 7.679611
-0.317810 -1.858481 7.787433
-0.308510 -1.801065 8.344882
-0.313926 -1.828309 9.114401
-0.280790 -1.633005 9.659458
-0.456149 -1.728581 0.317682
-0.511987 -1.937298 0.952169
-0.505572 -1.910892 1.434095
-0.503641 -1.899806 2.296702
-0.498621 -1.880631 2.353883
-0.503532 -1.896405 2.983493
-0.569781 -2.137721 4.628695
-0.599532 -2.246958 5.077809
-0.572181 -2.138422 6.373679
-0.537690 -2.004958 7.467705
-0.503879 -1.878028 7.724142
-0.511250 -1.902262 8.534218
-0.456577 -1.699076 8.536310
-0.646902 -1.723957 0.530698
-0.712106 -1.894861 1.390201
-0.693438 -1.845362 1.338125
-0.677495 -1.801512 1.795695
-0.690486 -1.833816 2.497961
-0.677686 -1.798726 2.855964
-0.674238 -1.787438 3.555701
-0.731270 -1.936735 4.106160
-0.801464 -2.121047 4.513401
-0.844559 -2.232221 5.248226
-0.824146 -2.176350 5.785850
-0.733330 -1.936370 5.896180
-0.697943 -1.839686 7.002353
-0.677300 -1.783855 7.517728
-0.666466 -1.754672 7.759912
-0.649751 -1.709773 8.107937
-0.637914 -1.677270 8.639941
-0.580123 -1.524253 9.156044
-0.679031 -1.380645 1.193373
-0.814595 -1.654982 1.725243
-0.843134 -1.713337 1.568967
-0.878669 -1.783063 2.529749
-0.853759 -1.732084 2.708992
-0.959954 -1.943624 4.083176
-1.065329 -2.154561 4.830571
-1.069889 -2.161443 5.595898
-0.974917 -1.968912 5.887914
-0.848655 -1.711117 7.166736
-0.765819 -1.543869 7.332194
-0.866712 -1.744862 8.312566
-0.851326 -1.712940 8.753280
-0.911809 -1.481105 0.422098
-1.052717 -1.707591 1.507987
-1.021067 -1.655786 1.732157
-1.012448 -1.641561 1.850638
-0.961484 -1.557254 2.705901
-1.074418 -1.737405 3.935347
-1.231060 -1.988848 4.626117
-1.248799 -2.016404 5.054282
-0.847382 -1.364434 7.554808
-0.869696 -1.399305 8.196795
-0.912606 -1.466990 8.980828
-0.863172 -1.386625 9.596956
-0.989508 -1.307868 0.465438
-1.116517 -1.475063 0.847642
-1.171674 -1.545817 1.994821
-1.135253 -1.497459 2.172817
-1.091604 -1.438599 2.939066
-1.299324 -1.709309 4.408789
-1.436033 -1.888491 4.668760
-1.398047 -1.838131 4.870051
-0.930456 -1.219901 7.576109
-0.983815 -1.288964 8.197505
-1.033005 -1.352250 8.982238
-0.882529 -1.155138 9.180249
-0.970572 -1.059887 0.266063
-1.077909 -1.176505 0.709917
-1.280927 -1.396445 1.728714
-1.206965 -1.315501 1.944519
-1.126634 -1.227081 2.576188
-1.346708 -1.464758 3.754359
-1.502795 -1.633558 4.242139
-1.494625 -1.623777 4.735176
-1.067156 -1.155140 8.290142
-1.055778 -1.142336 8.713719
-1.297975 -1.148519 1.066410
-1.363544 -1.206173 1.325408
-1.269781 -1.122715 1.735462
-1.208800 -1.068134 2.286820
-1.459758 -1.287615 3.802930
-1.666321 -1.467858 4.936842
-1.573296 -1.385924 4.954340
-0.922344 -0.810007 8.029218
-1.049915 -0.921344 8.713058
-1.292596 -0.945194 0.890810
-1.341452 -0.980083 1.605322
-1.278555 -0.933782 1.925025
-1.220398 -0.890953 2.267829
-1.434945 -1.046509 3.110715
-1.731107 -1.259920 4.790048
-0.700854 -0.508608 7.696277
-0.982481 -0.712493 8.235266
-1.090750 -0.790563 8.722079
-1.126847 -0.815967 9.592154
-1.297597 -0.763712 1.517019
-1.275373 -0.750646 1.504518
-1.312116 -0.771672 2.105167
-1.265221 -0.743623 2.603327
-1.223118 -0.717931 3.646578
-1.504436 -0.882640 3.968039
-1.801138 -1.055912 4.503744
-1.012466 -0.591588 7.407028
-0.934865 -0.545786 8.152079
-1.031636 -0.602070 8.420713
-1.103498 -0.643461 9.132219
-1.009254 -0.588101 9.780284
-1.415778 -0.655358 1.115566
-1.452718 -0.672145 1.427631
-1.390898 -0.642790 2.223773
-1.327852 -0.613146 2.794777
-1.591588 -0.734532 3.127593
-1.775136 -0.817764 4.322646
-0.821765 -0.376842 7.825012
-0.963101 -0.441379 8.245208
-1.124064 -0.514685 8.861964
-1.178280 -0.539162 9.332156
-1.167949 -0.416010 0.458636
-1.276406 -0.454211 0.990851
-1.285398 -0.456868 1.659317
-1.291933 -0.458835 2.096408
-1.284650 -0.455872 2.564281
-1.308797 -0.464057 3.030190
-1.629146 -0.576746 3.864241
-1.833722 -0.648666 4.267753
-1.726450 -0.609923 5.028453
-1.025158 -0.360947 7.194148
-0.860899 -0.302812 7.853595
-1.105893 -0.388324 8.828665
-1.044081 -0.366564 8.946033
-1.163279 -0.407738 9.949867
-1.476722 -0.369629 0.767830
-1.400367 -0.350077 1.296039
-1.350001 -0.336892 2.038273
-1.365829 -0.340265 2.751132
-1.703465 -0.422881 4.193328
-1.830938 -0.454312 4.369746
-1.600013 -0.396456 5.007056
-1.018666 -0.251705 6.354605
-0.668202 -0.165027 6.664452
-0.621080 -0.153223 7.170328
-0.913534 -0.224990 7.860691
-1.024374 -0.252066 8.230998
-1.169451 -0.287163 9.150152
-1.429378 -0.203854 0.644095
-1.376219 -0.195813 1.228423
-1.303592 -0.184877 2.044198
-1.312506 -0.185661 2.688806
-1.583840 -0.223125 3.677652
-1.910681 -0.267809 4.880517
-0.659487 -0.091893 6.677779
-0.623026 -0.086607 7.320712
-0.837456 -0.116180 7.803511
-0.976940 -0.135405 8.010433
-1.025214 -0.141832 8.496127
-1.076563 -0.148425 9.415746
-0.877137 -0.120670 10.091598
-1.446140 -0.067972 0.784076
-1.412997 -0.065716 1.663108
-1.310832 -0.060732 1.987919
-1.337675 -0.061357 2.815346
-1.695011 -0.076449 4.146052
-1.805970 -0.081225 4.354949
-0.618828 -0.027045 6.997769
-1.046228 -0.045104 8.038432
-1.066594 -0.045898 8.187965
-1.174769 -0.050056 8.993448
-0.790410 0.036830 0.538390
-1.171183 0.055128 1.380648
-1.208686 0.057041 1.598336
-1.206491 0.057371 2.244858
-1.521460 0.073587 3.674398
-1.813777 0.088650 4.545559
-0.564365 0.028057 6.373058
-0.674368 0.033856 7.300180
-0.832662 0.041865 7.403159
-1.044009 0.052904 8.116912
-1.256481 0.064228 8.925443
-1.165995 0.059870 9.418534
-0.889892 0.045886 9.966471
-0.681815 0.099704 0.417948
-0.865811 0.126830 0.866031
-1.169523 0.171781 1.550383
-1.124099 0.165576 2.286753
-1.108531 0.163792 3.104894
-1.070007 0.158027 2.987220
-1.325292 0.196092 3.442883
-1.647273 0.244396 4.108448
-0.516437 0.077343 6.922705
-0.802673 0.120563 7.688833
-1.050566 0.157962 7.917209
-1.158835 0.174667 8.592578
-1.112345 0.168009 9.225987
-0.990392 0.149869 9.834897
-0.960783 0.239242 0.477314
-1.134785 0.282703 0.672217
-1.152350 0.287740 1.642295
-1.068118 0.267034 2.168387
-1.019134 0.255104 2.703114
-0.888390 0.222447 2.854355
-1.078361 0.270621 3.798631
-1.451104 0.364381 3.999691
-1.647448 0.414431 4.738511
-0.529859 0.133806 6.715627
-0.758029 0.191659 7.216659
-0.946900 0.239607 7.540108
-1.078514 0.273395 8.329886
-1.094878 0.277856 8.858948
-0.483731 0.170641 0.340930
-1.055397 0.373459 2.088352
-0.923866 0.326985 2.221532
-0.889653 0.315106 2.642082
-0.852536 0.302133 2.978588
-1.147677 0.407478 3.999756
-1.396995 0.496096 4.073453
-0.525844 0.187427 6.451329
-0.568885 0.202900 6.839696
-0.834302 0.297827 7.311330
-1.010662 0.361238 8.038165
-1.067595 0.381962 8.636642
-0.946729 0.338909 9.036547
-0.710802 0.254610 9.527638
-0.564151 0.261057 0.758705
-0.769071 0.356210 1.390760
-0.929366 0.430476 1.417077
-0.834118 0.386541 1.752547
-0.859646 0.399039 2.915870
-0.790597 0.366979 2.909866
-0.774393 0.359703 3.391247
-1.052592 0.489571 4.277074
-0.541921 0.252643 6.075295
-0.458402 0.213867 6.656476
-0.738228 0.344895 7.610135
-1.120315 0.523861 8.142534
-0.983302 0.459826 8.244762
-1.019741 0.477440 9.153874
-0.780861 0.365694 9.456515
-0.442729 0.258510 0.319169
-0.914893 0.535083 1.600471
-0.843211 0.493521 2.185899
-0.800617 0.468760 2.477905
-0.735459 0.430868 2.962753
-0.639950 0.375243 3.683912
-0.751168 0.440751 4.207344
-0.892500 0.524029 4.722615
-0.733061 0.430726 5.350222
-0.544672 0.320265 5.999157
-0.390109 0.229432 6.223483
-0.584707 0.344146 6.828166
-0.828997 0.488247 7.305452
-0.950830 0.560517 8.052070
-0.935075 0.551453 8.409042
-0.839299 0.495296 9.023345
-0.690954 0.408047 9.730110
-0.296341 0.216444 0.576255
-0.433269 0.316844 1.647159
-0.711874 0.520768 1.934748
-0.710467 0.519915 2.230003
-0.652062 0.477341 2.539897
-0.705044 0.516609 3.352273
-0.719757 0.527585 3.677458
-0.765615 0.561650 4.377888
-0.718766 0.527425 4.630533
-0.638713 0.469160 5.564119
-0.412582 0.303118 5.805555
-0.419168 0.308191 6.506651
-0.695928 0.512125 7.232628
-0.836188 0.615478 7.391594
-0.911767 0.671668 8.144219
-0.891677 0.657259 8.716264
-0.700379 0.516376 9.027361
-0.536805 0.396057 9.796567
-0.272414 0.240755 0.386618
-0.401954 0.355732 1.647159
-0.630948 0.558455 1.728901
-0.652227 0.577725 2.411068
-0.612796 0.542937 2.647470
-0.655357 0.581107 3.366583
-0.704376 0.625019 4.013194
-0.711006 0.631157 4.385022
-0.722693 0.641986 5.037518
-0.583345 0.518438 5.506688
-0.454921 0.404595 6.232754
-0.356067 0.316697 6.325216
-0.614207 0.546716 6.982542
-0.852979 0.759854 7.661393
-0.872018 0.778091 9.274241
-0.549947 0.490977 9.983815
-0.250871 0.268483 0.598134
-0.348833 0.373552 1.161366
-0.567605 0.608101 1.556940
-0.591579 0.634352 2.368130
-0.548838 0.588768 2.757604
-0.526991 0.565568 3.146411
-0.619280 0.665333 4.127989
-0.618814 0.664943 4.282007
-0.641539 0.689929 5.042248
-0.498917 0.536867 5.644390
-0.321753 0.346367 6.088687
-0.412159 0.444050 6.846925
-0.574947 0.619616 7.068533
-0.729285 0.786281 7.420286
-0.194260 0.251506 0.613866
-0.341154 0.441929 1.094019
-0.551983 0.715694 1.890030
-0.578139 0.749809 2.123774
-0.545177 0.707660 2.878514
-0.472728 0.613654 2.942436
-0.532315 0.691748 3.892026
-0.570424 0.741737 4.446270
-0.533036 0.693291 4.677816
-0.406531 0.529033 5.200006
-0.316461 0.412145 5.956006
-0.350747 0.457182 6.731210
-0.423168 0.551632 6.793102
-0.645499 0.842235 7.561951
-0.681725 0.889953 8.023416
-0.604265 0.789284 8.612005
-0.495615 0.647600 9.022116
-0.504591 0.659947 9.948412
-0.443326 0.719989 0.716451
-0.431434 0.701271 1.406420
-0.410830 0.668240 1.970823
-0.411441 0.669726 2.571017
-0.407140 0.663223 3.189502
-0.419086 0.682997 3.565943
-0.454632 0.741504 4.200188
-0.435507 0.710638 4.589075
-0.376213 0.614418 5.339197
-0.279708 0.456906 5.557866
-0.266142 0.434982 6.026777
-0.195412 0.319558 6.542304
-0.311830 0.510303 7.111813
-0.527378 0.863702 7.661184
-0.579490 0.949805 8.329886
-0.486659 0.797906 8.671192
-0.385328 0.632189 9.338247
-0.419323 0.847207 0.706588
-0.341828 0.691259 1.365995
-0.358940 0.726792 2.293739
-0.349186 0.707338 2.599732
-0.366988 0.744011 3.197824
-0.348129 0.705834 3.261301
-0.358421 0.727249 3.813316
-0.424541 0.862680 4.875992
-0.391770 0.796508 5.283043
-0.253727 0.515872 5.376179
-0.190499 0.387574 5.906937
-0.133794 0.272429 6.567441
-0.272024 0.554387 7.184089
-0.499058 1.018323 7.980629
-0.466790 0.952679 8.166655
-0.486247 0.993291 8.867016
-0.166119 0.439550 0.697616
-0.228661 0.605736 1.394120
-0.283179 0.750265 1.472332
-0.265629 0.704238 1.879257
-0.252311 0.669447 2.352820
-0.264483 0.702442 2.952400
-0.309755 0.824036 3.942106
-0.294625 0.783843 3.992532
-0.281296 0.749045 4.543159
-0.237838 0.634023 5.250476
-0.179496 0.478707 5.562983
-0.170155 0.454364 6.361527
-0.153734 0.410721 6.696503
-0.277302 0.741598 7.252553
-0.375795 1.005955 7.782045
-0.389483 1.043638 8.415536
-0.381719 1.024179 9.285300
-0.249946 0.670767 9.566234
-0.139025 0.518211 0.202920
-0.202997 0.758205 1.127833
-0.252959 0.946443 1.898888
-0.235317 0.881216 2.306486
-0.198065 0.741809 2.377117
-0.187422 0.703493 3.392870
-0.244085 0.917242 3.895291
-0.255732 0.960946 3.859441
-0.241285 0.907842 4.467683
-0.110377 0.417482 7.070677
-0.164762 0.623654 7.378468
-0.284974 1.080006 7.838707
-0.274463 1.040953 8.216368
-0.104808 0.608263 0.585319
-0.126331 0.735043 1.360100
-0.153349 0.892794 1.538212
-0.150697 0.880539 2.639955
-0.141212 0.826233 3.058717
-0.187834 1.101319 3.660383
-0.233200 1.369594 4.124226
-0.197884 1.163070 4.390261
-0.099116 0.586654 6.703372
-0.139264 0.826047 7.324758
-0.178115 1.058506 7.867346
-0.187749 1.116785 8.144219
-0.200253 1.194185 8.941760
-0.049255 0.662127 0.411131
-0.058164 0.786593 1.213978
-0.070878 0.961937 1.677912
-0.064147 0.871472 1.820286
-0.062269 0.850131 2.477810
-0.083422 1.142687 2.886636
-0.101442 1.409255 4.704850
-0.030710 0.433790 7.178979
-0.038755 0.547706 7.218206
-0.070739 1.004406 7.732318
-0.077813 1.109902 8.329886
0.026554 0.937819 0.356895
0.029839 1.037071 1.181130
0.031839 1.094430 1.755053
0.028090 0.966449 1.713562
0.026815 0.912331 2.313630
0.038478 1.286153 3.227997
0.049292 1.640065 3.430943
0.049786 1.636511 4.091593
0.046055 1.510131 4.248083
0.015301 0.483161 6.669806
0.026079 0.810255 7.595792
0.030715 0.954290 7.554171
0.035866 1.100708 8.294428
0.033163 1.012343 8.668962
0.088211 0.696041 0.915017
0.105674 0.832674 1.226004
0.131691 1.037094 1.344644
0.174078 1.361403 2.889853
0.205080 1.591394 4.641012
0.044003 0.338632 6.923007
0.072392 0.556231 7.261658
0.128871 0.988006 7.696717
0.154908 1.183219 8.577649
0.148378 1.130396 9.268494
0.119340 0.907568 9.818486
0.137961 0.625004 0.476490
0.191240 0.864854 1.145009
0.242936 1.095789 2.123790
0.313148 1.408890 3.066342
0.093521 0.416694 7.149876
0.145806 0.649096 7.450615
0.229336 1.019693 7.860361
0.244118 1.083760 8.487074
0.256033 1.134384 9.332207
0.218570 0.967333 9.879333
-0.111905 -0.000339 0.136530
-0.062400 -0.000189 0.136530
-0.116957 -0.000354 0.136530
-0.298384 -0.000903 0.136530
-0.115465 -0.000350 0.136530
-0.261793 -0.000793 0.136530
-0.028481 -0.000086 0.136530
-0.374817 -0.001135 0.136530
-0.133925 -0.000405 0.136530
-0.051318 -0.000155 0.136530
-0.179967 -0.010923 0.136530
-0.429379 -0.026060 0.136530
-0.060502 -0.003672 0.136530
-0.036187 -0.002196 0.136530
-0.170711 -0.010361 0.136530
-0.171535 -0.010411 0.136530
-0.078724 -0.004778 0.136530
-0.099364 -0.006031 0.136530
-0.080818 -0.004905 0.136530
-0.310928 -0.018871 0.136530
-0.062863 -0.006333 0.136530
-0.031201 -0.003143 0.136530
-0.555407 -0.055954 0.136530
-0.661256 -0.066617 0.136530
-0.285268 -0.028739 0.136530
-0.236503 -0.023826 0.136530
-0.117755 -0.011863 0.136530
-0.536900 -0.054089 0.136530
-0.486885 -0.049051 0.136530
-0.115753 -0.011661 0.136530
-0.539768 -0.054608 0.136530
-0.553469 -0.055994 0.136530
-0.369535 -0.037386 0.136530
-0.430530 -0.043556 0.136530
-0.071469 -0.007230 0.136530
-0.397426 -0.040207 0.136530
-0.122209 -0.012364 0.136530
-0.200425 -0.020277 0.136530
-0.333596 -0.033750 0.136530
-0.656282 -0.066396 0.136530
-0.459152 -0.089704 0.136530
-0.768063 -0.150055 0.136530
-0.088229 -0.017237 0.136530
-0.280709 -0.054842 0.136530
-0.171807 -0.033566 0.136530
-0.497889 -0.097272 0.136530
-0.085873 -0.016777 0.136530
-0.228440 -0.044630 0.136530
-0.066757 -0.013042 0.136530
-0.578969 -0.113112 0.136530
-0.162378 -0.031998 0.136530
-0.662901 -0.130631 0.136530
-0.137695 -0.027134 0.136530
-0.031071 -0.006123 0.136530
-0.169445 -0.033391 0.136530
-0.383284 -0.075530 0.136530
-0.072184 -0.014224 0.136530
-0.607937 -0.119800 0.136530
-0.414161 -0.081614 0.136530
-0.201074 -0.039623 0.136530
-0.357644 -0.110710 0.136530
-0.295051 -0.091334 0.136530
-0.821151 -0.254191 0.136530
-0.908748 -0.281307 0.136530
-0.781310 -0.241858 0.136530
-0.915400 -0.283366 0.136530
-0.266033 -0.082352 0.136530
-0.965891 -0.298995 0.136530
-0.639902 -0.198084 0.136530
-0.544889 -0.168673 0.136530
-0.524090 -0.186675 0.136530
-0.609195 -0.216989 0.136530
-0.372251 -0.132592 0.136530
-0.972034 -0.346227 0.136530
-1.138043 -0.405358 0.136530
-0.109369 -0.038956 0.136530
-1.044951 -0.372200 0.136530
-0.956313 -0.340628 0.136530
-0.579223 -0.206313 0.136530
-0.094191 -0.033550 0.136530
-0.500071 -0.265474 0.136530
-0.540560 -0.286968 0.136530
-0.676151 -0.358950 0.136530
-0.746169 -0.396121 0.136530
-0.407205 -0.216174 0.136530
-0.223243 -0.118514 0.136530
-0.433422 -0.230092 0.136530
-0.144167 -0.076535 0.136530
-0.334290 -0.177465 0.136530
-0.813028 -0.431614 0.136530
-0.204149 -0.158217 0.136530
-0.082271 -0.063760 0.136530
-0.947757 -0.734518 0.136530
-0.719451 -0.557579 0.136530
-0.902039 -0.699086 0.136530
-0.294620 -0.228332 0.136530
-0.384282 -0.297821 0.136530
-0.751607 -0.582500 0.136530
-0.027894 -0.021618 0.136530
-0.506539 -0.392571 0.136530
-0.522442 -0.422657 0.136530
-0.178288 -0.144235 0.136530
-0.829228 -0.670848 0.136530
-0.302865 -0.245019 0.136530
-1.090789 -0.882452 0.136530
-0.318946 -0.258028 0.136530
-0.716365 -0.579541 0.136530
-0.780456 -0.631391 0.136530
-1.013056 -0.819566 0.136530
-1.005318 -0.813305 0.136530
-0.761921 -0.618559 0.136530
-0.026766 -0.021729 0.136530
-0.085987 -0.069808 0.136530
-1.106287 -0.898128 0.136530
-0.250410 -0.203293 0.136530
-1.027045 -0.833797 0.136530
-0.625565 -0.507859 0.136530
-0.332337 -0.269805 0.136530
-0.437318 -0.355033 0.136530
-0.900838 -0.731337 0.136530
-0.887133 -0.876701 0.136530
-0.576188 -0.569412 0.136530
-1.051895 -1.039525 0.136530
-0.843301 -0.833384 0.136530
-0.196536 -0.194224 0.136530
-0.553173 -0.546668 0.136530
-0.626425 -0.619059 0.136530
-0.274532 -0.271304 0.136530
-0.676587 -0.668630 0.136530
-0.250901 -0.247951 0.136530
-0.649683 -0.709468 0.136530
-0.938938 -1.025342 0.136530
-0.269009 -0.293764 0.136530
-0.163745 -0.178813 0.136530
-0.270935 -0.295867 0.136530
-0.317272 -0.346468 0.136530
-0.488530 -0.533486 0.136530
-0.468303 -0.511398 0.136530
-0.258680 -0.282485 0.136530
-0.785504 -0.857788 0.136530
-0.815351 -0.972926 0.136530
-0.473520 -0.565033 0.136530
-0.596854 -0.712202 0.136530
-0.418169 -0.498985 0.136530
-0.582647 -0.695249 0.136530
-0.818810 -0.977053 0.136530
-0.559072 -0.667118 0.136530
-0.129481 -0.154505 0.136530
-0.504139 -0.601568 0.136530
-0.086418 -0.103119 0.136530
-0.857097 -1.132855 0.136530
-0.658486 -0.870344 0.136530
-0.691208 -0.913594 0.136530
-0.569383 -0.752573 0.136530
-0.276110 -0.364944 0.136530
-0.018475 -0.024418 0.136530
-0.590500 -0.780485 0.136530
-0.339588 -0.448846 0.136530
-0.557456 -0.736810 0.136530
-0.245445 -0.324413 0.136530
-0.439049 -0.595263 0.136530
-0.068003 -0.092198 0.136530
-0.378562 -0.513254 0.136530
-0.601668 -0.815741 0.136530
-0.799616 -1.084119 0.136530
-0.175789 -0.238334 0.136530
-0.652733 -0.884975 0.136530
-0.929233 -1.259853 0.136530
-0.274487 -0.372149 0.136530
-0.067193 -0.091100 0.136530
-0.862776 -1.207313 0.136530
-0.242872 -0.339860 0.136530
-0.796991 -1.115258 0.136530
-0.134013 -0.187529 0.136530
-0.471363 -0.659595 0.136530
-0.272345 -0.381102 0.136530
-0.101580 -0.142144 0.136530
-0.503504 -0.704571 0.136530
-0.120572 -0.168721 0.136530
-0.732698 -1.025290 0.136530
-0.856463 -1.252677 0.136530
-0.415982 -0.608422 0.136530
-0.282552 -0.413265 0.136530
-0.182920 -0.267541 0.136530
-0.559407 -0.818199 0.136530
-0.779787 -1.140529 0.136530
-0.317097 -0.463791 0.136530
-0.081106 -0.118626 0.136530
-0.622930 -0.911108 0.136530
-0.092673 -0.135546 0.136530
-0.845926 -1.374088 0.136530
-0.423946 -0.688640 0.136530
-0.541864 -0.880181 0.136530
-0.843278 -1.369787 0.136530
-0.480940 -0.781219 0.136530
-0.832001 -1.351469 0.136530
-0.204331 -0.331907 0.136530
-0.750826 -1.219611 0.136530
-0.202531 -0.328982 0.136530
-0.795444 -1.292087 0.136530
-0.275181 -0.455849 0.136530
-0.419992 -0.695735 0.136530
-0.614450 -1.017863 0.136530
-0.259462 -0.429810 0.136530
-0.123224 -0.204126 0.136530
-0.639542 -1.059430 0.136530
-0.143713 -0.238066 0.136530
-0.472210 -0.782237 0.136530
-0.356762 -0.590992 0.136530
-0.575304 -0.953016 0.136530
-0.520762 -0.901019 0.136530
-0.386303 -0.668378 0.136530
-0.392205 -0.678590 0.136530
-0.316126 -0.546958 0.136530
-0.185940 -0.321711 0.136530
-0.242911 -0.420282 0.136530
-0.372917 -0.645219 0.136530
-0.651651 -1.127480 0.136530
-0.426759 -0.738375 0.136530
-0.385377 -0.666776 0.136530
-0.450756 -1.005921 0.136530
-0.616262 -1.375269 0.136530
-0.489927 -1.093335 0.136530
-0.271909 -0.606801 0.136530
-0.166495 -0.371556 0.136530
-0.525215 -1.172086 0.136530
-0.077528 -0.173014 0.136530
-0.498728 -1.112977 0.136530
-0.269439 -0.601289 0.136530
-0.141063 -0.314800 0.136530
-0.331451 -0.765586 0.136530
-0.147318 -0.340275 0.136530
-0.580396 -1.340598 0.136530
-0.482455 -1.114373 0.136530
-0.536551 -1.239324 0.136530
-0.320962 -0.741358 0.136530
-0.102961 -0.237819 0.136530
-0.542884 -1.253952 0.136530
-0.028403 -0.065604 0.136530
-0.078088 -0.180368 0.136530
-0.092152 -0.217632 0.136530
-0.381479 -0.900930 0.136530
-0.132782 -0.313588 0.136530
-0.394661 -0.932062 0.136530
-0.381153 -0.900160 0.136530
-0.093117 -0.219912 0.136530
-0.219140 -0.517537 0.136530
-0.390094 -0.921277 0.136530
-0.134555 -0.317774 0.136530
-0.307874 -0.727098 0.136530
-0.491029 -1.308565 0.136530
-0.045267 -0.120635 0.136530
-0.251112 -0.669199 0.136530
-0.242590 -0.646487 0.136530
-0.532029 -1.417828 0.136530
-0.314133 -0.837147 0.136530
-0.414178 -1.103762 0.136530
-0.139599 -0.372024 0.136530
-0.632297 -1.685036 0.136530
-0.542289 -1.445170 0.136530
-0.329593 -0.924138 0.136530
-0.129477 -0.363039 0.136530
-0.524238 -1.469899 0.136530
-0.129787 -0.363907 0.136530
-0.274017 -0.768311 0.136530
-0.356471 -0.999501 0.136530
-0.284867 -0.798734 0.136530
-0.014907 -0.041796 0.136530
-0.485429 -1.361085 0.136530
-0.025287 -0.070901 0.136530
-0.155455 -0.475548 0.136530
-0.171575 -0.524862 0.136530
-0.238859 -0.730689 0.136530
-0.412022 -1.260409 0.136530
-0.173564 -0.530947 0.136530
-0.305587 -0.934815 0.136530
-0.267899 -0.819523 0.136530
-0.428893 -1.312018 0.136530
-0.148126 -0.453128 0.136530
-0.311592 -0.953186 0.136530
-0.246100 -0.765123 0.136530
-0.277731 -0.863465 0.136530
-0.179713 -0.558726 0.136530
-0.508561 -1.581112 0.136530
-0.457372 -1.421967 0.136530
-0.267824 -0.832663 0.136530
-0.522176 -1.623440 0.136530
-0.256270 -0.796743 0.136530
-0.308781 -0.959998 0.136530
-0.325712 -1.012637 0.136530
-0.320741 -1.215452 0.136530
-0.374034 -1.417405 0.136530
-0.401259 -1.520574 0.136530
-0.142939 -0.541670 0.136530
-0.000658 -0.002493 0.136530
-0.436869 -1.655518 0.136530
-0.093239 -0.353331 0.136530
-0.204646 -0.775509 0.136530
-0.138650 -0.525415 0.136530
-0.451787 -1.712048 0.136530
-0.277368 -1.295463 0.136530
-0.251244 -1.173453 0.136530
-0.151031 -0.705400 0.136530
-0.241605 -1.128430 0.136530
-0.297902 -1.391372 0.136530
-0.004284 -0.020007 0.136530
-0.165542 -0.773176 0.136530
-0.234596 -1.095697 0.136530
-0.173427 -0.810000 0.136530
-0.360558 -1.684011 0.136530
-0.223913 -1.059871 0.136530
-0.275485 -1.303980 0.136530
-0.270385 -1.279840 0.136530
-0.066401 -0.314303 0.136530
-0.084461 -0.399787 0.136530
-0.284867 -1.348389 0.136530
-0.056124 -0.265658 0.136530
-0.031216 -0.147760 0.136530
-0.085042 -0.402538 0.136530
-0.093252 -0.441397 0.136530
-0.130761 -0.784836 0.136530
-0.253794 -1.523287 0.136530
-0.037000 -0.222078 0.136530
-0.129590 -0.777809 0.136530
-0.158308 -0.950175 0.136530
-0.270282 -1.622249 0.136530
-0.204848 -1.229509 0.136530
-0.059315 -0.356014 0.136530
-0.092395 -0.554563 0.136530
-0.010314 -0.061905 0.136530
-0.100507 -0.879704 0.136530
-0.166041 -1.453299 0.136530
-0.206086 -1.803790 0.136530
-0.104558 -0.915157 0.136530
-0.156436 -1.369224 0.136530
-0.138336 -1.210804 0.136530
-0.007962 -0.069688 0.136530
-0.129281 -1.131547 0.136530
-0.026065 -0.228136 0.136530
-0.203291 -1.779331 0.136530
-0.053878 -0.787358 0.136530
-0.007827 -0.114379 0.136530
-0.058558 -0.855758 0.136530
-0.006773 -0.098977 0.136530
-0.124661 -1.821776 0.136530
-0.035280 -0.515571 0.136530
-0.066642 -0.973891 0.136530
-0.063616 -0.929677 0.136530
-0.016760 -0.244928 0.136530
-0.072173 -1.054722 0.136530
-0.000025 -0.000743 0.136530
-0.008733 -0.257792 0.136530
-0.025638 -0.756784 0.136530
-0.026962 -0.795865 0.136530
-0.005036 -0.148648 0.136530
-0.037401 -1.104027 0.136530
-0.048729 -1.438406 0.136530
-0.005258 -0.155217 0.136530
-0.050176 -1.481117 0.136530
-0.033192 -0.979784 0.136530
-0.015901 -0.851399 0.136530
-0.005504 -0.294703 0.136530
-0.029973 -1.604888 0.136530
-0.013802 -0.739032 0.136530
-0.007772 -0.416150 0.136530
-0.000329 -0.017620 0.136530
-0.019962 -1.068885 0.136530
-0.029875 -1.599624 0.136530
-0.035180 -1.883690 0.136530
-0.023591 -1.263185 0.136530
0.005485 -0.067166 0.136530
0.097076 -1.188688 0.136530
0.057565 -0.704884 0.136530
0.109423 -1.339881 0.136530
0.113532 -1.390189 0.136530
0.031202 -0.382065 0.136530
0.106468 -1.303697 0.136530
0.093367 -1.143275 0.136530
0.032181 -0.394055 0.136530
0.004754 -0.058214 0.136530
0.379868 -0.967650 0.136530
0.234523 -0.597408 0.136530
0.502079 -1.278962 0.136530
0.180587 -0.460015 0.136530
0.398315 -1.014641 0.136530
0.074232 -0.189093 0.136530
0.422370 -1.075917 0.136530
0.311322 -0.793041 0.136530
0.388571 -0.989820 0.136530
0.052625 -0.134052 0.136530
0.877899 -0.343302 0.136530
1.234292 -0.482669 0.136530
1.294963 -0.506395 0.136530
1.284798 -0.502420 0.136530
1.070407 -0.418582 0.136530
1.066496 -0.417053 0.136530
0.081714 -0.031954 0.136530
0.554862 -0.216978 0.136530
0.776317 -0.303578 0.136530
0.019087 -0.007464 0.136530
0.327015 -0.050800 0.136530
0.757444 -0.117665 0.136530
1.315412 -0.204342 0.136530
0.020068 -0.003117 0.136530
1.063082 -0.165144 0.136530
0.003976 -0.000618 0.136530
1.389456 -0.215845 0.136530
1.564433 -0.243026 0.136530
0.855558 -0.132906 0.136530
0.224669 -0.034901 0.136530
0.112117 -0.015472 0.136530
0.701479 -0.096802 0.136530
1.260372 -0.173927 0.136530
0.960680 -0.132570 0.136530
1.491249 -0.205787 0.136530
0.096789 -0.013357 0.136530
0.862014 -0.118955 0.136530
1.375106 -0.189760 0.136530
1.533402 -0.211604 0.136530
0.695170 -0.095931 0.136530
0.959481 0.048853 0.136530
0.853852 0.043474 0.136530
0.807650 0.041122 0.136530
1.233069 0.062783 0.136530
0.764900 0.038945 0.136530
0.130510 0.006645 0.136530
0.483143 0.024600 0.136530
0.031772 0.001618 0.136530
0.361975 0.018430 0.136530
1.076674 0.054820 0.136530
0.624061 0.194561 0.136530
1.211941 0.377842 0.136530
0.988304 0.308120 0.136530
0.954399 0.297550 0.136530
0.870488 0.271389 0.136530
0.802043 0.250050 0.136530
0.185888 0.057954 0.136530
0.961658 0.299812 0.136530
1.147811 0.357849 0.136530
0.976364 0.304397 0.136530
0.251055 0.180390 0.136530
0.562847 0.404422 0.136530
0.304846 0.219040 0.136530
0.640158 0.459971 0.136530
0.237058 0.170333 0.136530
0.126502 0.090895 0.136530
0.317264 0.227963 0.136530
0.670471 0.481752 0.136530
0.603039 0.433301 0.136530
0.338164 0.242981 0.136530
0.291541 0.248493 0.136530
0.479805 0.408958 0.136530
0.344566 0.293688 0.136530
0.027739 0.023643 0.136530
0.454152 0.387093 0.136530
0.024383 0.020783 0.136530
0.226509 0.193063 0.136530
0.210621 0.179521 0.136530
0.411100 0.350397 0.136530
0.003014 0.002569 0.136530
0.087323 0.077094 0.136530
0.042741 0.037734 0.136530
0.002443 0.002157 0.136530
0.658633 0.581480 0.136530
0.768364 0.678357 0.136530
0.588855 0.519876 0.136530
0.770711 0.680429 0.136530
0.091724 0.080980 0.136530
0.393056 0.347013 0.136530
0.010865 0.009592 0.136530
0.498344 0.597399 0.136530
0.237750 0.285007 0.136530
0.241619 0.289645 0.136530
0.146040 0.175068 0.136530
0.485477 0.581974 0.136530
0.556034 0.666556 0.136530
0.131959 0.158188 0.136530
0.174517 0.209205 0.136530
0.301668 0.361630 0.136530
0.531002 0.636548 0.136530
0.339468 0.450433 0.136530
0.461472 0.612318 0.136530
0.323264 0.428934 0.136530
0.457458 0.606993 0.136530
0.694350 0.921321 0.136530
0.194262 0.257762 0.136530
0.691185 0.917120 0.136530
0.590101 0.782995 0.136530
0.519208 0.688928 0.136530
0.288142 0.382330 0.136530
0.055446 0.081394 0.136530
0.633047 0.929303 0.136530
0.643706 0.944950 0.136530
0.020817 0.030559 0.136530
0.215690 0.316629 0.136530
0.494052 0.725260 0.136530
0.467123 0.685728 0.136530
0.256108 0.375963 0.136530
0.209440 0.307454 0.136530
0.601571 0.883096 0.136530
0.412749 0.765222 0.136530
0.356462 0.660868 0.136530
0.404612 0.750138 0.136530
0.051907 0.096234 0.136530
0.056437 0.104633 0.136530
0.114474 0.212230 0.136530
0.414526 0.768517 0.136530
0.438046 0.812123 0.136530
0.049895 0.092504 0.136530
0.135349 0.250933 0.136530
0.136672 0.270191 0.136530
0.071868 0.142077 0.136530
0.283475 0.560407 0.136530
0.228969 0.452654 0.136530
0.032538 0.064326 0.136530
0.021254 0.042018 0.136530
0.177382 0.350670 0.136530
0.329261 0.650924 0.136530
0.092310 0.182489 0.136530
0.171011 0.338076 0.136530
0.295804 0.730207 0.136530
0.159485 0.393696 0.136530
0.243145 0.600216 0.136530
0.008223 0.020300 0.136530
0.191027 0.471560 0.136530
0.008387 0.020705 0.136530
0.005694 0.014056 0.136530
0.257188 0.634881 0.136530
0.289750 0.715261 0.136530
0.093752 0.231431 0.136530
0.197729 0.519641 0.136530
0.360757 0.948089 0.136530
0.094323 0.247887 0.136530
0.049982 0.131355 0.136530
0.215861 0.567295 0.136530
0.056913 0.149570 0.136530
0.109944 0.288938 0.136530
0.164723 0.432900 0.136530
0.019804 0.052045 0.136530
0.235076 0.617794 0.136530
0.058320 0.211549 0.136530
0.082274 0.298438 0.136530
0.026163 0.094902 0.136530
0.019760 0.071677 0.136530
0.165776 0.601331 0.136530
0.240818 0.873537 0.136530
0.039492 0.143253 0.136530
0.238319 0.864473 0.136530
0.230443 0.835906 0.136530
0.221570 0.803719 0.136530
0.059575 0.224521 0.136530
0.303318 1.143122 0.136530
0.043835 0.165201 0.136530
0.262885 0.990743 0.136530
0.207320 0.781332 0.136530
0.092316 0.347915 0.136530
0.065377 0.246389 0.136530
0.126865 0.478119 0.136530
0.278362 1.049069 0.136530
0.288513 1.087328 0.136530
0.064691 0.293071 0.136530
0.066099 0.299450 0.136530
0.124253 0.562904 0.136530
0.077696 0.351987 0.136530
0.088183 0.399497 0.136530
0.101044 0.457762 0.136530
0.009289 0.042082 0.136530
0.127196 0.576238 0.136530
0.075290 0.341085 0.136530
0.030680 0.138988 0.136530
0.107767 0.572663 0.136530
0.014952 0.079455 0.136530
0.117852 0.626257 0.136530
0.129776 0.689620 0.136530
0.112328 0.596902 0.136530
0.099013 0.526148 0.136530
0.068266 0.362762 0.136530
0.068878 0.366012 0.136530
0.006158 0.032721 0.136530
0.085037 0.451878 0.136530
0.121238 0.704810 0.136530
0.075301 0.437762 0.136530
0.070170 0.407930 0.136530
0.181723 1.056441 0.136530
0.128730 0.748365 0.136530
0.026685 0.155130 0.136530
0.119697 0.695854 0.136530
0.138216 0.803511 0.136530
0.090134 0.523991 0.136530
0.089403 0.519741 0.136530
0.105064 0.623152 0.136530
0.152314 0.903402 0.136530
0.053910 0.319748 0.136530
0.155965 0.925057 0.136530
0.113377 0.672457 0.136530
0.054926 0.325776 0.136530
0.128089 0.759720 0.136530
0.033941 0.201307 0.136530
0.048849 0.289734 0.136530
0.121159 0.718617 0.136530
0.044458 0.275411 0.136530
0.095170 0.589562 0.136530
0.004446 0.027544 0.136530
0.152485 0.944618 0.136530
0.069776 0.432254 0.136530
0.057820 0.358185 0.136530
0.001504 0.009318 0.136530
0.114307 0.708116 0.136530
0.118393 0.733425 0.136530
0.158849 0.984046 0.136530
0.060764 0.565513 0.136530
0.054604 0.508178 0.136530
0.052448 0.488121 0.136530
0.015044 0.140005 0.136530
0.038861 0.361663 0.136530
0.027134 0.252526 0.136530
0.041671 0.387822 0.136530
0.051433 0.478666 0.136530
0.066642 0.620210 0.136530
0.059592 0.554604 0.136530
0.015615 0.551462 0.136530
0.021663 0.765084 0.136530
0.008964 0.316589 0.136530
0.006307 0.222734 0.136530
0.007207 0.254515 0.136530
0.013967 0.493289 0.136530
0.015099 0.533236 0.136530
0.004847 0.171176 0.136530
0.014924 0.527055 0.136530
0.015571 0.549930 0.136530
-0.002232 0.075390 0.136530
-0.028323 0.956742 0.136530
-0.014321 0.483754 0.136530
-0.022387 0.756232 0.136530
-0.007549 0.254998 0.136530
-0.016348 0.552241 0.136530
-0.013891 0.469235 0.136530
-0.002867 0.096838 0.136530
-0.009998 0.337733 0.136530
-0.000009 0.000302 0.136530
-0.014336 0.467195 0.136530
-0.018874 0.615076 0.136530
-0.026516 0.864109 0.136530
-0.017335 0.564912 0.136530
-0.019031 0.620179 0.136530
-0.023822 0.776306 0.136530
-0.007803 0.254294 0.136530
-0.006150 0.200412 0.136530
-0.029170 0.950582 0.136530
-0.009253 0.301540 0.136530
-0.031792 0.427379 0.136530
-0.038490 0.517422 0.136530
-0.004225 0.056793 0.136530
-0.003606 0.048475 0.136530
-0.045408 0.610421 0.136530
-0.008219 0.110484 0.136530
-0.012302 0.165378 0.136530
-0.002294 0.030842 0.136530
-0.015470 0.207960 0.136530
-0.020373 0.273876 0.136530
-0.035122 0.426409 0.136530
-0.053629 0.651109 0.136530
-0.071595 0.869233 0.136530
-0.067216 0.816061 0.136530
-0.038749 0.470454 0.136530
-0.064941 0.788446 0.136530
-0.069010 0.837850 0.136530
-0.073468 0.891971 0.136530
-0.004000 0.048563 0.136530
-0.048459 0.588339 0.136530
-0.043410 0.341520 0.136530
-0.045186 0.355487 0.136530
-0.059135 0.465233 0.136530
-0.006705 0.052752 0.136530
-0.004537 0.035695 0.136530
-0.078553 0.617996 0.136530
-0.071501 0.562518 0.136530
-0.070213 0.552383 0.136530
-0.043289 0.340566 0.136530
-0.069473 0.546561 0.136530
-0.017666 0.087256 0.136530
-0.068694 0.339288 0.136530
-0.027609 0.136365 0.136530
-0.047814 0.236158 0.136530
-0.065685 0.324426 0.136530
-0.100408 0.495931 0.136530
-0.032476 0.160404 0.136530
-0.048921 0.241628 0.136530
-0.001943 0.009598 0.136530
-0.094400 0.466254 0.136530
-0.009868 0.046329 0.136530
-0.000431 0.002023 0.136530
-0.091372 0.428989 0.136530
-0.034297 0.161024 0.136530
-0.039238 0.184221 0.136530
-0.109323 0.513270 0.136530
-0.000791 0.003713 0.136530
-0.099974 0.469377 0.136530
-0.000444 0.002083 0.136530
-0.063492 0.298093 0.136530
-0.132194 0.492748 0.136530
-0.136449 0.508609 0.136530
-0.064647 0.240970 0.136530
-0.090885 0.338771 0.136530
-0.046998 0.175184 0.136530
-0.032274 0.120301 0.136530
-0.007563 0.028191 0.136530
-0.025157 0.093771 0.136530
-0.107916 0.402255 0.136530
-0.137179 0.511329 0.136530
-0.135770 0.471958 0.136530
-0.047427 0.164863 0.136530
-0.084692 0.294405 0.136530
-0.212353 0.738174 0.136530
-0.192088 0.667729 0.136530
-0.241366 0.839031 0.136530
-0.115590 0.401812 0.136530
-0.124201 0.431745 0.136530
-0.023902 0.083088 0.136530
-0.008646 0.030056 0.136530
-0.040972 0.126252 0.136530
-0.024853 0.076583 0.136530
-0.025450 0.078422 0.136530
-0.042265 0.130237 0.136530
-0.079578 0.245215 0.136530
-0.181355 0.558835 0.136530
-0.012436 0.038321 0.136530
-0.077550 0.238967 0.136530
-0.039962 0.123140 0.136530
-0.060937 0.187774 0.136530
-0.144016 0.443449 0.136530
-0.047317 0.145698 0.136530
-0.120424 0.370806 0.136530
-0.125972 0.387891 0.136530
-0.090241 0.277868 0.136530
-0.180580 0.556036 0.136530
-0.204069 0.628364 0.136530
-0.042232 0.130038 0.136530
-0.162719 0.501040 0.136530
-0.120404 0.370744 0.136530
-0.215806 0.527085 0.136530
-0.103528 0.252858 0.136530
-0.247412 0.604280 0.136530
-0.305155 0.745313 0.136530
-0.126812 0.309725 0.136530
-0.132033 0.322478 0.136530
-0.044592 0.108911 0.136530
-0.289495 0.707064 0.136530
-0.024686 0.060294 0.136530
-0.194421 0.474854 0.136530
-0.149831 0.346900 0.136530
-0.281852 0.652567 0.136530
-0.224763 0.520388 0.136530
-0.168052 0.389086 0.136530
-0.112202 0.259778 0.136530
-0.107444 0.248763 0.136530
-0.318179 0.736672 0.136530
-0.061781 0.143041 0.136530
-0.261762 0.606052 0.136530
-0.056446 0.130688 0.136530
-0.109458 0.248216 0.136530
-0.031522 0.071482 0.136530
-0.349135 0.791729 0.136530
-0.206884 0.469148 0.136530
-0.098254 0.222810 0.136530
-0.349142 0.791745 0.136530
-0.239113 0.542234 0.136530
-0.001783 0.004044 0.136530
-0.260597 0.590953 0.136530
-0.294813 0.668544 0.136530
-0.057380 0.128860 0.136530
-0.159752 0.358763 0.136530
-0.193031 0.433498 0.136530
-0.235201 0.528201 0.136530
-0.006545 0.014698 0.136530
-0.292038 0.655843 0.136530
-0.214004 0.480598 0.136530
-0.074788 0.167954 0.136530
-0.277156 0.622421 0.136530
-0.080522 0.180831 0.136530
-0.081553 0.145728 0.136530
-0.195404 0.349168 0.136530
-0.074335 0.132830 0.136530
-0.209952 0.375164 0.136530
-0.066295 0.118463 0.136530
-0.215483 0.385048 0.136530
-0.249747 0.446274 0.136530
-0.139246 0.248820 0.136530
-0.087266 0.155936 0.136530
-0.263050 0.470045 0.136530
-0.040209 0.071528 0.136530
-0.357785 0.636454 0.136530
-0.334155 0.594419 0.136530
-0.210126 0.373789 0.136530
-0.234192 0.416598 0.136530
-0.054162 0.096347 0.136530
-0.061067 0.108631 0.136530
-0.288277 0.512809 0.136530
-0.124567 0.221589 0.136530
-0.170488 0.303278 0.136530
-0.216898 0.313554 0.136530
-0.205961 0.297744 0.136530
-0.102649 0.148392 0.136530
-0.102969 0.148855 0.136530
-0.045357 0.065569 0.136530
-0.182063 0.263196 0.136530
-0.188823 0.272968 0.136530
-0.180262 0.260593 0.136530
-0.094719 0.136928 0.136530
-0.147045 0.212573 0.136530
-0.263335 0.378405 0.136530
-0.166709 0.239557 0.136530
-0.341787 0.491137 0.136530
-0.007620 0.010949 0.136530
-0.273907 0.393597 0.136530
-0.356178 0.511818 0.136530
-0.152607 0.219292 0.136530
-0.143838 0.206692 0.136530
-0.003352 0.004817 0.136530
-0.079414 0.114116 0.136530
-0.319562 0.453804 0.136530
-0.183402 0.260446 0.136530
-0.092744 0.131704 0.136530
-0.137084 0.194670 0.136530
-0.246843 0.350537 0.136530
-0.231016 0.328062 0.136530
-0.195505 0.277634 0.136530
-0.181559 0.257828 0.136530
-0.195771 0.278011 0.136530
-0.083787 0.118984 0.136530
-0.195551 0.204374 0.136530
-0.064482 0.067391 0.136530
-0.074316 0.077669 0.136530
-0.175941 0.183879 0.136530
-0.186530 0.194946 0.136530
-0.160803 0.168059 0.136530
-0.132785 0.138777 0.136530
-0.051098 0.053403 0.136530
-0.171891 0.179647 0.136530
-0.184612 0.192942 0.136530
-0.025737 0.025246 0.136530
-0.030853 0.030265 0.136530
-0.120956 0.118648 0.136530
-0.025279 0.024797 0.136530
-0.125684 0.123286 0.136530
-0.004378 0.004295 0.136530
-0.084729 0.083113 0.136530
-0.063547 0.062335 0.136530
-0.072067 0.070692 0.136530
-0.063451 0.062240 0.136530
-0.078797 0.069639 0.136530
-0.198670 0.175581 0.136530
-0.030220 0.026708 0.136530
-0.048925 0.043239 0.136530
-0.176521 0.156006 0.136530
-0.053014 0.046852 0.136530
-0.093954 0.083035 0.136530
-0.129556 0.114499 0.136530
-0.092319 0.081590 0.136530
-0.138179 0.122120 0.136530
-0.200794 0.174363 0.136530
-0.139570 0.121198 0.136530
-0.145055 0.125961 0.136530
-0.100063 0.086892 0.136530
-0.013225 0.011484 0.136530
-0.011571 0.010048 0.136530
-0.108501 0.094218 0.136530
-0.179257 0.155661 0.136530
-0.018183 0.015790 0.136530
-0.191018 0.165874 0.136530
-0.081686 0.065555 0.136530
-0.037467 0.030068 0.136530
-0.027095 0.021744 0.136530
-0.071743 0.057575 0.136530
-0.247357 0.198509 0.136530
-0.065566 0.052618 0.136530
-0.176169 0.141379 0.136530
-0.074466 0.059761 0.136530
-0.004471 0.003588 0.136530
-0.213183 0.171084 0.136530
-0.145006 0.099200 0.136530
-0.135760 0.092875 0.136530
-0.220050 0.150538 0.136530
-0.049275 0.033709 0.136530
-0.023964 0.016394 0.136530
-0.228645 0.156418 0.136530
-0.028607 0.019570 0.136530
-0.217231 0.148610 0.136530
-0.101252 0.069267 0.136530
-0.054104 0.037013 0.136530
-0.272280 0.180698 0.136530
-0.197116 0.130815 0.136530
-0.228882 0.151897 0.136530
-0.227241 0.150807 0.136530
-0.175255 0.116308 0.136530
-0.225147 0.149418 0.136530
-0.091084 0.060447 0.136530
-0.235732 0.156442 0.136530
-0.089383 0.059319 0.136530
-0.072406 0.048052 0.136530
-0.186504 0.108900 0.136530
-0.232917 0.136001 0.136530
-0.395733 0.231069 0.136530
-0.048508 0.028324 0.136530
-0.409580 0.239155 0.136530
-0.146179 0.085354 0.136530
-0.146928 0.085791 0.136530
-0.002152 0.001257 0.136530
-0.156273 0.091248 0.136530
-0.124226 0.072536 0.136530
-0.105327 0.057990 0.136530
-0.086422 0.047582 0.136530
-0.114172 0.062860 0.136530
-0.059342 0.032672 0.136530
-0.342131 0.188369 0.136530
-0.168007 0.092501 0.136530
-0.126368 0.069575 0.136530
-0.058675 0.032305 0.136530
-0.193687 0.106639 0.136530
-0.068728 0.037840 0.136530
-0.400673 0.163715 0.136530
-0.040685 0.016624 0.136530
-0.217434 0.088843 0.136530
-0.050838 0.020772 0.136530
-0.181857 0.074307 0.136530
-0.144840 0.059181 0.136530
-0.026339 0.010762 0.136530
-0.088941 0.036341 0.136530
-0.064731 0.026449 0.136530
-0.233132 0.095258 0.136530
-0.154117 0.061325 0.136530
-0.253754 0.100971 0.136530
-0.183989 0.073211 0.136530
-0.251090 0.099912 0.136530
-0.102937 0.040960 0.136530
-0.009462 0.003765 0.136530
-0.089634 0.035667 0.136530
-0.067433 0.026832 0.136530
-0.104013 0.041388 0.136530
-0.252037 0.100288 0.136530
-0.176694 0.062331 0.136530
-0.002734 0.000964 0.136530
-0.426637 0.150501 0.136530
-0.259695 0.091610 0.136530
-0.377501 0.133168 0.136530
-0.376706 0.132887 0.136530
-0.112004 0.039511 0.136530
-0.039750 0.014022 0.136530
-0.076812 0.027096 0.136530
-0.173240 0.061112 0.136530
-0.268180 0.090426 0.136530
-0.398644 0.134417 0.136530
-0.320454 0.108052 0.136530
-0.361912 0.122031 0.136530
-0.146548 0.049414 0.136530
-0.133428 0.044990 0.136530
-0.203637 0.068663 0.136530
-0.162256 0.054710 0.136530
-0.183433 0.061851 0.136530
-0.150746 0.050829 0.136530
-0.588510 0.146544 0.136530
-0.252495 0.062873 0.136530
-0.721951 0.179771 0.136530
-0.158323 0.039424 0.136530
-0.725008 0.180532 0.136530
-0.238660 0.059428 0.136530
-0.958078 0.238569 0.136530
-0.606999 0.151147 0.136530
-0.302008 0.075202 0.136530
-0.707654 0.176211 0.136530
-0.630690 0.135895 0.136530
-0.375976 0.081012 0.136530
-0.321122 0.069192 0.136530
-0.434673 0.093659 0.136530
-0.516880 0.111372 0.136530
-0.267147 0.057562 0.136530
-0.098777 0.021283 0.136530
-0.496170 0.106910 0.136530
-0.152441 0.032846 0.136530
-0.647367 0.139488 0.136530
-0.570936 0.110490 0.136530
-0.009916 0.001919 0.136530
-0.054153 0.010480 0.136530
-0.194385 0.037618 0.136530
-0.316101 0.061173 0.136530
-0.495756 0.095941 0.136530
-0.507761 0.098264 0.136530
-0.109765 0.021242 0.136530
-0.179686 0.034774 0.136530
-0.175108 0.033888 0.136530
-0.293277 0.056082 0.136530
-0.228050 0.043609 0.136530
-0.153420 0.029338 0.136530
-0.026992 0.005162 0.136530
-0.037771 0.007223 0.136530
-0.240045 0.045903 0.136530
-0.392597 0.075074 0.136530
-0.066732 0.012761 0.136530
-0.231262 0.044223 0.136530
-0.491335 0.093955 0.136530
-0.312732 0.045732 0.136530
-0.358174 0.052377 0.136530
-0.218409 0.031939 0.136530
-0.415881 0.060816 0.136530
-0.174850 0.025569 0.136530
-0.033740 0.004934 0.136530
-0.445176 0.065100 0.136530
-0.273729 0.040028 0.136530
-0.466549 0.068225 0.136530
-0.619044 0.090525 0.136530
-0.078019 0.002804 0.136530
-0.013574 0.000488 0.136530
-0.656853 0.023607 0.136530
-0.126698 0.004553 0.136530
-0.298525 0.010729 0.136530
-0.749558 0.026939 0.136530
-0.164280 0.005904 0.136530
-0.123250 0.004430 0.136530
-0.635226 0.022830 0.136530
-0.060422 0.002172 0.136530
-0.313979 -0.022639 10.091598
-0.341786 -0.024644 10.091598
-0.720342 -0.051939 10.091598
-0.381615 -0.027516 10.091598
-0.742933 -0.053568 10.091598
-0.416745 -0.030049 10.091598
-0.498091 -0.035914 10.091598
-0.662425 -0.047763 10.091598
-0.718676 -0.051819 10.091598
-0.511016 -0.036846 10.091598
-0.356548 -0.049051 10.091598
-0.554204 -0.076243 10.091598
-0.599842 -0.082522 10.091598
-0.393931 -0.054194 10.091598
-0.139292 -0.019163 10.091598
-0.271607 -0.037366 10.091598
-0.393523 -0.054138 10.091598
-0.742358 -0.102128 10.091598
-0.147519 -0.020295 10.091598
-0.275274 -0.037870 10.091598
-0.761310 -0.143805 10.091598
