-0.826690 0.634907 8.738079
-0.754011 0.579738 9.194551
-0.966728 0.894018 0.740667
-0.867172 0.803091 1.274933
-0.824673 0.765550 2.168749
-0.796635 0.740594 2.715709
-1.039261 0.968576 3.627963
-1.214833 1.134050 4.210576
-0.995653 0.931320 5.008719
-0.665413 0.623690 5.859489
-0.414185 0.388806 6.512734
-0.503495 0.473450 7.159883
-0.679953 0.640551 7.832006
-0.759603 0.717288 8.747771
-0.713084 0.674282 9.311110
-0.711263 0.792074 0.629683
-0.778320 0.868819 1.517332
-0.769051 0.860099 2.225199
-0.739222 0.828434 2.996345
-0.955731 1.072713 3.539143
-1.134395 1.275494 4.166548
-0.920489 1.037159 4.995601
-0.575827 0.649958 5.746693
-0.379846 0.429572 6.542197
-0.473623 0.536502 7.154993
-0.618417 0.701611 7.719738
-0.662690 0.753307 8.470358
-0.690251 0.786617 9.459935
-0.556770 0.756627 0.622178
-0.677108 0.922650 1.586057
-0.629695 0.859017 1.997474
-0.608186 0.831089 2.612881
-0.840438 1.151169 3.424105
-1.007710 1.383426 4.204591
-0.810738 1.114584 4.752179
-0.507421 0.698991 5.557715
-0.349696 0.482923 6.527914
-0.416767 0.576312 7.003419
-0.561616 0.778193 7.714447
-0.651925 0.905589 8.617512
-0.556333 0.774316 9.401517
-0.303739 0.500176 0.294521
-0.378214 0.624558 1.232464
-0.502722 0.831175 1.632730
-0.519677 0.861790 2.634118
-0.613917 1.019376 3.047950
-0.773486 1.287820 3.919546
-0.767533 1.280786 4.668479
-0.482602 0.806876 5.396581
-0.244944 0.410333 6.143355
-0.295261 0.495828 6.968464
-0.462897 0.778867 7.583579
-0.535990 0.903335 8.121963
-0.506122 0.855004 8.956201
-0.307907 0.521303 9.840502
-0.189203 0.391813 0.285890
-0.250322 0.519870 1.139428
-0.422132 0.878395 1.700709
-0.364344 0.760051 2.450294
-0.439312 0.918474 3.092062
-0.629414 1.319195 3.778682
-0.612118 1.287081 4.726315
-0.337285 0.710143 5.210371
-0.163702 0.345531 6.027632
-0.255308 0.540578 6.944088
-0.390559 0.828666 7.510307
-0.469678 0.999439 8.354354
-0.358567 0.977112 0.697978
-0.304635 0.832531 1.402557
-0.288352 0.790020 2.019854
-0.298766 0.821410 2.869231
-0.396204 1.092498 3.557035
-0.519413 1.437203 4.352839
-0.466723 1.294330 4.918801
-0.265588 0.738624 5.700039
-0.111752 0.311474 6.321059
-0.235909 0.660035 7.208818
-0.362112 1.016766 8.023705
-0.330786 0.930136 8.402421
-0.248123 0.699693 9.185888
-0.086513 0.326641 0.533806
-0.102342 0.387573 1.105494
-0.211029 0.802233 1.805377
-0.193651 0.738451 2.387048
-0.209886 0.804072 3.245910
-0.293869 1.131121 4.083988
-0.293519 1.133613 4.711340
-0.154711 0.599073 5.274812
-0.083002 0.322879 6.188288
-0.147037 0.573909 6.782373
-0.245062 0.961822 7.747985
-0.254928 1.004008 8.390934
-0.224224 0.886482 9.152169
-0.097661 0.387030 9.748592
-0.052832 0.331254 0.326222
-0.081289 0.511798 0.816478
-0.123856 0.785087 1.601705
-0.119667 0.761853 2.111990
-0.100868 0.646733 2.946045
-0.127983 0.824986 3.550514
-0.046882 0.310163 6.650709
-0.102268 0.682125 7.527303
-0.140945 0.944748 8.041543
-0.142376 0.961213 8.868822
-0.104422 0.707685 9.380690
-0.053096 0.816860 0.829196
-0.051931 0.807287 1.337211
-0.050326 0.795137 2.120278
-0.052986 0.851438 2.919957
-0.048770 0.796437 3.682347
-0.054718 0.908722 4.449310
-0.044402 0.744762 4.927103
-0.021437 0.364467 5.604955
-0.005391 0.093186 6.413763
-0.024842 0.438556 7.302415
-0.055021 0.985725 7.840694
-0.054008 0.982133 8.495566
-0.041286 0.765164 9.377807
0.026874 0.937895 0.554133
0.026074 0.881035 1.266257
0.023723 0.771987 2.131523
0.023685 0.747518 2.859697
0.024125 0.738855 3.599500
0.024599 0.739347 4.074031
0.022919 0.667362 4.907936
0.015740 0.446598 5.642765
0.010890 0.300612 6.438518
0.022897 0.615199 7.164747
0.037934 0.999452 7.665054
0.037209 0.957570 8.388734
0.028334 0.712596 9.172531
0.103737 0.859623 0.701414
0.109987 0.904453 1.391847
0.086591 0.707652 1.968216
0.087317 0.707686 2.734534
0.089061 0.716498 3.423505
0.093065 0.742923 4.152221
0.084704 0.670505 4.966697
0.060495 0.475466 5.688144
0.049849 0.389108 6.381571
0.083949 0.651028 6.983609
0.123187 0.949052 7.582899
0.112309 0.858230 8.431137
0.087041 0.659981 9.289098
0.113684 0.507504 0.895160
0.168667 0.749785 1.573522
0.169117 0.747824 2.435888
0.158489 0.698113 3.078922
0.167871 0.736405 3.755867
0.161625 0.706399 4.373194
0.122719 0.533477 5.305351
0.073132 0.317002 5.834065
0.133761 0.577393 6.508285
0.237959 1.021304 7.411578
0.293240 1.253669 8.037383
0.241586 1.029906 8.590569
0.144587 0.612836 9.739096
0.072538 0.223013 0.198258
0.152576 0.467891 0.767832
0.228463 0.698714 1.369342
0.232993 0.710151 2.133008
0.223467 0.678343 3.059358
0.223041 0.674826 3.809998
0.224387 0.676905 4.483845
0.162208 0.487774 5.249980
0.109028 0.326913 5.952690
0.110210 0.329426 6.695616
0.203950 0.607954 7.292216
0.334509 0.993357 8.112272
0.311102 0.922196 8.559648
0.223520 0.660722 9.312201
0.092343 0.216132 0.277559
0.203224 0.474859 0.737793
0.302802 0.705427 1.553988
0.287906 0.669080 2.232282
0.273816 0.634400 3.081060
0.293811 0.679425 3.609275
0.293857 0.677901 4.282204
0.165759 0.381353 5.093161
0.094040 0.215880 5.746876
0.232148 0.531038 6.713655
0.366137 0.835453 7.369018
0.408398 0.930254 7.854717
0.392016 0.890817 8.559648
0.253877 0.575361 9.445218
-0.054442 -0.099460 0.440358
0.325758 0.592697 1.744399
0.346496 0.628374 2.793224
0.348243 0.630352 3.403945
0.365506 0.659971 4.201080
0.277281 0.499574 4.941118
0.189446 0.340671 5.601132
0.198740 0.356605 6.327908
0.349089 0.624732 7.154993
0.469375 0.838752 7.602330
0.486375 0.866980 8.431540
0.365811 0.650910 9.101518
-0.120069 -0.178200 0.291031
0.363121 0.536800 1.677015
0.377337 0.556485 2.521027
0.383087 0.563792 3.259472
0.386551 0.567630 4.050311
0.370427 0.542779 4.829568
0.252203 0.369089 5.310061
0.204872 0.299217 6.061373
0.373728 0.544748 6.739097
0.580710 0.844158 7.659789
0.572277 0.830523 8.274558
0.527699 0.764162 9.107067
0.227021 0.328316 9.748592
0.167185 0.199700 0.326897
0.332762 0.396970 0.806643
0.473668 0.564149 1.408446
0.469375 0.557794 2.242060
0.441668 0.523798 3.012536
0.460927 0.545781 3.601998
0.480779 0.567892 4.529618
0.332925 0.392713 5.079217
0.229489 0.270067 6.011979
0.240608 0.282760 6.548322
0.416059 0.487954 7.292216
0.633486 0.741441 8.016618
0.650939 0.760181 8.882190
0.384592 0.448561 9.497190
0.664702 0.661397 0.515250
0.625427 0.621083 1.266257
0.532619 0.527667 2.172098
0.464307 0.459090 2.926448
0.466746 0.460789 3.518824
0.557513 0.549363 4.227460
0.489675 0.481510 5.045025
0.327738 0.321743 5.721591
0.233915 0.229145 6.586884
0.464240 0.453848 7.331419
0.720070 0.703171 7.694163
0.743672 0.724518 8.615833
0.550187 0.535215 9.283596
0.343992 0.281703 0.877310
0.577770 0.472179 1.633261
0.561386 0.457668 2.546864
0.620465 0.504968 3.179866
0.663851 0.539112 3.981976
0.690925 0.560050 4.679475
0.512638 0.414802 5.378974
0.224618 0.181520 5.921206
0.440477 0.355006 6.909539
0.653374 0.525870 7.384191
0.813878 0.653585 8.205090
0.733680 0.588405 8.742514
0.481148 0.384940 9.784873
0.465958 0.312625 0.392964
0.688710 0.461021 1.190027
0.646954 0.432345 1.778605
0.502420 0.334970 2.614595
0.785330 0.522422 3.372965
0.975543 0.647561 4.103304
0.741900 0.489652 6.173627
0.633323 0.417230 6.852320
0.789322 0.518981 7.524595
0.884601 0.580224 8.375503
0.630406 0.342651 0.782609
0.745816 0.404236 1.677437
0.737336 0.398755 2.382061
1.028802 0.555611 2.796917
1.270900 0.684539 3.606231
1.103640 0.593055 4.367455
0.810083 0.434394 5.081803
0.486904 0.260537 5.827803
0.142866 0.076302 6.514395
0.468384 0.249356 7.499107
0.935485 0.497023 8.048592
0.895761 0.475105 8.621723
0.653621 0.345963 9.374364
0.480963 0.201828 0.954168
0.847934 0.354973 1.586391
0.595905 0.248997 2.109548
1.418815 0.589027 3.770660
1.157494 0.479525 4.367455
0.821522 0.339546 5.046395
0.489209 0.201651 5.841627
0.226410 0.093012 6.827369
0.553288 0.226730 7.454396
1.036020 0.423238 8.197890
0.938846 0.382990 8.621723
0.690182 0.280555 9.686868
0.941798 0.297115 0.504820
1.029896 0.323843 1.210758
0.969797 0.303806 2.019681
1.305738 0.407568 2.771568
1.611778 0.501817 3.283270
0.707033 0.216618 6.886344
0.945302 0.288445 7.728572
1.006440 0.306066 8.458778
0.795973 0.241390 9.131814
0.890813 0.192740 0.418331
1.001134 0.215745 1.037921
1.105494 0.237028 1.819254
1.380190 0.294902 2.334237
1.659375 0.352722 3.100203
1.466618 0.310169 3.890844
0.886108 0.184800 6.120722
0.498852 0.103668 6.747079
0.797343 0.164959 7.389248
1.020639 0.209853 8.307670
0.897279 0.183887 8.851727
0.459467 0.093718 9.719233
0.928078 0.112481 0.252771
1.014629 0.122002 0.960339
1.165159 0.138975 1.671855
1.092148 0.128997 2.539651
1.388111 0.162811 3.126757
1.596266 0.185391 3.956139
1.136131 0.130912 4.695307
0.974496 0.111499 5.330848
0.734719 0.083278 6.189416
0.453415 0.050949 7.002067
0.683451 0.076308 7.517514
1.040193 0.114957 8.327054
1.079940 0.118252 9.118357
0.745733 0.081102 9.800929
1.169957 0.019633 0.888688
1.188061 0.019064 1.439044
1.091573 0.016672 2.025108
1.479013 0.020797 2.907346
1.929722 0.024996 3.690073
1.774545 0.022048 4.100701
0.741213 0.006296 7.282108
1.072511 0.007894 8.106708
1.089172 0.007315 8.613735
1.012069 0.006041 9.230570
1.236951 -0.090140 0.665136
1.395487 -0.102397 1.036576
1.247673 -0.092699 1.726134
0.935396 -0.070285 2.375412
1.843538 -0.142418 3.871212
0.593996 -0.048129 6.934274
0.795228 -0.065104 7.555581
1.125639 -0.093556 8.460748
1.203234 -0.100989 9.087257
1.069343 -0.181011 0.203302
1.103787 -0.187851 0.870600
1.288563 -0.221041 1.848768
1.174084 -0.202307 2.416703
2.051171 -0.357303 3.702418
1.695254 -0.297037 4.483435
1.441394 -0.254184 5.346725
0.982781 -0.173767 5.765658
0.485439 -0.086347 6.658519
0.626836 -0.112123 7.395245
1.064517 -0.191743 8.257568
1.154553 -0.208729 8.746868
1.024605 -0.186108 9.440551
1.170600 -0.310087 0.376227
1.311487 -0.349108 1.278242
1.276830 -0.340517 1.626316
1.234880 -0.331017 2.584930
1.670551 -0.449347 3.193052
2.027007 -0.547300 3.862330
1.853839 -0.502621 4.659700
1.534759 -0.417151 5.181048
1.058607 -0.288919 6.057876
0.562537 -0.153981 6.733291
0.696603 -0.191490 7.561295
1.122367 -0.309944 8.391198
1.211695 -0.450080 0.779690
1.454729 -0.541144 1.127697
1.325225 -0.494681 1.977822
1.001622 -0.375107 2.804790
2.063054 -0.777102 4.116614
1.819018 -0.686572 4.646923
1.587806 -0.601010 5.388984
1.153530 -0.437751 6.113978
0.733484 -0.279204 6.989049
0.825597 -0.315022 7.598513
1.144603 -0.437894 8.213944
1.279058 -0.491072 9.117176
1.344000 -0.652117 0.832689
1.342453 -0.652948 1.541701
1.771467 -0.867861 3.618714
2.027614 -0.995262 4.148115
1.887817 -0.929481 5.066547
0.996672 -0.495083 7.944985
1.355987 -0.675551 8.774170
1.221957 -0.609898 9.395543
1.351336 -0.818669 1.212809
1.222672 -0.742036 1.803880
1.120839 -0.682054 2.698546
2.058900 -1.258926 4.176716
2.021096 -1.238173 4.808431
1.775363 -1.089520 5.425842
1.395676 -0.858417 6.250298
0.843433 -0.519507 6.868300
0.851701 -0.525978 7.786805
1.174146 -0.726174 8.218407
1.255727 -0.778913 9.232477
1.351862 -1.017633 0.751824
1.251219 -0.943919 1.528860
1.277351 -0.965365 2.168372
0.986572 -0.746667 2.704267
1.891583 -1.438402 4.285417
1.838648 -1.401330 5.102904
1.036725 -0.795520 7.780404
1.291141 -0.993389 8.715236
1.171407 -0.902638 9.334605
0.969846 -0.881767 0.355925
1.234659 -1.124102 0.866624
1.219944 -1.113294 1.725668
1.219296 -1.114057 2.174805
0.992045 -0.908628 3.102355
1.765020 -1.623017 4.453280
1.708434 -1.574033 5.177662
1.527225 -1.409519 5.861374
1.147627 -1.060411 6.392102
1.077648 -0.997528 7.094482
1.198633 -1.111527 7.758069
1.204036 -1.119166 8.671080
1.102104 -1.026565 9.532490
1.254123 -1.395254 1.088846
1.133761 -1.263212 1.637582
1.128551 -1.260018 2.401672
1.141861 -1.276962 3.002906
1.364583 -1.528769 3.629751
1.574790 -1.767246 4.210777
1.521703 -1.711086 4.953316
1.401898 -1.580345 5.913598
1.213119 -1.369845 6.598288
1.110428 -1.255484 7.112003
1.109263 -1.256513 7.828828
1.098012 -1.246356 8.636490
0.974989 -1.108525 9.325031
1.219112 -1.613258 0.952195
1.097299 -1.454828 1.631721
1.049694 -1.393354 2.054591
1.152030 -1.533548 3.051928
1.175734 -1.567035 3.486545
1.246988 -1.666069 4.341527
1.334039 -1.786067 5.057744
1.173712 -1.574418 5.783730
1.114087 -1.497415 6.522699
1.122060 -1.510608 7.119400
1.114531 -1.504112 8.013881
1.030155 -1.391554 8.397533
0.918658 -1.243755 9.296223
0.789396 -1.290649 0.526068
0.965017 -1.580668 1.118045
0.972406 -1.594804 1.534709
0.952351 -1.565358 2.258710
1.004065 -1.655400 3.250403
1.018315 -1.681677 3.791289
1.033968 -1.710113 4.284876
1.026796 -1.701716 4.958465
1.005623 -1.670320 5.698742
1.011866 -1.684078 6.367492
1.013106 -1.691468 7.426161
1.000131 -1.673228 8.125471
0.912416 -1.528402 8.596990
0.774482 -1.299971 9.366442
0.834781 -1.717453 1.874104
0.835061 -1.722995 2.709506
0.843484 -1.743694 3.259852
0.890717 -1.848075 4.306982
0.861068 -1.789330 4.766286
0.847496 -1.765140 5.435819
0.922478 -1.927419 6.335835
0.916416 -1.918686 6.942017
0.855535 -1.794431 7.501655
0.834537 -1.754461 8.206776
0.817699 -1.724674 9.200055
0.579695 -1.529108 0.304992
0.671218 -1.775562 0.993475
0.686942 -1.821909 1.625860
0.694841 -1.849715 2.524378
0.695025 -1.852961 2.884952
0.714282 -1.911414 3.783124
0.723528 -1.939966 4.256831
0.695495 -1.870544 5.015067
0.740234 -1.998037 5.871792
0.762753 -2.063392 6.401820
0.726475 -1.971419 7.192089
0.698413 -1.899644 7.780512
0.678907 -1.852926 8.649442
0.598399 -1.637376 9.355901
0.448914 -1.677335 0.408657
0.515383 -1.932569 1.056633
0.506335 -1.904162 1.586931
0.509945 -1.926430 2.409373
0.509987 -1.934244 3.130241
0.518639 -1.971386 3.526138
0.523467 -1.997266 4.209767
0.506800 -1.943064 5.099944
0.525295 -2.019727 5.608545
0.557169 -2.151726 6.387874
0.529295 -2.052469 7.158791
0.517519 -2.013672 7.797762
0.532505 -2.082663 8.735206
0.482690 -1.893729 9.370155
0.307732 -1.809486 0.322200
0.329145 -1.946924 1.038520
0.323337 -1.922821 1.682532
0.327468 -1.957252 2.286725
0.329285 -1.978295 2.901735
0.336671 -2.037742 3.780402
0.342809 -2.089792 4.623655
0.351554 -2.154748 5.256372
0.357775 -2.201445 5.710312
0.370751 -2.294730 6.388283
0.352952 -2.196424 7.049060
0.338323 -2.123904 8.107964
0.331976 -2.092742 8.613074
0.312671 -1.984760 9.476822
0.149128 -1.957632 0.547642
0.159852 -2.130306 1.372271
0.149217 -2.011844 2.010123
0.147023 -2.006809 2.673432
0.146728 -2.019923 3.127987
0.145495 -2.037089 4.021432
0.142466 -2.019947 4.684078
0.155727 -2.235882 5.305019
0.166796 -2.430047 6.021251
0.158143 -2.328131 6.570420
0.151696 -2.269995 7.410015
0.142889 -2.165894 8.083465
0.135891 -2.089323 8.819504
0.117249 -1.823745 9.475700
-0.051804 -2.011146 0.443145
-0.056690 -2.106936 1.279251
-0.055040 -1.984735 1.888927
-0.057512 -2.004905 2.588572
-0.060869 -2.046468 3.363523
-0.064084 -2.080587 4.140884
-0.063209 -2.012580 4.599243
-0.069306 -2.139899 5.310893
-0.080116 -2.376189 6.262629
-0.079000 -2.312985 6.603169
-0.081686 -2.306270 7.559645
-0.080082 -2.213421 8.162128
-0.081193 -2.181869 8.966695
-0.072376 -1.899499 9.740815
-0.251037 -2.077068 0.752614
-0.234558 -1.925312 1.455817
-0.244267 -1.988352 2.190780
-0.251024 -2.024597 3.012705
-0.249814 -2.007004 3.365946
-0.261498 -2.080098 4.263176
-0.247775 -1.958493 4.864100
-0.251851 -1.977207 5.497984
-0.295261 -2.293248 6.458301
-0.309998 -2.391406 7.088460
-0.304015 -2.329705 7.746480
-0.295558 -2.248414 8.486446
-0.280192 -2.119473 9.088983
-0.410784 -1.921688 0.651494
-0.442472 -2.061089 1.288653
-0.414705 -1.922691 2.003585
-0.428810 -1.977453 2.814829
-0.437620 -2.009577 3.457695
-0.437381 -2.000539 4.068527
-0.406814 -1.851696 4.846160
-0.428684 -1.941450 5.624593
-0.508593 -2.291564 6.374364
-0.525157 -2.357003 6.980914
-0.503524 -2.252114 7.559645
-0.505964 -2.250905 8.437058
-0.598543 -1.886336 1.766257
-0.621314 -1.951471 2.481250
-0.634432 -1.985677 3.226985
-0.635600 -1.982809 3.930982
-0.595242 -1.850918 4.646923
-0.655489 -2.032147 5.273318
-0.726428 -2.246916 5.736485
-0.724400 -2.232778 6.509699
-0.729703 -2.240954 7.314250
-0.704571 -2.155749 8.169292
-0.688046 -2.100697 8.669902
-0.659013 -2.004544 9.560453
-0.715967 -1.673691 0.891343
-0.793197 -1.850468 1.424386
-0.797987 -1.857081 2.076105
-0.822407 -1.908215 2.867234
-0.831472 -1.923995 3.596310
-0.826977 -1.908390 4.332118
-0.838808 -1.931597 4.903124
-0.860082 -1.975777 5.558957
-0.927695 -2.123691 6.486337
-0.932064 -2.129428 7.038306
-0.914058 -2.083829 7.645282
-0.926841 -2.106402 8.517846
-0.892560 -2.022692 9.361114
-0.985902 -1.813364 1.950739
-0.973490 -1.788447 2.311693
-0.990232 -1.814913 3.038773
-0.996339 -1.822475 3.655370
-0.959987 -1.750403 4.659140
-1.037053 -1.886424 5.386023
-1.144176 -2.078299 5.801804
-1.139337 -2.064534 6.565710
-1.138783 -2.058823 7.295580
-1.081300 -1.951394 7.901422
-1.092239 -1.965577 8.819802
-1.004817 -1.805349 9.400529
-1.119658 -1.669827 1.887565
-1.130457 -1.682696 2.539588
-1.158601 -1.720323 3.379923
-1.160660 -1.719839 4.084425
-1.086054 -1.606074 4.792007
-1.141042 -1.684957 5.279028
-1.335086 -1.966419 6.118250
-1.300161 -1.912432 6.593823
-1.303450 -1.911860 7.587685
-1.257594 -1.841947 8.118882
-1.216336 -1.777973 8.854071
-1.062841 -1.550086 9.757039
-1.301302 -1.571259 1.970991
-1.307396 -1.576383 2.481250
-1.329702 -1.599038 3.436385
-1.325402 -1.592115 3.836878
-1.258194 -1.507506 4.788581
-1.333857 -1.596113 5.243249
-1.546588 -1.845830 6.151132
-1.516239 -1.806959 6.701137
-1.462662 -1.739920 7.400659
-1.409543 -1.673927 8.049612
-1.390841 -1.648222 8.863460
-1.210321 -1.432011 9.554341
-1.435748 -1.430931 1.726014
-1.456115 -1.447942 2.556590
-1.448114 -1.438169 3.022125
-1.476463 -1.463718 3.674190
-1.449148 -1.433828 4.404300
-1.583768 -1.563555 5.201975
-1.687409 -1.663170 5.783143
-1.707766 -1.679421 6.626277
-1.602361 -1.573695 7.152099
-1.529892 -1.499428 7.961413
-1.554297 -1.520679 8.629106
-1.504367 -1.468494 9.532246
-1.506688 -1.258070 0.519318
-1.594763 -1.329485 1.091985
-1.592648 -1.324108 2.073107
-1.582134 -1.313472 2.594255
-1.589368 -1.316989 3.276385
-1.612140 -1.333127 4.015650
-1.595895 -1.317445 4.639716
-1.754032 -1.444459 5.501607
-1.861039 -1.530931 5.872194
-1.816170 -1.490884 6.654464
-1.731507 -1.418773 7.359106
-1.725151 -1.410335 8.218353
-1.678375 -1.369679 8.901009
-1.449453 -1.181152 9.535409
-1.669820 -1.134400 0.820235
-1.751383 -1.187470 1.486070
-1.669160 -1.130089 1.981842
-1.707447 -1.152709 2.954047
-1.724263 -1.161606 3.674190
-1.727098 -1.161930 4.140884
-1.676499 -1.125098 5.002054
-1.803601 -1.207500 5.807091
-1.963674 -1.313130 6.178655
-1.943442 -1.296196 7.094354
-1.842880 -1.226657 7.826457
-1.816611 -1.207078 8.448171
-1.738702 -1.153632 8.991917
-1.633119 -0.891784 0.350376
-1.777523 -0.968498 1.027595
-1.787095 -0.971087 1.857936
-1.801533 -0.976889 2.500086
-1.790431 -0.969406 2.965600
-1.831375 -0.988495 3.921573
-1.823953 -0.982760 4.467028
-1.806731 -0.970629 5.382644
-1.932592 -1.036320 5.938436
-2.030229 -1.086050 6.673353
-1.938830 -1.034813 7.407095
-1.892475 -1.008318 7.970805
-1.794112 -0.954189 8.574734
-1.582546 -0.839838 9.342934
-1.851044 -0.805482 0.820235
-1.894821 -0.822499 1.478810
-1.844113 -0.798089 2.285076
-1.820560 -0.786002 2.932135
-1.798298 -0.774825 3.477102
-1.936060 -0.831432 4.347808
-2.005090 -0.859272 4.901947
-1.852568 -0.792299 5.475206
-1.860834 -0.793509 6.269118
-1.938150 -0.823941 7.092987
-1.852770 -0.786208 7.614830
-1.909835 -0.807694 8.534460
-1.728575 -0.729751 9.077067
-1.779060 -0.577297 0.890061
-1.942323 -0.628478 1.498720
-1.835349 -0.591957 2.195522
-1.796110 -0.578024 2.673607
-1.563180 -0.501019 3.576285
-1.766717 -0.564724 4.139285
-2.183855 -0.695766 4.790815
-2.071452 -0.657310 5.671596
-1.920515 -0.607944 6.221987
-1.920732 -0.605454 7.141423
-1.869202 -0.587384 7.834759
-1.863017 -0.583515 8.564469
-1.836359 -0.573400 9.256780
-1.914786 -0.415485 0.160522
-1.947243 -0.420872 0.754795
-1.858416 -0.399168 1.703875
-1.796041 -0.384197 2.325045
-2.109012 -0.445067 4.332164
-2.246239 -0.471880 4.990722
-2.074786 -0.433573 5.806012
-1.816930 -0.378491 6.328766
-1.763036 -0.365440 7.096534
-1.834730 -0.378526 7.794527
-1.816661 -0.372626 8.689220
-1.628513 -0.332525 9.438989
-1.878917 -0.224068 0.756977
-1.946345 -0.230532 1.341468
-1.767245 -0.207218 2.214498
-2.108692 -0.241224 4.269507
-2.286527 -0.260224 4.675192
-2.165802 -0.243489 5.709129
-1.672227 -0.187061 6.212943
-1.541688 -0.170909 6.998265
-1.809468 -0.198589 7.786522
-1.740791 -0.189758 8.372680
-1.596838 -0.172380 9.229304
-1.858666 -0.051940 0.170455
-1.895678 -0.051018 0.927259
-1.755197 -0.045155 1.806221
-1.720585 -0.042734 2.466512
-1.701082 -0.040671 3.157284
-2.051630 -0.047570 3.658003
-2.320348 -0.051857 4.244917
-2.254024 -0.047411 5.226320
-2.053683 -0.037875 7.211715
-1.692358 -0.029379 8.125492
-1.629478 -0.027300 8.613897
-1.382018 -0.021961 9.360302
-1.858623 0.133781 1.430561
-1.681517 0.122100 1.905282
-2.161752 0.159520 2.736958
-2.169068 0.164051 4.082054
-2.261142 0.173799 4.975607
-2.163620 0.168238 5.652827
-1.657537 0.130305 6.383671
-1.004409 0.079546 6.955638
-1.237323 0.099645 7.946581
-1.632211 0.132886 8.541220
-1.497924 0.122827 9.031754
-1.590416 0.252847 0.314748
-1.675171 0.267760 0.932604
-1.552575 0.249683 1.643443
-1.931112 0.316765 3.935689
-2.225147 0.366910 4.519469
-2.019029 0.334232 5.017311
-1.529251 0.254490 5.735025
-0.919222 0.153849 6.557431
-0.788743 0.132899 7.443106
-1.219078 0.206685 8.150460
-1.488471 0.254055 8.958582
-1.232146 0.210975 9.447036
-1.601459 0.419921 1.229263
-1.409228 0.370738 1.840917
-1.946070 0.514438 2.682860
-2.001718 0.533759 4.266243
-1.826865 0.488017 4.625189
-1.583622 0.424569 5.339446
-1.204343 0.324216 6.191086
-0.866975 0.234186 6.916444
-0.990911 0.268718 7.669486
-1.204247 0.327704 8.310338
-1.288725 0.352084 9.084998
-1.419548 0.519481 0.430424
-1.428707 0.523960 0.946842
-1.385512 0.509760 1.724729
-1.743366 0.647474 3.965922
-1.761571 0.655785 4.540026
-1.274937 0.475691 5.165978
-0.960867 0.359313 5.781054
-0.774429 0.290574 6.677579
-0.704979 0.265179 7.340746
-1.076070 0.406269 8.221252
-1.199293 0.453799 8.771031
-1.093848 0.414899 9.437438
-1.454513 0.693491 0.410123
-1.437330 0.686186 0.782606
-1.235775 0.591606 1.595204
-1.207205 0.579478 2.377651
-1.011019 0.486525 3.131758
-1.613308 0.779485 4.243058
-1.199812 0.581360 5.150380
-0.931363 0.452249 5.839228
-0.650408 0.316622 6.666601
-0.656723 0.320408 7.355541
-0.957473 0.468501 8.189780
-1.077986 0.528295 8.648060
-1.077821 0.529731 9.553280
-1.095458 0.670653 0.182904
-1.104906 0.677965 0.933670
-1.083883 0.666489 1.647880
-1.389139 0.859629 3.740901
-1.630970 1.012131 4.650247
-1.310017 0.814149 5.197927
-0.745241 0.463832 5.805125
-0.476714 0.297573 6.889893
-0.609077 0.380796 7.419260
-0.847147 0.530610 8.011127
-0.937918 0.588963 8.896675
-0.834478 0.525149 9.715560
-0.971897 0.721312 0.308701
-1.042575 0.775352 1.039521
-0.972648 0.725199 1.960114
-1.062605 0.793592 2.552434
-1.023541 0.765774 3.195595
-1.158010 0.868056 3.877191
-1.415751 1.063714 4.670191
-1.102130 0.829366 5.290819
-0.702181 0.529676 6.265538
-0.517661 0.391147 6.944414
-0.639458 0.483864 7.452864
-0.864025 0.655489 8.379447
-0.861719 0.778330 0.396079
-0.869817 0.786907 0.994918
-0.887633 0.804461 1.661026
-1.110827 1.012937 3.929113
-0.346438 0.318049 6.672904
-0.516590 0.475266 7.463470
-0.752805 0.693857 8.117836
-0.729946 0.674024 8.853075
-0.592857 0.548302 9.534001
-0.637947 0.690036 0.641619
-0.867246 0.939417 1.175058
-0.731402 0.793560 1.792770
-0.842663 0.915933 2.461486
-1.046546 1.140460 3.392880
-1.076491 1.174488 3.832114
-1.067088 1.166521 4.569395
-0.848641 0.929472 5.328664
-0.399341 0.438103 6.073319
-0.303148 0.333314 6.972508
-0.575050 0.633584 7.706384
-0.712997 0.786814 8.282607
-0.673701 0.745146 9.201465
-0.473841 0.625615 0.244071
-0.483762 0.640306 1.151828
-0.632293 0.838202 1.706822
-0.829220 1.105529 3.738709
-0.935005 1.248941 4.407071
-0.700111 0.936739 5.065853
-0.375016 0.502887 5.976766
-0.240788 0.323612 6.858881
-0.408958 0.550472 7.385170
-0.622920 0.840235 8.102581
-0.618329 0.836090 9.037366
-0.459843 0.622896 9.794334
-0.350622 0.569857 0.852261
-0.508395 0.828241 1.642441
-0.707710 1.160349 3.760562
-0.210644 0.348381 6.878614
-0.357412 0.592324 7.537091
-0.522571 0.867524 8.069341
-0.506902 0.843282 8.814247
-0.387247 0.645749 9.716186
-0.182824 0.369153 0.463652
-0.234149 0.473924 1.190174
-0.403633 0.819115 1.966986
-0.370671 0.753301 2.401557
-0.467054 0.952022 3.283696
-0.647266 1.322157 3.874449
-0.577109 1.181083 4.457520
-0.338003 0.693462 5.282346
-0.180152 0.370468 6.053121
-0.259373 0.534710 6.792188
-0.423882 0.876528 7.660607
-0.447074 0.925945 8.137230
-0.405866 0.842677 8.929522
-0.191533 0.398496 9.715874
-0.337436 0.881886 0.855456
-0.326829 0.856447 1.528032
-0.313780 0.824739 2.291119
-0.309921 0.816431 2.859493
-0.420200 1.110133 3.554537
-0.528907 1.400541 4.094603
-0.441758 1.174485 5.132321
-0.213500 0.568668 5.698125
-0.074185 0.198270 6.648908
-0.194066 0.520244 7.371061
-0.356250 0.957696 7.995939
-0.354010 0.953628 8.528565
-0.278768 0.753350 9.420272
-0.188194 0.694740 0.880417
-0.230759 0.854009 1.353881
-0.219887 0.816991 2.107575
-0.167659 0.625344 2.857852
-0.227574 0.851846 3.516365
-0.038531 0.146368 6.454791
-0.123269 0.470398 7.282669
-0.263611 1.010195 7.980763
-0.264403 1.017952 8.879771
-0.198599 0.766679 9.475450
-0.116437 0.682442 0.773366
-0.143929 0.847520 1.354828
-0.137368 0.814288 2.187064
-0.111512 0.664624 2.875456
-0.136809 0.819664 3.511516
-0.131023 0.798939 5.696108
-0.021539 0.132061 6.498917
-0.074360 0.458608 7.174351
-0.169571 1.054577 8.087339
-0.162269 1.014754 8.782839
-0.130020 0.818154 9.612031
-0.074995 0.934980 0.534692
-0.073428 0.925165 1.167253
-0.057678 0.736716 1.986397
-0.060490 0.781811 2.680021
-0.049250 0.644538 3.420832
-0.057011 0.756884 4.240162
-0.064599 0.864762 4.702206
-0.041530 0.564264 5.594015
-0.025787 0.354607 6.316765
-0.045509 0.634063 7.007987
-0.071352 1.008134 7.713566
-0.073064 1.043972 8.327054
-0.060307 0.873167 9.099966
0.007153 0.585477 0.333789
0.010092 0.754401 1.212064
0.010689 0.740530 2.015722
0.011215 0.745039 2.486455
0.012586 0.772617 3.428519
0.012642 0.747066 3.914878
0.012869 0.724125 4.571872
0.009781 0.518397 5.450368
0.006403 0.324910 6.138854
0.012379 0.595814 6.934274
0.021801 0.994426 7.757691
0.022309 0.982373 8.383004
0.017933 0.763251 9.066062
0.080859 0.710926 0.684796
0.100594 0.877796 1.324674
0.084414 0.731440 1.937519
0.087037 0.748408 2.603723
0.087192 0.742733 3.430902
0.092069 0.777267 4.227460
0.087249 0.732941 4.679423
0.065648 0.546742 5.495770
0.041539 0.343781 6.114917
0.078216 0.640526 7.056998
0.123166 0.999848 7.815913
0.116294 0.937095 8.546054
0.085476 0.685445 9.084464
0.162126 0.773503 0.673603
0.161414 0.766805 1.328382
0.139749 0.660254 2.176636
0.143698 0.675005 3.071272
0.154214 0.721983 3.589725
0.153134 0.713190 4.412308
0.114913 0.532908 5.115046
0.080328 0.370873 5.855744
0.013475 0.062034 6.388215
0.091138 0.416914 7.366537
0.228265 1.038937 8.067967
0.227705 1.031884 8.796222
0.160003 0.723351 9.280095
0.025702 0.081312 0.308565
0.113375 0.357425 1.076635
0.201111 0.632860 1.470166
0.190399 0.597149 2.209080
0.184257 0.575964 2.950131
0.217326 0.676688 3.809998
0.232111 0.720077 4.627339
0.143434 0.444132 5.096039
0.197594 0.609203 6.055197
0.309570 0.951137 6.785947
0.327469 1.002704 7.562082
0.326021 0.996400 8.000146
0.291871 0.888619 8.929522
0.179412 0.544645 9.722711
0.042219 0.101785 0.298407
0.151871 0.365303 0.917999
0.261087 0.625978 1.783567
0.243543 0.582836 2.287521
0.238521 0.569127 3.097283
0.275333 0.655232 3.809998
0.285503 0.677821 4.461193
0.214167 0.506925 5.325005
0.187572 0.442909 6.011208
0.310602 0.731289 6.774619
0.403631 0.947908 7.445772
0.380120 0.890688 8.099829
0.309712 0.724183 8.748964
0.228190 0.531857 9.742350
-0.101593 -0.189678 0.250889
0.347058 0.644670 1.859307
0.305401 0.566225 2.463973
0.317177 0.586393 3.369491
0.371487 0.685007 4.198169
0.302539 0.556790 4.842702
0.188082 0.345530 5.459177
0.214624 0.393493 6.117987
0.353997 0.647174 7.008405
0.494084 0.900988 7.791157
0.493756 0.898605 8.454871
0.391482 0.711321 9.053794
0.480665 0.723178 0.818297
0.437733 0.657335 1.484577
0.370006 0.554763 2.039523
0.358502 0.536316 2.828450
0.401519 0.599232 3.670465
0.392714 0.585209 4.206903
0.228204 0.339306 5.043840
0.146736 0.217666 5.915326
0.034539 0.051175 6.378255
0.214712 0.317414 7.149478
0.597174 0.880272 8.067967
0.579479 0.853004 8.586750
0.460783 0.676761 9.478805
0.092898 0.114953 1.003833
0.412091 0.508797 1.814202
0.417664 0.514891 2.383901
0.455838 0.560784 3.157167
0.449433 0.551931 3.819781
0.418872 0.513237 4.679335
0.314471 0.384537 5.473787
0.235047 0.286956 6.110757
0.471591 0.574454 6.905893
0.662152 0.805205 7.503937
0.669458 0.812531 8.243853
0.024561 0.025209 0.299021
0.196174 0.200849 1.257824
0.475656 0.486249 1.822733
0.489034 0.498986 2.538849
0.503341 0.512447 3.384384
0.483102 0.491259 3.842006
0.563874 0.571963 4.790068
0.443277 0.448814 5.523684
0.187962 0.190133 5.945040
0.397084 0.400781 6.767358
0.682748 0.687864 7.397757
0.766614 0.770371 8.389128
0.629403 0.631656 8.961139
0.314244 0.314720 9.916241
0.456748 0.381794 0.903113
0.585589 0.488787 1.436771
0.579805 0.482907 2.250271
0.561434 0.466737 2.949693
0.559804 0.464420 3.729140
0.686836 0.568613 4.501076
0.489001 0.404300 5.032377
0.263333 0.217235 5.932924
0.158561 0.130537 6.752635
0.395856 0.325190 7.533712
0.803646 0.659074 8.073504
0.787754 0.644938 8.744047
0.565146 0.461850 9.533760
0.648819 0.446435 0.507656
0.774425 0.531406 1.468641
0.635292 0.435176 2.092457
0.459634 0.314363 2.657520
0.682498 0.465706 3.462762
0.976268 0.664724 4.190208
0.783421 0.530247 6.354107
0.667858 0.451140 7.096407
0.875229 0.589807 7.917162
0.851757 0.573320 8.352152
0.730238 0.490296 9.316939
0.710333 0.396708 0.575586
0.856623 0.477410 1.243295
0.682128 0.379481 1.827426
0.699916 0.388492 2.561067
1.067142 0.590759 3.375989
0.587266 0.321662 6.920084
0.803820 0.439427 7.510307
0.897435 0.489359 8.332757
0.794027 0.346768 0.730635
0.838556 0.365224 1.479397
0.746870 0.324696 1.992002
1.051357 0.455669 2.818215
1.467563 0.634036 3.648168
1.418195 0.611775 4.069697
0.607712 0.259417 7.135387
0.926897 0.394625 7.815913
1.016307 0.431516 8.569142
0.845346 0.357873 9.462914
0.651826 0.217988 0.489495
0.757063 0.252608 1.005450
0.955863 0.317737 1.854766
1.188592 0.393823 2.567485
1.546395 0.510894 3.183110
1.482314 0.487965 3.990413
1.033434 0.339283 4.653478
0.682024 0.223368 5.260301
0.523006 0.170669 6.120949
0.408715 0.132960 6.864085
0.702655 0.227881 7.517041
1.041708 0.336728 8.203521
0.989503 0.319009 8.831313
0.658098 0.211399 9.774973
0.966348 0.221549 0.728079
1.077477 0.246267 1.229257
1.041264 0.236804 2.045903
1.341650 0.303537 2.867594
1.672739 0.377355 3.299947
0.785999 0.173232 7.218396
0.994427 0.218255 7.864416
1.064099 0.232469 8.613735
0.995038 0.216442 9.353288
0.903434 0.120432 0.418331
1.069319 0.141438 1.181711
1.227151 0.161027 1.949092
1.450185 0.189476 2.350082
1.739433 0.225240 3.181273
1.548938 0.198888 3.999964
0.911022 0.114604 6.048422
0.443453 0.055391 6.820006
0.745337 0.092318 7.575683
1.051643 0.129225 8.272919
1.017495 0.124257 8.876135
0.699607 0.084595 9.918598
1.010240 0.038796 0.378354
1.333762 0.049482 1.346440
1.332481 0.048506 1.866686
1.620341 0.057626 2.473569
1.754110 0.057020 4.740010
1.240572 0.039399 5.380589
0.738349 0.022620 6.330569
0.586258 0.017568 6.885196
0.879707 0.025385 7.701113
1.030287 0.028960 8.259199
1.141332 0.030506 9.331161
0.916920 -0.058488 0.836604
1.329768 -0.085649 1.288761
1.421039 -0.093164 2.140847
1.713763 -0.113819 2.753615
1.834598 -0.127378 4.979746
1.301722 -0.091358 5.627108
0.729195 -0.051573 6.140534
0.701075 -0.050547 7.218603
0.885472 -0.064335 7.617983
1.123316 -0.082721 8.338955
1.197338 -0.089444 9.161039
1.153588 -0.183219 0.801767
1.278912 -0.204526 1.598598
1.363859 -0.219355 2.259097
1.803374 -0.292357 3.155494
2.086504 -0.340106 3.765559
1.875358 -0.307028 4.306630
1.627352 -0.268041 5.065290
1.126095 -0.186343 5.712673
0.691091 -0.115174 6.680956
0.770953 -0.129178 7.355256
1.066342 -0.179859 8.145441
1.228562 -0.208214 8.728883
1.173216 -0.199705 9.318431
1.344121 -0.342163 0.460754
1.479887 -0.378166 1.138062
1.312829 -0.336720 1.807723
1.138780 -0.293268 2.553609
2.006201 -0.520597 3.846290
1.669103 -0.434615 4.511955
1.416014 -0.370311 5.346725
1.080455 -0.283494 6.024655
0.663960 -0.174917 6.876200
0.751721 -0.198773 7.580276
1.049543 -0.278450 8.164803
1.167541 -0.418354 0.665136
1.440563 -0.517441 1.233659
1.813905 -0.657724 3.441800
2.016845 -0.733252 4.047436
1.801105 -0.656341 4.631340
1.546786 -0.565336 5.387090
1.106416 -0.405646 6.232997
0.781245 -0.287342 7.101293
0.903794 -0.333117 7.612044
1.278682 -0.473239 8.577699
1.280587 -0.475088 9.200298
1.791564 -0.861105 3.521781
2.060282 -0.992617 4.173176
1.879821 -0.907465 4.771455
1.073844 -0.523652 7.967201
1.352993 -0.661354 8.634241
1.281405 -0.627527 9.235607
1.368050 -0.812426 0.706265
1.306302 -0.777876 1.597978
2.036122 -1.223512 4.475168
1.926502 -1.159500 5.016651
0.993151 -0.602568 7.934056
1.243271 -0.755988 8.636612
1.143777 -0.696539 9.197006
1.396205 -1.014943 1.093549
1.257364 -0.915848 1.807027
1.328257 -0.969242 2.443220
1.678989 -1.228792 3.445794
1.935308 -1.419028 4.064870
1.878813 -1.379354 4.519021
1.767834 -1.301387 5.494726
1.526361 -1.129155 7.323181
1.271070 -0.942632 8.312315
1.108909 -0.989137 0.373303
1.173412 -1.048493 1.012327
1.233946 -1.105016 1.820925
1.563233 -1.407975 3.899944
1.762865 -1.590375 4.465839
1.648092 -1.488913 5.001524
1.408999 -1.275156 5.706860
1.142301 -1.036312 6.692473
1.123176 -1.020652 7.333722
1.234213 -1.123325 7.910490
1.226811 -1.118961 8.737763
1.032956 -0.943857 9.520339
1.088848 -1.181852 1.833067
1.407054 -1.537067 4.159702
1.581897 -1.730392 4.621753
1.483265 -1.626411 5.532235
1.244411 -1.366520 6.144386
1.130047 -1.242798 6.745189
1.113078 -1.226167 7.384351
1.091906 -1.205618 8.281697
1.230346 -1.596808 0.688262
1.105180 -1.437307 1.423137
1.081382 -1.409286 2.167038
1.183094 -1.544558 2.783134
1.170480 -1.531890 3.671171
1.190777 -1.560788 4.202990
1.299458 -1.706292 4.820962
1.170375 -1.540003 5.604270
1.082689 -1.427066 6.252355
1.102579 -1.456164 6.972833
1.092766 -1.446687 7.867864
1.070173 -1.419475 8.587498
0.970013 -1.288418 9.156184
1.088152 -1.733007 0.923251
0.977901 -1.560098 1.497915
0.951892 -1.521129 2.051648
0.974995 -1.561222 2.724825
1.008711 -1.618875 3.472641
1.089531 -1.752506 4.200353
1.120528 -1.806982 5.044120
1.075488 -1.738249 5.809052
1.036605 -1.677626 6.268603
1.034942 -1.679480 7.189297
1.010901 -1.643974 7.930871
0.961693 -1.566029 8.412016
0.854099 -1.393519 9.140322
0.673037 -1.351146 0.191304
0.832795 -1.676139 0.937394
0.858173 -1.732650 1.853857
0.852150 -1.724231 2.490208
0.843780 -1.709789 2.919554
0.872118 -1.771581 3.637591
0.906704 -1.847662 4.554990
0.841008 -1.717033 5.133448
0.887381 -1.816981 5.977639
0.963895 -1.977591 6.537718
0.867814 -1.783673 7.118176
0.854084 -1.760178 7.934738
0.838695 -1.732554 8.661565
0.725059 -1.501358 9.458035
0.787910 -2.011847 0.337961
0.790652 -2.024146 0.985601
0.713495 -1.829954 1.445327
0.712763 -1.832052 1.984704
0.707338 -1.824995 2.924803
0.695408 -1.797787 3.422898
0.738578 -1.914743 4.106198
0.707078 -1.839715 5.018654
0.711314 -1.853944 5.450813
0.799314 -2.091035 6.336479
0.758331 -1.988508 6.951414
0.732172 -1.925575 7.713051
0.741115 -1.955159 8.500242
0.681108 -1.801893 9.266232
0.459957 -1.620427 0.180832
0.536743 -1.899044 1.000766
0.529721 -1.881888 1.786419
0.526901 -1.879204 2.535641
0.527038 -1.883333 2.905916
0.551652 -1.982012 3.933812
0.554404 -1.997577 4.476440
0.557387 -2.013461 4.963093
0.584017 -2.119317 5.821686
0.587171 -2.138292 6.495564
0.570439 -2.086620 7.365432
0.555422 -2.038816 8.057302
0.533444 -1.963228 8.584157
0.477015 -1.761200 9.273104
0.353883 -1.908304 0.689755
0.382625 -2.072677 1.279251
0.362946 -1.974336 1.830991
0.359420 -1.964841 2.475401
0.365010 -2.008112 3.297588
0.371599 -2.055347 3.987430
0.353831 -1.967349 4.678004
0.377675 -2.113841 5.512006
0.411126 -2.315017 6.257795
0.390441 -2.208955 6.889238
0.390252 -2.221243 7.669444
0.368539 -2.103222 8.042218
0.354295 -2.036748 9.017050
0.277914 -1.604386 9.694072
0.155631 -1.961255 0.764781
0.167229 -2.120237 1.109197
0.155908 -2.002362 1.849850
0.153495 -1.994955 2.522559
0.154594 -2.038780 3.335267
0.156401 -2.089394 4.043867
0.146731 -1.978357 4.564800
0.153967 -2.103471 5.267700
0.169806 -2.362938 6.215981
0.162633 -2.284953 6.743607
0.158498 -2.257243 7.471461
0.151117 -2.178640 8.139763
0.145875 -2.137381 9.007486
0.117788 -1.740038 9.549517
-0.023645 -2.036437 0.423982
-0.028096 -2.184601 1.332758
-0.027258 -2.008744 1.859279
-0.029170 -2.022845 2.483041
-0.031015 -2.025862 3.137411
-0.034305 -2.086217 3.968615
-0.034602 -1.994799 4.649708
-0.040189 -2.170128 5.498670
-0.045652 -2.364759 6.052939
-0.045783 -2.287527 6.598547
-0.048609 -2.292833 7.494200
-0.048674 -2.209887 8.143381
-0.048001 -2.105426 8.766306
-0.044734 -1.882271 9.582734
-0.207753 -1.951701 0.509877
-0.216560 -2.017148 1.168957
-0.214040 -1.974969 1.907798
-0.222462 -2.037240 2.500086
-0.223753 -2.028714 3.297588
-0.221183 -1.995265 3.710420
-0.221966 -1.983886 4.467223
-0.247422 -2.186670 5.368919
-0.267780 -2.354098 5.783143
-0.273230 -2.375025 6.733637
-0.262177 -2.264301 7.311214
-0.251772 -2.155951 8.083465
-0.260779 -2.211562 8.935346
-0.232919 -1.967224 9.373063
-0.397347 -1.974002 1.944133
-0.403799 -1.995949 2.662083
-0.411606 -2.025402 3.304626
-0.417130 -2.043275 3.959207
-0.400710 -1.951551 4.813458
-0.426312 -2.067176 5.440761
-0.494036 -2.381139 6.281567
-0.486955 -2.338227 6.850408
-0.478030 -2.283132 7.671773
-0.464039 -2.207095 8.330738
-0.443540 -2.103134 8.835291
-0.381394 -1.799498 9.706968
-0.588421 -1.927378 1.972415
-0.604938 -1.974374 2.707233
-0.602258 -1.961475 3.144568
-0.607929 -1.973870 3.780402
-0.588263 -1.902432 4.621408
-0.647030 -2.082876 5.564354
-0.713157 -2.289602 6.095203
-0.694246 -2.222933 6.677918
-0.683460 -2.180594 7.456790
-0.658578 -2.096380 7.978287
-0.655978 -2.079851 8.857227
-0.605843 -1.914442 9.659879
-0.820540 -1.992983 1.211677
-0.779114 -1.886699 1.989831
-0.786429 -1.899970 2.594255
-0.789726 -1.903215 3.238728
-0.803351 -1.930356 4.006243
-0.763238 -1.828984 4.737979
-0.815932 -1.949813 5.459563
-0.923646 -2.200919 6.174213
-0.922011 -2.190930 6.920631
-0.890283 -2.111274 7.484848
-0.861453 -2.038061 8.152755
-0.859046 -2.025956 9.032347
-0.755938 -1.779215 9.670611
-0.944445 -1.793588 1.726014
-0.967710 -1.833184 2.479458
-0.950003 -1.795436 3.193952
-0.940607 -1.774635 3.719849
-0.953775 -1.793554 4.731196
-1.015466 -1.907132 5.106221
-1.118610 -2.095764 5.820462
-1.112405 -2.079170 6.565710
-1.097574 -2.046122 7.390117
-1.024395 -1.906575 7.946396
-1.023963 -1.901478 8.672743
-0.987260 -1.828069 9.630289
-1.109110 -1.700134 1.782555
-1.112331 -1.702576 2.274006
-1.135449 -1.732399 3.351688
-1.126096 -1.715427 3.886730
-1.105613 -1.681720 4.398034
-1.191869 -1.808857 5.143768
-1.311673 -1.986386 5.848447
-1.318854 -1.992902 6.598304
-1.260910 -1.902147 7.203137
-1.208576 -1.819582 7.922011
-1.239747 -1.861458 8.872864
-1.154732 -1.730329 9.639698
-1.291405 -1.599642 1.800100
-1.314307 -1.623939 2.695871
-1.309167 -1.615458 3.170531
-1.346952 -1.657450 4.172506
-1.251891 -1.538894 4.564800
-1.349531 -1.654865 5.436864
-1.495319 -1.830408 6.043607
-1.506005 -1.839083 6.920631
-1.445097 -1.762388 7.428727
-1.403112 -1.707994 8.143381
-1.420530 -1.724978 9.063470
-1.214956 -1.474029 9.493801
-1.515365 -1.551065 0.807291
-1.507280 -1.541040 1.221066
-1.455061 -1.483746 2.186038
-1.455691 -1.481674 2.857824
-1.465504 -1.488936 3.530468
-1.443161 -1.463855 4.134448
-1.369890 -1.386851 4.867579
-1.474584 -1.490188 5.510504
-1.657875 -1.673046 5.996940
-1.667473 -1.678271 6.990922
-1.545619 -1.553705 7.496794
-1.556445 -1.561164 8.333154
-1.528450 -1.308520 0.462001
-1.725641 -1.475566 0.889166
-1.582002 -1.349464 1.770570
-1.572155 -1.338860 2.366508
-1.581187 -1.343743 3.123480
-1.566286 -1.329064 3.676837
-1.577078 -1.336196 4.228594
-1.530019 -1.292807 5.235657
-1.623796 -1.369751 5.834206
-1.811719 -1.525399 6.486369
-1.733479 -1.457120 7.118926
-1.628370 -1.366478 7.777344
-1.694806 -1.418437 8.769789
-1.577533 -1.318388 9.362870
-1.608008 -1.125437 0.509877
-1.729278 -1.207461 1.316858
-1.713824 -1.194471 1.949329
-1.696440 -1.180828 2.394748
-1.695525 -1.177178 3.276385
-1.705209 -1.181883 3.865112
-1.655944 -1.145970 4.407462
-1.520396 -1.049821 5.210752
-1.693634 -1.167089 5.884393
-1.962568 -1.349095 6.687007
-1.913090 -1.312109 7.498206
-1.783742 -1.222010 7.937009
-1.790710 -1.224140 8.710289
-1.622703 -1.107327 9.407925
-1.688397 -0.950849 0.510245
-1.810177 -1.017496 1.101395
-1.808116 -1.014560 1.648233
-1.813208 -1.014501 2.545334
-1.827248 -1.019853 3.311649
-1.829597 -1.018816 4.034462
-1.842922 -1.023935 4.739826
-1.684226 -0.934400 5.227982
-1.826704 -1.011169 5.917826
-1.973403 -1.090084 6.556467
-1.835894 -1.011904 7.291271
-1.741253 -0.957839 7.957461
-1.718867 -0.943103 8.803269
-1.557432 -0.852439 9.663479
-1.726183 -0.771753 0.690750
-1.869387 -0.832947 1.611752
-1.811096 -0.805101 2.248981
-1.796759 -0.796482 3.019221
-1.787988 -0.791354 3.448773
-1.936651 -0.854050 4.423015
-2.040535 -0.897727 5.057744
-1.879882 -0.825169 5.710759
-1.822318 -0.797663 6.499618
-1.848432 -0.807533 7.032704
-1.873184 -0.815904 7.865312
-1.848930 -0.804121 8.298983
-1.776754 -0.770064 9.304032
-1.902121 -0.650047 0.282863
-2.053319 -0.699946 0.844832
-1.790985 -0.608743 1.505222
-1.788096 -0.605501 2.340631
-2.066530 -0.692907 4.519877
-2.129753 -0.712549 4.997923
-1.955894 -0.651804 5.912638
-1.790965 -0.595739 6.362136
-1.860630 -0.616463 7.251045
-1.878463 -0.620250 8.029140
-1.869411 -0.615392 8.731044
-1.725823 -0.566276 9.529691
-1.646700 -0.379206 0.637637
-1.854627 -0.425729 1.144810
-1.812927 -0.414264 1.876803
-1.763397 -0.401058 2.631954
-1.694052 -0.383771 3.269084
-2.060682 -0.464651 3.975158
-2.409398 -0.540313 4.794513
-2.143564 -0.479654 5.177586
-1.864800 -0.415082 6.065143
-1.717951 -0.381118 6.631272
-1.780332 -0.393224 7.329196
-1.826878 -0.400987 8.333999
-1.695486 -0.225925 0.323359
-1.889727 -0.249404 1.239384
-1.781949 -0.234222 1.632893
-1.719784 -0.224496 2.293708
-1.868133 -0.241437 3.226685
-2.247396 -0.287951 3.995413
-2.382198 -0.303569 4.481247
-2.298598 -0.290358 5.302915
-1.979181 -0.248766 5.817345
-1.665909 -0.207755 6.607230
-1.632200 -0.202270 7.207760
-1.783281 -0.218753 8.131274
-1.713023 -0.208701 8.792186
-1.463552 -0.177082 9.510325
-2.040566 -0.081548 0.753704
-1.889362 -0.073628 1.486300
-1.702671 -0.064705 2.209748
-1.894453 -0.070477 2.787139
-1.895818 -0.068400 3.617053
-1.970959 -0.069890 4.067863
-2.285447 -0.078801 4.753406
-2.135083 -0.071248 5.600522
-1.665670 -0.054295 6.264942
-1.492226 -0.047101 7.089531
-1.637308 -0.050413 7.657380
-1.695818 -0.050421 8.466341
-1.612073 -0.046559 9.156184
-1.710379 0.098042 0.542087
-1.776848 0.103460 1.205884
-1.651569 0.097447 1.782824
-2.011831 0.124245 3.785846
-2.360284 0.149062 4.771106
-2.178189 0.138407 5.083790
-1.963269 0.130721 7.407281
-1.607062 0.108293 8.104358
-1.445024 0.225447 0.498084
-1.687968 0.265267 1.313105
-1.639118 0.258867 1.878073
-1.999398 0.321367 3.870677
-2.195843 0.355438 4.666586
-1.978431 0.322182 5.409206
-1.619647 0.268042 7.437174
-1.237198 0.205715 8.115942
-1.439399 0.241205 9.063379
-1.081427 0.181762 9.550316
-1.417419 0.353196 0.354412
-1.556576 0.389769 1.202404
-1.430951 0.359331 1.705580
-1.810731 0.460830 4.041669
-0.756297 0.195250 6.837860
-0.747118 0.193723 7.673373
-1.130245 0.293982 8.186629
-1.294437 0.337990 8.890013
-1.023746 0.268311 9.695813
-1.288297 0.454581 0.710805
-1.470885 0.520458 1.356954
-1.343572 0.476111 1.708006
-1.669290 0.593519 2.472477
-1.688746 0.602643 3.330834
-1.596530 0.571498 4.071421
-0.725490 0.262592 6.920697
-0.805706 0.292425 7.593975
-1.076657 0.391801 8.201924
-1.096323 0.516454 0.453398
-1.403786 0.662885 1.137251
-1.279389 0.605939 1.997003
-1.664042 0.790244 2.743774
-1.878521 0.893523 3.179941
-1.676984 0.800340 4.167696
-1.582197 0.757006 4.914411
-1.283853 0.615544 5.578656
-0.786692 0.377878 6.226587
-0.601631 0.289597 6.910289
-0.816024 0.393716 7.583579
-1.053155 0.509768 8.522564
-1.090154 0.529012 9.302420
-1.258119 0.742267 0.354412
-1.249192 0.738694 1.102172
-1.109822 0.657013 1.473482
-1.068462 0.634370 2.432573
-0.851462 0.506467 3.065109
-1.498728 0.894955 4.277614
-1.081444 0.647044 4.993901
-0.793115 0.475783 5.937299
-0.485100 0.291662 6.777181
-0.577146 0.347571 7.326422
-0.906783 0.547520 8.160719
-0.902578 0.545791 8.683673
-0.873056 0.529369 9.653913
-0.820047 0.593270 0.475363
-1.123553 0.815051 1.430919
-0.980300 0.712116 1.931176
-1.137887 0.828250 2.633363
-1.361803 0.993035 3.254720
-1.418967 1.037410 4.170115
-1.270822 0.930936 4.900676
-1.002042 0.734936 5.390227
-0.630706 0.463622 6.292586
-0.478515 0.352433 7.056817
-0.671751 0.495542 7.608922
-0.834785 0.617173 8.400628
-0.885654 0.656319 9.279482
-0.832685 0.733153 0.183811
-0.824286 0.727437 1.045410
-0.859459 0.759700 1.644043
-1.109429 0.986297 3.756865
-0.315948 0.282834 6.559148
-0.501509 0.449879 7.326422
-0.774899 0.696404 7.971070
-0.783442 0.705543 8.786533
-0.649584 0.585966 9.495214
-0.731365 0.774525 0.668428
-0.764546 0.811421 1.480782
-0.754602 0.802379 2.189629
-0.687241 0.732170 2.927145
-0.944483 1.007815 3.486557
-1.143063 1.221791 4.093360
-0.887360 0.950439 4.919556
-0.535371 0.574244 5.539959
-0.376122 0.404308 6.424318
-0.491815 0.529574 7.062107
-0.630666 0.680437 7.802838
-0.615320 0.665031 8.493517
-0.622619 0.674557 9.462914
-0.544830 0.702168 0.584114
-0.721943 0.931989 1.188040
-0.648207 0.838427 1.900604
-0.691337 0.896026 2.634557
-0.906874 1.177543 3.273292
-1.070792 1.393948 4.170115
-0.975942 1.273051 4.925829
-0.615857 0.804138 5.375654
-0.332413 0.434967 6.252931
-0.390127 0.511579 7.047197
-0.518002 0.680298 7.584231
-0.653032 0.859978 8.575011
-0.552949 0.729389 9.255688
-0.610828 0.969784 0.927973
-0.579580 0.921594 1.452786
-0.570396 0.908809 2.133067
-0.536287 0.855834 2.682627
-0.682836 1.092612 3.563797
-0.849090 1.361993 4.362676
-0.711502 1.143557 5.069903
-0.446764 0.719360 5.770157
-0.246510 0.397697 6.520679
-0.358519 0.579852 7.365590
-0.508021 0.822954 7.865499
-0.507526 0.823956 8.643214
-0.434651 0.707113 9.423658
-0.209906 0.408548 0.157625
-0.258949 0.505028 0.785881
-0.432834 0.846787 1.731055
-0.426508 0.836191 2.385133
-0.381195 0.748997 3.068231
-0.557669 1.098301 3.744911
-0.158594 0.315214 6.725260
-0.293983 0.585586 7.360816
-0.454738 0.907748 7.966842
-0.428132 0.856593 8.707415
-0.326245 0.654703 9.732506
-0.132324 0.334529 0.237090
-0.174622 0.442946 1.113051
-0.325368 0.828205 1.997566
-0.271073 0.691177 2.447359
-0.347003 0.887438 3.205458
-0.514469 1.320335 4.055349
-0.234062 0.607163 6.954214
-0.339083 0.882097 7.646428
-0.363520 0.948076 8.303661
-0.086594 0.297692 0.276987
-0.119942 0.414345 1.272348
-0.245355 0.850340 1.909953
-0.220004 0.764662 2.492754
-0.233999 0.816033 3.165695
-0.326679 1.144470 4.052169
-0.328068 1.152092 4.531100
-0.182062 0.641426 5.257762
-0.094659 0.334827 6.124799
-0.164870 0.585017 6.728695
-0.255757 0.911925 7.656147
-0.272226 0.974216 8.396677
-0.186925 0.976258 0.844551
-0.170402 0.893141 1.343205
-0.146572 0.771370 1.915296
-0.152973 0.810696 2.882987
-0.147827 0.786651 3.455413
-0.181868 0.973739 4.281670
-0.172152 0.924358 4.682696
-0.099293 0.536568 5.627337
-0.073632 0.399798 6.318043
-0.126821 0.693362 7.228388
-0.171691 0.943069 7.826642
-0.181816 1.004706 8.650820
-0.149576 0.830580 9.378305
-0.081029 0.912846 0.729613
-0.073540 0.838540 1.531243
-0.067202 0.774176 2.209646
-0.063817 0.742056 2.820604
-0.059756 0.702147 3.504165
-0.073710 0.878843 4.423197
-0.066113 0.796898 5.128713
-0.032265 0.391536 5.620872
-0.010706 0.131600 6.488977
-0.038639 0.482253 7.395939
-0.080372 1.014274 7.976541
-0.074486 0.947123 8.462503
-0.053817 0.692881 9.302414
