1.886824 0.594910 2.693198
1.907224 0.621572 2.884150
1.975532 0.609127 3.543792
2.019742 0.577719 3.914724
2.038249 0.582542 4.248064
2.019674 0.598966 4.779439
1.993692 0.657270 5.651031
1.993991 0.656873 5.649084
2.051315 0.613656 6.091997
2.071761 0.628020 6.878673
2.027589 0.574895 7.645529
2.001638 0.590380 7.913373
1.998716 0.554508 8.428453
1.987115 0.468130 8.749346
1.987634 0.399088 8.850418
1.663573 0.254270 0.642948
1.679058 0.292560 0.658494
1.869762 0.398575 1.519619
1.909766 0.311228 1.915757
1.905913 0.309257 1.872419
1.951900 0.297787 2.590735
1.967933 0.280476 2.785911
2.013974 0.390954 3.309238
2.043996 0.363692 3.789292
2.066600 0.394932 5.083209
2.039701 0.389121 5.288519
2.024661 0.357502 5.354983
2.059982 0.426055 5.698351
2.174193 0.331965 6.812181
2.157194 0.350906 7.159901
2.117935 0.328917 7.616772
2.096139 0.336627 7.916717
2.070694 0.388373 8.135166
2.051908 0.287515 8.759253
1.695658 0.127095 0.725401
1.786234 0.192253 0.943744
1.826826 0.163111 1.000231
1.901674 0.145521 1.596338
1.942372 0.117336 2.221554
1.995372 0.129594 2.894997
2.057681 0.184564 3.642093
2.058834 0.167513 3.699948
2.064595 0.122513 3.759340
2.046769 0.081172 4.646754
2.009051 0.091884 5.036979
2.020293 0.125625 5.472690
2.067520 0.151557 5.679012
2.199031 0.154092 6.911839
2.189269 0.174120 6.878904
2.164818 0.129423 7.535631
2.140714 0.118897 7.980447
2.118452 0.156238 8.175671
2.094783 0.127620 8.644639
2.039701 0.042937 8.983942
1.664286 0.025549 0.794936
1.698483 0.114703 0.726151
1.826456 -0.011380 1.057361
1.905151 -0.074875 1.415419
1.947079 -0.076541 2.193491
2.024543 -0.104056 3.151024
1.996223 -0.098248 2.833782
2.068452 -0.148045 3.833775
2.037700 -0.139489 4.367533
2.021317 -0.081511 5.529762
2.068292 -0.093704 5.742409
2.203198 -0.044548 6.904752
2.193079 -0.047455 7.026464
2.155739 -0.105108 7.669875
2.132740 -0.026415 8.162716
2.122342 -0.052071 8.342215
2.083996 -0.095250 8.834353
1.897819 -0.275276 1.701060
1.900094 -0.255067 1.793384
1.968120 -0.281360 2.668306
1.985081 -0.282023 2.834930
2.039448 -0.261879 3.476060
2.047562 -0.246175 3.582609
1.971175 -0.285351 4.467615
1.914101 -0.290922 4.697110
1.898020 -0.310772 5.292713
2.022273 -0.257138 5.704939
2.101074 -0.309507 6.085187
2.182474 -0.254067 6.668181
2.180303 -0.270705 7.012144
2.144667 -0.298342 7.544989
2.109423 -0.244990 8.385827
2.084873 -0.304378 8.798078
2.022183 -0.365278 9.089822
1.957618 -0.410403 9.189875
1.804439 -0.408675 1.234130
1.865729 -0.434187 1.723825
1.912681 -0.503568 2.574599
1.912605 -0.503751 2.574252
1.990927 -0.496563 3.400913
2.007394 -0.514507 3.789390
1.999343 -0.478850 3.967541
1.901345 -0.428062 4.579618
1.859209 -0.460500 5.353005
1.860125 -0.482240 5.375048
2.051170 -0.466966 6.025670
2.126948 -0.496625 6.430380
2.142898 -0.502349 7.112605
2.098017 -0.481536 7.381310
2.072662 -0.435008 8.024098
2.067630 -0.488265 8.782801
1.629234 -0.566185 0.993005
1.833092 -0.574715 1.815031
1.801484 -0.587187 1.549473
1.883813 -0.616843 2.565551
1.824546 -0.719241 2.347187
1.929320 -0.637764 3.150562
1.939360 -0.693121 3.937847
1.937069 -0.697873 3.901415
1.921998 -0.640624 4.225693
1.784509 -0.615256 4.953123
1.844078 -0.576527 5.398961
1.884412 -0.625732 5.583216
2.005426 -0.693832 6.071728
2.063613 -0.736104 7.034111
2.033020 -0.663916 7.528706
1.992085 -0.698879 7.672833
1.984368 -0.676122 8.070000
1.995308 -0.666256 8.637188
1.657180 -0.783420 1.210232
1.745561 -0.779670 1.765697
1.779331 -0.827607 2.411033
1.797243 -0.804333 2.521273
1.870360 -0.808930 3.550224
1.865348 -0.826293 3.676081
1.860805 -0.808774 3.900468
1.719359 -0.837060 4.713335
1.746486 -0.746265 5.235669
1.837144 -0.860158 5.773893
1.931072 -0.909481 6.179760
1.997803 -0.908275 6.895755
1.998037 -0.880048 7.102640
1.939285 -0.876316 7.486429
1.903731 -0.848643 7.867474
1.910271 -0.837364 8.793426
1.880516 -0.846437 8.900713
1.764570 -0.831314 9.273527
1.607001 -0.968263 1.231877
1.621568 -0.984489 1.325985
1.696196 -0.959887 2.184349
1.695366 -0.947728 2.153304
1.711025 -0.981738 3.224819
1.736489 -0.983557 3.863521
1.718680 -0.998270 3.833237
1.643591 -0.982720 4.710620
1.616946 -0.998279 4.690131
1.654394 -0.921213 5.264921
1.840178 -1.081816 6.192989
1.763238 -1.073410 6.012605
1.879225 -1.109756 6.681432
1.896797 -1.069216 6.990761
1.788661 -1.044687 7.897832
1.760037 -1.060634 7.947144
1.751320 -1.051182 8.804438
1.170889 -1.073050 0.620269
1.434867 -1.122959 1.090940
1.547530 -1.116325 1.628464
1.605050 -1.123319 2.424249
1.594070 -1.138342 2.396100
1.565874 -1.168286 2.788388
1.582105 -1.139143 3.733259
1.593382 -1.131746 3.841120
1.541202 -1.145455 4.868671
1.540147 -1.109582 4.879457
1.636053 -1.237915 6.028634
1.605412 -1.148544 5.758358
1.761088 -1.253340 6.509640
1.748096 -1.275372 6.644081
1.679719 -1.248272 7.454637
1.613223 -1.245131 8.319202
1.598910 -1.223763 8.523588
1.603374 -1.227703 8.712548
1.586674 -1.129221 9.126496
1.351544 -1.257097 1.254861
1.370750 -1.257096 1.090549
1.406245 -1.279389 1.686256
1.437700 -1.323735 2.677942
1.456892 -1.300529 2.683207
1.439381 -1.293575 3.100254
1.425145 -1.304059 3.937144
1.425017 -1.304125 3.937281
1.441693 -1.267712 4.337269
1.413387 -1.268222 4.820633
1.416863 -1.320802 5.765434
1.529420 -1.348028 6.069814
1.577725 -1.372408 6.251709
1.574314 -1.419643 6.832935
1.500797 -1.389387 7.532773
1.490635 -1.336452 8.027285
1.483493 -1.321173 8.466056
1.452720 -1.286905 8.815949
1.404741 -1.229048 9.235665
0.836774 -1.282047 0.348406
1.240109 -1.363264 1.226308
1.266078 -1.406170 1.560854
1.273302 -1.397202 1.601473
1.327560 -1.389454 2.831410
1.294444 -1.428072 2.702570
1.290684 -1.391895 3.377215
1.247987 -1.441159 3.916863
1.299184 -1.411155 4.161946
1.303253 -1.405712 4.951208
1.297229 -1.409360 4.986863
1.384333 -1.444423 6.082682
1.365515 -1.438516 6.015847
1.460236 -1.499830 6.441936
1.404934 -1.487401 7.305916
1.343324 -1.457733 7.691388
1.350383 -1.428514 8.184260
1.361112 -1.393252 8.564031
1.306044 -1.367208 8.909374
1.266438 -1.336722 9.127411
0.815720 -1.298127 0.371917
1.054594 -1.492804 1.094275
1.093156 -1.507248 1.217367
1.143902 -1.543930 2.236681
1.143902 -1.543930 2.236681
1.182504 -1.501260 2.669482
1.119807 -1.483194 3.590548
1.153796 -1.476161 3.813532
1.139348 -1.526524 4.240838
1.171754 -1.523929 4.565879
1.210655 -1.542988 5.250399
1.200848 -1.530268 5.756460
1.197621 -1.547639 6.127956
1.251829 -1.600586 6.508144
1.211589 -1.613252 7.053384
1.113219 -1.542119 7.648120
1.135278 -1.511285 8.310186
1.130517 -1.492481 8.687687
0.776057 -1.348252 0.449138
0.893423 -1.566564 1.187486
0.901705 -1.575525 1.356199
1.011989 -1.589345 2.467263
0.982193 -1.592241 2.229137
0.960676 -1.563595 2.797648
0.975179 -1.556478 3.250388
1.012437 -1.573663 3.943863
1.001807 -1.632329 4.269994
1.073852 -1.662646 4.851123
1.072024 -1.614773 6.090543
1.067483 -1.651487 6.473916
1.026026 -1.622638 7.218103
0.938601 -1.599003 7.514523
0.911880 -1.580811 7.972345
0.973575 -1.527005 8.860951
0.587963 -1.323843 0.253962
0.689083 -1.435523 0.479453
0.833942 -1.637246 1.158291
0.754339 -1.627837 1.279693
0.835770 -1.628223 2.226255
0.831908 -1.590680 2.793497
0.776457 -1.569387 3.124705
0.819769 -1.559919 3.562208
0.809959 -1.571973 3.669336
0.896418 -1.695141 4.294249
0.883052 -1.982963 5.139856
0.902685 -1.841370 5.782212
0.947790 -1.709231 6.019054
0.949447 -1.659624 6.211621
0.884723 -1.687798 6.679217
0.774402 -1.599851 7.713014
0.748993 -1.597994 7.771702
0.745369 -1.604161 8.646206
0.735540 -1.595774 8.761714
0.430759 -1.380353 0.352302
0.499705 -1.612650 1.445988
0.554574 -1.617651 1.272905
0.523095 -1.627428 1.655532
0.548626 -1.554146 2.695537
0.614416 -1.575769 3.379377
0.643728 -1.590870 3.600462
0.696648 -1.615054 3.814294
0.665379 -1.964548 4.605706
0.691124 -2.107445 4.932508
0.702850 -2.120724 5.367652
0.755788 -1.714021 6.939673
0.642352 -1.680038 7.060992
0.597075 -1.611203 7.472871
0.555216 -1.607779 8.032021
0.587900 -1.594065 8.796257
0.291359 -1.360925 0.304861
0.369475 -1.471019 0.641166
0.339618 -1.619960 1.433809
0.383347 -1.599134 2.111971
0.397717 -1.592473 2.187393
0.251050 -1.515522 2.606622
0.462822 -2.089958 4.599376
0.552467 -2.161058 4.891750
0.637304 -2.116768 5.451948
0.625326 -2.053949 5.624880
0.584904 -1.679410 7.286333
0.433914 -1.610139 7.767467
0.398075 -1.576119 7.819713
0.379110 -1.590434 8.650348
0.136518 -1.496322 0.917005
0.190260 -1.478211 0.762983
0.246948 -1.608987 1.652419
0.228652 -1.614203 1.820810
0.203752 -1.529966 2.727294
0.238255 -1.559048 3.114591
0.365373 -1.617051 3.508343
0.296547 -2.129925 4.592589
0.334291 -2.164294 4.955046
0.542584 -2.043934 5.659343
0.551637 -1.679019 7.146996
0.317352 -1.548011 7.642724
0.231875 -1.537525 8.219425
0.147204 -1.509305 8.680513
0.112085 -1.330427 0.290819
0.039163 -1.529602 1.269018
0.108326 -1.560149 1.270283
0.102436 -1.577260 1.507708
0.057276 -1.489765 2.605725
0.043293 -1.497772 2.761316
0.131232 -1.557340 3.320072
0.155450 -2.089937 4.479667
0.257503 -2.148607 5.206729
0.187800 -1.503739 7.931341
0.095723 -1.488052 8.384541
0.030275 -1.445133 8.712760
-0.018326 -1.420720 0.777448
-0.069557 -1.490625 1.140492
-0.080203 -1.486557 1.834529
-0.140731 -1.450130 2.182803
-0.074358 -1.438196 2.642260
-0.158698 -1.720444 3.814700
-0.009030 -2.055617 4.485692
-0.011991 -2.069918 4.611297
0.039148 -1.384965 7.904143
-0.058413 -1.384468 8.630661
-0.130367 -1.307573 8.852191
-0.184458 -1.129617 9.408978
-0.019771 -1.329699 0.459261
-0.221294 -1.409161 2.107732
-0.247596 -1.384955 2.201127
-0.239379 -1.917071 4.359924
-0.107947 -2.023650 4.708620
-0.128969 -1.200979 8.081419
-0.187188 -1.267556 8.723538
-0.254881 -1.207873 8.860780
-0.256830 -1.139871 9.207529
-0.253714 -1.058892 0.196632
-0.326592 -1.194365 0.604586
-0.428017 -1.286822 1.343263
-0.435050 -1.278411 1.360278
-0.385841 -1.303012 1.976865
-0.315433 -1.335948 2.409491
-0.374112 -1.438827 3.166181
-0.299380 -0.299633 6.000479
-0.250031 -0.912225 7.522434
-0.290190 -0.988409 8.225033
-0.285213 -1.159771 8.714092
-0.317344 -1.123682 8.812781
-0.389510 -0.933565 9.393010
-0.525528 -1.228805 1.194018
-0.506292 -1.239275 1.262490
-0.486241 -1.234064 1.907777
-0.412878 -1.269781 2.565739
-0.689002 -1.401358 3.894314
-0.676923 -1.532171 4.311770
-0.363728 -0.502393 5.994239
-0.384350 -0.622704 7.858303
-0.364672 -0.997191 8.534953
-0.386017 -1.031096 8.865466
-0.388163 -0.953532 9.359790
-0.542598 -0.961793 0.482619
-0.631348 -1.081835 1.061047
-0.626708 -1.128069 1.195887
-0.579015 -1.169288 1.502919
-0.551766 -1.142098 2.119312
-0.556164 -1.236032 2.897506
-0.606191 -1.295525 3.224690
-0.796923 -1.386657 4.209269
-0.403504 -0.614174 7.606996
-0.401975 -0.634203 7.987312
-0.436993 -0.916314 8.675268
-0.438834 -0.926465 9.061980
-0.473171 -0.769216 9.418811
-0.697557 -1.035789 1.260745
-0.690677 -1.038817 1.681692
-0.641059 -1.038432 2.034630
-0.617976 -1.011996 2.373049
-0.696288 -1.116614 3.377363
-0.716454 -1.169620 3.459531
-0.823961 -1.323924 4.134232
-0.805171 -1.347711 4.642231
-0.426405 -0.366657 7.552148
-0.435787 -0.602102 8.077544
-0.492358 -0.742718 8.457800
-0.465812 -0.829000 9.334246
-0.501526 -0.630696 9.613741
-0.711436 -0.849112 0.770499
-0.766419 -0.936982 1.361942
-0.760926 -0.929345 1.584923
-0.707008 -0.846293 2.134671
-0.679051 -0.753263 2.459086
-0.726786 -0.838542 3.225918
-0.841673 -1.004363 3.652034
-0.890327 -1.176355 3.969171
-0.883984 -1.231981 4.651722
-0.770495 -1.023411 5.074666
-0.561578 -0.511376 5.464277
-0.458503 -0.439965 7.658760
-0.506141 -0.550690 8.137748
-0.569743 -0.670943 8.856800
-0.816197 -0.822822 1.190392
-0.810990 -0.821980 1.462441
-0.801560 -0.809889 1.506195
-0.747887 -0.790625 1.932755
-0.694603 -0.652586 2.483282
-0.747298 -0.655636 3.287761
-0.978760 -0.912877 3.868715
-0.838867 -1.019228 5.021424
-0.484649 -0.484569 7.979666
-0.553176 -0.485230 8.130875
-0.616505 -0.560353 8.884582
-0.628112 -0.456490 0.350654
-0.812349 -0.591455 0.930169
-0.837139 -0.704465 1.433388
-0.837081 -0.703888 1.433179
-0.701027 -0.574233 2.434221
-0.703535 -0.507564 2.752041
-0.770250 -0.562835 3.262001
-0.844350 -0.791656 3.481168
-1.061759 -0.799244 3.932239
-0.550333 -0.465528 8.073980
-0.548542 -0.484535 8.112202
-0.642938 -0.533280 8.834066
-0.648926 -0.474792 8.974061
-0.572044 -0.362154 9.652705
-0.817976 -0.636544 0.884903
-0.857191 -0.641777 1.286995
-0.792254 -0.464562 1.624716
-0.707988 -0.403974 2.588987
-0.733447 -0.385468 3.179773
-0.719527 -0.291541 3.179973
-1.167366 -0.777839 4.175279
-0.500363 -0.333339 7.468754
-0.630852 -0.427257 8.214069
-0.625150 -0.424158 8.182574
-0.669511 -0.455683 8.984869
-0.794545 -0.434687 0.830601
-0.846601 -0.519068 1.050247
-0.814506 -0.526839 1.582341
-0.717098 -0.339671 2.325853
-0.717105 -0.292594 2.264604
-1.147406 -0.588663 3.987090
-1.224526 -0.626159 4.218567
-0.287962 -0.053961 7.088298
-0.401519 -0.158706 7.368333
-0.621909 -0.329774 7.950771
-0.747608 -0.361326 8.581726
-0.698148 -0.403100 8.912011
-0.601441 -0.245321 9.415480
-0.785580 -0.380670 0.820694
-0.770811 -0.303277 1.406150
-0.733447 -0.220246 1.588540
-0.716862 -0.242939 2.183429
-0.927880 -0.409261 3.586466
-1.232769 -0.565452 4.246293
-0.239314 -0.001593 6.903029
-0.415936 -0.176655 7.416344
-0.632925 -0.213646 7.744126
-0.759789 -0.304414 8.329744
-0.761225 -0.325497 8.858963
-0.670008 -0.100427 1.210595
-0.707235 -0.143262 1.541624
-0.706762 -0.182012 2.203989
-0.715343 -0.194034 2.929185
-0.721438 -0.137854 3.121986
-0.942033 -0.268212 3.720662
-1.163425 -0.440573 4.003045
-0.206897 0.022935 6.791095
-0.335591 -0.058617 7.168357
-0.614444 -0.109100 7.637390
-0.796482 -0.239876 8.647108
-0.755636 -0.231857 9.052153
-0.453649 0.037548 0.497814
-0.609380 -0.006651 1.072152
-0.704842 -0.079175 1.733667
-0.699954 -0.056918 1.971635
-0.714395 -0.166491 2.424711
-0.746264 -0.079567 3.387768
-1.045648 -0.237588 3.943934
-1.062459 -0.303894 3.890913
-1.224132 -0.355129 4.300754
-0.228894 0.011044 6.865883
-0.348677 -0.026333 7.138133
-0.669339 -0.080694 7.685576
-0.804316 -0.149155 8.280970
-0.821800 -0.140141 8.439121
-0.685137 -0.129473 9.335564
-0.574203 -0.117334 9.714375
-0.519041 -0.076814 0.322534
-0.682919 -0.070785 0.815652
-0.707247 -0.033968 1.628541
-0.691489 -0.001272 1.752671
-0.695203 -0.009685 2.111726
-0.702115 -0.038412 2.684834
-0.710060 -0.033183 3.195745
-0.893325 -0.063221 3.861986
-1.136127 -0.216382 4.196828
-0.203507 0.021084 6.932493
-0.635582 -0.099584 7.671146
-0.725125 -0.027366 7.748704
-0.827622 -0.073037 8.264137
-0.788669 -0.106947 9.001549
-0.663786 -0.077223 9.370103
-0.374279 0.079488 0.574632
-0.571545 0.042660 1.241032
-0.673022 0.019301 1.555264
-0.691680 0.027691 2.141040
-0.701420 0.004356 2.444369
-0.695034 0.017799 3.006513
-0.685231 0.053481 3.353910
-0.812066 0.048811 4.012163
-0.214505 0.037587 6.795863
-0.496524 0.014944 7.349505
-0.776290 0.037517 7.772983
-0.844881 0.007449 8.323361
-0.828149 -0.003766 8.451024
-0.663010 -0.000393 9.450589
-0.598734 -0.028097 9.594702
-0.381514 0.078674 0.367374
-0.544610 0.070767 1.174352
-0.677958 0.104374 1.652410
-0.678731 0.090266 2.101426
-0.668342 0.108009 2.791249
-0.679143 0.094254 3.269025
-0.642961 0.136866 3.319978
-0.704537 0.205020 4.134826
-0.565937 0.213999 5.246557
-0.248947 0.133106 5.950934
-0.200927 0.035484 6.833998
-0.503349 0.070727 7.318219
-0.784014 0.125936 7.693531
-0.851994 0.072593 8.189003
-0.570361 0.052266 0.821035
-0.663862 0.042155 1.051488
-0.673334 0.159826 1.717549
-0.661889 0.166741 2.118931
-0.661770 0.160968 2.097157
-0.644455 0.153089 3.148358
-0.695632 0.164952 3.649191
-0.694100 0.195454 3.890218
-0.703748 0.206615 4.135681
-0.695218 0.238760 4.854596
-0.535285 0.207896 5.298104
-0.322480 0.170718 5.877497
-0.141313 0.092180 6.537692
-0.206400 0.039005 6.908229
-0.631139 0.115564 7.518378
-0.785260 0.172107 7.680469
-0.838609 0.115033 8.308820
-0.769211 0.127635 8.921127
-0.661396 0.077815 9.353850
-0.373961 0.095709 0.373822
-0.487539 0.143571 1.023347
-0.640408 0.236228 1.749299
-0.638841 0.234296 1.728335
-0.630696 0.235111 2.621702
-0.625874 0.215186 3.101916
-0.632300 0.198956 3.403832
-0.660274 0.234031 3.701516
-0.676400 0.307488 4.649248
-0.134743 0.086640 6.376892
-0.521072 0.175762 7.325069
-0.724088 0.315049 7.517688
-0.788117 0.214664 8.796365
-0.600065 0.031813 9.625453
-0.367661 0.103303 0.402058
-0.458492 0.153313 0.856059
-0.563590 0.230718 1.280288
-0.630816 0.266753 1.957980
-0.578527 0.335188 2.707218
-0.587501 0.309730 2.848461
-0.609748 0.251062 3.295321
-0.637537 0.317189 3.821113
-0.635374 0.348850 4.504666
-0.617801 0.331742 4.744261
-0.490618 0.242012 5.304425
-0.280272 0.165349 5.895729
-0.188743 0.051363 6.848077
-0.380458 0.214660 7.054128
-0.727448 0.377267 7.532956
-0.807226 0.382364 7.837040
-0.773602 0.377969 8.510668
-0.743845 0.211588 9.000782
-0.611323 0.044221 9.591953
-0.591601 0.317166 1.717104
-0.564366 0.399275 2.345461
-0.580747 0.339299 2.685202
-0.571465 0.289231 3.329313
-0.601675 0.366689 3.993566
-0.640849 0.332620 4.188490
-0.618660 0.289873 5.025582
-0.495670 0.265035 5.305326
-0.283903 0.160893 5.974384
-0.161373 0.096589 6.165672
-0.212368 0.095342 6.894518
-0.517553 0.328671 7.266076
-0.761315 0.447926 7.662474
-0.572916 0.369820 2.018850
-0.570788 0.391722 2.168169
-0.542774 0.382152 2.761247
-0.504604 0.393562 3.183683
-0.527354 0.350328 3.487186
-0.590851 0.430107 4.121863
-0.610555 0.390663 4.682742
-0.570430 0.334446 4.933491
-0.345152 0.225129 5.739882
-0.129723 0.089597 6.322730
-0.205166 0.101684 6.884000
-0.415757 0.354807 7.165872
-0.661538 0.485069 7.498884
-0.711221 0.611031 8.084341
-0.505010 0.434780 1.665907
-0.511621 0.469344 2.369264
-0.511907 0.413065 2.828744
-0.512556 0.405738 2.935100
-0.565448 0.460789 3.950360
-0.565099 0.461315 4.207685
-0.602888 0.386141 4.544530
-0.464771 0.257017 5.385874
-0.292677 0.174109 5.952724
-0.131781 0.096866 6.457894
-0.212997 0.141931 6.919168
-0.342159 0.335598 7.068589
-0.650457 0.546037 7.547171
-0.668504 0.667658 8.071951
-0.716240 0.537935 8.509062
-0.363496 0.109234 0.386086
-0.455810 0.289077 1.007013
-0.454157 0.397365 1.231087
-0.474646 0.518608 2.295875
-0.489260 0.488615 2.561609
-0.486788 0.454471 2.999672
-0.478036 0.424343 3.276967
-0.558200 0.490857 4.094399
-0.577802 0.455123 4.535802
-0.306465 0.200607 5.813556
-0.128747 0.096027 6.423786
-0.284490 0.304325 6.981147
-0.585322 0.560402 7.482587
-0.612242 0.693370 7.850585
-0.607432 0.757596 8.537965
-0.440232 0.507769 1.461065
-0.437703 0.566755 2.355367
-0.437703 0.566755 2.355367
-0.468434 0.477216 2.958406
-0.508956 0.413286 3.639478
-0.524258 0.484808 3.918281
-0.568343 0.472028 4.515880
-0.478912 0.282548 5.320221
-0.389991 0.258452 5.496772
-0.129712 0.089867 6.323428
-0.151340 0.086300 6.778730
-0.334478 0.434775 7.217132
-0.494074 0.805923 7.885383
-0.541345 0.812990 8.073162
-0.558113 0.811433 8.586369
-0.334867 0.165074 0.391694
-0.425314 0.486822 1.250720
-0.415023 0.643820 1.745858
-0.416612 0.612499 1.729355
-0.439769 0.538370 2.640453
-0.474469 0.441495 3.134814
-0.459710 0.526281 3.171008
-0.512020 0.764410 3.714430
-0.538806 0.612767 4.331512
-0.124319 0.111742 6.579225
-0.210923 0.301478 6.938439
-0.388289 0.593136 7.394399
-0.457291 0.834990 7.879406
-0.488674 0.858829 8.185701
-0.356461 0.732991 1.769071
-0.376555 0.710324 1.983438
-0.389023 0.635566 2.358419
-0.432197 0.862154 3.290065
-0.483250 1.328188 4.241628
-0.209309 0.445130 7.100297
-0.378923 0.862372 7.863199
-0.409462 0.896651 8.041494
-0.371164 0.973471 8.590269
-0.332826 0.158932 0.470292
-0.391711 0.519483 1.398619
-0.318800 0.833354 1.829510
-0.340087 0.748841 2.214786
-0.387375 0.629556 2.576634
-0.420310 1.685063 3.677735
-0.409088 1.646668 4.218480
-0.444052 1.414245 4.340762
-0.208886 0.579336 7.327143
-0.308970 0.896299 7.889336
-0.290714 0.917274 7.954752
-0.266803 1.052574 8.716307
-0.206192 1.033628 1.989837
-0.277155 0.927645 1.912176
-0.331491 0.747187 2.264622
-0.313945 1.726340 3.582431
-0.382859 1.753994 3.830569
-0.185401 0.440082 7.069079
-0.207658 0.870957 7.771309
-0.201246 0.889767 7.791248
-0.211556 1.022177 8.298588
-0.095956 1.188838 1.874839
-0.155532 1.137816 1.747524
-0.190738 0.954286 2.348910
-0.041082 1.379419 2.899280
-0.222171 1.802428 3.742266
-0.258249 1.801135 3.801585
-0.140270 1.749386 4.480081
-0.123190 0.566158 7.246867
-0.126800 0.899509 7.800589
-0.128534 0.921554 7.842127
-0.107409 1.051397 8.299458
-0.127622 1.123257 8.757024
-0.121944 0.967177 9.340199
0.099906 1.293427 1.309606
0.056652 1.315459 1.575829
-0.132453 1.829576 3.658691
-0.109644 1.843598 4.317201
-0.059620 0.712109 7.487761
-0.067471 0.859135 7.710784
-0.034313 1.005356 8.069509
-0.061117 1.140992 8.717012
0.059832 1.195043 9.183869
0.090398 1.315277 1.707940
0.108880 1.313877 1.933332
0.233961 1.363102 2.439481
0.045088 1.760650 3.394996
0.211151 1.981186 3.745034
-0.114765 0.517926 7.173197
-0.065970 0.700692 7.460392
0.087397 1.051708 8.195309
0.081768 1.141274 8.504752
0.116881 1.244915 9.039683
0.077716 1.202656 9.173283
0.277957 1.392286 1.701938
0.312766 1.347979 2.218540
0.332256 1.341423 2.286177
0.322727 1.337327 2.416885
0.553506 2.206312 4.191541
0.412666 2.110024 3.992450
0.379554 2.083697 4.417966
-0.083697 0.563598 7.246552
0.169059 0.950829 7.892379
0.159786 1.181262 8.556769
0.205148 1.251587 8.782426
0.479388 1.449173 1.523187
0.338508 1.351053 1.966013
0.397487 1.350251 2.338269
0.436175 1.379402 2.437982
0.560938 1.900573 3.542297
0.665303 2.209348 4.064359
0.721916 2.248904 4.252461
-0.058812 0.615258 7.310671
0.111894 0.840035 7.703553
0.253930 1.114802 8.269203
0.332378 1.288862 8.751371
0.483958 1.354453 2.262795
0.511894 1.365386 2.181706
0.504434 1.372883 2.479078
0.751915 1.695684 3.323267
0.872897 2.236483 4.259245
0.942454 2.213401 4.485145
0.867015 2.183345 4.454760
0.277930 0.969336 7.920968
0.342757 1.041372 8.054524
0.398151 1.233415 8.498371
0.656916 1.197621 0.752692
0.852341 1.380415 1.231341
0.789079 1.446431 1.382585
0.638488 1.394663 2.143322
0.597199 1.368111 2.402231
0.748369 1.445044 2.832779
0.833288 1.668877 3.313741
1.116536 2.140166 4.473744
1.228427 2.047131 5.033895
0.358117 1.012387 7.974858
0.634542 1.329883 8.617688
0.616435 1.352699 8.911196
0.475005 1.335568 9.103239
0.590528 1.028218 0.406173
0.677690 1.122358 0.580198
0.853985 1.267783 0.934821
0.897395 1.452289 1.709437
0.866625 1.432314 1.819916
0.907282 1.394185 2.826074
1.029112 1.503007 3.253646
1.072423 1.539588 3.437202
1.224862 1.999677 4.314414
1.259718 2.020772 4.609241
1.367826 1.936615 5.270864
0.498601 1.065040 8.000866
0.766250 1.268243 8.312131
0.729003 1.348988 8.968559
0.473250 1.317376 9.185524
0.598938 1.028509 0.423944
0.872223 1.280104 0.980560
0.952338 1.259994 0.934192
1.173715 1.387404 1.875722
1.195622 1.341171 2.563891
1.053864 1.368585 2.517777
1.425902 1.635056 4.219726
1.409124 1.772326 4.373892
1.470024 1.807503 5.316833
1.487391 1.773989 5.280626
1.036282 1.238298 7.925866
1.046925 1.281528 8.178620
0.940676 1.305310 8.515024
0.629789 1.325276 9.145152
-0.365614 -0.050267 0.196632
-0.174817 -0.024035 0.196632
-0.247289 -0.033999 0.196632
-0.037185 -0.005112 0.196632
-0.195768 -0.026915 0.196632
-0.123257 -0.016946 0.196632
-0.029163 -0.004010 0.196632
-0.194329 -0.026718 0.196632
-0.359932 -0.049486 0.196632
-0.374329 -0.051465 0.196632
-0.230462 -0.034106 0.196632
-0.183666 -0.027181 0.196632
-0.250581 -0.037084 0.196632
-0.438243 -0.064856 0.196632
-0.282165 -0.041758 0.196632
-0.273593 -0.040489 0.196632
-0.321428 -0.047569 0.196632
-0.170834 -0.025282 0.196632
-0.286863 -0.042453 0.196632
-0.388996 -0.057568 0.196632
-0.535959 -0.096243 0.196632
-0.238266 -0.042786 0.196632
-0.283831 -0.050968 0.196632
-0.577763 -0.103750 0.196632
-0.601558 -0.108023 0.196632
-0.125672 -0.022567 0.196632
-0.602336 -0.108163 0.196632
-0.267752 -0.048081 0.196632
-0.498825 -0.089575 0.196632
-0.471387 -0.084648 0.196632
-0.484420 -0.352060 0.196632
-0.000010 -0.000007 0.196632
-0.577702 -0.419854 0.196632
-0.242628 -0.176334 0.196632
-0.509975 -0.370632 0.196632
-0.232491 -0.168967 0.196632
-0.118202 -0.085906 0.196632
-0.616992 -0.448409 0.196632
-0.252362 -0.183408 0.196632
-0.262992 -0.191134 0.196632
-0.444324 -0.331546 0.196632
-0.247662 -0.184801 0.196632
-0.090294 -0.067376 0.196632
-0.548139 -0.409010 0.196632
-0.409131 -0.305286 0.196632
-0.005515 -0.004115 0.196632
-0.120367 -0.089816 0.196632
-0.657845 -0.490871 0.196632
-0.651188 -0.485904 0.196632
-0.494436 -0.368939 0.196632
-0.515522 -0.384955 0.196632
-0.384548 -0.287153 0.196632
-0.004975 -0.003715 0.196632
-0.539316 -0.402722 0.196632
-0.032455 -0.024235 0.196632
-0.390596 -0.291669 0.196632
-0.461971 -0.344967 0.196632
-0.542730 -0.405272 0.196632
-0.400122 -0.298783 0.196632
-0.267624 -0.199843 0.196632
-0.035343 -0.027091 0.196632
-0.012315 -0.009440 0.196632
-0.401304 -0.307602 0.196632
-0.251965 -0.193132 0.196632
-0.375157 -0.287560 0.196632
-0.001243 -0.000952 0.196632
-0.433363 -0.332175 0.196632
-0.130258 -0.099844 0.196632
-0.133040 -0.101976 0.196632
-0.178409 -0.136751 0.196632
-0.055872 -0.044876 0.196632
-0.399805 -0.321120 0.196632
-0.169823 -0.136400 0.196632
-0.433597 -0.348262 0.196632
-0.336005 -0.269876 0.196632
-0.377502 -0.303206 0.196632
-0.133552 -0.107268 0.196632
-0.242125 -0.194473 0.196632
-0.304854 -0.244856 0.196632
-0.489394 -0.393076 0.196632
-0.413871 -0.448870 0.196632
-0.512997 -0.556379 0.196632
-0.654592 -0.709949 0.196632
-0.557274 -0.604401 0.196632
-0.171456 -0.185956 0.196632
-0.411719 -0.446536 0.196632
-0.549504 -0.595974 0.196632
-0.194958 -0.211445 0.196632
-0.265484 -0.287935 0.196632
-0.360050 -0.390498 0.196632
-0.553111 -0.609494 0.196632
-0.617313 -0.680240 0.196632
-0.617200 -0.680116 0.196632
-0.203656 -0.224416 0.196632
-0.337460 -0.371860 0.196632
-0.259067 -0.285476 0.196632
-0.542534 -0.597839 0.196632
-0.315333 -0.347477 0.196632
-0.290357 -0.319956 0.196632
-0.039606 -0.043644 0.196632
-0.473953 -0.599816 0.196632
-0.102388 -0.129578 0.196632
-0.541931 -0.685846 0.196632
-0.030144 -0.038149 0.196632
-0.373115 -0.472200 0.196632
-0.189229 -0.239481 0.196632
-0.450946 -0.570699 0.196632
-0.187050 -0.236723 0.196632
-0.393747 -0.498310 0.196632
-0.624943 -0.790903 0.196632
-0.180729 -0.265339 0.196632
-0.070565 -0.103600 0.196632
-0.108571 -0.159400 0.196632
-0.366405 -0.537941 0.196632
-0.140425 -0.206166 0.196632
-0.151037 -0.221746 0.196632
-0.004839 -0.007104 0.196632
-0.355767 -0.522322 0.196632
-0.461537 -0.677609 0.196632
-0.350548 -0.514660 0.196632
-0.188101 -0.333422 0.196632
-0.241482 -0.428043 0.196632
-0.496399 -0.879901 0.196632
-0.406365 -0.720310 0.196632
-0.042326 -0.075025 0.196632
-0.029855 -0.052920 0.196632
-0.082726 -0.146637 0.196632
-0.147099 -0.260742 0.196632
-0.397606 -0.704784 0.196632
-0.207944 -0.368595 0.196632
-0.336331 -0.934930 0.196632
-0.002952 -0.008206 0.196632
-0.276472 -0.768535 0.196632
-0.138517 -0.385049 0.196632
-0.234005 -0.650485 0.196632
-0.332002 -0.922898 0.196632
-0.196205 -0.545410 0.196632
-0.297098 -0.825872 0.196632
-0.303292 -0.843089 0.196632
-0.115991 -0.322431 0.196632
-0.029461 -0.122956 0.196632
-0.097372 -0.406387 0.196632
-0.045302 -0.189069 0.196632
-0.235797 -0.984114 0.196632
-0.043253 -0.180520 0.196632
-0.166319 -0.694142 0.196632
-0.156523 -0.653257 0.196632
-0.016404 -0.068464 0.196632
-0.224889 -0.938590 0.196632
-0.034123 -0.142413 0.196632
-0.040411 -0.370536 0.196632
-0.117456 -1.076985 0.196632
-0.076539 -0.701806 0.196632
-0.013745 -0.126034 0.196632
-0.050452 -0.462613 0.196632
-0.079259 -0.726751 0.196632
-0.080598 -0.739030 0.196632
-0.028506 -0.261376 0.196632
-0.122496 -1.123196 0.196632
-0.003784 -0.034697 0.196632
-0.003105 -0.208816 0.196632
-0.003213 -0.216107 0.196632
-0.014679 -0.987205 0.196632
-0.002249 -0.151236 0.196632
-0.007505 -0.504713 0.196632
-0.015627 -1.050994 0.196632
-0.012725 -0.855808 0.196632
-0.014916 -1.003123 0.196632
-0.000729 -0.049002 0.196632
-0.013512 -0.908741 0.196632
0.013112 -0.416826 0.196632
0.034064 -1.082864 0.196632
0.006972 -0.221651 0.196632
0.027017 -0.858866 0.196632
0.036768 -1.168837 0.196632
0.025652 -0.815466 0.196632
0.036000 -1.144411 0.196632
0.028323 -0.900381 0.196632
0.020709 -0.658340 0.196632
0.003830 -0.121738 0.196632
0.059405 -1.022279 0.196632
0.036785 -0.633023 0.196632
0.046145 -0.794095 0.196632
0.040451 -0.696111 0.196632
0.036984 -0.636451 0.196632
0.071065 -1.222922 0.196632
0.009340 -0.160730 0.196632
0.030774 -0.529583 0.196632
0.042857 -0.737508 0.196632
0.040068 -0.689521 0.196632
0.103088 -1.291193 0.196632
0.097585 -1.222262 0.196632
0.096283 -1.205962 0.196632
0.065822 -0.824431 0.196632
0.057200 -0.716436 0.196632
0.022724 -0.284615 0.196632
0.028013 -0.350869 0.196632
0.000807 -0.010114 0.196632
0.096448 -1.208021 0.196632
0.045581 -0.570906 0.196632
0.020848 -0.247461 0.196632
0.030751 -0.365003 0.196632
0.013500 -0.160246 0.196632
0.075843 -0.900248 0.196632
0.059259 -0.703390 0.196632
0.082555 -0.979919 0.196632
0.080842 -0.959574 0.196632
0.089862 -1.066644 0.196632
0.070838 -0.840836 0.196632
0.053541 -0.635524 0.196632
0.044314 -0.443459 0.196632
0.107526 -1.076026 0.196632
0.014919 -0.149301 0.196632
0.066169 -0.662167 0.196632
0.137708 -1.378061 0.196632
0.033147 -0.331708 0.196632
0.082010 -0.820684 0.196632
0.028077 -0.280975 0.196632
0.046326 -0.463588 0.196632
0.121436 -1.215231 0.196632
0.003481 -0.021527 0.196632
0.105226 -0.650788 0.196632
0.066342 -0.410302 0.196632
0.122694 -0.758823 0.196632
0.116165 -0.718443 0.196632
0.113262 -0.700485 0.196632
0.067706 -0.418738 0.196632
0.119331 -0.738023 0.196632
0.009617 -0.059478 0.196632
0.023466 -0.145130 0.196632
0.134114 -0.685173 0.196632
0.002331 -0.011908 0.196632
0.158375 -0.809115 0.196632
0.091858 -0.469290 0.196632
0.104798 -0.535399 0.196632
0.216960 -1.108420 0.196632
0.005149 -0.026305 0.196632
0.118291 -0.604334 0.196632
0.184330 -0.941717 0.196632
0.203699 -1.040670 0.196632
0.157065 -0.733645 0.196632
0.091265 -0.426295 0.196632
0.005458 -0.025495 0.196632
0.107756 -0.503325 0.196632
0.121476 -0.567408 0.196632
0.008915 -0.041639 0.196632
0.180671 -0.843905 0.196632
0.048087 -0.224611 0.196632
0.264985 -1.237733 0.196632
0.010907 -0.050944 0.196632
0.166873 -0.709790 0.196632
0.256876 -1.092617 0.196632
0.048099 -0.204590 0.196632
0.272190 -1.157753 0.196632
0.171034 -0.727488 0.196632
0.061838 -0.263025 0.196632
0.249186 -1.059907 0.196632
0.245703 -1.045090 0.196632
0.064235 -0.273220 0.196632
0.033428 -0.142183 0.196632
0.249103 -1.026905 0.196632
0.187669 -0.773647 0.196632
0.115669 -0.476835 0.196632
0.208838 -0.860914 0.196632
0.183776 -0.757600 0.196632
0.295565 -1.218442 0.196632
0.136199 -0.561470 0.196632
0.215504 -0.888395 0.196632
0.212103 -0.874377 0.196632
0.164550 -0.678341 0.196632
0.125359 -0.427530 0.196632
0.351495 -1.198757 0.196632
0.037198 -0.126861 0.196632
0.120705 -0.411658 0.196632
0.193588 -0.660222 0.196632
0.354878 -1.210294 0.196632
0.159660 -0.544512 0.196632
0.066475 -0.226709 0.196632
0.316421 -1.079138 0.196632
0.126438 -0.431211 0.196632
0.019097 -0.061197 0.196632
0.140832 -0.451291 0.196632
0.175240 -0.561550 0.196632
0.057048 -0.182807 0.196632
0.028202 -0.090372 0.196632
0.220556 -0.706764 0.196632
0.125862 -0.403320 0.196632
0.125261 -0.401396 0.196632
0.226829 -0.726866 0.196632
0.014094 -0.045164 0.196632
0.111985 -0.351058 0.196632
0.198830 -0.623306 0.196632
0.383711 -1.202886 0.196632
0.148579 -0.465776 0.196632
0.394343 -1.236215 0.196632
0.309369 -0.969833 0.196632
0.296242 -0.928682 0.196632
0.013045 -0.040894 0.196632
0.136462 -0.427792 0.196632
0.098856 -0.309900 0.196632
0.276009 -0.621455 0.196632
0.458290 -1.031874 0.196632
0.560023 -1.260933 0.196632
0.299656 -0.674698 0.196632
0.143356 -0.322776 0.196632
0.452915 -1.019772 0.196632
0.236330 -0.532114 0.196632
0.450553 -1.014455 0.196632
0.574836 -1.294286 0.196632
0.242788 -0.546655 0.196632
0.560416 -1.167481 0.196632
0.353889 -0.737234 0.196632
0.013832 -0.028816 0.196632
0.657028 -1.368745 0.196632
0.641343 -1.336070 0.196632
0.396978 -0.826999 0.196632
0.312164 -0.650312 0.196632
0.655027 -1.364577 0.196632
0.080821 -0.168369 0.196632
0.368939 -0.768589 0.196632
0.705707 -1.296867 0.196632
0.403066 -0.740709 0.196632
0.030117 -0.055346 0.196632
0.401595 -0.738005 0.196632
0.599397 -1.101503 0.196632
0.019724 -0.036246 0.196632
0.631767 -1.160989 0.196632
0.254232 -0.467199 0.196632
0.087424 -0.160659 0.196632
0.175209 -0.321979 0.196632
0.150289 -0.261099 0.196632
0.656689 -1.140872 0.196632
0.563466 -0.978916 0.196632
0.062864 -0.109214 0.196632
0.679186 -1.179957 0.196632
0.081635 -0.141825 0.196632
0.435223 -0.756118 0.196632
0.084254 -0.146376 0.196632
0.540423 -0.938883 0.196632
0.230165 -0.399868 0.196632
0.504566 -0.810419 0.196632
0.279489 -0.448907 0.196632
0.021808 -0.035027 0.196632
0.120386 -0.193361 0.196632
0.056985 -0.091528 0.196632
0.349586 -0.561496 0.196632
0.316210 -0.507887 0.196632
0.409366 -0.657512 0.196632
0.537322 -0.863031 0.196632
0.782080 -1.256155 0.196632
0.453971 -0.722847 0.196632
0.629673 -1.002613 0.196632
0.138956 -0.221256 0.196632
0.756373 -1.204353 0.196632
0.414196 -0.659514 0.196632
0.770994 -1.227635 0.196632
0.831975 -1.324733 0.196632
0.540023 -0.859865 0.196632
0.270533 -0.430764 0.196632
0.744246 -1.185044 0.196632
0.443628 -0.705984 0.196632
0.767666 -1.221654 0.196632
0.334334 -0.532054 0.196632
0.080687 -0.128405 0.196632
0.546770 -0.870123 0.196632
0.369370 -0.587810 0.196632
0.627197 -0.998114 0.196632
0.172124 -0.273916 0.196632
0.496326 -0.789847 0.196632
0.119209 -0.189708 0.196632
0.546389 -0.837433 0.196632
0.421705 -0.646333 0.196632
0.524346 -0.803647 0.196632
0.475210 -0.728339 0.196632
0.388913 -0.596074 0.196632
0.513306 -0.786727 0.196632
0.481766 -0.738387 0.196632
0.688019 -1.054503 0.196632
0.015230 -0.023342 0.196632
0.302198 -0.463169 0.196632
0.831222 -1.273541 0.196632
0.048182 -0.073821 0.196632
0.072110 -0.110481 0.196632
0.341593 -0.523366 0.196632
0.466495 -0.714731 0.196632
0.000811 -0.001242 0.196632
0.298105 -0.456736 0.196632
0.446641 -0.684313 0.196632
0.562112 -0.861230 0.196632
0.222380 -0.340715 0.196632
0.832390 -1.250591 0.196632
0.745419 -1.119924 0.196632
0.333287 -0.500734 0.196632
0.255843 -0.384381 0.196632
0.354420 -0.532484 0.196632
0.589549 -0.885743 0.196632
0.675574 -1.014989 0.196632
0.047611 -0.071531 0.196632
0.499574 -0.750565 0.196632
0.127874 -0.192120 0.196632
0.804425 -1.141081 0.196632
0.176452 -0.250297 0.196632
0.758010 -1.075241 0.196632
0.238647 -0.338522 0.196632
0.611650 -0.867629 0.196632
0.824359 -1.169357 0.196632
0.304415 -0.431815 0.196632
0.751320 -1.065751 0.196632
0.029507 -0.041855 0.196632
0.063144 -0.089570 0.196632
0.389153 -0.513413 0.196632
0.919676 -1.213336 0.196632
0.164415 -0.216914 0.196632
0.890815 -1.175260 0.196632
0.723600 -0.954651 0.196632
0.916489 -1.209132 0.196632
0.610383 -0.805283 0.196632
0.828746 -1.093371 0.196632
0.493210 -0.650696 0.196632
0.824047 -1.087172 0.196632
0.217122 0.061159 0.196632
0.140306 0.039522 0.196632
0.253032 0.071274 0.196632
1.348171 0.379753 0.196632
1.557769 0.438792 0.196632
0.665492 0.187456 0.196632
0.526340 0.148259 0.196632
1.587016 0.447031 0.196632
1.236549 0.348311 0.196632
0.470700 0.132587 0.196632
1.213232 0.444257 0.196632
0.697503 0.255409 0.196632
0.961422 0.352050 0.196632
1.354680 0.496052 0.196632
0.733097 0.268443 0.196632
0.954332 0.349454 0.196632
0.532473 0.194979 0.196632
0.617581 0.226144 0.196632
0.713032 0.261096 0.196632
0.744281 0.272538 0.196632
0.726017 1.022514 0.196632
0.479367 0.675135 0.196632
0.018817 0.026502 0.196632
0.267734 0.377073 0.196632
0.220227 0.310165 0.196632
0.032580 0.045885 0.196632
0.166048 0.233860 0.196632
0.463511 0.652803 0.196632
0.296683 0.417844 0.196632
0.405074 0.570502 0.196632
0.341619 0.565774 0.196632
0.026761 0.044321 0.196632
0.261489 0.433065 0.196632
0.463435 0.767519 0.196632
0.349585 0.578966 0.196632
0.064791 0.107304 0.196632
0.653406 1.082140 0.196632
0.260017 0.430629 0.196632
0.596700 0.988226 0.196632
0.152534 0.252619 0.196632
0.381622 0.655330 0.196632
0.236651 0.406382 0.196632
0.466867 0.801714 0.196632
0.546186 0.937922 0.196632
0.205425 0.352760 0.196632
0.598908 1.028458 0.196632
0.023085 0.039642 0.196632
0.348165 0.597876 0.196632
0.015387 0.026423 0.196632
0.598888 1.028423 0.196632
0.084423 0.146996 0.196632
0.533626 0.929140 0.196632
0.248324 0.432378 0.196632
0.527645 0.918726 0.196632
0.242056 0.421463 0.196632
0.544972 0.948897 0.196632
0.508194 0.884858 0.196632
0.482364 0.839884 0.196632
0.059370 0.103374 0.196632
0.105892 0.184378 0.196632
0.162929 0.374642 0.196632
0.122962 0.282742 0.196632
0.271422 0.624114 0.196632
0.374769 0.861751 0.196632
0.120226 0.276451 0.196632
0.362065 0.832539 0.196632
0.183103 0.421031 0.196632
0.094868 0.218140 0.196632
0.435546 1.001502 0.196632
0.030189 0.069418 0.196632
0.253683 0.682636 0.196632
0.172511 0.464209 0.196632
0.092889 0.249955 0.196632
0.317471 0.854282 0.196632
0.341141 0.917976 0.196632
0.081013 0.217996 0.196632
0.004144 0.011151 0.196632
0.131290 0.353289 0.196632
0.302085 0.812878 0.196632
0.190346 0.512201 0.196632
0.039175 0.164360 0.196632
0.186107 0.780823 0.196632
0.051200 0.214814 0.196632
0.108736 0.456210 0.196632
0.136301 0.571861 0.196632
0.175395 0.735880 0.196632
0.167032 0.700795 0.196632
0.152791 0.641045 0.196632
0.030791 0.129186 0.196632
0.110101 0.461934 0.196632
0.013364 0.089939 0.196632
0.051355 0.345619 0.196632
0.000993 0.006685 0.196632
0.089829 0.604547 0.196632
0.093399 0.628568 0.196632
0.039385 0.265061 0.196632
0.066315 0.446298 0.196632
0.080292 0.540362 0.196632
0.078129 0.525802 0.196632
0.084208 0.566717 0.196632
-0.329172 0.162267 0.196632
-0.105917 0.052212 0.196632
-0.093895 0.046286 0.196632
-0.063005 0.031058 0.196632
-0.323367 0.159405 0.196632
-0.281445 0.138740 0.196632
-0.124309 0.061279 0.196632
-0.181217 0.089332 0.196632
-0.108006 0.053242 0.196632
-0.260047 0.128191 0.196632
-0.327148 0.156221 0.196632
-0.297650 0.142135 0.196632
-0.061351 0.029297 0.196632
-0.251271 0.119988 0.196632
-0.163361 0.078009 0.196632
-0.046294 0.022106 0.196632
-0.085148 0.040660 0.196632
-0.127292 0.060785 0.196632
-0.076218 0.036396 0.196632
-0.264056 0.126093 0.196632
-0.228949 0.109072 0.196632
-0.229995 0.109571 0.196632
-0.241236 0.114926 0.196632
-0.051138 0.024363 0.196632
-0.254260 0.121131 0.196632
-0.237394 0.113096 0.196632
-0.269261 0.128277 0.196632
-0.141150 0.067244 0.196632
-0.019921 0.009491 0.196632
-0.051125 0.024356 0.196632
-0.134100 0.054533 0.196632
-0.309343 0.125797 0.196632
-0.168828 0.068655 0.196632
-0.185445 0.075413 0.196632
-0.176003 0.071573 0.196632
-0.125743 0.051134 0.196632
-0.159899 0.065024 0.196632
-0.291014 0.118343 0.196632
-0.139033 0.056539 0.196632
-0.274080 0.111457 0.196632
-0.060305 0.022522 0.196632
-0.331011 0.123624 0.196632
-0.329882 0.123202 0.196632
-0.136295 0.050902 0.196632
-0.071035 0.026530 0.196632
-0.285264 0.106538 0.196632
-0.287647 0.107428 0.196632
-0.241314 0.090124 0.196632
-0.108644 0.040576 0.196632
-0.133877 0.049999 0.196632
-0.257026 0.082053 0.196632
-0.133863 0.042734 0.196632
-0.082921 0.026471 0.196632
-0.225667 0.072042 0.196632
-0.313976 0.100233 0.196632
-0.194906 0.062222 0.196632
-0.307542 0.098180 0.196632
-0.083568 0.026678 0.196632
-0.328362 0.104826 0.196632
-0.305369 0.097486 0.196632
-0.122842 0.036915 0.196632
-0.014777 0.004441 0.196632
-0.357921 0.107559 0.196632
-0.221517 0.066568 0.196632
-0.101496 0.030501 0.196632
-0.105381 0.031668 0.196632
-0.075215 0.022603 0.196632
-0.276341 0.083043 0.196632
-0.310684 0.093364 0.196632
-0.086766 0.026074 0.196632
-0.171838 0.048282 0.196632
-0.344075 0.096675 0.196632
-0.091116 0.025601 0.196632
-0.147844 0.041540 0.196632
-0.190661 0.053570 0.196632
-0.056095 0.015761 0.196632
-0.240197 0.067489 0.196632
-0.009418 0.002646 0.196632
-0.182660 0.051322 0.196632
-0.160149 0.044998 0.196632
-0.033261 0.008764 0.196632
-0.189353 0.049893 0.196632
-0.231952 0.061118 0.196632
-0.147332 0.038821 0.196632
-0.100458 0.026470 0.196632
-0.230797 0.060814 0.196632
-0.278060 0.073267 0.196632
-0.355520 0.093677 0.196632
-0.005303 0.001397 0.196632
-0.319752 0.084253 0.196632
-0.191562 0.050405 0.196632
-0.231383 0.060883 0.196632
-0.048941 0.012878 0.196632
-0.313931 0.082603 0.196632
-0.028955 0.007619 0.196632
-0.270681 0.071223 0.196632
-0.056823 0.014952 0.196632
-0.086857 0.022854 0.196632
-0.145028 0.038160 0.196632
-0.242896 0.063912 0.196632
-0.310306 0.079418 0.196632
-0.067438 0.017260 0.196632
-0.254832 0.065220 0.196632
-0.030826 0.007890 0.196632
-0.295675 0.075673 0.196632
-0.262032 0.067063 0.196632
-0.068312 0.017483 0.196632
-0.058269 0.014913 0.196632
-0.144036 0.036864 0.196632
-0.092643 0.023710 0.196632
-0.397707 0.094924 0.196632
-0.201094 0.047997 0.196632
-0.185938 0.044379 0.196632
-0.010663 0.002545 0.196632
-0.311955 0.074457 0.196632
-0.179553 0.042855 0.196632
-0.050480 0.012048 0.196632
-0.000886 0.000211 0.196632
-0.049973 0.011927 0.196632
-0.245462 0.058586 0.196632
-0.065927 0.014001 0.196632
-0.094505 0.020070 0.196632
-0.122816 0.026083 0.196632
-0.156209 0.033175 0.196632
-0.002392 0.000508 0.196632
-0.136404 0.028969 0.196632
-0.219212 0.046555 0.196632
-0.349549 0.074236 0.196632
-0.217514 0.046195 0.196632
-0.337870 0.071755 0.196632
-0.354200 0.073041 0.196632
-0.177800 0.036665 0.196632
-0.164050 0.033830 0.196632
-0.287283 0.059242 0.196632
-0.220634 0.045498 0.196632
-0.067641 0.013949 0.196632
-0.203954 0.042058 0.196632
-0.202154 0.041687 0.196632
-0.346385 0.071430 0.196632
-0.188750 0.038923 0.196632
-0.021511 0.004384 0.196632
-0.307460 0.062666 0.196632
-0.352413 0.071828 0.196632
-0.335623 0.068406 0.196632
-0.120943 0.024650 0.196632
-0.080868 0.016482 0.196632
-0.315540 0.064313 0.196632
-0.228587 0.046590 0.196632
-0.412084 0.083990 0.196632
-0.175618 0.035794 0.196632
-0.254627 0.050346 0.196632
-0.180253 0.035640 0.196632
-0.382894 0.075707 0.196632
-0.355391 0.070269 0.196632
-0.291458 0.057628 0.196632
-0.023265 0.004600 0.196632
-0.388505 0.076817 0.196632
-0.163790 0.032385 0.196632
-0.196337 0.038821 0.196632
-0.169694 0.033552 0.196632
-0.048740 0.009514 0.196632
-0.016664 0.003253 0.196632
-0.219695 0.042882 0.196632
-0.232472 0.045376 0.196632
-0.245344 0.047888 0.196632
-0.233989 0.045672 0.196632
-0.306685 0.059861 0.196632
-0.177932 0.034730 0.196632
-0.144263 0.028158 0.196632
-0.324468 0.063332 0.196632
-0.197836 0.024656 0.196632
-0.198493 0.024738 0.196632
-0.167289 0.020849 0.196632
-0.222594 0.027741 0.196632
-0.122124 0.015220 0.196632
-0.302583 0.037710 0.196632
-0.032702 0.004076 0.196632
-0.316508 0.039446 0.196632
-0.051727 0.006447 0.196632
-0.220985 0.027541 0.196632
-0.380844 0.031522 0.196632
-0.161122 0.013336 0.196632
-0.229070 0.018960 0.196632
-0.301791 0.024979 0.196632
-0.318846 0.026390 0.196632
-0.349953 0.028965 0.196632
-0.261601 0.021652 0.196632
-0.248326 0.020553 0.196632
-0.407748 0.033748 0.196632
-0.202602 0.016769 0.196632
-0.042843 0.001811 0.196632
-0.104707 0.004427 0.196632
-0.331115 0.013999 0.196632
-0.428433 0.018114 0.196632
-0.411659 0.017405 0.196632
-0.100259 0.004239 0.196632
-0.030489 0.001289 0.196632
-0.343463 0.014522 0.196632
-0.000911 0.000039 0.196632
-0.118970 0.005030 0.196632
-0.373075 -0.000221 9.717271
-0.195907 -0.000116 9.717271
-0.415183 -0.000246 9.717271
-0.500406 -0.000297 9.717271
-0.043716 -0.000026 9.717271
-0.209588 -0.000124 9.717271
-0.281085 -0.000167 9.717271
-0.309261 -0.000184 9.717271
-0.211522 -0.000126 9.717271
-0.283570 -0.000168 9.717271
-0.481874 -0.022613 9.717271
-0.213395 -0.010014 9.717271
-0.114327 -0.005365 9.717271
-0.166023 -0.007791 9.717271
-0.279861 -0.013133 9.717271
-0.432299 -0.020287 9.717271
-0.454199 -0.021314 9.717271
-0.593773 -0.027864 9.717271
-0.566789 -0.026598 9.717271
-0.181745 -0.008529 9.717271
-0.329043 -0.035297 9.717271
-0.273134 -0.029299 9.717271
-0.206260 -0.022126 9.717271
-0.058532 -0.006279 9.717271
-0.423653 -0.045446 9.717271
-0.078803 -0.008453 9.717271
-0.516552 -0.055411 9.717271
-0.549579 -0.058954 9.717271
-0.310901 -0.033351 9.717271
-0.090579 -0.009717 9.717271
-0.631784 -0.073500 9.717271
-0.479566 -0.055792 9.717271
-0.286910 -0.033378 9.717271
-0.094695 -0.011017 9.717271
-0.488193 -0.056795 9.717271
-0.466709 -0.054296 9.717271
-0.300620 -0.034973 9.717271
-0.150301 -0.017486 9.717271
-0.225998 -0.026292 9.717271
-0.011368 -0.001323 9.717271
-0.094095 -0.015702 9.717271
-0.333734 -0.055691 9.717271
-0.538309 -0.089829 9.717271
-0.082009 -0.013685 9.717271
-0.250395 -0.041784 9.717271
-0.583117 -0.097306 9.717271
-0.036110 -0.006026 9.717271
-0.300836 -0.050201 9.717271
-0.080668 -0.013461 9.717271
-0.435490 -0.072671 9.717271
-0.450120 -0.085061 9.717271
-0.032163 -0.006078 9.717271
-0.298777 -0.056461 9.717271
-0.543599 -0.102726 9.717271
-0.134657 -0.025447 9.717271
-0.017517 -0.003310 9.717271
-0.227706 -0.043031 9.717271
-0.543962 -0.102795 9.717271
-0.344209 -0.065047 9.717271
-0.660824 -0.124878 9.717271
-0.407742 -0.081348 9.717271
-0.500764 -0.099906 9.717271
-0.386376 -0.077085 9.717271
-0.343753 -0.068581 9.717271
-0.349042 -0.069637 9.717271
-0.111903 -0.022326 9.717271
-0.261787 -0.052229 9.717271
-0.351750 -0.070177 9.717271
-0.313140 -0.062474 9.717271
-0.545250 -0.108782 9.717271
-0.405813 -0.082925 9.717271
-0.019910 -0.004068 9.717271
-0.224884 -0.045953 9.717271
-0.017944 -0.003667 9.717271
-0.193731 -0.039588 9.717271
-0.069992 -0.014302 9.717271
-0.004086 -0.000835 9.717271
-0.169716 -0.034680 9.717271
-0.124649 -0.025471 9.717271
-0.429007 -0.087665 9.717271
-0.523304 -0.121056 9.717271
-0.399374 -0.092387 9.717271
-0.507059 -0.117298 9.717271
-0.199286 -0.046101 9.717271
-0.072690 -0.016815 9.717271
-0.236319 -0.054668 9.717271
-0.234391 -0.054222 9.717271
-0.070512 -0.016311 9.717271
-0.032897 -0.007610 9.717271
-0.489479 -0.113231 9.717271
-0.022836 -0.007869 9.717271
-0.251064 -0.086517 9.717271
-0.560291 -0.193077 9.717271
-0.544106 -0.187499 9.717271
-0.267638 -0.092228 9.717271
-0.363940 -0.125414 9.717271
-0.396287 -0.136561 9.717271
-0.343523 -0.118378 9.717271
-0.515268 -0.177562 9.717271
-0.393385 -0.135561 9.717271
-0.365581 -0.128659 9.717271
-0.200864 -0.070690 9.717271
-0.126136 -0.044391 9.717271
-0.049467 -0.017409 9.717271
-0.555971 -0.195663 9.717271
-0.178245 -0.062730 9.717271
-0.139623 -0.049137 9.717271
-0.200304 -0.070493 9.717271
-0.056731 -0.019965 9.717271
-0.034166 -0.012024 9.717271
-0.312610 -0.127510 9.717271
-0.019249 -0.007851 9.717271
-0.205895 -0.083982 9.717271
-0.162817 -0.066411 9.717271
-0.049823 -0.020322 9.717271
-0.191799 -0.078233 9.717271
-0.014077 -0.005742 9.717271
-0.022750 -0.009280 9.717271
-0.580477 -0.236770 9.717271
-0.592142 -0.241528 9.717271
-0.320944 -0.132809 9.717271
-0.543784 -0.225021 9.717271
-0.000699 -0.000289 9.717271
-0.126948 -0.052532 9.717271
-0.102608 -0.042460 9.717271
-0.548077 -0.226798 9.717271
-0.013815 -0.005717 9.717271
-0.544329 -0.225247 9.717271
-0.216414 -0.089554 9.717271
-0.417392 -0.172720 9.717271
-0.499268 -0.229157 9.717271
-0.100862 -0.046294 9.717271
-0.262559 -0.120511 9.717271
-0.037556 -0.017238 9.717271
-0.196210 -0.090058 9.717271
-0.095495 -0.043831 9.717271
-0.482599 -0.221506 9.717271
-0.476189 -0.218564 9.717271
-0.408741 -0.187606 9.717271
-0.360218 -0.165335 9.717271
-0.658571 -0.305399 9.717271
-0.100336 -0.046529 9.717271
-0.139098 -0.064504 9.717271
-0.225645 -0.104639 9.717271
-0.186543 -0.086505 9.717271
-0.248173 -0.115085 9.717271
-0.613270 -0.284392 9.717271
-0.055714 -0.025836 9.717271
-0.553772 -0.256801 9.717271
-0.632413 -0.293269 9.717271
-0.082315 -0.052113 9.717271
-0.561819 -0.355681 9.717271
-0.152654 -0.096644 9.717271
-0.254898 -0.161373 9.717271
-0.217401 -0.137634 9.717271
-0.510803 -0.323384 9.717271
-0.073334 -0.046427 9.717271
-0.016399 -0.010382 9.717271
-0.048289 -0.030571 9.717271
-0.440997 -0.279190 9.717271
-0.042918 -0.028405 9.717271
-0.000779 -0.000516 9.717271
-0.017747 -0.011746 9.717271
-0.143448 -0.094942 9.717271
-0.326976 -0.216410 9.717271
-0.029431 -0.019479 9.717271
-0.037233 -0.024642 9.717271
