3.065583 -0.226474 0.157406
2.923747 -0.215996 0.633482
2.993005 -0.221112 1.938183
2.825920 -0.208769 2.566356
2.628232 -0.194164 3.591516
2.670003 -0.197250 4.461903
2.883538 -0.486819 0.211182
2.893561 -0.488511 0.732436
2.753565 -0.464876 2.142050
2.562505 -0.432620 2.719733
2.505954 -0.423073 3.086361
2.470061 -0.417013 3.734172
2.708841 -0.723458 0.510751
2.579051 -0.688794 1.014237
2.541286 -0.678708 2.777101
2.432828 -0.649742 3.478583
2.381022 -0.635906 3.075532
2.428569 -0.648605 3.623078
2.824119 -1.038954 1.712668
2.569353 -0.945229 1.384721
2.361538 -0.868776 1.828627
2.381845 -0.876247 2.848717
2.340683 -0.861104 3.304035
2.339838 -0.860793 3.297319
2.373407 -0.873143 3.888511
2.305312 -0.848092 4.363341
2.754360 -1.345023 0.899256
2.663616 -1.300711 1.404909
2.530103 -1.235513 1.433504
2.335304 -1.140387 1.573843
2.276265 -1.111557 2.043293
2.318437 -1.132151 2.545776
2.350002 -1.147565 3.451218
2.399229 -1.171604 4.421897
2.519211 -1.533799 0.217556
2.506662 -1.526159 0.739032
2.463131 -1.499655 3.003102
2.234693 -1.360573 2.650155
2.242716 -1.365458 3.524722
2.293044 -1.396099 4.501897
2.461570 -1.841280 0.170523
2.348322 -1.756569 0.666468
2.383284 -1.782721 1.159871
2.461055 -1.840894 2.454842
2.485416 -1.859117 2.949238
2.335161 -1.746724 3.254129
2.218619 -1.659550 3.816268
2.311156 -1.728769 4.492106
2.200589 -1.989044 0.929343
2.199923 -1.988442 1.424673
2.223745 -2.009975 1.892131
2.175468 -1.966339 3.372917
2.091535 -1.890474 4.114826
2.233196 -2.018517 5.235484
2.262391 -2.488116 0.829736
2.193186 -2.412006 1.322420
2.214738 -2.435709 1.810189
2.120229 -2.331769 1.597460
2.059140 -2.264586 2.052320
2.090297 -2.298852 2.537462
2.105858 -2.315965 2.959278
2.216385 -2.437520 4.221782
2.096547 -2.305726 4.361465
1.983040 -2.180893 4.548940
2.046027 -2.694120 0.673498
1.972113 -2.596793 1.335435
1.991649 -2.622518 1.823187
2.017215 -2.656182 2.310176
2.046051 -2.694152 2.757357
2.082627 -2.742313 3.235853
2.125647 -2.798960 3.719470
2.108303 -2.776122 3.532645
1.865843 -3.019133 0.186441
1.849979 -2.993464 0.985450
1.863805 -3.015836 1.487284
1.903713 -3.080411 2.405402
1.923280 -3.112073 2.744828
1.954910 -3.163253 3.217770
1.946310 -3.149338 3.096456
1.997661 -3.232428 3.916097
1.585433 -3.178052 1.583720
1.601842 -3.210944 2.059054
1.621302 -3.249951 2.507926
1.601745 -3.210749 2.994071
1.576078 -3.159300 3.493088
1.599168 -3.205584 3.979036
1.626187 -3.259744 4.457924
1.220329 -3.182180 0.679256
1.166407 -3.041572 1.276864
1.177545 -3.070615 1.764693
1.192253 -3.108967 2.251784
1.208669 -3.151774 2.692605
1.230165 -3.207829 3.177724
1.175566 -3.065454 2.973426
1.156884 -3.016738 3.517480
1.108739 -2.891192 3.953401
1.071882 -2.795083 4.656233
0.840734 -2.983013 0.196552
0.809293 -2.871455 0.691424
0.814498 -2.889926 1.184984
0.822441 -2.918108 1.678049
0.823397 -2.921500 2.047875
0.845390 -2.999533 4.361465
0.519481 -2.888572 0.745628
0.523076 -2.908559 1.240167
0.540669 -3.006386 2.516462
0.536525 -2.983341 4.018148
0.512822 -2.851541 4.551579
0.268465 -3.020804 1.691189
0.259335 -2.918069 3.165047
0.234081 -2.633903 2.897297
0.239954 -2.699987 4.071614
0.227311 -2.557735 3.813752
0.227855 -2.563854 4.855359
-0.023455 -2.495330 1.041638
-0.023539 -2.504268 1.660822
-0.023491 -2.499197 2.493085
-0.023730 -2.524672 3.525547
-0.024283 -2.583508 3.914168
-0.023598 -2.510623 3.602943
-0.264092 -2.485553 0.235036
-0.259929 -2.446367 0.760264
-0.262685 -2.472307 1.365302
-0.264648 -2.490785 2.546801
-0.247812 -2.332330 2.195029
-0.247696 -2.331234 2.693235
-0.250802 -2.360472 3.155414
-0.255766 -2.407192 3.678067
-0.534462 -2.700613 0.471925
-0.508228 -2.568052 0.976213
-0.475393 -2.402138 1.117774
-0.442350 -2.235175 1.655640
-0.445792 -2.252566 2.206212
-0.455130 -2.299753 2.693235
-0.461006 -2.329440 3.162163
-0.471529 -2.382614 3.731951
-0.673796 -2.248609 1.915927
-0.659551 -2.201070 1.565976
-0.655608 -2.187912 2.063995
-0.684910 -2.285701 2.613638
-0.693646 -2.314853 3.095196
-0.701088 -2.339688 3.654195
-0.892830 -2.221716 1.018889
-0.916288 -2.280087 2.036050
-0.863158 -2.147879 1.816388
-0.860382 -2.140972 2.328055
-0.869375 -2.163351 2.804138
-0.888933 -2.212019 3.421883
-0.915763 -2.278783 3.906951
-0.886621 -2.206265 4.349414
-1.150236 -2.220176 0.315616
-1.131320 -2.183663 0.733360
-1.142848 -2.205915 1.331707
-1.155479 -2.230295 2.613928
-1.081453 -2.087411 2.255837
-1.083597 -2.091549 2.794574
-1.112686 -2.147696 3.307270
-1.132430 -2.185806 3.782028
-1.185113 -2.287494 4.736758
-1.371085 -2.137825 1.806662
-1.357110 -2.116036 1.410900
-1.342822 -2.093757 2.372182
-1.287690 -2.007795 2.354783
-1.290939 -2.012861 2.886217
-1.315751 -2.051547 3.441963
-1.337449 -2.085379 3.882878
-1.326045 -2.067598 4.641398
-1.892986 -2.415436 0.991101
-1.815991 -2.317191 1.485495
-1.703989 -2.174278 2.084458
-1.559491 -1.989899 2.979073
-1.562334 -1.993527 3.750542
-1.563381 -1.994863 3.592616
-2.016125 -2.132826 0.745628
-2.031015 -2.148578 1.266530
-2.050324 -2.169005 1.721022
-2.137168 -2.260875 3.008182
-1.999612 -2.115357 3.214516
-1.930574 -2.042323 4.061793
-1.894781 -2.004458 3.736553
-2.359662 -2.069347 0.850670
-2.362322 -2.071680 1.447072
-2.292691 -2.010615 1.914483
-2.325914 -2.039751 2.406436
-2.345078 -2.056558 2.867653
-2.460757 -2.158004 4.098258
-2.271628 -1.992144 3.959005
-2.152706 -1.887853 4.366462
-2.756978 -1.959877 0.660549
-2.662281 -1.892559 1.433037
-2.683590 -1.907707 1.816688
-2.717423 -1.931758 2.297201
-2.759153 -1.961423 2.776779
-2.809486 -1.997204 3.261682
-2.779639 -1.975986 2.983825
-2.780752 -1.976777 3.709170
-3.054537 -1.769204 0.553437
-3.044390 -1.763326 0.966138
-3.089436 -1.789417 1.840750
-3.126276 -1.810755 2.322067
-3.172288 -1.837405 2.808809
-3.145781 -1.822052 2.539955
-3.180989 -1.842445 3.779275
-3.098960 -1.794934 3.972616
-3.512408 -1.617299 0.926457
-3.412276 -1.571193 1.973716
-3.292254 -1.515929 2.437446
-3.274395 -1.507706 2.926790
-3.220024 -1.482670 3.418712
-3.243209 -1.493346 3.908400
-3.296881 -1.518059 4.387468
-3.106169 -1.070184 1.327538
-3.130405 -1.078534 2.044062
-3.176603 -1.094451 2.550080
-3.230611 -1.113058 3.035551
-3.293088 -1.134584 3.513305
-3.146196 -1.083975 3.311190
-3.287640 -0.820898 0.848281
-3.163986 -0.790022 1.341943
-3.195940 -0.798001 1.836184
-3.236597 -0.808153 2.316663
-3.281514 -0.819368 2.750883
-3.137163 -0.783325 2.543874
-3.035426 -0.757922 2.946191
-3.026723 -0.755749 4.516580
-3.088817 -0.459034 1.080683
-2.961394 -0.440097 1.482429
-2.969083 -0.441240 1.944761
-3.038676 -0.451582 2.441724
-3.014059 -0.447924 3.961519
-2.756570 -0.409658 4.771890
-2.963629 -0.172513 0.988631
-2.988857 -0.173982 1.482429
-2.996618 -0.174434 1.944761
-2.939564 -0.171112 3.458657
-2.836317 -0.165102 4.788760
-2.599131 -0.151296 5.002557
-2.967800 0.099352 1.008392
-3.058006 0.102372 2.317071
-3.080260 0.103117 2.765745
-2.830880 0.094768 3.380102
-2.601674 0.087095 4.034579
-2.587186 0.086610 4.928980
-2.954125 0.378717 1.628851
-2.761476 0.354020 2.323517
-2.624797 0.336497 3.664958
-2.458267 0.315148 3.374581
-2.443802 0.313294 3.795478
-2.591289 0.332202 4.792195
-2.998948 0.672500 0.013117
-2.888045 0.647630 1.325841
-2.707525 0.607149 1.929644
-2.496723 0.559878 3.022965
-2.371646 0.531830 3.004566
-2.358607 0.528906 3.479107
-2.416469 0.541881 4.034711
-2.482176 0.556616 5.084599
-2.916070 0.946936 0.918938
-2.788218 0.905419 0.626885
-2.621327 0.851224 2.776309
-2.262102 0.734573 2.539420
-2.274806 0.738698 3.098303
-2.343746 0.761085 3.630360
-2.609809 1.153042 2.745133
-2.371156 1.047603 3.284050
-2.186576 0.966053 2.879472
-2.236257 0.988003 3.495812
-2.280815 1.007689 3.983662
-2.277446 1.006200 4.816180
-2.678366 1.489618 0.886134
-2.567397 1.427901 1.379978
-2.503468 1.392346 2.844390
-2.242243 1.247061 3.273973
-2.100295 1.168115 2.987363
-2.143292 1.192028 3.549644
-2.195519 1.221075 4.097804
-2.144174 1.192518 4.488848
-2.533248 1.741609 0.190198
-2.346481 1.613207 2.457830
-2.135540 1.468185 2.139520
-2.241317 1.540907 3.477208
-2.191477 1.506642 3.751711
-2.087718 1.435307 3.585910
-2.263436 1.880775 0.969871
-2.155373 1.790981 1.620732
-2.021151 1.679451 2.264300
-2.057786 1.709892 2.947703
-2.123577 1.764560 3.586665
-2.089771 1.736470 3.457242
-2.139167 1.777515 4.039362
-2.072498 1.722117 4.417449
-2.105828 2.118419 0.809913
-2.121065 2.133747 1.303373
-2.119175 2.131846 1.666632
-2.153566 2.166443 2.264567
-2.181449 2.194492 2.651516
-2.094902 2.527758 1.686685
-2.120095 2.558157 2.173908
-2.149342 2.593446 2.627833
-2.127887 2.567559 2.303689
-2.157784 2.603633 2.954576
-2.156960 2.602638 5.053531
-1.970740 2.913470 0.946826
-1.899221 2.807739 0.880644
-1.863887 2.755502 1.931623
-1.876151 2.773633 2.184601
-1.901005 2.810376 2.841504
-1.936346 2.862622 3.326237
-1.976652 2.922210 3.803144
-1.955281 2.890615 3.558427
-1.865479 3.437502 0.766231
-1.864681 3.436031 1.292786
-1.887641 3.478340 1.975836
-1.817260 3.348649 2.283336
-1.751533 3.227534 2.859978
-1.803574 3.323429 3.644848
-1.822187 3.357728 3.886540
-1.553654 3.589232 0.766231
-1.553555 3.589003 1.318107
-1.571051 3.629421 1.944246
-1.577592 3.644532 2.388708
-1.556384 3.595538 3.377559
-1.462848 3.379452 3.660276
-1.472076 3.400771 4.386473
-1.118133 3.479026 0.524905
-1.050696 3.269197 0.704382
-1.002348 3.118765 1.582646
-1.016069 3.161458 2.154435
-1.027195 3.196077 2.524157
-1.049905 3.266737 3.145422
-1.071104 3.332698 3.629307
-1.094984 3.407001 4.105253
-0.744425 3.328904 0.776260
-0.710835 3.178697 1.270355
-0.717594 3.208923 1.758193
-0.726529 3.248879 2.245295
-0.694907 3.107472 2.028640
-0.723497 3.235317 3.220317
-0.717204 3.207177 2.999430
-0.696202 3.113263 3.410203
-0.368220 2.942341 0.902991
-0.371141 2.965680 1.396876
-0.378219 3.022242 1.868524
-0.379325 3.031078 2.264567
-0.382524 3.056638 2.752632
-0.099183 2.957439 0.718499
-0.099008 2.952222 1.213803
-0.099932 2.979780 1.674940
-0.101250 3.019062 2.168332
-0.099537 2.968003 3.630007
0.180985 2.935232 0.917114
0.182450 2.959001 1.411497
0.184348 2.989778 1.865812
0.187166 3.035484 2.385150
0.196941 3.194010 3.648769
0.179173 2.905849 3.402782
0.170228 2.760773 4.390819
0.160627 2.605060 4.370643
0.467944 3.037680 0.065586
0.446059 2.895616 0.554312
0.452358 2.936507 1.047912
0.456390 2.962681 1.541647
0.457997 2.973115 2.023689
0.451107 2.928384 4.212608
0.392740 2.549492 4.045332
0.394122 2.558461 5.054399
0.730224 2.740161 0.775204
0.742401 2.785854 1.701693
0.761317 2.856838 2.540042
0.755633 2.835508 2.569042
0.689424 2.587058 3.164145
0.672882 2.524987 4.094749
0.650369 2.440506 3.703593
1.051873 2.888791 0.209873
1.003763 2.756664 0.706049
1.010434 2.774987 1.200621
0.973174 2.672658 2.665695
0.906099 2.488448 3.678308
0.860727 2.363840 3.636500
1.278100 2.672329 0.817340
1.287186 2.691326 1.298139
1.220103 2.551065 3.158142
1.113361 2.327882 3.894090
1.081263 2.260770 3.740886
1.502491 2.527152 0.897330
1.515041 2.548260 1.411497
1.531321 2.575642 1.878972
1.551246 2.609157 2.326036
1.464327 2.462961 2.851006
1.374440 2.311773 3.440760
1.420791 2.389734 4.032724
1.405292 2.363666 4.579276
1.738950 2.371580 0.917114
1.753032 2.390785 1.411497
1.771567 2.416063 1.872392
1.798729 2.453106 2.391717
1.862487 2.540059 4.673586
1.612618 2.199288 4.315440
1.978384 2.238797 0.829659
1.972758 2.232431 1.219134
1.975176 2.235167 1.694690
2.001076 2.264476 2.181478
2.035898 2.303882 2.700172
2.321389 2.166745 0.313496
2.315192 2.160961 1.445566
2.413333 2.252564 1.927149
2.445788 2.282857 2.413949
2.336565 2.180910 2.165703
2.281252 2.129282 2.661866
2.324719 2.169853 3.152208
2.350240 2.193674 3.579813
2.367890 2.210149 4.866107
2.155373 2.011789 4.815569
2.584762 2.007710 1.537119
2.610085 2.027380 1.972621
2.646942 2.056009 2.472301
2.690801 2.090075 2.957956
2.741753 2.129653 3.435924
2.801156 2.175794 3.918922
2.774857 2.155366 3.713032
3.401975 2.148151 -0.018899
3.279585 2.070869 0.494518
3.293383 2.079582 1.001482
3.324154 2.099011 1.640812
3.243719 2.048222 2.537506
3.124015 1.972635 3.038962
3.085881 1.948556 3.266398
3.077140 1.943037 4.015540
3.053365 1.928024 4.145850
3.502703 1.801238 1.367274
3.491209 1.795328 1.126945
3.508386 1.804161 1.824174
3.544763 1.822867 2.285208
3.458452 1.778482 2.981558
3.344481 1.719874 3.511112
3.448503 1.773366 4.216595
3.492807 1.796149 4.482562
3.328053 1.711426 4.445648
3.263276 1.290789 1.696566
3.138093 1.241273 2.195267
3.182430 1.258810 2.661119
3.186182 1.260294 2.909631
3.255189 1.287590 3.629307
3.328805 1.316709 4.111674
3.411580 1.349450 4.592321
3.293599 1.302783 4.972093
3.180757 0.910149 1.691415
3.243310 0.928048 2.182314
3.286141 0.940304 2.622335
3.317824 0.949370 3.103402
3.359843 0.961393 3.590649
3.209836 0.918470 3.389044
2.947597 0.568235 1.171828
2.976083 0.573727 1.664909
2.985446 0.575532 2.106990
3.057110 0.589347 2.596399
2.995260 0.577423 3.981215
2.800973 0.539969 4.972439
2.924647 0.271881 0.818185
2.946345 0.273898 1.312661
3.001470 0.279023 1.784998
3.043460 0.282926 2.284257
3.083275 0.286628 4.392145
3.026285 0.281330 5.132962
3.073981 -0.000014 0.163964
2.932420 -0.000014 0.659871
2.950975 -0.000014 1.154479
3.046510 -0.000014 2.437683
3.076584 -0.000014 2.932613
2.942658 -0.000014 3.445469
2.679074 -0.000012 3.177478
2.716480 -0.000013 3.627231
2.926328 -0.273702 0.870949
2.793628 -0.261291 2.287985
2.606504 -0.243789 2.886870
2.708873 -0.253364 4.131519
2.523827 -0.236056 3.763954
2.634400 -0.246398 5.084369
3.019946 -0.571413 0.072145
2.794439 -0.528744 1.000364
2.696944 -0.510296 1.504407
2.581503 -0.488454 1.625688
2.449795 -0.463533 2.432641
2.440941 -0.461858 3.230138
2.384167 -0.451115 2.970893
2.427425 -0.459300 3.499029
2.629464 -0.752814 1.338168
2.631053 -0.753269 1.758753
2.492633 -0.713639 2.422812
2.389146 -0.684011 3.236857
2.457742 -0.703650 3.740074
2.399456 -0.686963 3.317468
2.451934 -0.701987 3.864505
2.435545 -0.697295 4.508955
2.882014 -1.124274 0.983519
2.653557 -1.035154 1.099673
2.424400 -0.945759 1.191237
2.332296 -0.909830 1.647394
2.326519 -0.907576 2.472939
2.313566 -0.902523 3.223418
2.402997 -0.937410 3.887396
2.498762 -0.974768 4.488567
2.480057 -1.240938 1.909723
2.283845 -1.142760 2.277904
2.335579 -1.168646 2.833400
2.390345 -1.196049 3.838417
2.513237 -1.257540 4.629731
2.493538 -1.247683 4.647681
2.615108 -1.642809 0.845887
2.480614 -1.558320 0.541116
2.555885 -1.605605 1.837592
2.408406 -1.512959 2.424726
2.222827 -1.396378 2.947007
2.300257 -1.445020 3.627231
2.343144 -1.471961 3.953039
2.196368 -1.379757 4.421865
2.324409 -1.796453 0.831377
2.387802 -1.845447 2.135465
2.357604 -1.822108 3.695862
2.231605 -1.724728 4.121454
2.186482 -1.689853 3.769772
2.281893 -1.763593 4.615702
2.159296 -1.998317 0.950088
2.177270 -2.014950 1.444437
2.218268 -2.052892 1.890176
2.284729 -2.114398 4.199939
2.067116 -1.913008 3.945029
2.114805 -1.957142 4.602481
1.989324 -2.242326 1.079726
2.007327 -2.262619 1.572914
2.030167 -2.288363 2.032633
2.061095 -2.323225 2.524362
2.100883 -2.368073 3.041172
2.146766 -2.419791 3.543541
2.028694 -2.286703 3.865604
1.922059 -2.166506 4.408290
1.930115 -2.629983 1.361465
1.956039 -2.665307 1.985611
1.982615 -2.701518 2.465818
2.015394 -2.746183 2.951488
2.053489 -2.798092 3.429474
2.098545 -2.859486 3.918922
2.092274 -2.850941 3.854613
1.840037 -3.068386 1.601308
1.838926 -3.066532 1.569201
1.846314 -3.078852 2.078308
1.880723 -3.136233 2.732030
1.934633 -3.226131 3.517483
1.974144 -3.292017 3.994532
1.968163 -3.282044 4.488831
1.925957 -3.211663 4.590661
1.528741 -3.190952 0.836492
1.527480 -3.188318 1.320070
1.541064 -3.216672 1.795785
1.513925 -3.160024 2.235296
1.473745 -3.076156 2.557679
1.510347 -3.152557 3.248415
1.518912 -3.170435 3.561143
1.554523 -3.244765 4.214363
1.133822 -3.068462 1.511101
1.146262 -3.102131 1.998601
1.160758 -3.141360 2.446368
1.179546 -3.192206 2.925615
1.127708 -3.051916 2.726217
1.105522 -2.991876 3.224018
1.120848 -3.033351 3.703645
0.807378 -3.019577 0.327239
0.777216 -2.906772 0.710437
0.775822 -2.901560 1.204718
0.775305 -2.899622 1.600856
0.786715 -2.942298 2.166092
0.811954 -3.036690 4.370076
0.468825 -2.931392 0.988631
0.472816 -2.956346 1.482429
0.494096 -3.089400 2.733858
0.455950 -2.850891 2.821652
0.439546 -2.748320 3.895941
0.453646 -2.836484 4.276086
0.450020 -2.813810 4.143755
0.417778 -2.612213 4.426346
0.186729 -2.826761 2.559732
0.169849 -2.571227 2.255515
0.173628 -2.628438 2.810495
0.179481 -2.717031 4.144828
0.168575 -2.551945 3.746773
0.171366 -2.594191 4.455308
-0.089132 -2.920119 1.056680
-0.085358 -2.796469 1.088668
-0.078725 -2.579169 1.252692
-0.075284 -2.466455 2.157105
-0.074164 -2.429737 2.792899
-0.077206 -2.529407 3.565792
-0.079554 -2.606333 4.061324
-0.077056 -2.524502 3.703593
-0.290260 -2.394561 1.382930
-0.286043 -2.359777 2.267067
-0.291883 -2.407956 2.745757
-0.286646 -2.364746 2.321050
-0.292981 -2.417007 2.826566
-0.295926 -2.441307 3.418334
-0.299536 -2.471084 3.956793
-0.295884 -2.440957 4.654851
-0.483858 -2.189220 1.474140
-0.490909 -2.221122 1.948817
-0.523575 -2.368920 3.361159
-0.506542 -2.291855 2.939315
-0.517133 -2.339773 3.509568
-0.537085 -2.430049 4.108628
-0.537678 -2.432732 5.200595
-0.704227 -2.229717 1.794286
-0.695821 -2.203103 1.354685
-0.698837 -2.212652 1.890800
-0.714042 -2.260796 2.465179
-0.722823 -2.288597 2.960395
-0.726566 -2.300449 3.445415
-0.751629 -2.379804 3.997095
-0.758293 -2.400902 4.957173
-0.973607 -2.269001 1.009078
-0.968536 -2.257184 2.022597
-0.914778 -2.131899 1.884036
-0.927226 -2.160910 2.521706
-0.925539 -2.156979 2.939315
-0.944891 -2.202077 3.509568
-0.976966 -2.276829 4.041432
-0.927700 -2.162015 4.493240
-1.254599 -2.332490 0.060071
-1.162269 -2.160833 0.504644
-1.171799 -2.178551 1.116643
-1.164659 -2.165277 2.334224
-1.091908 -2.030023 2.014551
-1.123729 -2.089182 2.478679
-1.140769 -2.120862 3.027807
-1.138300 -2.116272 3.556765
-1.493862 -2.216114 1.087589
-1.407773 -2.088404 1.491427
-1.427396 -2.117513 1.987624
-1.415054 -2.099204 1.692673
-1.400461 -2.077556 2.553514
-1.344085 -1.993923 2.550350
-1.378942 -2.045632 3.095705
-1.407813 -2.088462 3.656631
-1.783371 -2.200247 2.553108
-1.619117 -1.997598 2.195262
-1.638719 -2.021781 2.753171
-1.678450 -2.070799 3.791735
-1.590347 -1.962102 3.703593
-2.064162 -2.090620 0.837972
-2.080013 -2.106675 1.339020
-2.036053 -2.062151 3.115445
-1.981595 -2.006995 4.121454
-1.938648 -1.963497 3.743197
-2.475790 -2.090147 0.892719
-2.493558 -2.105147 1.380986
-2.389400 -2.017213 1.172307
-2.316271 -1.955475 1.671479
-2.344449 -1.979264 2.137613
-2.354637 -1.987865 2.533532
-2.467029 -2.082750 3.831335
-2.250672 -1.900094 3.465251
-2.218208 -1.872686 4.304775
-2.203563 -1.860322 5.000478
-2.682658 -1.854907 1.348450
-2.707405 -1.872019 1.803690
-2.752958 -1.903516 2.426917
-2.797874 -1.934573 2.912677
-2.850191 -1.970747 3.390768
-2.825880 -1.953938 3.177724
-3.069983 -1.734834 1.146354
-3.095858 -1.749456 1.647997
-3.153214 -1.781868 2.411811
-3.200437 -1.808553 2.891952
-3.177336 -1.795498 2.668025
-3.184322 -1.799447 3.821654
-3.179269 -1.796591 4.370077
-3.535097 -1.563418 0.888402
-3.432712 -1.518138 1.935479
-3.311774 -1.464653 2.405402
-3.251561 -1.438023 2.724313
-3.215194 -1.421940 3.390112
-3.276232 -1.448934 3.979036
-3.337568 -1.476060 4.357275
-3.261365 -1.081163 0.768983
-3.108626 -1.030529 1.125967
-3.117120 -1.033345 1.699687
-3.160011 -1.047564 2.245295
-3.204111 -1.062183 2.692605
-3.261920 -1.081347 3.184184
-3.327487 -1.103084 3.661514
-3.179710 -1.054094 3.466861
-3.190567 -0.746563 1.595652
-3.227199 -0.755134 2.083022
-3.283249 -0.768249 2.660221
-3.245934 -0.759518 2.539773
-3.145297 -0.735970 2.742086
-3.214121 -0.430973 0.964360
-3.082647 -0.413344 0.753334
-2.978833 -0.399424 1.244182
-2.980636 -0.399665 1.686363
-2.991635 -0.401140 2.142039
-3.081061 -0.413131 4.457652
-2.933414 -0.131918 0.791802
-2.954645 -0.132873 1.286301
-3.057074 -0.137479 2.568966
-2.913221 -0.131010 3.254129
-2.760835 -0.124157 4.377533
-3.069245 0.165070 0.111496
-2.951764 0.158752 0.606466
-3.138613 0.168801 2.858148
-2.854357 0.153513 2.563729
-2.654566 0.142768 3.745040
-2.520181 0.135541 3.518839
-2.565700 0.137989 4.136472
-2.428211 0.130594 4.646021
-2.774214 0.407321 2.268090
-2.483791 0.364680 2.600504
-2.521353 0.370195 3.686468
-2.470280 0.362696 3.324184
-2.545746 0.373776 3.847231
-2.657610 0.390201 4.777804
-2.985658 0.730315 0.111496
-2.871377 0.702361 0.606466
-2.812003 0.687838 2.887735
-2.499322 0.611354 3.136815
-2.394715 0.585766 3.082256
-2.460957 0.601969 3.585910
-2.682767 0.927473 2.612720
-2.395694 0.828227 2.821897
-2.295296 0.793518 2.772697
-2.424134 0.838059 4.109685
-2.331517 0.806040 3.815652
-2.565218 0.886834 5.285825
-2.507009 1.136293 1.964851
-2.356204 1.067941 3.243906
-2.189674 0.992462 2.994104
-2.205939 0.999834 3.512791
-2.257615 1.023256 4.048153
-2.182134 0.989044 4.589967
-2.558244 1.458985 1.022622
-2.455459 1.400366 2.500107
-2.288202 1.304978 2.810495
-2.275858 1.297938 3.484633
-2.128115 1.213679 3.159386
-2.151012 1.226738 3.711038
-2.311676 1.653598 2.404862
-2.120629 1.516938 2.313406
-2.219194 1.587443 3.537093
-2.069770 1.480557 3.113174
-2.033291 1.454462 3.700601
-2.321349 2.015750 0.216432
-2.215280 1.923644 0.712646
-2.141161 1.859283 2.338636
-2.057659 1.786774 3.334012
-2.115350 1.836870 4.008741
-2.072769 1.799894 3.650150
-2.392448 2.464661 0.736683
-2.179595 2.245382 0.530101
-2.086064 2.149029 1.020509
-2.104116 2.167626 1.513762
-2.104102 2.167611 1.870458
-2.118735 2.182686 2.391717
-2.119754 2.183736 4.090401
-1.981323 2.041127 4.404000
-2.101520 2.659101 0.867699
-2.022516 2.559134 1.354958
-2.042792 2.584791 1.842683
-2.069250 2.618268 2.329637
-2.099510 2.656557 2.783252
-2.081988 2.634387 2.530638
-2.042852 2.584867 3.064425
-1.989211 2.516994 3.534166
-1.913479 2.421168 4.042702
-1.926209 2.437275 5.324415
-1.876355 2.904594 0.671371
-1.862256 2.882769 1.261054
-1.876903 2.905443 1.693695
-1.833465 2.838201 2.240598
-1.838897 2.846610 2.586252
-1.864240 2.885841 3.177724
-1.902194 2.944592 3.661514
-1.878777 2.908344 3.371411
-1.866565 3.564528 0.107092
-1.800260 3.437906 0.583261
-1.810002 3.456510 1.147156
-1.828070 3.491013 1.767280
-1.778034 3.395461 2.505750
-1.697318 3.241320 2.524470
-1.739778 3.322404 3.441013
-1.743286 3.329104 3.491997
-1.775912 3.391409 4.081371
-1.832228 3.498955 5.084485
-1.510984 3.739929 0.686550
-1.462108 3.618954 0.468657
-1.458651 3.610397 0.976143
-1.469310 3.636779 1.507969
-1.470769 3.640391 1.902058
-1.450579 3.590418 3.048158
-1.410943 3.492311 3.549334
-1.403361 3.473545 3.898879
-1.360677 3.367895 4.122292
-0.991454 3.242540 0.906533
-0.969026 3.169188 1.391083
-0.966453 3.160773 1.645950
-0.976936 3.195057 2.368554
-0.991423 3.242437 2.822088
-1.009750 3.302378 3.306873
-1.030671 3.370800 3.783839
-1.054402 3.448412 4.259264
-1.007451 3.294857 4.068622
-0.952093 3.113810 4.430276
-0.644804 3.212235 1.589149
-0.652182 3.248991 2.076529
-0.660431 3.290084 2.511194
-0.671517 3.345312 2.996758
-0.641815 3.197343 2.791301
-0.629661 3.136798 3.295800
-0.663046 3.303112 4.489786
-0.625977 3.118443 4.701454
-0.566768 2.823482 4.726206
-0.327436 2.980833 1.106043
-0.327040 2.977229 1.502169
-0.331489 3.017724 2.054444
-0.335511 3.054342 2.448283
-0.329205 2.996939 3.919563
-0.332925 3.030797 5.295852
-0.035614 2.993413 0.987608
-0.035622 2.994110 1.489009
-0.035729 3.003078 1.964495
-0.036009 3.026618 3.991865
-0.035075 2.948169 4.815569
-0.036307 3.051704 5.308982
0.226585 2.927624 0.791802
0.228225 2.948813 1.286301
0.230422 2.977209 1.740770
0.224080 2.895260 3.161685
0.210029 2.713708 4.138174
0.536033 3.051702 0.000000
0.510957 2.908944 0.494419
0.517903 2.948485 0.987608
0.518165 2.949975 1.502169
0.533451 3.037003 2.778857
0.515202 2.933109 4.298235
0.445130 2.534182 4.005167
0.446651 2.542841 5.020941
0.759300 2.731811 0.761957
0.791578 2.847938 1.253349
0.764672 2.751137 2.764988
0.727088 2.615918 4.098242
0.676096 2.432457 3.696885
1.093526 2.872901 0.163964
1.043167 2.740600 0.659871
1.058651 2.781280 1.153286
1.019384 2.678118 2.629892
0.945326 2.483554 3.738368
0.954141 2.506711 4.488567
1.367255 2.780463 0.032759
1.292501 2.628442 0.521322
1.310706 2.665465 1.028152
1.350166 2.745711 2.317071
1.324094 2.692690 1.931604
1.245261 2.532375 2.453721
1.161579 2.362198 3.007126
1.202560 2.445538 4.158136
1.130602 2.299204 3.938201
1.184188 2.408175 5.495151
1.551945 2.528514 0.942518
1.583950 2.580657 2.247196
1.496872 2.438784 2.817926
1.406885 2.292173 3.440760
1.445039 2.354335 4.370890
1.450904 2.363892 4.960934
1.758686 2.353114 0.831377
1.771894 2.370785 1.325841
1.789099 2.393806 1.773681
1.821271 2.436852 4.083834
1.754173 2.347075 4.723236
1.787509 2.391679 5.000023
1.970741 2.176232 0.778610
2.005463 2.214575 1.377130
2.019886 2.230501 1.712668
2.030072 2.241750 2.207767
2.014554 2.224614 3.834069
2.327789 2.137333 1.721647
2.317091 2.127510 1.505927
2.248926 2.064922 1.960436
2.282168 2.095444 2.452303
2.322812 2.132763 2.943145
2.351562 2.159160 4.631392
2.726452 2.059644 0.937904
2.620012 1.979236 1.295032
2.633696 1.989573 1.920652
2.669015 2.016254 2.407464
2.711641 2.048455 2.886799
2.762709 2.087033 3.371411
2.822514 2.132212 3.861045
2.793176 2.110049 3.629307
3.424486 2.130392 0.667659
3.315704 2.062718 0.550975
3.312971 2.061018 1.147156
3.221801 2.004301 2.117979
3.086197 1.919941 2.533550
3.139994 1.953408 3.064517
3.197371 1.989103 3.542965
3.263045 2.029959 4.019930
3.253629 2.024101 4.514241
3.078825 1.915355 4.229180
3.501681 1.736248 0.683934
3.500008 1.735418 1.242137
3.536719 1.753621 1.855777
3.581419 1.775784 2.398756
3.481988 1.726483 2.962548
3.402153 1.686899 3.746663
3.373657 1.672769 3.542965
3.265174 1.239660 1.445324
3.147803 1.195099 2.111059
3.176158 1.205864 2.428310
3.183858 1.208788 2.735069
3.239552 1.229933 3.390768
3.330112 1.264315 4.008906
3.411369 1.295165 4.489937
3.267030 0.907501 0.906533
3.169444 0.880394 1.399041
3.177803 0.882716 1.888167
3.219189 0.894212 2.368554
3.266186 0.907267 2.815616
3.326452 0.924007 3.300418
3.395265 0.943122 3.777404
3.243399 0.900937 3.577038
2.947050 0.527545 0.994188
2.972032 0.532017 1.487469
3.004828 0.537887 1.953872
3.049119 0.545816 2.445751
3.066475 0.548923 2.834919
3.152027 0.564237 4.934815
2.978451 0.251698 0.869150
3.001194 0.253620 1.362555
3.005168 0.253956 1.804722
3.111685 0.262957 3.099837
3.124674 0.264055 4.601649
3.004175 0.253872 5.138173
3.073633 -0.036912 0.144289
2.931677 -0.035207 0.640079
2.949518 -0.035421 1.128110
2.954811 -0.035485 3.531173
2.672861 -0.032099 3.130809
2.732342 -0.032813 3.733691
2.994354 -0.312092 1.732396
3.034610 -0.316288 2.225181
2.870802 -0.299214 2.815042
2.672470 -0.278543 3.237464
2.631613 -0.274285 2.910648
2.707159 -0.282158 4.138174
2.796412 -0.291461 4.636362
2.600702 -0.271063 4.397380
2.920982 -0.583777 1.635435
2.756361 -0.550876 2.341033
2.531588 -0.505954 3.203754
2.410906 -0.481835 3.226661
2.453450 -0.490337 3.714030
2.609953 -0.521616 4.782601
2.620986 -0.780545 1.331517
2.561889 -0.762945 2.927700
2.452103 -0.730250 3.753472
2.399031 -0.714445 3.371189
2.462001 -0.733198 3.820449
2.460473 -0.732743 4.689890
2.887039 -1.163922 0.831913
2.768568 -1.116160 1.331054
2.543567 -1.025450 0.964588
2.312751 -0.932396 1.492939
2.353612 -0.948869 2.096935
2.394891 -0.965510 2.565855
2.469062 -0.995413 3.240747
2.422920 -0.976810 3.431166
2.387360 -0.962475 4.011862
2.247046 -0.905906 4.459647
2.269933 -1.199182 2.148389
2.240920 -1.183855 1.732909
2.258056 -1.192908 2.277904
2.307164 -1.218851 2.813346
2.391526 -1.263418 3.547340
2.416105 -1.276403 3.733691
2.382570 -1.258687 4.417449
2.372969 -1.552538 2.586227
2.249947 -1.472050 3.250791
2.211447 -1.446861 2.883945
2.253752 -1.474539 3.467411
2.303703 -1.507220 4.317732
2.183761 -1.428747 4.508799
2.300024 -1.826490 0.811590
2.361930 -1.875650 2.115743
2.301495 -1.827658 3.419090
2.209579 -1.754666 4.128082
2.163234 -1.717862 3.763129
2.211217 -1.755967 4.428343
2.114096 -2.039785 0.831377
2.129712 -2.054853 1.319251
2.152057 -2.076412 1.800007
2.184389 -2.107607 3.889277
2.114399 -2.040078 4.632734
2.054538 -1.982321 4.320143
2.199064 -2.543664 0.816776
2.031438 -2.349770 0.609252
2.070871 -2.395382 1.806591
2.060589 -2.383489 1.584385
2.001040 -2.314609 2.039195
2.031607 -2.349966 2.530912
2.046133 -2.366769 2.946191
1.990042 -2.301887 3.612294
1.904676 -2.203144 4.065124
1.935962 -2.239333 4.614852
1.983796 -2.803360 0.717303
1.899046 -2.683597 1.366541
1.899126 -2.683711 1.751693
1.922700 -2.717024 2.238806
1.949890 -2.755447 2.692605
1.984569 -2.804453 3.177724
2.024396 -2.860733 3.655073
2.005948 -2.834664 3.442374
1.854740 -3.196954 1.029264
1.784686 -3.076204 1.654424
1.802401 -3.106739 2.097561
1.833630 -3.160568 2.706430
1.882008 -3.243955 3.441013
1.924094 -3.316497 3.969130
1.902080 -3.278553 3.858841
1.479726 -3.224886 1.532291
1.494852 -3.257851 2.014123
1.511837 -3.294868 2.443854
1.498784 -3.266420 3.038993
1.429269 -3.114921 2.916093
1.463630 -3.189807 3.687275
1.514683 -3.301070 4.400281
1.135949 -3.215112 0.737460
1.085435 -3.072142 1.289880
1.095886 -3.101722 1.777693
1.109658 -3.140702 2.264761
1.125257 -3.184852 2.712033
1.145389 -3.241833 3.197103
1.153139 -3.263768 3.364958
1.118816 -3.166620 3.525200
1.034805 -2.928841 4.012360
1.007391 -2.851253 4.937316
0.745683 -3.025647 0.923577
0.721545 -2.927704 1.421730
0.729585 -2.960326 1.907918
0.731871 -2.969602 2.303946
0.714714 -2.899986 3.741945
0.692119 -2.808306 4.525150
0.427613 -2.911900 0.976465
0.431485 -2.938264 1.497136
0.428923 -2.920818 3.511399
0.414459 -2.822325 4.306906
0.412934 -2.811939 4.247323
0.403579 -2.748237 4.980853
0.161034 -3.069903 0.183640
0.155462 -2.963683 1.464200
0.154438 -2.944167 1.095147
0.146283 -2.788697 2.142050
0.134268 -2.559647 2.101509
0.142479 -2.716173 3.477208
0.137493 -2.621127 3.518041
0.139676 -2.662740 4.401890
-0.108871 -2.724914 1.619066
-0.100079 -2.504855 1.283368
-0.098213 -2.458150 2.069681
-0.099046 -2.479011 2.304989
-0.104926 -2.626173 2.973729
-0.108392 -2.712921 4.098242
-0.100992 -2.527716 3.730423
-0.103645 -2.594117 4.573534
-0.334293 -2.442622 0.914943
-0.332312 -2.428147 1.955320
-0.313744 -2.292471 1.802857
-0.333132 -2.434137 3.213208
-0.329612 -2.408418 2.792899
-0.335558 -2.451864 3.347695
-0.334641 -2.445164 3.822376
-0.327858 -2.395602 4.432700
-0.616223 -2.682501 0.438695
-0.549208 -2.390776 0.477734
-0.502586 -2.187826 1.031849
-0.508196 -2.212245 1.520109
-0.521043 -2.268170 1.978720
-0.550372 -2.395843 3.411607
-0.526586 -2.292301 2.979851
-0.538653 -2.344828 3.576988
-0.727563 -2.195597 1.402050
-0.741606 -2.237976 2.044277
-0.733563 -2.213703 1.706406
-0.733028 -2.212089 2.305437
-0.731240 -2.206692 2.743281
-0.743281 -2.243032 3.266644
-0.768532 -2.319233 3.826206
-0.772633 -2.331608 4.641398
-1.061520 -2.426522 0.080094
-0.983323 -2.247771 0.497917
-0.989804 -2.262587 1.022525
-0.958452 -2.190919 1.458524
-0.932312 -2.131166 1.965195
-0.942716 -2.154949 2.528462
-0.957578 -2.188922 3.078069
-0.970315 -2.218037 3.506055
-1.198149 -2.154667 0.914943
-1.213689 -2.182613 1.553386
-1.174412 -2.111981 1.836038
-1.146791 -2.062309 2.350399
-1.166385 -2.097545 2.960395
-1.170154 -2.104322 3.411718
-1.198236 -2.154823 3.967482
-1.176888 -2.116434 4.592141
-1.565540 -2.290437 0.212491
-1.513717 -2.214619 0.666688
-1.445086 -2.114208 2.074716
-1.430411 -2.092739 1.739614
-1.440636 -2.107698 2.976067
-1.426344 -2.086789 3.545670
-1.396435 -2.043031 3.156211
-1.440307 -2.107218 3.713273
-1.823259 -2.190276 1.132772
-1.654629 -1.987701 2.355906
-1.687248 -2.026887 2.837207
-1.662649 -1.997336 2.483012
-1.687281 -2.026926 3.047195
-1.777350 -2.135126 4.457227
-1.650344 -1.982554 4.045332
-1.600288 -1.922422 4.744254
-2.111040 -2.077444 0.804162
-2.108824 -2.075264 1.306071
-2.077251 -2.044193 3.240926
-1.911384 -1.880965 3.197475
-1.948359 -1.917352 3.740343
-2.503364 -2.057426 0.899232
-2.521431 -2.072275 1.387493
-2.514038 -2.066199 1.211775
-2.438230 -2.003895 1.662827
-2.344967 -1.927245 2.047875
-2.366886 -1.945260 2.601774
-2.245458 -1.845463 3.181498
-2.103499 -1.728791 3.497172
-2.201087 -1.808996 4.287048
-2.112252 -1.735985 4.630459
-2.728351 -1.829331 1.712690
-2.761586 -1.851614 2.199869
-2.799465 -1.877012 2.647266
-2.848560 -1.909929 3.132499
-2.818113 -1.889515 2.841504
-2.904607 -1.947509 3.768469
-3.114369 -1.711690 0.501431
-3.088385 -1.697409 1.101306
-3.110948 -1.709810 1.558007
-3.161736 -1.737724 2.270769
-3.204128 -1.761023 2.725630
-3.185880 -1.750994 2.539955
-3.223346 -1.771586 3.792063
-3.092911 -1.699897 3.651250
-3.101849 -1.704809 3.873909
-3.014906 -1.657025 4.462941
-3.434517 -1.472398 1.340784
-3.298545 -1.414106 2.065473
-3.338094 -1.431060 2.507926
-3.389751 -1.453206 2.987842
-3.336530 -1.430390 3.308289
-3.276772 -1.404771 3.876281
-3.348151 -1.435372 4.457924
-3.296466 -1.060473 0.826246
-3.150926 -1.013653 1.319654
-3.145569 -1.011930 1.632959
-3.161174 -1.016950 2.154435
-3.219043 -1.035566 2.744408
-3.277201 -1.054276 3.229395
-3.343826 -1.075709 3.706593
-3.194356 -1.027624 3.505756
-3.165923 -0.702312 0.964360
-3.190054 -0.707665 1.452554
-3.223927 -0.715179 1.940142
-3.266883 -0.724708 2.420433
-3.315454 -0.735483 2.867388
-3.169921 -0.703199 2.667623
-3.085359 -0.684440 4.596939
-2.674148 -0.593219 4.657061
-2.990820 -0.381178 0.894549
-2.989212 -0.380973 1.388856
-3.018375 -0.384690 1.829124
-3.026566 -0.385734 2.225181
-3.098290 -0.394875 4.536216
-2.940428 -0.072044 0.930304
-2.964505 -0.072634 1.424673
-3.071410 -0.075253 2.680496
-2.910494 -0.071311 3.402782
-2.850768 -0.069847 4.841724
-2.649458 -0.064915 4.453044
-3.066142 0.211526 0.019676
-2.952751 0.203703 1.325841
-2.812637 0.194037 2.427210
-2.588616 0.178582 2.442881
-2.637736 0.181971 3.100609
-2.560574 0.176648 3.464887
-2.520931 0.173913 4.033341
-2.409792 0.166246 4.419225
-3.051205 0.498799 0.937645
-2.902688 0.474520 1.439335
-2.759440 0.451103 2.181858
-2.586335 0.422804 2.690251
-2.500721 0.408808 3.026019
-2.501287 0.408901 3.592616
-2.854180 0.741388 0.151631
-2.872434 0.746130 1.464200
-2.752260 0.714914 2.659073
-2.405036 0.624721 2.596412
-2.371186 0.615928 3.159386
-2.471419 0.641964 3.719974
-2.399999 0.877312 2.007725
-2.454499 0.897234 3.437850
-2.284348 0.835036 3.018033
-2.297081 0.839690 3.502542
-2.375395 0.868318 4.046756
-2.287025 0.836014 4.526991
-2.713166 1.287714 1.627168
-2.489955 1.181774 1.263707
-2.234659 1.060607 2.224335
-2.248288 1.067075 2.385619
-2.255288 1.070398 2.703893
-2.206758 1.047365 3.297223
-2.225828 1.056415 3.795478
-2.363709 1.121856 4.812246
-2.386460 1.429333 2.015952
-2.212776 1.325308 2.282290
-2.252010 1.348806 2.947007
-2.180612 1.306043 3.283981
-2.114575 1.266492 3.802203
-2.232331 1.337020 4.738709
-2.413859 1.760315 1.760517
-2.270862 1.656034 2.060305
-2.096755 1.529066 2.179658
-2.192436 1.598842 3.247494
-2.141018 1.561345 2.944021
-2.061769 1.503552 3.357705
-2.060693 1.502768 3.864505
-2.080509 1.517219 4.730064
-2.210120 1.970412 0.777805
-2.225766 1.984361 1.271805
-2.098268 1.870692 1.746728
-2.136199 1.904508 4.066788
-2.071968 1.847244 3.849470
-2.237019 2.378342 0.891785
-2.129454 2.263982 0.681296
-2.056902 2.186846 1.178406
-2.076870 2.208076 1.671479
-2.081527 2.213027 2.080718
-2.097102 2.229586 2.575528
-2.124032 2.258217 4.411801
-1.975785 2.100605 5.242177
-2.004096 2.583907 1.491587
-2.025520 2.611529 1.972621
-2.013201 2.595646 1.712690
-2.034817 2.623516 2.147944
-1.993583 2.570353 2.719707
-1.894038 2.442008 4.068921
-1.750947 2.257518 5.116511
-1.795351 2.809093 1.696132
-1.790110 2.800893 1.899173
-1.811641 2.834582 2.588960
-1.846016 2.888366 3.119576
-1.883043 2.946300 3.603536
-1.864110 2.916677 3.364958
-1.825313 3.585557 -0.018899
-1.782298 3.501061 1.183877
-1.779137 3.494851 1.038370
-1.785417 3.507187 1.697729
-1.718306 3.375358 2.041623
-1.648628 3.238486 2.527144
-1.689818 3.319397 3.262442
-1.698468 3.336389 3.396389
-1.729281 3.396917 3.986045
-1.428545 3.637482 0.664941
-1.427332 3.634394 1.204147
-1.442125 3.672062 1.824174
-1.413525 3.599239 2.804058
-1.404173 3.575424 2.800702
-1.453160 3.700160 3.750476
-1.378169 3.509212 4.039060
-1.374008 3.498616 4.660771
-1.329047 3.384133 5.052741
-0.923931 3.193963 1.566355
-0.934216 3.229517 2.052746
-0.933393 3.226671 2.294798
-0.947690 3.276095 2.983825
-0.966026 3.339481 3.468171
-0.986811 3.411334 3.944638
-1.010599 3.493567 4.425904
-0.619511 3.243493 1.600479
-0.626587 3.280539 2.087329
-0.629952 3.298155 2.530638
-0.640594 3.353875 3.016155
-0.653097 3.419336 3.500411
-0.616664 3.228585 3.197668
-0.585443 3.065127 5.033595
-0.314905 3.250107 0.898292
-0.299759 3.093783 0.687845
-0.289528 2.988196 1.178406
-0.292339 3.017206 1.671479
-0.292616 3.020060 2.034737
-0.294717 3.041748 2.529589
-0.293931 3.033633 4.116666
-0.276246 2.851117 4.646844
0.013973 2.941788 0.943493
0.014089 2.966141 1.437849
0.014230 2.995932 1.872392
0.014436 3.039271 2.365447
0.014771 3.109817 4.464201
0.013540 2.850612 4.437101
0.278393 3.061222 0.144289
0.265535 2.919839 0.640079
0.267151 2.937608 1.128110
0.269698 2.965620 1.622266
0.272901 3.000840 2.082870
0.280558 3.085036 4.398697
0.257613 2.832727 4.260566
0.242715 2.668908 4.613124
0.534452 2.893393 0.956682
0.538925 2.917607 1.451025
0.558732 3.024839 2.713288
0.505820 2.738386 2.330154
0.477256 2.583750 2.967049
0.489209 2.648460 3.467411
0.476535 2.579842 3.846172
0.500584 2.710041 5.242022
0.784783 2.727811 0.854680
0.818626 2.845444 1.345609
0.784407 2.726505 3.413220
0.718149 2.496199 4.152386
0.695147 2.416246 3.794584
0.714158 2.482325 4.361647
1.080819 2.729998 0.785206
1.088592 2.749633 1.279711
1.049447 2.650756 2.725276
0.994550 2.512094 4.018344
0.939188 2.372259 3.706572
1.390150 2.769143 0.058966
1.325598 2.640556 0.547148
1.333402 2.656103 1.067671
1.269754 2.529316 2.533234
1.182861 2.356228 3.040518
1.217272 2.424775 4.235581
1.142816 2.276459 4.002490
1.125725 2.242416 4.784536
1.566890 2.487163 0.884140
1.579224 2.506741 1.378554
1.525282 2.421117 2.817926
1.428634 2.267706 3.374114
1.463825 2.323565 4.421848
1.485056 2.357266 5.263315
1.631067 -0.019588 -0.018899
1.469870 -0.017652 -0.018899
2.957413 -0.035516 -0.018899
1.438499 -0.017275 -0.018899
0.953769 -0.011454 -0.018899
1.249213 -0.015002 -0.018899
1.674645 -0.020111 -0.018899
1.843246 -0.022136 -0.018899
2.207907 -0.026515 -0.018899
2.214895 -0.026599 -0.018899
-0.908066 0.624296 -0.018899
-0.548810 0.377307 -0.018899
-1.637028 1.125457 -0.018899
-1.763661 1.212518 -0.018899
-0.707921 0.486696 -0.018899
-2.023134 1.390905 -0.018899
-1.419686 0.976035 -0.018899
-0.392181 0.269624 -0.018899
-1.653536 1.136807 -0.018899
-0.329338 0.226420 -0.018899
-2.268232 -0.132034 5.308982
-0.703575 -0.040955 5.308982
-1.062421 -0.061844 5.308982
-0.543396 -0.031631 5.308982
-1.259909 -0.073340 5.308982
-1.016009 -0.059142 5.308982
-2.552795 -0.148599 5.308982
-1.148114 -0.066832 5.308982
-2.472846 -0.143945 5.308982
-2.452233 -0.142745 5.308982
-1.229258 -1.037782 5.308982
-1.309298 -1.105354 5.308982
-0.367766 -0.310481 5.308982
-2.072025 -1.749274 5.308982
-0.737338 -0.622486 5.308982
-0.739906 -0.624654 5.308982
-0.060751 -0.051288 5.308982
-1.690780 -1.427414 5.308982
-2.197416 -1.855134 5.308982
-1.217710 -1.028032 5.308982
-0.597382 -1.891425 5.308982
-0.404492 -1.280701 5.308982
-0.463516 -1.467580 5.308982
-0.381172 -1.206865 5.308982
-0.513447 -1.625671 5.308982
-0.024003 -0.075997 5.308982
-0.341350 -1.080780 5.308982
-0.113325 -0.358810 5.308982
-0.275663 -0.872803 5.308982
-0.536573 -1.698894 5.308982
-0.137013 -0.619919 5.308982
-0.384159 -1.738133 5.308982
-0.321570 -1.454950 5.308982
-0.489387 -2.214237 5.308982
-0.290737 -1.315442 5.308982
-0.199562 -0.902922 5.308982
-0.126582 -0.572722 5.308982
-0.510394 -2.309286 5.308982
-0.045672 -0.206642 5.308982
-0.310758 -1.406028 5.308982
0.353145 -2.404797 5.308982
0.402401 -2.740210 5.308982
0.396544 -2.700329 5.308982
0.021317 -0.145163 5.308982
0.362361 -2.467555 5.308982
0.347239 -2.364580 5.308982
0.173481 -1.181344 5.308982
0.245905 -1.674529 5.308982
0.367229 -2.500705 5.308982
0.198036 -1.348558 5.308982
0.185179 -0.524118 5.308982
0.321493 -0.909933 5.308982
0.128229 -0.362930 5.308982
0.704086 -1.992797 5.308982
1.006279 -2.848104 5.308982
0.562511 -1.592093 5.308982
0.917864 -2.597862 5.308982
0.845299 -2.392476 5.308982
0.921110 -2.607049 5.308982
0.091627 -0.259334 5.308982
1.916048 -1.731857 5.308982
2.168475 -1.960018 5.308982
0.514539 -0.465076 5.308982
0.203319 -0.183774 5.308982
0.409216 -0.369878 5.308982
0.934895 -0.845023 5.308982
0.389979 -0.352490 5.308982
1.957537 -1.769357 5.308982
1.992818 -1.801247 5.308982
2.229981 -2.015611 5.308982
1.878102 -0.175661 5.308982
0.941446 -0.088054 5.308982
0.548710 -0.051321 5.308982
0.311808 -0.029164 5.308982
0.490651 -0.045891 5.308982
1.238796 -0.115866 5.308982
0.292825 -0.027388 5.308982
0.835844 -0.078177 5.308982
2.423574 -0.226679 5.308982
1.727549 -0.161579 5.308982
2.538255 0.214499 5.308982
2.550805 0.215559 5.308982
2.711792 0.229164 5.308982
2.817501 0.238097 5.308982
0.628818 0.053139 5.308982
2.538679 0.214534 5.308982
0.112757 0.009529 5.308982
0.986129 0.083334 5.308982
0.873285 0.073798 5.308982
1.729479 0.146152 5.308982
1.714196 0.159355 5.308982
0.042561 0.003957 5.308982
1.441633 0.134017 5.308982
2.222576 0.206615 5.308982
0.586156 0.054490 5.308982
0.056673 0.005268 5.308982
2.238242 0.208072 5.308982
0.956347 0.088904 5.308982
2.552033 0.237242 5.308982
0.286700 0.026652 5.308982
2.539114 0.454521 5.308982
0.848001 0.151799 5.308982
2.223097 0.397952 5.308982
0.256978 0.046001 5.308982
1.132899 0.202798 5.308982
0.931928 0.166822 5.308982
1.799045 0.322043 5.308982
0.441208 0.078980 5.308982
1.604850 0.287281 5.308982
1.537119 0.275156 5.308982
2.480283 0.478147 5.308982
0.734359 0.141569 5.308982
1.142427 0.220236 5.308982
0.449516 0.086657 5.308982
1.707532 0.329176 5.308982
0.368111 0.070964 5.308982
2.252108 0.434159 5.308982
1.410655 0.271945 5.308982
1.199533 0.231245 5.308982
1.127375 0.217334 5.308982
0.162852 0.064416 5.308982
1.527243 0.604101 5.308982
2.894131 1.144773 5.308982
1.108401 0.438428 5.308982
0.112214 0.044386 5.308982
0.294042 0.116308 5.308982
2.829617 1.119255 5.308982
1.180469 0.466934 5.308982
1.437294 0.568521 5.308982
2.189821 0.866184 5.308982
1.637065 2.190385 5.308982
0.771403 1.032134 5.308982
1.446849 1.935877 5.308982
1.623670 2.172462 5.308982
0.138861 0.185796 5.308982
0.579940 0.775958 5.308982
1.548121 2.071379 5.308982
0.649007 0.868368 5.308982
1.106782 1.480870 5.308982
0.531193 0.710733 5.308982
0.948962 1.506311 5.308982
0.299286 0.475064 5.308982
0.114711 0.182084 5.308982
0.656788 1.042536 5.308982
1.177567 1.869181 5.308982
0.589808 0.936217 5.308982
1.451503 2.304007 5.308982
0.462991 0.734917 5.308982
0.482801 0.766362 5.308982
0.499182 0.792363 5.308982
0.112194 0.182793 5.308982
0.971884 1.583446 5.308982
1.242892 2.024987 5.308982
1.060628 1.728033 5.308982
0.363471 0.592187 5.308982
0.365881 0.596114 5.308982
1.405579 2.290046 5.308982
0.942086 1.534898 5.308982
1.169260 1.905021 5.308982
0.800498 1.304214 5.308982
0.199631 0.405972 5.308982
0.734643 1.493977 5.308982
0.375449 0.763518 5.308982
0.350117 0.712001 5.308982
1.013657 2.061382 5.308982
0.098437 0.200183 5.308982
0.827363 1.682533 5.308982
0.685304 1.393642 5.308982
0.377413 0.767510 5.308982
0.178007 0.361997 5.308982
0.425192 2.301885 5.308982
0.343556 1.859928 5.308982
0.314383 1.701994 5.308982
0.276202 1.495289 5.308982
0.392590 2.125387 5.308982
0.112626 0.609730 5.308982
0.106855 0.578485 5.308982
0.105470 0.570989 5.308982
0.058721 0.317902 5.308982
0.157165 0.850855 5.308982
0.197481 1.124285 5.308982
0.032625 0.185737 5.308982
0.351801 2.002845 5.308982
0.269443 1.533971 5.308982
0.051770 0.294732 5.308982
0.391922 2.231260 5.308982
0.393258 2.238867 5.308982
0.228624 1.301583 5.308982
0.090869 0.517326 5.308982
0.317187 1.805783 5.308982
0.272467 1.768735 5.308982
0.283965 1.843372 5.308982
0.389201 2.526520 5.308982
0.177190 1.150237 5.308982
0.230768 1.498043 5.308982
0.366974 2.382229 5.308982
0.224404 1.456732 5.308982
0.154536 1.003181 5.308982
0.234073 1.519500 5.308982
0.077669 0.504194 5.308982
-0.004577 0.384728 5.308982
-0.024454 2.055435 5.308982
-0.004552 0.382591 5.308982
-0.020060 1.686048 5.308982
-0.026176 2.200173 5.308982
-0.025394 2.134438 5.308982
-0.011323 0.951707 5.308982
-0.024866 2.090022 5.308982
-0.020826 1.750456 5.308982
-0.030871 2.594796 5.308982
-0.077595 0.706388 5.308982
-0.291774 2.656182 5.308982
-0.256897 2.338680 5.308982
-0.135837 1.236599 5.308982
-0.184132 1.676258 5.308982
-0.048650 0.442891 5.308982
-0.009604 0.087434 5.308982
-0.241209 2.195857 5.308982
-0.311545 2.836170 5.308982
-0.086434 0.786854 5.308982
-0.314394 1.646031 5.308982
-0.414651 2.170936 5.308982
-0.353692 1.851778 5.308982
-0.242821 1.271306 5.308982
-0.140062 0.733305 5.308982
-0.453010 2.371768 5.308982
-0.467138 2.445736 5.308982
-0.384534 2.013253 5.308982
-0.506932 2.654077 5.308982
-0.497622 2.605337 5.308982
-0.970499 2.471167 5.308982
-0.374181 0.952770 5.308982
-0.395956 1.008216 5.308982
-0.056829 0.144702 5.308982
-0.950219 2.419527 5.308982
-1.082815 2.757155 5.308982
-0.979205 2.493336 5.308982
-0.340603 0.867273 5.308982
-0.893668 2.275535 5.308982
-0.624452 1.590034 5.308982
-1.577711 3.012910 5.308982
-1.495407 2.855737 5.308982
-0.261582 0.499536 5.308982
-0.929750 1.775517 5.308982
-0.814507 1.555442 5.308982
-1.029447 1.965906 5.308982
-1.370942 2.618050 5.308982
-1.641144 3.134047 5.308982
-0.880395 1.681266 5.308982
-1.250784 2.388587 5.308982
-1.560684 2.012210 5.308982
-0.366897 0.473045 5.308982
-1.647416 2.124034 5.308982
-0.693933 0.894697 5.308982
-0.865701 1.116159 5.308982
-0.971499 1.252567 5.308982
-0.425279 0.548318 5.308982
-1.138493 1.467874 5.308982
-1.552731 2.001957 5.308982
-1.109901 1.431010 5.308982
-0.026563 0.033611 5.308982
-0.346108 0.437939 5.308982
-1.176819 1.489056 5.308982
-0.597525 0.756062 5.308982
-0.785366 0.993741 5.308982
-1.787485 2.261745 5.308982
-0.491839 0.622334 5.308982
-0.104076 0.131690 5.308982
-0.592577 0.749801 5.308982
-1.663433 2.104780 5.308982
-0.003363 0.004058 5.308982
-1.596184 1.925993 5.308982
-1.401402 1.690965 5.308982
-1.979465 2.388470 5.308982
-1.997181 2.409846 5.308982
-0.102180 0.123293 5.308982
-2.153349 2.598282 5.308982
-0.784377 0.946448 5.308982
-0.678798 0.819054 5.308982
-1.847888 2.229705 5.308982
-0.924679 0.983095 5.308982
-1.692549 1.799476 5.308982
-1.961556 2.085477 5.308982
-1.703419 1.811032 5.308982
-0.767754 0.816257 5.308982
-1.221289 1.298444 5.308982
-0.611985 0.650647 5.308982
-1.805326 1.919377 5.308982
-0.328012 0.348734 5.308982
-0.004910 0.005220 5.308982
-0.315083 0.108929 5.308982
-1.054079 0.364411 5.308982
-1.754093 0.606416 5.308982
-1.948480 0.673619 5.308982
-0.344104 0.118962 5.308982
-1.220937 0.422096 5.308982
-1.870827 0.646773 5.308982
-1.845170 0.637903 5.308982
-0.653113 0.225791 5.308982
-1.878643 0.649475 5.308982
-1.938470 0.434693 5.308982
-1.314926 0.294866 5.308982
-2.456960 0.550961 5.308982
-1.884009 0.422480 5.308982
-0.027720 0.006216 5.308982
-0.332745 0.074616 5.308982
-0.347820 0.077997 5.308982
-0.659722 0.147939 5.308982
-0.161816 0.036287 5.308982
-1.976504 0.443222 5.308982
-1.745309 0.058427 5.308982
-1.460991 0.048909 5.308982
-1.072008 0.035887 5.308982
-0.170178 0.005697 5.308982
-1.258934 0.042145 5.308982
-0.228830 0.007660 5.308982
-1.276767 0.042742 5.308982
-0.406240 0.013600 5.308982
-2.331601 0.078054 5.308982
-1.368863 0.045825 5.308982
