-0.000978 -1.724407 8.288333
-0.000921 -1.624624 9.073606
-0.160675 -1.713877 0.722167
-0.180638 -1.926821 1.244214
-0.167025 -1.781614 1.930520
-0.192065 -2.048707 2.959266
-0.207441 -2.212718 3.674354
-0.202583 -2.160897 4.350590
-0.198632 -2.118759 5.009767
-0.163495 -1.743962 5.724890
-0.150533 -1.605694 6.573891
-0.159420 -1.700495 7.357277
-0.159695 -1.703427 8.227306
-0.152801 -1.629885 9.124580
-0.254599 -1.367617 -0.359116
-0.314562 -1.689719 0.569610
-0.354189 -1.902582 1.244214
-0.322832 -1.734140 1.921656
-0.373467 -2.006135 2.737489
-0.434794 -2.335565 3.699417
-0.418434 -2.247683 4.265827
-0.389471 -2.092106 5.009767
-0.335863 -1.804141 5.774343
-0.310490 -1.667844 6.758686
-0.303945 -1.632688 7.504261
-0.299309 -1.607787 8.233266
-0.278190 -1.494342 9.066517
-0.419087 -1.457464 0.398827
-0.508789 -1.769426 1.409779
-0.486186 -1.690817 1.830224
-0.566661 -1.970686 2.868551
-0.652419 -2.268928 3.549512
-0.629265 -2.188406 4.185689
-0.590742 -2.054434 5.080172
-0.533771 -1.856303 5.904454
-0.444192 -1.544774 6.543290
-0.420559 -1.462586 7.447103
-0.435967 -1.516171 8.085572
-0.408548 -1.420814 8.892595
-0.549983 -1.413396 0.409053
-0.626934 -1.611150 1.037410
-0.609935 -1.567466 1.783002
-0.659950 -1.695999 2.448045
-0.759695 -1.952333 3.392423
-0.762695 -1.960043 4.205499
-0.741304 -1.905069 4.949295
-0.622982 -1.600995 5.501228
-0.399718 -1.027231 6.557082
-0.386311 -0.992777 7.194142
-0.548792 -1.410335 8.024555
-0.761859 -1.508756 0.244290
-0.787740 -1.560011 0.782661
-0.731491 -1.448618 1.581472
-0.859508 -1.702138 4.022980
-0.896009 -1.774423 4.710377
-0.827748 -1.639241 7.100494
-0.674659 -1.336069 7.825034
-0.668169 -1.323217 8.578754
-0.512261 -1.014463 9.597782
-0.920397 -1.476170 0.121982
-0.937531 -1.503651 0.751668
-0.828513 -1.328803 1.409989
-0.947714 -1.519982 3.881526
-0.960950 -1.541211 4.546766
-0.860588 -1.380247 5.566805
-0.660789 -1.059801 6.224526
-0.590292 -0.946734 7.056188
-0.661285 -1.060596 7.865780
-0.722302 -1.158457 8.627143
-0.606351 -0.972490 9.430675
-0.907678 -1.183401 0.388861
-0.976123 -1.272638 1.040886
-0.951975 -1.241154 1.931960
-1.231907 -1.606121 2.505527
-1.392860 -1.815965 3.314034
-1.172795 -1.529052 4.205083
-0.835271 -1.088999 5.018330
-0.721337 -0.940455 7.289029
-0.734346 -0.957416 8.144120
-0.769702 -1.003512 8.747740
-0.956783 -1.041686 0.020508
-0.999126 -1.087786 0.972708
-1.017256 -1.107525 1.719747
-1.363008 -1.483957 2.729245
-1.553102 -1.690920 3.394150
-1.278969 -1.392462 3.871154
-0.906724 -0.987185 4.771859
-0.732500 -0.797500 5.817047
-0.510918 -0.556255 6.456021
-0.448955 -0.488794 7.356987
-0.736611 -0.801976 8.072119
-1.054688 -0.943840 0.266597
-1.098760 -0.983280 0.870337
-1.126462 -1.008071 1.883401
-1.410915 -1.262628 2.422873
-1.629874 -1.458574 3.302936
-1.391166 -1.244954 3.883878
-0.975536 -0.873007 4.723592
-0.779153 -0.697264 5.568663
-0.578721 -0.517897 6.581189
-0.479722 -0.429303 7.252374
-0.832950 -0.745407 8.206521
-0.954008 -0.713030 -0.350711
-1.016059 -0.759407 0.555895
-1.146728 -0.857069 1.137999
-1.011255 -0.755816 1.906236
-0.887839 -0.663575 2.671421
-1.183307 -0.884408 3.500798
-1.456068 -1.088271 5.984981
-0.791461 -0.591541 6.630241
-0.665731 -0.497570 7.432883
-0.922483 -0.689468 8.361472
-0.943035 -0.704828 9.138462
-1.301979 -0.791233 0.828282
-1.124380 -0.683304 1.409114
-1.401426 -0.851669 3.876699
-1.576505 -0.958067 4.574144
-1.189456 -0.722851 5.162007
-0.889952 -0.540838 6.194926
-0.675385 -0.410442 6.804444
-0.753259 -0.457768 7.812400
-0.924353 -0.561744 8.507216
-0.921584 -0.560061 9.469492
-1.359707 -0.666941 -0.071586
-1.348746 -0.661564 0.982290
-1.139626 -0.558990 1.503627
-1.062861 -0.521337 2.293107
-1.236223 -0.606371 3.220466
-1.566405 -0.768327 3.917204
-1.380408 -0.677095 4.736507
-0.991884 -0.486522 5.454418
-0.615031 -0.301675 6.338942
-0.464717 -0.227945 6.983039
-0.864292 -0.423938 7.958086
-0.905422 -0.444112 8.523629
-0.828265 -0.406267 9.464274
-1.441044 -0.542573 0.173735
-1.329734 -0.500664 0.697219
-1.115164 -0.419875 1.434413
-1.098880 -0.413744 2.128018
-1.241811 -0.467559 2.914368
-1.519241 -0.572016 3.713586
-1.407225 -0.529840 4.460435
-1.122401 -0.422600 5.409241
-0.603039 -0.227053 6.087943
-0.511001 -0.192399 6.999559
-0.899658 -0.338734 7.828482
-0.981907 -0.369702 8.590648
-0.885214 -0.333296 9.557737
-1.291038 -0.358013 0.164388
-1.177857 -0.326627 0.773072
-1.053497 -0.292142 1.479569
-1.399745 -0.388158 2.575117
-1.646558 -0.456601 3.284330
-1.605265 -0.445151 3.884305
-1.422517 -0.394473 4.848298
-0.872402 -0.241923 5.472508
-0.563241 -0.156190 6.495620
-0.655724 -0.181837 7.039915
-0.979002 -0.271484 7.968576
-1.019442 -0.282698 8.741143
-0.814900 -0.225977 9.671470
-1.393448 -0.245787 -0.205075
-1.226224 -0.216291 0.659265
-1.127038 -0.198796 1.508602
-1.310855 -0.231219 2.242926
-1.498059 -0.264239 3.146334
-1.521207 -0.268323 3.680127
-1.451455 -0.256019 4.630184
-1.181090 -0.208330 5.409241
-0.672919 -0.118695 6.328489
-0.561943 -0.099120 6.995084
-0.941672 -0.166100 7.678198
-1.089814 -0.192230 8.729922
-0.875705 -0.154464 9.329171
-1.012000 -0.085302 0.300521
-1.224114 -0.103182 1.030707
-1.063251 -0.089622 1.999115
-0.974514 -0.082143 2.597232
-1.307159 -0.110182 3.609595
-0.683876 -0.057645 6.790615
-0.820135 -0.069130 7.391227
-1.121002 -0.094490 8.356531
-0.988267 -0.083302 8.898438
-1.039478 0.013914 -0.113917
-1.074499 0.014382 0.879608
-1.092753 0.014627 1.469227
-0.979175 0.013107 2.222233
-1.230313 0.016468 2.963296
-1.600768 0.021427 3.983902
-0.763528 0.010220 6.938419
-1.035917 0.013866 7.694439
-1.053797 0.014105 8.611353
-0.911142 0.012196 9.522266
-1.010739 0.105511 0.373058
-1.197241 0.124980 1.041700
-1.054950 0.110126 1.874922
-0.998905 0.104275 2.616261
-1.200490 0.125319 3.286940
-0.583584 0.060920 6.657034
-0.967065 0.100952 7.373101
-1.120784 0.116998 8.010056
-1.005810 0.104996 8.981370
-0.676241 0.135108 0.125418
-0.782581 0.156354 0.813030
-1.058332 0.211447 1.739212
-1.000471 0.199887 2.479863
-0.994724 0.198739 3.084528
-1.194648 0.238682 3.930855
-1.203151 0.240381 4.870017
-0.802540 0.160342 5.570066
-0.550823 0.110050 6.359338
-0.814389 0.162709 7.163172
-1.129020 0.225570 8.004885
-1.058561 0.211493 8.834276
-0.669285 0.133718 9.535009
-0.278196 0.083475 0.285134
-0.406849 0.122078 0.894674
-0.942725 0.282872 1.847510
-0.979156 0.293803 2.510946
-0.859638 0.257941 3.188204
-1.004291 0.301345 3.990374
-0.985133 0.295597 4.695628
-0.665424 0.199666 5.758967
-0.470472 0.141169 6.392587
-0.761558 0.228511 7.245363
-1.062681 0.318866 7.927379
-0.970923 0.291333 8.882379
-0.492990 0.147925 9.688316
-0.269265 0.106095 -0.031682
-0.440606 0.173605 0.840964
-0.972574 0.383208 1.533292
-0.969935 0.382169 2.436815
-0.849469 0.334703 3.071838
-0.785420 0.309467 3.959237
-0.807437 0.318142 4.821143
-0.626173 0.246721 5.612624
-0.585029 0.230510 6.305232
-0.883355 0.348055 7.119364
-1.063080 0.418869 7.963578
-1.002092 0.394839 8.823930
-0.547139 0.215581 9.569628
-0.549893 0.277952 0.366514
-0.697560 0.352593 1.147246
-0.928074 0.469110 1.959008
-0.869059 0.439280 2.534992
-0.848479 0.428878 3.508030
-0.794357 0.401520 4.154252
-0.620761 0.313774 4.853536
-0.482660 0.243968 5.910911
-0.686720 0.347114 6.539474
-1.075537 0.543648 7.520732
-1.015477 0.513289 8.061710
-0.878638 0.444122 8.867328
-1.113994 0.702044 0.421516
-0.853701 0.538006 1.223415
-0.774610 0.488163 1.975837
-0.735677 0.463627 2.834650
-0.793145 0.499844 3.634950
-0.838721 0.528566 4.384703
-0.606958 0.382508 5.211988
-0.386667 0.243679 5.859219
-0.685490 0.431999 6.629047
-1.004030 0.632744 7.556559
-0.974328 0.614026 8.361472
-0.811001 0.511097 9.191285
-0.966481 0.743638 0.618473
-0.780480 0.600523 1.244961
-0.712533 0.548243 2.133065
-0.667596 0.513668 2.805274
-0.756701 0.582227 3.811436
-0.758876 0.583901 4.525378
-0.502971 0.387000 5.159310
-0.466624 0.359034 6.214992
-0.719177 0.553356 6.890864
-0.895452 0.688986 7.653921
-0.851094 0.654856 8.356953
-0.711949 0.547794 9.260874
-0.874486 0.813644 0.618882
-0.760956 0.708013 1.377963
-0.665373 0.619079 1.840757
-0.640647 0.596074 2.907461
-0.621032 0.577824 3.485984
-0.603763 0.561756 4.245703
-0.447511 0.416376 5.173114
-0.332275 0.309157 5.838188
-0.628608 0.584872 6.760085
-0.853875 0.794467 7.453373
-0.869396 0.808907 8.407668
-0.705492 0.656407 9.212040
-0.729765 0.813590 0.517106
-0.671247 0.748350 1.099036
-0.616584 0.687409 2.121280
-0.583238 0.650233 2.886659
-0.576803 0.643058 3.652481
-0.556899 0.620868 4.329010
-0.470160 0.524166 5.298952
-0.343536 0.382997 5.904208
-0.570855 0.636427 6.739274
-0.773352 0.862184 7.412082
-0.786812 0.877190 8.366400
-0.666379 0.742924 9.247632
-0.811631 1.100425 0.472290
-0.616734 0.836180 1.367606
-0.547096 0.741764 2.090116
-0.510338 0.691926 2.699401
-0.501563 0.680029 3.717323
-0.517611 0.701788 4.440632
-0.413686 0.560884 5.246710
-0.345328 0.468202 6.011946
-0.552397 0.748951 6.736616
-0.678940 0.920520 7.468531
-0.682248 0.925005 8.351147
-0.544204 0.737843 9.124444
-0.073156 0.120620 0.360446
-0.211444 0.348629 1.190078
-0.467800 0.771310 1.695261
-0.350108 0.577260 2.565395
-0.405666 0.668863 3.586652
-0.533142 0.879046 4.265044
-0.376316 0.620472 4.892164
-0.242850 0.400412 5.932812
-0.403668 0.665569 6.591616
-0.596436 0.983406 7.370783
-0.599220 0.987997 8.144324
-0.516829 0.852150 8.919175
-0.202165 0.419335 0.294358
-0.308006 0.638871 1.233067
-0.405529 0.841154 1.839551
-0.315775 0.654985 2.593381
-0.427895 0.887546 3.609457
-0.550388 1.141623 4.154808
-0.376600 0.781148 5.011592
-0.211303 0.438289 5.886985
-0.304387 0.631364 6.583462
-0.464888 0.964279 7.354074
-0.538480 1.116923 8.180065
-0.484623 1.005213 8.989378
-0.198282 0.528975 0.199226
-0.273909 0.730730 1.105539
-0.356612 0.951364 1.981021
-0.445427 1.188303 2.453287
-0.559892 1.493672 3.417765
-0.519843 1.386830 4.266016
-0.370664 0.988851 4.913089
-0.231501 0.617595 5.860552
-0.231732 0.618212 6.493580
-0.355979 0.949676 7.193092
-0.424351 1.132076 8.035787
-0.400225 1.067715 8.983609
-0.166572 0.617375 0.062791
-0.176353 0.653627 0.982976
-0.278703 1.032972 1.521935
-0.355371 1.317131 2.374933
-0.454662 1.685138 3.127519
-0.164618 0.610133 7.189581
-0.307423 1.139418 8.020350
-0.133817 0.778300 0.156363
-0.130847 0.761022 0.771847
-0.185958 1.081559 1.582977
-0.236631 1.376275 2.486216
-0.299403 1.741370 3.084799
-0.108607 0.631671 7.101277
-0.199977 1.163095 8.020350
-0.188327 1.095332 8.750596
-0.128216 0.745719 9.727335
-0.062655 0.812078 0.083339
-0.061797 0.800950 1.031876
-0.088165 1.142709 1.549911
-0.114344 1.482018 2.326128
-0.144311 1.870418 3.187967
-0.058315 0.755828 7.047235
-0.094188 1.220776 8.107941
-0.086091 1.115823 8.672648
-0.055637 0.721113 9.491616
0.009910 0.915032 0.228582
0.010333 0.954073 1.058965
0.015765 1.455670 1.763009
0.019090 1.762694 2.339593
0.020567 1.899042 3.165586
0.020160 1.861435 4.068899
0.008675 0.800996 7.276628
0.012764 1.178522 7.891391
0.127231 1.160046 0.443835
0.131086 1.195195 0.990143
0.162255 1.479377 1.915357
0.198338 1.808365 2.437902
0.222270 2.026572 3.326419
0.215634 1.966070 4.209550
0.085742 0.781760 7.333437
0.131332 1.197437 8.015166
0.137883 1.257165 8.747740
0.276362 1.338886 0.451757
0.289594 1.402993 1.168746
0.308668 1.495399 1.677711
0.374308 1.813403 2.547758
0.410145 1.987025 3.215485
0.355322 1.721422 4.039148
0.282843 1.370287 4.837390
0.204155 0.989068 5.669213
0.109759 0.531746 6.697046
0.148170 0.717838 7.451991
0.231795 1.122975 8.103022
0.258039 1.250119 8.907829
0.400081 1.351225 1.220800
0.424042 1.432154 2.017686
0.570267 1.926009 2.973348
0.608915 2.056540 3.651645
0.494321 1.669511 4.339446
0.402482 1.359335 5.346623
0.274644 0.927576 6.207002
0.214675 0.725040 7.036802
0.289253 0.976917 7.859858
0.360530 1.217646 8.432573
0.372123 1.256801 9.367823
0.523002 1.287873 -0.215472
0.468921 1.154701 0.721064
0.540527 1.331028 1.291726
0.646722 1.592528 2.015775
0.827504 2.037697 2.846906
0.848991 2.090609 3.762099
0.694277 1.709632 4.368430
0.552188 1.359742 5.162052
0.399849 0.984614 6.170202
0.271684 0.669012 6.848918
0.372950 0.918375 7.725107
0.495687 1.220610 8.529956
0.470406 1.158358 9.120854
0.704659 1.373391 0.562064
0.667050 1.300091 1.280626
0.823547 1.605106 2.194409
1.047351 2.041304 3.091540
1.032296 2.011960 3.559151
0.994529 1.938352 4.624871
0.861841 1.679742 5.279746
0.600723 1.170818 6.013012
0.409965 0.799029 6.838897
0.499145 0.972841 7.725881
0.657653 1.281776 8.620638
0.604773 1.178713 9.320687
0.773421 1.213999 0.051235
0.806340 1.265671 0.920910
0.813329 1.276642 1.350511
0.971619 1.525100 2.265438
1.222723 1.919245 2.861162
1.261472 1.980068 3.914488
1.195886 1.877121 4.598577
1.037158 1.627974 5.222146
0.713267 1.119579 6.084966
0.495693 0.778064 6.973984
0.578496 0.908035 7.643132
0.780870 1.225692 8.563839
0.741357 1.163670 9.437895
0.868312 1.116524 -0.041015
0.919031 1.181741 0.757217
0.935993 1.203552 1.626594
1.149915 1.478625 2.495407
1.417186 1.822296 2.959331
1.464711 1.883407 3.799320
1.412808 1.816667 4.599287
1.231464 1.583485 5.221780
0.855331 1.099832 6.021719
0.586451 0.754091 7.150503
0.666089 0.856494 7.684511
0.910962 1.171365 8.696947
0.802373 1.031736 9.456138
0.848450 0.904233 0.206030
0.975559 1.039699 0.922750
1.022948 1.090203 1.515134
1.136607 1.211336 2.315302
1.488762 1.586644 3.172356
1.632576 1.739912 3.799320
1.569073 1.672235 4.732608
1.293866 1.378934 6.849022
1.014739 1.081455 7.881321
1.038531 1.106811 8.732211
0.845321 0.900899 9.375605
0.984141 0.871576 0.123373
1.122546 0.994150 0.869757
1.218220 1.078881 1.683436
1.458802 1.291945 2.500488
1.729935 1.532067 3.281760
1.734216 1.535858 3.857100
1.631686 1.445056 4.828958
1.413038 1.251417 5.621127
1.136044 1.006105 6.464201
1.132121 1.002630 7.268450
1.183459 1.048096 7.860770
1.280240 0.938859 1.900053
1.260526 0.924402 2.721498
1.569066 1.150668 3.671357
1.796973 1.317803 4.414957
1.673904 1.227551 4.996350
1.424765 1.044846 5.982766
1.308545 0.959616 6.772052
1.352493 0.991846 7.585736
1.347557 0.988226 8.278815
1.194127 0.875708 8.902831
0.999501 0.598928 0.247726
1.425178 0.854005 1.283996
1.460127 0.874947 1.680062
1.634096 0.979194 2.594941
1.654791 0.991595 3.499467
1.683978 1.009084 4.078222
1.800197 1.078726 4.788376
1.599405 0.958406 5.800901
1.520886 0.911355 6.619028
1.501989 0.900032 7.317119
1.406723 0.842946 8.018785
1.297826 0.777692 8.711758
1.208209 0.578513 0.113017
1.443482 0.691167 0.908252
1.566569 0.750103 1.882282
1.552021 0.743137 2.464783
1.617541 0.774509 3.389423
1.732923 0.829756 4.154509
1.764753 0.844997 4.663006
1.657835 0.793803 5.628612
1.646597 0.788422 6.338008
1.634946 0.782843 7.241806
1.527657 0.731471 7.911477
1.700908 0.631827 -0.071013
1.848151 0.686523 0.727428
1.654922 0.614745 1.392306
1.648348 0.612303 2.268477
1.705423 0.633504 3.111104
1.726960 0.641505 3.640666
1.770048 0.657510 4.517418
1.729238 0.642351 5.151525
1.792524 0.665859 6.250392
1.777832 0.660402 6.879391
1.664095 0.618152 7.565826
1.640881 0.609529 8.517477
1.361842 0.505876 9.212990
1.724638 0.461441 1.849303
1.734821 0.464165 2.816851
1.763741 0.471903 3.468297
1.834241 0.490766 4.177535
1.708826 0.457210 4.965471
1.748915 0.467936 5.778180
1.860304 0.497739 6.477176
1.835201 0.491023 7.424659
1.777077 0.475471 8.113917
1.648988 0.441200 8.881428
1.493199 0.258107 0.265888
1.749428 0.302398 0.904005
1.745120 0.301653 1.534508
1.747446 0.302055 2.502111
1.765653 0.305202 3.082736
1.912193 0.330533 4.101178
1.740103 0.300786 4.748929
1.726944 0.298511 5.392336
1.963475 0.339397 6.423893
1.935182 0.334506 7.233354
1.939825 0.335309 8.001128
1.805154 0.312030 8.648358
1.421821 0.245769 9.585584
1.834796 0.135602 0.172344
1.965983 0.145298 0.717326
1.789447 0.132251 1.492879
1.819924 0.134503 2.121948
1.887188 0.139474 3.084606
1.913515 0.141420 3.898912
1.774332 0.131133 4.654393
1.798747 0.132938 5.219282
2.031623 0.150149 6.239711
1.955434 0.144518 6.951134
1.946785 0.143879 7.803919
1.941340 0.143476 8.589716
1.669234 0.123366 9.169575
1.740786 -0.027455 0.345611
1.832464 -0.028900 1.166452
1.796280 -0.028330 2.062478
1.819779 -0.028700 2.804821
1.884914 -0.029728 3.564921
1.872546 -0.029533 4.170203
1.918730 -0.030261 4.955765
2.049909 -0.032330 5.854560
2.078944 -0.032788 6.626975
1.937129 -0.030551 7.228033
1.908551 -0.030100 8.311088
1.792466 -0.028270 9.129614
1.706855 -0.194206 0.508584
1.915561 -0.217952 1.001506
1.800181 -0.204824 1.878500
1.819882 -0.207066 2.620453
1.824134 -0.207550 3.303785
1.860773 -0.211718 4.170203
1.862825 -0.211952 5.002902
1.970645 -0.224220 5.751322
2.072519 -0.235811 6.376587
2.042143 -0.232355 7.309716
1.997671 -0.227295 8.076599
1.585032 -0.323657 0.499749
1.773738 -0.362190 1.248406
1.789705 -0.365451 2.152373
1.795998 -0.366736 2.640733
1.835799 -0.374863 3.443397
1.838270 -0.375368 4.200588
1.884156 -0.384737 4.986112
1.988606 -0.406065 5.723478
1.997218 -0.407824 6.540657
2.025351 -0.413569 7.496021
1.994140 -0.407196 8.303937
1.813020 -0.370212 8.943720
1.686694 -0.518778 0.142217
1.726924 -0.531152 1.136796
1.656301 -0.509430 1.800951
1.691133 -0.520143 2.441172
1.763521 -0.542408 3.405162
1.807300 -0.555873 4.106676
1.735282 -0.533722 4.742606
1.832141 -0.563513 5.647737
2.018946 -0.620969 6.527593
1.944840 -0.598176 7.073060
1.911223 -0.587837 8.026135
1.834343 -0.564190 8.692075
1.462762 -0.449903 9.421854
1.587905 -0.650313 0.335671
1.725493 -0.706661 1.368309
1.683017 -0.689265 2.010378
1.689252 -0.691819 2.875818
1.719693 -0.704286 3.547046
1.696678 -0.694860 4.267050
1.774528 -0.726743 5.131112
1.878231 -0.769214 5.723478
1.907498 -0.781200 6.526226
1.903510 -0.779567 7.445635
1.786650 -0.731707 8.062256
1.723709 -0.705930 8.994386
1.406608 -0.740034 0.010206
1.432730 -0.753778 0.581335
1.586544 -0.834701 1.452278
1.590892 -0.836989 2.082776
1.602666 -0.843183 3.009658
1.642014 -0.863885 3.772426
1.448822 -0.762244 4.310240
1.529227 -0.804546 5.219531
1.800923 -0.947489 6.074256
1.823920 -0.959588 6.942774
1.808565 -0.951509 7.753071
1.694895 -0.891706 8.224705
1.624327 -0.854579 9.302077
1.492676 -0.967514 1.036019
1.491265 -0.966600 1.676689
1.515469 -0.982288 2.612064
1.535350 -0.995174 3.232807
1.543116 -1.000208 4.091898
1.518091 -0.983988 4.887849
1.584368 -1.026946 5.455443
1.699533 -1.101594 6.169112
1.699384 -1.101497 7.022630
1.630962 -1.057148 7.763486
1.636492 -1.060732 8.823531
1.420627 -0.920814 9.554318
1.432695 -1.137517 1.054910
1.391078 -1.104473 1.656379
1.414937 -1.123417 2.622211
1.427479 -1.133375 3.151675
1.461394 -1.160303 4.109424
1.459838 -1.159067 4.921864
1.529167 -1.214113 5.549265
1.628171 -1.292719 6.336300
1.619544 -1.285869 7.244422
1.554060 -1.233877 7.955461
1.517933 -1.205193 8.772984
1.278849 -1.015367 9.721908
1.325671 -1.262754 1.105612
1.290902 -1.229635 1.798538
1.297280 -1.235710 2.398934
1.329342 -1.266251 3.303785
1.343916 -1.280133 4.018236
1.347760 -1.283794 4.901601
1.432715 -1.364717 5.721025
1.510354 -1.438671 6.376587
1.456944 -1.387796 7.087847
1.455808 -1.386714 8.076599
1.389617 -1.323665 8.692075
1.165169 -1.109869 9.630131
0.713553 -0.823501 0.134451
1.130877 -1.305128 0.966232
1.178931 -1.360586 1.634971
1.170712 -1.351101 2.338026
1.198161 -1.382780 3.232807
1.207644 -1.393723 3.906751
1.198316 -1.382959 4.854173
1.252612 -1.445620 5.451808
1.353535 -1.562094 6.265781
1.342627 -1.549505 7.153720
1.275552 -1.472095 7.783704
1.226076 -1.414995 8.489624
1.115473 -1.287351 9.595024
1.058605 -1.472269 1.908935
1.061161 -1.475824 2.774391
1.083175 -1.506440 3.516646
1.087571 -1.512554 4.304728
1.116342 -1.552567 4.905180
1.182149 -1.644089 5.693218
1.225511 -1.704396 6.737743
1.200823 -1.670060 7.445635
1.140018 -1.585494 8.163356
1.110195 -1.544019 9.049241
0.879070 -1.480473 0.742507
0.924807 -1.557500 1.278843
0.922613 -1.553805 2.245145
0.927982 -1.562848 3.090816
0.939565 -1.582354 3.620392
0.862680 -1.452870 4.541575
0.921543 -1.552003 5.405470
1.044005 -1.758246 5.979485
1.034113 -1.741587 6.751209
1.001181 -1.686125 7.475489
0.999803 -1.683804 8.416822
0.906404 -1.526507 9.058543
0.569937 -1.213393 0.297951
0.768000 -1.635069 1.126649
0.778359 -1.657124 1.755566
0.773141 -1.646014 2.427758
0.780520 -1.661725 3.303785
0.783571 -1.668221 3.896615
0.725838 -1.545306 4.880528
0.774217 -1.648305 5.683074
0.892004 -1.899074 6.447070
0.848093 -1.805587 6.997009
0.820424 -1.746679 7.819184
0.825028 -1.756481 8.783095
0.725298 -1.544157 9.605198
0.630791 -1.731804 1.998892
0.625173 -1.716378 2.549468
0.634030 -1.740694 3.486244
0.634009 -1.740638 4.213532
0.565338 -1.552105 5.032940
0.595760 -1.635626 5.653747
0.689784 -1.893763 6.409529
0.677427 -1.859840 7.440249
0.632671 -1.736964 8.037652
0.629137 -1.727261 8.893037
0.451563 -1.753047 1.848063
0.453233 -1.759532 2.764247
0.465255 -1.806202 3.617968
0.462099 -1.793949 4.213532
0.422033 -1.638408 5.141584
0.454261 -1.763523 6.005267
0.509367 -1.977454 6.560824
0.484604 -1.881317 7.384524
0.465520 -1.807230 8.118716
0.457943 -1.777815 8.882899
0.269934 -1.643992 0.346307
0.296738 -1.807243 1.125893
0.297031 -1.809025 1.806265
0.295521 -1.799830 2.508901
0.298049 -1.815223 3.344339
0.305490 -1.860543 4.281601
0.304522 -1.854646 4.847701
0.322117 -1.961809 5.781616
0.329495 -2.006742 6.655976
0.307699 -1.873999 7.161979
0.303812 -1.850325 8.159234
0.273814 -1.667625 8.917756
0.098385 -1.487243 0.286531
0.117592 -1.777580 1.127406
0.121448 -1.835873 1.938068
0.120715 -1.824799 2.579891
0.114730 -1.734317 3.332968
0.125942 -1.903802 4.258499
0.133748 -2.021806 5.003052
0.117661 -1.778631 5.595486
0.117633 -1.778211 6.669802
0.122982 -1.859070 7.368784
0.121721 -1.839995 8.134191
0.114608 -1.732469 9.003468
-0.036614 -1.565983 0.388083
-0.040938 -1.750909 0.945260
-0.041529 -1.776188 1.666534
-0.041848 -1.789831 2.378632
-0.040670 -1.739456 3.353299
-0.044899 -1.920341 3.919144
-0.050522 -2.160829 4.882463
-0.044841 -1.917861 5.657853
-0.040583 -1.735738 6.259133
-0.041549 -1.777049 7.322457
-0.039961 -1.709136 7.865604
-0.039794 -1.702001 8.753582
-0.029598 -1.265927 9.499186
-0.184599 -1.578813 0.112267
-0.203774 -1.742808 1.067198
-0.206928 -1.769784 1.778231
-0.205015 -1.753427 2.380226
-0.158049 -1.351740 3.325293
-0.253733 -2.170091 4.869136
-0.224764 -1.922329 5.603531
-0.202824 -1.734687 6.320120
-0.198327 -1.696224 7.093424
-0.199538 -1.706579 7.906292
-0.190486 -1.629164 8.596299
-0.146657 -1.254311 9.587671
-0.326741 -1.530861 0.265533
-0.376635 -1.764624 1.055619
-0.363877 -1.704851 2.004262
-0.426378 -1.997680 4.335002
-0.449232 -2.104759 4.812104
-0.401727 -1.882185 5.698316
-0.350206 -1.640796 6.363208
-0.333105 -1.560675 7.305208
-0.361752 -1.694893 8.211755
-0.350224 -1.640882 8.974484
-0.519574 -1.660567 -0.203303
-0.492072 -1.572670 0.794951
-0.548467 -1.752907 1.288123
-0.514951 -1.645791 2.117476
-0.538125 -1.719856 2.898042
-0.643244 -2.055816 3.488381
-0.677759 -2.166126 4.338863
-0.628156 -2.007596 5.197743
-0.567380 -1.813354 6.023679
-0.496342 -1.586315 6.849103
-0.474055 -1.515087 7.646477
-0.471885 -1.508151 8.331088
-0.431085 -1.377753 9.280433
-0.672154 -1.604883 0.203303
-0.734800 -1.754462 0.971819
-0.667935 -1.594810 1.719611
-0.770853 -1.840545 3.911263
-0.848766 -2.026575 4.571559
-0.757455 -1.808554 6.951134
-0.589305 -1.407066 7.840378
-0.572639 -1.367274 8.578754
-0.464840 -1.109886 9.657698
-0.726189 -1.361144 0.500751
-0.839449 -1.573435 1.188327
-0.740424 -1.387824 2.095349
-0.795178 -1.490455 2.732797
-0.956285 -1.792427 3.520330
-0.983227 -1.842926 4.298971
-0.884445 -1.657773 5.033285
-0.731818 -1.371694 5.922562
-0.564391 -1.057876 6.529727
-0.602923 -1.130098 7.388064
-0.697897 -1.308113 8.352812
-0.643231 -1.205651 8.962484
-0.959251 -1.480860 0.000000
-0.979923 -1.512773 0.984585
-0.840162 -1.297014 1.523335
-0.978490 -1.510560 3.962725
-0.997024 -1.539172 4.688752
-0.866756 -1.338070 5.519468
-0.696116 -1.074641 6.261625
-0.663552 -1.024369 7.207435
-0.723482 -1.116887 7.763194
-0.740231 -1.142744 8.498386
-0.657386 -1.014851 9.579360
-1.102934 -1.377203 0.030475
-1.123421 -1.402784 0.761313
-0.964474 -1.204311 1.462024
-1.129818 -1.410772 4.033759
-1.117505 -1.395397 4.519345
-0.985847 -1.231000 5.574168
-0.784566 -0.979665 6.107218
-0.620596 -0.774921 7.079068
-0.715613 -0.893565 7.973906
-0.887867 -1.108654 8.754892
-0.741223 -0.925544 9.486544
-1.235634 -1.294311 -0.040606
-1.244064 -1.303141 0.954141
-1.068262 -1.118991 1.564206
-1.171462 -1.227092 2.476609
-1.143035 -1.197315 3.247965
-1.178651 -1.234622 4.034363
-1.257233 -1.316936 4.783181
-0.960832 -1.006460 5.339883
-0.668723 -0.700480 6.366711
-0.519494 -0.544163 7.015934
-0.752219 -0.787941 7.953183
-0.890585 -0.932877 8.633607
-0.771638 -0.808281 9.624594
-1.129228 -0.971268 1.371878
-1.297883 -1.116331 3.591820
-0.873128 -0.750992 8.361472
-0.852418 -0.733179 9.447050
-1.089418 -0.781825 0.339046
-1.206067 -0.865539 1.228602
-1.081660 -0.776258 1.779146
-1.252751 -0.899042 2.774408
-1.526866 -1.095762 3.504164
-1.373783 -0.985902 4.118488
-1.030051 -0.739221 4.990373
-1.010639 -0.725290 7.459483
-0.938779 -0.673719 8.144324
-0.952057 -0.683248 8.899846
-1.115431 -0.647284 0.133742
-1.192203 -0.691835 1.026617
-1.124292 -0.652426 1.636347
-1.436989 -0.833884 2.693878
-1.787230 -1.037129 3.354408
-1.564224 -0.907718 4.043905
-1.113067 -0.645912 4.747277
-0.873497 -0.506890 5.669213
-0.457026 -0.265212 6.310946
-0.448856 -0.260471 7.265091
-0.823273 -0.477745 7.906193
-1.260075 -0.586685 0.205212
-1.293431 -0.602215 0.963753
-1.180888 -0.549815 1.698055
-1.247098 -0.580642 2.549454
-1.417317 -0.659896 3.050243
-1.545409 -0.719535 4.014014
-1.287332 -0.599376 4.803446
-0.915880 -0.426429 5.499753
-0.588937 -0.274206 6.430814
-0.535485 -0.249319 7.240704
-0.916676 -0.426800 8.067006
-0.882716 -0.410988 8.596826
-0.722691 -0.336481 9.683751
-1.333606 -0.471612 0.102538
-1.292802 -0.457183 0.718677
-1.152384 -0.407526 1.577763
-1.272114 -0.449866 2.530601
-1.486017 -0.525511 3.203415
-1.611319 -0.569822 4.054711
-1.404663 -0.496741 4.555499
-1.045788 -0.369829 5.485431
-0.604239 -0.213681 6.378497
-0.570178 -0.201636 7.042988
-0.995284 -0.351969 8.035921
-0.972168 -0.343794 8.736395
-0.792942 -0.280414 9.550860
-1.225330 -0.313343 0.164715
-1.136395 -0.290600 0.805054
-1.116824 -0.285595 1.704802
-1.424783 -0.364347 2.471031
-1.653695 -0.422885 3.263983
-1.680974 -0.429861 4.062176
-1.466816 -0.375096 4.749868
-0.970978 -0.248300 5.617387
-0.508600 -0.130060 6.289954
-0.641053 -0.163931 7.346528
-0.926358 -0.236889 7.926952
-0.984676 -0.251802 8.783454
-0.800929 -0.204815 9.698440
-0.978663 -0.153790 0.311088
-1.220006 -0.191715 1.247084
-1.072491 -0.168534 1.873688
-0.792237 -0.124494 2.588313
-1.725926 -0.271216 4.390265
-1.315289 -0.206688 4.898343
-0.943941 -0.148333 5.974749
-0.685959 -0.107793 6.692222
-0.800824 -0.125843 7.458498
-1.084447 -0.170413 8.113484
-1.037609 -0.163053 9.037750
-1.113720 -0.071751 0.351406
-1.123998 -0.072413 0.950777
-1.050221 -0.067660 1.698948
-0.989237 -0.063732 2.419279
-1.312077 -0.084530 3.370818
-1.646134 -0.106052 3.968418
-1.427636 -0.091975 4.885453
-0.878284 -0.056583 5.646060
-0.476063 -0.030670 6.459745
-0.645424 -0.041581 7.132669
-1.011678 -0.065177 7.958214
-0.989396 0.031915 0.197024
-1.079396 0.034819 1.086523
-1.001465 0.032305 1.690817
-1.063164 0.034295 2.747387
-1.365729 0.044055 3.386899
-0.475043 0.015324 6.449235
-0.814301 0.026267 7.479334
-1.137157 0.036682 8.180573
-1.020439 0.032917 8.913465
-0.884360 0.108892 0.353492
-1.077266 0.132645 1.262376
-0.999192 0.123032 1.794473
-1.052792 0.129632 2.705988
-1.280228 0.157636 3.373044
-0.668360 0.082296 6.717436
-0.987153 0.121549 7.487186
-1.149054 0.141485 8.154648
-1.056851 0.130131 8.990569
-0.503543 0.106906 0.167987
-0.716928 0.152210 1.190505
-1.012632 0.214990 1.865798
-0.876650 0.186120 2.498400
-1.122017 0.238213 3.458696
-0.619978 0.131626 6.487287
-1.006932 0.213780 7.534156
-1.147785 0.243684 8.226900
-1.015401 0.215578 8.876688
-0.680268 0.218647 -0.104447
-0.759767 0.244199 0.813030
-0.930146 0.298961 1.691928
-0.919985 0.295695 2.420867
-0.739206 0.237590 3.240336
-0.868609 0.279183 3.889160
-0.986553 0.317091 4.757776
-0.580200 0.186484 5.344075
-0.367706 0.118185 6.215325
-0.736435 0.236700 7.130680
-1.076369 0.345959 7.782887
-1.000372 0.321533 8.710087
-0.836234 0.268777 9.596801
-0.888070 0.378116 -0.249035
-1.121689 0.477585 0.597859
-0.882149 0.375595 1.214645
-0.869956 0.370404 2.067984
-0.852455 0.362952 2.924435
-0.869026 0.370008 3.707630
-0.866161 0.368788 4.601018
-0.658786 0.280493 5.201544
-0.541707 0.230644 6.214992
-0.737921 0.314187 6.727129
-1.048711 0.446513 7.576683
-1.063823 0.452947 8.382122
-0.855836 0.364392 9.286133
-0.893254 0.484586 0.373058
-0.977559 0.530322 1.313227
-0.887981 0.481726 1.867025
-0.865973 0.469786 2.700951
-0.820135 0.444920 3.310759
-0.804203 0.436277 4.151544
-0.662002 0.359133 4.909865
-0.492852 0.267370 5.875657
-0.724999 0.393309 6.712380
-0.989934 0.537035 7.246833
-0.925989 0.502345 8.263808
-0.781970 0.424215 9.010119
-0.719212 0.479511 0.020808
-0.950389 0.633640 0.464785
-0.798572 0.532421 1.245779
-0.785774 0.523889 2.047220
-0.786392 0.524301 2.839473
-0.804059 0.536080 3.674080
-0.795656 0.530477 4.515000
-0.571299 0.380895 5.354644
-0.418314 0.278897 5.992031
-0.734619 0.489783 7.034989
-1.003584 0.669106 7.778105
-0.960123 0.640130 8.371798
-0.792998 0.528705 9.379577
-1.025531 0.831300 0.657956
-0.783893 0.635427 1.223415
-0.720545 0.584077 2.193990
-0.676725 0.548557 2.855454
-0.715191 0.579737 3.720442
-0.748651 0.606860 4.577266
-0.566231 0.458989 5.295527
-0.407254 0.330122 6.128525
-0.621184 0.503535 6.856557
-0.887050 0.719047 7.587011
-0.907109 0.735307 8.433735
-0.734439 0.595340 9.348435
-0.278696 0.272206 0.115867
-0.497496 0.485910 0.679313
-0.690492 0.674412 1.401435
-0.675846 0.660107 2.474366
-0.681471 0.665601 3.246319
-0.682095 0.666210 4.042347
-0.521877 0.509723 4.721992
-0.338135 0.330261 5.448847
-0.167930 0.164019 6.218003
-0.440934 0.430665 7.105826
-0.825642 0.806414 7.896495
-0.762366 0.744612 8.663106
-0.596838 0.582939 9.419899
-0.364843 0.430991 -0.146798
-0.533295 0.629985 0.916646
-0.623131 0.736109 1.380682
-0.608236 0.718513 2.422454
-0.547127 0.646325 3.181963
-0.564304 0.666616 3.998265
-0.445446 0.526208 4.599659
-0.309243 0.365311 5.490886
-0.208321 0.246091 6.290557
-0.436272 0.515372 7.149011
-0.729116 0.861310 7.772556
-0.689118 0.814060 8.554087
-0.544024 0.642659 9.451132
-0.664305 0.931332 0.588718
-0.560049 0.785170 1.380682
-0.513927 0.720509 2.321656
-0.497409 0.697351 2.992616
-0.523737 0.734261 3.785238
-0.525224 0.736346 4.710963
-0.413952 0.580347 5.361630
-0.279511 0.391865 6.016892
-0.488634 0.685048 7.085705
-0.688678 0.965504 7.803776
-0.701022 0.982809 8.609103
-0.509004 0.713607 9.277177
-0.383576 0.661918 -0.219051
-0.573342 0.989387 0.557735
-0.484719 0.836455 1.442939
-0.454992 0.785156 2.278570
-0.384838 0.664095 2.810771
-0.400250 0.690691 3.753436
-0.511865 0.883299 4.633467
-0.428356 0.739193 5.469209
-0.256195 0.442102 6.044538
-0.439082 0.757701 7.133152
-0.594622 1.026109 7.803776
-0.613554 1.058779 8.681259
-0.436953 0.754027 9.256375
-0.342083 0.741214 0.385439
-0.443108 0.960111 1.170051
-0.394137 0.854003 1.974543
-0.512600 1.110683 2.870551
-0.587290 1.272519 3.756338
-0.545346 1.181637 4.453198
-0.393467 0.852550 5.171264
-0.238977 0.517807 6.099696
-0.331491 0.718263 6.664595
-0.482845 1.046213 7.638645
-0.539888 1.169812 8.514898
-0.448108 0.970945 9.328973
-0.137868 0.391823 0.273687
-0.208480 0.592505 1.026131
-0.352917 1.002997 1.926672
-0.422564 1.200934 2.515044
-0.526711 1.496923 3.325914
-0.502395 1.427816 4.107003
-0.369512 1.050161 4.769125
-0.220308 0.626120 5.720852
-0.203362 0.577958 6.512399
-0.334893 0.951771 7.430540
-0.399020 1.134022 8.123497
-0.359884 1.022797 8.964120
0.393418 -0.231842 -0.362696
0.895510 -0.527725 -0.362696
0.776125 -0.457371 -0.362696
0.493222 -0.290656 -0.362696
1.007480 -0.593709 -0.362696
0.363749 -0.214358 -0.362696
0.238310 -0.140437 -0.362696
1.013527 -0.597273 -0.362696
0.014804 -0.008724 -0.362696
0.773144 -0.455615 -0.362696
-0.070959 0.014767 -0.362696
-0.064591 0.013442 -0.362696
-0.047032 0.009788 -0.362696
-0.113121 0.023541 -0.362696
-0.198927 0.041397 -0.362696
-0.296368 0.061675 -0.362696
-0.256867 0.053455 -0.362696
-0.215452 0.044836 -0.362696
-0.205304 0.042725 -0.362696
-0.034036 0.007083 -0.362696
-0.823503 -0.131867 9.764811
-0.746816 -0.119588 9.764811
-0.735828 -0.117828 9.764811
-0.586720 -0.093951 9.764811
-0.743278 -0.119021 9.764811
-0.464725 -0.074416 9.764811
-0.267549 -0.042843 9.764811
-0.801873 -0.128404 9.764811
-0.772838 -0.123754 9.764811
-0.134128 -0.021478 9.764811
-0.710575 -0.181709 9.764811
-0.768659 -0.196562 9.764811
-0.484062 -0.123785 9.764811
-0.230879 -0.059041 9.764811
-0.335826 -0.085878 9.764811
-0.752468 -0.192422 9.764811
-0.279654 -0.071514 9.764811
-0.234323 -0.059921 9.764811
-0.792186 -0.202579 9.764811
-0.015422 -0.003944 9.764811
-0.502266 -0.129406 9.764811
-0.777954 -0.200436 9.764811
-0.659425 -0.169897 9.764811
-0.170721 -0.043985 9.764811
-0.710782 -0.183129 9.764811
-0.654956 -0.168746 9.764811
-0.393131 -0.101288 9.764811
-0.359061 -0.092510 9.764811
-0.514796 -0.132634 9.764811
-0.467520 -0.120454 9.764811
-0.165454 -0.045881 9.764811
-0.088875 -0.024646 9.764811
-0.059015 -0.016365 9.764811
-0.727723 -0.201802 9.764811
-0.625237 -0.173382 9.764811
-0.732570 -0.203147 9.764811
-0.470140 -0.130373 9.764811
-0.733025 -0.203273 9.764811
-0.404318 -0.112120 9.764811
-0.496103 -0.137573 9.764811
-0.838129 -0.266896 9.764811
-0.355568 -0.113228 9.764811
-0.424954 -0.135323 9.764811
-0.916787 -0.291944 9.764811
-0.137243 -0.043704 9.764811
-0.052891 -0.016843 9.764811
-0.573141 -0.182513 9.764811
-0.154769 -0.049285 9.764811
-0.610953 -0.194553 9.764811
-0.231949 -0.073862 9.764811
-0.603792 -0.213523 9.764811
-0.262182 -0.092717 9.764811
-0.707827 -0.250314 9.764811
-0.032336 -0.011435 9.764811
-0.745337 -0.263579 9.764811
-0.125145 -0.044256 9.764811
-0.555920 -0.196594 9.764811
-0.779748 -0.275748 9.764811
-0.577635 -0.204273 9.764811
-0.192777 -0.068173 9.764811
-0.267634 -0.096046 9.764811
-0.130009 -0.046657 9.764811
-0.057642 -0.020686 9.764811
-0.052552 -0.018859 9.764811
-0.802198 -0.287887 9.764811
-0.000950 -0.000341 9.764811
-0.131243 -0.047100 9.764811
-0.513101 -0.184138 9.764811
-0.650318 -0.233381 9.764811
-0.523888 -0.188009 9.764811
-0.296462 -0.111622 9.764811
-0.418438 -0.157548 9.764811
-0.222056 -0.083607 9.764811
-0.679195 -0.255727 9.764811
-0.033567 -0.012638 9.764811
-0.734808 -0.276666 9.764811
-0.225249 -0.084810 9.764811
-0.198328 -0.074673 9.764811
-0.355336 -0.133789 9.764811
-0.754402 -0.284043 9.764811
-0.513566 -0.239114 9.764811
-0.012542 -0.005840 9.764811
-0.349505 -0.162728 9.764811
-0.250184 -0.116484 9.764811
-0.603795 -0.281124 9.764811
-0.493582 -0.229809 9.764811
-0.142212 -0.066213 9.764811
-0.143752 -0.066930 9.764811
-0.063007 -0.029336 9.764811
-0.659492 -0.307056 9.764811
-0.451343 -0.211453 9.764811
-0.574731 -0.269261 9.764811
-0.380354 -0.178195 9.764811
-0.503353 -0.235820 9.764811
-0.850823 -0.398609 9.764811
-0.806663 -0.377920 9.764811
-0.427769 -0.200409 9.764811
-0.102971 -0.048242 9.764811
-0.318126 -0.149042 9.764811
-0.102991 -0.048251 9.764811
-0.608127 -0.298288 9.764811
-0.000906 -0.000444 9.764811
-0.386666 -0.189661 9.764811
-0.288923 -0.141718 9.764811
-0.582887 -0.285908 9.764811
-0.295779 -0.145081 9.764811
-0.537913 -0.263848 9.764811
-0.579627 -0.284309 9.764811
-0.475903 -0.233432 9.764811
-0.260109 -0.127584 9.764811
-0.674299 -0.396104 9.764811
-0.611616 -0.359282 9.764811
-0.047538 -0.027925 9.764811
-0.321085 -0.188615 9.764811
-0.363151 -0.213326 9.764811
-0.311426 -0.182941 9.764811
-0.671176 -0.394269 9.764811
-0.402534 -0.236461 9.764811
-0.760588 -0.446793 9.764811
-0.388722 -0.228347 9.764811
-0.573980 -0.348817 9.764811
-0.547908 -0.332972 9.764811
-0.117743 -0.071554 9.764811
-0.161447 -0.098114 9.764811
-0.836283 -0.508223 9.764811
-0.557545 -0.338829 9.764811
-0.026729 -0.016244 9.764811
-0.748808 -0.455063 9.764811
-0.553371 -0.336292 9.764811
-0.382618 -0.232523 9.764811
-0.670217 -0.460495 9.764811
-0.801216 -0.550501 9.764811
-0.631774 -0.434081 9.764811
-0.063143 -0.043385 9.764811
-0.037524 -0.025782 9.764811
-0.475785 -0.326903 9.764811
-0.126857 -0.087161 9.764811
-0.127447 -0.087566 9.764811
-0.024226 -0.016645 9.764811
-0.715492 -0.491602 9.764811
-0.267100 -0.229737 9.764811
-0.699530 -0.601678 9.764811
-0.507043 -0.436116 9.764811
-0.424320 -0.364965 9.764811
-0.638517 -0.549200 9.764811
-0.281222 -0.241884 9.764811
-0.108372 -0.093213 9.764811
-0.330410 -0.284191 9.764811
-0.517872 -0.445430 9.764811
-0.382481 -0.328979 9.764811
-0.350762 -0.367419 9.764811
-0.450899 -0.472311 9.764811
-0.546246 -0.572187 9.764811
-0.653512 -0.684546 9.764811
-0.424515 -0.444674 9.764811
-0.443078 -0.464118 9.764811
-0.762144 -0.798337 9.764811
-0.546046 -0.571977 9.764811
-0.682599 -0.715014 9.764811
-0.473746 -0.496243 9.764811
-0.287712 -0.327976 9.764811
-0.173981 -0.198329 9.764811
-0.164106 -0.187072 9.764811
-0.507103 -0.578070 9.764811
-0.385036 -0.438921 9.764811
-0.109540 -0.124870 9.764811
-0.220570 -0.251438 9.764811
-0.598444 -0.682194 9.764811
-0.243192 -0.277225 9.764811
-0.635693 -0.724656 9.764811
-0.458269 -0.554842 9.764811
-0.380887 -0.461152 9.764811
-0.057853 -0.070045 9.764811
-0.318299 -0.385375 9.764811
-0.402832 -0.487721 9.764811
-0.507863 -0.614887 9.764811
-0.340953 -0.412802 9.764811
-0.520174 -0.629792 9.764811
-0.575165 -0.696371 9.764811
-0.258208 -0.312620 9.764811
-0.684598 -0.854838 9.764811
-0.144382 -0.180286 9.764811
-0.553310 -0.690903 9.764811
-0.550934 -0.687935 9.764811
-0.171749 -0.214458 9.764811
-0.118383 -0.147822 9.764811
-0.635255 -0.793225 9.764811
-0.736169 -0.919234 9.764811
-0.556121 -0.694413 9.764811
-0.536405 -0.669794 9.764811
-0.347346 -0.494203 9.764811
-0.234916 -0.334238 9.764811
-0.403697 -0.574379 9.764811
-0.057968 -0.082476 9.764811
-0.014586 -0.020753 9.764811
-0.476949 -0.678602 9.764811
-0.460994 -0.655901 9.764811
-0.617464 -0.878526 9.764811
-0.508717 -0.723801 9.764811
-0.072191 -0.102713 9.764811
-0.180608 -0.278816 9.764811
-0.351288 -0.542306 9.764811
-0.464982 -0.717824 9.764811
-0.499901 -0.771730 9.764811
-0.061289 -0.094615 9.764811
-0.431593 -0.666280 9.764811
-0.601984 -0.929323 9.764811
-0.035926 -0.055462 9.764811
-0.600498 -0.927030 9.764811
-0.570676 -0.880991 9.764811
-0.544176 -0.872771 9.764811
-0.281567 -0.451588 9.764811
-0.275071 -0.441170 9.764811
-0.278955 -0.447400 9.764811
-0.124384 -0.199491 9.764811
-0.225778 -0.362112 9.764811
-0.186497 -0.299112 9.764811
-0.520779 -0.835246 9.764811
-0.541466 -0.868425 9.764811
-0.048119 -0.077176 9.764811
-0.085852 -0.155907 9.764811
-0.315411 -0.572791 9.764811
-0.006991 -0.012696 9.764811
-0.340171 -0.617755 9.764811
-0.466950 -0.847988 9.764811
-0.204507 -0.371388 9.764811
-0.457536 -0.830891 9.764811
-0.064638 -0.117383 9.764811
-0.419517 -0.761849 9.764811
-0.378649 -0.687630 9.764811
-0.179204 -0.354888 9.764811
-0.083790 -0.165934 9.764811
-0.031980 -0.063332 9.764811
-0.421610 -0.834941 9.764811
-0.100464 -0.198954 9.764811
-0.175799 -0.348145 9.764811
-0.508051 -1.006126 9.764811
-0.016652 -0.032977 9.764811
-0.168755 -0.334196 9.764811
-0.046006 -0.091109 9.764811
-0.430827 -1.028673 9.764811
-0.418489 -0.999216 9.764811
-0.425603 -1.016200 9.764811
-0.316377 -0.755405 9.764811
-0.175011 -0.417869 9.764811
-0.231819 -0.553508 9.764811
-0.191376 -0.456943 9.764811
-0.281381 -0.671845 9.764811
-0.047647 -0.113766 9.764811
-0.138939 -0.331740 9.764811
-0.138010 -0.380329 9.764811
-0.280575 -0.773209 9.764811
-0.159684 -0.440057 9.764811
-0.095354 -0.262777 9.764811
-0.346155 -0.953933 9.764811
-0.273641 -0.754099 9.764811
-0.139587 -0.384672 9.764811
-0.200957 -0.553797 9.764811
-0.320321 -0.882739 9.764811
-0.213482 -0.588312 9.764811
-0.203088 -0.780318 9.764811
-0.111887 -0.429899 9.764811
-0.225906 -0.867992 9.764811
-0.019511 -0.074966 9.764811
-0.289376 -1.111858 9.764811
-0.162665 -0.625004 9.764811
-0.167859 -0.644957 9.764811
-0.024748 -0.095088 9.764811
-0.045233 -0.173798 9.764811
-0.118218 -0.454225 9.764811
-0.233243 -1.353834 9.764811
-0.033261 -0.193061 9.764811
-0.065405 -0.379635 9.764811
-0.201699 -1.170742 9.764811
-0.008150 -0.047306 9.764811
-0.023394 -0.135785 9.764811
-0.195935 -1.137287 9.764811
-0.046415 -0.269410 9.764811
-0.217764 -1.263986 9.764811
-0.170379 -0.988950 9.764811
-0.090874 -0.681858 9.764811
-0.033707 -0.252918 9.764811
-0.101230 -0.759569 9.764811
-0.049197 -0.369144 9.764811
-0.057945 -0.434785 9.764811
-0.129842 -0.974249 9.764811
-0.056084 -0.420820 9.764811
-0.031751 -0.238243 9.764811
-0.037380 -0.280476 9.764811
-0.042739 -0.320683 9.764811
-0.076602 -0.655151 9.764811
-0.086439 -0.739287 9.764811
-0.039643 -0.339050 9.764811
-0.091267 -0.780578 9.764811
-0.096676 -0.826839 9.764811
-0.064998 -0.555908 9.764811
-0.028556 -0.244232 9.764811
-0.141822 -1.212960 9.764811
-0.023200 -0.198422 9.764811
-0.041197 -0.352344 9.764811
-0.042452 -0.549489 9.764811
-0.015039 -0.194666 9.764811
-0.084909 -1.099024 9.764811
-0.033735 -0.436656 9.764811
-0.008978 -0.116210 9.764811
-0.075521 -0.977519 9.764811
-0.077002 -0.996685 9.764811
-0.096987 -1.255369 9.764811
-0.076171 -0.985934 9.764811
-0.019623 -0.253992 9.764811
-0.027414 -0.496781 9.764811
-0.058377 -1.057867 9.764811
-0.039547 -0.716640 9.764811
-0.071728 -1.299812 9.764811
-0.063000 -1.141640 9.764811
-0.019157 -0.347155 9.764811
-0.052743 -0.955778 9.764811
-0.017325 -0.313955 9.764811
-0.051050 -0.925085 9.764811
-0.025845 -0.468351 9.764811
-0.028536 -0.798701 9.764811
-0.024945 -0.698185 9.764811
-0.022954 -0.642447 9.764811
-0.022533 -0.630668 9.764811
-0.015734 -0.440366 9.764811
-0.027623 -0.773134 9.764811
-0.009253 -0.258975 9.764811
-0.046033 -1.288410 9.764811
-0.020671 -0.578553 9.764811
-0.017746 -0.496699 9.764811
-0.023663 -1.012075 9.764811
-0.022070 -0.943923 9.764811
-0.023915 -1.022838 9.764811
-0.013926 -0.595628 9.764811
-0.023633 -1.010780 9.764811
-0.013160 -0.562840 9.764811
-0.006683 -0.285822 9.764811
-0.019353 -0.827734 9.764811
-0.014375 -0.614819 9.764811
-0.029486 -1.261110 9.764811
0.088289 -1.219949 9.764811
0.023673 -0.327107 9.764811
0.051767 -0.715296 9.764811
0.004660 -0.064396 9.764811
0.026131 -0.361067 9.764811
0.027487 -0.379811 9.764811
0.053003 -0.732374 9.764811
0.036401 -0.502979 9.764811
0.047082 -0.650564 9.764811
0.009875 -0.136447 9.764811
0.132114 -1.201671 9.764811
0.107020 -0.973422 9.764811
0.076191 -0.693007 9.764811
0.002514 -0.022866 9.764811
0.063380 -0.576481 9.764811
0.043126 -0.392261 9.764811
0.095331 -0.867104 9.764811
0.118008 -1.073363 9.764811
0.135311 -1.230752 9.764811
0.106326 -0.967108 9.764811
0.087273 -0.661126 9.764811
0.101767 -0.770927 9.764811
0.163975 -1.242173 9.764811
0.190423 -1.442528 9.764811
0.142851 -1.082153 9.764811
0.033255 -0.251919 9.764811
0.167711 -1.270481 9.764811
0.005253 -0.039793 9.764811
0.065765 -0.498195 9.764811
0.062089 -0.470352 9.764811
0.151540 -0.669335 9.764811
0.264043 -1.166244 9.764811
0.090767 -0.400909 9.764811
0.321207 -1.418733 9.764811
0.031645 -0.139774 9.764811
0.288317 -1.273464 9.764811
0.145104 -0.640907 9.764811
0.240833 -1.063732 9.764811
0.304035 -1.342888 9.764811
0.115245 -0.509025 9.764811
0.170184 -0.691287 9.764811
0.233683 -0.949222 9.764811
0.319257 -1.296825 9.764811
0.128906 -0.523617 9.764811
0.084847 -0.344651 9.764811
0.283279 -1.150681 9.764811
0.308043 -1.251275 9.764811
0.028530 -0.115889 9.764811
0.167380 -0.679900 9.764811
0.244568 -0.993438 9.764811
0.168733 -0.516988 9.764811
0.170871 -0.523540 9.764811
0.477793 -1.463933 9.764811
0.156372 -0.479116 9.764811
0.077698 -0.238062 9.764811
0.002146 -0.006575 9.764811
0.421449 -1.291297 9.764811
0.228020 -0.698642 9.764811
0.493243 -1.511272 9.764811
0.502263 -1.538910 9.764811
0.043193 -0.117348 9.764811
0.524181 -1.424093 9.764811
0.195594 -0.531389 9.764811
0.381954 -1.037691 9.764811
0.306873 -0.833712 9.764811
0.081164 -0.220507 9.764811
0.495431 -1.345984 9.764811
0.476169 -1.293653 9.764811
0.150000 -0.407520 9.764811
0.093333 -0.253567 9.764811
0.116134 -0.298195 9.764811
0.589687 -1.514133 9.764811
0.186859 -0.479795 9.764811
0.463377 -1.189808 9.764811
0.486628 -1.249510 9.764811
0.603491 -1.549577 9.764811
0.497549 -1.277551 9.764811
0.441265 -1.133031 9.764811
0.020932 -0.053746 9.764811
0.110874 -0.284689 9.764811
0.566812 -1.379881 9.764811
0.543386 -1.322852 9.764811
0.315464 -0.767984 9.764811
0.024488 -0.059614 9.764811
0.058705 -0.142914 9.764811
0.586520 -1.427859 9.764811
0.187343 -0.456078 9.764811
0.380703 -0.926807 9.764811
0.376728 -0.917128 9.764811
0.382299 -0.930691 9.764811
0.415283 -0.910047 9.764811
0.348185 -0.763008 9.764811
0.416617 -0.912970 9.764811
0.043270 -0.094821 9.764811
0.233424 -0.511523 9.764811
0.573943 -1.257732 9.764811
0.010106 -0.022146 9.764811
0.489067 -1.071736 9.764811
0.373179 -0.817781 9.764811
0.637726 -1.397506 9.764811
0.036110 -0.076878 9.764811
0.017207 -0.036634 9.764811
0.483001 -1.028308 9.764811
0.437492 -0.931419 9.764811
0.128421 -0.273407 9.764811
0.670089 -1.426616 9.764811
0.430151 -0.915791 9.764811
0.135461 -0.288395 9.764811
0.021304 -0.045357 9.764811
0.227847 -0.485086 9.764811
0.601297 -0.702877 9.764811
0.041333 -0.048315 9.764811
0.106240 -0.124188 9.764811
0.768212 -0.897991 9.764811
0.310106 -0.362493 9.764811
0.683370 -0.798816 9.764811
0.871938 -1.019240 9.764811
0.090990 -0.106361 9.764811
0.245213 -0.286639 9.764811
0.543067 -0.634810 9.764811
1.039697 -1.199898 9.764811
1.060417 -1.223811 9.764811
0.165963 -0.191535 9.764811
0.000635 -0.000733 9.764811
0.087248 -0.100692 9.764811
0.288023 -0.332402 9.764811
0.079842 -0.092144 9.764811
1.106749 -1.277282 9.764811
0.092823 -0.107126 9.764811
0.327649 -0.378134 9.764811
0.335120 -0.352218 9.764811
0.827735 -0.869968 9.764811
0.578439 -0.607952 9.764811
0.631029 -0.663225 9.764811
1.168400 -1.228014 9.764811
1.160328 -1.219530 9.764811
0.612962 -0.644236 9.764811
0.768341 -0.807543 9.764811
0.558808 -0.587320 9.764811
1.104637 -1.160997 9.764811
1.108091 -1.055500 9.764811
0.779541 -0.742544 9.764811
0.173600 -0.165360 9.764811
1.013974 -0.965850 9.764811
0.834684 -0.795070 9.764811
0.748420 -0.712900 9.764811
0.550158 -0.524047 9.764811
0.457863 -0.436132 9.764811
1.026614 -0.977891 9.764811
0.086082 -0.081997 9.764811
0.247819 -0.231713 9.764811
0.313533 -0.293156 9.764811
0.643732 -0.601895 9.764811
1.248947 -1.167777 9.764811
1.174529 -1.098195 9.764811
0.241826 -0.226110 9.764811
0.931931 -0.871364 9.764811
0.281223 -0.262946 9.764811
0.549212 -0.513518 9.764811
0.327327 -0.306053 9.764811
0.584377 -0.510951 9.764811
1.097030 -0.959190 9.764811
0.249617 -0.218254 9.764811
0.710000 -0.620790 9.764811
0.164629 -0.143944 9.764811
1.103085 -0.964485 9.764811
0.727973 -0.636504 9.764811
0.057787 -0.050526 9.764811
1.167872 -1.021131 9.764811
0.081517 -0.071274 9.764811
1.245343 -1.054241 9.764811
0.294056 -0.248932 9.764811
0.154971 -0.131190 9.764811
0.283746 -0.240204 9.764811
0.132785 -0.112409 9.764811
0.386444 -0.327143 9.764811
0.997680 -0.844583 9.764811
1.006630 -0.852159 9.764811
1.096541 -0.928273 9.764811
0.725961 -0.614559 9.764811
0.538740 -0.427743 9.764811
0.840310 -0.667181 9.764811
0.732595 -0.581658 9.764811
0.054916 -0.043601 9.764811
0.316722 -0.251468 9.764811
0.883452 -0.701434 9.764811
1.268392 -1.007065 9.764811
0.183126 -0.145397 9.764811
1.061805 -0.843041 9.764811
0.015092 -0.011983 9.764811
0.928931 -0.720416 9.764811
0.839192 -0.650820 9.764811
0.300424 -0.232989 9.764811
0.455183 -0.353009 9.764811
0.616252 -0.477923 9.764811
1.027627 -0.796958 9.764811
0.280180 -0.217289 9.764811
0.490437 -0.380349 9.764811
1.229613 -0.953605 9.764811
1.299393 -1.007721 9.764811
0.391190 -0.259456 9.764811
0.491659 -0.326092 9.764811
0.698849 -0.463511 9.764811
0.503428 -0.333898 9.764811
1.369545 -0.908348 9.764811
0.988128 -0.655374 9.764811
0.153917 -0.102086 9.764811
1.278240 -0.847791 9.764811
