-0.924890 0.876676 2.292096
-1.133056 1.073991 2.894051
-1.437890 1.362933 3.613987
-1.455083 1.379230 3.940122
-0.556069 0.527082 6.922687
-0.797848 0.756257 7.654205
-0.881970 0.835993 8.122190
-0.917082 0.869274 8.755103
-0.762915 0.891714 0.162921
-0.852253 0.996135 0.817605
-0.901043 1.053161 1.399449
-0.835823 0.976931 1.801384
-0.837157 0.978490 2.155925
-1.099815 1.285491 3.344318
-1.283397 1.500066 3.188569
-1.325606 1.549401 4.152537
-0.460518 0.538265 6.899332
-0.685677 0.801436 7.767904
-0.790011 0.923384 8.122190
-0.868122 1.014682 8.888011
-0.737778 0.862334 8.996742
-0.672104 0.785572 10.032465
-0.547670 0.777182 0.378669
-0.646113 0.916879 1.591841
-0.816180 1.158216 1.883932
-0.812798 1.153418 2.414452
-0.709233 1.006452 2.631103
-1.176171 1.669069 3.507499
-1.126109 1.598028 4.102954
-1.073252 1.523020 4.600733
-0.470499 0.667671 7.395178
-0.683709 0.970230 8.115504
-0.707436 1.003901 8.328210
-0.708874 1.005943 8.813542
-3.839440 6.875510 -0.268070
-0.758114 1.357599 1.278298
-0.771352 1.381305 1.738709
-0.673899 1.206790 2.084385
-0.880832 1.577358 3.448813
-0.429348 0.768859 7.796348
-0.571387 1.023217 8.151304
-0.565074 1.011910 8.358240
-0.648274 1.160902 9.174477
-0.606403 1.085922 9.669107
-0.623893 1.412533 1.040946
-0.575578 1.303146 1.629650
-0.573016 1.297344 2.215716
-0.519073 1.175215 2.896747
-0.937572 2.122722 4.168615
-0.876063 1.983462 4.601536
-0.746368 1.689824 4.789195
-0.303290 0.686667 7.437056
-0.425930 0.964334 7.853348
-0.504893 1.143110 8.555669
-0.538831 1.219947 8.959535
-0.540710 1.224202 9.778433
-0.399895 1.250669 0.881016
-0.453917 1.419623 0.945025
-0.479595 1.499932 1.627140
-0.437136 1.367140 1.790961
-0.431937 1.350880 2.215716
-0.428155 1.339053 2.854755
-0.686666 2.147543 3.755048
-0.647993 2.026595 4.074824
-0.585494 1.831129 4.646827
-0.519295 1.624093 5.473365
-0.244880 0.765862 7.624035
-0.348171 1.088902 8.059162
-0.401453 1.255542 8.603407
-0.433336 1.355255 9.212531
-0.377936 1.181994 9.517514
-0.265218 1.205018 0.749310
-0.323275 1.468800 1.259813
-0.329448 1.496849 1.749087
-0.315145 1.431862 2.465817
-0.510855 2.321070 4.048150
-0.480062 2.181161 4.540397
-0.214929 0.976529 7.846368
-0.267917 1.217282 8.221140
-0.314669 1.429701 8.953578
-0.312692 1.420716 9.446933
-0.882138 7.774409 -0.221338
-0.172138 1.517075 0.440231
-0.196231 1.729415 0.942753
-0.191745 1.689879 1.187546
-0.175951 1.550680 2.119123
-0.169581 1.494537 2.596334
-0.167344 1.474822 2.881485
-0.283232 2.496164 4.101910
-0.280387 2.471086 4.396972
-0.274068 2.415400 4.909536
-0.125946 1.109976 7.888645
-0.155903 1.373994 8.480517
-0.016757 0.901156 0.415180
-0.019548 1.051248 1.217846
-0.029335 1.577621 1.675955
-0.030140 1.620877 1.568278
-0.027695 1.489421 2.449433
-0.033318 1.791805 2.706968
-0.043841 2.357715 3.933266
-0.044631 2.400211 4.482029
-0.044832 2.411016 5.427379
-0.022538 1.212061 8.278715
-0.024531 1.319262 8.120481
-0.026622 1.431676 8.784224
-0.028203 1.516745 9.543232
0.138694 1.580878 0.843761
0.155535 1.772842 1.267074
0.148188 1.689103 1.556738
0.139884 1.594448 2.291286
0.185557 2.115037 4.349257
0.208319 2.374495 4.241400
0.213393 2.432326 4.963448
0.202666 2.310061 5.235140
0.190737 2.174080 5.993710
0.125558 1.431151 7.822438
0.151436 1.726115 8.813252
0.147253 1.678440 9.275690
0.124848 1.423054 9.592154
0.255240 1.415383 0.883767
0.284538 1.577847 1.681286
0.319165 1.769863 1.599027
0.290642 1.611698 2.140761
0.269386 1.493829 2.729171
0.284484 1.577549 3.037583
0.358676 1.988968 3.881442
0.410691 2.277403 3.974966
0.438699 2.432718 4.859425
0.432205 2.396706 5.648608
0.298710 1.656436 7.512834
0.296935 1.646595 7.826449
0.299546 1.661070 8.526574
0.272584 1.511559 8.701922
0.272001 1.508328 9.585158
0.560287 1.899531 1.277687
0.540950 1.833972 1.799251
0.533965 1.810290 2.126744
0.488462 1.656023 2.798136
0.579982 1.966303 4.510185
0.656236 2.224824 4.594676
0.670833 2.274313 4.865234
0.635289 2.153808 5.250613
0.595683 2.019531 6.309115
0.509251 1.726502 6.725336
0.478386 1.621864 6.992633
0.485713 1.646703 7.450152
0.477601 1.619201 8.042732
0.448211 1.519562 8.452853
0.733015 1.850172 0.926622
0.725104 1.830202 2.195995
0.709459 1.790713 2.282890
0.675971 1.706189 2.870046
0.650557 1.642043 3.137575
0.644608 1.627026 3.209916
0.687087 1.734246 4.018512
0.818600 2.066192 5.014563
0.862312 2.176523 5.096357
0.833932 2.104892 6.718575
0.667504 1.684818 7.056011
0.623440 1.573598 7.366889
0.633187 1.598200 8.139877
0.643552 1.624361 8.854826
0.773087 1.480206 1.056712
0.892920 1.709647 1.245836
0.882964 1.690583 1.730424
0.876768 1.678720 2.202511
0.841844 1.611853 2.718130
0.836002 1.600668 3.252030
0.848905 1.625373 3.642212
0.896713 1.716909 4.587307
0.916297 1.754406 4.814001
0.931026 1.782607 5.350186
0.872331 1.670225 5.818078
0.869091 1.664022 6.220239
0.931277 1.783088 7.118806
0.876520 1.678246 7.518247
0.866061 1.658221 8.121725
0.887581 1.699425 8.810982
0.876595 1.323151 0.850732
0.962751 1.453197 1.012037
1.037805 1.566485 1.683899
1.090203 1.645576 2.521028
1.099371 1.659414 2.908039
1.060075 1.600100 3.349414
0.960954 1.450484 3.514367
1.038569 1.567637 4.412738
0.988184 1.491587 4.471441
0.969491 1.463370 5.101322
1.051176 1.586667 5.676129
1.101589 1.662761 6.067841
1.115095 1.683149 6.770036
1.132314 1.709139 7.605872
1.045204 1.577653 7.774148
1.057694 1.596506 8.496420
1.032244 1.558092 8.975053
0.904287 1.364951 9.364002
0.958182 1.186332 0.314458
1.067422 1.321582 1.145906
1.179485 1.460328 1.213847
1.210183 1.498335 1.985015
1.217586 1.507501 2.129425
1.227722 1.520051 2.571618
1.268308 1.570300 3.336253
1.223769 1.515156 3.555701
1.188292 1.471232 4.021476
1.221952 1.512907 4.899021
1.118915 1.385336 5.348611
1.139261 1.410527 5.616608
1.300210 1.609798 6.267360
1.245058 1.541514 6.530472
1.227229 1.519440 7.187351
1.224211 1.515703 7.869941
1.162370 1.439138 8.219852
1.178435 1.459028 8.918461
1.048346 1.297964 9.376236
1.169718 1.174619 0.702270
1.347909 1.353557 0.784863
1.346870 1.352514 1.343441
1.359571 1.365268 2.289768
1.308644 1.314127 2.324141
1.406522 1.412416 3.521278
1.456913 1.463017 3.490360
1.438834 1.444864 4.152537
1.424845 1.430815 4.756647
1.340023 1.345638 4.793668
1.360156 1.365856 5.555169
1.506562 1.512875 6.425145
1.407601 1.413499 6.278685
1.380206 1.385989 6.728099
1.421022 1.426977 7.572007
1.329032 1.334601 7.829746
1.336674 1.342275 8.434464
1.250410 1.034865 -0.062648
1.317438 1.090339 0.784142
1.441776 1.193244 1.089784
1.489749 1.232948 2.081296
1.484187 1.228344 1.991893
1.518082 1.256396 2.729591
1.511375 1.250846 3.476670
1.600438 1.324556 4.230524
1.485782 1.229664 3.937979
1.481302 1.225956 5.046218
1.385119 1.146353 5.308892
1.446757 1.197366 5.790516
1.636787 1.354638 6.282538
1.557565 1.289073 6.585881
1.517781 1.256147 7.063843
1.612768 1.334760 7.997436
1.591972 1.317549 8.475918
1.532471 1.268305 8.940092
1.345761 0.912232 1.191042
1.522389 1.031960 0.904536
1.560862 1.058039 2.106077
1.457665 0.988087 1.789149
1.532013 1.038484 2.282752
1.629903 1.104839 2.715858
1.605537 1.088323 3.311754
1.508434 1.022501 3.905068
1.622027 1.099501 4.974603
1.608874 1.090585 5.149362
1.621786 1.099337 5.346857
1.813194 1.229084 6.439933
1.714468 1.162162 6.478004
1.657392 1.123473 6.803973
1.763406 1.195335 7.865545
1.582350 1.072605 7.836111
1.730629 1.173117 8.927112
1.634212 1.107760 9.193606
1.460752 0.990180 9.704047
1.078057 0.578163 0.120189
1.446945 0.775998 0.981240
1.688200 0.905383 1.467317
1.672065 0.896730 1.578960
1.613363 0.865248 2.048100
1.564193 0.838878 2.540957
1.603260 0.859830 3.159072
1.645826 0.882658 4.187985
1.568046 0.840944 4.266606
1.672907 0.897181 5.051122
1.608600 0.862694 5.317580
1.609258 0.863047 5.787874
1.770219 0.949370 6.435679
1.850065 0.992191 6.968693
1.738979 0.932616 7.166763
1.751993 0.939595 7.744728
1.845491 0.989739 8.634389
1.810534 0.970991 9.048153
1.644108 0.881736 9.476287
1.425025 0.581571 0.908267
1.564979 0.638688 0.937664
1.620514 0.661353 1.629880
1.632148 0.666101 2.137231
1.685738 0.687972 2.962672
1.658287 0.676769 2.924090
1.735274 0.708188 4.073661
1.712665 0.698961 4.233471
1.663388 0.678850 4.512928
1.486605 0.606703 4.856591
1.660843 0.677812 5.758878
1.991454 0.812738 6.486516
2.024683 0.826299 7.003065
1.952431 0.796813 7.276059
1.832294 0.747783 7.455403
1.805801 0.736971 7.959895
1.775825 0.724737 8.426544
1.705006 0.514870 1.294746
1.759779 0.531410 1.818389
1.778457 0.537050 2.358628
1.663056 0.502202 2.411816
1.768911 0.534167 3.379984
1.699536 0.513218 3.587070
1.711185 0.516736 4.315026
1.819894 0.549563 5.064893
1.658304 0.500767 5.113177
1.793267 0.541522 5.769840
2.052320 0.619750 6.459245
2.025498 0.611650 6.934691
1.976631 0.596894 7.392806
2.029268 0.612789 8.079384
1.908619 0.576356 8.416506
1.900501 0.573904 9.003381
1.809715 0.347757 1.001156
1.759723 0.338151 1.870379
1.721362 0.330779 2.571152
1.711904 0.328962 2.474177
1.679907 0.322813 3.095156
1.727077 0.331877 4.142027
1.778871 0.341830 4.453281
1.736812 0.333748 4.639400
1.623270 0.311930 4.970170
1.759693 0.338145 5.519841
2.076969 0.399113 6.546874
2.031963 0.390465 6.763869
2.044143 0.392805 7.536702
2.030323 0.390149 7.998199
1.892599 0.363684 8.133946
1.849932 0.355485 8.637572
1.879697 0.180345 1.427439
1.921586 0.184364 2.040036
1.857765 0.178240 2.448272
1.759915 0.168852 2.716543
1.694514 0.162578 3.025775
1.658976 0.159168 3.531592
1.671338 0.160354 4.119378
1.667096 0.159947 4.541782
1.744476 0.167371 5.455924
1.795745 0.172290 5.575146
2.044234 0.196131 6.307645
1.967156 0.188736 6.509880
2.031871 0.194945 7.489143
1.995492 0.191454 7.882468
2.054010 0.197069 8.622015
1.858800 0.178340 8.589328
0.855093 0.000805 0.609583
1.817856 0.001712 1.507662
1.747502 0.001646 2.250180
1.739684 0.001639 2.160117
1.726141 0.001626 3.219984
1.611373 0.001518 3.107235
1.675152 0.001578 3.934874
1.802120 0.001698 4.819232
1.626240 0.001532 4.831043
1.792261 0.001688 5.751964
1.886368 0.001777 5.600375
2.008580 0.001892 6.333546
2.006806 0.001890 7.009209
1.876753 0.001768 7.283728
1.840437 0.001734 7.775056
1.931840 0.001820 8.467815
1.907268 0.001797 9.008001
1.834477 0.001728 9.606238
1.776201 -0.181217 1.377752
1.851078 -0.188856 1.380580
1.833237 -0.187036 2.464483
1.748732 -0.178415 2.619625
1.769199 -0.180503 3.234457
1.657465 -0.169103 3.340625
1.682750 -0.171683 4.195761
1.742583 -0.177787 4.685457
1.668415 -0.170220 5.341460
1.744580 -0.177991 5.578963
1.951708 -0.199123 5.930560
1.927580 -0.196662 6.358744
1.915060 -0.195384 6.994964
1.967295 -0.200713 7.710415
2.022509 -0.206347 8.296882
1.897820 -0.193625 8.552597
1.648567 -0.344001 1.355400
1.786760 -0.372838 1.979050
1.792355 -0.374005 2.340237
1.721447 -0.359209 2.626549
1.817959 -0.379348 3.448967
1.770245 -0.369392 3.977996
1.652571 -0.344837 4.018213
1.772853 -0.369936 4.996757
1.674075 -0.349324 5.254914
1.826071 -0.381041 5.735371
1.987669 -0.414761 6.109937
1.905243 -0.397561 6.393113
2.003565 -0.418078 7.331220
1.917361 -0.400090 7.648614
2.027026 -0.422973 8.566033
1.991889 -0.415641 8.993386
1.613189 -0.499635 0.896008
1.715030 -0.531178 1.550633
1.744771 -0.540389 2.291904
1.653265 -0.512048 2.342510
1.649394 -0.510849 3.417335
1.520450 -0.470913 3.350374
1.568569 -0.485816 4.046876
1.653916 -0.512249 4.574600
1.668363 -0.516724 5.428218
1.743891 -0.540116 5.897077
1.917475 -0.593879 6.013996
2.011932 -0.623134 6.805175
1.913511 -0.592651 7.180492
1.775929 -0.550039 7.490905
1.699496 -0.526366 7.915191
1.691839 -0.523995 8.460223
1.804764 -0.770705 1.409471
1.672560 -0.714249 1.521478
1.633990 -0.697778 2.296411
1.575367 -0.672744 2.421115
1.642174 -0.701272 3.479852
1.555464 -0.664244 3.528160
1.496108 -0.638896 3.949467
1.576422 -0.673194 4.477528
1.488341 -0.635580 4.789276
1.614139 -0.689301 5.585888
1.907763 -0.814689 6.287876
1.809092 -0.772553 6.271006
1.750924 -0.747713 6.823208
1.722976 -0.735778 7.539166
1.743840 -0.744688 8.281021
1.728261 -0.738035 8.777891
1.613844 -0.689175 9.101455
1.397517 -0.596794 9.550221
1.192317 -0.649242 0.703499
1.500624 -0.817121 1.347134
1.547006 -0.842377 1.796072
1.541313 -0.839278 2.333291
1.530377 -0.833323 2.467248
1.555414 -0.846956 2.968481
1.528914 -0.832526 3.521295
1.537005 -0.836932 4.392691
1.584563 -0.862828 4.962204
1.536494 -0.836653 5.442072
1.592378 -0.867083 5.616608
1.867766 -1.017038 6.492796
1.838715 -1.001219 6.948198
1.686956 -0.918583 7.256122
1.513160 -0.823947 7.470956
1.519002 -0.827129 8.090675
1.618593 -0.881358 8.976517
1.197320 -0.823398 0.511593
1.254187 -0.862505 1.111849
1.380492 -0.949366 1.181764
1.440117 -0.990370 1.950261
1.422687 -0.978383 2.000707
1.481755 -1.019004 2.986316
1.452467 -0.998862 3.497096
1.390137 -0.955998 3.847758
1.415821 -0.973661 4.355348
1.378916 -0.948282 4.534835
1.461680 -1.005199 5.436834
1.551296 -1.066827 5.811188
1.645034 -1.131291 6.387678
1.568482 -1.078646 6.528659
1.534960 -1.055593 7.235473
1.526894 -1.050046 8.066559
1.393168 -0.958083 8.133615
1.434159 -0.986272 8.911573
1.370056 -0.942188 9.504794
1.489599 -1.247566 1.004076
1.391473 -1.165383 1.459305
1.340746 -1.122899 1.964115
1.335794 -1.118751 2.712276
1.332898 -1.116326 3.317018
1.292737 -1.082690 3.670518
1.306785 -1.094456 3.795459
1.357837 -1.137212 4.367670
1.452564 -1.216548 5.403758
1.332818 -1.116259 5.509690
1.335138 -1.118201 6.084904
1.552207 -1.300001 6.886226
1.510836 -1.265352 7.338516
1.290032 -1.080424 7.422465
1.322398 -1.107532 7.993013
1.324661 -1.109427 8.567176
1.044785 -1.075787 0.286787
1.051276 -1.082470 0.748354
1.164247 -1.198794 1.084504
1.216570 -1.252670 1.929480
1.212853 -1.248842 2.173974
1.147390 -1.181436 2.983004
1.094866 -1.127354 3.388502
1.127275 -1.160725 3.545418
1.065024 -1.096627 4.129356
1.205889 -1.241671 5.106246
1.351555 -1.391660 5.494809
1.213311 -1.249314 5.523548
1.205684 -1.241461 6.146194
1.237579 -1.274302 6.635431
1.224005 -1.260325 7.228369
1.201456 -1.237107 7.651611
1.178482 -1.213451 8.217624
1.208098 -1.243946 8.968378
1.200320 -1.235937 9.664457
0.864355 -1.099245 0.133422
0.931500 -1.184636 0.678431
1.021578 -1.299194 1.671050
1.076159 -1.368607 1.860200
1.076055 -1.368475 2.173974
0.983891 -1.251264 2.714261
0.923563 -1.174543 3.178308
0.911262 -1.158899 3.944404
1.156336 -1.470572 4.642099
1.328055 -1.688956 4.767491
1.215684 -1.546048 5.137491
1.177601 -1.497616 6.016612
1.048842 -1.333866 6.323582
1.002387 -1.274787 6.735415
1.117592 -1.421299 7.754761
1.002362 -1.274756 7.743344
1.025764 -1.304517 8.520612
1.024325 -1.302687 9.199265
0.849537 -1.080400 9.372874
0.757474 -1.179138 0.421315
0.816126 -1.270438 0.783313
0.896563 -1.395653 1.761425
0.905104 -1.408948 1.976844
0.821045 -1.278097 2.221115
0.812785 -1.265239 3.255250
1.042892 -1.623438 4.255483
1.304140 -2.030116 5.434125
1.170149 -1.821535 5.232026
1.049658 -1.633971 6.577406
0.883513 -1.375338 7.255637
0.917047 -1.427539 7.986631
0.949287 -1.477726 8.805061
0.902469 -1.404846 9.234014
0.731336 -1.138449 9.460342
0.745546 -1.445519 1.204962
0.724130 -1.403996 1.703847
0.702060 -1.361205 2.360865
0.685133 -1.328386 2.972449
0.863393 -1.674011 3.973255
1.045362 -2.026824 4.658038
1.027363 -1.991927 5.230238
0.910834 -1.765992 5.592455
0.881841 -1.709778 6.406139
0.774816 -1.502270 6.799057
0.681526 -1.321393 7.191910
0.763111 -1.479576 8.134274
0.767313 -1.487724 8.484903
0.755015 -1.463878 9.022522
0.672739 -1.304356 9.481958
0.485006 -1.241034 0.697140
0.477351 -1.221448 0.831697
0.571622 -1.462668 1.557394
0.571315 -1.461881 1.543443
0.551057 -1.410045 2.440067
0.534696 -1.368181 2.741469
0.736489 -1.884528 4.642415
0.845248 -2.162823 4.874868
0.852676 -2.181829 5.691186
0.732817 -1.875133 5.709042
0.658291 -1.684435 6.149299
0.576051 -1.474000 6.783037
0.549047 -1.404903 7.359619
0.564152 -1.443552 7.765115
0.533376 -1.364802 8.167081
0.555753 -1.422063 9.057229
0.497216 -1.272276 9.567453
0.334494 -1.178083 0.289862
0.342581 -1.206564 1.272079
0.403227 -1.420160 1.205035
0.409794 -1.443289 1.638897
0.392021 -1.380692 2.405105
0.392414 -1.382076 2.674016
0.448042 -1.577997 3.336919
0.557934 -1.965037 4.469113
0.609671 -2.147253 4.533602
0.604424 -2.128772 4.966972
0.565481 -1.991618 5.144859
0.546932 -1.926285 5.993426
0.376421 -1.325748 7.801861
0.401574 -1.414337 8.506102
0.215307 -1.232062 0.374333
0.233113 -1.333953 0.562824
0.246426 -1.410134 1.312587
0.243157 -1.391428 1.426167
0.245369 -1.404090 1.996187
0.242116 -1.385475 2.365317
0.306902 -1.756202 3.269047
0.354834 -2.030487 4.430529
0.349180 -1.998132 5.189164
0.243892 -1.395637 8.012849
0.229728 -1.314582 8.084830
0.242616 -1.388337 8.948983
0.103457 -1.319513 1.148689
0.106538 -1.358810 1.831333
0.110346 -1.407373 2.421471
0.117996 -1.504944 3.098339
0.110926 -1.414769 3.380138
0.135903 -1.733330 4.017347
0.161050 -2.054062 4.127935
0.111382 -1.420581 7.156312
0.099958 -1.274882 7.731930
0.101756 -1.297809 8.312316
0.094342 -1.203257 8.821591
0.089268 -1.138541 9.465407
-0.050804 -1.426678 0.484034
-0.053832 -1.511734 0.867209
-0.049257 -1.383250 1.364320
-0.051940 -1.458579 2.395771
-0.050075 -1.406226 2.372337
-0.062563 -1.756908 3.272242
-0.067405 -1.892873 4.630697
-0.060523 -1.699616 4.953663
-0.029955 -0.841203 7.574273
-0.036118 -1.014285 7.896270
-0.044230 -1.242075 8.292309
-0.044545 -1.250921 8.641234
-0.168606 -1.287381 0.133940
-0.163015 -1.244688 0.614435
-0.178125 -1.360057 1.104292
-0.176298 -1.346107 1.753975
-0.175963 -1.343548 2.058266
-0.174764 -1.334398 2.519986
-0.174629 -1.333363 3.389908
-0.215760 -1.647422 3.674085
-0.268316 -2.048707 4.599134
-0.132253 -1.009808 8.246465
-0.169029 -1.290604 8.789396
-0.156579 -1.195543 8.972227
-0.140249 -1.070861 9.367402
-0.297373 -1.299120 1.338805
-0.300974 -1.314853 1.620321
-0.323890 -1.414962 2.573342
-0.378054 -1.651587 3.726058
-0.414342 -1.810119 4.566252
-0.233328 -1.019332 7.469319
-0.217921 -0.952023 8.196912
-0.262896 -1.148504 8.657891
-0.268969 -1.175031 9.123112
-0.246759 -1.078006 9.728664
-0.426306 -1.283031 1.669567
-0.434764 -1.308487 2.042223
-0.437467 -1.316620 2.147617
-0.521089 -1.568294 3.952597
-0.548830 -1.651783 4.337271
-0.317371 -0.955174 7.604088
-0.315030 -0.948130 8.268252
-0.364774 -1.097841 8.672887
-0.378437 -1.138961 9.332207
-0.346574 -1.043065 9.852799
-0.573213 -1.271341 1.054062
-0.585364 -1.298293 1.622635
-0.544214 -1.207024 1.982797
-0.552381 -1.225138 2.747701
-0.653247 -1.448851 3.869671
-0.712181 -1.579563 4.438543
-0.386014 -0.856149 7.368527
-0.350553 -0.777499 8.219932
-0.375417 -0.832645 8.492531
-0.648499 -1.137346 0.761235
-0.644496 -1.130326 1.206192
-0.643188 -1.128032 1.616405
-0.606013 -1.062834 2.553347
-0.783646 -1.374368 4.299777
-0.901642 -1.581311 4.644224
-0.534302 -0.937066 7.760771
-0.403587 -0.707815 8.011632
-0.521511 -0.914634 8.834311
-0.499901 -0.876734 9.168081
-0.482981 -0.847059 9.948705
-0.767544 -1.072428 1.035998
-0.838696 -1.171843 1.487882
-0.764433 -1.068082 1.445791
-0.731783 -1.022463 1.753700
-0.726460 -1.015024 2.280176
-0.904304 -1.263512 3.967917
-1.008131 -1.408581 4.717720
-0.831913 -1.162366 4.999196
-0.674138 -0.941920 5.665191
-0.398788 -0.557195 7.752375
-0.592334 -0.827621 8.490242
-0.524498 -0.732840 8.536027
-0.764236 -0.862322 0.467941
-0.847552 -0.956331 1.242634
-0.833541 -0.940523 1.321507
-0.788011 -0.889149 2.164233
-0.695523 -0.784791 2.807938
-0.765383 -0.863616 3.472677
-0.911440 -1.028419 3.421798
-1.048568 -1.183147 3.813901
-1.089075 -1.228853 4.354098
-0.984521 -1.110880 5.148488
-0.212394 -0.239654 7.094473
-0.449512 -0.507204 7.637131
-0.611674 -0.690180 8.190403
-0.710606 -0.801809 9.042593
-0.906585 -0.846865 0.954227
-0.893568 -0.834706 1.606946
-0.890798 -0.832119 2.232875
-0.889469 -0.830878 2.211661
-1.107883 -1.034904 3.716459
-1.330215 -1.242590 4.644224
-0.262296 -0.245018 7.045169
-0.452019 -0.422244 7.521151
-0.756651 -0.706809 8.382270
-0.816810 -0.763005 8.947067
-0.756717 -0.706870 9.391432
-0.563701 -0.526569 9.543331
-0.792307 -0.609838 0.306639
-0.945650 -0.727866 1.026852
-0.995605 -0.766316 1.314446
-0.947066 -0.728956 1.935751
-0.842351 -0.648357 2.705694
-0.840801 -0.647164 3.340376
-1.095972 -0.843569 4.008781
-1.300406 -1.000921 4.196937
-1.268627 -0.976461 4.260800
-1.173727 -0.903417 5.258443
-0.377856 -0.290835 7.099775
-0.645430 -0.496787 7.659949
-0.846630 -0.651650 8.403082
-0.869681 -0.669393 9.041507
-0.767585 -0.472634 0.422338
-0.941050 -0.579444 1.293644
-1.072006 -0.660079 1.363870
-0.960458 -0.591394 1.691195
-0.812393 -0.500224 2.623165
-0.728642 -0.448655 3.104633
-0.783085 -0.482178 3.416658
-1.155555 -0.711523 4.164236
-1.411494 -0.869116 4.587885
-0.343227 -0.211339 6.714767
-0.461422 -0.284116 7.433264
-0.810468 -0.499039 7.946543
-0.857119 -0.527764 8.124955
-0.912414 -0.561811 8.732990
-0.589326 -0.290241 0.686465
-0.774258 -0.381319 0.889185
-0.917097 -0.451667 1.605070
-0.868467 -0.427717 2.232907
-0.790870 -0.389501 2.652128
-0.876200 -0.431525 3.271409
-1.169838 -0.576141 3.646514
-1.383632 -0.681434 4.213172
-1.426481 -0.702537 4.636024
-0.433886 -0.213687 7.027921
-0.590575 -0.290856 7.291820
-0.994617 -0.489845 8.116581
-0.997038 -0.491038 8.373548
-0.999106 -0.492056 9.012013
-0.740605 -0.364746 9.248634
-0.504172 -0.186388 0.878403
-0.700023 -0.258793 1.109444
-0.863607 -0.319269 1.582594
-0.819793 -0.303071 2.305898
-0.838682 -0.310054 2.773871
-0.805136 -0.297653 2.908208
-0.984085 -0.363808 3.443219
-1.228737 -0.454254 4.027357
-0.275074 -0.101693 6.687865
-0.561075 -0.207425 7.261658
-1.031387 -0.381296 8.002654
-1.092736 -0.403976 8.458062
-0.938322 -0.346890 8.756807
-0.814112 -0.300971 9.589517
-0.506782 -0.129922 -0.087130
-0.491273 -0.125946 0.697616
-0.625988 -0.160482 1.599158
-0.889982 -0.228161 1.927595
-0.809562 -0.207544 2.150261
-0.817983 -0.209703 2.779125
-0.814826 -0.208894 3.193670
-0.905566 -0.232156 3.888358
-1.127694 -0.289102 4.377351
-0.418664 -0.107331 6.306123
-0.362640 -0.092969 7.103597
-0.771796 -0.197862 7.688493
-1.065494 -0.273156 7.831835
-1.136730 -0.291419 8.643726
-0.979287 -0.251056 8.943942
-0.760682 -0.195013 9.359818
-0.773861 -0.122086 0.740747
-1.044244 -0.164742 0.690334
-0.985443 -0.155465 1.134606
-0.816612 -0.128830 1.681942
-0.853489 -0.134648 2.726328
-0.796387 -0.125640 2.652479
-0.825797 -0.130279 3.354603
-0.851955 -0.134406 3.738060
-0.956124 -0.150840 4.263697
-0.975517 -0.153899 4.951935
-0.792478 -0.125023 5.554922
-0.498684 -0.078673 5.952404
-0.369461 -0.058287 6.598006
-0.640803 -0.101094 6.868607
-1.042638 -0.164488 7.412645
-1.263662 -0.199358 8.405262
-1.114625 -0.175845 8.666610
-0.948984 -0.149713 9.104974
-0.804928 -0.126987 9.878313
-0.475014 -0.025732 0.378260
-0.601376 -0.032577 1.246063
-0.886623 -0.048029 1.448054
-0.863520 -0.046778 2.480159
-0.807145 -0.043724 2.413035
-0.895631 -0.048517 3.237762
-0.920916 -0.049887 3.802554
-0.987459 -0.053492 4.539038
-0.898720 -0.048685 4.753802
-0.845437 -0.045798 5.523090
-0.676263 -0.036634 5.921467
-0.388488 -0.021045 6.231623
-0.548495 -0.029713 7.080482
-0.915750 -0.049607 7.382447
-1.193452 -0.064651 7.973287
-1.073534 -0.058155 8.259863
-1.011274 -0.054782 8.871729
-0.791787 -0.042892 9.381383
-0.950575 0.048124 2.032938
-0.879281 0.044514 2.377541
-0.881177 0.044610 2.659291
-0.902155 0.045673 3.484312
-0.891218 0.045119 3.770345
-0.886385 0.044874 3.910018
-0.913169 0.046230 4.692125
-0.761456 0.038549 4.972197
-0.583166 0.029523 5.487566
-0.381018 0.019289 6.087346
-0.563115 0.028508 7.037809
-0.936632 0.047418 7.546604
-1.049050 0.053109 7.575890
-0.593472 0.086686 0.304090
-0.804555 0.117519 0.890875
-0.923458 0.134886 1.359521
-0.838267 0.122443 1.976129
-0.816183 0.119217 2.317448
-0.788631 0.115193 2.805938
-0.840095 0.122710 3.455035
-0.931834 0.136110 4.099405
-0.980320 0.143192 4.693188
-0.849009 0.124012 5.073068
-0.625928 0.091427 5.598257
-0.443898 0.064839 6.156378
-0.530205 0.077445 7.029693
-0.751112 0.109712 6.993821
-1.116760 0.163121 7.576271
-1.144290 0.167143 8.101702
-1.142403 0.166867 8.744624
-0.517206 0.125880 1.351205
-0.809689 0.197066 1.782422
-0.802062 0.195210 2.324626
-0.797806 0.194174 2.796111
-0.826763 0.201222 3.469379
-0.841008 0.204689 3.759564
-1.006725 0.245022 4.662996
-0.939859 0.228748 5.111251
-0.568076 0.138261 5.238613
-0.458911 0.111692 6.258269
-0.552502 0.134471 6.858435
-0.906790 0.220699 7.439656
-1.152251 0.280441 7.682636
-1.102404 0.268309 7.860115
-1.067178 0.259736 8.495487
-0.923836 0.224848 9.076403
-0.833893 0.202957 9.993119
-0.516452 0.183413 1.154112
-0.799563 0.283958 2.300912
-0.828036 0.294070 2.623474
-0.821091 0.291603 3.022890
-0.800054 0.284132 3.455035
-0.871825 0.309621 3.992171
-0.918019 0.326026 4.453408
-0.853507 0.303115 5.056438
-0.678675 0.241025 5.768238
-0.426864 0.151597 6.063434
-0.539702 0.191671 6.973449
-0.745282 0.264680 7.016172
-1.026869 0.364684 7.441352
-1.218517 0.432746 8.447579
-1.161671 0.412557 8.741914
-0.932255 0.331082 9.111033
-0.730626 0.259475 9.843955
-0.826216 0.385191 1.827440
-0.730169 0.340413 2.087649
-0.744193 0.346951 2.796111
-0.787817 0.367289 3.605589
-0.779868 0.363583 3.723723
-0.863742 0.402686 4.170856
-0.846387 0.394595 4.659131
-0.757774 0.353283 5.712884
-0.490103 0.228492 5.883468
-0.556036 0.259230 6.731210
-0.767543 0.357837 7.032004
-0.976639 0.455320 7.306602
-1.097391 0.511616 8.108045
-0.960020 0.447572 8.374628
-0.851957 0.397192 8.968224
-0.745172 0.347408 9.826470
-0.178786 0.106788 0.742203
-0.838259 0.500690 1.672376
-0.794050 0.474284 2.582752
-0.741752 0.443047 2.958388
-0.722911 0.431793 3.200844
-0.894253 0.534135 3.574681
-0.985795 0.588813 4.125228
-0.773170 0.461813 5.773875
-0.466709 0.278764 6.233883
-0.598567 0.357522 6.756058
-0.844155 0.504212 7.340724
-1.026611 0.613192 8.143818
-1.080720 0.645512 8.740984
-1.034873 0.618127 9.123112
-0.860353 0.513887 9.808068
-0.760253 0.569105 0.292937
-0.912535 0.683099 0.936630
-0.941679 0.704916 1.212019
-0.824500 0.617198 2.069874
-0.854537 0.639684 2.748371
-0.765494 0.573028 2.882928
-1.036110 0.775604 3.389370
-1.284104 0.961246 3.625500
-1.133122 0.848225 4.363893
-0.418394 0.313199 6.469036
-0.695666 0.520757 7.303261
-0.991607 0.742290 7.944473
-0.988862 0.740235 8.185815
-0.930807 0.696777 8.450976
-0.719478 0.655229 0.071381
-0.817886 0.744849 0.653503
-1.022890 0.931547 1.766332
-0.848716 0.772927 1.974924
-0.856751 0.780244 2.659941
-0.762136 0.694078 2.637059
-1.413896 1.287636 4.152288
-0.589718 0.537057 7.137646
-0.761130 0.693162 7.412355
-0.858130 0.781500 7.859971
-0.903325 0.822659 8.470872
-0.701038 0.786568 0.540904
-0.571687 0.641436 0.767318
-0.713096 0.800097 1.594893
-0.863292 0.968618 1.963563
-0.854862 0.959159 2.120662
-0.735510 0.825246 2.629525
-1.150441 1.290800 4.417749
-0.269406 0.302275 6.722060
-0.491383 0.551335 7.393853
-0.752407 0.844205 7.760696
-0.807358 0.905860 8.364153
-0.878521 1.196461 1.366031
-0.824555 1.122965 1.018945
-0.768270 1.046310 1.609356
-0.788227 1.073489 2.081376
-0.930670 1.267482 2.526015
-1.147446 1.562711 3.304879
-0.321148 0.437372 7.152234
-0.521620 0.710396 7.710475
-0.729754 0.993855 8.178748
-0.705441 0.960742 8.378905
-0.521572 0.892043 0.733726
-0.574599 0.982735 0.894073
-0.707374 1.209820 1.659317
-0.697662 1.193209 2.084385
-0.663531 1.134836 2.708082
-0.812057 1.388860 3.086341
-1.004049 1.717223 3.305241
-1.008297 1.724488 4.053770
-1.028272 1.758653 4.980617
-0.434542 0.743196 7.367322
-0.496583 0.849306 7.525635
-0.583556 0.998054 8.016328
-0.581879 0.995187 8.501254
-0.516415 1.113715 0.487798
-0.571594 1.232717 1.358609
-0.618106 1.333025 1.915296
-0.585336 1.262352 1.878733
-0.584779 1.261150 2.458937
-0.716791 1.545851 3.039653
-0.891314 1.922232 3.859351
-0.287215 0.619415 6.998602
-0.449761 0.969968 7.988663
-0.532381 1.148148 8.362923
-0.510637 1.101254 8.606724
-0.465510 1.319795 0.273862
-0.526090 1.491550 0.662503
-0.519891 1.473974 1.824141
-0.479427 1.359252 1.875096
-0.660493 1.872604 3.466390
-0.193041 0.547303 7.002434
-0.303571 0.860671 7.989680
-0.396820 1.125047 8.300474
-0.417223 1.182894 8.569794
-0.423835 1.201639 8.940658
-0.385900 1.094090 9.515034
-0.353256 1.468089 0.783313
-0.367588 1.527649 1.571344
-0.336365 1.397892 1.826020
-0.333377 1.385473 2.292889
-0.313300 1.302035 2.933415
-0.540509 2.246287 4.107667
-0.498629 2.072239 4.249496
-0.166738 0.692943 7.486667
-0.263925 1.096840 8.094951
-0.293013 1.217727 8.484296
-0.354393 1.472814 9.393095
-0.297021 1.234381 9.595187
-0.166109 1.169286 0.644540
-0.185065 1.302726 0.958511
-0.198030 1.393989 1.341940
-0.194655 1.370230 1.773358
-0.258734 1.821299 3.317878
-0.340546 2.397197 4.729463
-0.322218 2.268186 4.845796
-0.283451 1.995289 5.249065
-0.128516 0.904658 7.732055
-0.171009 1.203779 8.207490
-0.185776 1.307732 8.532143
-0.045794 1.206238 0.686366
-0.054580 1.437664 0.897790
-0.057510 1.514834 1.483548
-0.053638 1.412837 1.841827
-0.066158 1.742625 2.726132
-0.091606 2.412925 4.125079
-0.087950 2.316621 4.448004
-0.084322 2.221061 4.887339
-0.039345 1.036349 8.138900
-0.046946 1.236573 8.192881
-0.054768 1.442600 8.741102
0.105913 1.646811 0.333785
0.119450 1.857289 0.814001
0.114379 1.778442 1.315499
0.102902 1.599992 1.681286
0.092939 1.445068 2.269645
0.101832 1.583355 2.665470
0.131201 2.040003 3.339809
0.156605 2.434998 3.809823
0.156995 2.441055 4.161391
0.159370 2.477983 5.165408
0.084370 1.311832 8.432770
0.102087 1.587314 8.784541
0.237712 1.484775 0.538572
0.264661 1.653101 1.153977
0.277342 1.732306 2.326366
0.254545 1.589911 2.395771
0.333783 2.084843 4.280996
0.372866 2.328956 4.092749
0.371536 2.320649 4.484177
0.387942 2.423124 5.729450
0.348135 2.174487 6.075377
0.205993 1.286655 8.234211
0.257063 1.605639 8.578236
0.234952 1.467533 8.711010
0.234513 1.464790 9.667457
0.355765 1.326708 0.168696
0.383309 1.429425 0.595097
0.444349 1.657052 1.855090
0.466835 1.740906 1.661239
0.449831 1.677498 2.125469
0.417385 1.556501 2.662877
0.392086 1.462154 3.133295
0.518322 1.932911 4.377518
0.607326 2.264823 4.310730
0.614820 2.292767 4.612605
0.614148 2.290261 5.118357
0.452563 1.687684 8.146110
0.409806 1.528238 8.122228
0.406407 1.515560 8.643996
0.407745 1.520550 9.553688
0.676334 1.814778 1.397118
0.649394 1.742490 1.359891
0.653955 1.754729 2.246043
0.606432 1.627211 2.656843
0.700892 1.880672 3.953835
0.810438 2.174611 4.461546
0.820341 2.201184 5.010199
0.822750 2.207648 5.859165
0.684945 1.837883 5.706380
0.584747 1.569025 6.439894
0.580788 1.558403 7.172487
0.630397 1.691514 7.914657
0.565260 1.516737 7.904190
0.563966 1.513266 8.465896
0.665576 1.355153 0.776321
0.794138 1.616912 1.994823
0.824124 1.677966 1.532267
0.815635 1.660682 1.977102
0.795310 1.619299 3.238207
0.773836 1.575577 3.251469
0.741009 1.508738 3.451779
0.885065 1.802046 4.694958
1.003121 2.042416 4.630909
1.057596 2.153330 5.713757
0.919767 1.872701 5.692429
0.829847 1.689618 6.240911
0.782075 1.592352 6.724828
0.824474 1.678680 7.615275
0.750170 1.527392 7.575312
0.759614 1.546620 8.314755
0.737954 1.502519 8.872567
0.680285 1.385101 9.469947
0.819672 1.325804 0.739917
1.021473 1.652212 0.990329
1.027005 1.661159 1.665171
1.007855 1.630186 1.861183
0.973345 1.574366 2.547281
0.959144 1.551396 3.390201
0.978857 1.583283 3.659341
1.043825 1.688366 4.429849
1.009225 1.632401 4.193575
1.149092 1.858633 5.327370
1.174947 1.900453 5.887914
1.030150 1.666248 5.808116
1.027887 1.662587 6.625511
0.989513 1.600518 6.740561
0.970164 1.569221 7.442616
1.003083 1.622467 8.315445
0.909212 1.470633 8.412694
1.180950 1.533929 0.804712
1.166005 1.514517 1.391619
1.152744 1.497292 1.835471
1.175519 1.526876 2.553524
1.215701 1.579067 3.332683
1.207327 1.568191 3.937129
1.142310 1.483741 3.735179
1.224817 1.590907 4.829874
1.173829 1.524679 5.053097
1.146598 1.489310 5.797407
1.209551 1.571079 6.435017
1.204212 1.564144 6.298471
1.220824 1.585721 7.173635
1.207259 1.568102 7.800144
1.127660 1.464711 7.969322
1.089833 1.415579 8.347642
1.086194 1.140959 0.341740
1.145905 1.203680 0.841287
1.303107 1.368809 1.454992
1.342254 1.409930 1.928077
1.326897 1.393799 1.964380
1.352158 1.420333 2.640315
1.331850 1.399000 3.249873
1.317252 1.383667 3.983136
1.307786 1.373724 4.055911
1.295628 1.360953 4.548029
1.314594 1.380875 5.458840
1.292317 1.357474 5.660938
1.383289 1.453034 6.115846
1.414039 1.485334 6.695452
1.457427 1.530909 7.556816
1.301957 1.367601 7.760372
1.290350 1.355409 8.365564
1.245072 1.307848 8.641105
1.254338 1.089527 0.827386
1.471092 1.277801 1.134661
1.460445 1.268553 1.355864
1.489739 1.293998 2.514163
1.489739 1.293998 2.514163
1.406524 1.221716 2.664532
1.434673 1.246167 3.752181
1.417553 1.231296 3.769639
1.444722 1.254896 4.598664
1.383895 1.202061 4.713277
1.478415 1.284161 5.692642
1.566122 1.360345 6.287876
1.537316 1.335323 6.341135
1.492031 1.295989 6.803639
1.533785 1.332256 7.544249
1.540857 1.338399 8.241127
1.507839 1.309719 8.660113
1.041566 0.731958 -0.021169
1.269087 0.891849 0.397919
1.461948 1.027381 0.837163
1.554502 1.092423 1.620274
1.564823 1.099676 1.806133
1.618428 1.137347 2.798242
1.566179 1.100629 3.112291
1.577188 1.108366 3.411324
1.704509 1.197841 4.553619
1.567157 1.101317 4.321586
1.602317 1.126025 5.462010
1.568462 1.102234 5.507014
1.740092 1.222846 6.187784
1.643369 1.154874 6.333546
1.683097 1.182793 7.187293
1.620392 1.138727 7.634487
1.587226 1.115420 8.091908
1.679404 1.180197 8.894452
1.373133 0.779204 0.543970
1.615294 0.916622 0.682968
1.678103 0.952264 1.259591
1.704591 0.967295 2.376819
1.691531 0.959884 2.211913
1.623507 0.921283 2.699006
1.680188 0.953447 3.958610
1.642755 0.932205 4.163236
1.594740 0.904959 4.435147
1.682700 0.954873 5.230024
1.625071 0.922170 5.279732
1.826767 1.036625 6.288625
1.762006 0.999876 6.300038
1.751147 0.993714 6.845109
1.789545 1.015503 7.543900
1.774356 1.006884 8.158049
1.716885 0.974272 8.514798
1.725462 0.979139 9.073593
1.469279 0.833764 9.360660
1.188063 0.524730 0.197384
1.563347 0.690481 1.354071
1.664668 0.735231 1.050496
1.580299 0.697968 1.666145
1.704768 0.752942 2.420692
1.685494 0.744429 2.708561
1.682868 0.743269 3.683628
1.741100 0.768988 4.097223
1.642652 0.725507 4.057943
1.750130 0.772977 4.998055
1.667939 0.736675 5.058928
1.696262 0.749185 5.571302
1.962681 0.866854 6.662857
1.857211 0.820271 6.715597
1.879796 0.830246 7.447789
1.816134 0.802129 7.820733
1.830826 0.808617 8.360585
1.882774 0.831561 9.131938
1.751807 0.773718 9.607158
1.186106 0.388485 -0.063568
1.501114 0.491659 0.578834
1.617170 0.529672 1.208364
1.673616 0.548159 2.116462
1.707794 0.559353 2.510814
1.692096 0.554212 2.596306
1.708991 0.559746 2.986316
1.715841 0.561989 3.794527
1.641960 0.537791 3.948039
1.754858 0.574768 4.918102
1.555531 0.509483 4.886711
1.712933 0.561037 5.568235
1.983078 0.649517 6.233965
2.028248 0.664312 6.907554
1.896252 0.621079 6.968063
1.844845 0.604242 7.503981
1.959431 0.641772 8.462237
1.907182 0.624659 8.764302
1.569627 0.347897 0.703647
1.746111 0.387013 0.885575
1.845840 0.409117 1.849247
1.789004 0.396520 2.068812
1.802917 0.399603 3.176679
1.747856 0.387400 2.917175
1.709104 0.378811 3.590569
1.687421 0.374005 4.111395
1.829392 0.405471 5.056026
1.647465 0.365149 5.143870
1.785233 0.395684 5.685677
1.981916 0.439277 6.001331
2.102182 0.465934 6.975743
2.050936 0.454575 7.337697
1.960152 0.434454 7.723663
2.033879 0.450795 8.447411
1.901896 0.421542 8.515937
1.772953 0.209518 0.788748
1.849722 0.218590 1.415059
1.867927 0.220741 1.711463
1.807804 0.213636 2.222842
1.760227 0.208014 2.758068
1.686973 0.199357 3.202305
1.653003 0.195343 3.694935
1.749994 0.206804 4.461937
1.598500 0.188902 4.877486
1.723522 0.203676 5.495831
1.983851 0.234440 5.864244
2.108275 0.249144 6.771325
2.053222 0.242638 7.132544
2.041340 0.241234 7.537058
1.995047 0.235763 7.979119
2.070446 0.244674 8.760122
1.960395 0.231668 9.046138
1.775229 0.209787 9.552893
1.787834 0.030758 1.426165
1.909724 0.032855 2.097118
1.843206 0.031711 2.199955
1.786730 0.030739 2.658560
1.795623 0.030892 2.965576
1.824192 0.031384 3.918881
1.744998 0.030021 4.058918
1.780372 0.030630 4.565743
1.697061 0.029197 5.192464
1.761355 0.030303 5.729805
2.107530 0.036259 6.519563
2.162413 0.037203 7.009818
1.985601 0.034161 6.933759
1.980204 0.034068 7.634487
1.984177 0.034136 8.229276
1.889431 0.032506 8.420689
0.801405 -0.064416 0.560454
1.231583 -0.098994 0.805844
1.691848 -0.135989 1.584501
1.715013 -0.137851 1.555212
1.731643 -0.139188 2.411816
1.696238 -0.136342 2.562310
1.636779 -0.131563 2.941274
1.711734 -0.137588 4.042058
1.742087 -0.140027 4.378838
1.758828 -0.141373 4.754697
1.723731 -0.138552 4.969683
1.855976 -0.149182 5.605786
2.001403 -0.160871 6.122702
1.993962 -0.160273 6.503621
2.020304 -0.162390 7.262740
1.989655 -0.159927 7.855036
1.925041 -0.154733 8.307623
1.960321 -0.157569 9.025539
1.702968 -0.312866 1.304226
1.764202 -0.324116 1.522977
1.762813 -0.323861 2.462415
1.793141 -0.329433 2.983392
1.653122 -0.303709 3.056509
1.621488 -0.297897 3.583707
1.744326 -0.320465 4.232011
1.792747 -0.329361 4.793845
1.617795 -0.297219 4.928447
1.679967 -0.308641 5.487241
1.978096 -0.363413 6.136413
2.022937 -0.371651 6.620607
2.056312 -0.377782 7.303537
2.022806 -0.371627 7.881197
1.976196 -0.363063 8.304724
2.047596 -0.376181 8.976528
1.822498 -0.527662 1.578960
1.724702 -0.499348 1.918779
1.665559 -0.482224 2.377166
1.656986 -0.479742 2.784270
1.631148 -0.472261 3.576749
1.599810 -0.463188 3.701884
1.668510 -0.483078 4.316483
1.614163 -0.467344 5.109149
1.718548 -0.497566 5.738133
1.863569 -0.539553 5.725654
2.016289 -0.583770 6.682564
1.930703 -0.558990 6.927118
1.870039 -0.541427 7.256084
1.987587 -0.575460 8.247010
1.794590 -0.519582 8.435490
1.739195 -0.503544 9.034704
1.664734 -0.481985 9.620928
1.559114 -0.627964 1.292898
1.703437 -0.686093 2.117134
1.715383 -0.690905 2.770662
1.546364 -0.622829 2.713289
1.545913 -0.622647 3.531592
1.521025 -0.612623 3.698522
1.571027 -0.632762 4.052924
1.667324 -0.671548 5.056912
1.545133 -0.622333 5.162720
1.717498 -0.691756 5.898306
1.979299 -0.797202 6.520086
1.882085 -0.758047 6.613286
1.756191 -0.707341 6.974101
1.821240 -0.733541 7.918032
1.903031 -0.766484 8.664369
1.831092 -0.737509 9.046138
1.757663 -0.914077 1.291414
1.614644 -0.839699 1.542200
1.540226 -0.800998 1.790907
1.512296 -0.786473 2.330928
1.483539 -0.771518 3.191532
1.441562 -0.749687 3.594147
1.536167 -0.798887 4.431612
1.493188 -0.776536 4.297081
1.494233 -0.777079 5.253028
1.489191 -0.774457 5.348406
1.785265 -0.928431 6.245215
1.752878 -0.911588 6.407562
1.705722 -0.887064 6.892026
1.668897 -0.867914 7.476914
1.626540 -0.845885 7.921012
1.656696 -0.861568 8.589328
1.604422 -1.052118 1.888706
1.511503 -0.991186 1.737263
1.489867 -0.976998 2.841094
1.444279 -0.947103 3.022823
1.404831 -0.921235 3.444834
1.420249 -0.931345 4.237409
1.369402 -0.898002 4.176067
1.497756 -0.982171 5.151730
1.385531 -0.908579 5.244176
1.569091 -1.028950 6.110938
1.641218 -1.076248 6.148271
1.584557 -1.039092 6.692805
1.506087 -0.987634 7.200855
1.573006 -1.031517 7.989378
1.591365 -1.043556 8.538829
1.488235 -0.975928 9.022349
1.410179 -0.924741 9.638630
1.196404 -0.968660 0.915251
1.359623 -1.100809 1.616028
1.355944 -1.097831 1.539830
1.335344 -1.081152 1.889766
1.326405 -1.073914 2.610881
1.354510 -1.096669 3.535152
1.256035 -1.016940 3.531493
1.239329 -1.003414 3.904517
1.362021 -1.102751 4.957961
1.369706 -1.108973 5.135941
1.400991 -1.134303 5.684243
1.497383 -1.212346 6.106065
1.623263 -1.314264 7.023244
1.536943 -1.244375 7.538043
1.373608 -1.112132 7.533150
1.320380 -1.069036 7.993571
1.363181 -1.103690 8.798136
1.070482 -1.056208 0.545565
1.153572 -1.138190 1.072708
1.244174 -1.227583 1.122877
1.252850 -1.236143 1.775302
1.227541 -1.211172 1.972975
1.230016 -1.213614 3.029755
1.158154 -1.142710 3.027671
1.146313 -1.131027 3.489712
1.230815 -1.214402 4.417749
1.235779 -1.219300 4.738511
1.246581 -1.229958 5.080546
1.165828 -1.150282 5.516969
1.209463 -1.193335 6.014413
1.394920 -1.376319 6.837642
1.367235 -1.349003 7.345628
1.320690 -1.303079 7.823353
1.296728 -1.279437 8.213765
1.241596 -1.225039 8.693026
0.927211 -1.114224 0.280338
0.959457 -1.152974 1.175886
1.062209 -1.276450 1.384532
1.110471 -1.334447 1.790907
1.115055 -1.339956 2.474177
1.074093 -1.290732 3.247104
0.996492 -1.197479 3.283850
1.077324 -1.294614 3.656630
1.110710 -1.334735 4.602322
1.032691 -1.240979 4.768388
1.241600 -1.492024 6.372493
1.140889 -1.371000 6.663103
1.194961 -1.435978 7.608381
1.095367 -1.316296 7.784024
1.083444 -1.301968 8.385849
1.063044 -1.277454 9.064235
0.927486 -1.114555 9.361259
0.784845 -1.159713 0.344079
0.830220 -1.226760 0.651095
0.912142 -1.347812 1.225841
0.959862 -1.418324 1.813474
0.972933 -1.437639 2.397957
0.892138 -1.318254 2.714261
0.847494 -1.252285 3.119313
0.920960 -1.360841 4.053831
1.070262 -1.581455 4.848741
1.107487 -1.636460 4.928578
1.057987 -1.563317 5.124932
0.974320 -1.439687 5.625912
0.934755 -1.381225 6.205522
0.948413 -1.401407 6.805999
0.966012 -1.427412 7.561245
0.910071 -1.344752 7.750305
0.917586 -1.355856 8.373671
0.904440 -1.336431 9.003012
0.805072 -1.189602 9.469585
0.793436 -1.482825 0.666858
0.848033 -1.584861 1.113755
0.799365 -1.493906 1.535914
0.791857 -1.479874 2.319317
0.716461 -1.338970 2.488997
0.698062 -1.304585 2.839489
0.809592 -1.513019 3.701632
0.944144 -1.764478 4.229289
1.057574 -1.976463 4.721592
1.034386 -1.933129 4.992274
0.979143 -1.829887 5.976037
0.773302 -1.445198 5.867226
0.735313 -1.374201 6.491469
0.777914 -1.453817 7.214036
0.780710 -1.459042 7.680178
0.725759 -1.356346 7.982668
0.730227 -1.364696 8.658981
0.540545 -1.291593 0.330035
0.603197 -1.441297 0.858541
0.641689 -1.533270 1.412334
0.626816 -1.497733 2.268172
0.591114 -1.412425 2.614775
0.564047 -1.347749 2.898285
0.817653 -1.953723 5.127985
0.871433 -2.082228 4.669429
0.829149 -1.981192 5.271244
0.796460 -1.903083 7.207818
0.669523 -1.599778 7.769778
0.648723 -1.550077 8.182906
0.580898 -1.388015 8.370707
0.627890 -1.500297 9.478739
0.521825 -1.246863 9.813616
0.396939 -1.316082 0.288185
0.391304 -1.297398 0.605028
0.430530 -1.427455 1.484993
0.467420 -1.549766 2.212481
0.436960 -1.448774 2.433076
0.420074 -1.392787 2.842237
0.578992 -1.919692 4.681245
0.676351 -2.242494 4.976380
0.454847 -1.508081 6.755146
0.439045 -1.455687 7.401562
0.432499 -1.433985 7.765640
0.433827 -1.438388 8.363713
0.237023 -1.174383 0.042461
0.282710 -1.400753 0.554174
0.326979 -1.620091 1.231595
0.320484 -1.587913 2.226404
0.292397 -1.448746 2.027322
0.285845 -1.416284 2.751132
0.392940 -1.946909 4.578356
0.445061 -2.205154 4.628695
0.418731 -2.074701 4.865629
0.307340 -1.522788 7.947314
0.299682 -1.484845 8.321018
0.293496 -1.454192 9.009591
0.275913 -1.367073 9.572803
0.118595 -1.248266 0.550883
0.127043 -1.337194 1.020922
0.143340 -1.508728 1.476558
0.142694 -1.501929 1.764774
0.143632 -1.511796 2.488997
0.134938 -1.420288 2.575833
0.129341 -1.361376 3.172587
0.157622 -1.659053 3.708834
0.205025 -2.157985 4.313448
0.201269 -2.118454 4.658365
0.197480 -2.078573 5.699264
0.174973 -1.841673 5.891407
0.155952 -1.641466 7.214036
0.145848 -1.535121 8.242758
0.146396 -1.540891 8.736837
0.129761 -1.365794 8.993526
0.118431 -1.246539 9.762646
-0.008847 -1.223020 0.035350
-0.008952 -1.237579 0.869440
-0.010187 -1.408315 1.348959
-0.010338 -1.429188 2.045286
-0.010211 -1.411687 2.138522
-0.010277 -1.420699 2.760809
-0.011559 -1.598017 2.995781
-0.012992 -1.796148 3.555918
-0.014612 -2.020053 4.036087
-0.014901 -2.059997 4.423687
-0.013685 -1.891822 5.145596
-0.009527 -1.317026 7.858822
-0.010446 -1.444151 8.506954
-0.010443 -1.443692 9.047185
-0.009900 -1.368593 9.502536
-0.148571 -1.416004 1.151261
-0.155883 -1.485693 1.533968
-0.141817 -1.351626 1.775074
-0.147241 -1.403330 2.414452
-0.186805 -1.780403 3.127593
-0.203199 -1.936651 4.210094
-0.141258 -1.346305 7.632979
-0.128281 -1.222618 8.249911
-0.126179 -1.202590 8.592578
-0.296418 -1.482184 0.832253
-0.322070 -1.610453 1.504149
-0.277760 -1.388888 1.876915
-0.262791 -1.314038 1.861257
-0.270997 -1.355073 2.630006
-0.342682 -1.713519 3.189136
-0.358869 -1.794463 4.414435
-0.229931 -1.149729 7.548126
-0.218724 -1.093690 8.137881
-0.236628 -1.183218 8.664135
-0.428751 -1.370393 0.813651
-0.444834 -1.421798 1.464002
-0.406681 -1.299851 1.817269
-0.434151 -1.387652 2.835231
-0.505646 -1.616169 2.724525
-0.556517 -1.778766 4.316237
-0.306891 -0.980898 7.497569
-0.307807 -0.983827 8.368026
-0.391166 -1.250264 8.967732
-0.501863 -1.175920 1.695576
-0.523675 -1.227029 1.776791
-0.533558 -1.250185 2.398025
-0.659552 -1.545404 3.628851
-0.724532 -1.697660 4.504165
-0.309089 -0.724230 6.602986
-0.230019 -0.538959 7.405323
-0.223405 -0.523463 7.621373
-0.381105 -0.892972 8.426612
-0.460872 -1.079874 8.880201
-0.543495 -0.987715 0.475487
-0.494211 -0.898149 1.190517
-0.577875 -1.050195 1.154244
-0.637270 -1.158136 1.954627
-0.627076 -1.139609 2.005858
-0.613142 -1.114286 2.534333
-0.550461 -1.000373 3.380501
-0.633974 -1.152144 3.544420
-0.861396 -1.565448 4.457609
-0.448991 -0.815969 7.247438
-0.361630 -0.657203 7.795928
-0.477321 -0.867453 8.404685
-0.497324 -0.903806 8.849450
-0.511529 -0.929622 9.607827
-0.787005 -1.144498 0.906559
-0.817227 -1.188449 0.995939
-0.758580 -1.103161 1.451432
-0.758715 -1.103357 1.847181
-0.770955 -1.121157 2.667709
-0.939917 -1.366869 4.151177
-0.937837 -1.363844 4.430591
-0.847452 -1.232402 5.204465
-0.734710 -1.068448 5.827334
-0.375533 -0.546117 7.853147
-0.569773 -0.828590 8.533621
-0.608893 -0.885480 8.898332
-0.874627 -1.031594 0.478411
-0.897150 -1.058160 0.857385
-0.845010 -0.996662 1.318958
-0.872713 -1.029337 1.987919
-0.861442 -1.016044 2.870062
-1.042103 -1.229127 4.323489
-1.083881 -1.278403 4.255408
-0.993151 -1.171390 5.022029
-0.773436 -0.912243 5.361125
-0.392449 -0.462881 7.571408
-0.572780 -0.675575 8.241125
-0.646944 -0.763050 8.756807
-0.629015 -0.609661 0.394082
-0.727736 -0.705344 0.898368
-0.861885 -0.835366 1.189626
-0.904249 -0.876427 1.781941
-0.915765 -0.887588 2.569614
-0.812367 -0.787372 2.376290
-0.740823 -0.718029 3.307944
-0.995442 -0.964814 4.188356
-1.189784 -1.153176 3.980406
-0.726654 -0.704296 7.532981
-0.533139 -0.516735 7.680897
-0.635998 -0.616429 8.241125
-0.715743 -0.693720 9.132431
-0.655414 -0.635248 9.419429
-0.964594 -0.773543 0.834110
-0.930144 -0.745916 1.516484
-0.950166 -0.761972 1.905607
-0.920421 -0.738119 2.357579
-1.115411 -0.894489 3.643078
-1.369935 -1.098600 4.570171
-0.493742 -0.395950 6.603285
-0.316244 -0.253607 7.025159
-0.457150 -0.366605 7.405323
-0.761450 -0.610635 8.110966
-0.880546 -0.706142 8.824454
-0.739051 -0.592672 8.989663
-0.597724 -0.479336 9.528943
-0.649819 -0.419162 -0.115082
-0.736036 -0.474776 0.386917
-0.934293 -0.602661 1.421466
-0.871036 -0.561857 1.418433
-0.892916 -0.575970 2.447143
-0.798148 -0.514841 2.580301
-0.797566 -0.514466 3.449155
-1.092489 -0.704704 3.618321
-1.383833 -0.892634 4.231713
-0.871785 -0.562340 7.348582
-0.763383 -0.492416 7.889422
-0.918641 -0.592565 8.560101
-0.891349 -0.574960 8.934869
-0.841359 -0.542714 9.662275
-0.888707 -0.449262 1.091816
-0.846316 -0.427832 1.623959
-0.834404 -0.421811 2.682850
-0.804136 -0.406510 2.838299
-0.748397 -0.378332 3.565943
-1.570475 -0.793912 4.448090
-0.638578 -0.322816 7.766975
-0.841981 -0.425641 7.832159
-0.901724 -0.455842 8.303900
-0.889844 -0.449837 8.980568
-0.718762 -0.363351 9.636781
-0.556452 -0.219087 0.000000
-0.567974 -0.223623 0.810798
-0.845145 -0.332751 1.360816
-0.948014 -0.373253 1.548069
-0.916119 -0.360696 2.418475
-0.825734 -0.325109 2.709426
-0.903562 -0.355752 3.424477
-1.124018 -0.442550 3.681709
-1.388129 -0.546536 4.214294
-1.411697 -0.555815 4.512204
-0.352908 -0.138947 7.024211
-0.697977 -0.274809 7.795928
-0.906114 -0.356756 7.846416
-1.001607 -0.394354 8.589237
-0.949765 -0.373943 8.972448
-0.814919 -0.320851 9.537972
-0.608873 -0.169140 0.687112
-0.759825 -0.211073 0.906098
-0.884275 -0.245644 1.532524
-0.808677 -0.224644 1.868526
-0.824059 -0.228917 2.640299
-0.895851 -0.248860 3.299061
-1.109142 -0.308111 3.812811
-1.350740 -0.375225 4.128184
-0.345696 -0.096032 6.640522
-0.602804 -0.167454 7.075656
-0.952675 -0.264646 7.632475
-1.142208 -0.317296 8.600439
-0.943392 -0.262067 8.613391
-0.797862 -0.221640 9.255812
-7.947475 -1.421877 -0.156055
