-0.939127 -0.012061 8.790739
-1.387327 0.107983 0.654557
-1.255994 0.097761 1.434958
-1.364842 0.106233 2.257501
-1.740883 0.135502 3.445806
-2.004884 0.156051 4.183756
-1.563098 0.121665 5.215085
-0.835614 0.065040 6.024075
-0.900000 0.070052 7.154532
-1.073214 0.083534 8.030958
-0.897049 0.069822 8.849370
-1.291943 0.226833 -0.012142
-1.253405 0.220067 0.984552
-1.627271 0.285708 3.525899
-1.632707 0.286663 4.424255
-0.951592 0.167076 5.447317
-0.384513 0.067511 6.437623
-0.619703 0.108804 7.185446
-0.967627 0.169891 8.073083
-0.980231 0.172104 9.072174
-1.171916 0.314173 0.377253
-1.307740 0.350585 1.237661
-1.341175 0.359549 2.147148
-1.625628 0.435806 2.918171
-1.698289 0.455285 3.892705
-1.330550 0.356700 4.869071
-0.712738 0.191074 5.837302
-0.655107 0.175624 6.849732
-0.964069 0.258452 7.729859
-0.955307 0.256103 8.654057
-0.463990 0.124389 9.666644
-1.157625 0.435422 1.496578
-1.049977 0.394932 2.318955
-1.388995 0.522448 3.295975
-0.868038 0.326498 7.150601
-1.145736 0.430950 8.004468
-0.945728 0.355720 8.764104
-1.134141 0.544912 1.386332
-0.888304 0.426797 2.093064
-1.209607 0.581171 3.062604
-1.243334 0.597375 5.729620
-0.907679 0.436105 6.849898
-1.135024 0.545336 7.772498
-0.990053 0.475683 8.822928
-1.126013 0.673845 -0.218561
-1.020805 0.610885 0.511398
-0.995246 0.595590 1.438176
-0.901638 0.539571 2.396123
-1.284474 0.768674 3.465285
-1.376071 0.823489 4.125277
-0.811030 0.485349 5.052749
-0.227312 0.136031 6.075516
-0.520389 0.311419 7.201705
-1.061674 0.635343 8.077454
-0.833150 0.498586 8.822644
-0.410342 0.305783 -0.061802
-0.498487 0.371468 0.949587
-0.896777 0.668270 1.683709
-0.629433 0.469048 2.570548
-0.939595 0.700178 3.784966
-1.223701 0.911891 4.364213
-0.725449 0.540598 5.355329
-0.702796 0.523717 6.481372
-0.937505 0.698620 7.237060
-0.918524 0.684476 8.270417
-0.778716 0.580292 9.204475
-0.361371 0.326184 0.098938
-0.460024 0.415232 0.850941
-0.815931 0.736484 1.831062
-0.591352 0.533772 2.767098
-0.796647 0.719077 3.805617
-0.959931 0.866463 4.546662
-0.584924 0.527970 5.431553
-0.663767 0.599136 6.428784
-0.900995 0.813265 7.354779
-0.925318 0.835220 8.402736
-0.730973 0.659798 9.393049
-0.805180 0.873163 0.304408
-0.900215 0.976222 1.201943
-0.751210 0.814637 2.038447
-0.622881 0.675472 3.104038
-0.762689 0.827085 4.108423
-0.702548 0.761866 4.968266
-0.439115 0.476190 5.723717
-0.661459 0.717308 6.641993
-0.874103 0.947906 7.504624
-0.758479 0.822519 8.666961
-0.282511 0.306364 9.486140
-0.731417 0.961752 1.387886
-0.677176 0.890429 2.257982
-0.683247 0.898413 3.236574
-0.746800 0.981980 4.196591
-0.593916 0.780949 5.147824
-0.168392 0.221421 5.985255
-0.365922 0.481156 7.189370
-0.756389 0.994588 7.861921
-0.642470 0.844794 9.020673
-0.510106 0.815553 0.146853
-0.651174 1.041092 1.204642
-0.599705 0.958804 1.988543
-0.595256 0.951690 2.771557
-0.610934 0.976757 3.848009
-0.510548 0.816260 4.753561
-0.488166 0.780476 5.689161
-0.640248 1.023624 6.669900
-0.714365 1.142121 7.395121
-0.714336 1.142076 8.396350
-0.460790 0.736708 9.327723
-0.484851 0.947522 0.488410
-0.604042 1.180452 1.129114
-0.517971 1.012246 2.122642
-0.504945 0.986790 2.943893
-0.518320 1.012929 3.972066
-0.400485 0.782650 4.911244
-0.338845 0.662189 5.686558
-0.511629 0.999852 6.782247
-0.610835 1.193727 7.658265
-0.595902 1.164545 8.592480
-0.389476 0.761135 9.625281
-0.367164 0.917060 0.318002
-0.502863 1.255994 1.201268
-0.421160 1.051925 2.037308
-0.411413 1.027580 2.919497
-0.419348 1.047398 3.862347
-0.335515 0.838010 4.896276
-0.289761 0.723732 5.769452
-0.418492 1.045261 6.632217
-0.508268 1.269494 7.516420
-0.475360 1.187299 8.572915
-0.252581 0.630867 9.521249
-0.355722 1.201744 1.216126
-0.326766 1.103920 2.402967
-0.311309 1.051703 3.140779
-0.289169 0.976905 4.044245
-0.249084 0.841486 5.122445
-0.227616 0.768959 5.941434
-0.332165 1.122161 6.924705
-0.389970 1.317443 7.702530
-0.345778 1.168148 8.913116
-0.250239 1.262466 0.170087
-0.263051 1.327101 1.201268
-0.225939 1.139869 2.121456
-0.227142 1.145938 3.086803
-0.225030 1.135284 3.908935
-0.181647 0.916418 4.954798
-0.163995 0.827362 5.873549
-0.236526 1.193283 6.730747
-0.287523 1.450561 7.721754
-0.249823 1.260365 8.471015
-0.118707 0.598879 9.677592
-0.115623 1.131290 0.207230
-0.140200 1.371762 1.236965
-0.119900 1.173136 1.949787
-0.139497 1.364878 3.133647
-0.147634 1.444496 3.834374
-0.101214 0.990312 4.824305
-0.085922 0.840683 5.885819
-0.119875 1.172894 6.649239
-0.145776 1.426316 7.754548
-0.135164 1.322487 8.701743
-0.071317 0.697786 9.503783
-0.000899 1.384340 1.418814
-0.000725 1.116841 2.221396
-0.000833 1.282752 3.286497
-0.001042 1.604779 4.137339
-0.000732 1.127686 4.884095
-0.000615 0.947427 5.897332
-0.000840 1.294331 6.743856
-0.000923 1.421117 7.681883
-0.000879 1.353911 8.696946
0.092722 1.109046 0.329312
0.116909 1.398352 1.212035
0.095385 1.140899 2.281097
0.108579 1.298716 3.223938
0.135494 1.620649 4.098843
0.097259 1.163323 5.015401
0.082079 0.981755 5.991941
0.112381 1.344193 6.934293
0.122330 1.463190 7.661263
0.112800 1.349204 8.696946
0.286777 1.535524 -0.181111
0.274259 1.468496 0.798200
0.288046 1.542319 1.690922
0.322445 1.726500 2.478945
0.330242 1.768253 3.477940
0.339987 1.820432 4.356348
0.266759 1.428336 5.093667
0.162392 0.869514 6.180161
0.223347 1.195891 7.216895
0.281872 1.509256 7.898752
0.231323 1.238596 8.866855
0.443100 1.603282 0.385495
0.465356 1.683815 0.950013
0.300685 1.087979 1.939775
0.382310 1.383325 2.958876
0.497679 1.800767 3.713868
0.449889 1.627847 4.725349
0.379416 1.372854 5.686896
0.330153 1.194603 6.714857
0.371993 1.345994 7.386922
0.390345 1.412400 8.348969
0.330898 1.197298 9.402620
0.712431 1.881468 -0.107563
0.617379 1.630446 0.769651
0.608526 1.607065 1.673165
0.720637 1.903140 2.535178
0.746860 1.972394 3.273508
0.759441 2.005619 4.267208
0.611296 1.614379 5.062312
0.404420 1.068039 6.033026
0.473637 1.250836 7.023103
0.554492 1.464366 8.067832
0.522516 1.379920 8.924639
0.522369 1.065579 0.048706
0.526146 1.073283 0.876644
0.638863 1.303216 1.877272
0.780660 1.592466 2.767395
0.864461 1.763412 3.657596
0.543812 1.109321 6.342735
0.506129 1.032452 7.427915
0.711898 1.452198 8.345351
0.660745 1.347853 9.297528
0.929352 1.524338 1.442094
1.067461 1.750867 2.366580
1.182856 1.940140 3.106019
1.082735 1.775921 4.116968
0.910103 1.492765 5.035416
0.715038 1.172817 5.878351
0.664752 1.090337 6.796209
0.764689 1.254256 7.810751
0.815612 1.337780 8.743095
0.966218 1.290787 0.241209
1.002086 1.338704 0.963673
1.034400 1.381873 1.865651
1.216440 1.625063 2.859251
1.186514 1.585084 3.547889
1.190823 1.590841 4.693420
1.058816 1.414491 5.606389
0.578238 0.772479 6.393691
0.706256 0.943499 7.448174
0.962346 1.285614 8.147799
0.912687 1.219274 9.280312
1.095969 1.215765 0.108483
1.154799 1.281025 1.070852
1.290239 1.431270 1.881149
1.595101 1.769454 2.883858
1.525940 1.692734 3.523699
1.387011 1.538620 4.539581
1.372924 1.522992 7.204606
1.117313 1.239442 8.348123
1.039545 1.153174 9.299343
1.353606 1.242008 0.179987
1.399081 1.283734 1.030659
1.620811 1.487184 1.821779
1.993137 1.828813 2.838813
1.771845 1.625766 3.823679
1.297465 1.190495 4.693328
1.320855 1.211958 7.481625
1.301801 1.194474 8.192745
1.121074 1.028647 9.394231
1.462332 1.113023 0.299976
1.533175 1.166944 1.149822
1.794629 1.365944 1.950437
2.146434 1.633713 2.721179
1.952290 1.485945 3.807464
1.698915 1.293093 4.665539
1.531687 1.165812 5.659317
0.971695 0.739585 6.419266
1.008268 0.767422 7.370958
1.420172 1.080934 8.288871
1.234232 0.939410 9.413202
1.389519 0.865043 0.084376
1.460341 0.909133 0.866337
1.905351 1.186174 1.688934
2.284386 1.422142 2.615291
2.209721 1.375659 3.497493
2.039310 1.269570 4.577126
1.720024 1.070798 5.258030
1.149489 0.715613 6.288746
1.100654 0.685211 7.241362
1.511293 0.940854 8.264843
1.379495 0.858802 9.032652
1.552002 0.779555 -0.084185
1.650883 0.829222 0.971851
2.033088 1.021199 1.830530
2.439521 1.225346 2.837171
2.381852 1.196380 3.646535
2.279932 1.145186 4.561406
1.948757 0.978841 5.287780
1.509808 0.758361 6.339581
1.536160 0.771598 7.345663
1.678653 0.843171 8.246405
1.489935 0.748379 9.237521
1.736413 0.673614 0.263829
1.959421 0.760126 1.145241
2.159731 0.837833 2.185598
2.568422 0.996378 2.835529
2.561225 0.993586 3.722485
2.459930 0.954290 4.671368
2.336722 0.906494 5.476292
2.019679 0.783502 6.490060
1.728869 0.670687 7.397109
1.709736 0.663264 8.279625
1.422292 0.551755 9.292397
1.863886 0.530760 -0.335209
1.722020 0.490362 0.576597
1.907090 0.543062 1.363796
2.169325 0.617736 2.450871
2.592061 0.738115 3.395317
2.663062 0.758333 4.229947
2.379476 0.677579 5.000452
1.945410 0.553974 5.829005
1.799814 0.512514 6.877418
1.891423 0.538601 7.895945
1.763436 0.502156 8.802683
1.731571 0.324583 -0.048078
1.938903 0.363447 0.981052
2.016239 0.377944 1.863858
1.819719 0.341106 2.810676
2.164624 0.405759 3.505948
2.592223 0.485912 4.421357
2.318691 0.434639 5.506957
1.986114 0.372297 6.182309
1.871831 0.350875 7.240941
1.842059 0.345294 8.085991
1.638250 0.307090 9.111982
2.277056 0.210950 -0.095011
2.132311 0.197541 0.643512
2.006949 0.185927 1.590096
2.245282 0.208006 2.438986
2.504401 0.232012 3.338167
2.485764 0.230285 4.268646
2.334535 0.216275 5.183722
2.123698 0.196743 6.081427
1.959900 0.181568 6.850001
1.943300 0.180030 7.812185
1.896162 0.175663 8.900729
2.086937 0.000551 -0.143171
1.964862 0.000518 0.526450
2.040961 0.000538 1.601133
2.054543 0.000542 2.438221
1.992600 0.000526 3.390459
2.200204 0.000580 4.321852
2.213362 0.000584 5.139038
2.018918 0.000533 5.987682
2.046049 0.000540 7.021476
1.980500 0.000522 7.831724
1.931211 0.000509 8.907738
2.352023 -0.219965 -0.225262
2.382125 -0.222780 0.710917
2.086348 -0.195119 1.718598
1.993937 -0.186476 2.405141
2.007841 -0.187777 3.376581
2.054044 -0.192098 4.202880
2.133792 -0.199556 5.183561
2.199637 -0.205714 6.264955
2.125999 -0.198827 6.946062
2.075445 -0.194099 7.985639
1.857162 -0.173685 8.833756
1.928192 -0.361269 -0.059825
2.081729 -0.390036 0.739262
2.039338 -0.382093 1.826993
2.040450 -0.382302 2.796328
2.109164 -0.395176 3.426555
2.036080 -0.381483 4.539581
2.071989 -0.388211 5.514522
2.176503 -0.407793 6.300646
2.063347 -0.386592 7.037416
1.982506 -0.371445 8.170953
1.845449 -0.345766 9.143515
1.836832 -0.530620 0.143744
2.062023 -0.595673 0.917567
1.991429 -0.575280 1.779255
2.020585 -0.583702 2.830514
2.057177 -0.594273 3.678806
1.840868 -0.531786 4.495174
1.852652 -0.535190 5.488524
2.081229 -0.601221 6.490060
2.011677 -0.581129 7.160704
1.972117 -0.569701 8.226079
1.832778 -0.529449 9.287321
1.502666 -0.585138 0.277390
2.028903 -0.790055 1.167091
1.938206 -0.754738 1.946328
1.943960 -0.756978 2.951450
1.974013 -0.768681 3.704749
1.780997 -0.693521 4.447261
1.904928 -0.741780 5.607514
2.063452 -0.803508 6.300646
1.999966 -0.778787 7.323524
1.939927 -0.755408 8.245329
1.717990 -0.668986 9.225693
1.797370 -0.906007 2.116992
1.827156 -0.921021 3.098136
1.880455 -0.947887 3.849989
1.895838 -0.955641 4.787421
1.956924 -0.986433 5.770221
1.958124 -0.987038 6.498287
1.932624 -0.974185 7.577886
1.869070 -0.942148 8.304983
1.522941 -0.767674 9.418123
1.940119 -1.211342 -0.213775
1.941983 -1.212506 0.486923
1.731226 -1.080917 1.601133
1.746180 -1.090253 2.509856
1.711346 -1.068504 3.388531
1.654270 -1.032868 4.334524
1.728848 -1.079432 5.147568
1.782889 -1.113173 5.854897
1.745523 -1.089843 6.774885
1.707303 -1.065980 7.727344
1.675586 -1.046177 8.873875
1.597296 -1.224758 2.116992
1.618485 -1.241005 3.002593
1.585484 -1.215700 3.763127
1.616431 -1.239430 4.917771
1.725509 -1.323067 5.639269
1.744386 -1.337542 6.533991
1.714220 -1.314411 7.554065
1.703035 -1.305835 8.579190
1.337193 -1.025319 9.321821
1.472584 -1.358193 2.417094
1.443699 -1.331551 3.344531
1.398386 -1.289759 4.097419
1.495126 -1.378984 5.111734
1.575107 -1.452752 5.970758
1.533302 -1.414194 6.953910
1.504631 -1.387751 7.918488
1.465181 -1.351365 8.708581
1.419691 -1.582608 1.120747
1.322554 -1.474324 1.962732
1.373187 -1.530767 2.881502
1.354900 -1.510382 3.832674
1.297757 -1.446682 4.516569
1.397160 -1.557491 5.589234
1.458380 -1.625736 6.438771
1.442553 -1.608093 7.406914
1.408048 -1.569628 8.252625
1.236152 -1.378006 9.261681
1.093041 -1.464494 1.176444
1.130645 -1.514877 2.170962
1.167285 -1.563968 3.177005
1.142587 -1.530877 4.181280
1.172163 -1.570504 4.902209
1.271062 -1.703012 5.839659
1.292165 -1.731286 6.783414
1.234350 -1.653824 7.583045
0.745875 -1.230563 0.447997
1.040583 -1.716780 1.351066
1.029488 -1.698474 2.082323
1.001689 -1.652611 2.901684
0.991592 -1.635953 3.939404
1.029370 -1.698280 4.911392
1.070072 -1.765431 5.762731
1.095142 -1.806793 6.803012
1.034563 -1.706847 7.484001
1.016103 -1.676393 8.541128
0.768628 -1.268101 9.452988
0.809519 -1.650435 0.371969
0.946733 -1.930185 1.072452
0.850435 -1.733854 1.976941
0.831873 -1.696010 3.000868
0.817218 -1.666131 3.859920
0.860650 -1.754680 4.854344
0.922099 -1.879962 5.795257
0.935599 -1.907486 6.715736
0.913349 -1.862122 7.642724
0.898750 -1.832359 8.562630
0.683043 -1.392578 9.413202
0.647159 -1.719307 0.179987
0.740380 -1.966967 1.145241
0.670214 -1.780558 1.894200
0.661271 -1.756798 2.821070
0.648664 -1.723304 3.691977
0.656703 -1.744661 4.718716
0.699393 -1.858077 5.736647
0.722726 -1.920066 6.397314
0.715402 -1.900608 7.539532
0.696495 -1.850379 8.364184
0.595821 -1.582917 9.471502
0.395233 -1.433412 0.133040
0.504868 -1.831030 1.054623
0.490096 -1.777456 1.680426
0.483108 -1.752113 2.668232
0.489447 -1.775101 3.691977
0.460434 -1.669877 4.659893
0.475283 -1.723734 5.371917
0.527125 -1.911751 6.273020
0.505692 -1.834020 7.228960
0.513586 -1.862647 8.261134
0.496563 -1.800909 9.220561
0.324971 -1.867837 0.898850
0.321737 -1.849246 1.883289
0.314004 -1.804801 2.896279
0.306735 -1.763023 3.672135
0.299236 -1.719919 4.549065
0.318044 -1.828025 5.509821
0.356205 -2.047361 6.576369
0.341840 -1.964794 7.324410
0.337723 -1.941133 8.328298
0.284930 -1.637693 9.213429
0.166933 -2.004791 -0.047806
0.167311 -2.009327 0.633403
0.155303 -1.865120 1.751411
0.156555 -1.880146 2.567816
0.157935 -1.896725 3.529975
0.140794 -1.690867 4.310950
0.147941 -1.776701 5.116685
0.168948 -2.028990 6.289830
0.160501 -1.927535 7.113110
0.158928 -1.908646 7.892825
0.145646 -1.749141 8.793354
-0.026315 -2.036637 0.095557
-0.027711 -2.144715 0.846077
-0.023809 -1.842722 1.656431
-0.023112 -1.788794 2.609686
-0.022955 -1.776618 3.515956
-0.021584 -1.670523 4.301335
-0.023271 -1.801116 5.272832
-0.026107 -2.020538 6.182309
-0.024716 -1.912906 6.981380
-0.024538 -1.899128 7.945179
-0.022609 -1.749831 8.894448
-0.189970 -1.849753 1.415654
-0.186346 -1.814465 2.342716
-0.179265 -1.745517 3.227511
-0.185457 -1.805808 4.238778
-0.184252 -1.794077 5.077778
-0.185423 -1.805476 5.783358
-0.193325 -1.882419 6.849588
-0.179613 -1.748907 7.722678
-0.178339 -1.736495 8.745263
-0.321193 -1.630367 -0.012047
-0.366460 -1.860142 0.898850
-0.359116 -1.822862 2.016295
-0.346343 -1.758025 2.657734
-0.349943 -1.776302 3.622035
-0.345627 -1.754394 4.471865
-0.361714 -1.836049 5.434783
-0.370628 -1.881296 6.343532
-0.360005 -1.827373 7.445081
-0.347608 -1.764449 8.360940
-0.286249 -1.452990 9.200780
-0.505720 -1.711363 1.418067
-0.483782 -1.637125 2.493787
-0.490202 -1.658852 3.229337
-0.528548 -1.788616 4.233986
-0.480700 -1.626698 5.236575
-0.465921 -1.576683 6.014351
-0.506680 -1.714615 6.828954
-0.502434 -1.700246 7.806808
-0.458597 -1.551899 8.745467
-0.700031 -1.752171 -0.107869
-0.748992 -1.874719 0.788751
-0.683555 -1.710931 1.644433
-0.676226 -1.692586 2.752258
-0.632892 -1.584123 3.570063
-0.678614 -1.698565 4.625384
-0.617895 -1.546584 5.399095
-0.575640 -1.440821 6.433372
-0.675866 -1.691686 7.353246
-0.639769 -1.601335 8.101096
-0.506513 -1.267796 9.009940
-0.610168 -1.189583 0.145626
-0.811655 -1.582402 1.213825
-0.791191 -1.542507 2.034047
-0.794215 -1.548402 3.023112
-0.928439 -1.810086 3.892404
-0.933142 -1.819255 4.759760
-0.693204 -1.351470 5.637939
-0.637191 -1.242268 6.579748
-0.759099 -1.479940 7.466421
-0.773281 -1.211483 0.217947
-0.983918 -1.541484 1.224450
-0.892415 -1.398127 2.037503
-0.654483 -1.025365 3.059020
-0.803859 -1.259389 4.025742
-1.105000 -1.731180 4.843348
-0.904759 -1.417467 5.727399
-0.840720 -1.317139 6.678542
-0.905037 -1.417902 7.723580
-0.827725 -1.296780 8.598176
-0.884032 -1.133727 0.290595
-1.128054 -1.446675 1.416458
-1.205639 -1.546173 3.911008
-1.283080 -1.645488 4.912192
-1.023186 -1.312185 5.974843
-0.850596 -1.090848 6.829627
-0.972235 -1.246844 7.579656
-0.920860 -1.180958 8.518313
-1.070717 -1.139189 0.386367
-1.268013 -1.349102 1.139791
-1.356952 -1.443729 3.860952
-1.434335 -1.526060 4.754357
-1.176199 -1.251416 5.808416
-1.006205 -1.070551 6.729758
-1.065967 -1.134136 7.583876
-1.026456 -1.092097 8.656073
-1.360340 -1.201568 0.540254
-1.167790 -1.031491 1.377007
-1.520161 -1.342735 2.415718
-1.782313 -1.574289 3.181873
-1.581798 -1.397178 4.174253
-1.322906 -1.168503 6.844803
-1.015145 -0.896662 7.880951
-0.928158 -0.819828 8.757421
-1.303327 -0.952148 0.458291
-1.411687 -1.031310 1.010130
-1.527214 -1.115709 3.977591
-1.638585 -1.197072 4.616426
-1.246484 -0.910622 5.634784
-0.652088 -0.476384 6.528914
-0.762761 -0.557236 7.713870
-1.027047 -0.750311 8.536458
-0.534111 -0.390196 9.435029
-1.857450 -1.122699 2.264574
-2.095498 -1.266582 3.117238
-1.707604 -1.032128 4.016403
-1.483285 -0.896543 5.122454
-0.851876 -0.514900 5.878591
-0.479503 -0.289826 6.905521
-0.833909 -0.504040 7.885207
-1.011714 -0.611510 8.730525
-1.341930 -0.640025 0.060473
-1.376241 -0.656390 1.075706
-1.563085 -0.745504 3.580075
-1.432145 -0.683053 4.467932
-1.080354 -0.515268 5.481074
-0.722501 -0.344592 6.479791
-0.759568 -0.362271 7.554839
-1.109149 -0.529002 8.443863
-0.903963 -0.431139 9.351247
-1.654355 -0.618338 0.624998
-1.350553 -0.504788 1.635161
-1.504273 -0.562243 2.475305
-1.822406 -0.681149 3.430223
-0.565765 -0.211463 7.025131
-0.917993 -0.343113 8.199870
-0.966741 -0.361333 8.874098
-1.678408 -0.446246 0.036079
-1.615819 -0.429606 0.951629
-1.374658 -0.365487 1.781436
-1.170714 -0.311263 2.582848
-1.441227 -0.383186 3.392730
-1.840116 -0.489241 4.375382
-1.417832 -0.376966 5.214685
-0.666644 -0.177244 6.232026
-0.636829 -0.169317 7.370312
-0.964416 -0.256414 8.158693
-0.909668 -0.241858 9.057604
-1.440372 -0.248814 -0.012101
-1.477590 -0.255243 1.064221
-1.610209 -0.278152 3.612275
-1.347797 -0.232822 4.539046
-0.829236 -0.143244 5.661776
-0.555512 -0.095961 6.589481
-0.701927 -0.121253 7.386874
-0.972671 -0.168022 8.375658
-0.768894 -0.132821 9.269245
-1.160115 -0.084639 0.365492
-1.349334 -0.098444 1.201268
-1.517852 -0.110738 2.310323
-1.863279 -0.135940 3.062526
-1.654249 -0.120690 3.901502
-1.215948 -0.088712 4.800237
-0.762266 -0.055613 5.846385
-0.633317 -0.046205 6.730237
-0.850149 -0.062025 7.767610
-0.921041 -0.067197 8.577809
-1.587486 0.022891 -0.289614
-1.419420 0.020468 0.835888
-1.413634 0.020384 1.551283
-1.356842 0.019565 2.501404
-1.726745 0.024899 3.519933
-1.945333 0.028051 4.286649
-1.440689 0.020774 5.205496
-0.752227 0.010847 6.135717
-0.870968 0.012559 7.272778
-1.014046 0.014622 7.966458
-0.902084 0.013008 8.861625
-1.278659 0.144023 -0.060746
-1.235895 0.139207 0.790538
-1.317148 0.148359 1.858277
-0.661728 0.074535 2.676222
-1.573107 0.177189 4.431728
-0.870366 0.098035 5.532943
-0.393562 0.044329 6.297833
-0.640913 0.072190 7.284056
-0.989442 0.111447 8.146465
-0.960068 0.108138 9.180003
-1.262767 0.257393 0.425213
-1.397562 0.284868 1.138689
-1.306040 0.266213 2.028203
-1.527690 0.311393 2.938489
-1.660764 0.338517 3.740635
-1.390741 0.283478 4.790956
-0.768421 0.156629 5.606593
-0.679688 0.138543 6.784434
-0.975938 0.198928 7.717631
-0.971427 0.198008 8.666287
-0.487886 0.099447 9.507902
-1.041050 0.311954 -0.085426
-0.976296 0.292550 0.818971
-1.564350 0.468762 3.600221
-1.714037 0.513617 4.483877
-1.035900 0.310411 5.359029
-0.406400 0.121779 6.319171
-0.660645 0.197965 7.403225
-1.011590 0.303126 8.198596
-0.937512 0.280929 9.241177
-1.215650 0.497203 0.388549
-1.292806 0.528760 0.945434
-1.095519 0.448069 2.047209
-1.349233 0.551838 2.920907
-1.572572 0.643184 3.788784
-1.339134 0.547708 4.812487
-0.763118 0.312116 5.726278
-0.680986 0.278524 6.727810
-1.014716 0.415020 7.562252
-1.036588 0.423966 8.540290
-0.701707 0.286999 9.530364
-1.077887 0.556483 1.533924
-0.817636 0.422123 2.292566
-1.051197 0.542704 3.293853
-1.202805 0.620975 5.918023
-0.975709 0.503732 6.948396
-1.157861 0.597771 7.877529
-0.963228 0.497288 8.749713
-0.702929 0.453983 -0.085903
-0.749585 0.484116 0.710947
-1.023816 0.661226 1.692114
-0.933744 0.603054 2.588626
-1.238914 0.800146 3.503528
-1.486041 0.959752 4.279625
-0.939178 0.606563 5.453630
-0.429548 0.277421 6.218876
-0.679589 0.438909 7.358439
-0.906106 0.585204 8.043164
-0.803014 0.518622 9.003708
-0.304529 0.238374 -0.049578
-0.473456 0.370604 1.147499
-0.928594 0.726868 1.949787
-0.664243 0.519944 2.714954
-0.873913 0.684066 3.642839
-1.088921 0.852366 4.684545
-0.663076 0.519031 5.462381
-0.690174 0.540242 6.481372
-0.902250 0.706247 7.403541
-0.880895 0.689531 8.262772
-0.673010 0.526807 9.381874
-0.880151 0.834433 0.316406
-0.998572 0.946703 1.127846
-0.834281 0.790946 1.841204
-0.634644 0.601678 2.811547
-0.847393 0.803377 3.736242
-0.862002 0.817227 4.742035
-0.527474 0.500075 5.751200
-0.729691 0.691789 6.500216
-0.894021 0.847582 7.464278
-0.810466 0.768368 8.389300
-0.566959 0.537509 9.397187
-0.784911 0.890542 0.182645
-0.926770 1.051492 1.151448
-0.766104 0.869205 2.048354
-0.699951 0.794149 2.947177
-0.753792 0.855236 3.996445
-0.647097 0.734181 4.665304
-0.468315 0.531339 5.603548
-0.708733 0.804112 6.777537
-0.849874 0.964247 7.480326
-0.776073 0.880515 8.555272
-0.449329 0.509798 9.521249
-0.636186 0.881069 0.061018
-0.759923 1.052435 1.008292
-0.679929 0.941650 2.109273
-0.679533 0.941101 2.977161
-0.721269 0.998902 3.902398
-0.578927 0.801770 4.763158
-0.488133 0.676027 5.600418
-0.662076 0.916925 6.494471
-0.770458 1.067025 7.512612
-0.707692 0.980100 8.472854
-0.406881 0.563499 9.350956
-0.159412 0.268189 0.161395
-0.383992 0.646014 1.155990
-0.598903 1.007572 1.779275
-0.599439 1.008474 2.780644
-0.588125 0.989439 3.835823
-0.496175 0.834746 4.591899
-0.518693 0.872630 5.639928
-0.679147 1.142572 6.639286
-0.711304 1.196672 7.512253
-0.625288 1.051962 8.281104
-0.448735 0.754935 9.249094
-0.493702 1.053015 0.341127
-0.573127 1.222420 1.092085
-0.492564 1.050587 2.084906
-0.478023 1.019573 3.199996
-0.491764 1.048880 3.921119
-0.406569 0.867168 4.939818
-0.358053 0.763689 5.873549
-0.525067 1.119912 6.864568
-0.678562 1.447301 7.825274
-0.570727 1.217300 8.648418
-0.196123 0.418309 9.580043
-0.055719 0.152524 0.249117
-0.179103 0.490266 0.964044
-0.403746 1.105192 1.888893
-0.393739 1.077801 2.770011
-0.411342 1.125986 3.807202
-0.357294 0.978037 4.782310
-0.348863 0.954960 5.652151
-0.443896 1.215098 6.570100
-0.477749 1.307764 7.661904
-0.477775 1.307835 8.500822
-0.346287 0.947908 9.387925
-0.353771 1.366828 -0.121150
-0.342237 1.322265 0.606415
-0.292869 1.131527 1.694009
-0.282714 1.092291 2.440887
-0.287647 1.111350 3.492556
-0.296327 1.144886 4.447232
-0.244991 0.946547 5.334219
-0.126434 0.488491 6.169430
-0.215640 0.833145 7.048097
-0.382892 1.479339 7.999825
-0.316327 1.222159 8.879011
-0.205792 1.245185 0.182339
-0.236799 1.432800 1.174361
-0.201886 1.221552 2.142223
-0.195990 1.185874 2.839955
-0.202920 1.227810 3.754312
-0.157839 0.955034 4.802508
-0.135976 0.822748 5.799922
-0.186742 1.129919 6.591988
-0.224670 1.359412 7.427397
-0.225906 1.366891 8.464458
-0.138945 0.840713 9.369606
-0.068073 1.009693 -0.158913
-0.066954 0.993094 0.880571
-0.083603 1.240029 1.666845
-0.071605 1.062080 2.640356
-0.074322 1.102378 3.581849
-0.092696 1.374900 4.391040
-0.083853 1.243744 5.474980
-0.047953 0.711258 6.216302
-0.065968 0.978470 7.167205
-0.102463 1.519773 8.250523
-0.081335 1.206389 9.244465
0.026951 1.238933 0.474339
0.031627 1.453874 1.246983
0.025854 1.188486 2.156798
0.031356 1.441402 3.055738
0.036332 1.670153 4.034008
0.024836 1.141725 4.783883
0.019044 0.875433 5.732230
0.026955 1.239093 6.714857
0.032743 1.505162 7.729556
0.162494 1.423551 1.368783
0.175718 1.539401 2.357333
0.193147 1.692088 3.207092
0.166870 1.461884 4.052200
0.118931 1.041910 5.078208
0.111176 0.973968 5.955244
0.139853 1.225197 6.840241
0.167082 1.463744 7.834949
0.159921 1.401007 8.723701
0.407372 1.944624 -0.107624
0.351672 1.678735 0.553514
0.309615 1.477973 1.439003
0.360254 1.719701 2.490966
0.393412 1.877986 3.408218
0.316779 1.512173 6.027837
0.271146 1.294339 7.087704
0.312602 1.492232 7.838338
0.265861 1.269109 8.922718
0.497458 1.613122 0.349158
0.523329 1.697017 1.117702
0.294318 0.954394 1.822924
0.575608 1.866543 3.827243
0.521958 1.692569 4.789475
0.452175 1.466284 5.758776
0.368698 1.195588 6.452184
0.433238 1.404876 7.523953
0.443101 1.436858 8.416897
0.339497 1.100899 9.459812
0.434127 1.050755 -0.134090
0.428985 1.038308 1.024446
0.524259 1.268907 1.795565
0.669149 1.619598 2.829075
0.749917 1.815087 3.657596
0.458183 1.108979 6.447173
0.389912 0.943737 7.261050
0.572269 1.385110 8.117555
0.549678 1.330431 9.247261
0.502425 0.954078 1.929737
0.953665 1.810956 3.746909
0.857623 1.628579 4.733381
0.747433 1.419333 5.712922
0.593293 1.126630 6.771905
0.591224 1.122702 7.533086
0.667354 1.267268 8.442996
0.507440 0.963601 9.524163
1.153373 1.769843 -0.262330
1.020221 1.565522 0.779460
1.043161 1.600724 1.449983
1.218594 1.869924 2.476057
1.264330 1.940106 3.353533
1.187037 1.821500 4.312409
0.974159 1.494841 5.128699
0.652382 1.001076 6.050687
0.660743 1.013905 7.018251
0.837093 1.284514 7.886670
0.861790 1.322411 8.929057
1.032743 1.302060 0.132515
1.057362 1.333099 1.143676
1.099483 1.386204 1.695306
1.285407 1.620614 2.676978
1.255128 1.582438 3.725142
1.257148 1.584985 4.556688
1.116638 1.407833 5.443984
0.486464 0.613323 6.532502
0.567802 0.715872 7.379066
1.021537 1.287932 8.215592
0.936765 1.181052 9.081852
1.266002 1.324512 1.344458
1.030069 1.077675 2.190698
1.289416 1.349009 3.376115
1.626343 1.701507 4.091208
1.331956 1.393515 5.063458
1.266415 1.324945 7.858094
1.174468 1.228747 8.641825
1.330997 1.154445 -0.132215
1.354961 1.175230 0.780789
1.567388 1.359480 1.826993
1.923524 1.668376 2.707011
1.951156 1.692343 3.558490
1.430364 1.240631 4.267542
1.163287 1.008982 5.402181
0.800454 0.694277 6.168537
0.805100 0.698307 7.379173
1.263788 1.096151 8.235111
1.288654 1.117719 9.053746
1.390708 0.997939 -0.024066
1.418508 1.017888 0.901918
1.829417 1.312747 1.867238
2.182270 1.565946 2.532923
2.090714 1.500247 3.440521
1.771234 1.270996 4.371941
1.576998 1.131617 7.308709
1.390058 0.997473 8.165786
1.362304 0.977557 9.160159
1.521161 0.888792 -0.084137
1.552419 0.907056 0.996975
1.962289 1.146537 1.771131
2.346156 1.370825 2.637297
2.323760 1.357740 3.656197
2.119207 1.238222 4.595548
1.840248 1.075231 5.499476
1.327619 0.775708 6.336742
1.218363 0.711872 7.322254
1.519771 0.887980 8.293494
1.456391 0.850948 9.208324
1.663808 0.778274 0.107992
1.856014 0.868181 1.039082
2.203669 1.030803 2.001797
2.612629 1.222100 2.897604
2.494921 1.167040 3.804734
2.291918 1.072082 4.599457
1.963418 0.918421 5.386070
1.616630 0.756205 6.473114
1.586737 0.742223 7.389651
1.614533 0.755225 8.140125
1.488928 0.696471 9.368309
1.864563 0.662241 1.220278
2.069912 0.735176 2.287081
2.535259 0.900454 2.993435
2.616730 0.929390 4.051397
2.387669 0.848034 4.861982
1.794889 0.637495 5.698457
1.588940 0.564348 6.659897
1.774371 0.630208 7.564975
1.730675 0.614688 8.689813
1.940983 0.493279 1.183721
2.295323 0.583331 2.218654
2.756542 0.700544 3.041678
2.701087 0.686451 4.157069
2.454450 0.623771 4.850173
2.059583 0.523420 5.839659
1.865224 0.474026 6.893642
1.866945 0.474463 7.668530
1.780985 0.452617 8.565012
1.987778 0.312753 -0.215125
2.066751 0.325178 0.691967
1.991479 0.313335 1.602047
2.085613 0.328146 2.554693
2.452035 0.385798 3.554867
2.631081 0.413969 4.430586
2.316039 0.364401 5.183722
1.989514 0.313026 6.134509
1.923646 0.302662 7.037308
1.884792 0.296549 7.993103
1.709304 0.268938 8.923450
2.103427 0.136387 1.359911
2.069945 0.134216 2.341362
1.787164 0.115880 3.031704
2.108351 0.136706 4.198101
2.395318 0.155313 4.793020
2.122190 0.137604 5.851579
2.045584 0.132636 6.886198
1.916009 0.124235 7.632603
1.942483 0.125951 8.730292
1.885929 -0.054957 0.047942
2.046258 -0.059630 0.955492
2.022527 -0.058938 1.793235
2.100776 -0.061218 2.806660
2.102714 -0.061275 3.525884
2.194910 -0.063961 4.526685
2.258910 -0.065826 5.519523
2.132382 -0.062139 6.263698
2.080160 -0.060617 7.236347
2.018376 -0.058817 8.182903
1.788920 -0.052131 9.211932
2.091629 -0.251928 1.324135
2.083561 -0.250956 2.328099
2.116036 -0.254868 3.235886
2.124970 -0.255944 3.955056
2.109139 -0.254037 4.799342
2.108225 -0.253927 5.827738
2.032103 -0.244758 6.703243
2.020308 -0.243338 7.563423
2.333453 -0.507343 -0.331773
2.168115 -0.471395 0.785151
2.042768 -0.444141 1.587377
2.054488 -0.446690 2.399662
2.081811 -0.452630 3.223967
2.060095 -0.447909 4.150403
2.192593 -0.476717 5.183669
2.237392 -0.486457 6.120137
2.138485 -0.464952 6.962020
2.091211 -0.454674 7.729472
1.978653 -0.430202 8.739557
1.870473 -0.592058 -0.143580
2.021291 -0.639797 0.858483
1.951944 -0.617846 1.768329
2.014849 -0.637758 2.590465
2.069586 -0.655084 3.424600
1.948873 -0.616874 4.518276
1.924849 -0.609270 5.198287
2.111141 -0.668237 6.300646
2.105359 -0.666407 7.239748
1.996320 -0.631892 7.897662
1.890211 -0.598306 8.909756
1.853530 -0.781942 0.035854
1.955726 -0.825055 0.977698
1.924540 -0.811899 1.539656
1.966338 -0.829532 2.517482
1.994984 -0.841617 3.353148
1.878915 -0.792651 4.470503
1.862834 -0.785867 5.222185
2.029244 -0.856070 6.217362
1.997123 -0.842519 6.989777
1.957917 -0.825979 7.928984
1.862944 -0.785913 9.101020
1.639345 -0.882405 -0.059962
1.843299 -0.992186 0.763543
1.799512 -0.968617 1.672792
1.811478 -0.975058 2.485979
1.903927 -1.024820 3.629070
1.680818 -0.904728 4.423303
1.706859 -0.918745 5.365730
1.925043 -1.036186 6.280413
1.898723 -1.022019 7.077125
1.876890 -1.010267 7.964743
1.815110 -0.977013 9.167575
1.468133 -0.974174 -0.144235
1.660640 -1.101911 0.741375
1.700628 -1.128444 1.601133
1.748057 -1.159916 2.747023
1.799205 -1.193855 3.593337
1.559894 -1.035061 4.305929
1.611537 -1.069329 5.329814
1.801934 -1.195665 6.113714
1.779402 -1.180715 7.104960
1.788817 -1.186962 8.048160
1.674472 -1.111089 8.916731
1.640867 -1.330593 -0.274254
1.722559 -1.396838 0.725676
1.547821 -1.255141 1.650787
1.558588 -1.263873 2.476861
1.592229 -1.291152 3.482140
1.409086 -1.142640 4.226773
1.515873 -1.229234 5.266967
1.699027 -1.377756 5.928280
1.716181 -1.391666 7.092924
1.677068 -1.359949 7.836696
1.606494 -1.302720 8.954512
1.315904 -1.281472 -0.083994
1.483426 -1.444611 0.883336
1.408800 -1.371937 1.615837
1.381546 -1.345396 2.421224
1.403806 -1.367074 3.284705
1.277760 -1.244326 4.169098
1.363653 -1.327971 5.284906
1.554029 -1.513366 5.979282
1.548795 -1.508269 6.954048
1.503975 -1.464622 7.785896
1.441667 -1.403944 8.804212
1.011730 -1.190815 0.277703
1.330342 -1.565826 1.254011
1.257803 -1.480446 2.216378
1.257003 -1.479504 3.033374
1.245890 -1.466424 3.781517
1.270599 -1.495507 4.926139
1.323673 -1.557976 5.801824
1.318011 -1.551311 6.460659
1.312230 -1.544508 7.515638
1.338835 -1.575822 8.569770
1.094320 -1.288025 9.345901
1.081242 -1.537210 1.247034
1.072473 -1.524743 2.148213
1.093073 -1.554030 3.156652
1.058228 -1.504490 3.958102
1.124115 -1.598162 5.072562
1.229967 -1.748653 5.935009
1.172316 -1.666690 6.643527
1.184347 -1.683795 7.842418
1.164091 -1.654996 8.603275
0.783667 -1.380218 -0.205144
0.935399 -1.647452 0.826951
0.962286 -1.694807 1.808270
0.966123 -1.701565 2.479682
0.942143 -1.659330 3.589877
0.785241 -1.382989 4.504132
0.834565 -1.469861 5.396062
1.033112 -1.819547 6.330445
1.009513 -1.777985 7.168781
0.964204 -1.698184 7.960218
0.916028 -1.613336 9.035595
0.696933 -1.536636 0.228760
0.836876 -1.845190 1.123310
0.789890 -1.741591 2.109838
0.798536 -1.760656 2.913657
0.784508 -1.729726 3.783661
0.800260 -1.764455 4.698742
0.841814 -1.856077 5.754051
0.848452 -1.870714 6.751006
0.820207 -1.808436 7.424215
0.806331 -1.777841 8.629694
0.614624 -1.355155 9.477178
0.613529 -1.784500 -0.167797
0.615151 -1.789218 0.683146
0.615716 -1.790860 1.678517
0.620845 -1.805779 2.530421
0.595112 -1.730932 3.234036
0.527386 -1.533945 4.318240
0.560805 -1.631148 5.050283
0.654266 -1.902987 6.122558
0.637433 -1.854027 6.961567
0.628339 -1.827577 7.988627
0.594451 -1.729010 8.903620
0.377862 -1.541874 -0.265479
0.402745 -1.643407 0.686255
0.443558 -1.809948 1.535578
0.442141 -1.804163 2.497317
0.435464 -1.776917 3.222035
0.390900 -1.595074 4.267604
0.422152 -1.722599 5.251773
0.479774 -1.957728 5.963782
0.463959 -1.893192 6.889765
0.460517 -1.879149 8.000600
0.432309 -1.764046 8.843605
0.293284 -1.990224 -0.035854
0.290493 -1.971284 0.717462
0.276153 -1.873971 1.690501
0.277499 -1.883110 2.422600
0.278184 -1.887756 3.589877
0.235121 -1.595527 4.221768
0.248127 -1.683791 5.284722
0.290740 -1.972959 6.173845
0.290313 -1.970063 7.152946
0.280164 -1.901191 7.928755
0.257640 -1.748344 8.853453
0.097555 -1.784983 0.288305
0.110534 -2.022477 1.099415
0.100147 -1.832418 2.065440
0.101907 -1.864615 3.050535
0.101214 -1.851944 3.847926
0.096097 -1.758319 4.924416
0.103536 -1.894420 5.833507
0.110317 -2.018504 6.536008
0.107910 -1.974458 7.524092
0.102036 -1.866987 8.334961
0.074462 -1.362459 9.376831
-0.070507 -1.736140 0.276606
-0.077157 -1.899886 1.138495
-0.074559 -1.835918 2.113437
-0.073355 -1.806270 2.909928
-0.073324 -1.805517 3.876299
-0.063979 -1.575390 4.615308
-0.067117 -1.652662 5.510585
-0.074865 -1.843442 6.366250
-0.073240 -1.803438 7.553682
-0.073235 -1.803313 8.260234
-0.058823 -1.448431 9.295686
-0.248005 -1.862612 1.235047
-0.244204 -1.834070 2.365378
-0.236482 -1.776071 3.043715
-0.235549 -1.769067 4.181112
-0.211857 -1.591132 4.880764
-0.237042 -1.780278 6.018145
-0.270551 -2.031947 6.886198
-0.252654 -1.897531 7.744709
-0.233746 -1.755521 8.615397
-0.394835 -1.716970 0.084137
-0.431017 -1.874308 1.006122
-0.409125 -1.779109 1.849423
-0.384788 -1.673279 2.662251
-0.400378 -1.741076 3.636098
-0.416915 -1.812985 4.440305
-0.431842 -1.877897 5.476550
-0.421864 -1.834506 6.275194
-0.393192 -1.709823 7.253313
-0.385939 -1.678282 8.225946
-0.335693 -1.459788 9.159431
-0.552108 -1.682005 2.273273
-0.549188 -1.673111 3.311656
-0.564882 -1.720921 3.924326
-0.546543 -1.665052 5.071484
-0.551372 -1.679765 5.997495
-0.541294 -1.649060 6.652439
-0.543083 -1.654510 7.626495
-0.509368 -1.551797 8.692403
-0.808146 -1.842304 -0.071708
-0.841639 -1.918656 0.858974
-0.708276 -1.614634 1.527049
-0.667095 -1.520754 2.556846
-0.565733 -1.289682 3.289417
-0.646409 -1.473597 4.441298
-0.727288 -1.657976 5.137814
-0.674573 -1.537803 6.267336
-0.673178 -1.534622 7.080845
-0.672069 -1.532095 8.098083
-0.596659 -1.360184 8.973025
-0.849688 -1.543372 0.096157
-0.927276 -1.684303 0.982170
-0.827470 -1.503016 1.600975
-0.999737 -1.815921 2.748590
-1.149522 -2.087992 3.574889
-1.038029 -1.885475 4.591413
-0.898959 -1.632868 5.374829
-0.820987 -1.491240 6.251788
-0.823838 -1.496419 7.125028
-0.807932 -1.467527 8.110127
-0.690336 -1.253926 8.958721
-0.768858 -1.125925 0.388113
-0.958679 -1.403900 1.083495
-0.909443 -1.331798 2.124232
-0.792132 -1.160007 2.875724
-0.970434 -1.421114 3.750555
-1.181779 -1.730611 4.766286
-1.006876 -1.474480 5.750577
-0.919794 -1.346957 6.458758
-0.930989 -1.363351 7.542897
-0.892607 -1.307143 8.564513
-0.554592 -0.812150 9.508289
-1.099208 -1.333457 1.203174
-1.220259 -1.480305 3.999292
-1.286725 -1.560935 5.016159
-0.942473 -1.143321 5.741030
-0.840185 -1.019234 6.752253
-0.993624 -1.205373 7.906438
-0.869283 -1.054534 8.631520
-1.244738 -1.246769 0.072118
-1.270525 -1.272598 1.008985
-1.105698 -1.107502 1.582268
-1.278113 -1.280199 2.524166
-1.526975 -1.529467 3.617159
-1.514549 -1.517020 4.508013
-1.312080 -1.314222 7.261066
-1.028896 -1.030575 8.300562
-0.827831 -0.829182 9.061834
-1.571256 -1.307824 2.247163
-1.803969 -1.501521 3.100685
-1.603866 -1.334967 4.188560
-1.347749 -1.121790 6.932805
-1.064905 -0.886367 7.912959
-1.023123 -0.851589 8.840087
-1.351293 -0.923487 -0.024107
-1.379556 -0.942802 0.903452
-1.278699 -0.873875 1.812660
-1.123774 -0.767998 2.574181
-1.413265 -0.965839 3.642268
-1.764784 -1.206070 4.448432
-1.408758 -0.962759 5.320827
-0.683028 -0.466788 6.313143
-0.605855 -0.414047 7.206650
-1.111831 -0.759836 8.258291
-0.998274 -0.682230 9.244465
-1.082863 -0.603983 0.535149
-1.403431 -0.782784 1.339267
-1.679629 -0.936838 2.325425
-1.890088 -1.054225 2.994043
-1.729551 -0.964683 4.126336
-1.536725 -0.857131 4.912396
-1.053098 -0.587381 5.751988
-0.646984 -0.360865 6.928332
-0.835529 -0.466029 7.636212
-1.073207 -0.598597 8.708766
-1.520474 -0.670877 -0.132515
-1.551840 -0.684717 0.914978
-1.410537 -0.622370 1.631480
-1.133078 -0.499947 2.617891
-1.456720 -0.642747 3.712883
-1.750839 -0.772521 4.471218
-1.280795 -0.565124 5.493056
-0.672629 -0.296783 6.376235
-0.603617 -0.266333 7.218484
-0.964283 -0.425469 8.325255
-0.902342 -0.398139 9.277874
-1.457667 -0.486479 0.000000
-1.467667 -0.489817 0.966399
-1.446376 -0.482711 1.837851
-0.859708 -0.286917 2.502165
-1.660700 -0.554239 4.597158
-1.300141 -0.433907 5.459747
-0.735828 -0.245574 6.483352
-0.631446 -0.210738 7.255442
-0.980514 -0.327235 8.215316
-0.939681 -0.313608 9.174992
-1.375689 -0.317021 0.060575
-1.439500 -0.331726 1.173699
-1.587893 -0.365923 3.855481
-1.330420 -0.306589 4.514791
-0.871379 -0.200805 5.680047
-0.571688 -0.131743 6.397233
-0.722102 -0.166405 7.407432
-1.051009 -0.242200 8.320685
-0.940719 -0.216784 9.422649
-1.326152 -0.181428 0.400466
-1.488996 -0.203706 1.197219
-1.328588 -0.181761 2.198099
-1.607250 -0.219885 3.128130
-1.719469 -0.235237 3.918958
-1.259781 -0.172348 4.819196
-0.841441 -0.115116 5.723123
-0.621893 -0.085080 6.680926
-0.817539 -0.111846 7.608083
-1.070210 -0.146413 8.598497
-1.409927 -0.071964 -0.072690
-1.345279 -0.068664 0.958630
-1.299827 -0.066344 1.883611
-0.994203 -0.050745 2.742606
-1.327434 -0.067753 3.563890
-1.605840 -0.081964 4.429237
-1.010032 -0.051553 5.404620
-0.527786 -0.026939 6.342459
-0.717447 -0.036619 7.423788
-1.014541 -0.051783 8.117552
-1.001879 -0.051137 9.236133
-1.410508 0.060010 0.084805
-1.372410 0.058389 1.030845
-1.605722 0.068315 3.590189
-1.364055 0.058034 4.514791
-0.745106 0.031700 5.499027
-0.488963 0.020803 6.423598
-0.791511 0.033675 7.563118
-1.048494 0.044608 8.300828
-0.823468 0.035034 9.234620
-1.226401 0.169095 0.340554
-1.414836 0.195077 1.211354
-1.424994 0.196477 2.144736
-1.606174 0.221458 3.116072
-1.623745 0.223881 3.963970
-1.324685 0.182647 4.959471
-0.769870 0.106149 5.944704
-0.655364 0.090361 6.738875
-0.959846 0.132343 7.558614
-0.955453 0.131737 8.658794
-1.231362 0.285262 0.449762
-1.313862 0.304374 1.031424
-1.418558 0.328629 1.986204
-1.697735 0.393304 3.059187
-1.639078 0.379715 3.887261
-1.321680 0.306186 4.908184
-0.746128 0.172851 5.858676
-0.665012 0.154059 6.710560
-0.963937 0.223309 7.530001
-0.996654 0.230889 8.698210
-0.420340 0.097378 9.677066
-1.125346 0.376978 0.097411
-1.182973 0.396282 0.985104
-1.523942 0.510502 3.590189
-1.439592 0.482246 4.535900
-0.821982 0.275354 5.459368
-0.630013 0.211047 6.411373
-0.901285 0.301920 7.448469
-1.024852 0.343313 8.332891
-0.846431 0.283544 9.195036
-1.110047 0.487158 0.219052
-1.187699 0.521237 0.959707
-1.083828 0.475652 2.047209
-1.141441 0.500936 2.751664
-1.369544 0.601042 3.757523
-1.369729 0.601123 4.562630
-0.881329 0.386782 5.621696
-0.663392 0.291138 6.478170
-0.911838 0.400172 7.415828
-1.010138 0.443312 8.316116
-0.748531 0.328503 9.325601
-1.101913 0.615786 0.230962
-1.154755 0.645316 0.995586
-1.028490 0.574755 1.925429
-1.281787 0.716306 3.078220
-1.499528 0.837987 3.714462
-1.082556 0.604969 4.761079
-0.615589 0.344012 5.778978
-0.814937 0.455414 6.698302
-1.044881 0.583915 7.557759
-0.938843 0.524657 8.574085
-0.545968 0.305105 9.506907
-1.022359 0.699258 0.413528
-1.093264 0.747755 1.068421
-0.895427 0.612441 2.076198
-1.098288 0.751191 2.892706
-1.466618 1.003116 3.818418
-1.064639 0.728177 4.755771
-0.518717 0.354785 5.964323
-0.718441 0.491389 6.782953
-0.977896 0.668847 7.635004
-0.811539 0.555065 8.490360
-0.342507 0.234263 9.719441
-0.868049 0.726306 1.341452
-0.783279 0.655378 2.311912
-1.020677 0.854011 3.258545
-1.166808 0.976281 4.315875
-0.768306 0.642850 5.108295
-0.280460 0.234664 6.074702
-0.517140 0.432697 6.988990
-0.944388 0.790180 7.902758
-0.834724 0.698423 8.900996
-0.467737 0.469656 -0.320306
-0.577326 0.579695 0.761241
-0.838969 0.842412 1.559135
-0.770311 0.773472 2.675492
-0.835194 0.838621 3.624574
-0.865384 0.868935 4.381453
-0.602358 0.604830 5.348979
-0.589234 0.591652 6.186971
-0.742170 0.745216 7.293694
-0.817761 0.821117 8.204956
-0.736870 0.739894 9.062259
-0.724271 0.879707 0.499781
-0.827743 1.005385 1.178328
-0.688107 0.835782 2.027380
-0.632108 0.767764 3.111096
-0.704652 0.855877 3.925491
-0.620292 0.753413 4.875918
-0.478747 0.581491 5.760333
-0.655081 0.795667 6.671329
-0.888946 1.079723 7.698263
-0.737158 0.895359 8.482181
-0.252622 0.306837 9.516035
-0.650925 0.954565 1.291964
-0.621223 0.911008 2.430050
-0.647483 0.949518 3.173838
-0.630092 0.924014 4.035258
-0.491282 0.720453 5.073400
-0.280502 0.411350 6.119977
-0.461260 0.676427 6.941497
-0.776946 1.139372 7.876590
-0.647815 0.950005 8.825440
-0.426839 0.778399 -0.306453
-0.502161 0.915761 0.830729
-0.571850 1.042847 1.571311
-0.519455 0.947298 2.480230
-0.566716 1.033484 3.563684
-0.584100 1.065186 4.517773
-0.425887 0.776664 5.407325
-0.519287 0.946992 6.315036
-0.672382 1.226181 7.088030
-0.577781 1.053664 8.021055
-0.447949 0.816897 9.136036
-0.205829 0.469293 0.259569
-0.333163 0.759614 1.264536
-0.474087 1.080922 1.974143
-0.443007 1.010060 2.858504
-0.447023 1.019217 3.974279
-0.392518 0.894944 4.888151
-0.358698 0.817834 5.867077
-0.470981 1.073840 6.774748
-0.560071 1.276965 7.674024
-0.543275 1.238671 8.558745
-0.328789 0.749642 9.453475
-0.330142 1.009770 0.244209
-0.380725 1.164485 1.095152
-0.367302 1.123428 2.010677
-0.354251 1.083509 3.039772
-0.351594 1.075384 3.898923
-0.303686 0.928854 4.888151
-0.254410 0.778136 5.876786
-0.336781 1.030078 6.688376
-0.438384 1.340839 7.621314
-0.420325 1.285605 8.558745
-0.248383 0.759702 9.483179
-0.273599 1.197437 1.216807
-0.260441 1.139852 2.267642
-0.243931 1.067591 3.116377
-0.236328 1.034316 3.954284
-0.214845 0.940292 5.001007
-0.213199 0.933090 5.970774
-0.271684 1.189056 6.917045
-0.317016 1.387457 7.693996
-0.309162 1.353085 8.740640
-0.198267 1.525256 -0.350344
-0.182446 1.403544 0.569391
-0.152581 1.173796 1.400840
-0.142924 1.099506 2.539837
-0.145013 1.115575 3.518890
-0.164497 1.265465 4.376566
-0.151078 1.162231 5.274064
-0.072300 0.556202 6.212079
-0.101881 0.783766 7.084278
-0.188954 1.453609 7.936118
-0.152005 1.169364 8.844955
-0.051311 1.311654 0.291413
-0.058684 1.500127 1.136767
-0.050171 1.282522 2.042629
-0.056100 1.434085 2.958876
-0.059317 1.516321 3.719155
-0.047201 1.206610 4.690715
-0.056766 1.451114 5.707929
-0.064930 1.659810 6.491287
-0.057873 1.479403 7.435113
-0.057102 1.459684 8.324767
-0.043174 1.103659 9.355229
0.070726 1.260199 0.206650
0.084124 1.498915 1.136767
0.071859 1.280380 2.018329
0.081419 1.450720 2.848288
0.091606 1.632240 3.915755
0.075428 1.343966 4.811132
0.069824 1.244123 5.672644
0.076375 1.360851 6.696246
0.080778 1.439305 7.653410
0.084831 1.511510 8.602939
0.059218 1.055152 9.492735
0.206607 1.372832 0.375773
0.227234 1.509889 1.160293
0.161032 1.070000 2.015175
0.198023 1.315793 2.892706
0.262622 1.745035 3.964822
0.207918 1.381545 4.817876
0.176460 1.172517 5.593727
0.191194 1.270417 6.509358
0.218513 1.451944 7.661263
0.224798 1.493709 8.453164
0.161153 1.070808 9.614818
0.361569 1.466944 1.463179
0.418135 1.696438 2.310632
0.472386 1.916544 3.139315
0.426558 1.730612 4.157085
0.323293 1.311652 5.080806
0.267380 1.084803 6.036370
0.279736 1.134931 6.750387
0.338239 1.372287 7.783079
0.349061 1.416195 8.839940
0.628860 1.806571 -0.323422
0.565515 1.624596 0.866337
0.555832 1.596781 1.601881
0.650808 1.869625 2.442392
0.679645 1.952467 3.384676
0.542231 1.557708 6.234701
0.430465 1.236629 7.164502
0.501639 1.441094 7.987742
0.479428 1.377288 8.965880
0.595203 1.307728 -0.096866
0.577898 1.269707 0.860598
0.661676 1.453778 1.774422
0.792767 1.741799 2.602294
0.847246 1.861496 3.422432
0.857617 1.884283 4.527646
0.688700 1.513153 5.375002
0.397206 0.872708 6.169946
0.492582 1.082259 7.358845
0.621752 1.366060 8.267190
0.618336 1.358554 9.009306
0.840987 1.462092 -0.012040
0.846225 1.471198 0.963127
0.625329 1.087162 1.946515
1.017959 1.769767 3.687196
0.988257 1.718128 4.645585
0.845398 1.469762 5.639930
0.472262 0.821049 6.446188
0.579395 1.007304 7.501024
0.790737 1.374731 8.313787
0.701767 1.220052 9.216013
0.682656 0.970693 0.000000
0.687745 0.977930 0.888818
0.960582 1.365887 1.711195
1.129183 1.605627 2.587372
1.171596 1.665936 3.627476
1.146598 1.630391 4.511451
0.966451 1.374233 5.311778
0.588586 0.836933 6.447748
0.712198 1.012701 7.500768
0.914787 1.300770 8.200599
0.870322 1.237543 9.231968
1.209376 1.415474 0.071954
1.215967 1.423188 0.947320
1.085936 1.270997 1.759372
1.379942 1.615106 2.769298
1.423321 1.665878 3.674612
1.294759 1.515407 4.511451
1.106663 1.295256 5.504397
0.651067 0.762019 6.650559
0.764255 0.894496 7.435995
1.076934 1.260461 8.425065
0.933106 1.092123 9.109014
1.172902 1.142674 0.265179
1.348185 1.313440 1.342931
1.103155 1.074725 2.176151
1.383757 1.348095 3.250653
1.849533 1.801867 3.843721
1.587408 1.546498 4.945831
1.316391 1.282466 7.597454
1.704312 1.371175 -0.249976
1.571245 1.264118 0.657303
1.720265 1.384009 3.254144
1.819775 1.464069 4.164734
1.559284 1.254495 5.261009
1.260399 1.014032 6.005664
1.040618 0.837211 7.010968
1.091995 0.878546 7.860111
1.294889 1.041780 8.837011
1.385314 0.918456 0.192749
1.456440 0.965612 0.974060
1.896244 1.257200 1.830530
2.262958 1.500329 2.602019
2.167863 1.437282 3.473912
1.920664 1.273390 4.359485
1.625416 1.077642 5.254999
0.941145 0.623974 6.482279
0.846118 0.560972 7.224383
1.407552 0.933200 8.045421
1.333938 0.884394 9.037656
1.311624 0.703529 0.387022
1.703039 0.913476 1.353377
1.671707 0.896670 2.302782
2.122996 1.138733 3.262955
2.404191 1.289560 4.067836
2.095685 1.124084 4.819466
1.779721 0.954607 5.805107
1.518515 0.814501 6.900601
1.556752 0.835011 7.770756
1.598918 0.857628 8.444992
1.715527 0.723729 -0.143908
1.792872 0.756359 0.897827
1.815165 0.765763 1.711543
1.262085 0.532436 2.719712
2.448481 1.032940 4.371713
2.119611 0.894200 5.442012
1.670710 0.704822 6.321813
1.626542 0.686189 7.165137
1.736967 0.732774 8.145928
1.592309 0.671747 9.162033
1.632677 0.514101 -0.012033
1.809572 0.569802 0.958764
1.883731 0.593154 1.831164
1.313050 0.413457 2.828842
2.585429 0.814106 4.639783
2.227635 0.701443 5.317199
1.844323 0.580745 6.280100
1.825466 0.574807 7.448713
1.823736 0.574263 8.153351
1.531297 0.482179 9.061782
1.820904 0.394623 0.359766
2.152955 0.466585 1.190222
1.981406 0.429407 1.888816
1.671573 0.362261 2.952624
1.944714 0.421455 3.956620
2.479030 0.537251 4.658503
2.161595 0.468457 5.537703
1.865127 0.404207 6.454941
1.938573 0.420124 7.559972
1.888320 0.409234 8.261134
1.513374 0.327976 9.401124
1.747589 0.225854 0.192313
2.082852 0.269183 1.085606
2.043472 0.264093 2.066828
1.621256 0.209527 2.945577
1.897228 0.245193 3.939404
2.541569 0.328466 4.667630
2.204786 0.284941 5.427527
1.931276 0.249593 6.547074
1.948944 0.251877 7.452318
1.920694 0.248226 8.285079
1.589326 0.205401 9.414870
1.861035 0.050111 -0.023985
1.993083 0.053667 0.789201
1.997195 0.053778 1.782302
2.199904 0.059236 2.788356
2.436378 0.065603 3.618133
2.492114 0.067104 4.483913
2.197632 0.059175 5.225276
2.049096 0.055175 6.385374
1.971281 0.053080 7.033350
1.878347 0.050578 7.973604
1.714972 0.046178 8.976541
2.058428 -0.136818 1.516661
2.036803 -0.135381 2.187448
2.065698 -0.137301 3.084437
2.194006 -0.145830 4.045761
2.095541 -0.139285 5.031484
1.960941 -0.130338 5.775784
2.060686 -0.136968 6.822636
1.985394 -0.131964 7.595847
1.908329 -0.126841 8.687261
1.789672 -0.287193 0.276135
