0.892660 -0.215481 -8.225581
0.929559 -0.224388 -9.163221
0.771051 -0.254248 -7.931801
0.624255 -0.205843 -8.958209
0.243490 -0.105458 -7.862054
0.185570 -0.080372 -9.102546
0.430232 -0.234839 -7.979270
0.312892 -0.170790 -9.107148
-0.096562 0.063478 -8.140699
-0.109297 0.071850 -9.097695
0.039895 -0.031226 -8.479028
0.131031 -0.102559 -9.531400
-0.093715 0.088386 -8.069146
-0.091540 0.086335 -9.121550
0.110844 -0.123392 -8.149606
0.069738 -0.077633 -9.123071
-0.209373 0.337325 -7.561455
-0.199434 0.395440 -7.878897
-0.090950 0.180336 -9.000379
0.059770 -0.147570 -8.114062
0.296640 -0.732393 -9.223334
-0.121547 0.396764 -7.750068
-0.089802 0.420450 -7.950964
-0.057425 0.268862 -8.766197
-0.049016 0.409560 -8.047021
-0.023699 0.198017 -8.887855
-0.016845 0.428640 -7.814456
-0.117450 -0.525850 -5.347861
-0.008426 -0.037726 -6.317263
-0.053986 -0.241706 -7.475029
-0.069744 -0.312261 -8.157366
-0.133500 -0.597709 -9.347543
-0.140995 -0.436346 -5.310037
0.037454 0.115912 -6.255320
0.003816 0.011811 -7.287335
-0.037331 -0.115532 -8.047507
-0.124808 -0.386252 -9.219847
-0.032238 -0.077257 -7.980851
-0.047892 -0.114772 -9.217959
-0.033789 -0.065108 -5.249005
-0.122699 -0.236429 -8.142988
-0.161508 -0.252019 -4.074815
-0.028900 -0.045095 -7.814621
0.401909 0.525235 -3.059227
0.029026 0.031527 -8.521945
-0.177954 -0.193289 -9.386440
0.068249 0.062851 -7.988579
-0.195480 -0.180020 -9.039879
0.050070 0.038315 -7.872427
0.102506 0.065947 -7.538736
-0.283578 -0.182439 -8.766696
0.074851 0.038984 -7.311609
-0.202686 -0.105564 -8.076635
-0.344222 -0.179279 -9.014357
0.227710 0.095378 -7.979677
-0.037599 -0.015749 -8.814385
0.271336 0.085472 -7.912344
-0.066615 -0.020984 -8.956912
0.084103 0.019033 -8.024329
-0.163652 -0.037036 -8.936761
0.362459 0.046954 -8.026039
0.141965 0.018390 -8.913710
0.202955 0.009649 -7.799040
-0.028753 -0.001367 -8.754972
0.335515 -0.014889 -7.909230
0.022601 -0.001003 -8.752922
-0.050926 0.002260 -9.818509
-0.524524 0.068362 -9.316490
-0.288451 0.064214 -8.296591
-0.576449 0.128326 -9.364586
0.315150 -0.098046 -8.217833
0.108235 -0.033673 -9.181174
0.352838 -0.144539 -8.078517
0.028273 -0.011582 -8.965162
0.382125 -0.197036 -7.950964
0.593844 -0.378527 -8.525681
0.404248 -0.257675 -9.383643
0.323450 -0.245413 -8.219618
0.000350 -0.000265 -9.231990
0.316246 -0.285502 -8.111567
0.005921 -0.005346 -9.196309
0.284460 -0.308486 -8.807587
-0.249893 0.271000 -9.635448
0.284169 -0.364680 -8.591362
0.324460 -0.416387 -9.633277
0.345566 -0.538490 -8.463249
0.289945 -0.451817 -9.232403
0.212250 -0.400032 -8.104080
0.082036 -0.154614 -9.007288
0.236740 -0.551733 -8.131215
0.201414 -0.619430 -7.990941
0.075316 -0.231627 -9.046320
0.050365 -0.154893 -9.778950
0.156869 -0.667141 -8.221790
0.117664 -0.500408 -9.340723
0.070144 -0.497843 -8.774187
-0.012800 0.090846 -9.771915
0.031311 -0.645985 -8.427046
0.024764 -0.510907 -9.352755
-0.024528 -0.729188 -8.392716
-0.014989 -0.445592 -9.539882
-0.104340 -0.828569 -8.638877
-0.060926 -0.483817 -9.700110
-0.126653 -0.603017 -7.760625
-0.208525 -0.679927 -8.489426
-0.131137 -0.427591 -9.414484
-0.205591 -0.515643 -7.961131
-0.350896 -0.704626 -8.491429
-0.186694 -0.374895 -9.546598
-0.231719 -0.376111 -8.164152
0.037483 0.050048 -8.921289
0.269588 0.359957 -9.654447
-0.391180 -0.441284 -8.591175
-0.414393 -0.467471 -9.540735
-0.326633 -0.306921 -8.663460
0.201353 0.189201 -9.680833
-0.422371 -0.336596 -8.182375
-0.370269 -0.295075 -9.168970
-0.238157 -0.159867 -8.706352
-0.364483 -0.198341 -8.171601
-0.203225 -0.110590 -8.981500
-0.502066 -0.222007 -8.271240
-0.190111 -0.084065 -9.338343
-0.486268 -0.163673 -8.326805
-0.195419 -0.065776 -9.225623
0.213048 0.051574 -8.938519
-0.672048 -0.101534 -8.520958
-0.378609 -0.057201 -9.476028
0.316788 0.021015 -8.795273
-0.559127 0.011343 -8.485297
-0.183379 0.003720 -9.333132
0.332831 -0.036318 -8.754896
0.069605 -0.007595 -9.789266
-0.179265 0.034768 -8.190256
0.312403 -0.060589 -9.287945
0.229386 -0.065808 -8.528395
-0.120259 0.034501 -9.833140
-0.069406 0.026665 -8.491000
0.335078 -0.128731 -9.118943
0.200354 -0.098919 -8.580549
0.104135 -0.051414 -9.766438
-0.095026 0.057016 -8.028845
0.253090 -0.151854 -9.058400
0.187582 -0.112549 -9.880208
0.448728 -0.323056 -8.442205
0.429282 -0.309057 -9.316490
0.363279 -0.315706 -8.847751
0.200598 -0.174329 -9.633560
-0.043229 0.044391 -8.155367
0.180251 -0.185097 -9.004417
0.052853 -0.054274 -10.150309
0.231218 -0.285494 -8.405136
0.267292 -0.330036 -9.425364
0.036856 -0.054098 -8.291428
0.159248 -0.233749 -8.999333
-0.001200 0.001762 -10.256285
0.074048 -0.133420 -8.078513
0.257326 -0.463650 -8.837703
0.484684 -0.873304 -9.702586
0.012238 -0.027057 -8.101359
0.200386 -0.443020 -9.116675
-0.000461 0.001329 -8.341138
0.136077 -0.392422 -9.143967
0.017862 -0.069340 -8.585908
0.067169 -0.260753 -9.533608
0.104070 -0.641939 -8.800867
0.109208 -0.673634 -9.663868
0.047768 -0.616792 -8.770717
-0.009223 -0.676851 -8.929691
-0.091569 -0.946964 -8.775557
-0.180122 -0.931738 -8.763924
-0.036076 -0.130163 -7.983688
-0.222621 -0.803224 -8.945810
-0.035891 -0.097223 -8.357947
0.020903 0.043474 -8.362437
0.044768 0.093107 -9.228861
-1.256672 0.446394 -6.188371
-0.756842 0.427034 -4.952164
-0.978148 0.551902 -5.770148
-0.779576 0.439862 -9.469233
-1.094294 0.756133 -5.988813
-0.589579 0.407386 -7.828530
-0.657566 0.454363 -9.026103
-0.433910 0.299822 -9.995460
-0.555002 0.456177 -7.261458
-0.507633 0.417242 -8.190905
-0.493269 0.405436 -9.231486
-0.233136 0.229928 -1.960630
-0.290954 0.286950 -2.949774
-0.015018 0.014811 -4.053032
-0.032857 0.032404 -4.794851
-0.333152 0.328567 -5.775283
-0.275916 0.272119 -7.693885
-0.302652 0.298487 -8.822474
-0.225405 0.222303 -9.746231
-0.299367 0.349131 -4.178448
-0.351047 0.409403 -5.145168
-0.527076 0.614693 -7.920130
-0.478939 0.558555 -9.088348
-0.292404 0.341012 -10.100468
-0.250804 0.353652 -1.484110
-0.415522 0.585916 -2.705440
-0.344618 0.485936 -3.444162
-0.157930 0.222694 -4.566646
-0.088066 0.124180 -5.480115
-0.496082 0.699511 -7.333877
-0.430510 0.607050 -8.247003
-0.369364 0.520830 -9.231486
-0.343034 0.579538 -1.862835
-0.382425 0.646087 -2.820752
-0.134684 0.227541 -3.684905
-0.125764 0.212472 -4.557441
-0.288086 0.486707 -5.559211
-0.367667 0.621154 -6.493113
-0.474243 0.801208 -7.465123
-0.391776 0.661884 -8.375548
-0.328973 0.555782 -9.499912
-0.245697 0.517133 -1.843697
-0.236881 0.498579 -2.845629
-0.115207 0.242482 -3.732183
-0.167525 0.352601 -4.947912
-0.353674 0.744400 -5.608871
-0.384524 0.809331 -8.629226
-0.247597 0.521133 -9.650630
-0.208003 0.437797 -10.465010
-0.193117 0.511302 -1.821281
-0.187890 0.497462 -2.917765
-0.146236 0.387178 -3.672198
-0.175526 0.464728 -4.543066
-0.276560 0.732229 -5.483679
-0.320572 0.848753 -8.300191
-0.231356 0.612543 -9.424245
-0.224778 0.595127 -10.453074
-0.158673 0.556623 -1.984521
-0.090857 0.318724 -2.919479
-0.005876 0.020614 -3.777406
-0.074678 0.261969 -4.793870
-0.198363 0.695855 -5.800591
-0.285305 1.000848 -8.587913
-0.174434 0.611913 -9.686569
-0.135227 0.474376 -10.500287
-0.088811 0.471353 -1.364783
-0.100614 0.534000 -2.280477
-0.062443 0.331411 -3.346126
-0.089271 0.473798 -4.401960
-0.113008 0.599776 -5.315169
-0.074591 0.395882 -9.900274
-0.061023 0.640174 -1.735041
-0.039821 0.417747 -2.736104
-0.003436 0.036045 -3.656437
-0.034666 0.363669 -4.723917
-0.083686 0.877927 -5.470978
-0.107703 1.129885 -6.549085
-0.116575 1.222951 -7.568030
-0.099095 1.039575 -8.478528
-0.071646 0.751614 -9.414501
-0.059183 0.620872 -10.294842
-0.003298 0.273518 -1.158406
-0.007267 0.602651 -1.959913
-0.004335 0.359547 -2.964975
-0.004469 0.370660 -4.032417
-0.008520 0.706557 -4.852452
-0.012759 1.058140 -8.548161
-0.008030 0.665916 -9.704494
-0.006868 0.569555 -10.705764
0.040442 0.576008 -1.291214
0.051502 0.733533 -2.117922
0.046662 0.664591 -3.049860
0.047897 0.682178 -4.156760
0.055932 0.796614 -4.995822
0.070939 1.010364 -7.918587
0.060319 0.859101 -8.709084
0.041493 0.590971 -9.832143
0.108274 0.664177 -1.851126
0.071057 0.435880 -2.687438
0.011133 0.068295 -3.749343
0.075134 0.460892 -4.498629
0.145645 0.893421 -5.456157
0.130577 0.800990 -9.438788
0.104260 0.639556 -10.289019
0.162461 0.651494 -1.815999
0.135280 0.542492 -2.951296
0.082546 0.331020 -3.702150
0.191856 0.769371 -4.724470
0.285334 1.144233 -7.576820
0.177755 0.712823 -9.553883
0.132892 0.532919 -10.623586
0.095617 0.280863 -1.086872
0.227657 0.668712 -2.037262
0.189007 0.555183 -2.984784
0.158519 0.465628 -3.985537
0.312944 0.919231 -4.963910
0.252489 0.741654 -9.543008
0.213330 0.626629 -10.558512
0.196881 0.442075 -1.494153
0.306249 0.687648 -2.445225
0.274142 0.615556 -3.155246
0.359499 0.807216 -4.396298
0.324733 0.592930 -1.921376
0.376393 0.687257 -2.935907
0.607677 1.109559 -4.672372
0.463035 0.845456 -8.712380
0.367117 0.670321 -9.571815
0.266261 0.396338 -1.294213
0.421278 0.627084 -2.491971
0.431382 0.642125 -3.147917
0.532740 0.792998 -4.106990
0.360538 0.536671 -9.844435
0.374015 0.467269 -1.866086
0.656855 0.820630 -4.555066
0.565454 0.706440 -9.162078
0.430907 0.439876 -1.677429
0.553501 0.565022 -2.665690
0.595173 0.607561 -3.787804
0.760876 0.776713 -4.656781
0.614726 0.542056 -2.722483
-0.259761 0.111572 -2.720518
-0.071845 0.030859 -3.786040
0.064660 -0.027773 -4.551988
0.307671 -0.132150 -5.529033
0.492876 -0.211699 -6.437100
-0.294496 0.192627 -3.182420
-0.261441 0.171006 -3.975338
-0.354622 0.231956 -5.089786
0.330874 -0.261911 -3.766424
-0.017896 0.014166 -4.621883
0.017168 -0.013590 -5.834993
0.260285 -0.243721 -4.402859
-0.130795 0.122472 -5.449139
-0.061946 0.058004 -7.605992
-0.300328 0.332605 -3.237700
-0.196576 0.261891 -4.593582
0.104490 -0.139208 -5.453298
0.253110 -0.337208 -6.514468
-0.424870 0.688382 -2.716660
0.158904 -0.257460 -5.473158
0.087873 -0.142374 -6.504375
-0.083837 0.164741 -5.195342
0.109302 -0.214779 -6.143092
-0.049036 0.123258 -4.283997
-0.196830 0.494754 -5.444215
-0.262423 0.659632 -8.226352
0.026835 -0.088070 -3.723464
-0.065359 0.214500 -4.619046
-0.189716 0.622627 -5.704055
-0.110336 0.362113 -7.521238
-0.033464 0.161505 -3.336929
-0.138452 0.668201 -4.313452
-0.201658 0.973244 -5.377687
-0.076591 0.369643 -7.225083
-1.096535 -1.415399 -7.585410
-2.349931 1.187636 -9.107403
-2.180523 1.355132 -7.525446
0.160094 0.056022 -5.417762
1.122518 0.180929 -8.171429
1.212620 0.085703 -9.180086
1.112172 -0.013325 -7.768298
1.120329 -0.013423 -8.728707
1.107437 -0.013268 -9.616891
0.933035 -0.092986 -7.056866
1.013712 -0.101026 -8.218276
1.022029 -0.101855 -9.135856
0.998703 -0.099530 -9.946205
0.892710 -0.168406 -7.481075
0.901170 -0.170001 -8.479664
0.950369 -0.179283 -9.331339
0.935177 -0.258206 -7.398376
0.870118 -0.240243 -8.144073
0.941137 -0.259851 -9.256251
0.815191 -0.305612 -7.836564
0.966042 -0.362165 -8.916479
0.787396 -0.373850 -7.415472
0.805344 -0.382371 -8.218662
0.889820 -0.422479 -9.412721
0.891104 -0.423089 -10.306332
0.460039 -0.272450 -6.425354
0.802268 -0.475129 -7.177351
0.769065 -0.455465 -8.097484
0.833576 -0.493670 -9.221370
0.857028 -0.507559 -10.131966
-0.118512 0.084248 -5.517650
0.159832 -0.113622 -6.693859
0.720663 -0.512307 -7.341301
0.798760 -0.567825 -8.539685
0.829016 -0.589334 -9.442178
0.835279 -0.593786 -10.358530
0.710127 -0.607916 -7.909022
0.781884 -0.669344 -9.026135
0.783034 -0.670329 -9.841973
-0.270135 0.273116 -5.816095
0.177799 -0.179762 -6.733536
0.672041 -0.679459 -7.460815
0.692446 -0.700090 -8.562933
0.699065 -0.706781 -9.337616
0.737463 -0.885463 -7.128456
0.638010 -0.766051 -7.969643
0.694722 -0.834144 -9.050557
0.702973 -0.844051 -10.021920
-0.210137 0.303090 -5.740869
0.617388 -0.890487 -8.289994
0.646932 -0.933100 -9.513218
-0.091847 0.196544 -5.745356
0.025602 -0.070111 -5.852104
-0.075006 0.913137 -5.183629
0.000731 0.873207 -4.662905
0.000082 0.097678 -5.693353
0.042793 0.522324 -4.869796
0.028346 0.345984 -5.713660
0.205036 1.156008 -4.422984
0.210659 0.798700 -4.633458
0.014993 0.056846 -5.797315
0.289858 0.794383 -4.182540
0.243047 0.666094 -5.233021
0.146097 0.316735 -4.862590
-0.020885 -0.045278 -5.855434
0.387021 0.680831 -4.800381
-0.779847 -1.371875 -7.245681
0.593864 0.853682 -4.508115
0.412016 0.496716 -4.175874
0.345487 0.352960 -4.683948
-0.188569 -0.192648 -5.609458
0.439702 0.373550 -4.364011
-0.132357 -0.094503 -4.710094
0.528235 0.314430 -4.233828
0.320868 0.190995 -5.302872
-0.176297 -0.083909 -4.778439
0.403605 0.152388 -4.046659
0.148379 0.056023 -5.204333
0.526334 0.145551 -4.421764
-0.149777 -0.028477 -4.615299
0.380665 0.039662 -4.030088
-0.025892 -0.002698 -5.061884
-0.484425 -0.050473 -5.916428
0.285159 0.003348 -4.516569
-0.353976 0.024721 -4.856403
0.297083 -0.047873 -4.360931
-0.112654 0.018153 -5.376509
-0.567490 0.142700 -4.664286
-1.224691 0.307959 -5.868826
0.075840 -0.025643 -4.555672
-0.161411 0.071384 -4.361365
-0.556227 0.245991 -5.089369
-0.911677 0.403188 -6.130879
-2.491595 1.101905 -9.509229
-0.235218 0.128552 -4.519372
-0.186089 0.150775 -4.486485
-2.037532 1.650878 -8.210669
-0.502602 0.482215 -4.285505
-0.549918 0.527612 -5.320136
