-0.982085 0.314933 9.608591
-1.356243 0.554837 0.823706
-1.204830 0.494049 1.231952
-1.097204 0.451872 1.990455
-1.192533 0.493396 2.787076
-1.537240 0.638128 3.333225
-1.559959 0.651029 4.264678
-1.181779 0.494557 4.804064
-0.909748 0.382556 5.717130
-0.486597 0.205189 6.306370
-0.534407 0.226667 7.385687
-0.875823 0.372933 8.041543
-0.852649 0.363912 8.487727
-0.881796 0.378432 9.534238
-0.872519 0.452577 0.398036
-0.948278 0.493262 0.968674
-0.924678 0.482549 1.629295
-1.007658 0.527884 2.410444
-1.014495 0.533414 3.158549
-1.214831 0.641206 3.923825
-1.401921 0.742620 4.636206
-1.039318 0.552626 5.478787
-0.478626 0.255288 6.243103
-0.349390 0.186962 6.972114
-0.635850 0.341482 7.693628
-0.755017 0.406869 8.411654
-0.701541 0.379398 9.212513
-0.645287 0.419791 1.006152
-0.825899 0.538391 1.466582
-1.144356 0.754078 3.895020
-0.253032 0.168666 6.754172
-0.453625 0.303325 7.464538
-0.716886 0.480984 8.215238
-0.648591 0.436249 8.842790
-0.430392 0.290439 9.725910
-0.551841 0.440882 0.215233
-0.463976 0.371874 1.001254
-0.721703 0.580367 1.800334
-1.042583 0.845680 3.868941
-1.130533 0.919880 4.614312
-0.729181 0.594261 5.078276
-0.381352 0.311784 5.948061
-0.262696 0.215477 6.808904
-0.470442 0.387222 7.645952
-0.696737 0.575042 8.277755
-0.650852 0.538626 8.992807
-0.432420 0.358971 9.883164
-0.508340 0.490580 0.234800
-0.442431 0.428011 0.843639
-0.659488 0.640092 1.654470
-0.922118 0.902166 3.611920
-1.012481 0.994222 4.512112
-0.690110 0.679071 5.094174
-0.323892 0.319584 5.873326
-0.095327 0.094273 6.518797
-0.371380 0.368899 7.602558
-0.607462 0.604395 7.960663
-0.583995 0.583140 8.914822
-0.434918 0.435624 9.794681
-0.588889 0.688946 1.352933
-0.492160 0.577151 1.945939
-0.468472 0.551508 2.910581
-0.645299 0.761425 3.455598
-0.853425 1.009924 4.134119
-0.339179 0.405991 7.130247
-0.494728 0.593594 7.692905
-0.530244 0.638260 8.510886
-0.428426 0.517035 9.224095
-0.469955 0.665406 0.799935
-0.439796 0.624671 1.544220
-0.413636 0.589005 2.144273
-0.404278 0.577742 2.990879
-0.575667 0.824659 3.533219
-0.804298 1.155785 4.221319
-0.592993 0.854379 4.886243
-0.219955 0.317944 5.762936
-0.011340 0.016443 6.590663
-0.241969 0.352289 7.509613
-0.456155 0.665270 7.849073
-0.463961 0.679586 8.905071
-0.323017 0.474233 9.542851
-0.427607 0.744714 0.467626
-0.400129 0.699707 1.346967
-0.370621 0.650702 2.211186
-0.348525 0.613216 2.675837
-0.497247 0.878641 3.572023
-0.651458 1.154500 4.162963
-0.538606 0.957872 4.947175
-0.241123 0.429999 5.635051
-0.025986 0.046476 6.348374
-0.195310 0.350836 7.258041
-0.370408 0.667112 7.766544
-0.379458 0.686445 8.748964
-0.288560 0.523723 9.536447
-0.277740 0.623669 0.381811
-0.344380 0.776575 1.159963
-0.257646 0.583697 2.031139
-0.212032 0.481888 2.629863
-0.308018 0.703055 3.408987
-0.454929 1.042260 4.057857
-0.418796 0.963172 4.776276
-0.229804 0.530471 5.531276
-0.101209 0.234569 6.343848
-0.211081 0.491462 7.159740
-0.309045 0.722003 7.751485
-0.314445 0.737965 8.610305
-0.244915 0.576881 9.350650
-0.009841 0.029158 0.079740
-0.061776 0.184134 0.992533
-0.189382 0.567348 1.748038
-0.188537 0.567957 2.585158
-0.115339 0.348707 3.148360
-0.204023 0.620444 4.004129
-0.282183 0.860797 4.439582
-0.115249 0.353082 5.159387
-0.025154 0.077500 6.066951
-0.117056 0.362723 6.893156
-0.197569 0.614676 7.454054
-0.226495 0.708995 8.366180
-0.024476 0.103488 0.218833
-0.118556 0.504566 0.954168
-0.134242 0.574499 1.571388
-0.124280 0.534982 2.223505
-0.110484 0.478136 2.820536
-0.141073 0.614623 3.550673
-0.188529 0.827829 4.387296
-0.119017 0.525783 5.095389
-0.046026 0.204761 5.923364
-0.074167 0.332262 6.675851
-0.149813 0.676179 7.434112
-0.184030 0.836579 8.186014
-0.166857 0.763631 8.946445
-0.107956 0.497046 9.686567
0.016024 -0.117566 0.220183
-0.025748 0.190917 0.932994
-0.078143 0.585210 1.581203
-0.069010 0.522183 2.264375
-0.062898 0.481805 3.068636
-0.076716 0.593799 3.732258
-0.077614 0.608137 4.515867
-0.038366 0.304646 5.411018
-0.020251 0.162497 6.104314
-0.058093 0.472073 6.854758
-0.087173 0.718576 7.703407
-0.087412 0.727688 8.317308
0.000847 -0.019185 0.089830
-0.007001 0.163567 0.764814
-0.022171 0.536626 1.504767
-0.021128 0.533909 2.382349
-0.019293 0.502204 2.968142
-0.021919 0.592270 3.673378
-0.020461 0.575711 4.420810
-0.009341 0.273668 5.183395
-0.007622 0.232808 5.909433
-0.016374 0.526870 6.722820
-0.022205 0.751365 7.472831
-0.019696 0.703757 8.303391
-0.014536 0.549335 9.150749
-0.003144 0.122522 9.694369
0.031333 0.586984 0.716628
0.032007 0.583753 1.443785
0.031096 0.550797 2.262808
0.030751 0.530678 3.015249
0.033033 0.558896 3.597340
0.033502 0.551452 4.433683
0.022447 0.360180 5.261708
0.011843 0.187146 5.784460
0.026510 0.407899 6.632673
0.049600 0.746269 7.330974
0.067555 0.989517 8.216337
0.053245 0.770610 8.700146
0.025455 0.361322 9.524966
0.074082 0.506874 0.688613
0.083295 0.562379 1.651049
0.080009 0.536790 2.115408
0.077354 0.513745 2.867761
0.083531 0.549657 3.558045
0.081456 0.530763 4.305928
0.043359 0.279862 5.071000
0.027133 0.173074 6.020771
0.072659 0.459477 6.663055
0.120992 0.759636 7.184280
0.168928 1.046889 8.180094
0.146657 0.900806 8.955051
0.062347 0.380184 9.709115
0.057414 0.232799 0.812792
0.117738 0.474401 1.546223
0.118142 0.472514 2.425019
0.124106 0.493779 3.046845
0.131479 0.520618 3.619483
0.140521 0.552055 4.571202
0.073974 0.289267 5.179862
0.025274 0.098304 5.879757
0.110810 0.427630 6.810151
0.200853 0.770836 7.443106
0.225111 0.858636 8.209634
0.182977 0.694989 8.796113
0.065693 0.248020 9.711786
0.224466 0.649536 0.685273
0.206293 0.594576 1.304532
0.148159 0.425678 1.804582
0.132946 0.379936 2.648823
0.158809 0.451300 3.535882
0.176230 0.498595 4.237114
0.123036 0.346996 4.767469
0.071302 0.199874 5.780536
-0.004023 -0.011238 6.411117
0.093810 0.261000 7.015566
0.267559 0.740632 7.761246
0.232756 0.641821 8.432186
0.162288 0.445223 9.358869
0.103492 0.224317 1.090258
0.219194 0.473516 1.722177
0.205795 0.442912 2.444705
0.201373 0.432245 2.960346
0.219882 0.470196 3.690828
0.227131 0.483234 4.685652
0.142809 0.302741 5.427100
0.060934 0.128743 6.128322
0.192035 0.403941 6.972508
0.343868 0.720918 7.575099
0.313201 0.654746 8.174827
0.120546 0.209418 0.892074
0.242693 0.420494 1.467479
0.242587 0.418570 2.375802
0.247693 0.425882 3.147375
0.275875 0.472594 3.956251
0.282371 0.482140 4.682429
0.156928 0.267303 5.259005
0.063874 0.108445 6.028929
0.230545 0.389882 6.869274
0.424327 0.715039 7.608922
0.404470 0.679428 8.345053
0.282406 0.473268 8.951877
0.111043 0.185456 9.850213
0.210851 0.295318 0.721107
0.282222 0.394074 1.447792
0.274301 0.381877 2.159195
0.285174 0.395478 3.088322
0.279791 0.386913 3.774693
0.281342 0.387970 4.452688
0.193518 0.265864 5.387558
0.081024 0.111009 6.098509
0.243505 0.332813 6.652401
0.451033 0.614738 7.277130
0.469961 0.638049 8.241809
0.346099 0.469002 8.767000
0.186355 0.251748 9.633084
0.323731 0.368516 2.078971
0.281030 0.319228 2.617419
0.305458 0.345952 3.358623
0.332647 0.375783 4.001066
0.259461 0.292046 4.935300
0.149351 0.167731 5.534857
0.101099 0.113197 6.331251
0.258004 0.288174 6.922769
0.542632 0.603946 7.755949
0.528266 0.586410 8.448367
0.408239 0.451820 9.281999
0.358887 0.342199 1.703689
0.315858 0.300335 2.408658
0.324558 0.307643 3.200992
0.374522 0.353713 4.119112
0.392643 0.369666 4.915032
0.254419 0.239147 5.354243
0.187742 0.175803 6.353754
0.351644 0.328561 6.884294
0.567042 0.528036 7.702670
0.615734 0.571717 8.446627
0.499225 0.462013 9.357648
0.404459 0.316845 2.048027
0.325227 0.254376 2.439910
0.495737 0.386415 3.263993
0.551489 0.428643 3.959452
0.522202 0.404376 4.878551
0.378733 0.292722 5.375354
0.217818 0.167747 6.309847
0.404100 0.310427 6.899286
0.617981 0.473309 7.599805
0.632070 0.482631 8.364572
0.489756 0.372798 9.207114
0.496934 0.320404 1.600833
0.340776 0.219041 2.321539
0.683830 0.437527 3.345727
0.934130 0.595823 4.022008
0.733749 0.466984 4.552902
0.505324 0.320345 5.498044
0.200909 0.127072 6.091916
0.391323 0.246737 6.785823
0.716510 0.449916 7.677151
0.785891 0.491749 8.487727
0.665386 0.415406 9.059928
-0.059628 -0.031078 0.389787
0.107825 0.056013 1.074122
0.580361 0.300320 1.853394
0.569409 0.293765 2.473774
0.956878 0.491157 3.477397
0.519603 0.262104 7.140182
0.730234 0.367351 7.662898
0.853952 0.427604 8.604358
0.653076 0.326108 9.250767
0.690488 0.272843 1.623488
0.538873 0.212105 2.300514
0.461149 0.177712 5.957902
0.444539 0.170563 6.722140
0.797736 0.304417 7.593975
0.858777 0.326481 8.233209
0.744756 0.281935 9.005009
0.838437 0.239076 1.715218
1.131665 0.320465 2.601887
1.504866 0.424560 3.053975
1.326870 0.371768 3.962227
0.675990 0.186626 5.984038
0.458685 0.125842 6.854758
0.815782 0.222510 7.554998
0.929829 0.252114 8.315028
0.878202 0.236477 9.245960
0.795974 0.153482 0.595096
1.061961 0.203092 1.346301
1.000217 0.189703 2.106971
1.403087 0.263613 2.930646
1.751429 0.326828 3.504077
0.491735 0.088205 7.238371
0.892418 0.158870 7.837371
0.963093 0.170190 8.485857
0.851884 0.149113 9.371960
0.955577 0.093527 0.563459
1.104119 0.106127 1.422744
1.040670 0.098509 2.144256
1.402357 0.131114 2.690917
1.789815 0.163670 3.655883
1.810578 0.163250 4.277954
0.564444 0.047713 7.316951
1.008216 0.083559 8.079041
1.071740 0.087347 8.780531
0.988364 0.079132 9.556894
1.208738 0.003142 1.409090
1.240951 0.001576 2.064752
1.630144 -0.000957 2.952157
1.940897 -0.002771 3.335432
1.911380 -0.006166 4.218471
0.527066 -0.004492 7.120415
0.915935 -0.009078 7.763938
1.009218 -0.011482 8.509165
1.005186 -0.013343 9.511609
1.308877 -0.128434 0.817607
1.301877 -0.129289 1.395491
1.368692 -0.138249 2.220696
1.743175 -0.178656 2.913143
0.654484 -0.072589 7.267654
1.003131 -0.112966 8.069341
1.210682 -0.138017 8.734878
1.157527 -0.133264 9.334455
0.988029 -0.189434 0.155225
0.970434 -0.187241 0.737785
1.321427 -0.257644 1.692428
1.299804 -0.254826 2.204615
1.809127 -0.358279 3.105872
2.189838 -0.436789 3.733251
1.883372 -0.378571 4.495735
0.718298 -0.148361 7.384871
1.020797 -0.212443 8.102581
1.242125 -0.260455 8.834849
1.023324 -0.215746 9.469626
1.255748 -0.370875 0.509830
1.392027 -0.413343 1.226717
1.373666 -0.410025 1.928495
1.381464 -0.414000 2.466754
1.863372 -0.562431 3.392107
2.170745 -0.657476 3.824137
1.950362 -0.594099 4.624207
0.889947 -0.276686 7.719738
1.194639 -0.373157 8.339244
1.408182 -0.442398 9.139987
1.360380 -0.539439 0.737518
1.434059 -0.571706 1.635060
1.637877 -0.656043 2.415512
1.962894 -0.789345 3.053186
2.185775 -0.882599 3.719744
2.129370 -0.862680 4.285390
1.923615 -0.781993 4.897235
1.108851 -0.458622 8.117488
1.416284 -0.588080 8.758545
1.289397 -0.537226 9.427484
1.345929 -0.690322 0.698215
1.556878 -0.800479 1.178254
1.377489 -0.710289 1.759262
1.322259 -0.684036 2.415406
2.282522 -1.191343 4.081303
2.159990 -1.130183 4.589755
0.994756 -0.528020 7.789091
1.312059 -0.698551 8.354563
1.398112 -0.747245 9.162516
1.210867 -0.765739 0.373834
1.323659 -0.839061 0.897751
1.390267 -0.884563 1.716142
1.790271 -1.143497 2.541656
2.045340 -1.313520 3.702328
2.083463 -1.341803 4.319490
1.993677 -1.289996 5.369907
1.159771 -0.758909 8.145554
1.336610 -0.877278 8.813217
1.118089 -0.736326 9.690700
1.168847 -0.909331 0.124436
1.278489 -0.998647 1.077618
1.337289 -1.047484 1.732714
1.707852 -1.350337 3.910279
1.966450 -1.558052 4.362811
1.871994 -1.489119 5.319417
1.676643 -1.345213 7.436404
1.380170 -1.110142 8.146458
1.338618 -1.079826 8.883888
1.103680 -0.892554 9.606667
1.204014 -1.142017 0.514294
1.377955 -1.310793 1.211013
1.320865 -1.259291 1.754947
1.607795 -1.546946 3.942105
1.787183 -1.725475 4.744547
1.616157 -1.563104 5.207596
1.373744 -1.332395 5.956869
1.334525 -1.299937 7.043675
1.328591 -1.296487 7.499738
1.340536 -1.312653 8.371861
1.303700 -1.280132 9.099196
1.294033 -1.482082 2.069664
1.281335 -1.470553 2.563973
1.228388 -1.414748 3.418348
1.385872 -1.598900 3.812556
1.609792 -1.863561 4.586424
1.488333 -1.727523 5.250621
1.359108 -1.582654 6.072621
1.286963 -1.502501 6.726017
1.300508 -1.523610 7.586544
1.277477 -1.500426 8.229331
1.186958 -1.397759 8.925540
0.881518 -1.221836 0.258259
1.164098 -1.618371 0.943452
1.181057 -1.648125 1.801401
1.182094 -1.655920 2.680925
1.237631 -1.738099 3.250511
1.277145 -1.799092 3.944955
1.346593 -1.903616 4.737202
1.295165 -1.834411 5.188869
1.258748 -1.789580 6.074042
1.296557 -1.849626 6.856243
1.197809 -1.711530 7.272460
1.200472 -1.721488 8.119424
1.142124 -1.642807 8.872571
0.885577 -1.276616 9.528930
0.828016 -1.410072 0.562313
1.022428 -1.745597 1.093566
1.035431 -1.773994 1.828347
1.039362 -1.785858 2.432399
1.075099 -1.852922 3.069764
1.109336 -1.918748 3.810933
1.130106 -1.962190 4.613070
1.083539 -1.888243 5.400925
1.071658 -1.871859 5.895757
1.154712 -2.024907 6.705941
1.093445 -1.922093 7.246671
1.081626 -1.908690 8.087127
1.059290 -1.874995 8.763374
0.867991 -1.540532 9.460373
0.971288 -2.129254 0.812525
0.956334 -2.103764 1.440073
0.906803 -2.002699 2.159383
0.885227 -1.959224 2.549206
0.901147 -2.003742 3.386492
0.934520 -2.087429 4.201234
0.893296 -2.002061 4.823408
0.919908 -2.069198 5.473534
0.991188 -2.237658 6.105045
0.969090 -2.195996 6.798898
0.920967 -2.094481 7.484848
0.919796 -2.102182 8.399662
0.886866 -2.035581 9.216858
0.658569 -1.898163 0.490285
0.727959 -2.110543 1.358923
0.717468 -2.087537 1.886036
0.711784 -2.079990 2.526762
0.716366 -2.101556 3.100588
0.723863 -2.135573 3.929893
0.723157 -2.143130 4.594352
0.765467 -2.278660 5.231707
0.797850 -2.386489 5.920297
0.773816 -2.323961 6.528256
0.761342 -2.301800 7.523409
0.730091 -2.216030 8.133245
0.723808 -2.210036 9.028616
0.620747 -1.903148 9.742069
0.542280 -2.215537 0.130954
0.523543 -2.147709 0.581181
0.542451 -2.239159 1.262488
0.517112 -2.147029 1.904783
0.511427 -2.142921 2.903761
0.511140 -2.148411 3.243465
0.528025 -2.236852 4.086027
0.509283 -2.174175 4.932364
0.523781 -2.250129 5.600478
0.563167 -2.434626 6.249412
0.548403 -2.385018 6.905759
0.519537 -2.270043 7.436827
0.503902 -2.217069 8.206721
0.509095 -2.260351 9.190950
0.332571 -2.236487 0.608413
0.346688 -2.345602 1.026522
0.322324 -2.206396 1.837829
0.321441 -2.220373 2.457554
0.321782 -2.255367 3.444629
0.325970 -2.309250 4.157797
0.311657 -2.224181 4.663222
0.331736 -2.390941 5.296939
0.355128 -2.582528 5.856855
0.342329 -2.529744 6.923052
0.329287 -2.455394 7.531255
0.322070 -2.429691 8.302187
0.312142 -2.380146 9.018823
0.268071 -2.057511 9.538907
0.107337 -2.158427 0.610186
0.111995 -2.293667 1.038121
0.105148 -2.224857 1.790989
0.101872 -2.205828 2.309383
0.098731 -2.227566 3.203648
0.096444 -2.245408 3.864360
0.093585 -2.247501 4.500745
0.096423 -2.419178 5.343522
0.098366 -2.570185 6.092311
0.093419 -2.493215 6.500273
0.090798 -2.546995 7.389087
0.085771 -2.506417 8.111395
0.077830 -2.357982 8.760708
0.069422 -2.194284 9.505601
-0.096918 -2.227207 1.828461
-0.100030 -2.237309 2.401367
-0.103444 -2.241967 3.088977
-0.106905 -2.241780 3.836270
-0.109499 -2.238242 4.435200
-0.124800 -2.449935 5.386198
-0.132534 -2.561338 5.759088
-0.135960 -2.540935 6.625584
-0.138745 -2.535385 7.226044
-0.138363 -2.471719 7.863986
-0.137968 -2.394209 8.711026
-0.133662 -2.252031 9.630058
-0.276629 -1.971565 0.839694
-0.326238 -2.308080 1.317610
-0.311614 -2.185805 1.895409
-0.315867 -2.189292 2.704877
-0.327214 -2.240054 3.550086
-0.338096 -2.291679 4.235573
-0.309362 -2.078343 4.893722
-0.329172 -2.188512 5.625979
-0.374235 -2.470052 6.105536
-0.389008 -2.536421 6.987997
-0.394417 -2.545777 7.743197
-0.384336 -2.461309 8.361369
-0.411112 -1.709817 0.446349
-0.522467 -2.160308 1.077871
-0.529520 -2.179210 1.593065
-0.530500 -2.169195 2.307707
-0.534058 -2.170503 2.985962
-0.536292 -2.165525 3.714517
-0.539989 -2.164493 4.550836
-0.583517 -2.328501 5.041576
-0.638719 -2.526983 6.000127
-0.630109 -2.478435 6.690545
-0.614813 -2.410183 7.101122
-0.614165 -2.390854 7.944044
-0.620630 -2.398697 8.819636
-0.585787 -2.250602 9.600457
-0.721808 -2.101501 1.059131
-0.734498 -2.128151 1.770963
-0.737119 -2.129130 2.231145
-0.751875 -2.160407 3.009689
-0.734464 -2.101247 3.667676
-0.720331 -2.049742 4.491728
-0.804221 -2.275934 5.296939
-0.837970 -2.362471 5.864552
-0.842888 -2.365326 6.583912
-0.866235 -2.418576 7.365234
-0.835701 -2.325014 7.953346
-0.823915 -2.280176 8.813527
-0.770460 -2.125606 9.366695
-0.823634 -1.828886 0.084860
-0.963604 -2.131562 0.765836
-0.918322 -2.021491 1.650448
-0.937056 -2.055149 2.315391
-0.930146 -2.032518 2.985962
-0.912447 -1.987882 3.539045
-0.893104 -1.938940 4.191294
-0.955692 -2.065037 5.050461
-1.047814 -2.253567 5.887389
-1.081931 -2.319941 6.439840
-1.064716 -2.273855 7.212654
-1.041584 -2.215876 7.968331
-1.022096 -2.168579 8.503056
-0.984485 -2.080338 9.325489
-1.208835 -2.124901 0.977728
-1.108925 -1.944412 1.499416
-1.127368 -1.967714 2.446412
-1.134219 -1.975372 2.897448
-1.125447 -1.952662 3.693107
-1.105098 -1.911221 4.372794
-1.145533 -1.975800 4.934610
-1.239323 -2.127588 5.900948
-1.255123 -2.150265 6.337611
-1.253151 -2.139676 7.063927
-1.202922 -2.047576 7.759620
-1.185509 -2.011628 8.459102
-1.186537 -2.003868 9.519007
-1.138383 -1.627709 0.622722
-1.296945 -1.848267 1.367295
-1.291878 -1.835166 2.090706
-1.297135 -1.838889 2.551185
-1.314342 -1.856263 3.407209
-1.317434 -1.856627 3.898986
-1.285115 -1.805391 4.629103
-1.390016 -1.946713 5.319417
-1.526122 -2.131245 5.940222
-1.442429 -2.008472 6.649217
-1.380478 -1.915722 7.468855
-1.364378 -1.887461 8.223113
-1.402032 -1.933416 8.972208
-1.240548 -1.705180 9.844002
-1.413450 -1.663550 0.393999
-1.490838 -1.749357 1.103567
-1.459270 -1.708185 1.677338
-1.463822 -1.707354 2.532460
-1.463368 -1.702780 3.098341
-1.475590 -1.710768 3.967335
-1.449047 -1.676745 4.438403
-1.436944 -1.656577 5.340788
-1.568736 -1.802881 6.067233
-1.630359 -1.868827 6.686419
-1.510397 -1.727430 7.277955
-1.477641 -1.683980 8.175082
-1.524832 -1.732903 8.863452
-1.397245 -1.583781 9.579254
-1.577764 -1.543449 0.318723
-1.619889 -1.581748 0.758154
-1.589034 -1.546289 1.584852
-1.556815 -1.511682 2.104648
-1.554022 -1.503313 3.011231
-1.572302 -1.517788 3.520286
-1.579478 -1.518941 4.441605
-1.484123 -1.424450 4.938410
-1.638688 -1.567088 5.799809
-1.801246 -1.716688 6.597953
-1.663871 -1.583157 7.043337
-1.614842 -1.531402 7.892054
-1.616264 -1.528257 8.635683
-1.527923 -1.440377 9.440984
-1.535032 -1.219236 0.566525
-1.727259 -1.367902 1.247419
-1.704484 -1.347264 1.699765
-1.612967 -1.271959 2.253533
-1.608129 -1.263562 3.106898
-1.619873 -1.269362 3.742746
-1.695661 -1.324316 4.523133
-1.701826 -1.325866 5.106221
-1.809077 -1.403580 6.075354
-1.851878 -1.434180 6.500363
-1.808250 -1.395535 7.348630
-1.774018 -1.364585 8.165717
-1.647076 -1.264585 8.662840
-1.429009 -1.093478 9.574246
-1.860600 -1.210122 0.974799
-1.833354 -1.189903 1.435942
-1.693657 -1.096132 2.066679
-1.658428 -1.069519 2.856640
-1.655849 -1.064239 3.609275
-1.840007 -1.179350 4.194635
-2.001300 -1.277713 5.035896
-1.852388 -1.180197 5.522858
-1.844198 -1.170726 6.336171
-1.816048 -1.149771 6.946470
-1.695554 -1.070561 7.595973
-1.709366 -1.075827 8.327261
-1.683265 -1.054949 9.309934
-1.644763 -0.872840 0.662844
-1.729319 -0.914638 1.332026
-1.693408 -0.892598 2.015928
-1.676702 -0.881741 2.482540
-1.640464 -0.858554 3.449212
-1.915785 -0.999785 3.988204
-2.186928 -1.137536 4.605032
-2.025565 -1.050284 5.259975
-1.698875 -0.877523 6.093508
-1.617779 -0.832712 6.825779
-1.783287 -0.913806 7.705095
-1.722945 -0.880888 8.187881
-1.669138 -0.849801 9.077067
-1.997501 -0.820415 0.506932
-1.878863 -0.768128 1.291455
-1.729386 -0.703824 2.066166
-2.099167 -0.843385 4.204274
-2.293051 -0.917743 4.822422
-2.046123 -0.809511 6.819165
-1.732224 -0.681879 7.756659
-1.718593 -0.673799 8.459386
-1.628138 -0.635765 9.191035
-1.589017 -0.485448 0.638094
-1.873959 -0.569296 1.388678
-1.739477 -0.525806 2.069137
-2.088545 -0.622465 3.929043
-2.367089 -0.701553 4.632941
-2.228248 -0.656094 5.521720
-1.762325 -0.516998 6.097017
-1.538563 -0.449298 6.759420
-1.657497 -0.481358 7.488111
-1.665600 -0.481170 8.205374
-1.630418 -0.468004 9.092808
-1.868186 -0.381299 1.343404
-1.626144 -0.329879 1.935215
-2.048820 -0.405458 4.225554
-2.340325 -0.460295 4.758329
-1.367992 -0.261150 7.720487
-1.703592 -0.322179 8.526981
-1.492734 -0.281033 9.006399
-1.798280 -0.178773 1.356759
-1.664156 -0.162713 2.154213
-2.113070 -0.197977 4.087945
-2.193427 -0.202608 4.716831
-1.110447 -0.096031 7.852497
-1.508505 -0.128375 8.469364
-1.425154 -0.119430 9.162171
-1.384475 -0.008766 0.518344
-1.581559 -0.007324 1.346442
-1.501340 -0.005602 1.790470
-1.856430 0.001419 3.965922
-2.103187 0.004197 4.539048
-1.006219 0.008184 7.825615
-1.287234 0.012005 8.381633
-1.300960 0.013837 9.062378
-1.425931 0.121644 0.172541
-1.488126 0.129352 0.957085
-1.415245 0.125108 1.679242
-1.777974 0.164952 3.781875
-0.690376 0.067808 6.661384
-0.654636 0.065371 7.512842
-1.108293 0.112576 8.300272
-1.293844 0.133186 8.959980
-0.911575 0.094719 9.566619
-1.413699 0.261339 0.699708
-1.366868 0.255169 1.565283
-1.275470 0.239733 2.177310
-1.292309 0.245357 3.085313
-1.605360 0.306418 3.538166
-1.720704 0.330701 4.151120
-1.229999 0.238313 4.965000
-1.003594 0.196055 5.781054
-0.770003 0.151642 6.604090
-0.689276 0.136934 7.483040
-0.966337 0.193016 7.962599
-1.135318 0.228523 8.698576
-1.030023 0.208879 9.489006
-1.387025 0.390841 0.853041
-1.308750 0.370470 1.441540
-1.236625 0.352587 2.381016
-1.072361 0.306681 2.791182
-1.421308 0.409513 3.737721
-1.643188 0.475287 4.223610
-1.254523 0.365286 5.163614
-0.837848 0.244973 5.795388
-0.511852 0.150483 6.619959
-0.578236 0.170921 7.370851
-0.899633 0.267415 8.095654
-1.025730 0.306382 8.761165
-0.966220 0.289903 9.427569
-1.179874 0.461851 0.895810
-1.113455 0.437936 1.699625
-1.068008 0.421267 2.186549
-0.808407 0.320642 3.153750
-1.563027 0.624836 4.410500
-1.187774 0.477196 5.324935
-0.708575 0.285479 5.903338
-0.359506 0.145398 6.656923
-0.584906 0.237730 7.508157
-0.887710 0.362501 8.295600
-0.909571 0.372715 8.927081
-0.743232 0.305623 9.628278
-0.901639 0.447985 0.281343
-0.934917 0.466207 0.998429
-1.008891 0.505239 1.838590
-1.340253 0.678438 3.948246
-0.418061 0.214578 6.957924
-0.652801 0.336402 7.752292
-0.822098 0.424519 8.149816
-0.756561 0.392233 9.022040
-0.434371 0.225908 9.807844
-1.022522 0.643165 1.389797
-0.873897 0.550993 1.931022
-1.015719 0.642383 2.609703
-1.253596 0.796262 3.553276
-1.271857 0.809467 3.996073
-1.065401 0.680588 4.865229
-0.707570 0.453308 5.590800
-0.445738 0.286388 6.316202
-0.513815 0.331506 7.287378
-0.631949 0.408512 7.717698
-0.737348 0.478692 8.715486
-0.679076 0.441824 9.261296
-0.860730 0.667258 1.539900
-0.767623 0.596642 2.177907
-0.777970 0.606100 2.742752
-1.050149 0.820957 3.539550
-1.226229 0.961391 4.212996
-0.971740 0.764292 5.026319
-0.490586 0.386461 5.504073
-0.307924 0.243536 6.543874
-0.465172 0.368908 7.199075
-0.682441 0.543108 8.028844
-0.711675 0.567966 8.738742
-0.609920 0.487657 9.248038
-0.573412 0.529979 0.097629
-0.489976 0.454410 0.950200
-0.614408 0.571174 1.540990
-0.922995 0.866189 3.857865
-1.018778 0.958026 4.349053
-0.745424 0.703035 5.135580
-0.384029 0.363327 6.012828
-0.102482 0.097136 6.558550
-0.377656 0.359473 7.592724
-0.637853 0.608164 7.955226
-0.603374 0.577229 8.850297
-0.426692 0.409563 9.801250
-0.535344 0.606038 0.458525
-0.662633 0.752563 1.252125
-0.556232 0.633918 2.117321
-0.476891 0.544503 2.585979
-0.668434 0.765737 3.385297
-0.928890 1.067219 4.064939
-0.390498 0.453856 7.096072
-0.503274 0.586366 7.692905
-0.530485 0.619905 8.452377
-0.467004 0.547671 9.410032
-0.211472 0.286958 0.237090
-0.263729 0.359057 1.034989
-0.486703 0.664667 1.756623
-0.462288 0.632933 2.365862
-0.384460 0.527674 2.965641
-0.569319 0.783774 3.664435
-0.165090 0.230113 6.778546
-0.362533 0.507118 7.591733
-0.467852 0.655822 8.074567
-0.452943 0.637397 9.050165
-0.145364 0.204968 9.691973
-0.132883 0.223041 0.534910
-0.181888 0.306439 1.363898
-0.357209 0.603049 1.801896
-0.295434 0.500767 2.694951
-0.410682 0.698171 3.326217
-0.618458 1.054459 3.921155
-0.190058 0.328207 6.883283
-0.345232 0.598085 7.546879
-0.405927 0.706452 8.555695
-0.297240 0.518260 9.034192
-0.206631 0.434795 0.226428
-0.243390 0.514112 0.972487
-0.293448 0.621576 1.508298
-0.274328 0.582965 2.138950
-0.234396 0.500211 2.964042
-0.365998 0.784885 3.881825
-0.075309 0.163700 6.633551
-0.212731 0.464689 7.543549
-0.356845 0.781468 7.970405
-0.347435 0.764696 8.973315
-0.207491 0.458275 9.761939
-0.242311 0.665407 0.420676
-0.299483 0.826980 1.305202
-0.203329 0.563009 1.757850
-0.186406 0.518943 2.628044
-0.247009 0.690670 3.313610
-0.363882 1.023834 4.269726
-0.315561 0.890411 4.741012
-0.157224 0.446015 5.668451
-0.101522 0.289151 6.345139
-0.191270 0.547577 7.130364
-0.255488 0.734788 7.834904
-0.278701 0.804897 8.495353
-0.215661 0.625285 9.184918
-0.153731 0.588652 0.441469
-0.194896 0.750960 1.201454
-0.149957 0.580508 1.777475
-0.134257 0.522642 2.460984
-0.114255 0.448085 3.368473
-0.167693 0.661434 4.040521
-0.190887 0.758017 4.842203
-0.091548 0.365953 5.703706
-0.046510 0.186740 6.273078
-0.112479 0.454300 6.948076
-0.182127 0.740195 7.644072
-0.189130 0.774722 8.590789
-0.128091 0.526701 9.121268
-0.055088 0.341127 1.037852
-0.096591 0.601117 1.423163
-0.099325 0.625627 2.365951
-0.094656 0.601378 3.038428
-0.089730 0.573875 3.555588
-0.106136 0.686007 4.356648
-0.068511 0.447505 5.198074
-0.026008 0.171588 6.010843
-0.059704 0.397083 6.593212
-0.107299 0.721502 7.365318
-0.110596 0.750930 8.095345
-0.078566 0.538191 8.818147
-0.040873 0.283088 9.725126
-0.003507 0.058978 0.498017
-0.011465 0.196729 1.091758
-0.032666 0.574642 1.798347
-0.031966 0.580540 2.694951
-0.025647 0.474915 3.238172
-0.028229 0.540376 4.126104
-0.028321 0.552931 4.643133
-0.016015 0.323051 5.519807
-0.009337 0.193932 6.283001
-0.020959 0.448679 6.982362
-0.033878 0.744911 7.565910
-0.033024 0.752717 8.405266
-0.026044 0.619904 9.425607
0.000213 0.005913 0.129665
0.008148 0.217232 0.922437
0.023174 0.593941 1.669532
0.022407 0.555608 2.331581
0.021698 0.523030 2.916929
0.024716 0.573335 3.734837
0.025170 0.559454 4.692253
0.016237 0.353366 5.212316
0.008386 0.176632 6.030699
0.020662 0.422812 6.711572
0.035487 0.706069 7.380132
0.039240 0.753987 8.301888
0.037015 0.691438 9.104039
0.011920 0.218575 9.764371
0.031146 0.240367 0.921803
0.075615 0.578930 1.424152
0.069921 0.527778 2.352857
0.068285 0.509615 3.105863
0.079963 0.591322 3.712632
0.075683 0.553397 4.482804
0.043826 0.317497 5.156552
0.020136 0.144207 5.995044
0.054930 0.389398 6.686531
0.105194 0.736141 7.556138
0.113131 0.786526 8.025779
0.092502 0.636746 8.804179
0.044362 0.301436 9.889974
0.019031 0.082783 0.557393
0.049838 0.215781 1.071177
0.132380 0.568551 1.955431
0.126813 0.541093 2.686994
0.119385 0.507170 3.184540
0.119694 0.505158 3.929478
0.096347 0.403809 4.741218
0.065125 0.270726 5.719269
0.035798 0.148250 6.187936
0.109365 0.449448 7.051322
0.191582 0.782466 7.726683
0.160790 0.652726 8.496670
0.112180 0.452537 9.329326
0.246700 0.753334 0.927375
0.192711 0.585801 1.609530
0.136075 0.412660 1.973425
0.135311 0.407581 2.994009
0.165218 0.495269 3.720329
0.154366 0.460997 4.302016
0.082862 0.246259 5.084364
0.036144 0.106844 5.949383
0.099058 0.291748 6.497878
0.235773 0.690282 7.365318
0.295959 0.863565 7.866554
0.280079 0.812358 8.844289
0.150734 0.435458 9.604428
0.202789 0.458836 1.821767
0.168202 0.379276 2.469499
0.160546 0.360660 3.175801
0.198159 0.443546 3.853448
0.183927 0.409646 4.806951
0.106818 0.236964 5.600440
0.058661 0.129795 6.128322
0.163754 0.360933 6.839147
0.310375 0.680882 7.698156
0.284529 0.622247 8.328608
0.191603 0.417533 9.100273
0.472420 0.841238 0.806294
0.322673 0.573036 1.391798
0.229842 0.406836 2.109955
0.201684 0.355971 2.737609
0.219422 0.386028 3.439784
0.241178 0.423031 4.092421
0.129827 0.226904 4.912575
0.034066 0.059345 5.670750
-0.016391 -0.028441 6.579565
0.197765 0.341881 7.351793
0.455669 0.784854 8.072009
0.406856 0.698481 8.846550
0.260798 0.446387 9.621087
0.403625 0.587040 0.694577
0.303116 0.439495 1.426128
0.263185 0.380625 2.031163
0.255854 0.368635 2.922977
0.300142 0.430933 3.749829
0.281011 0.402475 4.341386
0.165349 0.235924 5.282387
0.022632 0.032227 5.808006
0.225220 0.319327 6.809541
0.446174 0.631400 7.203811
0.446771 0.630100 8.041016
0.357438 0.502442 8.904372
0.214531 0.300751 9.649877
-0.017913 -0.021306 1.098506
0.299088 0.355055 1.557143
0.283535 0.335379 2.457940
0.273682 0.322751 3.213059
0.310564 0.365390 3.794383
0.311002 0.364662 4.652719
0.198619 0.232226 5.401126
0.073413 0.085610 6.102635
0.246324 0.286492 6.740444
0.537559 0.623291 7.447767
0.559249 0.646318 8.289056
0.630521 0.623113 0.642519
0.433703 0.427286 1.423163
0.340672 0.334504 2.277354
0.308386 0.302294 2.706149
0.355177 0.347115 3.464568
0.385129 0.374829 4.515381
0.199182 0.193491 5.031403
0.075227 0.072841 5.899652
0.071343 0.068894 6.607206
0.381499 0.367022 7.508939
0.649999 0.623867 8.042821
0.545908 0.522854 8.631774
0.366067 0.349321 9.676730
0.447803 0.363953 1.827803
0.375490 0.304085 2.722105
0.383453 0.309653 3.425205
0.436774 0.351473 4.293139
0.339084 0.272229 4.889118
0.193410 0.154904 5.521187
0.083291 0.066533 6.216204
0.355732 0.282917 7.267911
0.627684 0.498202 7.707169
0.627121 0.496438 8.384089
0.553072 0.436221 9.351342
0.091008 0.061146 0.537119
0.204712 0.137227 1.070441
0.481084 0.321387 1.857258
0.285283 0.190059 2.514140
0.498361 0.330624 3.474637
0.734774 0.486266 4.018151
0.612303 0.403789 4.858681
0.369707 0.243216 5.471430
0.094829 0.062194 6.255987
0.374779 0.244866 7.105388
0.692834 0.451166 7.824215
0.704650 0.457665 8.446627
0.536955 0.347734 9.200914
0.737446 0.393710 0.614176
0.710616 0.378102 1.317699
0.547224 0.290026 2.140435
0.362387 0.191520 2.747473
0.624055 0.328515 3.543302
0.935990 0.491510 4.017954
0.784923 0.410187 5.046395
0.459345 0.239258 5.792459
0.148746 0.077218 6.564052
0.393160 0.203437 7.208790
0.754611 0.389215 7.809127
0.802040 0.412131 8.596638
0.626951 0.321108 9.351342
0.708464 0.297053 0.947556
0.650376 0.272130 1.321379
0.613007 0.255453 2.049318
0.958307 0.397699 2.758297
1.280674 0.528959 3.563349
1.080247 0.444324 4.318718
0.698605 0.286311 5.015048
0.278271 0.113555 5.857825
0.024403 0.009912 6.764637
0.363028 0.147035 7.208702
0.823462 0.331911 7.984429
0.856124 0.343540 8.787372
0.547977 0.219130 9.507005
0.441528 0.138196 0.709267
0.757074 0.235418 1.630985
0.568870 0.176249 2.161547
1.486602 0.455174 3.739331
1.083406 0.330656 4.234755
0.635613 0.192904 5.087686
0.278000 0.083807 6.103444
0.239783 0.072041 6.600290
0.667699 0.199126 7.576239
0.925329 0.274619 8.212249
0.882204 0.260620 8.880905
0.446740 0.131321 9.719233
0.301606 0.064462 0.445150
0.491745 0.104265 1.259872
0.918005 0.193146 2.023933
1.285502 0.268421 2.756256
0.568754 0.113768 7.130364
0.874469 0.173693 7.769256
0.997367 0.196949 8.323059
0.851510 0.166764 9.184075
0.928585 0.109285 0.554133
1.171107 0.136064 1.284587
1.074384 0.123485 1.899268
1.390923 0.157884 2.575802
1.744060 0.194585 3.487588
0.565309 0.059215 7.071449
0.849921 0.087868 7.716127
1.005499 0.102125 8.621723
0.893447 0.089633 9.300896
0.884465 0.020484 0.535441
1.151673 0.025051 1.227526
1.250431 0.025781 1.783944
1.562944 0.029107 2.746326
0.570123 0.006170 6.816466
0.961663 0.008339 7.855785
1.091480 0.007993 8.530434
1.044642 0.006404 9.169566
1.188602 -0.100679 1.622425
0.900129 -0.077414 2.279788
1.855888 -0.165680 3.802176
1.669971 -0.151584 4.556450
1.298346 -0.119259 5.144375
0.765443 -0.071381 5.932639
0.411803 -0.038825 6.519700
0.667373 -0.064025 7.326422
1.002772 -0.098200 8.284260
1.115780 -0.110787 8.964382
0.848314 -0.085017 9.521126
1.042863 -0.181881 0.455321
1.405179 -0.247335 1.218003
1.429622 -0.253395 1.802599
1.668480 -0.298222 2.496818
1.946824 -0.350958 3.198554
1.872549 -0.341311 4.152281
1.628077 -0.298757 4.772545
0.777123 -0.144678 6.210191
0.686752 -0.129035 7.086509
0.899274 -0.170040 7.641947
1.198354 -0.228873 8.530153
1.254503 -0.241224 9.171126
1.067157 -0.290970 0.174137
1.075554 -0.294774 0.822242
1.318864 -0.363786 1.624013
1.447061 -0.401096 2.231960
1.940256 -0.541436 3.043158
2.186353 -0.613013 3.615589
2.053723 -0.578338 4.181900
1.724000 -0.489162 5.199196
0.640742 -0.183712 6.788074
0.702699 -0.202532 7.497489
0.989330 -0.286171 7.932295
1.196202 -0.347886 8.636189
1.132057 -0.331176 9.485718
1.269245 -0.476645 0.086455
1.351892 -0.510578 1.006358
1.340697 -0.507578 1.400134
1.654540 -0.629246 2.119575
2.141082 -0.819271 3.065797
2.196716 -0.843809 3.682410
2.279047 -0.879578 4.437512
1.983990 -0.767665 4.899605
1.075234 -0.423573 8.147992
1.264250 -0.499661 8.679698
1.239768 -0.492424 9.578382
1.315743 -0.647647 0.871587
1.356822 -0.670076 1.511914
1.813292 -0.898684 2.170352
2.163194 -1.075471 2.745091
2.137549 -1.067155 3.546548
2.070085 -1.037065 4.226229
1.892892 -0.952001 5.015927
1.122089 -0.572662 8.154476
1.369799 -0.701040 8.676055
1.217700 -0.624972 9.321897
1.245957 -0.760912 0.545973
1.413212 -0.866358 1.372131
1.341952 -0.824117 1.758009
1.447525 -0.892306 2.572921
1.866804 -1.153737 3.093458
2.136174 -1.324547 3.768576
2.096971 -1.305467 4.642243
0.947258 -0.597295 7.760083
1.274685 -0.805671 8.228253
1.307330 -0.829132 9.019287
1.483571 -1.118315 1.373748
1.319568 -0.996592 1.830450
1.342696 -1.017815 2.698489
1.709256 -1.299738 3.391393
2.008231 -1.530491 3.870753
1.977120 -1.512655 4.781737
0.912753 -0.706054 7.681780
1.270927 -0.986497 8.436350
1.327774 -1.033995 9.238723
1.091815 -1.001810 0.277586
1.227952 -1.129868 0.952314
1.302600 -1.202320 1.710008
1.618374 -1.506725 3.764072
1.859027 -1.737299 4.632129
1.729247 -1.619440 5.170191
1.426265 -1.339366 5.910636
1.069553 -1.010345 7.492756
1.332565 -1.262152 8.091471
1.325734 -1.260164 9.007598
1.021110 -0.971937 9.475449
1.368936 -1.506580 0.584139
1.314228 -1.451095 1.369795
1.235379 -1.368060 2.086598
1.393665 -1.547051 2.648834
1.551117 -1.727188 3.374240
1.578624 -1.762594 4.021173
1.654546 -1.853041 4.744547
1.536761 -1.727095 5.609824
1.262184 -1.421362 6.173510
1.176312 -1.328159 6.854398
1.280578 -1.451879 7.859173
1.266609 -1.439894 8.542115
1.106394 -1.260292 9.118152
0.902376 -1.208478 0.420860
1.152964 -1.550320 1.351885
1.178967 -1.588460 1.813441
1.143300 -1.545069 2.518563
1.123411 -1.521796 3.073041
1.286241 -1.750161 4.082054
1.410067 -1.922899 4.568441
1.360480 -1.860611 5.246838
1.249227 -1.713587 5.979392
1.225407 -1.687278 6.881117
1.213046 -1.675625 7.651140
1.168298 -1.616806 8.114051
1.122946 -1.845320 0.553866
1.117618 -1.843048 1.305562
1.067406 -1.765923 1.997807
1.052441 -1.747253 2.746867
1.116861 -1.861935 3.626069
1.122973 -1.875281 3.985327
1.119279 -1.875927 4.767134
1.131368 -1.903877 5.635351
1.138330 -1.921747 6.327113
1.141761 -1.933914 7.044036
1.071301 -1.820009 7.730352
1.049415 -1.787620 8.334371
0.980250 -1.675573 9.140009
0.977580 -2.007819 0.412161
1.034670 -2.131315 0.961216
0.923304 -1.908842 1.655245
0.923547 -1.914879 2.201670
0.924267 -1.924345 2.985230
0.942977 -1.971390 3.757414
0.955880 -2.006117 4.485256
0.869364 -1.828131 4.885414
0.938161 -1.982684 5.812309
1.011231 -2.143826 6.379118
0.967253 -2.059035 7.184427
0.927032 -1.979846 7.832008
0.921447 -1.976362 8.666636
0.841505 -1.810718 9.347665
0.662594 -1.764422 0.529905
0.760458 -2.029965 0.910526
0.747633 -2.003116 1.494386
0.752725 -2.028248 2.387827
0.757818 -2.049831 2.990293
0.785692 -2.137810 3.908341
0.785602 -2.143903 4.372683
0.782042 -2.146519 5.278682
0.834939 -2.302197 5.970375
0.846540 -2.339604 6.328314
0.810098 -2.250016 7.130837
0.776898 -2.167906 7.893959
0.746669 -2.092821 8.626314
0.682521 -1.922875 9.507896
0.525756 -1.938249 0.424288
0.572153 -2.119461 1.003640
0.564378 -2.105041 1.831119
0.563763 -2.111822 2.348579
0.572559 -2.161380 3.269216
0.582634 -2.208126 3.737202
0.585679 -2.231331 4.360174
0.608579 -2.337362 5.306257
0.629025 -2.424241 5.702395
0.639329 -2.482707 6.592979
0.626459 -2.449377 7.412966
0.588916 -2.309359 7.796928
0.574883 -2.273060 8.804259
0.512130 -2.037671 9.632971
0.364092 -2.101325 0.366390
0.372126 -2.170635 1.219293
0.369836 -2.174634 1.857913
0.372915 -2.207615 2.392001
0.365019 -2.175887 2.941259
0.373960 -2.251841 3.727848
0.376915 -2.291801 4.481654
0.390356 -2.396930 5.227924
0.408815 -2.539369 6.092311
0.402354 -2.512061 6.490906
0.395328 -2.493471 7.277678
0.381889 -2.431750 8.024169
0.370661 -2.386119 8.875689
0.327120 -2.124158 9.619518
0.132391 -1.976826 0.198148
0.143573 -2.185436 0.806704
0.139840 -2.198915 1.811040
0.137888 -2.200130 2.253138
0.136445 -2.235183 3.032791
0.134062 -2.237865 3.580753
0.132747 -2.277061 4.353976
0.137736 -2.425460 5.065870
0.140075 -2.526852 5.707554
0.137483 -2.542140 6.365603
0.133033 -2.547576 7.281734
0.124683 -2.435207 7.813749
0.118634 -2.386475 8.574376
0.111003 -2.313201 9.472295
-0.050953 -2.182799 0.431521
-0.057543 -2.323021 1.112104
-0.057748 -2.202600 1.811040
-0.061392 -2.238049 2.392001
-0.065234 -2.233200 3.250483
-0.070300 -2.300320 3.896163
-0.070860 -2.225994 4.522733
-0.081086 -2.405304 5.412632
-0.090376 -2.605264 5.856855
-0.091832 -2.527435 6.676798
-0.093072 -2.486555 7.227129
-0.096501 -2.468442 8.061383
-0.100207 -2.446821 9.006066
-0.093968 -2.232576 9.646178
-0.270239 -2.203813 1.002911
-0.275245 -2.212762 1.837829
-0.276502 -2.209118 2.204661
-0.288102 -2.263021 3.217713
-0.290758 -2.271126 3.556865
-0.294599 -2.274995 4.257341
-0.310396 -2.369339 4.966994
-0.336243 -2.530529 5.837512
-0.341432 -2.544060 6.476947
-0.348950 -2.565827 7.341404
-0.336731 -2.456915 7.882587
-0.340990 -2.454109 8.819636
-0.321185 -2.294459 9.381566
-0.437821 -2.042290 0.743207
-0.477812 -2.211954 1.488967
-0.469075 -2.161269 1.961022
-0.489883 -2.238979 2.764454
-0.503777 -2.284509 3.551706
-0.495477 -2.232754 4.201234
-0.491064 -2.198234 4.891367
-0.510809 -2.268898 5.693915
-0.543801 -2.403381 6.198106
-0.565714 -2.483532 6.895210
-0.577325 -2.511820 7.860065
-0.544408 -2.360152 8.289467
-0.544743 -2.341945 9.227452
-0.671167 -2.078193 0.469043
-0.717128 -2.210308 1.112104
-0.692129 -2.121807 1.875299
-0.699090 -2.133947 2.485645
-0.702462 -2.131278 3.353501
-0.722385 -2.180679 4.076678
-0.698334 -2.100506 4.610359
-0.748723 -2.241235 5.295268
-0.822308 -2.451139 5.879644
-0.800764 -2.376133 6.565329
-0.809219 -2.384730 7.600195
-0.793373 -2.330095 8.132280
-0.766048 -2.241943 8.698541
-0.729863 -2.123148 9.683638
-0.882892 -2.047034 1.828461
-0.873571 -2.017392 2.526762
-0.882915 -2.030042 3.299703
-0.913613 -2.090449 4.154469
-0.844643 -1.926682 4.730424
-0.902489 -2.049908 5.477472
-1.044648 -2.363158 6.157221
-1.012659 -2.284753 6.653728
-1.009893 -2.268807 7.442200
-1.019164 -2.278119 8.379961
-1.072710 -1.949803 1.753514
-1.087259 -1.968680 2.532460
-1.096007 -1.977389 3.266847
-1.116100 -2.007806 3.858768
-1.101917 -1.975283 4.594352
-1.138122 -2.035225 5.089883
-1.247062 -2.221974 5.809671
-1.238267 -2.200253 6.388775
-1.228006 -2.174258 7.147603
-1.236410 -2.179377 8.102103
-1.213659 -2.132277 8.825895
-1.112148 -1.948525 9.492278
-1.241824 -1.853247 0.103042
-1.363131 -2.026903 0.903253
-1.236176 -1.833635 1.453644
-1.231956 -1.821531 2.168759
-1.233698 -1.818664 2.838131
-1.272797 -1.868587 3.758629
-1.267861 -1.858526 4.101307
-1.233583 -1.801691 4.939471
-1.285812 -1.873099 5.520320
-1.397508 -2.029515 6.198106
-1.450516 -2.098668 7.039435
-1.408464 -2.031875 7.737497
-1.390752 -1.999472 8.552902
-1.373322 -1.967513 9.399051
-1.402860 -1.702441 0.140615
-1.409725 -1.706485 0.731142
-1.487341 -1.795788 1.336290
-1.422780 -1.711632 2.195293
-1.409328 -1.692687 2.583017
-1.433454 -1.714905 3.515195
-1.456431 -1.738522 4.042203
-1.383960 -1.646318 4.886696
-1.448419 -1.719446 5.370568
-1.654369 -1.956935 6.180231
-1.611805 -1.901229 6.877252
-1.515893 -1.783849 7.492862
-1.541938 -1.806968 8.518419
-1.443534 -1.688507 9.025995
-1.477291 -1.471341 0.545665
-1.593304 -1.583602 1.039635
-1.589728 -1.573944 1.968964
-1.605340 -1.585057 2.626076
-1.588532 -1.564725 3.203648
-1.557090 -1.530400 3.738654
-1.556402 -1.523575 4.720229
-1.512607 -1.478100 5.160557
-1.682610 -1.639474 5.833991
-1.837614 -1.782957 6.834590
-1.662758 -1.610906 7.254076
-1.590778 -1.536415 8.053288
-1.617369 -1.557948 8.719980
-1.484790 -1.425269 9.665256
-1.699367 -1.413580 0.571808
-1.803367 -1.493720 1.569756
-1.713521 -1.415859 2.148446
-1.711020 -1.410082 2.770481
-1.674040 -1.374942 3.579147
-1.686821 -1.383288 3.947805
-1.723644 -1.408983 4.704064
-1.658720 -1.350726 5.638095
-1.806250 -1.466756 6.280975
-1.875302 -1.519062 6.864134
-1.719923 -1.389251 7.599930
-1.707392 -1.374118 8.504452
-1.701000 -1.365361 9.167062
-1.844693 -1.255422 0.215451
-1.980916 -1.343715 0.941868
-1.811429 -1.225854 1.473460
-1.782637 -1.202512 2.190686
-1.706255 -1.147157 2.944632
-1.691948 -1.134515 3.544979
-1.825429 -1.218905 4.469738
-1.893894 -1.261306 5.050461
-1.799968 -1.194288 5.914531
-1.753887 -1.161740 6.312153
-1.859676 -1.226901 7.204045
-1.756151 -1.155746 7.801654
-1.732998 -1.136920 8.543871
-1.667764 -1.089700 9.521166
-1.823516 -1.009482 0.498629
-1.990413 -1.098573 1.104371
-1.763722 -0.971567 1.509231
-1.753549 -0.961054 2.550851
-1.848972 -1.011285 2.959186
-1.701950 -0.928194 3.564635
-1.769177 -0.959883 4.618098
-1.971977 -1.067770 4.997923
-1.692497 -0.913489 5.712252
-1.693099 -0.909502 6.697755
-1.875514 -1.003669 7.451078
-1.853694 -0.988825 8.128827
-1.739136 -0.925578 8.649442
-1.566244 -0.830188 9.571389
-1.634945 -0.712137 0.427050
-1.812969 -0.786266 1.189521
-1.766798 -0.763823 1.749904
-1.742565 -0.750074 2.520375
-1.740630 -0.746782 3.101420
-2.042051 -0.872228 3.848416
-2.269693 -0.965057 4.614335
-2.135071 -0.903386 5.493691
-1.818017 -0.766638 6.150928
-1.729809 -0.726138 6.981928
-1.812062 -0.758293 7.525834
-1.800625 -0.750489 8.254003
-1.695750 -0.704251 8.935015
-2.004786 -0.656128 0.507668
-1.911875 -0.621668 1.433814
-1.763461 -0.570172 2.247618
-2.124051 -0.677461 4.141746
-2.337914 -0.742552 4.701462
-2.121620 -0.663460 6.931638
-1.778841 -0.552911 7.875766
-1.709408 -0.529717 8.332534
-1.567590 -0.483420 9.076837
-1.689951 -0.382319 0.370644
-1.849572 -0.415809 1.021852
-1.732865 -0.386797 1.766961
-1.683869 -0.372994 2.561576
-1.542105 -0.339442 3.225827
-1.912247 -0.418643 3.744082
-2.388561 -0.518031 4.636305
-2.248985 -0.484262 5.381539
-1.821964 -0.390936 5.809676
-1.187683 -0.252873 6.724510
-1.338850 -0.282242 7.725845
-1.705325 -0.357792 8.133154
-1.783591 -0.211265 1.034283
-1.707386 -0.200106 1.636410
-1.642149 -0.190378 2.251011
-1.751451 -0.200171 3.036598
-2.127325 -0.239549 3.809808
-2.286826 -0.255020 4.313437
-2.181680 -0.240963 4.842163
-1.541539 -0.160568 8.077438
-1.540726 -0.158870 8.612737
-1.434261 -0.145513 9.497697
-1.680934 -0.040988 0.228418
-1.716447 -0.039537 0.884399
-1.543460 -0.033198 1.635060
-1.975019 -0.034100 3.675341
-2.215810 -0.033795 4.629103
-2.063412 -0.028647 5.322323
-1.258355 -0.010287 8.368145
-1.472694 -0.010311 8.926478
-1.146220 -0.006636 9.650158
-1.430836 0.098471 0.498438
-1.549559 0.109076 1.261437
-1.478637 0.106031 1.906613
-1.879096 0.142909 3.991472
-2.181786 0.169704 4.795273
-0.850754 0.070324 7.471900
-1.198627 0.101298 8.350731
-1.328458 0.114493 9.187394
-1.447434 0.241688 0.909890
-1.394580 0.234684 1.535402
-1.351606 0.229165 2.143885
-1.141027 0.195458 3.001797
-1.502526 0.259650 3.694188
-1.809748 0.314891 4.227530
-1.280731 0.225475 5.292344
-1.000745 0.177010 5.742263
-0.799424 0.142965 6.750461
-0.595973 0.107134 7.257949
-1.065373 0.193880 8.276930
-1.248312 0.228912 8.937247
-1.022567 0.188610 9.543927
-1.590175 0.419089 0.981578
-1.363991 0.360876 1.458677
-1.335867 0.355951 2.326293
-1.107481 0.296348 2.866533
-1.470133 0.396809 3.907210
-1.801487 0.488590 4.464302
-1.268793 0.345979 5.221324
-0.855181 0.233985 5.723255
-0.544560 0.149832 6.512734
-0.590768 0.163813 7.542696
-1.017192 0.283555 8.160719
-1.127249 0.315423 8.644339
-0.980974 0.276065 9.466366
-1.274231 0.467788 0.345815
-1.288440 0.475292 1.114125
-1.188179 0.439627 1.599730
-1.135157 0.422053 2.386064
-0.859771 0.321080 3.129901
-1.537799 0.578643 4.289801
-1.148813 0.434379 5.145556
-0.727782 0.276451 5.991228
-0.371879 0.141684 6.573478
-0.623911 0.239133 7.561818
-0.888356 0.341765 8.153962
-0.959876 0.370896 8.905224
-0.796695 0.309007 9.625028
-1.212100 0.577784 0.922737
-1.076057 0.514795 1.622425
-1.039407 0.498910 2.263846
-0.956077 0.460753 3.048988
-1.276934 0.617351 3.637552
-1.445209 0.701531 4.400829
-1.063440 0.518115 5.181720
-0.669212 0.326919 5.786097
-0.391579 0.192174 6.780583
-0.553626 0.272777 7.562312
-0.835511 0.412801 8.066491
-0.781329 0.387153 8.686274
-0.724136 0.360420 9.647790
-1.085187 0.653576 0.886180
-1.015349 0.613138 1.468001
-0.929257 0.562465 1.986390
-0.873905 0.531110 2.886309
-1.261765 0.769907 3.728148
-1.363080 0.833264 4.121175
-0.947066 0.581165 5.034245
-0.548766 0.337532 5.631510
-0.339213 0.209584 6.716135
-0.484920 0.300448 7.336592
-0.726721 0.451346 7.838357
-0.789241 0.492038 8.713350
-0.676158 0.422714 9.410514
-1.034594 0.770442 0.808562
-0.866480 0.646699 1.346301
-0.830543 0.621599 2.008570
-0.799590 0.600704 2.917442
-1.038103 0.782560 3.708147
-1.211043 0.914451 4.082144
-0.917504 0.695198 4.959595
-0.520647 0.395812 5.851029
-0.280214 0.213624 6.602176
-0.438983 0.335575 7.248188
-0.693778 0.532156 8.038581
-0.742507 0.571380 8.845706
-0.605355 0.466553 9.283596
-0.582203 0.520179 0.058578
-0.514566 0.461233 0.861455
-0.715899 0.643392 1.506466
-0.933820 0.846330 3.566308
-1.029470 0.936580 4.496102
-0.771604 0.704024 5.271292
-0.408670 0.373624 5.857279
-0.200052 0.183370 6.576019
-0.448105 0.412338 7.523078
-0.655909 0.604813 8.003896
-0.645093 0.596685 8.818809
-0.433715 0.402397 9.706380
-0.597734 0.650937 0.467299
-0.731056 0.799130 1.394705
-0.593825 0.650396 1.890482
-0.646928 0.711010 2.744673
-0.829465 0.913743 3.296507
-0.945000 1.044089 4.007394
-0.382670 0.427558 6.968464
-0.564483 0.633160 7.921690
-0.547929 0.615658 8.378385
-0.484266 0.546293 9.449144
-0.656327 0.858837 0.125854
-0.570504 0.748868 0.874895
-0.522591 0.687870 1.539913
-0.474072 0.625095 1.964107
-0.456360 0.603552 2.691657
-0.632332 0.839108 3.479834
-0.778732 1.036287 4.127408
-0.661745 0.884310 5.163561
-0.335677 0.449491 5.745242
-0.085815 0.115324 6.712084
-0.298323 0.402269 7.494360
-0.488836 0.660458 7.917349
-0.468192 0.634950 8.872075
-0.384012 0.522261 9.628068
-0.241206 0.387683 0.256139
-0.244747 0.394284 0.778213
-0.390927 0.632231 1.643034
-0.386046 0.626443 2.398485
-0.301110 0.489751 2.932536
-0.472805 0.772018 3.779147
-0.137742 0.227570 6.546311
-0.313233 0.519820 7.513268
-0.445995 0.741880 7.999627
-0.381665 0.637240 8.893878
-0.248183 0.415829 9.788158
-0.103498 0.207188 0.257734
-0.162369 0.325884 0.780368
-0.330520 0.666307 1.652807
-0.310928 0.628695 2.253405
-0.282194 0.572988 3.095138
-0.420738 0.857341 3.773880
-0.143599 0.296634 6.616544
-0.280324 0.581617 7.454054
-0.365945 0.762386 8.250080
-0.318485 0.665776 8.978118
-0.129965 0.272588 9.784500
-0.277567 0.737471 0.722408
-0.274799 0.733114 1.396721
-0.226225 0.606413 2.187948
-0.187555 0.504560 2.787154
-0.272132 0.734507 3.309008
-0.404286 1.098377 4.338032
-0.334391 0.911672 4.935305
-0.176005 0.482069 5.762954
-0.024168 0.066437 6.447963
-0.140347 0.387645 7.184092
-0.282327 0.782763 7.731154
-0.266254 0.741787 8.551751
-0.187310 0.524231 9.379352
-0.008817 0.031227 0.358823
-0.054683 0.194993 1.260421
-0.170247 0.610388 1.952719
-0.151471 0.545250 2.478924
-0.150420 0.545310 3.398475
-0.227451 0.828925 4.050173
-0.249354 0.913858 4.760448
-0.111787 0.411367 5.362999
-0.047746 0.176998 6.366677
-0.113532 0.422814 6.923232
-0.188180 0.705493 7.732740
-0.208018 0.784176 8.432869
-0.169923 0.643661 9.100392
-0.083292 0.474561 0.285495
-0.106612 0.613268 1.098623
-0.094455 0.548611 1.917492
-0.095500 0.558469 2.488746
-0.072718 0.429586 3.351081
-0.099416 0.591876 3.980232
-0.126120 0.759860 4.943231
-0.056756 0.344787 5.687837
-0.031054 0.189923 6.273078
-0.083549 0.516493 7.100750
-0.118582 0.738831 7.698156
-0.120157 0.754578 8.340962
-0.090931 0.576629 9.183867
-0.050222 0.631163 0.421556
