2.290938 -0.986134 6.179878
2.264715 -0.974852 6.956603
2.183069 -0.939711 7.618094
2.053891 -0.884110 8.122494
1.773365 -0.967760 0.697184
1.967635 -1.073783 1.395375
1.855213 -1.012434 1.861961
1.831167 -0.999317 2.599911
1.917300 -1.046327 3.433372
1.967441 -1.073696 4.176196
1.859834 -1.014975 4.783391
1.948980 -1.063631 5.621940
2.062775 -1.125738 6.225311
2.050117 -1.118835 6.944258
2.003151 -1.093208 7.766864
1.956201 -1.067590 8.411560
1.887847 -1.030290 9.019931
1.733013 -1.156694 1.769289
1.739897 -1.161295 2.675122
1.728548 -1.153724 3.377486
1.775677 -1.185185 3.913103
1.696451 -1.132311 4.938410
1.765007 -1.178073 5.483831
1.974571 -1.317955 6.076557
1.916098 -1.278933 7.038306
1.879554 -1.254546 7.781743
1.907364 -1.273113 8.465098
1.794961 -1.198091 9.048082
1.407585 -1.143091 0.066336
1.709781 -1.388510 0.993540
1.612705 -1.309679 1.647040
1.605727 -1.304017 2.355391
1.644233 -1.335293 2.994623
1.654879 -1.343944 3.656859
1.570966 -1.275801 4.250472
1.651444 -1.341164 5.021718
1.807604 -1.467990 5.815320
1.835938 -1.491007 6.444412
1.803272 -1.464483 7.131708
1.787295 -1.451515 8.077197
1.710842 -1.389430 8.726134
1.561693 -1.268306 9.561652
1.457231 -1.422015 1.818932
1.499773 -1.463536 2.722123
1.502560 -1.466261 3.337457
1.540379 -1.503172 4.063287
1.432486 -1.397892 4.847716
1.486626 -1.450729 5.519909
1.695822 -1.654880 6.192863
1.638218 -1.598671 6.710745
1.601806 -1.563145 7.570414
1.579889 -1.541762 8.218353
1.523454 -1.486694 8.935443
1.280400 -1.506516 0.981180
1.330122 -1.565025 1.676466
1.320971 -1.554263 2.300609
1.334258 -1.569904 3.189350
1.346936 -1.584827 3.871734
1.329874 -1.564757 4.485851
1.399488 -1.646673 5.246990
1.497816 -1.762373 5.721938
1.522593 -1.791534 6.505030
1.488537 -1.751469 7.136806
1.411344 -1.660646 7.878899
1.436574 -1.690343 8.982185
1.307919 -1.538966 9.589916
1.106837 -1.568719 0.680307
1.191698 -1.688999 1.411891
1.143292 -1.620401 2.200211
1.148912 -1.628371 2.692287
1.160463 -1.644749 3.479030
1.149737 -1.629554 4.215820
1.159143 -1.642893 5.086874
1.189379 -1.685753 5.589729
1.338210 -1.896707 6.481688
1.325876 -1.879231 7.019619
1.239199 -1.756386 7.747567
1.209464 -1.714246 8.403713
1.182749 -1.676390 9.328096
0.989366 -1.731120 1.962988
0.978834 -1.712697 2.418806
0.984585 -1.722771 3.443817
0.997364 -1.745138 4.137420
0.923268 -1.615495 4.742082
0.991471 -1.734841 5.339369
1.148611 -2.009808 6.029276
1.125415 -1.969228 6.734254
1.101355 -1.927136 7.486145
1.054686 -1.845484 8.198241
0.780063 -1.713532 2.197103
0.804438 -1.767081 2.677287
0.830533 -1.824416 3.641789
0.831593 -1.826752 4.319500
0.822320 -1.806390 4.907774
0.870896 -1.913110 5.824809
0.937108 -2.058571 6.570486
0.904527 -1.987006 7.072837
0.878018 -1.928783 7.952020
0.878081 -1.928933 8.697638
0.825794 -1.814077 9.303437
0.629725 -1.802451 1.787707
0.628174 -1.798023 2.518563
0.636479 -1.821803 3.134748
0.633703 -1.813870 3.803458
0.614972 -1.760270 4.770471
0.670551 -1.919366 5.401478
0.751600 -2.151374 6.112756
0.718950 -2.057924 6.673709
0.705260 -2.018755 7.582564
0.668212 -1.912717 8.211982
0.464766 -1.858023 0.377965
0.497175 -1.987601 0.856698
0.454902 -1.818615 1.590366
0.452445 -1.808809 2.302782
0.474732 -1.897925 3.151370
0.472441 -1.888776 3.571516
0.457686 -1.829809 4.555697
0.473872 -1.894528 5.037532
0.511456 -2.044804 5.707918
0.514392 -2.056567 6.626887
0.492715 -1.969916 7.320449
0.485851 -1.942482 7.889714
0.495363 -1.980533 8.797457
0.445210 -1.780028 9.671832
0.267851 -1.769729 0.341397
0.292864 -1.935020 1.142336
0.284595 -1.880404 1.636484
0.280665 -1.854467 2.463621
0.290734 -1.921022 3.276393
0.291541 -1.926373 3.819609
0.274451 -1.813473 4.543269
0.296835 -1.961405 5.245087
0.331642 -2.191435 6.046614
0.305792 -2.020648 6.758781
0.296189 -1.957216 7.558253
0.287591 -1.900427 8.206776
0.280143 -1.851237 9.042363
0.111883 -1.842470 0.729119
0.120211 -1.979663 1.179232
0.109941 -1.810592 1.878152
0.109720 -1.807033 2.916369
0.111155 -1.830700 3.449212
0.112618 -1.854872 4.338105
0.108361 -1.784801 4.945362
0.117936 -1.942588 5.802612
0.131196 -2.161066 6.462689
0.124928 -2.057887 7.225423
0.119160 -1.962936 7.957461
0.115988 -1.910733 8.598821
0.107758 -1.775209 9.371395
-0.047123 -1.819111 0.672796
-0.051353 -1.982324 1.169802
-0.046979 -1.813318 1.878152
-0.046003 -1.775488 2.804635
-0.046467 -1.793263 3.548985
-0.047717 -1.841360 4.205573
-0.046150 -1.780779 4.897941
-0.047982 -1.851360 5.536539
-0.050604 -1.952340 6.278042
-0.050329 -1.941566 7.142097
-0.048203 -1.859462 7.713357
-0.048843 -1.883958 8.686541
-0.045897 -1.770226 9.342934
-0.208566 -1.681678 0.665707
-0.230166 -1.855812 1.486300
-0.219229 -1.767600 2.174970
-0.202436 -1.632179 2.728985
-0.210092 -1.693884 3.433050
-0.220476 -1.777573 4.202103
-0.232615 -1.875400 5.123992
-0.232131 -1.871482 5.744690
-0.226817 -1.828596 6.640974
-0.223421 -1.801197 7.267191
-0.220281 -1.775862 7.968241
-0.212622 -1.714087 8.675496
-0.194733 -1.569847 9.506266
-0.422259 -1.905374 0.963011
-0.366960 -1.655836 1.512808
-0.353908 -1.596923 2.251011
-0.360238 -1.625472 2.976501
-0.340230 -1.535175 3.832114
-0.359582 -1.622480 4.575487
-0.422038 -1.904273 5.192208
-0.406440 -1.833871 6.145136
-0.369010 -1.664977 6.588424
-0.374136 -1.688086 7.583134
-0.372820 -1.682136 8.233880
-0.371062 -1.674187 9.032688
-0.524556 -1.660043 0.436853
-0.589675 -1.866107 1.142336
-0.495478 -1.568005 1.476886
-0.477624 -1.511491 2.244688
-0.555670 -1.758465 3.018442
-0.591748 -1.872623 3.731959
-0.573573 -1.815096 4.495735
-0.588140 -1.861180 5.201647
-0.484338 -1.532688 5.898607
-0.443132 -1.402280 6.692283
-0.501326 -1.586425 7.398216
-0.493795 -1.562581 8.203517
-0.472820 -1.496199 8.867049
-0.560943 -1.352297 0.239299
-0.661190 -1.593959 0.931268
-0.619497 -1.493436 1.936599
-0.572023 -1.378984 2.365872
-0.596979 -1.439139 3.187644
-0.735666 -1.773458 4.014102
-0.784508 -1.891196 4.438792
-0.727865 -1.754638 5.190173
-0.596307 -1.437488 6.044783
-0.553102 -1.333327 6.945928
-0.596204 -1.437222 7.610812
-0.617747 -1.489146 8.522159
-0.573615 -1.382755 9.089143
-0.609116 -1.140282 0.567542
-0.719621 -1.347146 0.993941
-0.702502 -1.315090 1.924386
-0.675500 -1.264538 2.591312
-0.495889 -0.928301 3.419297
-0.991611 -1.856270 4.862019
-0.902577 -1.689595 5.458595
-0.677589 -1.268420 6.094791
-0.589472 -1.103464 6.873984
-0.681250 -1.275262 7.574606
-0.726938 -1.360779 8.448076
-0.651883 -1.220277 9.149291
-0.681774 -1.043915 0.780242
-0.824034 -1.261737 1.147622
-0.775487 -1.187397 1.966834
-0.999189 -1.529902 4.082454
-1.122269 -1.718348 4.850183
-0.992970 -1.520353 7.148401
-0.763585 -1.169135 7.816419
-0.763334 -1.168744 8.585050
-0.648479 -0.992887 9.283126
-0.805720 -1.008098 0.404021
-0.959147 -1.200055 1.270989
-0.919335 -1.150240 2.040601
-1.140163 -1.426515 4.072981
-1.315612 -1.646021 4.880813
-1.187677 -1.485952 5.373540
-0.925384 -1.157780 6.343687
-0.738652 -0.924151 6.917262
-0.853434 -1.067752 7.913676
-0.877987 -1.098468 8.521607
-0.791274 -0.989976 9.395626
-0.891470 -0.933766 0.442498
-0.990891 -1.037899 1.236297
-0.976417 -1.022735 1.890155
-1.224463 -1.282533 4.050342
-1.369249 -1.434181 4.523811
-1.261410 -1.321223 5.375558
-0.939722 -0.984278 6.088414
-0.569429 -0.596425 7.037954
-0.639688 -0.670013 7.656147
-0.928806 -0.972832 8.587304
-0.813687 -0.852254 9.254180
-0.980862 -0.854013 0.933008
-0.955837 -0.832222 1.434982
-0.926196 -0.806411 2.141846
-0.687129 -0.598260 2.962464
-1.400623 -1.219467 4.328640
-1.305384 -1.136541 5.244586
-1.092040 -0.950781 7.343957
-0.783237 -0.681920 8.160719
-0.862236 -0.750697 9.119017
-1.046923 -0.753535 0.346306
-1.123821 -0.808879 1.228462
-0.977936 -0.703876 1.717711
-1.179869 -0.849215 2.522455
-1.262662 -0.908800 3.428660
-1.263237 -0.909211 4.133647
-1.330723 -0.957781 4.597785
-1.167471 -0.840276 5.641800
-0.843849 -0.607351 6.283734
-0.534293 -0.384550 6.969048
-0.671501 -0.483301 7.789637
-0.872692 -0.628103 8.427844
-0.867600 -0.624435 9.231093
-1.120633 -0.660008 0.933008
-1.095887 -0.645431 1.540855
-1.378490 -0.811862 3.616972
-0.410094 -0.241521 6.678203
-0.446749 -0.263107 7.661546
-0.734445 -0.432540 8.131744
-0.903280 -0.531970 9.050577
-1.289518 -0.608222 0.939284
-1.078130 -0.508516 1.428382
-0.990182 -0.467032 2.004339
-0.982482 -0.463397 2.957647
-1.314683 -0.620080 3.661132
-1.433920 -0.676316 4.372214
-0.916023 -0.432045 5.174363
-0.722514 -0.340774 6.065142
-0.472771 -0.222982 6.517182
-0.426158 -0.200995 7.558509
-0.740933 -0.349456 8.211094
-0.912714 -0.430473 8.895528
-0.737293 -0.347736 9.735558
-1.305969 -0.475414 0.335732
-1.311941 -0.477586 0.748158
-1.041057 -0.378973 1.780579
-1.371800 -0.499363 3.951042
-0.416548 -0.151629 6.775973
-0.539046 -0.196218 7.680597
-0.876682 -0.319119 8.369302
-0.977005 -0.355635 9.218012
-0.955487 -0.257448 0.310447
-1.073604 -0.289270 1.296068
-1.026843 -0.276669 1.889587
-1.370738 -0.369324 2.736932
-1.655402 -0.446019 3.509087
-1.489870 -0.401416 4.232097
-1.252931 -0.337575 4.868022
-0.950906 -0.256199 5.654957
-0.423362 -0.114064 6.329145
-0.271399 -0.073121 7.124436
-0.614302 -0.165506 7.851829
-0.825816 -0.222490 8.583019
-0.842990 -0.227115 9.469325
-0.737364 -0.123335 0.820587
-1.100649 -0.184098 1.402409
-0.980784 -0.164047 2.000281
-1.113498 -0.186243 2.866533
-1.512636 -0.253000 3.459756
-1.490592 -0.249310 4.177748
-1.008515 -0.168678 4.886243
-0.697343 -0.116632 5.659015
-0.336935 -0.056352 6.498939
-0.314892 -0.052665 7.188820
-0.696481 -0.116483 8.051971
-0.830275 -0.138858 8.844289
-0.684043 -0.114401 9.475081
-1.185668 -0.092091 0.270114
-1.176472 -0.091374 1.090713
-1.026087 -0.079692 1.706822
-1.374762 -0.106764 3.901866
-0.515226 -0.040009 7.027122
-0.532731 -0.041367 7.494016
-0.836425 -0.064947 8.514839
-0.816032 -0.063362 9.161061
-0.990717 0.010181 0.426859
-1.111833 0.011429 1.296068
-1.033418 0.010624 1.794030
-1.155808 0.011884 2.563265
-1.360373 0.013991 3.486557
-1.428821 0.014698 4.119562
-1.197157 0.012317 4.872052
-0.817560 0.008412 5.392056
-0.434989 0.004477 6.309441
-0.305128 0.003141 6.986304
-0.662737 0.006823 7.856282
-0.812258 0.008364 8.510886
-0.785070 0.008086 9.232029
-1.142065 0.122736 0.859715
-0.978587 0.105168 1.223017
-0.950469 0.102149 2.197328
-0.783075 0.084159 2.668398
-1.100140 0.118238 3.707102
-1.380208 0.148342 4.406614
-1.014024 0.108986 4.866858
-0.509648 0.054778 5.709858
-0.185392 0.019927 6.762556
-0.379150 0.040753 7.494964
-0.735112 0.079015 8.085576
-0.839384 0.090225 8.854030
-0.612330 0.065820 9.474631
-0.896007 0.176748 0.068054
-0.862933 0.170226 1.080494
-0.878173 0.173233 1.508579
-1.189112 0.234578 3.754551
-0.299399 0.059065 6.853076
-0.568412 0.112137 7.587084
-0.804936 0.158801 8.436880
-0.667063 0.131602 9.123612
-0.807613 0.240553 0.565040
-0.911361 0.271456 0.951977
-0.847366 0.252396 1.811325
-1.028848 0.306454 2.462230
-1.288705 0.383859 3.323319
-1.354608 0.403492 3.985393
-1.258509 0.374870 4.797322
-0.801659 0.238790 5.349358
-0.339164 0.101028 6.425414
-0.375845 0.111955 7.041176
-0.734345 0.218745 7.976976
-0.800868 0.238562 8.608350
-0.787921 0.234707 9.472401
-1.068099 0.425141 0.898346
-0.916026 0.364611 1.271529
-0.865544 0.344520 2.208585
-0.642731 0.255833 3.039794
-0.899565 0.358066 3.584228
-1.416222 0.563722 4.486646
-1.135383 0.451937 5.222671
-0.503532 0.200430 5.735419
-0.236629 0.094191 6.719145
-0.505975 0.201406 7.543136
-0.812699 0.323500 8.003896
-0.874751 0.348203 9.036420
-0.546062 0.217366 9.660632
-0.482385 0.248347 0.559962
-0.828613 0.426597 1.156718
-0.679163 0.349657 1.905533
-0.627823 0.323227 2.910581
-0.906223 0.466559 3.334466
-1.216364 0.626236 4.243495
-1.008681 0.519314 4.782277
-0.586074 0.301738 5.676602
-0.228661 0.117726 6.452787
-0.466305 0.240078 7.321928
-0.713087 0.367136 7.907597
-0.727623 0.374622 8.643452
-0.561373 0.289028 9.533437
-0.604271 0.381250 0.303070
-0.571742 0.360729 0.959326
-0.675381 0.426119 1.590834
-0.634282 0.400190 2.494491
-0.600278 0.378738 3.245174
-0.854250 0.538980 3.746588
-1.013383 0.639386 4.498993
-0.620084 0.391239 5.334854
-0.297558 0.187744 6.120632
-0.424160 0.267624 6.948464
-0.655494 0.413586 7.545822
-0.693201 0.437379 8.323952
-0.622323 0.392660 9.140605
-0.386621 0.298221 -0.068865
-0.671663 0.518091 0.847516
-0.686120 0.529244 1.422027
-0.639334 0.493158 2.226069
-0.641210 0.494606 2.951244
-0.807575 0.622936 3.598605
-0.154054 0.118834 6.668745
-0.357086 0.275450 7.336861
-0.705025 0.543845 7.959517
-0.728006 0.561576 8.948964
-0.488441 0.376779 9.768507
-0.138701 0.128781 0.277750
-0.335781 0.311766 1.201669
-0.571212 0.530361 1.718816
-0.481074 0.446672 2.589576
-0.591664 0.549355 3.482264
-0.770641 0.715535 3.898954
-0.787579 0.731267 4.898789
-0.468483 0.434987 5.549279
-0.227283 0.211034 6.321059
-0.421500 0.391366 6.934274
-0.608729 0.565212 7.686896
-0.627517 0.582660 8.479833
-0.489646 0.454646 9.178725
-0.574782 0.644016 -0.009736
-0.696657 0.780574 0.755602
-0.507950 0.569138 1.328382
-0.517847 0.580230 2.149556
-0.429773 0.481548 2.777516
-0.489166 0.548097 3.509076
-0.712642 0.798500 4.279406
-0.548296 0.614357 5.261655
-0.261687 0.293217 5.910944
-0.231416 0.259299 6.671322
-0.434566 0.486930 7.448976
-0.631054 0.707096 8.212249
-0.579887 0.649766 8.857749
-0.337847 0.378560 9.650589
-1.143437 -0.019872 -0.058414
-0.465100 -0.008083 -0.058414
-0.793998 -0.013799 -0.058414
-1.040323 -0.018080 -0.058414
-0.459269 -0.007982 -0.058414
-0.709365 -0.012328 -0.058414
-1.163419 -0.020219 -0.058414
-0.537030 -0.009333 -0.058414
-0.810525 -0.014086 -0.058414
-0.408402 -0.007098 -0.058414
-0.698031 -0.025313 -0.058414
-0.389705 -0.014132 -0.058414
-0.060360 -0.002189 -0.058414
-0.357635 -0.012969 -0.058414
-0.730251 -0.026482 -0.058414
-0.137898 -0.005001 -0.058414
-0.546125 -0.019805 -0.058414
-0.693830 -0.025161 -0.058414
-1.047538 -0.037988 -0.058414
-0.701447 -0.025437 -0.058414
-0.636909 -0.049469 -0.058414
-0.517546 -0.040198 -0.058414
-0.443372 -0.034437 -0.058414
-0.692346 -0.053774 -0.058414
-0.447924 -0.034790 -0.058414
-1.134342 -0.088104 -0.058414
-0.443199 -0.034423 -0.058414
-0.014397 -0.001118 -0.058414
-0.922815 -0.071675 -0.058414
-0.857599 -0.066610 -0.058414
-0.737393 -0.068161 -0.058414
-0.267329 -0.024711 -0.058414
-0.727821 -0.067276 -0.058414
-0.788197 -0.072857 -0.058414
-0.674040 -0.062305 -0.058414
-0.839620 -0.077610 -0.058414
-0.196994 -0.018209 -0.058414
-1.003242 -0.092735 -0.058414
-0.803473 -0.074269 -0.058414
-0.062163 -0.005746 -0.058414
-0.523778 -0.141127 -0.058414
-0.228904 -0.061676 -0.058414
-0.547936 -0.147636 -0.058414
-0.514885 -0.138731 -0.058414
-0.375592 -0.101200 -0.058414
-0.106304 -0.028643 -0.058414
-0.870684 -0.234598 -0.058414
-0.013000 -0.003503 -0.058414
-0.051063 -0.013758 -0.058414
-0.373758 -0.100706 -0.058414
-0.968240 -0.274010 -0.058414
-0.307097 -0.086908 -0.058414
-0.554606 -0.156952 -0.058414
-0.981415 -0.277738 -0.058414
-0.135166 -0.038252 -0.058414
-0.896107 -0.253596 -0.058414
-0.650759 -0.184163 -0.058414
-0.425588 -0.120440 -0.058414
-0.098124 -0.027769 -0.058414
-0.179013 -0.050660 -0.058414
-0.494878 -0.176545 -0.058414
-0.297048 -0.105970 -0.058414
-0.896863 -0.319951 -0.058414
-0.028249 -0.010078 -0.058414
-0.408637 -0.145779 -0.058414
-0.679097 -0.242264 -0.058414
-0.697685 -0.248895 -0.058414
-0.345888 -0.123394 -0.058414
-0.516598 -0.184294 -0.058414
-0.010915 -0.003894 -0.058414
-1.250839 -0.455345 -0.058414
-0.754575 -0.274689 -0.058414
-0.775476 -0.282298 -0.058414
-1.301351 -0.473733 -0.058414
-0.783595 -0.285253 -0.058414
-1.030082 -0.374982 -0.058414
-0.376633 -0.137106 -0.058414
-0.128683 -0.046845 -0.058414
-1.190366 -0.433331 -0.058414
-0.870315 -0.316822 -0.058414
-0.715383 -0.347797 -0.058414
-0.171985 -0.083614 -0.058414
-0.949101 -0.461423 -0.058414
-0.397078 -0.193047 -0.058414
-0.539656 -0.262364 -0.058414
-0.246377 -0.119781 -0.058414
-0.778662 -0.378561 -0.058414
-0.693850 -0.337328 -0.058414
-0.089588 -0.043555 -0.058414
-0.951307 -0.462496 -0.058414
-0.222378 -0.126538 -0.058414
-0.082101 -0.046717 -0.058414
-0.136175 -0.077486 -0.058414
-0.136140 -0.077467 -0.058414
-0.721421 -0.410505 -0.058414
-0.163918 -0.093273 -0.058414
-0.650275 -0.370021 -0.058414
-0.621553 -0.353678 -0.058414
-0.306636 -0.174483 -0.058414
-0.769060 -0.437613 -0.058414
-0.659781 -0.438188 -0.058414
-0.286351 -0.190178 -0.058414
-0.022537 -0.014968 -0.058414
-0.887487 -0.589418 -0.058414
-0.025928 -0.017220 -0.058414
-0.233794 -0.155272 -0.058414
-0.670838 -0.445532 -0.058414
-1.143160 -0.759221 -0.058414
-0.263590 -0.175061 -0.058414
-0.906618 -0.602123 -0.058414
-0.396043 -0.275389 -0.058414
-0.519526 -0.361254 -0.058414
-0.767632 -0.533774 -0.058414
-0.652481 -0.453704 -0.058414
-0.069772 -0.048516 -0.058414
-0.669006 -0.465195 -0.058414
-1.079534 -0.750656 -0.058414
-0.926056 -0.643935 -0.058414
-1.009144 -0.701710 -0.058414
-0.498983 -0.346969 -0.058414
-0.682661 -0.607761 -0.058414
-0.554051 -0.493262 -0.058414
-0.569842 -0.507321 -0.058414
-0.048867 -0.043506 -0.058414
-0.609619 -0.542734 -0.058414
-0.860853 -0.766403 -0.058414
-0.364464 -0.324476 -0.058414
-0.113790 -0.101306 -0.058414
-0.322279 -0.286920 -0.058414
-0.092127 -0.082019 -0.058414
-0.300068 -0.337336 -0.058414
-0.831761 -0.935066 -0.058414
-0.602896 -0.677776 -0.058414
-0.258192 -0.290259 -0.058414
-0.351199 -0.394818 -0.058414
-0.710366 -0.798593 -0.058414
-0.495126 -0.556620 -0.058414
-0.029214 -0.032843 -0.058414
-0.435855 -0.489988 -0.058414
-0.521932 -0.586755 -0.058414
-0.922225 -1.194627 -0.058414
-0.944193 -1.223084 -0.058414
-0.693405 -0.898220 -0.058414
-0.265559 -0.343999 -0.058414
-0.985490 -1.276579 -0.058414
-0.706690 -0.915429 -0.058414
-0.094782 -0.122778 -0.058414
-0.000797 -0.001033 -0.058414
-0.125592 -0.162689 -0.058414
-0.533925 -0.691634 -0.058414
-0.256888 -0.382155 -0.058414
-0.525077 -0.781122 -0.058414
-0.485984 -0.722967 -0.058414
-0.615207 -0.915203 -0.058414
-0.280637 -0.417486 -0.058414
-0.908259 -1.351156 -0.058414
-0.130597 -0.194281 -0.058414
-0.339993 -0.505785 -0.058414
-0.329049 -0.489505 -0.058414
-0.361568 -0.537881 -0.058414
-0.158492 -0.382084 -0.058414
-0.262057 -0.631755 -0.058414
-0.544368 -1.312339 -0.058414
-0.556935 -1.342634 -0.058414
-0.088674 -0.213772 -0.058414
-0.201082 -0.484760 -0.058414
-0.386080 -0.930744 -0.058414
-0.367131 -0.885062 -0.058414
-0.005851 -0.014106 -0.058414
-0.545099 -1.314101 -0.058414
-0.190712 -0.724907 -0.058414
-0.265996 -1.011066 -0.058414
-0.084556 -0.321403 -0.058414
-0.322449 -1.225647 -0.058414
-0.019861 -0.075494 -0.058414
-0.146777 -0.557910 -0.058414
-0.030481 -0.115860 -0.058414
-0.084963 -0.322949 -0.058414
-0.036396 -0.138345 -0.058414
-0.087381 -0.332140 -0.058414
-0.041401 -0.234628 -0.058414
-0.243039 -1.377356 -0.058414
-0.151451 -0.858309 -0.058414
-0.269841 -1.529250 -0.058414
-0.145199 -0.822876 -0.058414
-0.280737 -1.591002 -0.058414
-0.016362 -0.092728 -0.058414
-0.184917 -1.047965 -0.058414
-0.163768 -0.928114 -0.058414
-0.166466 -0.943399 -0.058414
0.175810 -1.583580 -0.058414
0.126589 -1.140232 -0.058414
0.035497 -0.319739 -0.058414
0.017249 -0.155364 -0.058414
0.052366 -0.471679 -0.058414
0.209352 -1.885704 -0.058414
0.180602 -1.626749 -0.058414
0.018828 -0.169594 -0.058414
0.067709 -0.609875 -0.058414
0.012343 -0.111175 -0.058414
0.168634 -1.278069 -0.058414
0.185175 -1.403433 -0.058414
0.173256 -1.313103 -0.058414
0.093884 -0.711541 -0.058414
0.001227 -0.009300 -0.058414
0.178405 -1.352122 -0.058414
0.156684 -1.187499 -0.058414
0.090452 -0.685532 -0.058414
0.194154 -1.471483 -0.058414
0.196549 -1.489636 -0.058414
0.004198 -0.027735 -0.058414
0.109512 -0.723562 -0.058414
0.206537 -1.364618 -0.058414
0.098993 -0.654061 -0.058414
0.131454 -0.868534 -0.058414
0.267177 -1.765273 -0.058414
0.122557 -0.809752 -0.058414
0.264801 -1.749575 -0.058414
0.053932 -0.356336 -0.058414
0.190761 -1.260386 -0.058414
0.192288 -0.794940 -0.058414
0.255848 -1.057706 -0.058414
0.171598 -0.709405 -0.058414
0.331425 -1.370152 -0.058414
0.192637 -0.796386 -0.058414
0.345075 -1.426578 -0.058414
0.248644 -1.027921 -0.058414
0.114135 -0.471849 -0.058414
0.139453 -0.576513 -0.058414
0.353268 -1.460450 -0.058414
0.380717 -1.415131 -0.058414
0.238530 -0.886620 -0.058414
0.154469 -0.574163 -0.058414
0.411683 -1.530231 -0.058414
0.353637 -1.314474 -0.058414
0.312982 -1.163359 -0.058414
0.171804 -0.638598 -0.058414
0.122890 -0.456782 -0.058414
0.162138 -0.602670 -0.058414
0.070471 -0.261943 -0.058414
0.351017 -1.214412 -0.058414
0.180077 -0.623011 -0.058414
0.249562 -0.863409 -0.058414
0.308869 -1.068594 -0.058414
0.310715 -1.074979 -0.058414
0.443961 -1.535971 -0.058414
0.307973 -1.065495 -0.058414
0.072242 -0.249936 -0.058414
0.337174 -1.166521 -0.058414
0.394618 -1.365261 -0.058414
0.084031 -0.148740 -0.058414
0.826635 -1.463195 -0.058414
0.383862 -0.679459 -0.058414
0.547085 -0.968374 -0.058414
0.707186 -1.251764 -0.058414
0.660166 -1.168536 -0.058414
0.513375 -0.908706 -0.058414
0.865507 -1.532002 -0.058414
0.077632 -0.137414 -0.058414
0.080666 -0.142784 -0.058414
0.155811 -0.126533 -0.058414
0.246679 -0.200327 -0.058414
1.089731 -0.884964 -0.058414
0.428937 -0.348337 -0.058414
1.027126 -0.834123 -0.058414
0.324971 -0.263907 -0.058414
0.422449 -0.343068 -0.058414
1.141552 -0.927047 -0.058414
0.559663 -0.454499 -0.058414
0.845319 -0.686478 -0.058414
1.306312 -0.956868 -0.058414
1.506029 -1.103160 -0.058414
0.507269 -0.371572 -0.058414
1.233001 -0.903168 -0.058414
0.181298 -0.132800 -0.058414
1.393342 -1.020617 -0.058414
0.103713 -0.075969 -0.058414
0.973657 -0.713200 -0.058414
1.273423 -0.932777 -0.058414
0.813317 -0.595751 -0.058414
1.570070 -1.021109 -0.058414
1.482587 -0.964213 -0.058414
1.238419 -0.805416 -0.058414
1.136085 -0.738863 -0.058414
0.144504 -0.093979 -0.058414
1.003575 -0.652684 -0.058414
1.009114 -0.656286 -0.058414
1.448575 -0.942093 -0.058414
1.573540 -1.023365 -0.058414
0.705190 -0.458626 -0.058414
0.560373 -0.319399 -0.058414
0.886071 -0.505039 -0.058414
0.620640 -0.353749 -0.058414
0.038267 -0.021811 -0.058414
1.620340 -0.923554 -0.058414
0.078041 -0.044482 -0.058414
0.967127 -0.551239 -0.058414
0.854429 -0.487004 -0.058414
1.503576 -0.857001 -0.058414
1.051184 -0.599149 -0.058414
0.924399 -0.512457 -0.058414
0.024981 -0.013848 -0.058414
0.253046 -0.140281 -0.058414
0.530438 -0.294057 -0.058414
0.543522 -0.301311 -0.058414
1.049068 -0.581569 -0.058414
0.911479 -0.505294 -0.058414
0.523722 -0.290334 -0.058414
0.715784 -0.396807 -0.058414
1.305294 -0.723612 -0.058414
0.109545 -0.057551 -0.058414
0.878804 -0.461694 -0.058414
0.271738 -0.142762 -0.058414
0.224516 -0.117953 -0.058414
0.004486 -0.002357 -0.058414
0.723153 -0.379920 -0.058414
1.536525 -0.807238 -0.058414
0.881933 -0.463338 -0.058414
1.512737 -0.794741 -0.058414
1.238696 -0.650769 -0.058414
0.606629 -0.301893 -0.058414
1.160049 -0.577307 -0.058414
0.952284 -0.473911 -0.058414
1.358213 -0.675924 -0.058414
0.288453 -0.143551 -0.058414
1.385392 -0.689450 -0.058414
0.667124 -0.331999 -0.058414
1.017370 -0.506302 -0.058414
0.758179 -0.377313 -0.058414
1.772675 -0.882185 -0.058414
0.164098 -0.080916 -0.058414
1.456171 -0.718030 -0.058414
1.548462 -0.763538 -0.058414
0.710966 -0.350574 -0.058414
0.090605 -0.044677 -0.058414
1.712616 -0.844482 -0.058414
1.217427 -0.600307 -0.058414
1.796444 -0.885817 -0.058414
0.911910 -0.449658 -0.058414
0.703688 -0.346985 -0.058414
0.375981 -0.172288 -0.058414
0.758141 -0.347407 -0.058414
0.585728 -0.268402 -0.058414
0.674497 -0.309079 -0.058414
0.245576 -0.112531 -0.058414
0.573146 -0.262636 -0.058414
0.750610 -0.343956 -0.058414
1.401284 -0.642118 -0.058414
0.135863 -0.062257 -0.058414
0.671955 -0.307913 -0.058414
1.453547 -0.637799 -0.058414
0.172295 -0.075601 -0.058414
0.085658 -0.037586 -0.058414
0.466209 -0.204567 -0.058414
0.162396 -0.071258 -0.058414
0.913246 -0.400722 -0.058414
0.262098 -0.115005 -0.058414
0.942822 -0.413699 -0.058414
0.670935 -0.294398 -0.058414
1.180826 -0.518132 -0.058414
1.029022 -0.425154 -0.058414
0.155131 -0.064095 -0.058414
1.480820 -0.611821 -0.058414
0.222319 -0.091854 -0.058414
1.439523 -0.594758 -0.058414
1.348321 -0.557077 -0.058414
1.696702 -0.701015 -0.058414
0.304745 -0.125910 -0.058414
0.716245 -0.295926 -0.058414
1.490451 -0.615800 -0.058414
1.056488 -0.366998 -0.058414
0.136380 -0.047375 -0.058414
0.702406 -0.243998 -0.058414
0.156810 -0.054472 -0.058414
1.345589 -0.467424 -0.058414
0.014336 -0.004980 -0.058414
0.361007 -0.125405 -0.058414
1.373501 -0.477120 -0.058414
0.364793 -0.126720 -0.058414
1.515321 -0.526385 -0.058414
0.302303 -0.101743 -0.058414
1.122160 -0.377676 -0.058414
1.459241 -0.491124 -0.058414
0.828403 -0.278808 -0.058414
1.963256 -0.660756 -0.058414
1.331566 -0.448153 -0.058414
0.924534 -0.311162 -0.058414
1.377813 -0.463719 -0.058414
0.482697 -0.162457 -0.058414
0.337644 -0.113638 -0.058414
1.293893 -0.431731 -0.058414
0.896955 -0.299285 -0.058414
0.446237 -0.148895 -0.058414
1.143742 -0.381630 -0.058414
1.496363 -0.499289 -0.058414
1.959467 -0.653812 -0.058414
1.137709 -0.379617 -0.058414
0.772085 -0.257620 -0.058414
1.667713 -0.556463 -0.058414
1.913780 -0.638568 -0.058414
0.775652 -0.240432 -0.058414
0.503178 -0.155972 -0.058414
0.314613 -0.097522 -0.058414
0.921999 -0.285796 -0.058414
0.588324 -0.182365 -0.058414
0.539146 -0.167121 -0.058414
1.220546 -0.378338 -0.058414
1.196812 -0.370981 -0.058414
1.445946 -0.448206 -0.058414
0.522003 -0.161808 -0.058414
0.042905 -0.012273 -0.058414
1.948913 -0.557505 -0.058414
0.960140 -0.274657 -0.058414
0.236898 -0.067767 -0.058414
1.740418 -0.497863 -0.058414
0.887519 -0.253883 -0.058414
0.761763 -0.217910 -0.058414
0.074913 -0.021430 -0.058414
0.651040 -0.186236 -0.058414
1.083342 -0.309900 -0.058414
2.033482 -0.571226 -0.058414
1.960627 -0.550760 -0.058414
1.249985 -0.351134 -0.058414
0.402568 -0.113085 -0.058414
0.984702 -0.276613 -0.058414
0.339962 -0.095499 -0.058414
1.954073 -0.548919 -0.058414
1.785622 -0.501600 -0.058414
1.508925 -0.423873 -0.058414
0.237216 -0.066637 -0.058414
1.150888 -0.289000 -0.058414
1.389151 -0.348830 -0.058414
1.663368 -0.417689 -0.058414
0.885889 -0.222456 -0.058414
0.536382 -0.134691 -0.058414
2.032461 -0.510372 -0.058414
1.322423 -0.332074 -0.058414
2.044896 -0.513495 -0.058414
1.150175 -0.288821 -0.058414
2.073767 -0.520745 -0.058414
1.333434 -0.312993 -0.058414
1.722328 -0.404277 -0.058414
1.655455 -0.388580 -0.058414
1.098667 -0.257887 -0.058414
0.213272 -0.050061 -0.058414
1.405912 -0.330005 -0.058414
0.692028 -0.162438 -0.058414
1.367687 -0.321033 -0.058414
0.937396 -0.220032 -0.058414
0.736661 -0.172914 -0.058414
0.520008 -0.095667 -0.058414
0.522627 -0.096149 -0.058414
0.696720 -0.128178 -0.058414
0.791437 -0.145603 -0.058414
0.410738 -0.075565 -0.058414
0.410785 -0.075573 -0.058414
0.202376 -0.037232 -0.058414
0.049771 -0.009157 -0.058414
1.753648 -0.322624 -0.058414
0.782825 -0.144019 -0.058414
1.524246 -0.236177 -0.058414
0.103130 -0.015980 -0.058414
0.922134 -0.142882 -0.058414
0.247007 -0.038273 -0.058414
0.091818 -0.014227 -0.058414
0.757872 -0.117430 -0.058414
1.760892 -0.272844 -0.058414
0.937211 -0.145218 -0.058414
1.846042 -0.286038 -0.058414
0.699186 -0.108337 -0.058414
1.409641 -0.200311 -0.058414
1.797752 -0.255462 -0.058414
0.284365 -0.040409 -0.058414
0.683254 -0.097091 -0.058414
1.566785 -0.222642 -0.058414
1.100486 -0.156380 -0.058414
0.155526 -0.022100 -0.058414
0.668640 -0.095014 -0.058414
0.430330 -0.061150 -0.058414
0.600709 -0.085361 -0.058414
1.717330 -0.239134 -0.058414
0.973869 -0.135609 -0.058414
0.526507 -0.073315 -0.058414
1.453830 -0.202442 -0.058414
0.589233 -0.082049 -0.058414
0.673866 -0.093834 -0.058414
1.282135 -0.178534 -0.058414
1.185786 -0.165118 -0.058414
0.832243 -0.115888 -0.058414
0.768773 -0.107050 -0.058414
0.883506 -0.042133 -0.058414
1.649894 -0.078681 -0.058414
1.785026 -0.085125 -0.058414
1.128798 -0.053831 -0.058414
1.465416 -0.069883 -0.058414
0.121751 -0.005806 -0.058414
1.551044 -0.073967 -0.058414
1.154026 -0.055034 -0.058414
1.592689 -0.075953 -0.058414
1.384758 -0.066037 -0.058414
0.365516 -0.016928 -0.058414
1.898836 -0.087939 -0.058414
1.505166 -0.069707 -0.058414
1.809879 -0.083819 -0.058414
1.375717 -0.063712 -0.058414
1.320428 -0.061152 -0.058414
1.364206 -0.063179 -0.058414
0.774983 -0.035891 -0.058414
0.948607 -0.043932 -0.058414
0.359350 -0.016642 -0.058414
0.845380 -0.021530 -0.058414
1.482587 -0.037757 -0.058414
1.608988 -0.040976 -0.058414
0.609402 -0.015520 -0.058414
0.003059 -0.000078 -0.058414
1.631761 -0.041556 -0.058414
1.607056 -0.040927 -0.058414
0.963407 -0.024535 -0.058414
0.220910 -0.005626 -0.058414
1.870046 -0.047625 -0.058414
1.886663 0.148127 -0.058414
1.956021 0.153573 -0.058414
1.059646 0.083196 -0.058414
0.421252 0.033074 -0.058414
0.552422 0.043372 -0.058414
1.578308 0.123917 -0.058414
1.077442 0.084593 -0.058414
1.523349 0.119602 -0.058414
0.544410 0.042743 -0.058414
0.768113 0.060307 -0.058414
1.711147 0.211398 -0.058414
1.362918 0.168377 -0.058414
1.803741 0.222837 -0.058414
0.690419 0.085295 -0.058414
0.235620 0.029109 -0.058414
1.942389 0.239965 -0.058414
0.669833 0.082752 -0.058414
0.484932 0.059909 -0.058414
0.369501 0.045649 -0.058414
0.661453 0.081717 -0.058414
0.622857 0.108167 -0.058414
0.637616 0.110730 -0.058414
1.477079 0.256514 -0.058414
1.468472 0.255019 -0.058414
1.665886 0.289303 -0.058414
0.404010 0.070162 -0.058414
1.273903 0.221230 -0.058414
0.908230 0.157726 -0.058414
0.585586 0.101695 -0.058414
1.963917 0.341060 -0.058414
0.433567 0.080375 -0.058414
1.320267 0.244754 -0.058414
0.451525 0.083705 -0.058414
0.046603 0.008639 -0.058414
0.000716 0.000133 -0.058414
0.016972 0.003146 -0.058414
1.445765 0.268019 -0.058414
1.144540 0.212177 -0.058414
1.162096 0.215431 -0.058414
1.329534 0.246471 -0.058414
1.616923 0.352166 -0.058414
1.202211 0.261842 -0.058414
1.763515 0.384094 -0.058414
1.076839 0.234536 -0.058414
0.786500 0.171300 -0.058414
1.005239 0.218941 -0.058414
0.966126 0.210422 -0.058414
0.779958 0.169875 -0.058414
0.845853 0.184227 -0.058414
0.823919 0.179450 -0.058414
0.326521 0.080385 -0.058414
0.478283 0.117747 -0.058414
1.216655 0.299524 -0.058414
1.832471 0.451129 -0.058414
0.557299 0.137199 -0.058414
0.196274 0.048320 -0.058414
1.795512 0.442031 -0.058414
0.031859 0.007843 -0.058414
0.341853 0.084160 -0.058414
1.585755 0.390391 -0.058414
0.415579 0.112200 -0.058414
0.791221 0.213617 -0.058414
0.483396 0.130509 -0.058414
1.567617 0.423231 -0.058414
1.517166 0.409610 -0.058414
1.177734 0.317969 -0.058414
0.954854 0.257795 -0.058414
0.948948 0.256200 -0.058414
0.545072 0.147161 -0.058414
0.952622 0.257192 -0.058414
1.394083 0.520313 -0.058414
1.025050 0.382579 -0.058414
0.394046 0.147070 -0.058414
1.223032 0.456472 -0.058414
1.065160 0.397549 -0.058414
0.983920 0.367228 -0.058414
0.055823 0.020835 -0.058414
0.846023 0.315761 -0.058414
0.530299 0.197923 -0.058414
0.778852 0.290691 -0.058414
0.955080 0.393010 -0.058414
0.961316 0.395576 -0.058414
1.534076 0.631263 -0.058414
1.521335 0.626020 -0.058414
1.773929 0.729961 -0.058414
1.366725 0.562399 -0.058414
1.025003 0.421782 -0.058414
0.217263 0.089402 -0.058414
0.985242 0.405421 -0.058414
0.837831 0.344763 -0.058414
0.828946 0.362020 -0.058414
0.553986 0.241939 -0.058414
0.985723 0.430488 -0.058414
1.060501 0.463146 -0.058414
1.013200 0.442488 -0.058414
0.128257 0.056013 -0.058414
1.288214 0.562593 -0.058414
0.000130 0.000057 -0.058414
1.358000 0.593070 -0.058414
1.358097 0.593113 -0.058414
1.230462 0.683905 -0.058414
1.272076 0.707035 -0.058414
0.308359 0.171389 -0.058414
0.287957 0.160050 -0.058414
0.401700 0.223270 -0.058414
0.453420 0.252016 -0.058414
0.192322 0.106895 -0.058414
0.091869 0.051062 -0.058414
1.139594 0.633400 -0.058414
1.225229 0.680997 -0.058414
0.547304 0.400564 -0.058414
0.489200 0.358039 -0.058414
0.560419 0.410163 -0.058414
0.148033 0.108343 -0.058414
0.726783 0.531922 -0.058414
1.033216 0.756196 -0.058414
1.102203 0.806686 -0.058414
0.264503 0.193586 -0.058414
1.068398 0.781945 -0.058414
1.039737 0.760968 -0.058414
0.091954 0.069582 -0.058414
0.552621 0.418170 -0.058414
1.174618 0.888837 -0.058414
0.304373 0.230320 -0.058414
0.907051 0.686368 -0.058414
0.787610 0.595987 -0.058414
0.198559 0.150250 -0.058414
0.356493 0.269759 -0.058414
0.197020 0.149086 -0.058414
0.029503 0.022325 -0.058414
1.313304 1.170659 -0.058414
0.491159 0.437811 -0.058414
0.285611 0.254589 -0.058414
0.422440 0.376557 -0.058414
0.786081 0.700701 -0.058414
0.917501 0.817846 -0.058414
0.703478 0.627070 -0.058414
1.186920 1.058002 -0.058414
0.177148 0.157907 -0.058414
0.320505 0.285694 -0.058414
0.172560 0.156849 -0.058414
0.958235 0.870990 -0.058414
1.316136 1.196304 -0.058414
0.076264 0.069320 -0.058414
0.459627 0.417779 -0.058414
0.570289 0.518365 -0.058414
0.903154 0.820923 -0.058414
0.679519 0.617650 -0.058414
1.054437 0.958432 -0.058414
0.857401 0.779336 -0.058414
0.948856 0.962087 -0.058414
0.638128 0.647026 -0.058414
0.406929 0.412603 -0.058414
0.496324 0.503245 -0.058414
0.761563 0.772182 -0.058414
0.326909 0.331467 -0.058414
0.034729 0.035213 -0.058414
0.890415 0.902832 -0.058414
0.176006 0.178460 -0.058414
0.323313 0.327821 -0.058414
0.738560 0.842885 -0.058414
0.117922 0.134579 -0.058414
0.541666 0.618179 -0.058414
0.711206 0.811668 -0.058414
0.448430 0.511774 -0.058414
0.098977 0.112958 -0.058414
0.282196 0.322057 -0.058414
0.597685 0.682111 -0.058414
0.026390 0.030117 -0.058414
0.497606 0.567895 -0.058414
0.877670 1.052217 -0.058414
0.862335 1.033832 -0.058414
0.653145 0.783040 -0.058414
0.695426 0.833729 -0.058414
0.628327 0.753286 -0.058414
0.449083 0.538395 -0.058414
0.358737 0.430081 -0.058414
0.182695 0.219029 -0.058414
0.527136 0.631971 -0.058414
0.672296 0.806000 -0.058414
0.997214 1.224079 -0.058414
0.979823 1.202731 -0.058414
0.792534 0.972834 -0.058414
0.744406 0.913757 -0.058414
0.002528 0.003103 -0.058414
0.460086 0.564755 -0.058414
0.950719 1.167007 -0.058414
0.334916 0.411109 -0.058414
0.499096 0.612640 -0.058414
0.889820 1.092253 -0.058414
0.519308 0.670519 -0.058414
0.119241 0.153961 -0.058414
0.601045 0.776055 -0.058414
0.146112 0.188657 -0.058414
0.617257 0.796988 -0.058414
0.503360 0.649926 -0.058414
0.722290 0.932605 -0.058414
0.520351 0.671866 -0.058414
0.400675 0.517342 -0.058414
0.715742 0.924150 -0.058414
0.306100 0.420197 -0.058414
0.013296 0.018252 -0.058414
0.936674 1.285813 -0.058414
0.665435 0.913472 -0.058414
0.614427 0.843451 -0.058414
0.802680 1.101874 -0.058414
0.950311 1.304533 -0.058414
0.036367 0.049923 -0.058414
0.394297 0.541269 -0.058414
0.668234 0.917314 -0.058414
0.649296 0.933708 -0.058414
0.621964 0.894404 -0.058414
0.275665 0.396414 -0.058414
0.074962 0.107798 -0.058414
0.207028 0.297713 -0.058414
0.131056 0.188462 -0.058414
0.081729 0.117529 -0.058414
0.588191 0.845837 -0.058414
0.098552 0.141721 -0.058414
0.428199 0.615764 -0.058414
0.488606 0.786675 -0.058414
0.281319 0.452935 -0.058414
0.321213 0.517166 -0.058414
0.509899 0.820957 -0.058414
0.558702 0.899532 -0.058414
0.251212 0.404462 -0.058414
0.189745 0.305496 -0.058414
0.262203 0.422157 -0.058414
0.521941 0.840346 -0.058414
0.097761 0.157398 -0.058414
0.455632 0.812247 -0.058414
0.443149 0.789993 -0.058414
0.361831 0.645029 -0.058414
0.097213 0.173300 -0.058414
0.260271 0.463979 -0.058414
0.143245 0.255359 -0.058414
0.336225 0.599381 -0.058414
0.535565 0.954741 -0.058414
0.001835 0.003271 -0.058414
0.154383 0.275216 -0.058414
0.431710 0.788746 -0.058414
0.481697 0.880074 -0.058414
0.048282 0.088213 -0.058414
0.437106 0.798607 -0.058414
0.045295 0.082755 -0.058414
0.426074 0.778449 -0.058414
0.026603 0.048605 -0.058414
0.211172 0.385817 -0.058414
0.480534 0.877950 -0.058414
0.497942 0.909755 -0.058414
0.410084 0.797251 -0.058414
0.487549 0.947852 -0.058414
0.362988 0.705691 -0.058414
0.149866 0.291357 -0.058414
0.199758 0.388354 -0.058414
0.379262 0.737331 -0.058414
0.026272 0.051076 -0.058414
0.353826 0.687880 -0.058414
0.383814 0.746180 -0.058414
0.564839 1.098114 -0.058414
0.328369 0.686479 -0.058414
0.274086 0.572996 -0.058414
0.010559 0.022075 -0.058414
0.002584 0.005401 -0.058414
0.530720 1.109507 -0.058414
0.459224 0.960040 -0.058414
0.444654 0.929581 -0.058414
0.464038 0.970103 -0.058414
0.311396 0.650996 -0.058414
0.091797 0.191907 -0.058414
0.235473 0.525097 -0.058414
0.249765 0.556970 -0.058414
0.041622 0.092816 -0.058414
0.492405 1.098050 -0.058414
0.484353 1.080093 -0.058414
0.100152 0.223337 -0.058414
0.565635 1.261351 -0.058414
0.577453 1.287704 -0.058414
0.101998 0.227453 -0.058414
0.456967 1.019024 -0.058414
0.147227 0.361504 -0.058414
0.199204 0.489129 -0.058414
0.108163 0.265585 -0.058414
0.058713 0.144165 -0.058414
0.140625 0.345293 -0.058414
0.278413 0.683619 -0.058414
0.172382 0.423270 -0.058414
0.284943 0.699652 -0.058414
0.038727 0.095090 -0.058414
0.180724 0.443753 -0.058414
0.200843 0.548063 -0.058414
0.012477 0.034046 -0.058414
0.121728 0.332173 -0.058414
0.152963 0.417408 -0.058414
0.061871 0.168834 -0.058414
0.141655 0.386549 -0.058414
0.127306 0.347395 -0.058414
0.155237 0.423612 -0.058414
0.147226 0.401754 -0.058414
0.098436 0.268615 -0.058414
0.037719 0.141086 -0.058414
0.244808 0.915705 -0.058414
0.183988 0.688208 -0.058414
0.277747 1.038912 -0.058414
0.282140 1.055343 -0.058414
0.052110 0.194918 -0.058414
0.073418 0.274620 -0.058414
0.063881 0.238945 -0.058414
0.252156 0.943190 -0.058414
0.244751 0.915492 -0.058414
0.132708 0.647363 -0.058414
0.144565 0.705202 -0.058414
0.159196 0.776576 -0.058414
0.038381 0.187226 -0.058414
0.084594 0.412658 -0.058414
0.016654 0.081241 -0.058414
0.151116 0.737161 -0.058414
0.047185 0.230173 -0.058414
0.144005 0.702471 -0.058414
0.143033 0.697729 -0.058414
0.005415 0.031959 -0.058414
0.020109 0.118685 -0.058414
0.006533 0.038556 -0.058414
0.001954 0.011530 -0.058414
0.026884 0.158672 -0.058414
0.014582 0.086063 -0.058414
0.023790 0.140410 -0.058414
0.005875 0.034676 -0.058414
0.013281 0.078386 -0.058414
0.010099 0.059603 -0.058414
0.016790 0.126975 -0.058414
0.041275 0.312142 -0.058414
0.000245 0.001854 -0.058414
0.035170 0.265968 -0.058414
0.035474 0.268269 -0.058414
0.012221 0.092423 -0.058414
0.025151 0.190206 -0.058414
0.015841 0.119799 -0.058414
0.036854 0.278709 -0.058414
0.043274 0.327259 -0.058414
0.006768 0.068988 -0.058414
0.000553 0.005638 -0.058414
0.012291 0.125278 -0.058414
0.022875 0.233152 -0.058414
0.010702 0.109084 -0.058414
0.007708 0.078564 -0.058414
0.010989 0.112002 -0.058414
0.022683 0.231201 -0.058414
0.022955 0.233968 -0.058414
0.019733 0.201131 -0.058414
0.021798 0.290572 -0.058414
0.022155 0.295329 -0.058414
0.004506 0.060070 -0.058414
0.011944 0.159224 -0.058414
0.025351 0.337940 -0.058414
0.027599 0.367909 -0.058414
0.032976 0.439584 -0.058414
0.022665 0.302139 -0.058414
0.015900 0.211955 -0.058414
0.025701 0.342603 -0.058414
0.000230 0.012606 -0.058414
0.000024 0.001289 -0.058414
0.000064 0.003479 -0.058414
0.000204 0.011155 -0.058414
0.000014 0.000759 -0.058414
0.000099 0.005423 -0.058414
0.000223 0.012207 -0.058414
0.000188 0.010275 -0.058414
0.000153 0.008398 -0.058414
0.000183 0.010036 -0.058414
-0.000120 0.003829 -0.058414
-0.012057 0.385398 -0.058414
-0.011620 0.371433 -0.058414
-0.002176 0.069540 -0.058414
-0.002874 0.091853 -0.058414
-0.003493 0.111645 -0.058414
-0.012202 0.390023 -0.058414
-0.015474 0.494606 -0.058414
-0.003984 0.127348 -0.058414
-0.004457 0.142453 -0.058414
-0.034018 0.476350 -0.058414
-0.042117 0.589765 -0.058414
-0.024513 0.343252 -0.058414
-0.018592 0.260341 -0.058414
-0.031387 0.439506 -0.058414
-0.001652 0.023134 -0.058414
-0.008138 0.113950 -0.058414
-0.033217 0.465129 -0.058414
-0.041612 0.582682 -0.058414
-0.046460 0.650576 -0.058414
-0.005615 0.065463 -0.058414
-0.019356 0.225649 -0.058414
-0.013395 0.156150 -0.058414
-0.005121 0.059700 -0.058414
-0.004050 0.047209 -0.058414
-0.008195 0.095532 -0.058414
-0.016280 0.189790 -0.058414
-0.004390 0.051182 -0.058414
-0.006597 0.076905 -0.058414
-0.000670 0.007807 -0.058414
-0.000061 0.000342 -0.058414
-0.006095 0.033998 -0.058414
-0.014313 0.079834 -0.058414
-0.014838 0.082765 -0.058414
-0.006062 0.033810 -0.058414
-0.016065 0.089607 -0.058414
-0.016150 0.090084 -0.058414
-0.003548 0.019789 -0.058414
-0.017697 0.098712 -0.058414
-0.005127 0.028599 -0.058414
-0.004764 0.023348 -0.058414
-0.041829 0.204992 -0.058414
-0.019198 0.094086 -0.058414
-0.034890 0.170988 -0.058414
-0.017760 0.087036 -0.058414
-0.060887 0.298395 -0.058414
-0.038242 0.187414 -0.058414
-0.013218 0.064779 -0.058414
-0.054648 0.267815 -0.058414
-0.069074 0.338513 -0.058414
-0.020075 0.091633 -0.058414
-0.036358 0.165955 -0.058414
-0.041535 0.189581 -0.058414
-0.023637 0.107890 -0.058414
-0.018926 0.086386 -0.058414
-0.049385 0.225415 -0.058414
-0.028272 0.129043 -0.058414
-0.024096 0.109986 -0.058414
-0.023726 0.108295 -0.058414
-0.001700 0.007759 -0.058414
-0.040199 0.173491 -0.058414
-0.022812 0.098449 -0.058414
-0.050703 0.218824 -0.058414
-0.027827 0.120097 -0.058414
-0.018478 0.079746 -0.058414
-0.042172 0.182004 -0.058414
-0.026430 0.114067 -0.058414
-0.025503 0.110066 -0.058414
-0.007899 0.034089 -0.058414
-0.032272 0.139278 -0.058414
-0.010752 0.041347 -0.058414
-0.017886 0.068782 -0.058414
-0.036966 0.142156 -0.058414
-0.015070 0.057954 -0.058414
-0.012168 0.046792 -0.058414
-0.000150 0.000576 -0.058414
-0.044270 0.170245 -0.058414
-0.040248 0.154779 -0.058414
-0.028155 0.108271 -0.058414
-0.001261 0.004850 -0.058414
-0.130152 0.396125 -0.058414
-0.037333 0.113624 -0.058414
-0.074766 0.227554 -0.058414
-0.009375 0.028535 -0.058414
-0.022607 0.068807 -0.058414
-0.025143 0.076525 -0.058414
-0.078213 0.238045 -0.058414
-0.016044 0.048830 -0.058414
-0.035478 0.107978 -0.058414
-0.002318 0.007054 -0.058414
-0.068051 0.188542 -0.058414
-0.099506 0.275690 -0.058414
-0.068986 0.191131 -0.058414
-0.118542 0.328432 -0.058414
-0.094051 0.260577 -0.058414
-0.098495 0.272890 -0.058414
-0.077284 0.214123 -0.058414
-0.027232 0.075450 -0.058414
-0.102435 0.283804 -0.058414
-0.127034 0.351961 -0.058414
-0.048313 0.130761 -0.058414
-0.037181 0.100631 -0.058414
-0.014792 0.040036 -0.058414
-0.023567 0.063786 -0.058414
-0.048135 0.130279 -0.058414
-0.021173 0.057306 -0.058414
-0.045946 0.124353 -0.058414
-0.023933 0.064775 -0.058414
-0.028812 0.077980 -0.058414
-0.050263 0.136038 -0.058414
-0.164259 0.387828 -0.058414
-0.130657 0.308491 -0.058414
-0.109880 0.259435 -0.058414
-0.105323 0.248674 -0.058414
-0.077132 0.182115 -0.058414
-0.001606 0.003791 -0.058414
-0.094969 0.224228 -0.058414
-0.101597 0.239877 -0.058414
-0.010798 0.025495 -0.058414
-0.006170 0.014568 -0.058414
-0.277664 0.517807 -0.058414
-0.215713 0.402276 -0.058414
-0.301774 0.562770 -0.058414
-0.247081 0.460773 -0.058414
-0.177569 0.331143 -0.058414
-0.231073 0.430921 -0.058414
-0.252947 0.471714 -0.058414
-0.278450 0.519274 -0.058414
-0.073385 0.136853 -0.058414
-0.007218 0.013461 -0.058414
-0.185310 0.330875 -0.058414
-0.075535 0.134869 -0.058414
-0.100589 0.179604 -0.058414
-0.004111 0.007341 -0.058414
-0.010661 0.019035 -0.058414
-0.086680 0.154769 -0.058414
-0.085089 0.151928 -0.058414
-0.131687 0.235130 -0.058414
-0.029027 0.051828 -0.058414
-0.262866 0.469352 -0.058414
-0.073256 0.116543 -0.058414
-0.255455 0.406404 -0.058414
-0.169712 0.269995 -0.058414
-0.295681 0.470400 -0.058414
-0.169316 0.269365 -0.058414
-0.150681 0.239719 -0.058414
-0.052083 0.082860 -0.058414
-0.144824 0.230402 -0.058414
-0.194270 0.309065 -0.058414
-0.214985 0.342021 -0.058414
-0.049085 0.064474 -0.058414
-0.003979 0.005227 -0.058414
-0.084643 0.111179 -0.058414
-0.088930 0.116811 -0.058414
-0.051673 0.067873 -0.058414
-0.012455 0.016359 -0.058414
-0.009073 0.011917 -0.058414
-0.087109 0.114418 -0.058414
-0.084419 0.110885 -0.058414
-0.093716 0.123097 -0.058414
-0.253662 0.316078 -0.058414
-0.137871 0.171795 -0.058414
-0.187274 0.233354 -0.058414
-0.484234 0.603384 -0.058414
-0.105736 0.131753 -0.058414
-0.031690 0.039487 -0.058414
-0.431010 0.537064 -0.058414
-0.006606 0.008231 -0.058414
-0.028230 0.035177 -0.058414
-0.082572 0.102889 -0.058414
-0.219188 0.256905 -0.058414
-0.406356 0.476282 -0.058414
-0.346139 0.405702 -0.058414
-0.388163 0.454958 -0.058414
-0.065978 0.077331 -0.058414
-0.061096 0.071609 -0.058414
-0.511087 0.599034 -0.058414
-0.491260 0.575795 -0.058414
-0.562706 0.659536 -0.058414
-0.181654 0.212913 -0.058414
-0.118612 0.134896 -0.058414
-0.253356 0.288138 -0.058414
-0.169101 0.192316 -0.058414
-0.133619 0.151963 -0.058414
-0.262292 0.298300 -0.058414
-0.006528 0.007424 -0.058414
-0.180211 0.204951 -0.058414
-0.057414 0.065296 -0.058414
-0.182536 0.207596 -0.058414
-0.004884 0.005554 -0.058414
-0.175324 0.196442 -0.058414
-0.065183 0.073034 -0.058414
-0.321768 0.360526 -0.058414
-0.512274 0.573979 -0.058414
-0.322023 0.360811 -0.058414
-0.112744 0.126325 -0.058414
-0.495011 0.554636 -0.058414
-0.184870 0.207138 -0.058414
-0.353653 0.396251 -0.058414
-0.521871 0.584731 -0.058414
-0.140450 0.134622 -0.058414
-0.610194 0.584871 -0.058414
-0.188933 0.181092 -0.058414
-0.359962 0.345024 -0.058414
-0.387083 0.371018 -0.058414
-0.456253 0.437318 -0.058414
-0.489995 0.469660 -0.058414
-0.732622 0.702217 -0.058414
-0.745959 0.715001 -0.058414
-0.383308 0.367401 -0.058414
-0.018370 0.017366 -0.058414
-0.457136 0.432154 -0.058414
-0.070550 0.066694 -0.058414
-0.392534 0.371082 -0.058414
-0.075612 0.071480 -0.058414
-0.162896 0.153994 -0.058414
-0.154595 0.146146 -0.058414
-0.242611 0.229352 -0.058414
-0.543846 0.514125 -0.058414
-0.559907 0.529308 -0.058414
-0.105916 0.098340 -0.058414
-0.057396 0.053291 -0.058414
-0.017420 0.016174 -0.058414
-0.054512 0.050613 -0.058414
-0.101996 0.094701 -0.058414
-0.089862 0.083435 -0.058414
-0.074882 0.069526 -0.058414
-0.031353 0.029110 -0.058414
-0.064791 0.060157 -0.058414
-0.033458 0.031065 -0.058414
-0.352108 0.302477 -0.058414
-0.321579 0.276251 -0.058414
-0.195951 0.168331 -0.058414
-0.146147 0.125547 -0.058414
-0.017120 0.014707 -0.058414
-0.079672 0.068442 -0.058414
-0.348751 0.299593 -0.058414
-0.381567 0.327783 -0.058414
-0.396935 0.340985 -0.058414
-0.341453 0.293323 -0.058414
-0.003230 0.002716 -0.058414
-0.193895 0.163039 -0.058414
-0.063200 0.053143 -0.058414
-0.092357 0.077660 -0.058414
-0.192781 0.162103 -0.058414
-0.379497 0.319105 -0.058414
-0.028712 0.024143 -0.058414
-0.095642 0.080422 -0.058414
-0.031931 0.026850 -0.058414
-0.381426 0.320727 -0.058414
-0.115884 0.089387 -0.058414
-0.132789 0.102427 -0.058414
-0.107368 0.082819 -0.058414
-0.360525 0.278091 -0.058414
-0.004615 0.003559 -0.058414
-0.332423 0.256415 -0.058414
-0.331042 0.255350 -0.058414
-0.382573 0.295098 -0.058414
-0.307184 0.236947 -0.058414
-0.294600 0.227240 -0.058414
-0.003056 0.002291 -0.058414
-0.132652 0.099433 -0.058414
-0.028282 0.021199 -0.058414
-0.032239 0.024166 -0.058414
-0.055131 0.041325 -0.058414
-0.154097 0.115508 -0.058414
-0.129104 0.096773 -0.058414
-0.255404 0.191445 -0.058414
-0.224719 0.168444 -0.058414
-0.240899 0.180572 -0.058414
-0.593280 0.408971 -0.058414
-0.758203 0.522660 -0.058414
-0.584624 0.403005 -0.058414
-0.513288 0.353830 -0.058414
-0.258367 0.178103 -0.058414
-0.563514 0.388453 -0.058414
-0.551856 0.380416 -0.058414
-0.207560 0.143080 -0.058414
-0.557275 0.384152 -0.058414
-0.430591 0.296823 -0.058414
-0.291807 0.191298 -0.058414
-0.455132 0.298368 -0.058414
-0.460034 0.301582 -0.058414
-0.272074 0.178362 -0.058414
-0.498774 0.326978 -0.058414
-0.258526 0.169480 -0.058414
-0.445150 0.291824 -0.058414
-0.138624 0.090877 -0.058414
-0.783145 0.513401 -0.058414
-0.237798 0.155892 -0.058414
-0.379349 0.245778 -0.058414
-0.298419 0.193344 -0.058414
-0.356822 0.231183 -0.058414
-0.368648 0.238845 -0.058414
-0.322610 0.209018 -0.058414
-0.023874 0.015468 -0.058414
-0.141183 0.091472 -0.058414
-0.274948 0.178138 -0.058414
-0.128068 0.082975 -0.058414
-0.001545 0.001001 -0.058414
-0.527471 0.332795 -0.058414
-0.490482 0.309458 -0.058414
-0.586910 0.370297 -0.058414
-0.576578 0.363778 -0.058414
-0.087430 0.055162 -0.058414
-0.182835 0.115356 -0.058414
-0.543193 0.342715 -0.058414
-0.332458 0.209756 -0.058414
-0.259502 0.163727 -0.058414
-0.089988 0.056776 -0.058414
-0.146851 0.083571 -0.058414
-0.484502 0.275723 -0.058414
-0.353539 0.201194 -0.058414
-0.283704 0.161452 -0.058414
-0.409288 0.232920 -0.058414
