-1.089709 -0.716180 8.418782
-1.190145 -0.782190 8.863891
-1.203303 -0.790837 9.462647
-1.088398 -0.715319 10.288754
-0.520569 -0.276054 1.203406
-0.630482 -0.334340 1.743150
-0.954357 -0.506088 2.386645
-0.988154 -0.524010 3.127978
-0.991532 -0.525801 3.643258
-1.037487 -0.550171 4.457878
-1.184515 -0.628139 5.068605
-1.131421 -0.599984 5.473540
-0.821115 -0.435431 6.200360
-0.686973 -0.364296 7.081164
-0.653149 -0.346360 7.594304
-0.992321 -0.526220 8.419267
-1.258256 -0.667243 8.770128
-1.251685 -0.663758 9.384258
-1.086904 -0.576377 10.061145
-0.499311 -0.204586 1.214193
-0.603286 -0.247188 1.979159
-1.015998 -0.416291 2.615510
-0.999607 -0.409575 2.989542
-1.067104 -0.437231 3.906935
-0.969634 -0.397294 4.268965
-1.052956 -0.431434 4.902689
-1.126280 -0.461477 5.692120
-0.867883 -0.355602 6.244585
-0.707079 -0.289715 7.018939
-0.807034 -0.330671 7.722365
-1.084668 -0.444427 8.107045
-1.335666 -0.547270 8.839796
-1.320498 -0.541055 9.419105
-1.143500 -0.468533 10.078672
-0.508998 -0.151350 0.954540
-0.663366 -0.197251 1.806861
-0.982716 -0.292209 2.319777
-1.013951 -0.301497 3.018281
-1.040740 -0.309462 3.763339
-1.090346 -0.324212 4.373431
-1.157551 -0.344196 5.026763
-1.094478 -0.325441 5.551500
-0.905555 -0.269265 6.279956
-0.728624 -0.216655 6.880353
-0.657812 -0.195599 7.362771
-0.956992 -0.284560 7.925887
-1.301858 -0.387105 8.525965
-1.316959 -0.391595 9.415799
-1.101356 -0.218871 2.613490
-1.124110 -0.223393 3.400491
-1.085552 -0.215731 3.939349
-1.120185 -0.222613 4.587802
-1.167618 -0.232040 5.236408
-1.067464 -0.212136 5.823934
-0.834368 -0.165813 6.187841
-0.677560 -0.134651 7.034724
-0.914161 -0.181670 7.540120
-1.307540 -0.259846 8.131583
-1.512735 -0.300624 8.915289
-1.471129 -0.292356 9.662716
-1.055479 -0.209754 10.070743
-1.060338 -0.103220 2.520643
-1.043191 -0.101551 2.912533
-1.026151 -0.099892 3.725040
-0.974773 -0.094891 4.322952
-1.064118 -0.103588 4.949203
-1.066530 -0.103823 5.436727
-0.941724 -0.091673 6.417385
-0.736210 -0.071667 7.024201
-0.937633 -0.091275 7.472575
-1.280751 -0.124676 8.050279
-1.405653 -0.136835 8.726565
-1.331934 -0.129659 9.293584
-1.166962 -0.113599 10.127461
-0.193308 0.000232 1.317602
-0.963595 0.001155 2.501913
-0.965591 0.001157 3.357011
-0.980314 0.001175 3.721930
-1.103711 0.001323 4.494563
-1.199062 0.001437 5.289050
-0.980412 0.001175 5.788705
-0.770992 0.000924 6.433587
-0.687635 0.000824 7.138049
-0.975750 0.001169 7.725747
-1.328678 0.001592 8.114110
-1.378406 0.001652 8.792090
-1.291721 0.001548 9.401991
-1.132966 0.001358 10.333432
-0.331720 0.032219 1.032423
-0.659198 0.064026 1.719059
-1.002040 0.097325 2.409824
-0.958008 0.093048 2.795568
-0.891414 0.086580 3.409019
-1.007954 0.097900 4.192841
-1.053365 0.102310 4.707652
-0.974342 0.094635 5.488661
-0.738549 0.071733 6.015122
-0.614948 0.059728 6.686800
-0.559989 0.054390 7.607140
-0.760726 0.073887 8.020915
-1.307700 0.127013 8.650209
-1.350823 0.131201 9.269160
-0.951083 0.189789 2.581436
-0.942463 0.188069 3.312827
-0.949128 0.189399 3.830831
-1.020464 0.203634 4.584266
-1.043636 0.208258 5.238868
-0.877418 0.175089 5.877158
-0.720101 0.143696 6.505576
-0.694482 0.138584 7.114902
-1.016172 0.202777 7.869918
-1.320560 0.263518 8.482311
-1.355014 0.270394 9.082691
-1.279348 0.255294 9.445718
-1.096022 0.218712 10.367451
-0.557869 0.168725 1.633597
-0.767361 0.232085 1.970101
-0.899130 0.271939 2.512681
-0.901426 0.272633 3.118346
-0.793751 0.240067 3.721310
-0.878765 0.265779 4.610666
-1.028713 0.311130 5.146821
-0.974139 0.294625 5.854896
-0.821887 0.248577 6.490002
-0.741396 0.224232 7.184275
-0.935987 0.283086 7.734580
-1.227204 0.371163 8.433881
-1.264004 0.382293 8.864415
-1.333858 0.403420 9.742594
-1.096112 0.331515 10.533398
-0.265900 0.109316 1.160288
-0.559362 0.229962 2.026853
-0.865036 0.355629 2.459618
-0.856794 0.352241 3.218069
-0.909509 0.373913 3.748425
-1.071702 0.440593 4.343721
-1.149985 0.472776 5.092998
-0.917808 0.377325 7.127013
-0.698655 0.287228 7.553067
-1.051625 0.432339 8.172002
-1.192484 0.490248 8.750747
-0.349943 0.183934 1.363616
-0.557430 0.292992 2.025310
-0.841861 0.442492 2.333983
-0.835125 0.438952 3.136031
-1.107723 0.582232 3.886137
-1.399867 0.735787 4.481039
-0.639815 0.336294 7.523103
-1.045197 0.549368 8.441750
-1.132846 0.595438 8.715751
-1.210105 0.636046 9.655363
-0.973680 0.511778 10.063300
-0.812811 0.542550 0.808977
-0.849744 0.567203 1.381896
-0.956047 0.638160 1.922609
-0.840096 0.560763 2.764799
-0.648553 0.432908 3.259538
-1.469046 0.980586 4.710161
-1.205372 0.804584 5.113913
-0.942387 0.629041 7.068395
-0.786412 0.524929 7.920097
-1.033072 0.689574 8.575661
-1.169927 0.780925 9.169884
-1.035549 0.691227 9.596686
-0.800470 0.534313 10.456364
-0.588439 0.481570 1.090286
-0.632931 0.517982 1.817712
-0.893860 0.731523 2.381116
-0.914294 0.748246 2.714793
-1.140743 0.933568 3.638754
-1.375906 1.126022 4.067399
-1.248719 1.021934 4.529512
-0.979657 0.801738 5.233115
-0.859656 0.703530 6.083660
-0.569633 0.466179 6.514475
-0.406812 0.332929 7.446020
-0.663234 0.542781 8.186406
-0.983068 0.804529 8.680744
-1.115827 0.913177 9.291839
-0.662103 0.653218 0.916380
-0.669321 0.660340 1.766529
-0.850998 0.839579 2.245847
-0.857607 0.846099 2.978017
-1.042053 1.028071 3.314184
-1.322563 1.304817 4.100789
-1.267632 1.250623 4.461734
-1.187125 1.171196 5.363058
-0.651182 0.642444 7.899482
-0.793850 0.783198 8.487166
-0.849643 0.838242 9.060324
-0.897417 0.885375 9.735259
-0.740897 0.730956 10.616326
-0.504412 0.602352 1.098336
-0.594127 0.709486 1.944859
-0.726393 0.867434 2.400541
-0.613562 0.732695 3.259798
-0.305006 0.364228 7.561307
-0.522343 0.623764 8.320181
-0.749028 0.894465 8.680510
-0.798512 0.953556 9.416055
-0.732941 0.875253 9.944345
-0.455814 0.672203 1.141884
-0.541158 0.798063 1.747496
-0.674166 0.994215 2.651293
-0.635564 0.937286 3.268659
-0.823417 1.214319 3.577865
-0.292749 0.431726 7.428107
-0.393075 0.579680 8.178500
-0.666824 0.983386 8.948290
-0.685783 1.011346 9.251343
-0.692551 1.021327 10.156282
-0.428099 0.785457 1.334100
-0.480231 0.881107 1.993329
-0.578825 1.062002 2.438822
-0.639242 1.172853 3.036381
-0.799589 1.467049 3.598796
-0.818108 1.501028 5.604951
-0.353493 0.648573 8.329855
-0.510984 0.937531 8.697731
-0.611284 1.121557 9.529880
-0.630901 1.157549 10.091191
-0.451100 1.060948 0.830963
-0.487865 1.147418 1.381051
-0.503315 1.183754 2.107671
-0.700243 1.646911 3.960890
-0.813000 1.912105 4.419774
-0.662033 1.557044 5.048449
-0.247751 0.582690 7.798022
-0.358373 0.842862 8.416708
-0.490686 1.154051 9.090567
-0.530720 1.248208 9.706242
-0.440636 1.036337 10.393832
-0.425930 1.337534 2.353969
-0.404966 1.271703 2.745865
-0.359528 1.129015 3.289945
-0.662703 2.081065 4.456817
-0.274435 0.861799 8.372452
-0.380018 1.193359 9.176225
-0.405156 1.272299 9.636382
-0.388135 1.218847 10.460542
-0.202848 0.972091 1.294681
-0.232857 1.115901 1.755650
-0.266499 1.277120 2.370058
-0.382054 1.830887 4.195291
-0.443387 2.124807 5.033249
-0.379192 1.817172 5.428416
-0.139597 0.668980 8.315487
-0.227446 1.089970 8.959588
-0.273901 1.312595 9.568061
-0.274728 1.316554 10.092415
-0.099719 0.910225 1.235732
-0.126353 1.153336 1.666465
-0.145803 1.330874 2.490514
-0.210099 1.917767 4.440754
-0.239802 2.188887 4.749519
-0.234674 2.142080 5.394509
-0.122057 1.114123 8.985972
-0.144123 1.315538 9.421178
-0.146079 1.333396 9.997601
-0.017717 1.096823 1.387495
-0.022261 1.378129 1.978999
-0.022672 1.403531 2.353969
-0.027927 1.728870 2.946869
-0.037608 2.328162 4.912287
-0.036431 2.255299 5.534521
-0.018373 1.137387 8.952897
-0.022349 1.383540 9.270929
-0.023529 1.456605 10.114583
0.113026 1.250877 0.942230
0.117572 1.301193 1.588773
0.133163 1.473739 1.998913
0.126495 1.399943 2.695881
0.156916 1.736615 3.346143
0.191434 2.118634 4.039742
0.202211 2.237903 4.543117
0.203847 2.256013 4.991877
0.202095 2.236617 5.895987
0.082949 0.918012 8.538064
0.119123 1.318357 9.061400
0.123499 1.366783 9.672815
0.114855 1.271124 10.451790
0.289756 1.554973 2.027330
0.268269 1.439667 2.796095
0.367229 1.970733 4.613444
0.419730 2.252477 4.996390
0.415303 2.228719 5.874372
0.226033 1.213007 8.926132
0.263776 1.415551 9.462647
0.255270 1.369906 10.326894
0.332538 1.166710 1.162938
0.396043 1.389516 1.835099
0.421639 1.479320 2.475009
0.400789 1.406170 2.769994
0.478671 1.679418 3.598958
0.533713 1.872531 4.010779
0.566171 1.986413 4.683007
0.612901 2.150364 5.275630
0.575770 2.020090 5.799924
0.513861 1.802880 7.720423
0.434042 1.522836 8.689130
0.443044 1.554419 9.353875
0.504724 1.264808 1.691044
0.612772 1.535571 1.970667
0.551392 1.381756 2.470191
0.577419 1.446978 3.251808
0.540953 1.355595 3.940436
0.638879 1.600992 4.593069
0.831948 2.084812 5.326562
0.838475 2.101168 5.848926
0.750398 1.880453 6.328358
0.605106 1.516361 6.895376
0.576250 1.444049 7.780456
0.597280 1.496749 8.310268
0.622991 1.561179 9.128612
0.579591 1.452420 9.614938
0.510387 1.279000 10.438272
0.525201 1.036144 1.120833
0.693275 1.367728 1.621044
0.709887 1.400502 2.228404
0.702974 1.386862 2.963099
0.874115 1.724497 4.974815
0.968321 1.910353 5.317887
0.940010 1.854500 5.821549
0.807351 1.592783 6.654955
0.740650 1.461192 7.485492
0.731632 1.443400 7.829199
0.725371 1.431048 8.478943
0.724443 1.429218 9.216950
0.668560 1.318968 9.849839
0.810266 1.265337 1.962591
0.879020 1.372706 2.363410
0.873821 1.364588 3.122998
0.914074 1.427448 3.806169
0.932791 1.456676 4.275498
0.969290 1.513676 4.749527
1.065097 1.663290 5.381514
1.042485 1.627979 6.124091
0.966617 1.509500 6.806564
0.933796 1.458246 7.336062
0.962497 1.503067 8.182144
0.944655 1.475204 8.828732
0.872976 1.363268 9.184012
0.841461 1.314053 10.110393
0.861252 1.090191 1.191496
1.110159 1.405263 1.754737
1.040965 1.317676 2.351055
0.999502 1.265191 2.765680
1.027741 1.300936 3.705404
1.097361 1.389063 4.007089
1.155418 1.462552 4.686828
1.194717 1.512297 5.398536
1.146484 1.451243 5.953254
1.142926 1.446740 6.687635
1.167431 1.477758 7.102121
1.153111 1.459632 7.869878
1.055881 1.336557 8.461787
1.066862 1.350456 9.266782
0.855712 0.894871 1.162034
1.128804 1.180460 2.050110
1.135298 1.187252 2.527821
1.138452 1.190550 2.875982
1.199394 1.254281 3.722579
1.241120 1.297916 4.389370
1.305831 1.365588 5.016970
1.334010 1.395057 5.415683
1.313759 1.373879 6.219486
1.336320 1.397473 6.749240
1.429243 1.494648 7.456207
1.378008 1.441069 7.991177
1.311034 1.371030 8.603425
1.228103 1.284303 9.100929
1.187212 1.241541 9.861144
1.220539 1.049386 1.643212
1.410869 1.213027 2.078567
1.300231 1.117903 2.487338
1.332050 1.145261 3.466854
1.356180 1.166007 3.952279
1.413996 1.215715 4.519983
1.427550 1.227369 4.974045
1.344211 1.155716 5.531574
1.450390 1.247006 6.529699
1.565783 1.346218 6.998370
1.533575 1.318526 7.693256
1.436732 1.235263 8.107889
1.478254 1.270962 8.977041
1.409445 1.211802 9.553902
1.234913 1.061745 10.241402
1.351519 0.950702 2.326959
1.363869 0.959389 2.821859
1.427518 1.004162 3.590335
1.459669 1.026778 4.119081
1.542536 1.085070 4.832827
1.568038 1.103008 5.630131
1.592138 1.119961 6.192655
1.633284 1.148905 6.565793
1.648860 1.159861 7.234098
1.639758 1.153459 8.033948
1.674963 1.178223 8.773669
1.673249 1.177017 9.394698
1.532264 0.873450 2.128245
1.524164 0.868832 2.666464
1.535954 0.875553 3.091078
1.567011 0.893257 3.871718
1.585808 0.903972 4.236302
1.692023 0.964518 5.218786
1.594730 0.909058 5.600358
1.643498 0.936857 6.301605
1.763158 1.005068 6.719702
1.817747 1.036186 7.450413
1.820260 1.037618 8.183683
1.754302 1.000020 8.671130
1.675042 0.954839 9.262032
1.531854 0.873216 9.922680
1.007698 0.443921 0.761860
1.471815 0.648378 1.617230
1.704307 0.750797 2.104343
1.597053 0.703549 2.554374
1.595172 0.702720 3.093512
1.670477 0.735894 3.842870
1.708132 0.752482 4.353272
1.795472 0.790958 5.304450
1.620913 0.714060 5.522958
1.704080 0.750698 6.280740
1.960173 0.863514 6.999037
1.922237 0.846802 7.376424
1.901165 0.837519 8.015337
1.872159 0.824741 8.673007
1.924245 0.847686 9.582443
1.816768 0.800340 10.287196
1.417200 0.468496 1.274701
1.641865 0.542765 1.983272
1.645579 0.543993 2.711702
1.701057 0.562333 3.323661
1.696821 0.560932 3.733960
1.757790 0.581087 4.425462
1.805404 0.596828 4.768976
1.748688 0.578079 5.634750
1.784801 0.590017 6.241508
1.932878 0.638968 6.629042
2.050660 0.677904 7.623464
2.003789 0.662410 8.043233
1.951388 0.645087 8.707168
1.940916 0.641625 9.302130
1.919862 0.634665 10.076703
1.455001 0.331486 1.266009
1.632228 0.371863 1.899978
1.707060 0.388911 2.623357
1.715704 0.390881 3.004894
1.717445 0.391277 3.509953
1.783149 0.406246 4.262106
1.901117 0.433122 5.077655
1.818637 0.414331 5.479968
1.801679 0.410468 5.944658
1.983133 0.451808 6.620497
1.988302 0.452985 7.111837
2.122081 0.483464 8.098840
2.050916 0.467250 8.409682
2.025105 0.461370 9.236710
1.076311 0.131551 1.053014
1.497729 0.183058 1.631004
1.792941 0.219140 2.013008
1.764023 0.215605 2.638519
1.767733 0.216059 3.220312
1.805703 0.220700 3.791255
1.869605 0.228510 4.648809
1.915068 0.234067 5.107365
1.823770 0.222908 5.750964
1.891581 0.231196 6.495384
2.094249 0.255967 6.854201
2.192869 0.268020 7.719537
2.163454 0.264425 8.307185
2.150257 0.262812 9.007214
2.144770 0.262142 9.685811
2.017740 0.246616 10.271621
1.662041 0.041923 1.138027
1.664103 0.041975 1.735737
1.786914 0.045073 2.455627
1.832117 0.046213 2.980597
1.823198 0.045988 3.389869
1.870874 0.047191 4.203881
1.897001 0.047850 4.743232
1.833788 0.046255 5.299472
1.862143 0.046971 5.888484
2.159854 0.054480 6.852002
2.253795 0.056850 7.375925
2.182121 0.055042 7.717045
2.100508 0.052983 8.401156
2.100306 0.052978 9.229632
2.043352 0.051541 9.731407
1.804926 0.045527 10.460624
1.538549 -0.106696 1.264025
1.801955 -0.124962 2.013008
1.775993 -0.123162 2.360884
1.813917 -0.125792 3.338251
1.864306 -0.129286 3.785289
1.923412 -0.133385 4.432181
1.919333 -0.133102 4.914800
1.826700 -0.126678 5.716567
1.807435 -0.125342 6.022782
2.025477 -0.140463 6.603406
2.099797 -0.145617 7.285456
2.103466 -0.145872 7.934752
2.194132 -0.152159 8.850502
2.165195 -0.150152 9.199891
1.017482 -0.176429 1.001738
1.536770 -0.266472 1.645796
1.825262 -0.316496 2.320918
1.854800 -0.321618 2.975892
1.843229 -0.319611 3.358759
1.868532 -0.323999 4.008528
1.878879 -0.325793 4.461411
1.871164 -0.324455 5.077051
1.962584 -0.340307 6.032760
2.147774 -0.372419 6.705263
2.143577 -0.371691 6.920068
2.201761 -0.381780 7.821459
2.128178 -0.369021 8.330642
2.127159 -0.368844 8.981685
2.053804 -0.356125 9.522743
1.967129 -0.341095 10.321422
1.016545 -0.272559 0.815916
1.412235 -0.378653 1.694469
1.806213 -0.484288 2.216020
1.801557 -0.483040 2.786945
1.808685 -0.484951 3.375937
1.835020 -0.492012 3.833799
1.861088 -0.499001 4.423607
1.872970 -0.502187 5.167369
1.927176 -0.516721 5.916858
2.023262 -0.542484 6.296459
2.134050 -0.572189 6.957145
2.097580 -0.562410 7.566498
2.086246 -0.559371 8.330642
2.059358 -0.552162 8.888026
2.145987 -0.575389 9.797381
1.974245 -0.529341 10.305795
1.473811 -0.558747 1.471134
1.819089 -0.689648 2.219325
1.746920 -0.662287 2.821306
1.695962 -0.642968 3.295230
1.816246 -0.688570 4.168250
1.847819 -0.700540 4.591403
1.819329 -0.689739 5.051950
1.769888 -0.670995 5.776329
1.909644 -0.723979 6.289244
2.115590 -0.802056 7.078993
2.102229 -0.796991 7.772943
2.029090 -0.769263 8.173204
2.036340 -0.772011 8.865837
2.055212 -0.779166 9.636995
1.987292 -0.753416 10.392463
1.729432 -0.848129 1.927890
1.735601 -0.851155 2.392568
1.720656 -0.843825 3.067898
1.715114 -0.841108 3.710704
1.737879 -0.852272 4.116826
1.821711 -0.893384 4.775885
1.761920 -0.864062 5.154749
1.826795 -0.895877 6.122058
1.919816 -0.941495 6.385233
1.993982 -0.977867 7.008117
1.955390 -0.958941 7.592017
1.916975 -0.940102 8.236990
1.920831 -0.941993 8.913577
1.980619 -0.971314 9.830380
1.849413 -0.906969 10.433213
1.647339 -1.020148 2.754623
1.690922 -1.047138 3.519349
1.691595 -1.047555 4.144562
1.703988 -1.055229 4.779651
1.691750 -1.047651 5.167814
1.621366 -1.004064 5.853561
1.734845 -1.074338 6.280701
1.964099 -1.216308 7.175117
1.893482 -1.172577 7.688051
1.872372 -1.159505 8.392205
1.820791 -1.127562 8.830103
1.844704 -1.142370 9.459596
1.784051 -1.104810 10.231206
1.663678 -1.277833 1.866018
1.567023 -1.203595 2.294617
1.579171 -1.212925 2.793042
1.550843 -1.191168 3.445050
1.532404 -1.177005 4.091110
1.567850 -1.204230 4.766298
1.663100 -1.277389 5.641936
1.595251 -1.225276 6.002389
1.702938 -1.307988 6.552093
1.879530 -1.443625 7.428958
1.774616 -1.363042 7.730504
1.676464 -1.287654 8.352061
1.730307 -1.329010 9.326093
1.690625 -1.298531 9.844426
1.513282 -1.162318 10.531446
1.585872 -1.466837 1.640324
1.464796 -1.354849 2.215803
1.483039 -1.371722 3.100935
1.432832 -1.325284 3.410783
1.438348 -1.330386 4.105014
1.509974 -1.396636 4.955275
1.548577 -1.432341 5.569317
1.500735 -1.388090 6.040404
1.620582 -1.498942 6.832782
1.710133 -1.581771 7.367088
1.654641 -1.530444 7.897846
1.636048 -1.513247 8.677268
1.566535 -1.448951 9.164383
1.557100 -1.440224 9.810348
1.408392 -1.302679 10.404147
1.460634 -1.654653 2.013041
1.350996 -1.530450 2.496050
1.351705 -1.531254 3.072848
1.329904 -1.506557 3.698989
1.308675 -1.482509 4.242017
1.344851 -1.523490 4.959183
1.362707 -1.543718 5.279258
1.471228 -1.666653 6.173455
1.482689 -1.679637 6.630091
1.506774 -1.706921 7.361679
1.496296 -1.695051 7.823851
1.448443 -1.640842 8.532816
1.403930 -1.590416 9.121787
1.423243 -1.612295 9.904035
1.273378 -1.442523 10.421298
1.109284 -1.525175 1.087031
1.238547 -1.702900 1.993913
1.181780 -1.624850 2.403979
1.166298 -1.603564 2.975040
1.174638 -1.615030 3.804596
1.198157 -1.647367 4.120928
1.202517 -1.653361 5.036075
1.258914 -1.730903 5.309371
1.458397 -2.005176 7.349294
1.303153 -1.791728 7.745025
1.302257 -1.790496 8.717967
1.278838 -1.758298 9.300576
1.244916 -1.711657 9.961776
1.042489 -1.433336 10.519445
0.907182 -1.549987 1.348816
0.994340 -1.698904 1.796405
1.012397 -1.729755 2.654005
1.006590 -1.719832 3.077729
0.991026 -1.693241 3.721976
0.951552 -1.625797 4.106148
1.151149 -1.966822 5.076676
1.270543 -2.170816 5.566473
1.191704 -2.036114 6.216813
1.034734 -1.767920 6.688840
1.021072 -1.744577 7.476342
1.053116 -1.799325 7.840947
1.071381 -1.830533 8.569657
1.076623 -1.839489 9.155865
0.751574 -1.641895 0.926099
0.852566 -1.862523 1.877537
0.832260 -1.818162 2.275686
0.809648 -1.768762 2.840323
0.782488 -1.709430 3.444640
0.809053 -1.767464 3.985072
0.971714 -2.122813 4.789935
1.090621 -2.382580 5.443689
1.061462 -2.318878 6.152287
0.944565 -2.063503 6.402602
0.844714 -1.845368 7.402191
0.792393 -1.731069 7.941066
0.842484 -1.840498 8.403524
0.889198 -1.942549 9.172901
0.837495 -1.829599 9.713175
0.732595 -1.600432 10.561826
0.613483 -1.760008 1.716212
0.674776 -1.935850 2.280609
0.624772 -1.792395 2.585208
0.624833 -1.792571 3.381855
0.675345 -1.937485 4.231973
0.804420 -2.307785 4.842156
0.876237 -2.513818 5.246493
0.834458 -2.393961 5.675814
0.779913 -2.237478 7.742651
0.645572 -1.852070 8.264489
0.651084 -1.867882 8.894845
0.652693 -1.872499 9.703457
0.583473 -1.673913 10.280591
0.418624 -1.748794 1.400472
0.444513 -1.856943 2.058119
0.429641 -1.794817 2.554919
0.431964 -1.804519 3.212705
0.538205 -2.248338 4.967016
0.599250 -2.503352 5.469202
0.562388 -2.349362 5.986279
0.529729 -2.212931 8.082187
0.448874 -1.875162 8.622557
0.468701 -1.957987 9.460379
0.243013 -1.696803 1.179395
0.266691 -1.862130 2.008234
0.259116 -1.809235 2.642959
0.260410 -1.818272 3.275437
0.296467 -2.070030 3.749914
0.337038 -2.353310 4.213803
0.347993 -2.429809 4.909609
0.350922 -2.450255 5.625906
0.338850 -2.365968 6.368947
0.316047 -2.206750 8.103258
0.272923 -1.905643 8.798814
0.277825 -1.939866 9.542016
0.264226 -1.844916 10.156039
0.081271 -1.895374 1.860768
0.079931 -1.864125 2.155890
0.075378 -1.757940 2.726807
0.092554 -2.158520 4.468865
0.100762 -2.349952 5.212460
0.092227 -2.150890 5.807830
0.084256 -1.964990 6.420289
0.081144 -1.892418 7.036552
0.076294 -1.779316 7.862214
0.072574 -1.692545 8.427242
0.077730 -1.812811 9.230075
0.080289 -1.872494 9.774739
0.075524 -1.761356 10.331430
-0.099582 -1.743155 1.350950
-0.105560 -1.847805 1.923886
-0.104659 -1.832034 2.728959
-0.099757 -1.746213 3.153875
-0.110071 -1.926763 3.873645
-0.129676 -2.269941 4.193361
-0.132045 -2.311416 4.827624
-0.091405 -1.600022 8.945122
-0.095212 -1.666668 9.357035
-0.098195 -1.718876 10.040121
-0.276254 -1.791287 2.107675
-0.252665 -1.638329 2.709460
-0.316286 -2.050857 4.576930
-0.325214 -2.108750 5.117886
-0.285145 -1.848935 5.931436
-0.255788 -1.658580 6.506313
-0.261027 -1.692551 8.496321
-0.231758 -1.502765 8.837152
-0.256125 -1.660766 9.740238
-0.235434 -1.526600 10.306830
-0.424075 -1.662968 2.166131
-0.403103 -1.580726 2.694280
-0.499766 -1.959779 4.733150
-0.509643 -1.998511 5.147089
-0.405394 -1.589712 5.786852
-0.338111 -1.325866 6.488133
-0.308413 -1.209409 7.125829
-0.254990 -0.999918 7.852283
-0.294983 -1.156747 8.588557
-0.358647 -1.406398 9.053500
-0.384391 -1.507349 9.759617
-0.363191 -1.424214 10.639511
-0.596229 -1.627824 1.619500
-0.600685 -1.639991 2.242040
-0.566410 -1.546413 2.579727
-0.718021 -1.960342 4.662249
-0.746585 -2.038328 5.339214
-0.608507 -1.661347 5.932709
-0.497703 -1.358829 6.499346
-0.529626 -1.445985 8.431097
-0.491182 -1.341027 9.154279
-0.525877 -1.435749 9.758268
-0.533184 -1.455701 10.324185
-0.506764 -1.060232 0.716196
-0.557360 -1.166085 1.273946
-0.673054 -1.408137 2.089642
-0.671588 -1.405069 2.709299
-0.656238 -1.372954 3.141472
-0.675011 -1.412231 3.980221
-0.824456 -1.724893 4.495726
-0.911313 -1.906611 5.147500
-0.807025 -1.688424 5.798021
-0.661117 -1.383161 6.292200
-0.595797 -1.246502 8.119281
-0.558048 -1.167525 8.862333
-0.586607 -1.227274 9.457777
-0.604577 -1.264870 10.189561
-0.697001 -1.168545 1.087692
-0.755555 -1.266713 1.920643
-0.762446 -1.278267 2.478885
-0.753597 -1.263431 3.137682
-0.824890 -1.382956 3.728528
-0.943069 -1.581086 4.164205
-1.022159 -1.713683 4.886108
-0.451716 -0.757316 7.654586
-0.510586 -0.856014 8.329824
-0.669063 -1.121706 8.811967
-0.701724 -1.176464 9.312798
-0.764417 -1.038793 1.203967
-0.871742 -1.184640 1.851061
-0.888322 -1.207171 2.609268
-0.856662 -1.164148 3.131425
-0.838974 -1.140110 3.566012
-1.026589 -1.395066 4.292753
-1.196494 -1.625957 4.873712
-0.519416 -0.705852 7.740087
-0.613197 -0.833295 8.376509
-0.772685 -1.050028 8.803223
-0.849970 -1.155053 9.530727
-0.798751 -1.085450 10.101148
-1.060944 -1.166184 1.479803
-0.967501 -1.063472 2.123960
-0.919485 -1.010693 2.822280
-1.165003 -1.280565 4.468728
-1.342748 -1.475940 5.351626
-1.190624 -1.308727 5.932709
-0.961705 -1.057100 7.792734
-0.864732 -0.950508 8.639226
-0.934130 -1.026790 8.920873
-0.905842 -0.995697 9.585527
-0.836863 -0.919875 10.268995
-0.798348 -0.728690 1.582300
-1.078198 -0.984123 2.078796
-0.975556 -0.890437 2.579854
-0.957921 -0.874340 3.154815
-0.784366 -0.715928 3.775043
-1.444224 -1.318212 4.953775
-0.602272 -0.549723 7.914256
-0.783709 -0.715329 8.379050
-0.987803 -0.901615 8.831548
-1.068826 -0.975569 9.574261
-0.942550 -0.860311 10.123712
-0.754604 -0.564471 1.278994
-0.877171 -0.656156 1.855186
-0.974485 -0.728950 2.535277
-0.971291 -0.726561 3.065716
-1.100602 -0.823290 3.862397
-1.277546 -0.955651 4.214272
-1.467984 -1.098106 4.981847
-1.301768 -0.973770 5.414685
-0.927527 -0.693824 6.065610
-0.706940 -0.528817 6.734263
-0.533231 -0.398876 7.386102
-0.797043 -0.596217 8.424366
-1.080623 -0.808346 8.781254
-1.130404 -0.845584 9.366830
-1.070341 -0.800654 10.066214
-0.673726 -0.409574 1.178299
-0.804249 -0.488922 1.784215
-1.026291 -0.623907 2.324801
-1.047418 -0.636751 3.197220
-0.997616 -0.606475 3.816128
-1.118596 -0.680021 4.145544
-1.425833 -0.866798 4.733548
-1.328282 -0.807495 5.293004
-0.984135 -0.598279 6.030472
-0.762066 -0.463279 6.898833
-0.608973 -0.370209 7.366182
-0.909459 -0.552882 8.190435
-1.176038 -0.714942 8.689538
-1.215884 -0.739165 9.316249
-0.605958 -0.289581 1.387919
-0.719996 -0.344079 1.907932
-1.038673 -0.496371 2.328406
-1.028572 -0.491544 3.090412
-0.980478 -0.468561 3.549246
-1.085204 -0.518608 4.480765
-1.263681 -0.603901 4.800318
-1.286231 -0.614677 5.430896
-1.001290 -0.478506 6.211494
-0.733551 -0.350556 7.008416
-0.665179 -0.317882 7.585406
-0.940952 -0.449672 8.308549
-1.226272 -0.586023 8.816175
-1.293048 -0.617935 9.351090
-1.169675 -0.558976 10.021247
-1.015347 -0.370377 0.938558
-1.152659 -0.420465 1.496078
-1.083278 -0.395157 2.354761
-1.024826 -0.373835 2.828836
-1.039716 -0.379266 3.502529
-0.966800 -0.352668 3.921985
-1.055333 -0.384963 4.805986
-1.245037 -0.454163 5.286246
-1.168329 -0.426181 6.113063
-0.790304 -0.288286 6.530381
-0.698473 -0.254788 7.275131
-1.041152 -0.379790 8.057689
-1.312634 -0.478821 8.478226
-1.357230 -0.495089 9.121278
-1.196843 -0.436583 9.693003
-0.944577 -0.344561 10.345118
-0.972214 -0.250974 0.878960
-1.129796 -0.291654 1.789416
-1.111599 -0.286956 2.284476
-1.057752 -0.273056 2.846440
-1.058880 -0.273347 3.379336
-1.102791 -0.284682 4.194355
-1.140791 -0.294492 4.663296
-1.210382 -0.312457 5.442713
-1.021588 -0.263720 6.057684
-0.796771 -0.205684 6.691171
-0.695119 -0.179443 7.159428
-1.070954 -0.276464 8.048891
-1.348415 -0.348090 8.460788
-1.257899 -0.324723 8.973982
-1.133165 -0.292523 9.695578
-0.983458 -0.253877 10.458656
-1.141369 -0.173836 1.552275
-0.929285 -0.141534 2.174833
-1.029246 -0.156759 2.531403
-1.037482 -0.158013 3.437427
-1.048299 -0.159661 3.971842
-1.124142 -0.171212 4.552647
-1.139866 -0.173607 5.161374
-1.032924 -0.157319 5.722629
-0.852370 -0.129820 6.507732
-0.751319 -0.114429 7.234125
-0.978291 -0.148998 7.675806
-1.368324 -0.208402 8.230140
-0.305116 -0.017168 0.943046
-0.518519 -0.029175 1.852356
-0.980274 -0.055156 2.411680
-1.005630 -0.056583 3.014107
-1.015410 -0.057133 3.601557
-1.116985 -0.062848 4.420769
-1.142356 -0.064276 4.775940
-1.095974 -0.061666 5.441377
-0.880059 -0.049517 6.347381
-0.708521 -0.039866 6.760881
-0.949141 -0.053404 7.619705
-1.179459 -0.066363 7.936940
-1.414824 -0.079606 8.743992
-1.230097 -0.069212 9.286402
-1.037347 0.036008 1.160447
-1.196532 0.041534 1.391972
-1.130300 0.039235 2.029601
-1.053296 0.036562 2.690052
-0.988949 0.034328 3.345605
-1.028932 0.035716 4.127905
-1.182641 0.041052 4.868841
-1.093961 0.037974 5.270073
-0.825249 0.028646 5.917140
-0.701863 0.024363 6.725253
-0.587634 0.020398 7.150450
-0.934181 0.032427 7.875881
-1.426638 0.049521 8.591513
-1.362750 0.047304 9.201129
-1.225628 0.042544 9.879804
-1.090011 0.037836 10.687776
-0.937915 0.125899 2.601105
-0.966586 0.129748 3.204300
-1.000256 0.134268 3.754375
-1.009391 0.135494 4.236954
-1.035152 0.138952 4.952989
-0.962271 0.129169 5.590044
-0.868479 0.116579 6.320801
-0.729423 0.097913 6.764712
-0.937735 0.125875 7.490259
-1.304275 0.175077 8.266314
-1.321429 0.177380 8.626225
-1.320193 0.177214 9.361721
-1.164512 0.156316 10.300612
-8.000873 1.918070 0.723941
-0.594180 0.142444 2.125124
-0.914809 0.219309 2.530367
-0.913027 0.218882 3.341901
-0.916015 0.219599 3.824924
-0.979382 0.234790 4.526011
-1.036974 0.248596 5.093976
-0.794503 0.190468 5.726352
-0.668743 0.160319 6.653973
-0.803846 0.192708 7.303183
-1.023902 0.245463 7.725972
-1.264425 0.303124 8.205114
-1.390431 0.333332 9.069033
-1.339839 0.321203 9.861905
-0.987234 0.236672 10.293402
-0.301034 0.102024 1.303628
-0.638575 0.216420 1.933073
-0.892528 0.302487 2.210205
-0.877794 0.297494 2.959141
-0.851187 0.288476 3.668519
-0.966870 0.327682 4.443172
-0.982553 0.332998 4.737708
-0.982188 0.332874 5.678551
-0.816229 0.276629 6.112266
-0.662953 0.224682 6.958210
-0.534820 0.181256 7.616086
-0.796932 0.270089 8.124331
-1.282641 0.434700 8.798716
-1.353969 0.458874 9.427814
-0.573704 0.260223 0.915924
-0.728899 0.330617 1.471435
-0.964665 0.437557 2.441354
-0.951645 0.431651 2.877277
-0.795536 0.360843 3.438215
-0.939201 0.426007 4.333974
-1.072855 0.486631 4.833731
-0.857602 0.388995 6.648313
-0.443999 0.201391 7.275755
-0.748241 0.339390 8.044477
-1.184433 0.537241 8.503860
-1.241798 0.563260 9.201129
-1.090178 0.494488 9.869605
-0.817504 0.370807 10.820506
-0.666903 0.388648 1.392567
-0.890452 0.518924 2.027067
-0.897147 0.522826 2.496139
-0.773626 0.450842 3.158555
-1.017803 0.593140 3.903925
-1.305387 0.760735 4.517573
-1.204660 0.702034 5.086949
-1.024467 0.597024 7.075239
-0.724687 0.422322 7.580506
-1.016212 0.592213 8.424194
-1.210990 0.705723 9.152450
-1.202659 0.700868 9.476855
-0.988582 0.576111 10.203996
-0.896399 0.640436 1.960785
-0.796736 0.569231 2.696274
-0.587548 0.419776 3.184401
-1.369340 0.978331 4.484362
-1.213726 0.867152 5.062544
-1.011614 0.722752 7.218875
-0.830053 0.593035 8.014129
-1.034098 0.738816 8.586720
-1.106210 0.790336 9.004159
-1.028299 0.734673 9.572022
-0.814063 0.581611 10.492830
-0.551947 0.485505 1.082222
-0.576243 0.506876 1.811610
-0.816858 0.718526 2.138388
-0.810606 0.713027 2.696783
-1.034853 0.910280 3.455400
-1.327335 1.167553 4.182644
-1.221626 1.074570 4.792874
-0.970107 0.853328 5.237840
-0.841394 0.740109 5.999900
-0.614678 0.540684 6.793875
-0.360125 0.316774 7.239885
-0.626828 0.551372 8.097718
-0.975277 0.857876 8.785734
-0.974597 0.857277 9.153743
-0.509725 0.538967 1.269083
-0.546899 0.578273 1.872403
-0.709801 0.750520 2.425603
-0.685972 0.725324 2.917021
-0.994143 1.051174 3.835998
-0.356555 0.377010 7.749550
-0.532708 0.563268 8.065363
-0.937268 0.991036 8.927591
-0.922301 0.975210 9.396660
-0.765275 0.809176 10.107288
-0.800016 1.038206 2.097290
-1.009541 1.310113 4.083362
-1.182954 1.535157 4.675791
-1.132074 1.469128 5.269549
-0.461188 0.598499 7.985346
-0.647663 0.840492 8.379050
-0.784262 1.017762 9.015721
-0.727838 0.944538 9.507369
-0.647034 0.839676 10.269433
-0.397690 0.637098 0.761228
-0.543910 0.871343 1.505377
-0.705456 1.130138 2.043243
-0.881957 1.412894 3.976448
-1.015857 1.627401 4.363581
-0.966403 1.548176 5.088997
-0.289434 0.463673 7.648594
-0.520361 0.833617 8.474828
-0.653372 1.046701 8.926132
-0.659133 1.055930 9.682712
-0.647637 1.037513 10.449744
-0.537781 1.075938 0.829673
-0.571069 1.142538 1.502504
-0.580727 1.161861 2.291358
-0.761750 1.524032 4.270212
-0.833164 1.666911 4.511391
-0.743739 1.487998 5.186049
-0.322948 0.646123 8.059570
-0.418762 0.837816 8.496330
-0.538962 1.078300 9.284572
-0.597277 1.194972 9.980132
-0.482728 0.965793 10.331087
-0.475092 1.248280 2.095658
-0.640847 1.683791 4.055598
-0.742966 1.952103 4.496557
-0.619887 1.628721 5.049204
-0.272646 0.716364 8.029806
-0.368685 0.968701 8.677784
-0.411603 1.081465 9.023189
-0.462617 1.215501 9.694519
-0.429638 1.128852 10.483787
-0.353071 1.294169 2.183002
-0.319892 1.172550 2.817923
-0.276329 1.012874 3.196917
-0.605577 2.219719 4.734454
-0.530125 1.943151 5.313224
-0.154126 0.564944 7.705512
-0.244266 0.895349 8.659483
-0.317637 1.164287 9.198733
-0.359186 1.316580 9.904186
-0.320407 1.174440 10.432211
-0.180332 1.050192 1.230024
-0.213762 1.244883 2.135575
-0.229454 1.336266 2.700084
-0.276048 1.607615 2.973453
-0.285124 1.660470 3.719783
-0.312501 1.819904 4.391081
-0.359685 2.094691 5.066774
-0.302354 1.760813 5.751324
-0.105839 0.616374 8.187786
-0.185187 1.078468 8.700032
-0.238644 1.389787 9.537877
-0.222047 1.293131 9.987569
-0.081479 1.089908 1.290685
-0.093741 1.253928 1.608761
-0.103177 1.380146 2.425588
-0.141194 1.888693 4.183408
-0.169209 2.263428 4.860749
-0.159775 2.137238 5.326402
-0.083714 1.119805 8.900149
-0.102779 1.374832 9.253483
0.037149 1.375884 1.480379
0.038867 1.439528 2.158788
0.037346 1.383192 2.732873
0.042229 1.564036 3.549374
0.054249 2.009244 4.107086
0.060885 2.255038 4.429238
0.058510 2.167045 5.016233
0.057118 2.115490 6.017681
0.022636 0.838387 8.417797
0.034295 1.270207 9.057501
0.037472 1.387879 9.639421
0.034114 1.263500 10.494558
0.146239 1.252476 1.099844
0.161486 1.383065 1.794371
0.171765 1.471099 2.383245
0.165511 1.417533 2.939853
0.188233 1.612139 3.621751
0.232569 1.991865 3.873026
0.269400 2.307307 4.713756
0.261270 2.237674 5.072220
0.253022 2.167030 5.960982
0.100604 0.861634 8.429261
0.155349 1.330505 9.208037
0.156685 1.341946 9.688781
0.135228 1.158173 10.516849
0.306214 1.372419 0.946547
0.341600 1.531010 1.810582
0.326845 1.464883 2.311865
0.316910 1.420356 2.972373
0.375707 1.683874 3.409183
0.437217 1.959557 4.089982
0.473290 2.121232 4.727767
0.498601 2.234673 5.292703
0.468723 2.100764 5.667111
0.199026 0.892011 8.606393
0.321425 1.440589 9.319646
0.302643 0.941520 1.188730
0.453844 1.411907 2.051086
0.446534 1.389166 2.735189
0.440629 1.370794 3.325474
0.383909 1.194338 3.699291
0.709217 2.206371 5.157340
0.679048 2.112515 5.470958
0.449830 1.399419 8.841823
0.437490 1.361029 9.427814
0.430721 1.339969 10.206994
1.979034 -0.051318 1.950973
1.927294 -0.049976 2.701666
1.919788 -0.049782 3.517589
1.899123 -0.049246 4.420320
1.856733 -0.048147 5.300149
1.968361 -0.051041 6.093967
2.140645 -0.055509 6.825707
2.132644 -0.055301 7.412802
1.999758 -0.051856 8.026141
1.970422 -0.051095 8.804493
2.053572 -0.053251 9.624526
1.968962 -0.051057 10.211943
1.519820 -0.039410 10.776066
1.970932 -0.220391 1.881621
1.905424 -0.213066 2.727078
1.955432 -0.218657 3.330618
1.976483 -0.221011 4.106928
1.992897 -0.222847 4.944084
2.113024 -0.236279 5.763154
2.149565 -0.240366 6.841040
2.177158 -0.243451 7.202667
1.995073 -0.223090 8.207032
2.024313 -0.226360 8.739402
2.107725 -0.235687 9.295921
1.954443 -0.218547 10.228860
1.568073 -0.175343 10.732436
2.257495 -0.462833 1.418503
1.955007 -0.400816 2.350827
1.921300 -0.393906 3.013039
1.920757 -0.393795 3.689406
1.908219 -0.391224 4.581352
1.857343 -0.380793 5.501304
2.009666 -0.412023 6.165783
2.144919 -0.439752 7.021248
2.123510 -0.435363 7.575084
1.982804 -0.406515 8.460905
1.928622 -0.395407 9.290717
1.908115 -0.391203 9.779207
1.857483 -0.543737 2.555216
1.861456 -0.544900 3.132495
1.920663 -0.562231 3.792534
1.928490 -0.564523 4.632029
1.919064 -0.561763 5.347773
1.943202 -0.568829 6.425090
2.056248 -0.601921 7.189334
2.042298 -0.597837 7.627582
1.981151 -0.579938 8.399139
1.909830 -0.559060 9.436046
1.847800 -0.540902 9.897743
1.808979 -0.705922 1.974679
1.752725 -0.683970 3.010048
1.767853 -0.689874 3.713701
1.748877 -0.682469 4.556014
1.818617 -0.709684 5.331898
1.797724 -0.701530 5.802517
1.802580 -0.703426 6.729475
2.000103 -0.780505 7.362334
1.841801 -0.718731 8.226503
1.832857 -0.715241 8.936755
1.883047 -0.734826 9.407236
1.699311 -0.663126 10.466168
1.270424 -0.495761 10.972120
1.655204 -0.817548 0.924736
1.734323 -0.856627 1.991612
1.771576 -0.875028 2.781384
1.722064 -0.850572 3.654381
1.760454 -0.869534 4.318817
1.843461 -0.910534 5.103369
1.922377 -0.949512 5.870980
1.937404 -0.956934 6.758440
1.908701 -0.942757 7.429630
1.805954 -0.892008 8.074389
1.779038 -0.878713 8.860649
1.796991 -0.887581 9.491697
1.705123 -0.842205 10.024840
1.243959 -0.614424 10.816963
1.620952 -0.977528 2.336640
1.580828 -0.953331 3.163728
1.583219 -0.954772 3.840963
1.475107 -0.889574 4.692568
1.786986 -1.077655 5.245609
1.902700 -1.147438 6.291908
1.802784 -1.087183 6.951946
1.767755 -1.066058 7.574819
1.734653 -1.046096 8.238251
1.753894 -1.057699 8.919033
1.697554 -1.023723 9.601565
1.660266 -1.217525 2.267902
1.514419 -1.110571 3.018531
1.525970 -1.119041 3.867268
1.872427 -1.373109 4.649494
2.007218 -1.471956 5.539404
1.866794 -1.368978 6.329580
1.648152 -1.208641 7.171107
1.597244 -1.171309 7.597975
1.613916 -1.183535 8.232377
1.618542 -1.186927 8.989672
1.520708 -1.115183 9.837635
1.343149 -1.188196 1.633283
1.360335 -1.203400 2.644835
1.293948 -1.144672 3.461500
1.225897 -1.084472 3.906703
1.877611 -1.661001 5.886008
1.695850 -1.500208 6.496992
1.494706 -1.322270 7.157788
1.439872 -1.273761 7.925775
1.463715 -1.294854 8.765198
1.465715 -1.296623 9.473377
1.408325 -1.245854 10.003368
1.124401 -0.994684 10.579328
1.179201 -1.253302 1.672355
1.305558 -1.387599 2.562405
1.667233 -1.772001 6.201461
1.495494 -1.589470 6.773820
1.270039 -1.349847 7.109341
1.170614 -1.244175 8.062158
1.295351 -1.376751 8.822079
1.298829 -1.380447 9.399212
1.218937 -1.295535 10.002304
0.936509 -0.995359 10.628142
1.101568 -1.380895 1.692850
1.214308 -1.522223 2.400146
1.181245 -1.480776 3.044938
0.889004 -1.114430 3.758264
1.585162 -1.987115 5.778023
1.388591 -1.740699 6.622732
1.141967 -1.431537 7.002518
1.052725 -1.319667 7.730743
1.121088 -1.405364 8.551244
1.115510 -1.398372 9.421812
1.078620 -1.352128 9.993289
0.925183 -1.159784 10.532341
1.017662 -1.522539 2.289990
0.965790 -1.444932 3.030895
0.989744 -1.480771 3.668659
1.380095 -2.064781 5.556038
1.249898 -1.869990 6.373593
1.102280 -1.649137 6.651856
0.760119 -1.137225 7.178878
0.977532 -1.462500 8.953608
0.975193 -1.459000 9.592048
0.931479 -1.708578 2.027111
0.866945 -1.590206 2.852163
0.850972 -1.560906 3.677169
1.146766 -2.103470 5.582359
1.062000 -1.947987 6.217439
0.942397 -1.728603 6.702592
0.648079 -1.188748 7.230621
0.661067 -1.212571 7.927178
0.839228 -1.539365 8.863118
0.831276 -1.524778 9.685756
0.742649 -1.362213 10.429001
0.499556 -0.916317 10.915131
0.723991 -1.681139 2.229099
0.667740 -1.550520 3.020613
0.622751 -1.446055 3.510020
0.893592 -2.074958 5.360092
0.764368 -1.774896 6.212449
0.632321 -1.468277 8.089713
0.600785 -1.395047 9.000301
0.628655 -1.459764 9.657306
0.460490 -1.387662 1.885419
0.545907 -1.645059 2.519732
0.557727 -1.680679 3.488270
0.664944 -2.003770 4.497202
0.714829 -2.154096 5.251534
0.585060 -1.763046 5.947583
0.500687 -1.508792 6.573772
0.513831 -1.548402 7.451609
0.421702 -1.270774 7.889312
0.403440 -1.215742 8.568826
0.512647 -1.544832 9.335853
0.485639 -1.463446 10.047462
0.393780 -1.186633 10.564985
0.359749 -1.527120 1.583484
0.376150 -1.596742 2.741642
0.410018 -1.740510 3.308218
0.482824 -2.049567 4.294552
0.391303 -1.661064 6.709522
0.346573 -1.471189 7.318901
0.288125 -1.223078 7.703442
0.285751 -1.213000 8.724533
0.358053 -1.519921 9.669701
0.341467 -1.449514 10.347823
0.253365 -1.075523 10.844315
0.265220 -1.763926 2.148222
0.243387 -1.618715 2.750190
0.221737 -1.474726 3.586318
0.235879 -1.568785 6.674911
0.148507 -0.987690 7.107221
0.132795 -0.883195 8.029283
0.193091 -1.284209 8.835699
0.223456 -1.486158 9.578231
0.100719 -1.587664 1.293722
0.101991 -1.607711 2.296310
0.095886 -1.511489 3.049977
0.080311 -1.265964 3.678929
0.123602 -1.948381 5.650938
0.100317 -1.581330 6.414116
0.076609 -1.207614 6.903357
0.050135 -0.790289 7.501891
0.062779 -0.989598 8.264767
0.088701 -1.398225 9.074122
0.092480 -1.457797 9.935113
0.081750 -1.288644 10.624855
-0.039220 -1.486063 1.401565
-0.039878 -1.511005 2.466494
-0.040721 -1.542937 2.911921
-0.027665 -1.048253 3.694977
-0.047357 -1.794407 5.731355
-0.035708 -1.353024 6.401911
-0.030720 -1.164025 6.787808
-0.018054 -0.684069 7.418104
-0.034622 -1.311846 9.010332
-0.036619 -1.387518 9.779137
-0.031907 -1.208985 10.504967
-0.158120 -1.419486 1.530528
-0.175393 -1.574557 2.295037
-0.157576 -1.414604 3.143110
-0.167520 -1.503874 4.094793
-0.203706 -1.828725 4.886580
-0.186081 -1.670504 5.515639
-0.148721 -1.335113 6.173423
-0.120092 -1.078103 6.887325
-0.077267 -0.693648 7.365265
-0.145978 -1.310483 9.101844
-0.148397 -1.332199 10.037827
-0.131098 -1.176900 10.661002
-0.288086 -1.421716 1.239680
-0.293676 -1.449302 2.351416
-0.296861 -1.465022 3.032051
-0.252012 -1.243690 3.748325
-0.355406 -1.753941 5.748368
-0.310595 -1.532801 6.221290
-0.224539 -1.108107 6.815791
-0.127442 -0.628933 7.585574
-0.267650 -1.320861 9.332729
-0.263011 -1.297970 9.847582
-0.225642 -1.113553 10.644458
-0.338048 -1.139444 2.012837
-0.366791 -1.236328 2.939306
-0.269765 -0.909287 3.677203
-0.569539 -1.919723 5.339324
-0.446108 -1.503678 6.035330
-0.284381 -0.958551 6.543667
-0.165797 -0.558844 7.410876
-0.389248 -1.312022 8.986207
-0.369616 -1.245849 9.708801
-0.333285 -1.123391 10.275805
-0.381998 -0.978421 1.579873
-0.481369 -1.232940 2.397497
-0.428685 -1.097999 3.286215
-0.664481 -1.701949 5.233279
-0.565753 -1.449076 5.824498
-0.365454 -0.936045 6.526223
-0.291296 -0.746104 7.072759
-0.362859 -0.929398 7.915859
-0.492911 -1.262504 8.694302
-0.496101 -1.270675 9.506379
-0.435667 -1.115882 10.271355
-0.332406 -0.851397 10.770332
-0.576856 -1.169447 2.124045
-0.566414 -1.148278 2.895364
-0.619136 -1.255160 3.827142
-0.763367 -1.547556 4.684043
-0.808460 -1.638973 5.469383
-0.599455 -1.215262 6.308556
-0.376700 -0.763676 6.699952
-0.393174 -0.797072 7.526632
-0.542804 -1.100413 8.356157
-0.602984 -1.222416 9.012074
-0.542012 -1.098810 9.972418
-0.456490 -0.925432 10.663565
-0.439583 -0.724813 1.667967
-0.587984 -0.969507 2.592864
-0.548642 -0.904636 3.459327
-0.882008 -1.454313 5.295170
-0.721896 -1.190310 5.678231
-0.483387 -0.797041 6.239754
-0.365588 -0.602805 7.141289
-0.529598 -0.873236 7.819942
-0.669731 -1.104296 8.987863
-0.701241 -1.156252 9.566751
-0.610522 -1.006669 10.392750
-0.414138 -0.682857 10.698588
-0.706853 -0.957092 2.136607
-0.647777 -0.877101 3.101023
-0.598208 -0.809984 3.878018
-0.773064 -1.046742 4.534207
-0.854239 -1.156655 5.616959
-0.644708 -0.872946 5.991016
-0.386694 -0.523591 6.862030
-0.521858 -0.706605 7.877467
-0.763305 -1.033528 8.551536
-0.814574 -1.102948 9.094833
-0.724557 -0.981064 9.863984
-0.599185 -0.811307 10.650936
-0.744669 -0.836384 2.301528
-0.681596 -0.765543 3.336510
-0.673884 -0.756881 3.860579
-0.769728 -0.864530 4.949879
-0.833739 -0.936424 5.700912
-0.558935 -0.627775 6.374487
-0.452082 -0.507761 6.851017
-0.592689 -0.665686 7.824945
-0.859595 -0.965464 8.516962
-0.822129 -0.923384 9.508240
-0.793599 -0.891341 9.868119
-0.571330 -0.641696 10.797742
-0.809712 -0.769653 2.115827
-0.775377 -0.737017 3.153225
-0.808032 -0.768056 3.590729
-0.815392 -0.775052 4.432853
-0.855741 -0.813405 5.275736
-0.653793 -0.621448 6.078402
-0.487615 -0.463492 6.782700
-0.655283 -0.622864 7.567806
-0.891097 -0.847012 8.457029
-0.986621 -0.937810 9.020698
-0.901810 -0.857195 9.868518
-0.756628 -0.719195 10.433057
-0.826732 -0.658076 2.387539
-0.799618 -0.636494 3.275162
-0.793563 -0.631674 3.930282
-0.794618 -0.632514 4.979522
-0.886296 -0.705489 5.586225
-0.679687 -0.541029 6.278106
-0.531912 -0.423401 6.851017
-0.681396 -0.542390 8.014698
-1.096077 -0.872474 8.604951
-1.065470 -0.848111 9.389411
-0.882911 -0.702795 10.232615
-0.684961 -0.545227 10.692641
-0.742319 -0.490583 1.634210
-0.892461 -0.589809 2.617313
-0.874378 -0.577858 3.415520
-0.855576 -0.565432 4.191194
-0.894877 -0.591405 5.124441
-0.780561 -0.515856 5.629251
-0.524131 -0.346387 6.570589
-0.745208 -0.492492 7.509128
-1.107279 -0.731777 8.041998
-1.132124 -0.748197 8.920611
-1.041803 -0.688505 9.708133
-0.889072 -0.587569 10.454549
-0.559107 -0.369502 10.876948
-0.730494 -0.392180 1.523832
-0.918186 -0.492946 2.422374
-0.940202 -0.504766 3.091824
-0.882317 -0.473689 3.965163
-0.983788 -0.528166 4.683576
-0.958521 -0.514601 5.562365
-0.742811 -0.398793 6.365721
-0.635188 -0.341014 6.796032
-0.787820 -0.422957 7.918400
-1.220681 -0.655347 8.673871
-1.171293 -0.628832 9.553344
-1.038661 -0.557626 10.089351
-0.768923 -0.412812 10.710154
-0.527300 -0.229662 0.869699
-0.679159 -0.295803 1.788487
-0.926879 -0.403696 2.694961
-0.966930 -0.421139 3.468034
-0.913970 -0.398073 4.495357
-0.930859 -0.405429 5.298647
-0.771010 -0.335808 5.849398
-0.496965 -0.216449 6.507979
-0.787628 -0.343046 7.341512
-1.178862 -0.513445 8.214772
-1.174016 -0.511334 9.039729
-1.104458 -0.481039 9.807443
-0.942876 -0.410663 10.224348
-0.497452 -0.216661 10.884952
-0.607116 -0.200236 0.909766
-0.783242 -0.258325 1.720569
-0.892537 -0.294371 2.737242
-0.970588 -0.320114 3.275162
-0.936685 -0.308932 4.226328
-1.012658 -0.333989 5.064322
-0.928616 -0.306271 5.661725
-0.650463 -0.214532 6.462829
-0.657730 -0.216929 7.090827
-0.954492 -0.314805 7.991534
-1.254988 -0.413913 8.967153
-1.206357 -0.397874 9.595663
-0.988139 -0.325903 10.154645
-0.733682 -0.241979 10.703517
-0.990627 -0.229271 2.483374
-0.975071 -0.225670 3.055504
-0.911194 -0.210887 4.000335
-1.035947 -0.239760 4.684619
-1.023222 -0.236814 5.598311
-0.914948 -0.211756 6.041896
-0.684095 -0.158327 6.677009
-0.799500 -0.185036 7.798253
-1.228941 -0.284426 8.318544
-1.311303 -0.303488 9.341356
-1.288389 -0.298185 9.722097
-0.946340 -0.219021 10.412074
-0.422425 -0.097766 11.113436
-0.898674 -0.122826 1.348666
-1.066193 -0.145722 2.405875
-1.038653 -0.141958 3.003723
-1.043335 -0.142598 3.825725
-1.011954 -0.138309 4.884354
-1.105183 -0.151051 5.724084
-0.959280 -0.131110 6.383196
-0.654506 -0.089455 6.826765
-0.817967 -0.111796 7.883138
-1.252082 -0.171128 8.419346
-1.257273 -0.171838 9.343826
-1.157427 -0.158191 10.150076
-0.900699 -0.123103 10.482600
-1.013548 -0.050238 2.164800
-1.085603 -0.053809 3.109721
-1.194637 -0.059214 3.799986
-1.228244 -0.060880 4.586809
-1.155204 -0.057259 5.593806
-0.954366 -0.047304 6.161116
-0.681684 -0.033789 6.747459
-0.861064 -0.042680 7.631707
-1.211516 -0.060050 8.416793
-1.323512 -0.065602 9.193272
-1.184030 -0.058688 9.911472
-0.889047 -0.044067 10.443558
-0.901587 0.032904 1.982655
-1.015094 0.037046 2.950344
-1.233183 0.045005 3.912864
-1.213790 0.044298 4.630117
-1.200750 0.043822 5.292205
-1.077863 0.039337 6.273606
-0.691442 0.025234 6.901660
-0.799946 0.029194 7.569498
-1.111448 0.040563 8.521617
-1.315389 0.048005 9.236446
-1.248172 0.045552 9.842553
-0.889546 0.032464 10.443558
-0.914848 0.109857 1.439027
-1.076944 0.129322 2.450292
-1.074226 0.128996 2.986868
-1.236753 0.148512 4.025450
-1.548595 0.185959 5.009536
-1.497155 0.179782 5.809479
-1.012671 0.121604 6.473910
-0.563054 0.067613 7.076229
-0.823932 0.098940 7.865599
-1.209158 0.145199 8.854419
-1.241479 0.149080 9.699478
-0.976003 0.117201 10.342246
-0.543906 0.065314 11.021283
-1.095934 0.228836 2.627615
-1.427335 0.298034 3.395460
-1.559594 0.325650 4.608412
-1.405942 0.293567 5.378758
-1.268663 0.264903 5.733251
-0.817233 0.170642 6.666889
-0.695533 0.145230 7.218101
-0.951818 0.198744 8.020575
-1.138176 0.237656 9.114531
-1.196743 0.249885 9.712139
-0.970549 0.293711 2.102711
-0.959109 0.290249 2.650633
-1.422163 0.430381 4.763357
-1.380099 0.417651 5.361553
-1.283292 0.388355 6.182052
-0.798599 0.241675 6.761308
-0.603795 0.182723 7.526526
-0.795541 0.240750 8.633028
-1.152732 0.348844 9.411948
-1.101846 0.333445 10.102353
-0.823551 0.249226 10.627440
-1.132357 0.447101 2.718430
-1.424632 0.562504 3.690445
-1.660622 0.655682 4.369099
-1.431763 0.565319 5.069543
-1.207454 0.476753 5.809871
-0.812714 0.320893 6.621115
-0.618189 0.244087 7.394251
-0.869597 0.343353 8.177804
-1.106534 0.436905 8.866476
-0.989753 0.390795 9.880298
-0.919851 0.457292 1.632144
-1.160205 0.576781 2.659558
-1.460840 0.726238 3.364537
-1.627959 0.809318 4.207426
-1.452845 0.722263 5.135832
-1.403233 0.697599 5.705546
-0.970237 0.482341 6.614739
-0.550466 0.273657 6.899552
-0.580160 0.288419 7.979823
-0.949209 0.471887 8.756485
-1.067333 0.530611 9.346378
-0.989773 0.492053 10.219676
-0.614459 0.305470 10.771227
-1.386675 0.841316 2.270648
-1.069077 0.648625 3.104276
-1.206472 0.731984 4.154859
-1.290839 0.783171 4.694665
-1.188382 0.721008 5.439872
-1.155202 0.700878 6.147540
-0.770849 0.467685 6.893098
-0.545222 0.330794 7.809307
-0.707723 0.429386 9.255103
-0.996147 0.604377 10.167430
-0.739202 0.448484 10.601161
-0.925188 0.669206 1.013667
-0.941007 0.680648 1.949636
-1.011248 0.731455 2.841985
-1.200094 0.868051 3.965645
-1.406721 1.017508 4.505336
-1.329745 0.961829 5.237259
-1.144175 0.827604 6.118967
-0.785934 0.568481 6.648383
-0.605534 0.437994 7.274789
-0.672109 0.486149 8.411657
-0.969257 0.701082 9.076264
-1.020018 0.737798 10.067820
-0.866237 0.626566 10.589128
-1.067720 0.930997 2.628768
-1.244616 1.085240 3.657788
-1.368025 1.192847 4.581611
-1.139362 0.993464 5.469973
-1.048353 0.914109 5.848342
-0.840404 0.732788 6.595526
-0.556348 0.485106 7.309958
-0.596697 0.520289 8.023529
-0.773267 0.674248 9.158824
-0.960957 0.837904 9.704140
-0.855369 0.895093 1.465809
-1.008269 1.055094 2.333052
-0.870478 0.910904 3.148111
-1.285521 1.345222 4.903282
-1.046572 1.095176 5.622673
-0.923203 0.966078 6.640208
-0.801161 0.838368 6.992098
-0.586508 0.613746 7.684277
-0.614035 0.642552 8.489539
-0.850322 0.889812 9.668837
-0.886937 0.928127 10.214859
-0.584943 0.612109 10.715063
-0.861286 1.049312 2.381316
-0.892189 1.086961 3.186156
-1.244189 1.515806 4.919194
-0.992786 1.209520 5.468321
