1.433701 -0.166271 0.940327
1.297552 -0.378411 1.220738
1.630403 -0.791353 0.666159
1.648725 -0.800247 -0.332862
1.550236 -0.914240 1.156654
1.405462 -0.828861 0.196894
1.474937 -0.869833 -0.668014
1.492309 -1.067612 0.518863
1.570772 -1.123745 -0.126918
1.164455 -0.984047 1.155628
1.151179 -0.972828 0.276605
1.133456 -0.957851 -0.454728
0.935706 -0.944288 1.300996
1.204178 -1.215222 0.579608
1.553460 -1.567708 -0.251884
0.860332 -1.021848 1.469741
1.170071 -1.389737 0.871850
0.957305 -1.365917 0.924664
0.965048 -1.376964 0.157297
0.712882 -1.212447 1.357755
0.880747 -1.497947 0.687182
0.512822 -1.349687 0.960119
0.526324 -1.385222 0.227369
0.352498 -1.248729 1.093258
0.361894 -1.282016 0.268015
0.292407 -1.475565 1.294745
0.133781 -1.163456 1.047157
-0.084750 -1.505923 1.403412
-0.162267 -1.111738 1.128456
-0.185038 -1.267745 0.059641
-0.380636 -1.212160 1.024408
-0.481183 -1.532361 0.019703
-0.550283 -1.318749 1.287524
-0.691802 -1.347545 0.790244
-0.813461 -1.584521 0.009804
-0.681787 -1.080144 1.243136
-0.804177 -1.274044 0.187697
-0.773624 -1.025578 1.441941
-1.003059 -1.133389 0.730984
-1.180496 -1.333880 0.088234
-0.820033 -0.776732 1.308139
-1.053103 -0.849393 1.260421
-1.126283 -0.754762 1.339783
-1.004819 -0.357290 0.870054
-1.121303 -0.299196 1.466829
-1.165715 -0.202451 1.406028
-1.554723 -0.143160 -0.611613
-1.071134 0.169130 1.439854
-0.755490 0.332871 1.198088
-0.977531 0.528738 0.619221
-1.126871 0.609515 -0.039761
-0.728795 0.483472 1.166313
-0.791366 0.621159 1.352665
-0.727401 0.672356 0.831756
-0.812402 0.750925 -0.109867
-0.656916 0.725248 1.283429
-0.421845 0.547101 0.848647
-0.492258 0.638421 0.050349
-0.583351 0.915068 1.459841
-0.636535 0.998494 0.468458
-0.957771 1.502397 -0.205880
-0.441750 0.836767 1.053599
-0.506025 0.958516 0.449752
-0.506661 0.959722 -0.549690
-0.321671 0.747811 0.765245
-0.437255 1.016517 -0.179782
-0.225534 0.684241 1.029761
-0.236754 0.718283 0.110917
-0.219734 0.918625 0.993408
-0.251992 1.053483 0.389787
-0.161403 1.019435 1.381770
-0.049423 0.717382 0.979295
-0.048591 0.705318 0.252423
0.016079 1.051988 1.240802
0.033350 2.181911 -0.271451
0.066401 0.710778 0.757222
0.070350 0.753048 -0.121000
0.186072 1.012246 1.301702
0.232230 1.263350 0.496994
0.308862 1.680229 -0.402788
0.214663 0.785909 0.795447
0.199283 0.729600 -0.121000
0.318598 0.870364 1.234991
0.371785 1.015663 0.179905
0.493451 1.072073 1.326289
0.599277 1.301992 0.395964
0.431073 0.753086 0.925064
0.450153 0.786419 0.030127
0.617376 0.887336 1.349905
0.762098 1.095341 0.486387
1.104819 1.587923 -0.488132
0.555213 0.675741 1.166313
0.592239 0.720805 0.361277
0.734493 0.757195 1.320820
0.946971 0.976240 0.535647
1.097895 0.967731 0.731993
1.054895 0.929829 0.069343
0.821882 0.603713 1.001395
0.871640 0.640262 0.169910
0.915647 0.561620 1.149990
1.306281 0.801218 0.306029
1.606841 0.985570 -0.527916
1.048939 0.526133 1.126916
1.461371 0.733002 0.521753
1.045376 0.323265 0.979368
1.487905 0.460110 0.305818
1.799304 0.556405 -0.400831
1.451844 0.317450 0.602997
1.399285 0.305957 -0.296975
1.408361 0.178562 0.990488
1.346069 0.170664 0.228153
1.202697 0.058007 1.295499
1.656244 0.079881 0.383672
2.281389 0.110032 -0.454359
1.740619 -0.202675 1.236759
1.597818 -0.186048 0.423608
2.168920 -0.252546 -0.416865
1.356926 -0.281181 1.467723
1.750130 -0.362660 0.666623
1.940172 -0.402041 -0.136490
1.556269 -0.455315 1.053968
1.565969 -0.458153 0.187049
1.355071 -0.530909 1.326210
1.659827 -0.650310 0.333326
2.055207 -0.805218 -0.290635
1.549625 -0.755887 1.139428
1.466602 -0.715389 0.216583
1.333878 -0.650648 -0.464613
1.144528 -0.676925 1.310923
1.493511 -0.883329 0.539941
1.101408 -0.790620 1.339783
1.448049 -1.039448 0.313719
1.855800 -1.332142 -0.483359
1.210945 -1.030994 0.818176
1.223013 -1.041269 0.088664
0.942368 -0.954581 0.863530
0.856644 -1.019402 1.360556
1.131387 -1.346345 0.421849
1.090184 -1.540575 0.664769
1.173915 -1.658899 -0.282331
0.681407 -1.161500 1.061991
0.762391 -1.299542 0.197576
0.877802 -1.496267 -0.510492
0.621100 -1.288900 1.337022
0.443914 -1.163142 1.005210
0.398331 -1.392196 1.108548
0.250201 -1.247397 1.084065
0.286417 -1.427952 0.138494
0.162906 -1.453208 1.504261
0.034930 -1.238894 0.776340
0.036109 -1.280707 0.079522
-0.090736 -1.474077 1.226433
-0.168158 -1.200144 0.647408
-0.219543 -1.566877 -0.276032
-0.252794 -1.116199 0.988009
-0.351534 -1.088581 0.968054
-0.455290 -1.105765 1.036478
-0.793468 -1.927097 -0.456923
-0.582184 -1.138476 1.282900
-0.652296 -1.275582 0.336571
-0.648844 -1.050924 0.537487
-0.791871 -1.282583 -0.296362
-0.575304 -0.773546 0.762136
-0.996166 -0.792807 1.113892
-1.925243 -1.532222 -0.557923
-1.812347 -1.217945 -0.416865
-0.910824 -0.511261 0.990709
-1.645909 -0.923877 -0.674544
-1.802379 -0.642945 -0.732680
-2.016363 -0.521671 -0.340266
-0.974036 -0.089976 1.273406
-0.660111 -0.007050 0.545955
-1.036901 0.166153 1.180784
-0.646417 0.157800 0.829003
-0.846159 0.285357 0.934483
-0.964061 0.417998 1.200790
-0.896451 0.477653 0.841202
-0.930695 0.603799 0.489393
-1.180787 0.766050 -0.316991
-0.485456 0.375428 0.749145
-0.598412 0.462782 -0.161333
-0.653869 0.605299 0.854112
-0.679190 0.739703 1.302588
-0.816520 0.889269 0.288856
-1.172345 1.276797 -0.402508
-0.466235 0.606695 0.816686
-0.552160 0.718506 -0.050212
-0.529281 0.817152 1.133078
-0.697226 1.076441 0.318082
-0.929563 1.435145 -0.520669
-0.496701 0.926721 1.220796
-0.606938 1.132396 0.516873
-0.889867 1.660271 -0.430159
-0.253291 0.589454 0.880136
-0.328129 0.763616 -0.010063
-0.237955 0.704718 0.968547
-0.209934 0.621731 -0.080885
-0.214609 0.870760 1.075120
-0.252788 1.025668 0.130020
-0.223483 0.906766 -0.451593
-0.139702 0.884703 1.034940
-0.164730 1.043204 0.010002
-0.070808 1.029701 1.381770
0.007319 0.712646 0.696652
0.007510 0.731257 -0.110992
0.087510 0.942449 1.063630
0.116145 1.250835 0.079576
0.163060 1.756099 -0.735748
0.175150 0.958020 1.143102
0.361486 1.977230 -0.526075
0.209033 0.784377 0.644430
0.220822 0.828614 -0.321791
0.304318 0.834686 0.733549
0.344785 0.945679 0.180273
0.462693 1.009577 0.569288
0.451342 0.984810 -0.399782
0.389556 0.693501 1.027675
0.505035 0.899081 0.080067
0.569200 1.013311 -0.668240
0.614259 0.899226 0.759546
0.553433 0.810181 -0.050110
0.591518 0.732771 0.883052
0.852120 1.055605 0.188474
1.325608 1.642160 -0.553745
1.023941 1.072734 0.365763
1.007551 1.055563 -0.474825
0.684255 0.603922 0.692889
0.811211 0.715974 -0.249866
0.927518 0.682198 1.217470
1.234107 0.907697 0.246799
1.783173 1.311540 -0.726545
0.963566 0.601141 0.578880
0.938889 0.585745 -0.189770
1.020559 0.522879 1.067826
1.429915 0.732612 0.197030
1.723092 0.882820 -0.595512
1.214997 0.493339 0.615840
1.141970 0.463688 -0.318519
1.143579 0.361697 1.156033
1.555707 0.492047 0.196894
1.871640 0.591971 -0.702395
1.426065 0.311255 0.504500
1.325763 0.289363 -0.247992
1.429694 0.194049 0.920535
1.443669 0.195946 -0.237418
1.541797 0.083492 0.967343
1.554196 0.084163 0.157843
2.332450 0.126307 -0.579205
1.611201 -0.055556 0.660018
1.557250 -0.053696 -0.384736
1.533804 -0.177638 0.967343
1.570823 -0.181925 0.118300
1.509816 -0.299928 0.769959
1.526886 -0.303319 -0.207168
1.316518 -0.385879 1.071177
1.711074 -0.501525 0.372539
1.904867 -0.558327 -0.526443
1.509755 -0.577766 0.866855
1.453344 -0.556178 0.009865
1.048675 -0.619774 0.936198
1.468808 -0.868075 0.039297
1.431403 -0.845968 0.688613
1.447462 -0.855459 -0.127804
1.053093 -0.755511 1.043578
1.264506 -0.907183 -0.098652
1.325455 -1.120292 0.559574
1.398630 -1.182141 -0.107692
0.884094 -0.879366 1.074858
1.210809 -1.204334 0.343845
0.860875 -1.023236 0.665043
0.937659 -1.114502 -0.158279
0.808147 -1.131746 0.832613
0.962639 -1.348100 0.167244
0.779337 -1.326276 0.720610
0.864429 -1.471087 -0.098243
0.552802 -1.143034 0.994578
0.579560 -1.198362 0.039706
0.309849 -1.070696 0.788985
0.335648 -1.159844 -0.308776
0.283046 -1.396217 1.158818
0.125532 -1.132688 0.788446
0.135650 -1.223983 0.159261
-0.069076 -1.309684 0.625772
-0.085958 -1.629771 -0.255961
-0.160140 -1.124685 0.598839
-0.264197 -1.169956 1.156033
-0.315423 -1.396801 0.247480
-0.403027 -1.282282 0.972687
-0.444446 -1.414062 0.286681
-0.576997 -1.392908 0.335876
-0.672601 -1.623703 -0.313937
-0.552435 -1.081227 0.766914
-0.662638 -1.296917 -0.138494
-0.518250 -0.840518 0.681457
-0.732091 -0.979885 1.115419
-0.685583 -0.779383 0.710550
-0.771564 -0.734540 0.820059
-1.274951 -1.213771 -0.549376
-1.659325 -1.341948 -0.456282
-1.002174 -0.562904 1.157615
-2.038580 -1.145036 -0.704685
-1.520716 -0.541036 -0.758515
-0.939275 -0.251547 1.092981
-1.559968 -0.417776 -0.797912
-0.701804 -0.122967 0.686557
-0.864446 -0.081119 0.945170
-1.049085 -0.013743 1.150774
-0.850086 0.134007 0.573174
-1.068593 0.168453 -0.219883
-0.689951 0.172762 0.615889
-0.820391 0.277444 0.854692
-1.017125 0.438253 0.319609
-1.292708 0.556995 -0.326897
-0.563624 0.307002 0.890251
-0.885972 0.576820 0.280041
-0.949576 0.618230 -0.379275
-0.645413 0.498624 0.835716
-0.655739 0.610516 1.044985
-0.718338 0.668798 0.160352
-0.774820 0.721384 -0.430057
-0.380129 0.413656 0.648793
-0.511808 0.556948 -0.141167
-0.611514 0.786056 1.042149
-0.315157 0.490498 0.374844
-0.450984 0.701893 -0.483006
-0.371555 0.697587 0.826208
-0.375169 0.862492 0.832887
-0.206697 0.626208 0.495407
-0.268788 0.814319 -0.321791
-0.211842 0.863223 0.753643
-0.245772 1.001480 0.070059
-0.154594 0.952864 0.822295
-0.071537 0.991144 0.962003
0.009643 1.046417 1.060740
0.064148 0.656449 0.505516
0.056712 0.580359 -0.384975
0.172217 0.952512 0.932581
0.245740 1.359159 0.069390
0.366915 2.029360 -0.661524
0.209258 0.785660 0.714906
0.233214 0.875603 0.000000
0.320398 0.880424 0.652283
0.318962 0.876478 -0.341207
0.503474 1.084057 1.016550
0.582039 1.253218 0.218083
0.595243 1.281649 -0.713194
0.361816 0.644455 0.766799
0.517054 0.920960 -0.060009
0.629281 0.919486 0.769013
0.850661 1.242959 -0.059273
0.666956 0.826080 0.640067
0.633551 0.784705 -0.420629
0.650161 0.673880 0.622180
0.872174 0.903993 0.029841
0.856661 0.755782 0.908187
1.185947 1.046292 -0.167592
1.624344 1.433064 -0.843958
0.961337 0.719380 1.195882
1.266204 0.947515 0.157734
1.427857 1.068482 -0.401949
0.999967 0.510870 1.108490
1.452718 0.742175 0.118137
1.969562 1.006224 -0.629683
1.261943 0.509291 0.585240
1.142512 0.461091 -0.258797
1.344981 0.420697 0.475480
1.295697 0.405281 -0.327347
1.580016 0.358170 1.004730
1.445006 0.327565 0.197712
1.867699 0.423384 -0.801053
1.386144 0.182323 1.110075
1.767033 0.232422 0.284308
1.769783 0.232784 -0.529388
1.563480 0.081833 0.828604
1.529810 0.080071 -0.236927
1.780382 -0.064832 0.176468
1.782306 -0.064902 -0.411752
1.454925 -0.176957 0.830895
1.495116 -0.181845 0.019758
1.551789 -0.314206 0.394328
1.501152 -0.303953 -0.187568
1.455521 -0.417894 0.770491
1.424301 -0.408930 -0.227369
1.115050 -0.431272 1.026514
1.544621 -0.597418 0.000000
1.126459 -0.541899 1.174349
1.492952 -0.718205 0.206595
1.860338 -0.894942 -0.768519
1.359020 -0.810965 0.325322
1.467231 -0.875538 -0.422435
1.004733 -0.719343 0.577298
0.972527 -0.817996 1.034351
1.286575 -1.082143 0.049156
0.941068 -0.944806 0.416906
1.028397 -1.032481 -0.286879
0.826480 -0.991077 0.824966
1.156929 -1.387337 0.146955
1.690729 -2.027445 -0.784842
0.762126 -1.080477 1.082579
0.577096 -0.977975 0.568900
0.652354 -1.105511 -0.427419
0.487402 -1.001256 0.739056
0.550005 -1.129860 -0.188992
0.481718 -1.258779 1.101680
0.283515 -0.968369 0.460687
0.296955 -1.014274 -0.230034
0.268475 -1.364505 0.832613
0.143352 -1.249320 0.318300
0.186187 -1.622630 -0.393782
0.038088 -1.135068 0.578880
-0.063487 -1.141135 0.928143
-0.073943 -1.329074 0.000000
-0.164351 -1.208314 0.985984
-0.192934 -1.418458 -0.168287
-0.321889 -2.366536 -0.713328
-0.251551 -1.107180 0.558920
-0.311965 -1.373086 -0.376425
-0.367750 -1.159736 0.876453
-0.440148 -1.388049 0.049462
-0.341404 -0.841163 0.351481
-0.463902 -0.902884 0.811164
-0.806574 -1.569818 -0.794599
-1.260631 -2.024397 -0.510914
-0.674258 -0.913139 0.538960
-0.955970 -1.294659 -0.482712
-1.580702 -1.510992 -0.630126
-1.765082 -1.198803 -0.427159
-1.559973 -0.877625 -0.794047
-0.833788 -0.380470 0.873612
-1.949006 -0.889362 -0.893079
-1.939519 -0.701929 -0.680978
-0.776317 -0.140102 0.755689
-0.987933 -0.097115 0.921928
-0.784673 -0.006836 0.513887
-1.007669 -0.008779 -0.340512
-0.636086 0.045293 0.698063
-0.882342 0.142384 0.964621
-1.074777 0.264264 0.219733
-1.100126 0.270497 -0.359314
-0.530068 0.175778 0.415646
-0.671055 0.222531 -0.252423
-0.846269 0.366192 1.084429
-1.547917 0.669804 -0.629159
-0.909170 0.488260 0.250207
-0.955234 0.512998 -0.479734
-0.468033 0.305991 0.476469
-0.612919 0.400716 -0.292612
-0.666900 0.516912 0.965929
-0.683427 0.628613 1.285174
-0.832808 0.766012 0.169678
-0.658269 0.717748 1.143102
-0.488188 0.627286 1.007530
-0.452289 0.695571 1.318854
-0.487394 0.908956 1.361754
-0.619164 1.154699 0.546315
-0.783446 1.461074 -0.354160
-0.418474 0.955697 1.651949
-0.576464 1.316510 0.663215
-0.339098 1.006662 1.510837
-0.418511 1.242410 0.595976
-0.182894 0.742294 0.786443
-0.174968 0.710124 0.131172
-0.130528 0.806264 0.886051
-0.108990 0.673225 0.252594
-0.066316 0.903300 1.346304
-0.099360 1.353401 0.257911
0.012181 1.183102 1.406028
0.147600 0.832419 1.026285
0.215105 1.213124 0.258797
0.337672 1.904364 -0.458845
0.267582 1.007246 0.900663
0.239082 0.899963 -0.060214
0.273192 0.769718 0.886051
0.370288 1.043286 0.259684
0.396871 1.118182 -0.627919
0.413741 0.908831 1.132308
0.572300 1.257125 0.099129
0.502426 0.897032 1.271675
0.687808 1.228011 0.316991
0.588992 0.862599 0.990709
0.807411 1.182481 0.227682
1.021003 1.495295 -0.568204
0.721354 0.892538 1.097757
0.978316 1.210478 0.138112
1.231200 1.523374 -0.429259
0.774194 0.815486 1.158405
1.071815 1.128980 0.207168
0.949418 0.835671 0.795698
0.886866 0.780613 -0.159479
1.199412 0.893618 1.027970
1.127580 0.840099 0.009906
1.222685 0.767418 0.950223
1.339454 0.840707 0.147875
1.683354 1.056556 -0.672662
1.268933 0.647569 1.158818
1.453455 0.741735 0.216583
2.080886 1.061929 -0.598510
1.615275 0.504507 0.894539
1.485930 0.464108 0.207168
1.824179 0.569755 -0.595927
1.620050 0.365638 0.580413
1.566880 0.353637 -0.108367
1.625862 0.226214 0.866255
1.541443 0.214469 -0.108517
1.403896 0.072383 1.337943
1.757274 0.090602 0.500327
1.907061 0.098325 -0.498241
1.585127 -0.046473 0.581620
1.531010 -0.044887 -0.197439
1.530262 -0.174509 0.809438
1.471603 -0.167820 -0.029657
1.223987 -0.247532 1.134554
1.672800 -0.338298 0.196485
2.317221 -0.468622 -0.752412
1.247167 -0.357985 1.093258
1.688906 -0.484781 0.264885
2.026630 -0.581720 -0.408030
1.310811 -0.498066 1.238876
1.763104 -0.669923 0.596343
1.805610 -0.686073 -0.175732
1.651690 -0.795232 0.381811
1.762545 -0.848605 -0.068293
1.069784 -0.627094 0.806195
1.213169 -0.711145 0.089155
1.347536 -0.789908 -0.651068
1.104791 -0.779215 1.230659
1.416325 -0.998941 0.382874
1.442081 -1.211746 0.420383
1.691963 -1.421716 -0.523130
0.973853 -0.962339 0.972019
0.836433 -0.981538 0.785215
1.010573 -1.185888 -0.374871
0.651695 -0.907381 0.898822
0.674434 -0.939043 -0.029923
0.694631 -1.175819 0.833185
0.867824 -1.468987 -0.058946
0.442563 -1.137776 1.035769
0.473666 -1.217740 0.188733
0.258965 -1.258142 0.496994
0.318919 -1.549422 -0.236600
0.042732 -1.215423 0.856537
0.051166 -1.455316 0.079140
-0.064298 -1.307541 0.466856
-0.132706 -0.981613 0.831756
-0.234675 -1.077154 1.249100
-0.303793 -0.990674 0.610483
-0.411082 -1.012386 0.919419
-0.822435 -2.025439 -0.591353
-0.492587 -0.978605 1.029323
-1.052788 -2.091535 -0.859109
-1.141392 -1.862067 -0.455641
-0.867398 -1.176674 0.642977
-1.132114 -1.535774 -0.361475
-1.512105 -1.468660 -0.359457
-0.765590 -0.625802 0.751598
-0.822155 -0.558162 0.962003
-1.584627 -1.075804 -0.810820
-1.876109 -1.073546 -0.620869
-1.848492 -0.857338 -0.681455
-0.807585 -0.291395 0.422347
-0.964444 -0.181070 0.110242
-1.338118 -0.251226 -0.624913
-0.737199 -0.012511 0.676005
-1.078402 0.077048 0.039979
-0.897059 0.136899 0.311313
-1.000856 0.152739 -0.680994
-0.773673 0.256669 0.815582
-0.955013 0.316829 -0.070106
-0.465658 0.201069 0.284240
-0.675189 0.291543 -0.565028
-0.740175 0.390243 0.643994
-0.912653 0.481178 -0.210175
-1.182871 0.623645 -0.665043
-0.739348 0.480543 0.221083
-0.891126 0.579191 -0.700066
-0.601778 0.463246 0.494070
-0.759292 0.584500 -0.391117
-0.413919 0.375412 0.446057
-0.506160 0.459072 -0.404145
-0.431427 0.468358 0.647484
-0.343045 0.372410 -0.121818
-0.456865 0.584394 0.887851
-0.503494 0.764150 0.813373
-1.133907 1.720925 -0.583705
-0.424538 0.788981 1.044985
-0.583830 1.085016 0.268751
-0.893946 1.661349 -0.625669
-0.285209 0.649579 0.494738
-0.274029 0.624117 -0.191972
-0.236328 0.699624 0.736535
-0.194155 0.574775 -0.202484
-0.155316 0.622487 0.880136
-0.133463 0.809770 1.037046
-0.171755 1.042104 0.050008
-0.079189 1.050505 1.280812
-0.094439 1.252804 0.129311
0.005430 1.010868 0.590871
0.005148 0.958414 -0.411173
0.067528 0.785354 0.725465
0.073386 0.853475 -0.191065
0.115901 0.656410 0.879543
0.201111 1.139001 0.189511
0.285001 1.614120 -0.757990
0.211861 0.814408 0.875391
0.322704 1.240498 0.218683
0.450627 1.732246 -0.794047
0.265842 0.743384 0.785912
0.364046 1.017995 -0.009995
0.352974 0.785039 0.583229
0.392111 0.872082 -0.060173
0.471163 0.840343 0.732056
0.541774 0.966280 -0.349572
0.591487 0.880115 0.560065
0.728985 1.084708 -0.238399
0.664351 0.836121 0.930045
0.905873 1.140090 0.049462
0.958993 1.206945 -0.868654
1.045785 1.098640 0.879130
1.004634 1.055409 -0.267094
1.130457 1.011670 0.889006
1.141125 1.021218 0.128336
1.297715 1.161353 -0.863855
1.234812 0.921667 0.839046
1.247054 0.930805 0.009865
1.635395 1.220663 -0.827457
1.140245 0.716407 1.061991
1.361293 0.855290 0.334948
1.183669 0.605106 1.300996
1.563856 0.799461 0.127538
1.654149 0.845621 -0.342413
1.440568 0.597664 0.503109
1.415947 0.587449 -0.365258
1.513057 0.487756 0.788608
1.457292 0.469780 0.029616
1.465895 0.472553 -0.809438
1.311741 0.298205 1.012379
1.542263 0.350611 0.187308
1.237510 0.178709 1.184298
1.640167 0.236857 0.275459
2.066009 0.298353 -0.670780
1.754200 0.110476 0.333558
1.881885 0.118517 -0.567017
1.682141 -0.042531 0.334253
1.887436 -0.047721 -0.703868
1.265361 -0.134974 1.094007
1.721385 -0.183617 0.039270
2.049933 -0.218663 -0.622615
1.698329 -0.335415 -0.019635
1.874871 -0.370282 -0.595927
1.740038 -0.491265 0.372280
1.837373 -0.518746 -0.468935
1.151584 -0.439771 0.338425
1.315149 -0.502234 -0.346708
1.047176 -0.498903 0.528619
1.002313 -0.580996 0.418911
1.152157 -0.667854 -0.208457
1.294506 -0.912812 0.453474
1.395390 -0.983949 -0.304550
0.893158 -0.744256 0.688185
1.023690 -0.853027 -0.317646
0.795970 -0.780275 0.788985
0.861408 -0.844423 -0.099606
0.869109 -1.018008 0.734516
1.189031 -1.392741 0.097902
0.852481 -1.181808 0.276987
0.538823 -0.888868 0.780594
0.586731 -0.967899 -0.229564
0.481854 -0.981243 0.939402
0.531884 -1.083124 -0.199212
0.391616 -0.990467 0.810060
0.452673 -1.144893 -0.019908
0.338304 -1.142130 0.857124
0.413565 -1.396215 -0.059355
0.256434 -1.215869 0.915656
0.290211 -1.376022 0.108967
0.162047 -1.263404 1.133777
0.182194 -1.420476 0.267278
0.050094 -1.272769 1.133777
0.059236 -1.505050 0.079031
0.095784 -2.433660 -0.558318
-0.066564 -1.331854 0.416906
-0.087839 -1.757553 -0.510137
-0.134492 -1.026187 0.530425
-0.568562 -1.426528 -0.572553
-0.477628 -0.961784 1.139994
-0.941122 -1.895108 -0.835432
-1.158004 -1.885158 -0.668428
-0.950602 -1.301007 0.610768
-1.183742 -1.620084 -0.155879
-0.674088 -0.762762 0.931313
-1.387805 -1.343956 -0.234309
-1.569565 -1.294182 -0.477033
-1.041412 -0.713199 0.666413
-0.551530 -0.315315 0.556439
-0.813866 -0.298116 0.884852
-1.443386 -0.528708 -0.661388
-1.647236 -0.458110 -0.510846
-0.675833 -0.125096 0.676918
