-1.656616 0.368245 1.325879
-1.992583 0.442926 1.991225
-2.061099 0.458156 2.496786
-2.051156 0.455946 2.872193
-2.056321 0.457094 3.323843
-2.124754 0.472306 3.816619
-2.127440 0.472903 4.447976
-2.136786 0.474980 5.161622
-2.069193 0.459955 5.555506
-2.071430 0.460452 5.792560
-2.246243 0.499311 6.319980
-2.373070 0.527503 7.180521
-2.359977 0.524593 7.827149
-2.163258 0.480864 8.018424
-2.166868 0.481667 8.585282
-2.231556 0.496046 9.361538
-2.011018 0.447024 9.682008
-1.751891 0.552390 1.110333
-1.932937 0.609476 1.798773
-2.001259 0.631018 2.615832
-2.000580 0.630804 2.608977
-2.033510 0.641187 3.327411
-2.056285 0.648369 3.847745
-2.147701 0.677193 4.568760
-2.205612 0.695453 5.384630
-1.961102 0.618356 5.260586
-2.051176 0.646758 5.915776
-2.319378 0.731325 6.720602
-2.389277 0.753365 7.518625
-2.142937 0.675691 7.441072
-2.190849 0.690798 8.346399
-2.281308 0.719321 9.144407
-2.041780 0.643795 9.112703
-1.998377 0.630109 9.842000
-1.567106 0.651652 0.697999
-1.742597 0.724627 1.586508
-1.883652 0.783282 1.625243
-1.918671 0.797845 2.133376
-1.935577 0.804875 2.595264
-2.013998 0.837485 3.501874
-2.037362 0.847200 4.007868
-1.936116 0.805099 4.264870
-1.853149 0.770598 4.755907
-1.933929 0.804189 5.784466
-1.998489 0.831036 6.289169
-2.084945 0.866987 6.454281
-2.156688 0.896819 6.936565
-2.234112 0.929015 7.998009
-2.032313 0.845101 8.053369
-2.025616 0.842316 8.586568
-2.153707 0.895580 9.624068
-1.919916 0.798362 9.800848
-1.600908 0.842980 1.049018
-1.687142 0.888387 1.495153
-1.832071 0.964702 2.044166
-1.855944 0.977272 2.352851
-1.887495 0.993886 2.930979
-1.873997 0.986778 3.217837
-1.986254 1.045889 4.387166
-1.881275 0.990611 4.288084
-1.860664 0.979758 5.115084
-1.948935 1.026238 5.917955
-1.887747 0.994019 6.471860
-1.807908 0.951978 6.421900
-2.064018 1.086836 7.290019
-2.104448 1.108125 7.951461
-1.972926 1.038871 8.142078
-2.032411 1.070194 8.956080
-1.969679 1.037161 9.415173
-1.852294 0.975351 10.040997
-1.384703 0.897802 0.804040
-1.492488 0.967686 1.446979
-1.694108 1.098411 2.027583
-1.731168 1.122440 2.252221
-1.734495 1.124597 2.556650
-1.734730 1.124749 3.217326
-1.741416 1.129084 3.979604
-1.689565 1.095466 4.222394
-1.752374 1.136189 4.783171
-1.877729 1.217465 5.393650
-1.950343 1.264547 6.705997
-1.794538 1.163527 7.339360
-1.790597 1.160972 8.090028
-1.793361 1.162764 8.805300
-1.808918 1.172851 9.441595
-1.742742 1.129944 9.999842
-1.463450 1.161434 1.247628
-1.463986 1.161859 1.261464
-1.616715 1.283069 1.961796
-1.622725 1.287840 2.057892
-1.622512 1.287670 2.597831
-1.560467 1.238429 3.219951
-1.827480 1.450338 5.117766
-1.931881 1.533194 5.266641
-1.928091 1.530186 7.105831
-1.725602 1.369485 7.894819
-1.610475 1.278117 8.092434
-1.716679 1.362404 9.032485
-1.666212 1.322352 9.507162
-1.465906 1.163383 9.818130
-1.372688 1.302918 1.669459
-1.529926 1.452163 2.476229
-1.502165 1.425814 2.051029
-1.582705 1.502260 3.508707
-1.506415 1.429848 3.656459
-1.482272 1.406932 4.097383
-1.510163 1.433405 4.472314
-1.666301 1.581607 4.941055
-1.828720 1.735771 5.403077
-1.714629 1.627479 5.729593
-1.619372 1.537063 6.555478
-1.522905 1.445500 7.113247
-1.544568 1.466062 7.827732
-1.461191 1.386923 8.045074
-1.568017 1.488319 9.097332
-1.434651 1.361732 9.249882
-1.433321 1.360469 10.151762
-1.154445 1.313006 0.738341
-1.290664 1.467935 1.457734
-1.361940 1.549001 2.245356
-1.350393 1.535867 2.586659
-1.241936 1.412514 2.925398
-1.432679 1.629456 4.393297
-1.627689 1.851250 4.886781
-1.623330 1.846292 5.466406
-1.641619 1.867093 6.633515
-1.417180 1.611828 6.717277
-1.353597 1.539511 7.739646
-1.319242 1.500438 8.156690
-1.273470 1.448379 8.347121
-1.219221 1.386679 8.806371
-1.122567 1.510290 1.496626
-1.249038 1.680442 2.021572
-1.249662 1.681282 2.581552
-1.218295 1.639081 2.795433
-1.091426 1.468392 2.917271
-1.355089 1.823122 5.066570
-1.559121 2.097624 5.587312
-1.146427 1.542391 8.326412
-1.209391 1.627101 8.944386
-1.171998 1.576794 9.286053
-1.027137 1.381899 9.636776
-0.753005 1.227867 0.374218
-0.820994 1.338733 1.297363
-1.002832 1.635242 2.021788
-0.979714 1.597544 2.094944
-0.941388 1.535050 2.653818
-0.929952 1.516401 3.324804
-0.901405 1.469852 3.999495
-1.050889 1.713605 4.201756
-1.299252 2.118590 4.988075
-1.278087 2.084079 5.285364
-0.949074 1.547582 8.322999
-0.970638 1.582745 8.911530
-1.018521 1.660824 9.669642
-0.929375 1.515460 10.126820
-0.815107 1.650589 1.645042
-0.846966 1.715102 1.952732
-0.800571 1.621153 2.723176
-0.784280 1.588163 2.846593
-0.897052 1.816527 3.474514
-1.023361 2.072301 4.881827
-1.056388 2.139183 5.931930
-0.750708 1.520181 8.277530
-0.748422 1.515552 8.813733
-0.753106 1.525036 9.581086
-0.721691 1.461422 10.429068
-0.619675 1.610629 1.394161
-0.654422 1.700941 2.078267
-0.617490 1.604951 2.339086
-0.618557 1.607722 3.077700
-0.775919 2.016731 4.486543
-0.818668 2.127841 5.107414
-0.731045 1.900097 5.523604
-0.470077 1.221802 8.301268
-0.558017 1.450369 8.954903
-0.459062 1.610926 0.796283
-0.479893 1.684025 1.399748
-0.462226 1.622030 2.250799
-0.456881 1.603273 2.576152
-0.445348 1.562801 3.103646
-0.463689 1.627165 3.954608
-0.570582 2.002268 4.748875
-0.628029 2.203859 4.645924
-0.389994 1.368554 8.882303
-0.404050 1.417881 9.029993
-0.298754 1.551773 1.479320
-0.312336 1.622321 2.141376
-0.297985 1.547783 2.133635
-0.300625 1.561495 3.022738
-0.390931 2.030558 4.673392
-0.415550 2.158432 5.081486
-0.370457 1.924214 5.641563
-0.320462 1.664531 6.266389
-0.231910 1.204578 8.452957
-0.267656 1.390248 8.861180
-0.304405 1.581127 9.694920
-0.296157 1.538288 10.405936
-0.150335 1.582860 1.184203
-0.159325 1.677514 1.557192
-0.148333 1.561776 2.042647
-0.147048 1.548251 2.460138
-0.151704 1.597271 3.141608
-0.156998 1.653006 3.745483
-0.184309 1.940564 4.581350
-0.203824 2.146037 4.997569
-0.114796 1.208674 7.195490
-0.084852 0.893398 7.546639
-0.096862 1.019848 8.313665
-0.130382 1.372775 8.984315
-0.145094 1.527672 9.420226
-0.133245 1.402919 9.586181
-0.009389 1.180896 1.502344
-0.011860 1.491774 2.020513
-0.011693 1.470759 2.071661
-0.011408 1.434823 2.514280
-0.015247 1.917747 4.686966
-0.016305 2.050740 4.982771
-0.008524 1.072064 8.298549
-0.010374 1.304797 8.922972
-0.011142 1.401421 9.492984
-0.010399 1.307935 9.955007
0.126607 1.482200 1.604471
0.126018 1.475300 1.873038
0.122771 1.437292 2.591672
0.124399 1.456349 3.209066
0.143080 1.675052 3.536237
0.157993 1.849639 3.872472
0.164235 1.922713 4.613416
0.091948 1.076447 6.591413
0.067439 0.789518 7.358696
0.082416 0.964853 8.134759
0.112199 1.313518 8.807811
0.105721 1.237685 9.047724
0.209835 1.183664 0.867875
0.227090 1.280999 1.410279
0.241960 1.364879 1.950797
0.247108 1.393918 2.815066
0.230336 1.299310 3.076131
0.207562 1.170841 3.974280
0.249238 1.405936 4.045956
0.344219 1.941713 5.098677
0.177087 0.998934 8.198907
0.204030 1.150916 8.597691
0.235987 1.331185 9.503170
0.214492 1.209936 9.887867
0.265050 0.997393 1.525271
0.341857 1.286419 1.883917
0.338689 1.274499 2.347327
0.319698 1.203036 2.862387
0.415535 1.563672 4.281446
0.471968 1.776034 4.665988
0.201478 0.758167 7.696227
0.263821 0.992769 8.155715
0.314880 1.184906 8.847080
0.330486 1.243632 9.615523
0.303543 1.142245 10.183196
0.403629 1.101324 1.773979
0.454282 1.239532 2.069546
0.414118 1.129942 2.458015
0.417908 1.140284 3.247049
0.438991 1.197810 3.332919
0.526777 1.437340 3.893451
0.639183 1.744045 4.906039
0.312861 0.853657 7.941117
0.409979 1.118650 8.425176
0.470736 1.284429 9.401330
0.424534 0.895410 1.219035
0.522652 1.102355 1.728015
0.504818 1.064742 2.711565
0.479764 1.011898 2.631284
0.497138 1.048542 3.217686
0.604710 1.275430 3.940344
0.757320 1.597308 4.700378
0.782870 1.651197 5.265027
0.238315 0.502644 7.158529
0.327294 0.690314 7.804098
0.465639 0.982105 8.262470
0.517175 1.090803 8.869329
0.505458 1.066091 9.542165
0.463044 0.976633 10.404014
0.382989 0.647595 0.882867
0.454056 0.767761 2.045903
0.552790 0.934710 1.959108
0.578588 0.978331 3.018473
0.528863 0.894253 3.044250
0.510431 0.863085 3.557223
0.763654 1.291259 4.626479
0.374809 0.633762 7.436636
0.429119 0.725596 7.718256
0.569559 0.963065 8.197562
0.605784 1.024317 8.661648
0.665635 1.125520 9.599766
0.530350 0.896766 9.958939
0.690677 0.971185 1.231065
0.636428 0.894903 1.779072
0.625277 0.879223 2.721915
0.568933 0.799996 2.753746
0.636813 0.895445 3.704034
0.810607 1.139822 4.180586
0.975142 1.371181 4.363830
0.401069 0.563957 7.371026
0.645040 0.907012 8.262063
0.764029 1.074327 8.807811
0.716539 1.007550 8.954465
0.742933 0.865277 1.204959
0.724678 0.844016 1.613542
0.682347 0.794714 2.400701
0.638030 0.743099 2.964108
0.630570 0.734411 3.671431
0.723778 0.842968 3.789553
0.999050 1.163571 4.808850
0.494258 0.575652 7.516101
0.703643 0.819517 8.241073
0.844930 0.984071 8.822929
0.797466 0.928790 8.919003
0.752079 0.875930 9.761735
0.596095 0.694259 10.528200
0.456201 0.442984 1.111959
0.513153 0.498285 2.030522
0.642762 0.624139 2.096192
0.639214 0.620694 2.603548
0.649471 0.630654 3.190860
0.605614 0.588067 3.865020
0.805743 0.782398 4.503353
0.483230 0.469229 6.509324
0.518269 0.503253 7.479552
0.639769 0.621233 7.969893
0.849807 0.825186 8.403864
0.922582 0.895852 9.247276
0.786737 0.763943 9.677883
0.598681 0.581335 10.186391
0.457938 0.369003 1.164922
0.553557 0.446051 1.972654
0.694117 0.559314 2.038718
0.705725 0.568667 2.754388
0.750622 0.604845 3.642773
0.715094 0.576216 3.854153
0.789266 0.635984 4.603282
0.882507 0.711117 4.979581
0.863646 0.695919 5.614805
0.600009 0.483482 6.051058
0.572295 0.461151 6.855520
0.512471 0.412945 7.247881
0.737167 0.594003 8.149324
0.960578 0.774026 8.474234
0.994295 0.801195 9.146906
0.821207 0.661722 9.563730
0.693991 0.559212 10.263666
0.441394 0.298315 1.036031
0.579592 0.391716 1.813470
0.805987 0.544725 2.667809
0.768975 0.519710 2.955367
0.746463 0.504495 3.154952
0.806371 0.544984 4.051196
0.852971 0.576479 4.548938
0.841819 0.568941 5.031610
0.801745 0.541858 5.787766
0.637037 0.430540 6.264493
0.578287 0.390834 6.710869
0.694962 0.469689 7.245047
0.817720 0.552654 7.676157
0.989015 0.668424 8.432279
0.956965 0.646762 8.871230
0.932721 0.630377 9.756257
0.784754 0.530375 10.473794
0.696183 0.380878 1.278797
0.689805 0.377389 1.604724
0.782751 0.428239 2.349739
0.846090 0.462891 3.052907
0.829974 0.454075 3.316951
0.824613 0.451141 3.829017
0.871298 0.476682 4.334373
0.859054 0.469984 4.971888
0.805702 0.440795 5.911614
0.570312 0.312015 5.971880
0.503298 0.275352 6.626367
0.742697 0.406326 7.366886
1.059046 0.579398 8.060807
1.141890 0.624722 8.600989
1.001458 0.547892 9.138646
0.792483 0.433563 9.513316
0.703392 0.384822 10.240444
0.912564 0.398548 1.319233
0.860576 0.375842 2.006175
0.763398 0.333401 2.246189
0.739429 0.322933 2.764792
0.792206 0.345983 3.268809
0.831615 0.363194 3.951145
0.913269 0.398855 4.650548
0.945966 0.413135 5.370181
0.770138 0.336345 5.906456
0.591467 0.258313 6.393355
0.589403 0.257412 7.096360
0.786898 0.343665 7.410058
1.056856 0.461564 7.797708
0.873492 0.287823 1.733542
0.874847 0.288270 1.755073
0.777078 0.256054 2.363607
0.769219 0.253464 2.793622
0.728674 0.240104 3.493634
0.822771 0.271110 4.333168
0.823894 0.271480 4.340360
0.821329 0.270635 4.904213
0.705492 0.232466 5.452086
0.546679 0.180136 6.095633
0.509142 0.167767 6.682125
0.768138 0.253108 7.230043
1.151180 0.379324 8.160519
0.118626 0.028451 0.711448
0.626326 0.150216 1.293294
0.863100 0.207004 1.988421
0.830790 0.199255 2.738006
0.789774 0.189417 3.253341
0.737520 0.176885 3.796472
0.805860 0.193276 4.561536
0.789204 0.189281 4.609037
0.800097 0.191893 6.488032
0.451559 0.108301 7.104978
0.780744 0.187252 7.847506
1.057512 0.253631 8.011979
1.212605 0.290828 8.753053
1.007388 0.241609 9.063465
0.904814 0.217008 10.017709
0.820641 0.120648 1.486483
0.864845 0.127146 1.801540
0.749625 0.110207 2.245325
0.779865 0.114653 3.263609
0.710010 0.104383 3.500176
0.718463 0.105626 4.089307
0.772388 0.113554 4.577262
0.806820 0.118616 5.047685
0.717177 0.105437 5.962674
0.521775 0.076709 6.437144
0.530006 0.077920 6.883762
0.896954 0.131867 7.668488
1.082585 0.159158 7.861977
1.064151 0.156448 8.391767
1.141998 0.167892 9.398545
0.763149 0.040417 1.186158
0.893540 0.047322 2.081824
0.799373 0.042335 2.445151
0.753166 0.039888 2.974902
0.699800 0.037062 3.369955
0.742103 0.039302 4.034927
0.879726 0.046591 4.990492
0.860781 0.045587 5.285260
0.750104 0.039726 6.078301
0.481738 0.025513 6.247597
0.538777 0.028534 7.288047
0.695079 0.036812 7.385503
1.232673 0.065283 8.395606
1.169960 0.061962 8.525911
1.127161 0.059695 9.327379
0.842874 0.044639 9.787757
0.323515 -0.011963 0.772262
0.770919 -0.028506 1.337748
0.876525 -0.032411 1.844675
0.783285 -0.028964 2.257641
0.739432 -0.027342 2.844866
0.738614 -0.027312 3.659221
0.768447 -0.028415 4.201027
0.900978 -0.033316 5.098265
0.830186 -0.030698 5.126923
0.705033 -0.026070 5.875880
0.569697 -0.021066 6.611823
0.581204 -0.021491 7.346909
0.723949 -0.026770 7.486783
1.125964 -0.041635 8.054515
1.265287 -0.046787 8.809735
1.106097 -0.040900 9.190810
0.988809 -0.036563 10.101931
0.473936 -0.060378 0.899327
0.840455 -0.107071 1.774458
0.895330 -0.114062 1.850111
0.839471 -0.106946 2.658850
0.757145 -0.096458 3.054333
0.686356 -0.087439 3.496208
0.837220 -0.106659 4.351618
0.865219 -0.110226 4.665171
0.729215 -0.092900 6.120036
0.646992 -0.082425 7.226133
0.891044 -0.113516 7.639761
1.152809 -0.146864 8.168368
1.180517 -0.150394 8.740602
1.041304 -0.132659 9.026731
0.556531 -0.123303 0.626923
0.917315 -0.203236 1.653018
0.955692 -0.211739 2.190512
0.812707 -0.180060 2.238988
0.779787 -0.172766 2.685493
0.671814 -0.148844 3.467249
0.868373 -0.192393 3.829036
1.071578 -0.237414 4.647355
1.023182 -0.226692 5.322317
0.872640 -0.193338 5.683631
0.667532 -0.147896 6.445458
0.506603 -0.112241 6.818205
0.740422 -0.164045 7.695990
0.896286 -0.198577 7.883669
1.067445 -0.236498 8.527841
1.047124 -0.231996 8.939116
0.793307 -0.250666 1.009999
0.902100 -0.285042 1.753409
0.866636 -0.273836 2.529298
0.852213 -0.269279 2.871963
0.700073 -0.221207 3.233596
1.031067 -0.325793 4.253894
1.221732 -0.386039 4.680443
1.038046 -0.327998 4.877341
0.505046 -0.159583 7.715095
0.763458 -0.241235 8.099862
1.049317 -0.331560 8.305248
1.113626 -0.351880 8.985996
0.628194 -0.260134 0.957795
0.773390 -0.320259 1.616096
0.889553 -0.368362 2.567513
0.870433 -0.360444 3.077307
0.959864 -0.397477 3.450506
1.272563 -0.526965 4.046647
1.341021 -0.555313 4.193698
1.240207 -0.513566 4.873879
0.290865 -0.120447 7.223312
0.587830 -0.243419 7.723622
0.949072 -0.393008 8.155715
1.064010 -0.440604 9.015488
0.488119 -0.255749 0.845866
0.688726 -0.360856 1.453215
0.798750 -0.418503 2.168020
0.811885 -0.425385 2.608267
0.975449 -0.511084 3.348075
1.271772 -0.666342 3.764012
1.415806 -0.741808 4.162627
1.408975 -0.738229 4.841626
0.319531 -0.167417 7.297491
0.570188 -0.298748 8.013276
0.929623 -0.487073 8.392261
0.949161 -0.497310 8.780369
0.502961 -0.323859 0.749845
0.600777 -0.386843 1.659900
0.895129 -0.576378 2.312781
0.901664 -0.580586 2.895814
1.027391 -0.661542 3.102107
1.298914 -0.836377 3.462306
1.503553 -0.968146 4.388645
0.691247 -0.445098 7.998813
0.943141 -0.607293 8.534333
0.991100 -0.638175 9.093700
0.517405 -0.404602 1.009439
0.677684 -0.529938 1.585796
0.841850 -0.658313 2.060901
0.792753 -0.619920 2.498276
1.004369 -0.785400 3.124510
1.440048 -1.126094 4.324723
1.463740 -1.144620 4.497856
0.272906 -0.213408 7.049991
0.519537 -0.406270 7.803386
0.885209 -0.692219 8.620474
0.797292 -0.623469 8.681116
0.833137 -0.651499 9.425305
0.657611 -0.514241 9.906018
0.513265 -0.479855 0.891770
0.642078 -0.600283 1.476485
0.795226 -0.743463 1.994765
0.839327 -0.784693 2.412918
1.054752 -0.986095 3.268436
1.306061 -1.221046 4.082001
0.572481 -0.535217 7.782602
0.754192 -0.705100 8.256097
0.756672 -0.707419 8.673260
0.852555 -0.797060 9.434102
0.769571 -0.719478 9.848405
0.758606 -0.856803 0.592062
0.771284 -0.871122 1.161143
0.804802 -0.908978 2.299577
0.787105 -0.888991 2.796829
0.666804 -0.753117 2.975611
1.164602 -1.315352 5.294142
0.265710 -0.300105 7.349507
0.469991 -0.530829 7.969937
0.753189 -0.850685 8.893518
0.808084 -0.912685 9.503688
0.678366 -0.766176 9.550864
0.667116 -0.902161 0.699464
0.757096 -1.023843 1.362074
0.779064 -1.053551 1.942300
0.694869 -0.939692 2.353747
0.711024 -0.961539 2.874962
0.902317 -1.220230 3.630377
1.151767 -1.557569 4.065145
1.138445 -1.539553 4.530571
0.952244 -1.287747 5.158876
0.369959 -0.500306 7.853770
0.668136 -0.903540 8.778706
0.681683 -0.921860 9.152878
0.419388 -0.682898 0.852365
0.728242 -1.185810 2.021289
0.668861 -1.089119 2.450966
0.706317 -1.150109 2.900865
0.846950 -1.379105 3.253423
1.082033 -1.761894 4.389968
0.403046 -0.656288 8.338733
0.477337 -0.777256 8.372994
0.638651 -1.039927 9.286642
0.438617 -0.895199 0.695655
0.504057 -1.028760 1.311702
0.621571 -1.268601 1.970044
0.579041 -1.181799 2.582961
0.612999 -1.251106 3.060244
0.639074 -1.304325 3.524890
0.780005 -1.591958 3.821295
0.956458 -1.952094 4.696153
0.860408 -1.756059 5.267247
0.735794 -1.501726 5.844898
0.297608 -0.607407 8.035042
0.411810 -0.840487 8.365417
0.514298 -1.049663 9.065269
0.242883 -0.628279 0.762223
0.536352 -1.387410 1.964340
0.489211 -1.265468 2.208747
0.702329 -1.816752 4.283061
0.832397 -2.153205 4.460125
0.376069 -0.972798 8.694693
0.412994 -1.068314 8.842773
0.342580 -1.205568 0.901641
0.383328 -1.348965 1.433032
0.398916 -1.403821 2.235395
0.389999 -1.372442 2.429827
0.441932 -1.555196 2.814352
0.675785 -2.378145 5.173677
0.636033 -2.238254 5.331807
0.209427 -0.736991 8.157834
0.324172 -1.140789 8.884496
0.393088 -1.383310 9.447603
0.403210 -1.418931 9.971538
0.224631 -1.151893 0.754990
0.257782 -1.321892 1.329903
0.286137 -1.467297 2.352605
0.278238 -1.426786 2.448580
0.352662 -1.808433 3.232004
0.463338 -2.375970 4.790143
0.441603 -2.264518 5.116000
0.235592 -1.208103 8.861266
0.268173 -1.375177 9.047755
0.270779 -1.388537 9.672386
0.140283 -1.364368 0.678663
0.155301 -1.510434 1.257805
0.144860 -1.408887 1.665472
0.151341 -1.471922 2.708616
0.205483 -1.998495 4.194876
0.243416 -2.367426 4.433359
0.237817 -2.312971 4.822683
0.122443 -1.190859 8.682955
0.154487 -1.502521 9.206842
0.017081 -1.318292 0.545683
0.020433 -1.576971 1.423340
0.020825 -1.607257 1.891931
0.019784 -1.526871 2.427467
0.020100 -1.551282 3.119673
0.019377 -1.495454 3.827009
0.030834 -2.379707 4.433359
0.032163 -2.482332 5.574474
0.013611 -1.050446 8.313249
0.020135 -1.553979 9.254474
-0.115675 -1.460218 1.182940
-0.135700 -1.713001 2.325168
-0.125423 -1.583266 2.273564
-0.120133 -1.516491 2.860339
-0.133666 -1.687328 3.435307
-0.153888 -1.942603 3.978443
-0.180546 -2.279112 4.752607
-0.194498 -2.455242 5.486677
-0.189945 -2.397769 5.905811
-0.119044 -1.502747 8.346204
-0.131619 -1.661482 9.198154
-0.268647 -1.570844 1.261135
-0.285166 -1.667438 1.661705
-0.273315 -1.598139 2.362186
-0.259976 -1.520146 2.822542
-0.287790 -1.682779 3.355404
-0.300974 -1.759868 3.904609
-0.345949 -2.022849 4.300708
-0.409220 -2.392814 5.324410
-0.404923 -2.367687 5.892267
-0.295562 -1.728222 8.212720
-0.293712 -1.717410 8.811333
-0.257456 -1.505408 8.877818
-0.394111 -1.460755 1.609931
-0.464069 -1.720051 1.495577
-0.457537 -1.695842 2.188632
-0.455918 -1.689842 2.652056
-0.457518 -1.695772 3.532906
-0.463718 -1.718752 3.522530
-0.469862 -1.741523 4.022563
-0.548823 -2.034188 4.879153
-0.596301 -2.210166 5.027584
-0.605861 -2.245597 6.003706
-0.560357 -2.076941 6.540297
-0.456550 -1.692182 6.696177
-0.462086 -1.712703 7.604593
-0.448465 -1.662218 7.947268
-0.464247 -1.720713 8.696645
-0.477745 -1.770741 9.365502
-0.438902 -1.626771 9.890322
-0.642615 -1.755791 1.275300
-0.621368 -1.697739 1.891078
-0.621947 -1.699322 2.961733
-0.612189 -1.672660 3.529473
-0.606258 -1.656455 3.929241
-0.602589 -1.646428 4.180293
-0.660473 -1.804583 4.707679
-0.786190 -2.148075 5.618410
-0.778218 -2.126292 7.051979
-0.653714 -1.786118 7.596465
-0.587380 -1.604874 7.821566
-0.617459 -1.687059 8.738284
-0.564063 -1.541167 8.901043
-0.572392 -1.563924 9.769811
-0.731021 -1.562570 2.114249
-0.796401 -1.702321 2.436063
-0.757857 -1.619933 2.774425
-0.716970 -1.532536 3.031934
-0.742962 -1.588095 3.859758
-0.760227 -1.624999 4.273419
-0.802644 -1.715666 4.963511
-0.903120 -1.930436 5.942056
-0.831675 -1.777720 5.880148
-0.854421 -1.826340 6.715218
-0.839131 -1.793657 7.057858
-0.834712 -1.784213 7.734117
-0.771871 -1.649889 8.015121
-0.754257 -1.612238 8.612233
-0.997203 -1.693800 1.187583
-0.976344 -1.658369 2.097731
-0.971580 -1.650277 2.279399
-0.974313 -1.654920 3.250154
-0.972567 -1.651954 3.771417
-0.986194 -1.675100 4.106538
-0.958481 -1.628028 4.385477
-0.983438 -1.670419 5.184484
-0.975703 -1.657281 5.475999
-1.007214 -1.710804 5.976603
-1.079424 -1.833457 6.744287
-1.048578 -1.781063 7.271061
-0.994760 -1.689651 7.789700
-0.971551 -1.650228 8.305698
-0.964670 -1.638540 8.888057
-1.098874 -1.533282 1.572682
-1.129106 -1.575466 1.957710
-1.139485 -1.589948 3.133506
-1.145504 -1.598347 3.764051
-1.155276 -1.611982 4.036554
-1.138050 -1.587946 4.317541
-1.136131 -1.585268 4.859479
-1.170335 -1.632993 5.399829
-1.200122 -1.674556 6.075002
-1.237672 -1.726950 6.437624
-1.307659 -1.824605 7.256580
-1.181848 -1.649058 7.408823
-1.180294 -1.646890 8.162754
-1.178750 -1.644735 8.706463
-1.207362 -1.684659 9.504281
-1.015589 -1.417073 9.763906
-1.301059 -1.523414 1.434212
-1.284329 -1.503826 2.412724
-1.289134 -1.509452 2.732091
-1.262715 -1.478517 3.240073
-1.221988 -1.430830 3.339515
-1.285746 -1.505485 4.171427
-1.307156 -1.530554 4.918851
-1.242540 -1.454894 4.931085
-1.192654 -1.396483 5.429528
-1.271385 -1.488669 5.968573
-1.368668 -1.602578 6.471248
-1.464201 -1.714438 7.639499
-1.389949 -1.627496 7.861961
-1.435394 -1.680707 8.710797
-1.349397 -1.580013 9.011541
-1.215826 -1.184996 1.339809
-1.389769 -1.354529 1.638579
-1.430042 -1.393780 2.064005
-1.448030 -1.411311 2.839452
-1.442776 -1.406191 2.993630
-1.454042 -1.417172 3.852952
-1.481364 -1.443800 4.538477
-1.573587 -1.533685 5.323831
-1.548878 -1.509602 5.747138
-1.432951 -1.396616 5.711848
-1.485633 -1.447961 6.238818
-1.540876 -1.501804 6.833265
-1.497236 -1.459270 7.353393
-1.518785 -1.480272 8.048941
-1.520306 -1.481755 8.764218
-1.433890 -1.397531 9.023068
-1.355897 -1.321515 9.595683
-1.302710 -1.055470 0.845080
-1.541252 -1.248739 2.203814
-1.616712 -1.309878 2.687034
-1.620105 -1.312626 2.950496
-1.630393 -1.320962 3.450564
-1.586327 -1.285259 3.759873
-1.615962 -1.309270 4.600238
-1.624744 -1.316385 4.796887
-1.630633 -1.321156 5.459567
-1.645075 -1.332858 5.772010
-1.718048 -1.391981 6.270180
-1.676167 -1.358049 6.758323
-1.785793 -1.446869 7.864743
-1.657795 -1.343163 7.924222
-1.715656 -1.390043 8.780473
-1.606802 -1.301848 8.984090
-1.627615 -1.318711 9.976896
-1.417695 -0.962546 1.150596
-1.640624 -1.113904 2.196927
-1.687370 -1.145642 2.268193
-1.736622 -1.179082 3.067072
-1.729859 -1.174490 3.395710
-1.671643 -1.134965 3.615518
-1.714471 -1.164043 4.559067
-1.774549 -1.204833 5.070903
-1.777647 -1.206936 5.570634
-1.718334 -1.166665 5.593753
-1.926088 -1.307720 6.719584
-1.863045 -1.264917 6.820611
-1.964225 -1.333613 7.855749
-1.756294 -1.192438 7.889984
-1.840412 -1.249550 8.751736
-1.745833 -1.185336 8.953578
-1.531935 -0.847842 0.821750
-1.681101 -0.930398 1.307311
-1.755264 -0.971443 2.174118
-1.777912 -0.983978 2.456090
-1.726529 -0.955540 3.068432
-1.727756 -0.956219 3.819175
-1.761626 -0.974964 4.067006
-1.778662 -0.984393 4.481066
-1.790909 -0.991170 5.090711
-1.938045 -1.072602 6.182251
-2.035326 -1.126442 6.712791
-2.030426 -1.123730 6.882221
-1.992310 -1.102635 7.188200
-2.093867 -1.158841 8.239008
-1.938944 -1.073100 8.419087
-1.894874 -1.048709 8.810700
-1.629995 -0.716049 1.474750
-1.779273 -0.781626 1.679969
-1.830349 -0.804064 2.091537
-1.874726 -0.823558 2.843524
-1.903447 -0.836175 3.306539
-1.914233 -0.840914 4.075642
-1.833121 -0.805281 4.153590
-1.874773 -0.823579 4.563524
-1.839411 -0.808045 5.155668
-1.889007 -0.829832 5.871220
-2.062511 -0.906052 6.433842
-2.075308 -0.911673 6.779985
-2.093721 -0.919762 7.659411
-2.096124 -0.920817 8.401973
-2.087373 -0.916973 8.908453
-2.130590 -0.935958 9.470320
-1.970954 -0.661956 2.423799
-1.939360 -0.651345 2.336901
-1.963908 -0.659589 2.833857
-1.959036 -0.657953 3.210462
-1.912942 -0.642472 3.770441
-1.982339 -0.665779 4.661971
-2.050529 -0.688681 5.402629
-1.816037 -0.609926 5.441476
-1.925250 -0.646606 6.060246
-2.197158 -0.737928 6.584041
-2.201143 -0.739266 7.072371
-2.115019 -0.710341 7.475489
-2.132717 -0.716285 8.203432
-2.209002 -0.741906 8.974805
-2.253165 -0.756738 9.669317
-2.107005 -0.707649 10.227448
-1.874932 -0.440661 1.792085
-2.007631 -0.471849 2.508596
-2.012338 -0.472955 2.556650
-1.996364 -0.469200 2.871001
-1.994525 -0.468768 3.807964
-1.942978 -0.456653 3.956906
-1.986144 -0.466799 4.522301
-2.028600 -0.476777 5.390991
-1.993665 -0.468566 5.578572
-2.132680 -0.501239 6.188247
-2.253618 -0.529662 6.861833
-2.232006 -0.524583 7.242639
-2.197531 -0.516480 7.817782
-2.168505 -0.509658 8.453197
-2.210526 -0.519534 9.104092
-2.051269 -0.293926 2.064755
-2.024503 -0.290091 2.330031
-2.102411 -0.301254 3.064045
-2.009816 -0.287986 3.319929
-1.976809 -0.283257 3.963789
-2.063743 -0.295714 4.627678
-2.115545 -0.303136 5.158024
-2.014153 -0.288608 5.747575
-2.055246 -0.294496 6.245680
-2.335697 -0.334682 6.740215
-2.390178 -0.342488 7.302804
-2.352292 -0.337060 7.862529
-2.185009 -0.313090 7.991125
-2.234631 -0.320200 8.694362
-2.162209 -0.309823 9.158850
-2.231382 -0.319735 10.238430
-1.094816 -0.063488 0.685876
-2.047755 -0.118749 1.790125
-2.036736 -0.118110 2.275064
-2.093039 -0.121375 2.831060
-2.094023 -0.121433 3.255296
-2.063329 -0.119653 3.924699
-2.019501 -0.117111 4.277414
-2.208257 -0.128057 5.392098
-2.068211 -0.119936 5.796934
-2.061716 -0.119559 6.095598
-2.356009 -0.136625 6.645523
-2.283342 -0.132411 6.854862
-2.400410 -0.139200 7.868536
-2.244848 -0.130179 8.038058
-2.216034 -0.128508 8.585282
-2.289568 -0.132772 9.452000
-2.083100 -0.120799 9.750633
-2.183512 0.071592 2.475706
-2.074748 0.068026 2.389492
-2.076722 0.068091 2.659591
-2.085037 0.068363 3.166149
-2.152683 0.070581 3.995252
-2.174494 0.071296 4.568582
-2.190385 0.071817 5.296513
-1.982082 0.064988 5.398174
-2.142426 0.070245 6.308939
-2.421352 0.079390 6.875901
-2.325035 0.076232 6.902604
-2.360627 0.077399 7.732975
-2.428610 0.079628 8.581279
-2.223248 0.072895 8.598926
-2.272061 0.074495 9.327507
-2.114826 0.069340 9.826037
-1.994948 0.251414 1.558063
-2.029015 0.255707 2.039320
-2.159289 0.272125 3.279840
-2.181422 0.274915 3.624827
-2.231233 0.281192 4.112988
-2.116733 0.266762 3.865229
-2.125570 0.267876 4.525168
-2.118942 0.267041 5.394205
-2.189337 0.275912 6.148126
-2.228085 0.280795 6.305005
-2.294983 0.289226 6.760087
-2.444364 0.308052 7.723561
-2.217319 0.279439 7.660448
-2.352536 0.296479 8.791877
-2.220126 0.279792 8.938898
-1.947179 0.424062 1.669771
-1.973879 0.429876 2.041337
-2.011691 0.438111 2.717157
-2.048550 0.446139 3.046505
-2.134890 0.464942 3.703578
-2.077963 0.452544 4.140137
-2.131953 0.464302 5.127462
-1.957578 0.426326 5.128145
-2.046043 0.445592 5.892973
-2.316321 0.504454 6.780912
-2.254703 0.491035 6.834643
-2.355960 0.513087 7.806840
-2.131595 0.464224 7.826518
-2.091382 0.455466 8.429318
-2.180152 0.474799 9.141683
-2.104244 0.659007 1.456997
-1.993436 0.624304 1.959854
-2.005359 0.628038 2.393984
-2.056925 0.644188 3.115745
-2.113507 0.661908 3.734045
-2.088166 0.653972 3.891780
-2.093043 0.655499 4.664233
-2.032490 0.636535 5.366820
-1.939604 0.607445 5.849407
-2.006126 0.628279 6.035859
-2.222146 0.695932 6.624807
-2.248956 0.704328 7.371482
-2.244873 0.703049 7.952292
-2.106719 0.659782 8.073849
-2.139342 0.669999 8.875969
-1.739122 0.727332 1.066668
-1.863219 0.779232 1.695630
-1.908170 0.798031 2.016712
-1.933937 0.808807 2.595264
-1.944337 0.813157 3.135616
-1.992932 0.833480 3.707234
-2.050311 0.857477 4.257608
-2.068522 0.865093 5.171982
-2.053021 0.858611 5.905383
-1.943988 0.813011 5.839306
-2.070243 0.865813 6.399768
-2.151373 0.899743 6.922982
-2.184854 0.913745 7.753324
-2.050524 0.857566 8.038892
-2.078444 0.869243 8.757108
-2.139697 0.894860 9.519990
-1.905460 0.796898 9.695739
-1.770975 0.930515 0.806812
-1.927046 1.012519 1.794932
-1.865521 0.980192 2.455670
-1.835920 0.964639 2.368906
-1.840193 0.966883 2.895615
-1.997445 1.049508 4.307924
-1.882620 0.989176 4.140137
-1.730992 0.909506 4.473511
-1.818548 0.955511 5.490784
-1.925523 1.011718 6.018347
-2.000228 1.050970 6.359514
-2.002636 1.052235 6.569573
-2.042246 1.073047 7.201681
-2.067363 1.086244 8.062645
-2.116071 1.111837 8.846106
-2.108466 1.107841 9.403011
-1.495773 0.972319 1.043107
-1.701940 1.106336 1.460291
-1.848096 1.201344 2.143295
-1.750210 1.137714 2.243135
-1.781236 1.157882 2.855658
-1.803942 1.172642 3.283084
-1.911820 1.242768 4.444111
-1.805584 1.173710 4.445505
-1.722874 1.119945 5.003376
-2.016220 1.310632 6.997673
-1.932595 1.256273 7.194882
-1.854853 1.205737 7.757032
-1.766792 1.148494 8.250220
-1.759034 1.143450 8.919308
-1.386848 1.074804 1.462297
-1.564087 1.212165 1.442519
-1.736654 1.345903 2.598654
-1.632744 1.265373 2.279681
-1.693640 1.312567 3.214660
-1.599139 1.239329 3.264927
-1.589693 1.232009 4.053247
-1.627459 1.261278 5.023977
-1.752720 1.358354 5.298164
-1.941217 1.504440 5.793887
-1.945218 1.507540 6.538968
-1.739330 1.347978 6.629628
-1.608713 1.246750 6.975839
-1.727554 1.338851 7.922836
-1.670962 1.294993 8.270777
-1.742341 1.350311 9.213486
-1.282076 1.207788 1.099713
-1.275974 1.202040 1.434498
-1.417217 1.335099 2.610667
-1.547516 1.457848 2.869355
-1.511890 1.424286 2.652730
-1.453925 1.369680 3.261254
-1.459117 1.374572 4.011965
-1.544194 1.454718 4.550154
-1.702932 1.604259 5.024497
-1.819601 1.714167 5.421909
-1.461669 1.376975 7.602154
-1.462364 1.377630 8.191097
-1.520613 1.432504 8.968828
-1.398235 1.317217 9.239464
-1.355613 1.277064 10.069104
-1.131282 1.268439 1.374633
-1.153136 1.292942 1.512420
-1.293387 1.450196 2.019798
-1.383451 1.551181 2.416938
-1.304698 1.462879 2.734780
-1.254733 1.406857 3.726710
-1.255788 1.408039 4.066164
-1.509729 1.692768 4.791336
-1.674139 1.877110 5.010107
-1.714313 1.922155 5.645465
-1.625949 1.823079 6.061450
-1.476615 1.655639 6.500910
-1.336647 1.498701 7.064891
-1.290201 1.446625 7.630691
-1.266074 1.419572 8.103788
-1.395353 1.564526 9.136624
-1.386747 1.554876 9.673035
-1.150390 1.289863 10.001722
-1.005319 1.366033 0.656208
-1.019011 1.384638 1.268914
-1.135504 1.542929 1.640195
-1.264395 1.718066 2.930979
-1.127674 1.532289 2.894898
-1.077627 1.464285 3.786149
-1.052576 1.430246 4.005639
-1.288555 1.750895 4.830688
-1.581669 2.149180 5.603052
-1.493413 2.029258 5.276467
-1.156539 1.571512 8.255644
-1.070454 1.454538 8.611158
-0.866116 1.407991 0.887770
-0.926986 1.506945 1.698511
-1.014519 1.649242 1.569586
-1.023476 1.663802 2.143937
-0.983225 1.598369 3.101238
-0.980114 1.593312 3.799538
-0.915503 1.488277 3.647596
-1.124082 1.827351 4.680231
-1.317263 2.141394 4.877104
-1.333844 2.168349 5.397738
-0.983796 1.599297 8.272005
-1.036089 1.684306 9.101927
-0.787599 1.577710 1.608210
-0.795114 1.592765 2.172608
-0.819503 1.641620 3.366828
-1.008588 2.020394 4.871002
-1.168027 2.339780 5.594027
-1.060516 2.124415 5.194126
-0.787170 1.576852 8.401933
-0.856669 1.716071 9.084361
-0.777478 1.557437 9.328895
-0.777166 1.556811 10.368015
-0.466092 1.204346 0.440077
-0.527008 1.361747 1.077504
-0.625434 1.616072 1.519376
-0.651765 1.684111 2.702371
-0.644883 1.666328 3.189737
-0.753459 1.946881 4.210011
-0.840044 2.170608 5.090596
-0.790984 2.043842 5.296513
-0.545887 1.410530 8.601201
-0.656095 1.695298 9.175117
-0.631780 1.632471 9.641846
-0.600707 1.552180 10.179993
-0.360041 1.249628 0.815032
-0.412340 1.431145 1.632559
-0.488445 1.695291 1.622104
-0.491246 1.705011 2.103175
-0.482437 1.674438 2.814610
-0.620589 2.153934 5.044278
-0.651383 2.260812 5.212812
-0.629571 2.185107 5.893894
-0.365576 1.268837 8.736184
-0.418729 1.453320 8.757494
-0.465936 1.617165 9.675352
-0.425067 1.475318 9.988546
-0.267583 1.404428 0.937802
-0.299433 1.571596 1.787072
-0.302026 1.585205 1.975796
-0.304997 1.600798 2.699912
-0.384175 2.016370 4.449220
-0.408840 2.145828 4.616416
-0.224526 1.178441 8.611166
-0.250690 1.315766 8.635507
-0.310552 1.629959 9.612602
-0.281262 1.476227 9.904382
-0.147744 1.467086 0.781433
-0.158588 1.574759 1.521299
-0.160257 1.591337 2.110589
-0.160281 1.591569 2.653597
-0.154858 1.537726 3.070633
-0.153675 1.525975 3.742567
-0.179412 1.781538 4.252601
-0.219330 2.177925 5.161622
-0.102927 1.022056 8.155715
-0.138093 1.371249 8.905623
-0.146231 1.452062 9.360145
-0.154954 1.538674 10.153953
-0.010333 1.351071 0.834641
-0.012205 1.595920 2.068636
-0.011782 1.540527 2.002586
-0.012244 1.601001 3.113644
-0.015489 2.025266 4.852201
-0.016180 2.115586 4.792203
-0.008044 1.051778 8.234304
-0.009427 1.232670 8.710514
-0.011197 1.464107 9.661877
-0.010347 1.352913 9.792223
0.098965 1.212007 1.215692
0.117827 1.443001 1.762339
0.121047 1.482442 2.268349
0.119537 1.463945 2.603227
0.150017 1.837232 4.265137
0.163864 2.006813 4.790306
0.075448 0.924001 7.468315
0.063263 0.774767 7.760957
0.089100 1.091194 8.369874
0.107660 1.318494 9.051345
0.107272 1.313740 9.483517
0.104990 1.285796 9.978121
0.229132 1.377076 1.737560
0.232275 1.395970 2.303100
0.215774 1.296797 2.568823
0.303999 1.827029 4.878350
0.229539 1.379523 8.086588
0.204275 1.227691 8.667139
0.206145 1.238924 9.011170
0.183074 1.100270 9.364290
0.183358 1.101979 10.085532
0.385311 1.427827 2.170021
0.350841 1.300092 2.636974
0.330862 1.226058 3.082024
0.390201 1.445947 3.841048
0.456547 1.691802 4.473612
0.459187 1.701587 4.385946
0.214313 0.794170 7.825985
0.312552 1.158208 8.611166
0.300928 1.115135 8.871230
0.324374 1.202016 9.930411
0.279166 1.034492 10.515324
0.404188 1.118653 1.181342
0.440480 1.219098 1.744268
0.432240 1.196292 2.644574
0.404005 1.118147 2.811037
0.389528 1.078079 3.306148
0.488421 1.351780 3.943610
0.648288 1.794238 5.032607
0.314152 0.869465 7.905199
0.420508 1.163822 8.724696
0.455131 1.259647 9.395745
0.450875 0.970748 1.308331
0.514306 1.107317 1.742205
0.495330 1.066462 2.431938
0.539312 1.161155 3.368316
0.502252 1.081365 3.271454
0.631097 1.358772 4.323110
0.770374 1.658640 4.617492
0.425472 0.916056 8.184603
0.514349 1.107411 8.596222
0.543158 1.169438 9.182296
0.627852 1.072309 1.690914
0.612175 1.045535 2.271189
0.556047 0.949674 2.144483
0.611849 1.044979 3.218660
0.592206 1.011429 3.686403
0.681773 1.164402 3.863187
0.926525 1.582414 4.781396
0.352115 0.601377 7.572777
0.500238 0.854358 8.120206
0.667318 1.139713 8.814879
0.659120 1.125712 9.224742
0.474003 0.671709 1.349631
0.635687 0.900830 2.453161
0.628467 0.890599 2.583880
0.637578 0.903511 3.383710
0.655221 0.928512 3.960469
0.792867 1.123569 4.032542
1.012807 1.435246 4.911121
0.389958 0.552609 7.219576
0.437236 0.619605 7.422661
0.614497 0.870802 8.026440
0.656183 0.929875 8.584172
0.719369 1.019416 9.509288
0.652042 0.924007 10.121139
0.609986 0.718744 1.257210
0.720899 0.849432 1.999988
0.692440 0.815898 2.636296
0.663840 0.782199 3.350457
0.679638 0.800814 3.536223
0.846889 0.997886 4.093601
1.004022 1.183034 4.487178
0.446589 0.526214 7.270267
0.519822 0.612504 7.581391
0.691012 0.814216 7.947773
0.856952 1.009743 8.979528
0.670167 0.655078 1.135292
0.732264 0.715777 2.129171
0.687860 0.672372 2.285757
0.714065 0.697987 3.128747
0.668007 0.652967 3.420529
0.787330 0.769603 3.892957
1.039410 1.016007 4.649388
0.391045 0.382241 6.826582
0.599289 0.585796 7.790091
0.816770 0.798379 8.104345
0.870149 0.850557 8.503271
0.855583 0.836319 8.992054
0.811935 0.664552 1.796751
0.795328 0.650960 1.848499
0.706777 0.578483 2.304448
0.754817 0.617803 3.349634
0.756886 0.619496 3.743056
0.712214 0.582933 4.353771
0.882526 0.722330 4.882408
1.019528 0.834463 5.267550
0.840352 0.687812 5.858999
0.627552 0.513639 6.544454
0.453754 0.371389 6.979324
0.583710 0.477755 7.408218
0.880434 0.720618 8.090111
0.950606 0.778052 8.538744
1.016694 0.832143 9.325084
0.822647 0.553683 1.233350
0.807143 0.543248 1.780397
0.723064 0.486659 2.105365
0.748694 0.503909 2.950976
0.742950 0.500043 3.316026
0.743974 0.500732 3.879326
0.748015 0.503452 4.393766
0.883979 0.594963 5.407994
0.789829 0.531595 5.476305
0.610608 0.410970 6.234121
0.425209 0.286187 6.587421
0.629301 0.423552 7.236016
0.941850 0.633913 7.997332
0.979740 0.659415 8.310964
1.028516 0.692244 9.191887
0.936675 0.630430 9.836244
0.726422 0.488919 10.360943
0.749599 0.411943 0.965877
0.730192 0.401278 1.551294
0.786488 0.432216 2.407210
0.809832 0.445045 3.137627
0.744251 0.409004 3.541399
0.751535 0.413007 4.120618
0.924395 0.508003 4.831952
0.966509 0.531146 5.214760
0.811089 0.445735 5.347211
0.615590 0.338298 6.089485
0.576373 0.316747 7.053678
0.677307 0.372215 7.193347
0.891490 0.489920 7.690594
1.059837 0.582435 8.560739
0.974578 0.535581 8.822304
0.846686 0.465298 9.466343
0.806973 0.443473 10.542555
0.392239 0.170754 0.901006
0.533178 0.232110 1.529611
0.768340 0.334484 2.303790
0.787482 0.342817 2.781172
0.769865 0.335147 3.271884
0.826444 0.359778 4.076995
0.927071 0.403584 4.588979
0.857777 0.373418 4.735381
0.755242 0.328782 5.472990
0.623224 0.271310 6.102319
0.592751 0.258044 6.608279
0.809666 0.352474 7.496343
0.900292 0.391927 7.747638
1.043663 0.454341 8.175841
1.106000 0.481478 9.020455
0.940732 0.409531 9.630939
0.793256 0.345330 10.265549
0.211858 0.072057 0.775130
0.401195 0.136454 1.391979
0.798174 0.271475 2.361379
0.816008 0.277541 2.809945
0.783286 0.266412 3.171075
0.740089 0.251719 3.601884
0.844049 0.287078 4.484121
0.882228 0.300064 4.854637
0.782662 0.266199 5.487396
0.701444 0.238576 6.362753
0.629205 0.214005 6.680770
0.596318 0.202820 7.427380
0.705224 0.239861 7.739098
1.142775 0.388681 8.310466
1.144652 0.389320 8.639564
1.077822 0.366589 9.428375
0.852628 0.289996 10.218689
0.329410 0.080028 1.190511
0.553396 0.134445 1.742002
0.839115 0.203858 2.308809
0.837553 0.203479 2.809945
0.790943 0.192155 3.267753
0.723100 0.175673 3.695349
0.766439 0.186202 4.323691
0.852518 0.207115 4.693928
0.957538 0.232629 5.633908
0.657856 0.159822 5.745570
0.485449 0.117937 6.428419
0.430874 0.104679 7.220153
0.820206 0.199264 8.070820
1.099158 0.267034 8.068755
1.326574 0.322284 9.020748
1.071831 0.260396 9.104158
0.948490 0.230430 10.205885
0.835741 0.123748 1.738472
0.970689 0.143730 2.219154
0.823172 0.121887 2.514868
0.806938 0.119483 3.282165
0.747191 0.110637 3.774807
0.776736 0.115011 4.302052
0.828087 0.122615 4.753100
0.848838 0.125687 5.136547
0.694739 0.102870 5.861408
0.500999 0.074183 6.349700
0.653000 0.096690 7.255129
0.817613 0.121064 7.388013
1.198535 0.177467 8.324662
1.214826 0.179879 8.617504
1.099778 0.162844 9.053198
0.682394 0.037935 1.560092
0.844785 0.046962 2.100158
0.809467 0.044999 2.553275
0.793301 0.044100 3.314094
0.735991 0.040914 3.644767
0.686075 0.038140 3.999017
0.874181 0.048597 4.961738
0.905454 0.050335 5.380915
0.727019 0.040416 5.977134
0.560231 0.031144 6.575455
0.502738 0.027948 7.250897
0.788436 0.043830 7.890691
1.208744 0.067195 8.403287
1.089323 0.060557 8.520710
1.097845 0.061030 9.394114
0.803381 0.044661 9.753212
0.778389 -0.027971 1.873302
0.927843 -0.033342 2.187494
0.815823 -0.029316 2.610923
0.736375 -0.026461 2.815960
0.737373 -0.026497 3.828929
0.702142 -0.025231 4.100355
0.787707 -0.028306 4.620546
0.905525 -0.032540 5.500866
0.653289 -0.023476 5.636873
0.584198 -0.020993 6.669987
0.486922 -0.017497 6.795211
0.849677 -0.030533 7.653690
1.134803 -0.040779 8.082993
1.095558 -0.039368 8.455953
1.075058 -0.038632 9.177705
1.010934 -0.036328 10.159171
0.971814 -0.116921 1.470892
0.929042 -0.111775 2.273579
0.842875 -0.101408 2.426154
0.739972 -0.089027 2.654425
0.666146 -0.080145 3.528454
0.722719 -0.086952 3.933744
0.894998 -0.107679 4.964296
0.868778 -0.104524 5.222846
0.694795 -0.083592 5.491115
0.599431 -0.072119 6.326590
0.533699 -0.064210 6.790182
0.725270 -0.087258 7.228150
1.110869 -0.133650 8.197562
1.221667 -0.146981 8.782312
1.166033 -0.140287 8.928112
0.441824 -0.096434 1.456429
0.583584 -0.127376 1.783965
0.800055 -0.174624 2.073324
0.826084 -0.180305 2.651652
0.780690 -0.170397 3.350147
0.790356 -0.172507 3.796583
0.916901 -0.200127 4.609077
0.995703 -0.217327 5.305848
0.490204 -0.106994 7.526056
0.809646 -0.176717 7.933971
1.182026 -0.257994 8.481980
1.201480 -0.262240 9.163522
0.441460 -0.138221 1.155777
0.584941 -0.183145 1.637104
0.821686 -0.257270 2.280038
0.782477 -0.244993 2.646947
0.670289 -0.209867 3.178741
1.008368 -0.315720 4.257907
1.134197 -0.355117 4.440889
1.030828 -0.322752 4.967552
0.402749 -0.126100 7.611674
0.695348 -0.217713 8.035024
1.075654 -0.336787 8.140246
1.076816 -0.337151 8.713799
0.558039 -0.232958 0.953235
0.783989 -0.327283 2.143339
0.845173 -0.352825 2.333162
0.770465 -0.321638 2.543670
0.783685 -0.327156 3.541399
1.069066 -0.446291 3.768152
1.305887 -0.545154 4.431247
0.381807 -0.159389 7.582418
0.596872 -0.249169 7.759887
1.005090 -0.419584 8.269601
1.137156 -0.474716 9.170614
0.377782 -0.196139 0.835202
0.636613 -0.330521 1.703296
0.873053 -0.453277 2.247794
0.812213 -0.421689 2.593911
0.578537 -0.300368 3.177438
1.397789 -0.725712 4.015727
0.369238 -0.191703 7.117802
0.631689 -0.327964 7.803769
0.960700 -0.498782 8.413168
0.997222 -0.517743 8.699558
0.508897 -0.327133 0.960498
0.706395 -0.454090 1.659291
0.837024 -0.538062 2.081103
0.842078 -0.541310 2.932685
1.020841 -0.656224 3.239952
1.378962 -0.886434 3.941316
1.487010 -0.955891 4.700378
1.331984 -0.856236 5.067959
0.349257 -0.224512 7.495190
0.560164 -0.360089 7.825128
0.969943 -0.623506 8.469023
0.990682 -0.636837 9.014429
0.579547 -0.452864 1.100555
0.618882 -0.483600 1.590297
0.790987 -0.618085 1.864566
1.135515 -0.887303 3.440489
0.648146 -0.506468 6.894383
0.493122 -0.385331 7.412867
0.673561 -0.526327 8.020352
0.820069 -0.640810 8.608272
0.882919 -0.689922 9.378536
0.730158 -0.570553 9.937097
0.476299 -0.441503 0.791944
0.613902 -0.569054 1.616096
0.822967 -0.762846 2.393855
0.890120 -0.825094 2.564491
1.076385 -0.997751 3.051425
1.334279 -1.236805 4.119638
1.417077 -1.313554 4.627219
0.448176 -0.415435 7.636528
0.751653 -0.696742 8.479036
0.780601 -0.723576 8.758959
0.733362 -0.679787 9.188222
0.663733 -0.615244 9.879672
0.591247 -0.657438 1.065585
0.630723 -0.701333 1.710388
0.728318 -0.809853 2.001896
1.046268 -1.163398 4.110634
0.393056 -0.437058 7.462629
0.547251 -0.608515 8.157519
0.678479 -0.754435 8.608925
0.705241 -0.784193 9.193121
0.738826 -0.821537 9.983944
0.662304 -0.888811 1.042243
0.637471 -0.855485 1.236966
0.653306 -0.876735 1.707781
0.691754 -0.928332 2.505392
0.615582 -0.826110 3.182970
0.974976 -1.308417 5.181879
0.324723 -0.435778 7.396600
0.445777 -0.598232 7.919436
0.658721 -0.884002 8.793800
0.714344 -0.958648 9.512266
0.659052 -0.884446 9.837931
0.573410 -0.933715 1.743428
0.715303 -1.164769 1.675746
0.647713 -1.054708 2.283197
0.706305 -1.150116 2.900865
0.827549 -1.347544 3.158643
1.008457 -1.642127 4.158868
0.288239 -0.469356 7.787901
0.463666 -0.755013 8.373386
0.563478 -0.917543 8.873981
0.454479 -0.904994 1.146362
0.525355 -1.046126 2.081486
0.621605 -1.237788 2.519129
0.589662 -1.174181 2.561753
0.505741 -1.007070 3.149553
0.854337 -1.701221 5.263628
0.317206 -0.631645 7.962702
0.375011 -0.746751 8.128546
0.497882 -0.991420 8.656817
0.609048 -1.212782 9.589464
0.505500 -1.006591 9.829123
0.371111 -0.958352 0.888001
0.422966 -1.092261 1.324664
0.490223 -1.265947 1.903278
0.486527 -1.256403 2.879685
0.525984 -1.358295 3.366890
0.669992 -1.730180 4.028597
0.822326 -2.123566 4.704968
0.796757 -2.057536 4.866921
0.285942 -0.738413 8.071019
0.403309 -1.041501 8.836552
0.425672 -1.099250 9.093700
0.455757 -1.176941 9.834690
0.274832 -0.935417 0.803754
0.352427 -1.199520 1.804323
0.396159 -1.348366 2.190406
0.371201 -1.263420 2.326121
0.447733 -1.523904 3.214609
0.574525 -1.955454 4.063026
0.628118 -2.137861 4.291714
0.607749 -2.068534 4.459185
0.535472 -1.822530 4.991154
0.493113 -1.678358 5.732286
0.239533 -0.815274 8.258326
0.316069 -1.075772 8.692436
0.356445 -1.213197 9.111499
0.374522 -1.274724 9.938982
0.201871 -1.066560 1.093165
0.225939 -1.193720 1.649960
0.265586 -1.403194 2.443905
0.267615 -1.413913 2.556497
0.303298 -1.602441 2.940084
0.382370 -2.020207 4.172941
0.407804 -2.154583 4.080134
0.420425 -2.221264 4.616448
0.146033 -0.771551 8.049380
0.217781 -1.150623 8.683755
0.248561 -1.313241 9.165616
0.231076 -1.220862 9.639984
0.102688 -1.057996 1.151316
0.126751 -1.305922 1.601214
0.131096 -1.350685 1.896220
0.141386 -1.456708 3.016284
0.160973 -1.658509 3.027907
0.189000 -1.947277 3.519229
0.212162 -2.185911 4.100623
0.235484 -2.426201 5.004715
0.224241 -2.310362 5.183968
0.104677 -1.078496 8.578399
0.135022 -1.391139 8.962018
0.139509 -1.437371 9.317953
0.125667 -1.294757 9.795770
0.013010 -1.025967 0.837966
0.016965 -1.337801 1.975749
0.019653 -1.549788 2.404102
0.019565 -1.542863 2.829549
0.025799 -2.034489 4.346160
0.031116 -2.453763 4.959224
0.031035 -2.447348 5.532653
0.012688 -1.000527 8.321223
0.017016 -1.341864 8.799768
0.018022 -1.421219 9.254618
0.017542 -1.383301 9.942229
-0.086104 -1.107131 1.092121
-0.107372 -1.380594 1.561340
-0.122833 -1.579391 2.499733
-0.116887 -1.502933 2.485957
-0.160972 -2.069783 4.579654
-0.184531 -2.372705 4.573395
-0.186785 -2.401687 5.356743
-0.086560 -1.112995 8.355128
-0.125293 -1.611020 8.980378
-0.120503 -1.549430 9.254474
-0.105320 -1.354208 9.806339
-0.238205 -1.401596 1.326056
-0.288186 -1.695687 2.051625
-0.269057 -1.583132 2.187489
-0.267757 -1.575483 3.291536
-0.367703 -2.163562 5.188943
-0.401223 -2.360795 5.168691
-0.379297 -2.231782 5.395188
-0.288700 -1.698710 8.678027
-0.289659 -1.704354 9.222981
-0.366439 -1.374889 0.726632
-0.443569 -1.664282 1.331542
-0.433219 -1.625447 1.886410
-0.425472 -1.596379 2.422694
-0.426660 -1.600839 3.354943
-0.474030 -1.778570 4.094862
-0.521656 -1.957267 4.581732
-0.567148 -2.127954 4.712033
-0.613502 -2.301874 5.469008
-0.578906 -2.172070 5.670292
-0.417262 -1.565575 7.787667
-0.459136 -1.722689 8.851775
-0.460163 -1.726543 9.453940
-0.407592 -1.529293 9.833491
-0.542470 -1.519288 1.610673
-0.576706 -1.615173 1.988989
-0.582625 -1.631748 2.949545
-0.566355 -1.586182 3.372599
-0.596692 -1.671147 3.480871
-0.614436 -1.720843 4.168153
-0.679240 -1.902339 4.689397
-0.780004 -2.184546 5.297836
-0.629341 -1.762586 7.839906
-0.561474 -1.572511 7.864109
-0.607648 -1.701830 8.921159
-0.612190 -1.714552 9.472966
-0.516069 -1.445347 9.707440
-0.791596 -1.691077 1.664183
-0.779691 -1.665644 2.272271
-0.733759 -1.567520 2.457363
-0.764816 -1.633867 3.512168
-0.730890 -1.561390 3.480685
-0.726411 -1.551823 3.929903
-0.778370 -1.662822 4.516074
-0.915619 -1.956024 5.733461
-0.878014 -1.875689 5.681566
-0.869135 -1.856722 6.647419
-0.769192 -1.643215 6.635528
-0.786284 -1.679728 7.347349
-0.752229 -1.606977 7.778766
-0.714064 -1.525446 8.404521
-0.703385 -1.502632 9.027933
-0.751868 -1.606206 10.048175
-0.979396 -1.694371 1.499101
-0.924726 -1.599791 1.748917
-0.904452 -1.564716 2.716241
-0.912167 -1.578063 3.072656
-0.941411 -1.628656 4.031593
-0.906003 -1.567400 4.064174
-0.915732 -1.584230 4.481434
-0.955685 -1.653351 5.168783
-1.006062 -1.740503 5.753134
-1.053233 -1.822110 6.559765
-1.036022 -1.792333 6.914470
-1.019620 -1.763959 7.525900
-0.915058 -1.583064 7.784949
-0.964121 -1.667945 8.655053
-0.910062 -1.574421 8.878232
-0.845988 -1.463573 9.481794
-1.115175 -1.567951 1.764473
-1.122182 -1.577804 1.930111
-1.114348 -1.566789 2.850642
-1.087945 -1.529665 3.304938
-1.090869 -1.533777 3.529569
-1.104584 -1.553060 4.183648
-1.116258 -1.569474 4.592710
-1.118344 -1.572406 5.013932
-1.118667 -1.572861 5.960516
-1.120974 -1.576104 6.295618
-1.233286 -1.734016 6.935468
-1.135568 -1.596624 7.167877
-1.116144 -1.569314 7.845853
-1.203343 -1.691916 8.857579
-1.078923 -1.516981 8.925372
-1.245750 -1.474099 1.847302
-1.284717 -1.520209 2.279560
-1.257552 -1.488065 2.854741
-1.205871 -1.426910 3.032065
-1.250675 -1.479926 3.740138
-1.246798 -1.475339 4.186476
-1.353737 -1.601880 5.087663
-1.338465 -1.583809 5.342964
-1.251110 -1.480442 5.885813
