-3.018415 -1.211197 4.514651
-3.265078 -0.986785 0.984752
-3.241209 -0.978721 1.574455
-3.239188 -0.977547 1.965051
-3.265645 -0.984530 2.653892
-3.309626 -0.996419 3.584891
-3.219027 -0.968797 3.839987
-3.560378 -0.720216 1.504027
-3.577332 -0.723166 1.815992
-3.531766 -0.712846 2.554271
-3.468046 -0.699423 2.941871
-3.519510 -0.708436 3.852896
-3.719599 -0.415946 1.170594
-3.758821 -0.419133 1.931046
-3.796136 -0.422017 2.733302
-3.771574 -0.418872 2.999326
-3.822090 -0.423080 3.878295
-3.699730 -0.408698 4.445083
-3.961226 -0.077915 1.007517
-3.998244 -0.078128 1.314991
-3.993010 -0.076727 2.096714
-3.980096 -0.075696 2.571312
-4.020968 -0.074973 3.468677
-3.989717 -0.074134 3.628692
-3.933128 -0.071416 4.671638
-3.877630 0.270229 1.010053
-3.883089 0.271707 1.686973
-3.856181 0.270415 2.056614
-3.817756 0.268475 2.535273
-3.857386 0.272707 3.437180
-3.896504 0.276614 4.143772
-3.643720 0.259128 4.488895
-3.588628 0.549761 0.796793
-3.603076 0.553411 1.742122
-3.579933 0.550477 2.155937
-3.533015 0.543790 2.515246
-3.523053 0.543271 3.205362
-3.475536 0.536896 3.870645
-3.197258 0.790164 1.196443
-3.197175 0.790868 1.720826
-3.167855 0.784527 2.390574
-3.127405 0.775038 2.787877
-3.115560 0.773223 3.630930
-3.114667 0.774010 4.393441
-2.855851 0.992794 1.324540
-2.830548 0.984589 1.788066
-2.869680 0.999389 2.703324
-2.857644 0.995708 3.101684
-2.649494 1.196475 0.866428
-2.649950 1.197535 1.531784
-2.704611 1.223462 2.464392
-2.728116 1.234852 3.037116
-2.696172 1.221175 3.643659
-2.647511 1.199611 4.025728
-2.446017 1.390278 1.071704
-2.456594 1.397325 1.865684
-2.486775 1.415575 2.684984
-2.494985 1.421066 3.304551
-2.469988 1.407626 3.922671
-2.242245 1.278371 4.414471
-2.267384 1.560553 0.684713
-2.285941 1.574262 1.377538
-2.237884 1.542150 2.127122
-2.176765 1.500859 2.780813
-2.170256 1.497229 3.458439
-1.971702 1.653382 1.326923
-1.970949 1.653398 1.812739
-1.984001 1.665596 2.742788
-1.954171 1.641062 3.132389
-1.972150 1.657049 3.801199
-1.748355 1.763137 0.903941
-1.746514 1.762116 1.501715
-1.772715 1.789958 2.491795
-1.765564 1.783390 2.956056
-1.777977 1.796854 3.608495
-1.671751 1.690027 4.025262
-1.576209 1.905016 1.314119
-1.572077 1.900625 1.707667
-1.576759 1.907602 2.563999
-1.582663 1.915352 2.958411
-1.583694 1.917725 3.690965
-1.450595 1.757778 4.597392
-1.383371 2.022704 1.383446
-1.373451 2.009251 2.000793
-1.397807 2.046429 2.890205
-1.375272 2.014054 3.255886
-1.222776 2.147405 1.280006
-1.225073 2.152644 1.886765
-1.216375 2.138320 2.376347
-1.203024 2.115968 2.954583
-1.207558 2.125502 3.756587
-1.119533 1.971559 4.336399
-1.034768 2.337981 1.515128
-0.997538 2.255286 2.110102
-1.002399 2.268209 2.907258
-0.995337 2.253614 3.486306
-0.934026 2.666413 0.573444
-0.856239 2.446184 1.164457
-0.820531 2.345392 1.578444
-0.827477 2.367564 2.347005
-0.841188 2.409206 3.132389
-0.812409 2.327845 3.503367
-0.792168 2.272470 4.430469
-0.632073 2.528038 1.495718
-0.617328 2.472019 2.207157
-0.640072 2.566831 3.063036
-0.623137 2.500180 3.370481
-0.609238 2.447666 4.171185
-0.422709 2.740596 1.318417
-0.422950 2.746485 1.910921
-0.420937 2.737607 2.488803
-0.418543 2.728934 3.444627
-0.401805 2.623717 4.024176
-0.194882 3.168338 0.516934
-0.176722 2.883946 1.094351
-0.174137 2.848256 1.441603
-0.174603 2.871046 2.243152
-0.174728 2.888121 3.030118
-0.173535 2.875197 3.388734
-0.168159 2.801274 4.219158
0.073325 3.029480 1.475327
0.073721 3.015036 2.089843
0.073590 2.991809 2.454010
0.075187 3.016834 3.263450
0.378747 3.298756 1.245245
0.381506 3.317922 1.651675
0.373936 3.246753 2.114438
0.375011 3.245831 3.001775
0.377299 3.258850 3.588844
0.370228 3.192569 4.061841
0.641750 3.043774 1.580343
0.645979 3.061830 1.906062
0.633293 2.998681 2.414579
0.639042 3.021093 3.213730
0.650531 3.071346 3.876546
0.846149 2.776272 1.414040
0.842446 2.761639 2.039422
0.855229 2.800211 2.865593
0.865739 2.831430 3.652055
0.848975 2.775288 3.992086
1.068251 2.605033 1.680152
1.067008 2.600974 2.027497
1.061704 2.586646 2.503681
1.065042 2.592927 3.132725
1.202823 2.324938 1.188989
1.210294 2.337594 1.971070
1.235846 2.385954 2.393186
1.192103 2.300129 3.016965
1.191680 2.297807 3.696233
1.086625 2.094144 4.271403
1.345240 2.101053 1.765962
1.352487 2.111316 2.338486
1.381912 2.156060 2.968353
1.374260 2.143050 3.546073
1.314871 2.049183 4.269828
1.461010 1.887771 1.626246
1.470309 1.899375 1.891282
1.467545 1.894822 2.527386
1.429147 1.844237 3.206272
1.640316 1.755015 0.675349
1.605555 1.716856 1.387862
1.602015 1.712547 1.774425
1.613106 1.723150 2.694057
1.546248 1.651349 2.996781
1.511633 1.613504 3.697416
1.399580 1.492926 4.560776
1.719493 1.541903 1.578697
1.795429 1.608954 2.388679
1.723132 1.543755 2.732621
1.660563 1.486655 3.634349
1.628530 1.457450 4.102362
1.881185 1.402596 1.800114
1.822481 1.358366 2.217982
1.751783 1.305173 2.691810
1.788578 1.331551 3.642943
1.773541 1.319665 4.291631
1.900118 1.184081 1.091615
1.851923 1.153159 1.973700
1.830160 1.139255 2.330158
1.869080 1.162410 3.384992
1.891667 1.175995 3.834974
1.657384 1.029857 4.424109
1.992667 1.005342 0.868198
2.025462 1.021010 1.744322
2.018953 1.017436 2.037712
1.975974 0.995115 2.724084
2.018540 1.015599 3.683007
1.944489 0.978019 4.033501
2.324727 0.915423 0.468699
2.084797 0.820316 1.134573
2.155631 0.847623 1.707273
2.155415 0.846804 2.456281
2.096708 0.823083 3.153776
2.076389 0.814855 3.425298
2.068048 0.810708 4.369015
2.395839 0.705421 1.313070
2.272244 0.668612 1.747346
2.187841 0.643245 2.320962
2.187468 0.642579 2.917194
2.183448 0.640764 3.602876
2.138490 0.626838 4.420589
2.533632 0.491611 1.496918
2.452562 0.475553 1.825614
2.379484 0.460680 2.551002
2.349166 0.454100 3.295260
2.338363 0.451478 3.859624
2.028796 0.391202 4.522662
2.662625 0.276909 0.660953
2.611718 0.270854 1.384204
2.611582 0.270339 1.860757
2.643782 0.272830 2.651444
2.624650 0.269993 3.475405
2.741132 0.029512 1.150399
2.767331 0.029165 1.716656
2.770443 0.028700 2.165939
2.765386 0.028020 2.735889
2.759772 0.027196 3.436177
3.008820 -0.239472 1.198860
2.998091 -0.239549 1.964125
2.953707 -0.236516 2.397242
2.924018 -0.234757 2.924416
2.929429 -0.236320 3.884876
3.261007 -0.568496 0.963097
3.255829 -0.568276 1.462133
3.217706 -0.562464 2.089504
3.210419 -0.561930 2.642026
3.214318 -0.563679 3.439260
3.155232 -0.553759 3.783847
3.531290 -0.916445 1.305826
3.538346 -0.919224 1.914469
3.504507 -0.911283 2.470019
3.550157 -0.924347 3.235814
3.534059 -0.920936 3.744932
3.438955 -0.896738 4.150753
3.575849 -1.282353 0.481867
3.463119 -1.242350 0.746277
3.461335 -1.242770 1.403145
3.515570 -1.263776 2.337068
3.499714 -1.258719 2.734210
3.521588 -1.267759 3.451466
3.511943 -1.265443 4.167844
3.303478 -1.539263 1.215537
3.229874 -1.505620 1.623009
3.216846 -1.500463 2.194230
3.288179 -1.534807 2.841849
3.229509 -1.508702 3.647222
3.089108 -1.443929 4.204276
2.888721 -1.680177 1.153025
2.891371 -1.682663 1.751167
2.900597 -1.689387 2.608531
2.899126 -1.689347 3.127052
2.859376 -1.667261 3.829658
2.711137 -1.581663 4.429163
2.628624 -1.857753 1.207712
2.559060 -1.809110 1.545665
2.554238 -1.807311 2.586031
2.562090 -1.813467 2.972297
2.599794 -1.841529 3.845263
2.571392 -1.822170 4.342168
2.305430 -1.982281 1.122529
2.335822 -2.009762 1.942618
2.365634 -2.036333 2.494178
2.368389 -2.039698 3.091638
2.379986 -2.050683 3.689865
2.311546 -1.992463 4.168637
2.206181 -2.257899 0.851065
2.136399 -2.187667 1.524342
2.086926 -2.137890 2.041215
2.094814 -2.146830 2.537865
2.132396 -2.186812 3.369634
1.924535 -2.351910 1.080661
1.925621 -2.354425 1.693067
1.923451 -2.353155 2.408167
1.910856 -2.338960 3.043037
1.935100 -2.370193 3.844134
1.915874 -2.347650 4.376486
1.670459 -2.480456 1.124355
1.695784 -2.520069 2.037904
1.681892 -2.500870 2.705516
1.669019 -2.482364 3.003570
1.710457 -2.545990 3.902703
1.581065 -2.354030 4.249499
1.446769 -2.638007 1.543587
1.451552 -2.648262 2.148499
1.440984 -2.629932 2.529480
1.473377 -2.691540 3.495149
1.210480 -2.790818 1.164394
1.210775 -2.793289 1.743303
1.215170 -2.805199 2.314165
1.201307 -2.774716 2.814447
1.211838 -2.801385 3.573321
1.228874 -2.843649 4.494836
0.957741 -2.891515 1.264863
1.002856 -3.031233 2.111297
1.019227 -3.083588 2.793920
0.988902 -2.993069 3.105813
1.008790 -3.057404 4.103467
0.934151 -2.833480 4.743229
0.745140 -3.207055 1.171529
0.751686 -3.239212 1.835568
0.748414 -3.228441 2.394964
0.738159 -3.188034 3.051640
0.732661 -3.168442 3.769384
0.740543 -3.206442 4.432596
0.478510 -3.444820 1.412468
0.474625 -3.421877 1.902388
0.465159 -3.358730 2.413914
0.464039 -3.358769 3.223845
0.466284 -3.381354 3.850262
0.208780 -3.703852 0.942255
0.208248 -3.717748 1.795101
0.209288 -3.749268 2.261528
0.208038 -3.740551 2.756486
0.206017 -3.718752 3.287780
0.202079 -3.669974 4.117328
-0.136458 -3.910759 1.041750
-0.137935 -3.930928 1.513451
-0.140238 -3.958293 2.327721
-0.140445 -3.944491 2.754439
-0.141346 -3.938987 3.428609
-0.144069 -3.981383 4.157805
-0.555242 -4.395932 0.799616
-0.560090 -4.423582 1.510793
-0.563355 -4.439469 2.167102
-0.564348 -4.438495 2.754013
-0.562147 -4.413894 3.248800
-0.555032 -4.353201 3.588275
-0.914564 -4.160639 0.941091
-0.917454 -4.167653 1.673855
-0.914737 -4.151093 2.183715
-0.898044 -4.069171 2.953893
-0.883368 -3.998809 3.451898
-1.218115 -3.851160 1.069792
-1.196988 -3.781157 1.658380
-1.176467 -3.713839 2.128165
-1.186129 -3.740818 2.781138
-1.179312 -3.716694 3.276867
-1.182277 -3.722449 3.953252
-1.440342 -3.454886 1.178776
-1.443110 -3.459084 1.785429
-1.428097 -3.419933 2.586789
-1.394423 -3.337796 2.983901
-1.418411 -3.391500 3.933608
-1.692347 -3.179426 0.641278
-1.639891 -3.079567 1.073084
-1.637482 -3.073713 1.511509
-1.654319 -3.102554 2.412248
-1.654721 -3.101612 2.969027
-1.643229 -3.078665 3.438787
-1.853182 -2.842270 1.184240
-1.858952 -2.849390 1.864150
-1.876210 -2.873926 2.610383
-1.891990 -2.896081 3.392060
-1.891606 -2.894444 3.802671
-1.799637 -2.752291 4.415985
-2.046684 -2.615505 1.261839
-2.060060 -2.631643 1.693132
-2.065665 -2.636962 2.525650
-2.034676 -2.596803 2.805965
-2.042263 -2.605177 3.408756
-2.032542 -2.590932 4.271269
-2.316212 -2.444765 1.176930
-2.329344 -2.456975 1.998169
-2.225406 -2.346721 2.334290
-2.202809 -2.321489 3.084103
-2.255987 -2.375838 3.960568
-2.096510 -2.207349 4.297622
-2.421832 -2.145895 0.982110
-2.418353 -2.141949 1.474053
-2.431116 -2.152034 2.166074
-2.392026 -2.115971 3.017458
-2.387040 -2.110494 3.642215
-2.589870 -1.908147 1.157762
-2.621162 -1.929955 1.914924
-2.515060 -1.850912 2.510880
-2.510451 -1.846380 3.244536
-2.570324 -1.889717 3.675548
-2.487419 -1.827921 4.240532
-2.806933 -1.697070 1.463333
-2.822627 -1.705436 2.179138
-2.751326 -1.662025 2.402810
-2.694232 -1.626576 3.055751
-2.761085 -1.665570 3.950368
-2.927486 -1.426981 0.848284
-2.955689 -1.439588 1.612859
-2.977554 -1.449115 2.361768
-2.978672 -1.448784 2.947083
-2.929044 -1.424020 3.381066
-3.127391 -1.185087 1.219352
-3.147482 -1.192042 1.666888
-3.127634 -1.183858 2.125829
-3.177241 -1.201281 3.039184
-3.169166 -1.197344 3.643383
-3.083588 -1.164368 4.110083
-3.481119 -0.970735 1.628541
-3.421436 -0.953754 1.854952
-3.356439 -0.934496 2.630851
-3.361607 -0.935087 3.205032
-3.377286 -0.938598 3.779950
-3.628077 -0.662072 1.041406
-3.630379 -0.661551 1.649083
-3.636484 -0.661900 2.142388
-3.639196 -0.661400 2.785644
-3.641291 -0.660327 3.730564
-3.818088 -0.342493 0.897551
-3.846911 -0.343961 1.590602
-3.862601 -0.344335 2.227694
-3.839000 -0.341707 2.557617
-3.852235 -0.341832 3.214421
-4.088879 -0.009453 1.059905
-4.076857 -0.008887 1.376408
-4.058645 -0.007885 1.945743
-4.051856 -0.006429 2.801922
-3.996831 -0.005245 3.471574
-3.953106 -0.004451 3.930437
-3.754271 -0.003412 4.490499
-3.713975 0.314205 1.392628
-3.728103 0.316456 2.073380
-3.704022 0.314943 2.420906
-3.695250 0.315295 3.140378
-3.820594 0.327346 3.987574
-3.578156 0.306892 4.237821
-3.328522 0.598947 1.499938
-3.360895 0.605572 2.062702
-3.378155 0.609864 2.893705
-3.294714 0.595342 3.295449
-2.988067 0.818212 1.312952
-2.963964 0.812249 1.808805
-2.999621 0.823136 2.663331
-3.019809 0.829622 3.386496
-3.047924 0.838212 4.043415
-2.864149 0.788392 4.659323
-2.786733 1.051293 1.435776
-2.795578 1.055420 2.049603
-2.782037 1.050921 2.531530
-2.774807 1.048792 3.006000
-2.799090 1.058870 3.707821
-2.612271 0.988876 4.306959
-2.656921 1.284559 1.386557
-2.660656 1.287088 1.933729
-2.624099 1.270040 2.426348
-2.647983 1.282696 3.262971
-2.713505 1.315287 3.892253
-2.432897 1.179597 4.207276
-2.396490 1.450573 1.393305
-2.332118 1.412213 1.871707
-2.303135 1.395783 2.767892
-2.327952 1.411816 3.551691
-2.161578 1.557923 1.102326
-2.141164 1.544489 2.089841
-2.123206 1.532027 2.475352
-2.102550 1.517838 3.042452
-2.104877 1.520430 3.764197
-1.940294 1.402386 4.519481
-1.971525 1.710734 0.976747
-1.922947 1.669680 1.797174
-1.907067 1.656492 2.251492
-1.909343 1.659331 2.902628
-1.868131 1.624105 3.364177
-1.802758 1.568194 4.119340
-1.674840 1.741968 1.162450
-1.686670 1.754832 1.563888
-1.708689 1.779006 2.461654
-1.732737 1.805011 3.137385
-1.756197 1.830542 3.892373
-1.594018 1.661893 4.226704
-1.528943 1.913133 1.349308
-1.536213 1.923313 2.041857
-1.540288 1.929581 2.787869
-1.513607 1.896684 3.136338
-1.380022 2.082066 1.321591
-1.366554 2.062672 1.844128
-1.365549 2.062400 2.546943
-1.370918 2.071226 2.949886
-1.382024 2.089221 3.628405
-1.268164 1.917987 4.200979
-1.151537 2.152517 1.152986
-1.171871 2.192367 2.031704
-1.163993 2.178604 2.504301
-1.164924 2.182091 3.347122
-1.111622 2.082894 3.688507
-0.992635 1.861552 4.648575
-1.066101 2.503521 0.262280
-0.994546 2.337729 1.132286
-0.991084 2.330623 1.533365
-0.987624 2.324301 2.242978
-0.979837 2.307712 2.930500
-0.970970 2.288145 3.457964
-0.932398 2.199236 4.302239
-0.798655 2.500139 1.358744
-0.774163 2.426218 2.190142
-0.763777 2.395434 2.732333
-0.773161 2.427623 3.563089
-0.756353 2.376716 4.148930
-0.605896 2.689086 1.505423
-0.601738 2.673545 2.091592
-0.581556 2.586125 2.566657
-0.580375 2.585706 3.577182
-0.400592 2.949139 0.621009
-0.379303 2.798457 1.341588
-0.377681 2.789190 1.663282
-0.380048 2.812981 2.406948
-0.380329 2.820608 3.060285
-0.374184 2.781435 3.833028
-0.347929 2.589532 4.280144
-0.130265 3.171794 0.525271
-0.118982 2.917315 1.236385
-0.117262 2.887156 1.659255
-0.118009 2.921412 2.205909
-0.117253 2.920133 2.806759
-0.117103 2.935250 3.450496
-0.112501 2.837772 4.094439
0.158875 3.420193 0.487901
0.147094 3.155046 0.909455
0.148957 3.170066 1.811255
0.148364 3.146526 2.214878
0.149159 3.146854 2.828074
0.150047 3.151133 3.367063
0.150990 3.145579 4.325481
0.454277 3.289654 1.760901
0.453395 3.277691 2.328568
0.453488 3.273130 2.864080
0.450090 3.244240 3.320152
0.683922 2.945128 1.324540
0.689046 2.962958 2.104893
0.685405 2.945039 2.527430
0.686026 2.944766 3.076551
0.907867 2.755102 1.380395
0.912347 2.766207 2.046182
0.910458 2.758404 2.604968
0.900365 2.726180 3.057821
0.909097 2.750083 3.745030
1.109798 2.593738 1.274126
1.078911 2.520370 1.701130
1.094184 2.553536 2.590155
1.107036 2.582514 2.944663
1.087819 2.535738 3.650267
1.028803 2.396668 4.246182
1.225451 2.244865 1.532138
1.229918 2.251832 2.103371
1.230327 2.250659 3.010871
1.208401 2.209962 3.299225
1.362667 2.054758 1.135006
1.363684 2.055278 1.707667
1.347233 2.029305 2.386779
1.358925 2.045531 3.176514
1.489206 1.864109 1.000906
1.474528 1.844813 1.618983
1.496313 1.871210 2.183548
1.493338 1.866633 2.751778
1.448251 1.809157 3.528633
1.390978 1.736429 4.394803
1.668644 1.727848 0.666802
1.627416 1.684472 1.182359
1.611760 1.667509 1.758696
1.573865 1.627056 2.736952
1.523425 1.574548 3.038310
1.569699 1.621067 4.066935
1.397268 1.442386 4.645804
1.750914 1.515894 1.149016
1.762639 1.525606 1.508912
1.766888 1.528206 2.394380
1.704046 1.473277 2.893739
1.687210 1.457862 3.642943
1.668645 1.441139 4.248629
1.809043 1.294063 1.359000
1.776008 1.269759 1.999522
1.787288 1.276946 2.829493
1.763511 1.259470 3.301556
2.111192 1.246431 0.648671
1.906610 1.125203 1.092480
1.887999 1.113590 1.722658
1.890486 1.114608 2.171634
1.896426 1.117140 3.141554
1.878662 1.106178 3.648685
1.791576 1.054181 4.432789
2.110194 0.992628 1.526045
2.041028 0.959679 1.951844
2.015630 0.946837 2.887431
2.022514 0.949518 3.459673
2.018540 0.946901 4.245291
2.187325 0.798014 1.448942
2.119944 0.772942 1.969019
2.092487 0.762080 2.887431
2.053010 0.747395 3.230111
2.330801 0.637896 1.162450
2.327393 0.636073 2.062203
2.241903 0.612243 2.559120
2.270949 0.619365 3.403231
2.265403 0.617292 3.994197
1.991549 0.542134 4.681765
2.633263 0.470628 0.559280
2.571816 0.459134 1.044670
2.548874 0.454396 1.658372
2.474320 0.440344 2.415148
2.394899 0.425707 2.937505
2.378656 0.422271 3.508932
2.286185 0.405248 4.180531
2.838591 0.244383 0.505578
2.673830 0.229751 0.923573
2.677333 0.229302 1.619179
2.730906 0.232986 2.440078
2.657391 0.226097 3.026686
2.593007 0.220035 3.599883
2.520217 0.213437 4.031709
2.999065 -0.006085 0.503123
2.840903 -0.006486 1.138263
2.842829 -0.007155 1.720934
2.809061 -0.007775 2.349838
2.808174 -0.008419 2.927791
2.862509 -0.009436 3.672257
3.092099 -0.302950 1.505151
3.092579 -0.303568 1.957748
3.103623 -0.305661 2.755216
3.089066 -0.304989 3.364178
2.999853 -0.296550 3.679688
3.351725 -0.628486 0.959935
3.365721 -0.632338 1.821276
3.358453 -0.631362 2.095786
3.372688 -0.635162 2.885439
3.357014 -0.633011 3.455528
3.275423 -0.618626 4.197986
3.660051 -1.047511 0.849316
3.656257 -1.047350 1.413649
3.625578 -1.039121 1.759422
3.660136 -1.050408 2.602702
3.631388 -1.042931 3.083550
3.613155 -1.038834 3.798010
3.500215 -1.346473 0.564472
3.391061 -1.305024 0.903550
3.427599 -1.320525 1.789885
3.438649 -1.325666 2.332753
3.473039 -1.340074 3.031362
3.382720 -1.305645 3.306880
3.183300 -1.550306 1.120735
3.154968 -1.537883 1.981715
3.094862 -1.509299 2.443005
3.090116 -1.507775 2.951564
3.123071 -1.525415 3.943042
3.024471 -1.477700 4.252566
2.836939 -1.714588 1.653031
2.784276 -1.683121 1.889979
2.741827 -1.658514 2.588047
2.718814 -1.645373 3.111623
2.736716 -1.657170 3.750529
2.607236 -1.580046 4.673211
2.534894 -1.864259 1.277435
2.623405 -1.930463 1.948183
2.565435 -1.888449 2.354772
2.511324 -1.849654 3.024830
2.510282 -1.849608 3.489489
2.492018 -1.837402 4.307407
2.324603 -2.057677 1.455018
2.320700 -2.054855 1.832406
2.323349 -2.058465 2.588135
2.309471 -2.047175 3.197008
2.290763 -2.031673 3.860869
2.115428 -1.877155 4.551605
2.207938 -2.338682 1.141112
2.204470 -2.335881 1.600172
2.157722 -2.287961 2.475459
2.097610 -2.224991 2.912605
2.123032 -2.253440 3.729285
2.050674 -2.177244 4.091513
1.828198 -2.334176 1.108481
1.829596 -2.337151 1.722377
1.836636 -2.347258 2.294637
1.872822 -2.394893 2.990337
1.924219 -2.462199 3.759669
1.850369 -2.368529 4.200516
1.662424 -2.556677 0.535789
1.629916 -2.508021 1.141129
1.634775 -2.517103 1.863527
1.641615 -2.528873 2.418502
1.667450 -2.569930 2.971180
1.681116 -2.592608 3.679131
1.626247 -2.508846 4.083126
1.391963 -2.667808 1.551969
1.394286 -2.673652 2.081463
1.388992 -2.664866 2.604935
1.393325 -2.674859 3.246690
1.191096 -2.856558 1.237730
1.198315 -2.876668 2.091411
1.190474 -2.859185 2.504565
1.184833 -2.847810 3.180286
1.173835 -2.823427 3.827397
1.084440 -2.609876 4.362544
0.957696 -3.018330 1.151318
0.917507 -2.893370 1.575833
0.944723 -2.982071 2.258432
0.962140 -3.040091 2.967464
0.940498 -2.973881 3.497841
0.955988 -3.027106 4.500627
0.701770 -3.259197 0.920841
0.705489 -3.279979 1.459735
0.712153 -3.315005 2.072676
0.698383 -3.256011 2.870032
0.690943 -3.225482 3.527805
0.455482 -3.591749 1.241192
0.460034 -3.637716 2.078551
0.457222 -3.620605 2.509015
0.447581 -3.551140 3.104022
0.437002 -3.471849 3.521283
0.121800 -3.757478 0.932510
0.121690 -3.792185 1.717120
0.121271 -3.810583 2.355734
0.120292 -3.804946 2.866233
0.119588 -3.808024 3.377595
-0.231286 -4.121462 1.398322
-0.232754 -4.129612 1.981212
-0.232422 -4.110836 2.404921
-0.232675 -4.084849 3.419553
-0.232127 -4.067209 3.692448
-0.667221 -4.412928 1.030541
-0.672972 -4.438446 2.013697
-0.668671 -4.406953 2.264803
-0.674176 -4.432700 3.099690
-0.670663 -4.402177 3.702061
-0.988369 -4.043381 1.016890
-0.988601 -4.040531 1.534317
-0.971417 -3.964999 2.277538
-0.950684 -3.877475 2.701157
-0.963053 -3.921544 3.606437
-1.241872 -3.703379 0.813932
-1.216225 -3.624491 1.298241
-1.226324 -3.650075 2.196945
-1.225919 -3.646085 2.755490
-1.221551 -3.631344 3.111065
-1.240085 -3.682021 3.989110
-1.174097 -3.484726 4.309396
-1.469727 -3.342729 1.379691
-1.465348 -3.331789 1.643612
-1.442625 -3.277802 2.282913
-1.433741 -3.255464 2.881826
-1.456505 -3.304450 3.616571
-1.445978 -3.278549 4.180251
-1.658454 -3.001832 0.760747
-1.646426 -2.978176 1.415965
-1.667991 -3.015061 2.143642
-1.693435 -3.059192 2.771113
-1.701583 -3.072019 3.411231
-1.865783 -2.769519 1.086693
-1.880086 -2.789404 1.633749
-1.898880 -2.815991 2.155447
-1.929982 -2.860441 2.816984
-1.946268 -2.883250 3.339759
-2.106705 -2.566522 1.245245
-2.112056 -2.571689 1.877044
-2.059397 -2.506377 2.459078
-2.001251 -2.434348 3.097470
-2.047899 -2.489354 3.942045
-1.981359 -2.407156 4.628516
-2.269571 -2.319969 1.248312
-2.296592 -2.346221 1.963203
-2.334216 -2.383883 2.359833
-2.264561 -2.311679 2.937672
-2.270258 -2.315704 3.897255
-2.248935 -2.293022 4.410095
-2.471733 -2.121327 0.864913
-2.481094 -2.127858 1.722236
-2.427978 -2.081518 2.186277
-2.455809 -2.103689 3.164810
-2.433021 -2.083483 3.572633
-2.462748 -2.107449 4.439798
-2.699136 -1.903284 1.412324
-2.606561 -1.837000 2.052971
-2.551153 -1.797291 2.485826
-2.581606 -1.817698 3.155866
-2.646134 -1.861724 4.033585
-2.443936 -1.718932 4.433872
-2.909740 -1.693105 1.143793
-2.848324 -1.656439 1.745738
-2.829029 -1.644564 2.172613
-2.802236 -1.628162 2.719060
-2.787047 -1.618466 3.300598
-3.013366 -1.392979 1.228651
-3.025851 -1.397655 1.959987
-3.068376 -1.416351 2.581551
-3.066309 -1.414628 3.091369
-2.990946 -1.378987 3.696824
-2.806677 -1.293291 4.265613
-3.209212 -1.155611 0.984752
-3.167790 -1.139678 1.683458
-3.177726 -1.141987 2.548426
-3.181578 -1.142897 2.873616
-3.239185 -1.162400 3.670483
-3.124840 -1.120782 4.098441
-3.469022 -0.888314 0.814568
-3.497049 -0.894368 1.546366
-3.458130 -0.883553 2.118363
-3.421879 -0.873166 2.875963
-3.437900 -0.876001 3.716110
-3.667481 -0.605737 1.155191
-3.696666 -0.609605 1.760887
-3.715243 -0.611673 2.392361
-3.746947 -0.615888 3.023828
-3.670738 -0.602685 3.470700
-3.556030 -0.582873 4.143942
-3.903074 -0.268480 1.017344
-3.898400 -0.267375 1.498445
-3.913878 -0.267358 2.158919
-3.918355 -0.266596 2.813665
-3.925099 -0.266160 3.363580
-3.961504 0.041191 0.999395
-3.945547 0.042242 1.741041
-3.888140 0.042076 2.022330
-3.890282 0.043167 2.685775
-3.931684 0.045052 3.561583
-3.908669 0.045451 3.977663
-3.657581 0.043287 4.521718
-3.676398 0.374773 1.238104
-3.678497 0.375818 1.780205
-3.670641 0.375945 2.390131
-3.642358 0.374221 3.170190
-3.575894 0.367834 3.476832
-3.457914 0.356610 4.136206
-3.279511 0.640637 1.144734
-3.264023 0.637921 1.369689
-3.269212 0.640212 2.293486
-3.226377 0.632346 2.681399
-3.195876 0.627301 3.381066
-2.899605 0.842996 1.232377
-2.900602 0.843969 1.769857
-2.930997 0.853847 2.575604
-2.932328 0.854946 3.132652
-2.954105 0.862132 3.782490
-2.760386 0.806246 4.355559
-2.734354 1.076782 1.075777
-2.739495 1.079664 1.748972
-2.715050 1.070509 2.130256
-2.733995 1.078718 2.712094
-2.732631 1.078821 3.220967
-2.549485 1.279197 1.416330
-2.538324 1.273920 1.670368
-2.536585 1.273984 2.406948
-2.520181 1.266868 3.301439
-2.496382 1.255689 3.937408
-2.325567 1.170262 4.393980
-2.443357 1.518812 0.656699
-2.368272 1.472695 1.081012
-2.298170 1.429642 1.507849
-2.258826 1.406250 2.378153
-2.227757 1.387473 2.842452
-2.249030 1.401633 3.577182
-2.211051 1.378963 4.410964
-2.162829 1.632805 0.965148
-2.126743 1.606513 1.679813
-2.064317 1.559830 2.050710
-2.041812 1.543618 2.676952
-2.044018 1.546298 3.475229
-1.865081 1.701639 1.363106
-1.872835 1.709621 2.028461
-1.863280 1.701594 2.542884
-1.879067 1.717063 3.313616
-1.868408 1.708043 3.849816
-1.672552 1.529746 4.511565
-1.758034 1.914742 0.526655
-1.650168 1.798129 1.135913
-1.672126 1.823074 1.835600
-1.676340 1.828363 2.314775
-1.679186 1.832416 2.966936
-1.673799 1.827469 3.614236
-1.577203 1.723129 4.466665
-1.493758 1.956362 1.015576
-1.497712 1.962726 1.750314
-1.507384 1.976428 2.382978
-1.502973 1.971476 2.898731
-1.497780 1.965714 3.554543
-1.398631 1.836338 4.077677
-1.299801 2.070622 1.246886
-1.304392 2.079188 1.930938
-1.315819 2.099156 2.881678
-1.337869 2.135137 3.307741
-1.160408 2.235857 1.226869
-1.152105 2.221295 1.893779
-1.143146 2.205007 2.357403
-1.141812 2.204208 3.191040
-1.097280 2.119666 3.902386
-0.997524 1.927762 4.367268
-1.007310 2.453435 0.669964
-0.935684 2.280101 1.109415
-0.951387 2.320674 1.987492
-0.954386 2.329249 2.466247
-0.951926 2.324592 2.981609
-0.957358 2.340073 3.824278
-0.884912 2.164080 4.300471
-0.827925 2.699726 0.489122
-0.772083 2.519343 0.967479
-0.755396 2.468356 1.957235
-0.738250 2.413203 2.217436
-0.737635 2.414235 3.109346
-0.738994 2.421208 3.849816
-0.710980 2.331405 4.469662
-0.627104 2.981738 0.351622
-0.568148 2.705422 1.098782
-0.550545 2.623629 1.492120
-0.556245 2.655628 2.408190
-0.578142 2.763954 3.088048
-0.562032 2.689344 3.548847
-0.534230 2.559992 4.297124
-0.331065 2.837545 1.508994
-0.331776 2.849928 2.142123
-0.330043 2.840152 2.659717
-0.330045 2.845977 3.245609
-0.076780 3.102434 0.718764
-0.072921 2.961103 1.024537
-0.072308 2.983439 1.990886
-0.071984 2.995224 2.495940
-0.070603 2.959874 2.947240
-0.070662 3.007270 3.833585
0.211661 3.213208 1.241010
0.211778 3.200773 1.959699
0.214136 3.223638 2.602579
0.214858 3.223922 3.139847
0.216225 3.230410 3.855661
0.533268 3.359587 0.637257
0.505156 3.177960 1.182738
0.506759 3.182895 1.799975
0.509314 3.194410 2.342610
0.514124 3.217705 3.162231
0.506904 3.168799 3.622602
0.730504 2.889101 1.469337
0.735759 2.906318 2.192170
0.743978 2.935439 2.864711
0.740282 2.919195 3.204787
0.947435 2.682041 1.230964
0.943669 2.670402 1.518645
0.956882 2.704495 2.472374
0.968009 2.733762 3.097418
0.958649 2.705872 3.526210
0.912646 2.573836 4.220834
1.140251 2.549125 1.182310
1.140167 2.547547 1.689950
1.100226 2.457190 2.120363
1.072243 2.392933 2.816991
1.088486 2.426999 3.661967
1.253146 2.226695 1.481106
1.242509 2.206779 1.977393
1.234944 2.191779 2.749366
1.236452 2.193360 3.290710
1.223697 2.168723 4.305693
1.370934 1.993165 1.230795
1.376168 1.999019 2.267226
1.405784 2.040957 2.890205
1.378656 2.001107 3.170499
1.646514 1.978851 0.518577
1.515183 1.820008 1.207089
1.513390 1.817167 1.678889
1.514026 1.816815 2.443828
1.540856 1.847915 3.181564
1.484344 1.779664 3.528633
1.357529 1.626587 4.356870
1.835207 1.836857 0.314304
1.655780 1.656146 1.173795
1.655017 1.654709 1.688789
1.659183 1.657796 2.514278
1.649418 1.647503 2.929713
1.599395 1.596877 3.465531
1.513960 1.510594 4.318984
1.997552 1.665001 0.586110
1.795702 1.496209 1.045328
1.792862 1.493235 1.551745
1.761854 1.466327 2.475384
1.706642 1.419701 3.078903
1.724680 1.433935 3.754648
1.655755 1.376117 4.238073
1.917049 1.327108 1.517479
1.922536 1.330290 2.067129
1.824238 1.261834 2.489867
1.823106 1.259964 3.522595
2.166955 1.242899 0.443135
1.958990 1.123140 0.910444
1.883630 1.079070 1.792909
1.893556 1.084210 2.345534
1.916060 1.096492 2.949921
1.930458 1.104089 3.591372
1.834710 1.048833 4.129283
2.366999 1.069763 0.399247
2.075615 0.937784 0.695205
2.057969 0.928980 1.546858
2.059569 0.928896 2.374322
2.041650 0.920456 2.747709
2.044988 0.921202 3.537002
2.008322 0.904219 4.038934
2.157967 0.756747 1.029833
2.174684 0.761740 1.931603
2.196861 0.768856 2.601961
2.154595 0.753499 3.202770
2.168759 0.757702 3.991931
1.937985 0.676737 4.427613
2.519848 0.630433 0.399247
2.319584 0.579603 1.146276
2.332817 0.582590 1.471127
2.281601 0.569044 2.264080
2.271622 0.565828 3.032498
2.234148 0.556164 3.391472
2.165758 0.538539 4.070137
2.575486 0.402044 1.512702
2.579491 0.402132 2.023597
2.510440 0.390635 2.747173
2.467912 0.383435 3.335940
2.712019 0.168701 1.176711
2.705585 0.167850 1.592488
2.720334 0.168062 2.237106
2.761293 0.169455 3.264510
2.645083 0.162009 3.577182
2.833613 -0.076226 0.952833
2.902455 -0.078648 1.439273
2.922697 -0.080099 2.205909
2.864793 -0.079114 2.735513
2.865726 -0.080005 3.492529
3.117432 -0.341497 0.993675
3.137596 -0.344351 1.494356
3.110497 -0.341900 1.906062
3.160771 -0.348684 2.875789
3.147654 -0.348003 3.475490
3.414276 -0.688917 0.891543
3.406468 -0.688014 1.354687
3.422777 -0.692383 2.090615
3.445583 -0.697895 2.702888
3.456184 -0.700945 3.317794
3.423170 -0.695059 3.882071
3.577883 -1.073645 0.966023
3.603365 -1.082316 1.595917
3.588849 -1.079389 2.484347
3.590343 -1.080329 2.789208
3.591052 -1.081710 3.516913
3.530102 -1.064121 4.015593
3.347962 -1.344358 0.879644
3.375199 -1.356463 1.602561
3.351047 -1.347404 2.008046
3.376215 -1.358613 2.683546
3.369022 -1.357152 3.580746
3.282814 -1.323122 4.043694
3.031380 -1.222309 4.452820
3.123275 -1.604807 1.584471
3.068957 -1.577293 1.836300
2.965960 -1.525119 2.343248
2.988858 -1.538187 3.185059
3.004263 -1.547030 3.778893
2.970210 -1.530730 4.603187
2.783426 -1.756326 1.138310
2.795220 -1.764298 1.470435
2.759953 -1.742954 2.056256
2.702061 -1.707496 2.781821
2.730750 -1.726881 3.594694
2.548944 -1.966195 1.216037
2.481877 -1.915011 1.562360
2.520372 -1.946485 2.648501
2.505028 -1.935178 2.986560
2.500115 -1.932749 3.840044
2.441873 -1.888333 4.240532
2.327632 -2.142969 1.076264
2.261939 -2.082955 1.355843
2.221307 -2.046860 2.156878
2.234203 -2.059655 2.703324
2.245832 -2.071502 3.378004
2.143691 -2.347695 0.750348
2.070014 -2.268890 1.775347
1.999189 -2.191827 2.101629
2.021709 -2.217845 2.841881
2.072934 -2.275403 3.578793
1.790919 -2.359956 1.041327
1.820502 -2.400967 2.047941
1.826459 -2.409789 2.527430
1.826852 -2.411445 3.093306
1.837136 -2.426267 3.710208
1.795359 -2.372662 4.521366
1.705782 -2.734094 0.399560
1.565893 -2.511087 0.940586
1.578187 -2.532177 1.544841
1.591517 -2.554606 1.997653
1.606455 -2.580239 2.711698
1.623931 -2.610260 3.545339
1.336482 -2.683398 1.308847
1.347952 -2.707875 1.836882
1.356341 -2.726512 2.483522
1.361581 -2.738953 3.174497
1.380797 -2.778740 3.575896
1.353915 -2.727078 4.476977
1.112155 -2.826293 1.030417
1.112520 -2.829358 1.667948
1.125110 -2.863315 2.237020
1.125807 -2.867286 2.885156
1.131855 -2.884930 3.542468
1.132883 -2.890347 4.365907
0.901326 -3.090412 1.216037
0.907408 -3.113620 1.715329
0.896809 -3.081568 2.646343
0.876793 -3.015417 3.233556
0.876602 -3.016820 3.689865
0.870664 -2.999989 4.499559
0.666847 -3.284878 1.393431
0.670247 -3.307201 2.198632
0.665487 -3.288292 2.867684
0.670402 -3.317783 3.618545
0.394621 -3.574501 1.258665
0.403411 -3.664484 2.003059
0.401058 -3.649587 2.474135
0.401554 -3.663590 3.159373
0.389814 -3.562166 3.594875
0.064134 -3.816870 1.159509
0.063803 -3.835044 1.559305
0.063061 -3.845335 2.131721
0.062073 -3.859259 2.894069
0.061289 -3.842905 3.225249
-0.310038 -4.334491 1.227381
-0.310900 -4.333955 1.717710
-0.313355 -4.340756 2.789770
-0.308864 -4.271091 3.096656
-0.309244 -4.262094 3.675786
-0.714263 -4.357283 1.096289
-0.710186 -4.327358 1.538677
-0.709517 -4.316234 2.158467
-0.719474 -4.369399 2.798674
-0.705989 -4.281080 3.382894
-1.046192 -4.067199 0.523776
-1.029434 -4.000198 0.791644
-1.025979 -3.981406 1.569232
-1.030328 -3.994081 2.176790
-0.998449 -3.866977 2.717385
-0.969939 -3.752935 3.295887
-1.289403 -3.571817 1.282991
-1.296382 -3.587610 2.043724
-1.308596 -3.618036 2.763643
-1.313321 -3.628292 3.363839
-1.306988 -3.608696 3.821211
-1.519794 -3.275119 0.970045
-1.487874 -3.204455 1.517254
-1.501470 -3.230784 2.367118
-1.505812 -3.237859 3.021746
-1.514113 -3.252882 3.836449
-1.462975 -3.142324 4.061903
-1.738836 -2.986958 0.826202
-1.721651 -2.956237 1.257695
-1.736990 -2.979952 2.193216
-1.755023 -3.008896 2.897206
-1.740960 -2.984181 3.116817
-1.958922 -2.772057 1.217348
-1.956078 -2.766083 2.031285
-1.947783 -2.753244 2.498733
-1.979717 -2.796394 3.320440
-1.966448 -2.777091 3.557671
-1.874773 -2.645667 4.448116
-2.134739 -2.489368 0.756202
-2.157560 -2.514187 1.619836
-2.186394 -2.546373 2.291607
-2.169389 -2.525961 2.585787
-2.191804 -2.550295 3.428048
-2.152856 -2.503894 3.965648
-1.928256 -2.241980 4.395462
-2.350876 -2.330730 1.570040
-2.348057 -2.327257 1.928393
-2.334248 -2.312207 2.656480
-2.321904 -2.298468 3.472509
-2.447192 -2.020824 1.326416
-2.459318 -2.030304 1.643146
-2.529628 -2.087254 2.272323
-2.508805 -2.068672 3.095712
-2.466921 -2.032760 3.928586
-2.406124 -1.982115 4.278872
-2.728234 -1.830581 0.972195
-2.739708 -1.837701 1.329301
-2.735957 -1.833908 2.121012
-2.652380 -1.776936 2.740164
-2.641978 -1.768670 3.583874
-2.865300 -1.595734 1.455025
-2.925010 -1.628454 1.792616
-2.864327 -1.593500 2.565097
-2.782529 -1.547488 2.917463
-2.912234 -1.618240 3.801656
-2.844820 -1.579973 4.353062
-3.044200 -1.353971 0.846198
-3.069980 -1.364377 1.550891
-3.072667 -1.364350 2.366185
-3.082213 -1.367964 2.782517
-3.058020 -1.356506 3.270579
-3.277176 -1.107891 1.545794
-3.241090 -1.095373 1.763393
-3.231244 -1.091192 2.345758
-3.291951 -1.110263 3.298487
-3.297827 -1.111237 3.976059
-3.135338 -1.055952 4.379200
-3.509289 -0.845820 0.945391
-3.521268 -0.847444 1.768212
-3.597432 -0.864601 2.513055
-3.535278 -0.849054 2.915756
-3.527267 -0.845866 3.748020
-3.717141 -0.535046 0.793487
-3.714071 -0.533667 1.391470
-3.719618 -0.533602 1.940831
-3.777942 -0.540335 2.964189
-3.808260 -0.543842 3.480808
-4.027999 -0.242689 1.548893
-3.997363 -0.240286 1.884134
-3.989658 -0.238859 2.463713
-4.032810 -0.239852 3.409080
-4.041960 -0.239585 3.893063
-3.930773 -0.232259 4.363363
-3.863314 0.121244 1.100536
-3.888070 0.123550 2.046756
-3.826726 0.121900 2.239572
-3.862744 0.124567 3.189976
-3.870289 0.125612 3.692708
-3.790778 0.123854 4.234492
-3.569429 0.438128 1.258665
-3.566216 0.438395 1.703900
-3.537828 0.435916 2.391810
-3.532638 0.436395 3.155976
-3.505400 0.433947 3.793328
-3.409559 0.422892 4.386196
-3.211046 0.691601 0.947275
-3.186809 0.687217 1.564302
-3.193839 0.689922 2.440446
-3.186539 0.689340 3.178858
-3.175364 0.687677 3.744436
-3.166559 0.686681 4.431479
-2.864292 0.894541 1.375924
-2.910136 0.909930 2.205356
-2.883890 0.902098 2.502296
-2.896905 0.907054 3.193819
-2.712914 1.113474 1.522141
-2.721649 1.117813 2.111732
-2.697782 1.108428 2.443162
-2.728630 1.122248 3.338562
-2.718863 1.118673 3.688605
-2.516781 1.036455 4.515415
-2.498285 1.316741 1.341588
-2.518485 1.327976 1.796774
-2.508253 1.323320 2.373232
-2.453134 1.294803 2.828809
-2.419562 1.278111 3.670105
-2.324753 1.228654 4.217349
-2.352536 1.506403 1.207632
-2.270446 1.454577 1.788548
-2.225197 1.426438 2.473370
-2.235486 1.433579 2.908012
-2.249650 1.443480 3.557378
-2.187685 1.404693 4.368501
-2.138567 1.655923 0.778935
-2.108993 1.634305 1.730664
-2.032019 1.575229 2.179890
-2.005289 1.555183 2.713133
-2.025586 1.571913 3.483733
-1.826875 1.715949 1.509035
-1.831792 1.721338 2.072670
-1.837231 1.727470 2.817491
-1.806382 1.698926 3.165463
-1.645132 1.840728 1.220303
-1.654889 1.852806 2.006130
-1.663015 1.862680 2.527871
-1.671062 1.872714 3.214057
-1.666841 1.869194 4.034912
-1.461594 1.978494 0.964387
-1.473285 1.995183 1.484663
-1.485455 2.012963 2.261811
-1.493832 2.025148 2.757882
-1.508350 2.046106 3.512038
-1.285891 2.107033 1.211774
-1.287658 2.111069 1.818544
-1.305837 2.142507 2.672710
-1.303119 2.138977 3.162945
-1.259102 2.068193 3.976190
-1.112523 1.827924 4.327603
-1.104602 2.265291 1.773067
-1.102166 2.261035 2.098220
-1.100794 2.259640 2.723816
-1.102091 2.264114 3.523350
-0.996356 2.616376 0.540152
-0.919906 2.416953 1.003023
-0.902735 2.373723 1.669539
-0.905608 2.382857 2.224172
-0.898038 2.364846 2.902628
-0.891039 2.348599 3.688034
-0.847217 2.234690 4.310790
-0.737643 2.552053 0.848016
-0.744787 2.579588 1.576829
-0.730881 2.534549 2.405510
-0.712336 2.472758 3.095890
-0.708611 2.461144 3.458222
-0.694779 2.415382 4.103058
-0.509403 2.659583 0.897438
-0.519022 2.714185 1.640621
-0.523393 2.741829 2.444596
-0.513608 2.693940 3.027871
-0.501790 2.635402 3.642101
-0.481799 2.534474 4.405972
-0.296741 3.007564 0.368665
-0.277894 2.824573 1.062410
-0.273296 2.786856 1.850312
-0.277890 2.842832 2.626024
-0.282179 2.893188 3.164704
-0.281336 2.889606 3.590667
-0.268026 2.761344 4.352639
-0.026936 3.273398 0.465385
-0.024110 3.011876 1.022874
-0.023277 3.020318 1.761478
-0.022631 2.993209 2.125085
-0.021997 3.027391 2.856334
-0.021135 3.024441 3.551080
-0.020117 2.956121 4.019255
0.288967 3.464257 0.619174
0.275132 3.287105 1.320998
0.273464 3.259988 1.772101
0.271858 3.234786 2.157757
0.275975 3.271824 2.907960
0.280155 3.308530 3.710406
0.554600 3.215193 1.039497
0.556049 3.218580 1.680679
0.553586 3.200441 2.182708
0.547402 3.159335 2.890104
0.536441 3.092027 3.444929
0.529576 3.047735 4.103404
0.766710 2.827990 1.471722
0.778628 2.868679 2.185556
0.773450 2.847921 2.558774
0.781417 2.874638 3.131878
0.969645 2.647863 1.240392
0.970176 2.647618 1.756059
0.983452 2.680980 2.617600
0.988939 2.693707 3.287712
1.162155 2.482755 1.150399
1.172604 2.503729 1.665967
1.146227 2.445941 2.247370
1.105023 2.356499 2.878699
1.112012 2.369336 3.727245
1.051974 2.240386 4.194862
1.286396 2.177769 1.465266
1.293429 2.188371 2.122073
1.257126 2.126224 2.504301
1.281952 2.166237 3.514834
1.400697 1.963644 1.034288
1.403889 1.967004 1.710392
1.380600 1.933500 2.253727
1.400937 1.960409 3.215748
1.408512 1.970091 3.776650
1.321664 1.847478 4.545900
1.594440 1.853446 1.768783
1.542651 1.792777 2.099718
1.523233 1.769385 2.687629
1.497152 1.738231 3.314290
1.673139 1.616404 1.406103
1.685604 1.627497 2.144207
1.634375 1.577200 2.822793
1.589582 1.533225 3.453802
1.805875 1.453050 1.200440
1.759730 1.415017 1.994780
1.682196 1.352276 2.364615
1.708184 1.372148 3.290352
1.735984 1.393657 4.027164
1.531679 1.229034 4.687717
1.951894 1.313700 0.702109
1.835114 1.234758 1.032287
1.825486 1.227418 1.860317
1.824951 1.226331 2.560664
1.835860 1.232948 3.244765
1.812549 1.216856 3.674507
1.627448 1.091877 4.484793
2.128490 1.159329 0.486907
1.961721 1.068055 0.928354
1.917904 1.043584 1.559146
1.957988 1.064337 2.618810
1.939006 1.053704 2.941320
1.920266 1.042796 3.691721
1.784563 0.968445 4.448370
2.067553 0.902263 1.503923
2.113825 0.921637 2.327697
2.134297 0.930279 2.610529
2.075517 0.904031 3.265403
2.184193 0.716785 1.347194
2.202261 0.722342 1.732985
2.243789 0.735012 2.702615
2.165138 0.708825 3.159866
2.090951 0.684146 3.602805
1.948872 0.637000 4.410327
2.578844 0.599060 0.398606
2.471024 0.573369 1.021653
2.416102 0.560159 1.484663
2.361274 0.546402 2.551002
2.287150 0.528988 2.833218
2.279369 0.526562 3.500151
2.223076 0.512876 4.255777
2.597614 0.375425 1.358744
2.606423 0.376031 1.988039
2.569270 0.369826 2.802256
2.512371 0.360959 3.477998
2.745079 0.134823 1.327933
2.736019 0.134015 1.658854
2.779092 0.135030 2.640821
2.739252 0.132676 3.027871
2.761066 0.132775 3.898323
2.901494 -0.111561 0.731865
2.957805 -0.114730 1.571281
2.967261 -0.115782 2.143595
2.939074 -0.115380 2.737296
2.885027 -0.113806 3.217751
3.197761 -0.430673 1.390833
3.168375 -0.427228 1.784786
3.160726 -0.427004 2.404771
3.191065 -0.432248 3.275626
3.218754 -0.436876 3.938842
3.017744 -0.410010 4.305994
3.440397 -0.769061 0.568705
3.466602 -0.776164 1.400738
3.480529 -0.780311 2.085445
3.492028 -0.784032 2.846546
3.512600 -0.789339 3.301388
3.453483 -0.776558 3.650221
3.333482 -0.750655 4.431134
3.508674 -1.128832 0.975829
3.538864 -1.139709 1.696847
3.553858 -1.145535 2.312516
3.518075 -1.134712 2.761061
3.531096 -1.139915 3.388807
3.334017 -1.425158 1.364409
3.303676 -1.412732 1.703900
3.274734 -1.401393 2.358887
3.310960 -1.418436 3.317829
3.232536 -1.385370 3.669708
3.113270 -1.335055 4.224266
3.038811 -1.637189 1.388851
2.976461 -1.604443 1.931931
2.978121 -1.606432 2.631233
2.922063 -1.577166 3.273254
2.881763 -1.556423 3.952259
2.768986 -1.496495 4.658160
2.719957 -1.799394 0.997932
2.727459 -1.805579 1.763790
2.729759 -1.807794 2.197543
2.680337 -1.775861 2.712954
2.677004 -1.775102 3.647583
2.387597 -1.914395 0.971005
2.448241 -1.964111 1.637484
2.441399 -1.959683 2.291829
2.420113 -1.943932 3.127575
2.429505 -1.952384 3.692858
2.373213 -1.907795 4.118410
2.277115 -2.166255 1.185641
2.302719 -2.191890 1.902955
2.240386 -2.133512 2.462773
2.227802 -2.123042 3.350180
2.212929 -2.109311 3.615169
2.180720 -2.080248 4.609939
2.071551 -2.348800 0.851761
2.032057 -2.304871 1.305658
1.981451 -2.249067 2.183785
1.949592 -2.213541 2.541978
1.975192 -2.243864 3.232543
1.787828 -2.466373 0.276276
1.737533 -2.398494 1.016143
1.747828 -2.413635 1.469337
1.765149 -2.439415 2.368217
1.788427 -2.472591 2.845649
1.798749 -2.488264 3.511880
1.762986 -2.439871 4.046312
1.521761 -2.535491 0.865024
1.536676 -2.562112 1.620335
1.545413 -2.578284 2.301160
1.538098 -2.567125 2.749643
1.559684 -2.604773 3.430991
1.294396 -2.700119 1.224993
1.297805 -2.709138 1.905446
1.315404 -2.748408 2.795424
1.321889 -2.763159 3.216336
1.328837 -2.779960 4.011437
1.212445 -2.537480 4.441971
1.064718 -2.838491 0.846166
1.056863 -2.820166 1.602258
1.058180 -2.825427 2.106603
1.059661 -2.831837 2.814447
1.073895 -2.872991 3.698843
0.849934 -3.138559 1.389695
0.842642 -3.115940 2.251076
0.831011 -3.074916 2.656835
0.828656 -3.069672 3.364328
0.845725 -3.136788 4.133405
0.784355 -2.911245 4.618320
0.596746 -3.344979 1.300112
0.601197 -3.374491 1.870885
0.602835 -3.388075 2.418214
0.592107 -3.331574 2.906736
0.593625 -3.346633 3.734431
0.587805 -3.316506 4.083483
0.300657 -3.672201 0.934841
0.299375 -3.665090 1.394945
0.299024 -3.671227 1.953874
0.298208 -3.674137 2.646319
0.298137 -3.684879 3.265919
0.292602 -3.626867 3.838349
-0.018932 -3.889854 1.091474
-0.020156 -3.879261 1.883893
-0.021048 -3.891109 2.398701
-0.022426 -3.931544 3.108851
-0.022695 -3.890848 3.426182
-0.425541 -4.378341 1.305329
-0.424153 -4.360981 1.466613
-0.428305 -4.387930 2.284659
-0.428320 -4.374895 2.979560
-0.429232 -4.368793 3.799541
-0.766513 -4.238744 0.859221
-0.779204 -4.300020 1.716252
-0.782453 -4.312203 2.270586
-0.767249 -4.224174 2.698129
-0.756895 -4.161230 3.305798
-0.743755 -4.085135 3.715468
-1.084780 -3.913841 0.987947
-1.098649 -3.957834 1.926308
-1.072104 -3.860126 2.267060
-1.042822 -3.751986 2.726480
-1.056999 -3.797403 3.642872
-1.303489 -3.463214 1.352821
-1.307745 -3.471809 1.976825
-1.300048 -3.449780 2.349148
-1.307088 -3.465258 3.091227
-1.339810 -3.549421 3.669240
-1.534965 -3.163664 1.138150
-1.542540 -3.178042 1.509015
-1.543859 -3.178100 2.311404
-1.538647 -3.165922 2.752347
-1.570584 -3.228602 3.652446
-1.765637 -2.938710 1.423067
-1.756743 -2.923503 1.573160
-1.778519 -2.957108 2.533893
-1.793289 -2.980111 3.097750
-1.746360 -2.900211 3.828574
-1.675031 -2.781070 4.116771
-1.953943 -2.694651 0.721783
-1.957626 -2.697864 1.527286
-1.956050 -2.694807 1.910223
-1.969048 -2.710608 2.817954
-1.964106 -2.702342 3.455727
-2.208687 -2.483766 0.481214
-2.182475 -2.453419 0.914047
-2.210392 -2.482954 1.818976
-2.196025 -2.465974 2.237256
-2.208514 -2.478408 3.021767
-2.168571 -2.432422 3.616712
-2.119891 -2.376684 4.218497
-2.398971 -2.281819 1.578339
-2.397330 -2.279547 1.961595
-2.378010 -2.259504 2.874730
-2.359461 -2.241012 3.356122
-2.458424 -1.950694 1.060450
-2.503097 -1.985008 1.743131
-2.563837 -2.032454 2.164303
-2.532124 -2.006126 2.879427
-2.538527 -2.009912 3.652937
-2.508341 -1.984933 4.318482
-2.846131 -1.863311 0.645532
-2.749249 -1.799352 0.980501
-2.744196 -1.795301 1.446717
-2.738885 -1.790673 2.172613
-2.777744 -1.814736 3.005172
-2.693902 -1.759244 3.478169
-2.918514 -1.553145 0.821991
-2.930868 -1.559095 1.228651
-2.953017 -1.569491 2.125829
-2.887284 -1.534052 2.465380
-2.906909 -1.542977 3.461374
-2.883764 -1.530090 3.869151
-3.074575 -1.290432 0.937427
-3.072698 -1.288811 1.502405
-3.076555 -1.289179 2.351540
-3.067272 -1.284604 2.820262
-3.018267 -1.263095 3.514063
-2.976503 -1.244728 4.153409
-3.343632 -1.056775 0.841331
-3.297644 -1.041233 1.521016
-3.242473 -1.022822 2.205102
-3.293279 -1.037903 2.841768
-3.318657 -1.044826 3.565445
-3.573690 -0.803960 1.042271
-3.590810 -0.807160 1.460540
-3.629097 -0.814733 2.116047
-3.589227 -0.805105 2.556138
-3.547210 -0.794417 3.389005
-3.533869 -0.790662 3.899023
-3.758907 -0.500736 1.152308
-3.779471 -0.502759 1.601422
-3.774341 -0.500983 2.290426
-3.832205 -0.507196 3.198124
-3.838954 -0.507295 3.692708
-3.747742 -0.494557 4.144623
-4.118848 -0.164393 1.269080
-4.113518 -0.162811 2.063688
-4.126417 -0.162006 2.827183
-4.079366 -0.159688 3.109472
-4.071002 -0.157729 4.079247
-3.905231 -0.150936 4.334439
-3.873045 0.188057 0.676155
-3.784885 0.184406 1.078790
-3.789127 0.185604 1.708952
-3.771817 0.185538 2.210615
-3.790119 0.187674 2.999326
-3.792547 0.188554 3.486590
-3.418482 0.494686 1.438416
-3.434309 0.497417 1.743978
-3.461051 0.502787 2.779362
-3.379101 0.491478 3.212933
-3.381852 0.492815 3.883346
-3.174148 0.748846 0.997932
-3.184732 0.752425 1.788721
-3.127063 0.739136 2.042969
-3.069841 0.726325 2.592269
-3.096489 0.733971 3.608879
-2.838672 0.952915 1.224993
-2.847028 0.956579 1.897062
-2.831674 0.952040 2.386913
-2.872110 0.966610 3.143567
-2.868336 0.966152 3.780233
-2.760996 0.930788 4.444573
-2.631337 1.154921 1.331002
-2.631522 1.155630 1.828998
-2.678176 1.177418 2.840380
-2.670536 1.174599 3.265604
-2.456987 1.362311 0.945167
-2.466038 1.368389 1.764493
-2.447309 1.358571 2.214833
-2.459756 1.366474 2.986842
-2.433371 1.352647 3.647342
-2.283190 1.269662 4.090033
-2.314536 1.568374 1.266715
-2.258324 1.531121 1.905542
-2.181430 1.479582 2.380060
-2.174615 1.475917 3.141868
-2.232782 1.516225 3.777600
-2.138739 1.452712 4.076295
-2.068560 1.691334 0.355917
-1.981688 1.621122 0.978315
-1.964182 1.607669 1.644009
-1.967179 1.611202 2.472788
-2.016861 1.652852 3.186839
-1.994052 1.634714 3.611253
-1.856024 1.522474 4.387734
-1.871440 1.806296 0.611590
-1.758640 1.698275 1.246886
-1.789669 1.728790 1.646639
-1.812290 1.751840 2.508825
-1.791961 1.732919 3.043649
-1.822396 1.763235 3.676591
-1.701522 1.646866 4.148268
-1.622484 1.877713 0.852788
-1.628626 1.886126 1.714827
-1.641129 1.901647 2.398113
-1.630049 1.889417 2.802694
-1.634410 1.895693 3.611365
-1.550555 1.798975 4.008153
-1.438326 2.005264 1.194715
-1.450476 2.023724 2.091372
-1.448818 2.022467 2.717464
-1.411358 1.970809 3.110715
-1.361490 1.902114 3.717120
-1.213659 1.696844 4.660844
-1.254022 2.130951 1.314119
-1.269898 2.159151 1.936378
-1.285671 2.186885 2.396199
-1.280470 2.179509 3.143400
-1.222690 2.082211 3.716849
-1.125724 1.917869 4.202315
-1.067368 2.266843 1.491997
-1.056942 2.245806 1.972028
-1.050225 2.232672 2.470184
-1.049089 2.232102 3.278890
-1.025742 2.183813 3.907843
-0.895326 1.907465 4.631320
-0.929281 2.538553 0.719679
-0.900342 2.461154 1.265384
-0.872404 2.386012 1.686559
-0.864795 2.367587 2.508825
-0.874075 2.395488 3.356155
-0.865874 2.374336 3.815765
-0.785652 2.155673 4.350142
-0.672178 2.565636 1.417011
-0.663347 2.535011 2.167914
-0.660081 2.524590 2.672675
-0.661266 2.532560 3.512138
-0.456805 2.705583 1.218036
-0.461187 2.735662 1.834913
-0.465784 2.768368 2.638697
-0.456576 2.717014 3.154665
-0.446456 2.660710 3.769133
-0.417740 2.493198 4.395945
-0.213875 2.866397 1.347839
-0.215201 2.899537 2.325445
-0.216173 2.921481 2.882401
-0.214730 2.907744 3.248790
0.020107 3.226108 0.615964
0.020244 3.099819 1.354739
0.020840 3.062378 2.036249
0.021062 3.035915 2.366296
0.022433 3.070085 3.283266
0.022902 3.066044 3.690477
0.328449 3.344074 0.961516
0.330579 3.354539 1.758012
0.330615 3.346307 2.374470
0.327640 3.310006 2.828558
0.323572 3.262031 3.345078
0.595041 3.119944 0.616973
0.579595 3.035598 1.120702
0.581790 3.040219 2.151626
0.576095 3.008857 2.397845
0.586580 3.056660 3.439371
0.581835 3.030604 3.645690
0.805142 2.805412 1.733577
0.806741 2.809045 2.189098
0.811023 2.820749 2.941221
0.812845 2.824850 3.467298
0.806582 2.800513 4.084589
1.024359 2.655073 1.264670
1.022779 2.648437 2.068005
1.023624 2.648570 2.720864
1.023449 2.646543 3.222937
0.996524 2.574973 3.872976
