3.529022 -0.194169 0.213392
3.393696 -0.186724 0.977581
3.402397 -0.187202 1.226151
3.393715 -0.186725 2.025910
3.404614 -0.187324 2.818327
3.335250 -0.183508 3.145188
3.917294 -0.581984 0.319949
3.832872 -0.569441 1.005031
3.810664 -0.566142 1.649070
3.777223 -0.561173 1.930917
3.755818 -0.557993 2.655659
3.764198 -0.559238 3.500926
3.724705 -0.553371 4.004023
3.391327 -0.503842 4.667257
3.994467 -0.962641 0.108926
3.957936 -0.953837 0.881100
3.973089 -0.957489 1.317232
3.973521 -0.957593 2.200555
3.965544 -0.955671 2.724483
3.930218 -0.947158 3.372151
3.669093 -1.241172 0.954374
3.666852 -1.240414 1.521098
3.691006 -1.248585 2.332964
3.711202 -1.255417 2.883283
3.668516 -1.240977 3.647342
3.537977 -1.196818 4.154633
3.436817 -1.524220 1.271827
3.463722 -1.536152 1.856281
3.367758 -1.493592 2.169651
3.280540 -1.454911 2.853822
3.255370 -1.443748 3.779194
3.085696 -1.368498 4.106630
3.346328 -1.871119 -0.135263
3.109947 -1.738945 0.528769
3.035971 -1.697581 1.112074
3.019236 -1.688224 1.781571
3.021541 -1.689512 2.546506
2.964183 -1.657440 3.200238
2.783922 -1.907369 1.004096
2.716210 -1.860978 1.929134
2.653350 -1.817910 2.288887
2.672783 -1.831224 3.146509
2.701571 -1.850948 3.700328
2.544410 -1.743271 4.559239
2.608419 -2.159009 1.312891
2.503776 -2.072395 1.620673
2.447250 -2.025608 2.430649
2.433698 -2.014391 2.823384
2.425853 -2.007898 3.478772
2.322716 -1.922530 4.241959
2.322965 -2.286790 0.258319
2.242217 -2.207300 0.898942
2.218236 -2.183692 1.358964
2.238789 -2.203925 2.294303
2.244902 -2.209943 2.719714
2.236116 -2.201294 3.375066
2.230481 -2.195746 4.156284
2.168643 -2.597907 0.171532
1.999825 -2.395674 0.873706
1.994267 -2.389015 1.341663
1.999421 -2.395189 1.974413
1.996701 -2.391931 2.609423
2.004995 -2.401867 3.288617
1.955632 -2.822328 -0.042815
1.774812 -2.561373 0.692077
1.768167 -2.551783 1.151324
1.780783 -2.569990 2.078184
1.781245 -2.570658 2.747793
1.786090 -2.577649 3.357778
1.541687 -2.722694 1.133125
1.563802 -2.761750 2.031747
1.588988 -2.806230 2.713300
1.561339 -2.757400 3.188485
1.294594 -2.877987 1.184067
1.306435 -2.904309 1.797161
1.322647 -2.940349 2.704680
1.302191 -2.894876 2.987464
1.319647 -2.933680 3.847052
1.196727 -2.660420 4.263878
1.071628 -3.117786 0.911889
1.053751 -3.065777 1.448389
1.039919 -3.025532 2.038773
1.057130 -3.075606 3.014870
1.069027 -3.110221 3.376389
1.054031 -3.066591 4.053900
0.876244 -3.530014 0.467949
0.843934 -3.399851 1.102643
0.841456 -3.389866 1.462581
0.835440 -3.365631 1.927004
0.819642 -3.301987 2.732621
0.804082 -3.239305 3.362479
0.575862 -3.840706 0.016881
0.559362 -3.730659 0.923573
0.567147 -3.782584 1.599663
0.568463 -3.791360 2.159229
0.557348 -3.717227 2.496812
0.551964 -3.681317 3.432987
0.539650 -3.599193 4.002988
0.497338 -3.316988 4.502981
0.227367 -3.946206 1.086816
0.226854 -3.937313 1.475300
0.228841 -3.971793 2.419895
0.228401 -3.964160 2.912308
0.227857 -3.954717 3.543048
0.221321 -3.841283 4.053595
-0.144934 -4.283585 0.383226
-0.143832 -4.251024 1.101283
-0.143795 -4.249937 1.636149
-0.143859 -4.251835 2.079665
-0.144007 -4.256184 2.767412
-0.143429 -4.239123 3.350378
-0.142031 -4.197788 4.049968
-0.131853 -3.896987 4.769898
-0.521198 -4.201933 0.175241
-0.488124 -3.935282 0.648281
-0.487606 -3.931108 1.305745
-0.493187 -3.976100 2.121849
-0.489635 -3.947470 2.411480
-0.486403 -3.921414 2.973614
-0.801271 -3.664548 1.042993
-0.799850 -3.658052 1.493319
-0.787721 -3.602580 2.220617
-0.778999 -3.562689 2.659942
-0.772920 -3.534889 3.401395
-0.761735 -3.483735 4.211916
-1.099432 -3.464638 0.280776
-1.065200 -3.356763 0.905386
-1.058721 -3.336344 1.616407
-1.050674 -3.310985 2.021086
-1.041682 -3.282649 2.634140
-1.012689 -3.191284 3.222475
-0.998054 -3.145163 3.906799
-1.307190 -3.097938 0.489238
-1.303570 -3.089358 1.107919
-1.289733 -3.056567 1.462144
-1.266953 -3.002580 2.181961
-1.237569 -2.932942 2.812533
-1.237422 -2.932593 3.326618
-1.213731 -2.876449 4.095755
-1.463851 -2.744972 1.315710
-1.475511 -2.766835 1.817285
-1.464800 -2.746751 2.244208
-1.476531 -2.768748 3.130490
-1.481615 -2.778282 3.697604
-1.361037 -2.552178 4.267189
-1.665427 -2.535047 1.249444
-1.652112 -2.514778 1.789725
-1.647762 -2.508157 2.426685
-1.691086 -2.574104 3.302435
-1.937890 -2.432317 0.285501
-1.915333 -2.404006 0.979022
-1.852520 -2.325166 1.582636
-1.843507 -2.313854 2.185258
-1.856181 -2.329762 2.769431
-1.859470 -2.333889 3.347524
-1.785377 -2.240893 4.058044
-2.046821 -2.135324 1.243695
-2.051767 -2.140484 1.896832
-2.074383 -2.164078 2.383278
-2.037616 -2.125721 2.947733
-2.171681 -1.897657 1.272759
-2.166113 -1.892791 1.657321
-2.133408 -1.864213 2.185081
-2.172936 -1.898753 3.120214
-2.308441 -1.665435 0.907450
-2.309362 -1.666100 1.580115
-2.325298 -1.677597 2.314159
-2.346303 -1.692751 2.934914
-2.358758 -1.701737 3.796240
-2.160178 -1.558470 4.440703
-2.471410 -1.463032 0.924173
-2.471571 -1.463127 1.570166
-2.454919 -1.453270 2.104892
-2.480967 -1.468690 3.094075
-2.498439 -1.479033 3.752706
-2.330631 -1.379693 4.398825
-2.675556 -1.264494 0.208620
-2.615830 -1.236267 0.784092
-2.673517 -1.263530 1.757762
-2.685399 -1.269146 2.350388
-2.648129 -1.251532 2.773762
-2.663052 -1.258585 3.457123
-2.563974 -1.211760 4.221459
-2.800297 -1.032074 0.225827
-2.745480 -1.011870 1.053258
-2.762120 -1.018003 1.496916
-2.788152 -1.027597 2.367766
-2.797856 -1.031174 2.804178
-2.817531 -1.038425 3.521186
-2.701009 -0.995480 4.162639
-3.029274 -0.803627 0.164251
-2.917723 -0.774034 0.798377
-2.897654 -0.768710 1.581396
-2.942576 -0.780627 2.336201
-2.952880 -0.783360 2.780268
-2.905697 -0.770843 3.318873
-2.902181 -0.769911 4.146492
-3.236548 -0.555437 0.120455
-3.096485 -0.531401 0.717460
-3.131747 -0.537452 1.667683
-3.102895 -0.532501 2.024707
-3.112942 -0.534225 2.814746
-3.121672 -0.535723 3.415601
-3.127403 -0.536707 4.291220
-3.548484 -0.272978 0.144991
-3.414538 -0.262674 1.002501
-3.448670 -0.265299 1.258427
-3.445352 -0.265044 2.125390
-3.415525 -0.262749 2.713326
-3.415133 -0.262719 3.474457
-3.733332 0.047318 0.000000
-3.539381 0.044860 0.614535
-3.496565 0.044317 1.548044
-3.530076 0.044742 2.120321
-3.501537 0.044380 2.723960
-3.441369 0.043618 3.394671
-3.231918 0.342277 1.016697
-3.247372 0.343913 1.896226
-3.236156 0.342725 2.459357
-3.222767 0.341307 3.155125
-2.945603 0.584497 1.111549
-2.968436 0.589027 2.076051
-2.946877 0.584750 2.470088
-2.918259 0.579071 3.006253
-2.759559 0.836744 1.264046
-2.744445 0.832161 1.946362
-2.771446 0.840349 2.364615
-2.846206 0.863017 3.251967
-2.634989 1.045195 1.292202
-2.610848 1.035619 1.792221
-2.595148 1.029391 2.310836
-2.554263 1.013174 2.992393
-2.383222 1.232578 1.254417
-2.302083 1.190614 1.936699
-2.230077 1.153373 2.570481
-2.176905 1.125873 3.037913
-2.408849 1.539264 -0.034879
-2.142456 1.369038 0.757458
-2.069481 1.322407 1.201384
-2.050463 1.310254 1.795504
-2.025235 1.294134 2.481136
-2.004740 1.281037 3.330596
-2.074423 1.582020 0.114244
-1.881167 1.434637 0.681876
-1.863178 1.420918 1.498469
-1.802031 1.374286 1.938423
-1.766644 1.347299 2.718792
-1.773618 1.352617 3.588616
-1.692199 1.290525 4.006676
-1.699857 1.565916 0.408001
-1.673604 1.541731 1.048067
-1.633068 1.504390 1.548698
-1.588001 1.462874 2.222154
-1.593930 1.468335 2.956714
-1.592677 1.467181 3.451578
-1.419206 1.307379 4.231521
-1.639747 1.833621 0.282522
-1.480854 1.655941 0.916280
-1.447669 1.618832 1.577792
-1.442753 1.613335 1.908729
-1.460162 1.632802 2.936657
-1.444905 1.615741 3.226321
-1.416982 1.584518 4.188172
-1.433263 1.906769 0.336270
-1.317567 1.752850 0.774567
-1.293370 1.720660 1.694870
-1.288336 1.713963 1.990425
-1.305467 1.736752 2.731853
-1.320060 1.756167 3.511260
-1.222483 1.626353 4.263492
-1.109305 1.818897 1.195598
-1.105745 1.813061 2.063311
-1.102647 1.807981 2.673572
-1.113598 1.825937 3.436373
-1.085689 1.780174 4.066346
-0.992276 1.999758 1.245290
-0.953072 1.920751 1.525512
-0.944902 1.904284 2.457518
-0.941864 1.898162 2.979065
-0.857777 2.252039 0.282958
-0.790295 2.074871 0.871811
-0.771958 2.026729 1.515439
-0.774466 2.033312 2.095789
-0.771517 2.025571 2.669500
-0.787561 2.067693 3.653630
-0.714511 1.875904 4.048733
-0.608060 2.173252 1.226568
-0.607027 2.169558 1.698576
-0.611080 2.184045 2.670236
-0.598223 2.138092 2.987784
-0.436746 2.369077 1.282824
-0.436634 2.368471 1.796887
-0.429771 2.331243 2.376821
-0.422371 2.291102 3.085046
-0.424566 2.303010 3.684024
-0.366716 1.989209 4.365160
-0.249777 2.601602 1.389152
-0.243851 2.539880 1.665350
-0.238839 2.487671 2.420604
-0.242161 2.522277 3.119003
-0.003238 3.058801 0.103983
-0.002982 2.816252 0.698622
-0.002955 2.791491 1.451523
-0.002919 2.756880 1.760026
-0.002948 2.784813 2.548681
-0.002925 2.763068 3.397282
0.278651 3.122356 0.267987
0.275825 3.090690 1.108059
0.273180 3.061058 1.586336
0.270334 3.029166 2.292853
0.269014 3.014372 2.739079
0.272048 3.048369 3.357014
0.265610 2.976231 4.227895
0.615121 3.334861 0.686078
0.614197 3.329855 1.312891
0.607173 3.291773 2.003366
0.601079 3.258735 2.575833
0.603450 3.271588 3.259390
0.602082 3.264175 3.860758
0.544879 2.954046 4.526503
0.857290 3.096526 0.526063
0.840271 3.035051 0.993993
0.832638 3.007480 1.531954
0.830260 2.998892 2.226907
0.830270 2.998929 2.853776
0.832690 3.007668 3.674558
0.802963 2.900296 4.198570
1.117709 2.931065 0.458160
1.085112 2.845582 0.867103
1.073484 2.815088 1.363245
1.076316 2.822514 1.989302
1.082392 2.838449 2.869167
1.101627 2.888890 3.414988
1.068811 2.802835 4.314724
1.388631 2.837710 0.198673
1.250528 2.555493 0.855110
1.270207 2.595707 1.412153
1.278882 2.613433 1.804046
1.255100 2.564835 2.490414
1.273315 2.602058 3.233456
1.467800 2.410252 0.925618
1.471162 2.415772 1.694824
1.480038 2.430348 2.359583
1.477266 2.425796 2.904592
1.799704 2.442306 0.095393
1.610598 2.185678 0.639491
1.631332 2.213816 1.628798
1.681041 2.281273 2.193808
1.670140 2.266480 2.616558
1.619474 2.197724 3.321131
1.521149 2.064290 4.069423
2.035526 2.283408 -0.147309
1.874803 2.103112 0.751009
1.850349 2.075680 1.189333
1.858522 2.084848 1.950920
1.908975 2.141446 2.656073
1.808310 2.028522 3.198538
2.214414 2.074099 -0.164769
2.034270 1.905370 0.480697
2.020319 1.892303 1.487633
2.003600 1.876644 1.988963
2.046832 1.917137 2.784588
1.984021 1.858305 3.207297
2.134716 1.656460 1.086969
2.167571 1.681954 1.962711
2.150646 1.668821 2.386293
2.112594 1.639295 3.008127
2.325480 1.489516 0.437341
2.273593 1.456281 1.025630
2.272126 1.455342 1.596280
2.257698 1.446100 2.160228
2.257329 1.445864 2.804183
2.186502 1.400498 3.486055
1.958947 1.254745 4.180500
2.717783 1.404533 0.199300
2.476010 1.279586 0.471958
2.448404 1.265320 1.199008
2.444729 1.263420 2.093962
2.488735 1.286162 2.749648
2.429403 1.255500 3.117287
2.526609 1.028433 1.112391
2.568811 1.045611 2.039878
2.542604 1.034944 2.358189
2.507457 1.020637 3.093422
2.687295 0.812101 1.232076
2.707987 0.818354 1.703552
2.718428 0.821509 2.281066
2.746711 0.830056 3.209825
2.739652 0.827923 3.828302
2.512924 0.759406 4.526605
2.917894 0.600133 1.138483
2.892750 0.594961 1.688214
2.878114 0.591951 2.256558
2.879409 0.592218 3.158845
2.878326 0.591995 3.836782
2.696713 0.554642 4.357050
3.164375 0.354788 0.189885
3.124034 0.350265 0.795241
3.145238 0.352642 1.408644
3.153118 0.353525 2.378848
3.101396 0.347726 2.669966
3.130053 0.350939 3.706244
3.012251 0.337732 3.975304
3.782970 0.075622 -0.076208
3.461599 0.069198 0.479129
3.476165 0.069489 1.069318
3.495218 0.069870 1.976750
3.482597 0.069617 2.501738
3.477957 0.069525 3.019141
3.458098 0.069128 3.765524
3.238610 0.064740 4.405160
4.272563 -0.309024 -0.074981
3.950848 -0.285755 0.395722
3.916082 -0.283241 1.045553
3.912368 -0.282972 1.552364
3.939245 -0.284916 2.371319
3.978955 -0.287788 2.842674
3.936930 -0.284749 3.638568
3.799339 -0.274797 4.144701
3.933173 -0.641561 1.279451
3.933277 -0.641577 1.785459
3.932441 -0.641441 2.495617
3.960453 -0.646010 3.086516
3.894638 -0.635275 3.408309
3.826833 -0.624215 4.453966
3.727769 -0.968960 1.056538
3.792465 -0.985777 1.924703
3.737455 -0.971478 2.199725
3.719517 -0.966815 2.890247
3.722886 -0.967691 3.847626
3.471728 -0.902407 4.365349
3.485483 -1.253757 1.129567
3.525866 -1.268283 1.986445
3.436802 -1.236246 2.419796
3.373237 -1.213381 3.077738
3.348060 -1.204325 3.753608
3.158952 -1.136301 4.344983
3.339568 -1.555586 0.169896
3.096309 -1.442275 0.668397
3.086808 -1.437849 1.166158
3.147846 -1.466281 2.003982
3.111128 -1.449178 2.488589
3.087335 -1.438095 3.294529
3.075972 -1.789599 -0.059702
2.932312 -1.706017 0.746099
2.916839 -1.697015 1.605689
2.911570 -1.693949 1.941717
2.846987 -1.656375 2.638082
2.799731 -1.628882 3.381711
2.714429 -1.934581 1.246256
2.706877 -1.929199 2.030733
2.651173 -1.889499 2.476580
2.586182 -1.843179 3.257559
2.590932 -1.846564 3.763769
2.370629 -1.689554 4.584114
2.370803 -2.042325 1.141771
2.379965 -2.050217 1.912364
2.358481 -2.031710 2.244208
2.393647 -2.062004 3.093483
2.420793 -2.085389 3.875957
2.222842 -1.914865 4.199680
2.391377 -2.464028 0.051378
2.173217 -2.239241 0.865058
2.173056 -2.239074 1.523306
2.183666 -2.250007 2.207868
2.207690 -2.274761 2.657136
2.232833 -2.300668 3.306755
1.964546 -2.444705 1.323319
1.965766 -2.446223 1.860504
1.951094 -2.427964 2.270159
1.972777 -2.454947 2.989813
1.731892 -2.605105 1.115833
1.740119 -2.617479 1.478896
1.735197 -2.610077 2.190579
1.744946 -2.624740 3.015733
1.752509 -2.636117 3.625625
1.647006 -2.477419 4.318082
1.537107 -2.859376 0.896106
1.516562 -2.821158 1.674994
1.508495 -2.806151 2.213024
1.515155 -2.818539 2.993742
1.500127 -2.790584 3.424236
1.461751 -2.719195 4.214734
1.362498 -3.181299 0.367908
1.345774 -3.142249 0.779775
1.339262 -3.127044 1.647274
1.327159 -3.098786 2.346703
1.318609 -3.078822 2.979610
1.308247 -3.054627 3.459673
1.285957 -3.002582 4.042109
1.139329 -3.529563 0.127320
1.111885 -3.444546 0.825888
1.111286 -3.442689 1.456754
1.085382 -3.362442 2.163003
1.074811 -3.329691 2.689780
1.051960 -3.258900 3.231970
0.862458 -3.812633 0.143369
0.825248 -3.648136 0.644526
0.833774 -3.685831 1.678464
0.842307 -3.723552 1.914000
0.843101 -3.727058 2.645070
0.842400 -3.723963 3.148738
0.529887 -4.051340 0.368965
0.521908 -3.990335 0.983360
0.521238 -3.985217 1.480125
0.519234 -3.969894 2.079813
0.522743 -3.996722 2.745696
0.526992 -4.029205 3.556822
0.168244 -4.219820 0.943590
0.167096 -4.191031 1.480085
0.166827 -4.184300 2.201773
0.168518 -4.226705 2.997336
0.166300 -4.171081 3.425439
0.162703 -4.080845 4.125058
-0.216422 -4.052859 -0.008393
-0.208826 -3.910605 0.683057
-0.207681 -3.889169 1.494560
-0.205823 -3.854369 2.174385
-0.208098 -3.896974 2.714621
-0.206523 -3.867474 3.194352
-0.542962 -3.744668 0.110078
-0.519522 -3.583007 0.859936
-0.524353 -3.616324 1.685210
-0.521924 -3.599573 2.215665
-0.513217 -3.539523 2.717464
-0.507139 -3.497603 3.548831
-0.503128 -3.469943 4.141715
-0.874379 -3.604769 0.203711
-0.811029 -3.343598 0.659304
-0.810207 -3.340207 1.336492
-0.817819 -3.371589 1.952665
-0.793877 -3.272885 2.623250
-0.773867 -3.190392 3.072729
-1.079959 -3.119137 1.040886
-1.049007 -3.029743 1.735372
-1.028685 -2.971047 2.328872
-1.030416 -2.976047 2.989813
-1.272557 -2.851583 0.942891
-1.277668 -2.863036 1.808640
-1.256950 -2.816611 2.194026
-1.265859 -2.836575 3.063736
-1.282924 -2.874814 3.470132
-1.162543 -2.605060 4.157147
-1.461676 -2.623652 1.120229
-1.448807 -2.600552 1.660829
-1.459256 -2.619308 2.391960
-1.458488 -2.617930 2.969178
-1.680287 -2.436377 1.287158
-1.659982 -2.406935 1.602521
-1.636137 -2.372360 2.164248
-1.664624 -2.413666 3.080556
-1.688931 -2.448910 3.717888
-1.515518 -2.197465 4.296983
-2.028748 -2.454791 0.250302
-1.828652 -2.212674 0.871875
-1.839745 -2.226097 1.368595
-1.845938 -2.233591 2.023232
-1.836677 -2.222384 2.523327
-1.836663 -2.222368 3.094075
-2.250127 -2.252343 0.077681
-2.007552 -2.009529 0.663178
-2.018477 -2.020465 1.195272
-2.041557 -2.043568 1.875154
-2.032890 -2.034892 2.436186
-2.051180 -2.053200 3.285708
-2.245231 -1.882425 1.166370
-2.274529 -1.906989 1.948975
-2.239850 -1.877914 2.388877
-2.245538 -1.882683 3.063156
-2.396543 -1.651295 1.306587
-2.406225 -1.657966 1.567712
-2.377516 -1.638185 2.242663
-2.408128 -1.659278 3.257045
-2.597485 -1.468124 0.052114
-2.501610 -1.413935 0.976469
-2.491109 -1.407999 1.334790
-2.498502 -1.412178 1.981230
-2.553188 -1.443086 2.817262
-2.565060 -1.449797 3.465819
-2.434100 -1.375777 3.907124
-2.679174 -1.194975 1.262069
-2.708365 -1.207995 1.905523
-2.681131 -1.195848 2.554187
-2.686296 -1.198152 2.912945
-2.734010 -1.219433 3.662897
-2.461590 -1.097928 4.302437
-2.911831 -0.978701 0.918393
-2.922642 -0.982335 1.776856
-2.942257 -0.988928 2.114432
-2.895825 -0.973321 2.780268
-2.934643 -0.986368 3.677435
-2.785370 -0.936196 4.234475
-3.338000 -0.806167 0.145571
-3.128014 -0.755453 0.767495
-3.152771 -0.761432 1.482850
-3.153071 -0.761504 1.949416
-3.169245 -0.765411 2.831726
-3.162152 -0.763698 3.275720
-3.622235 -0.517158 0.144528
-3.456803 -0.493539 0.718086
-3.473257 -0.495888 1.247881
-3.460289 -0.494037 1.968204
-3.450361 -0.492619 2.527386
-3.463700 -0.494524 3.457665
-3.629005 -0.196114 0.204202
-3.591695 -0.194098 0.911737
-3.517106 -0.190067 1.555350
-3.413941 -0.184492 1.947205
-3.409102 -0.184230 2.576257
-3.382393 -0.182787 3.357171
-3.387664 -0.183072 4.235279
-3.194913 0.131390 0.940662
-3.156988 0.129831 1.798579
-3.140172 0.129139 2.311588
-3.096172 0.127330 2.985856
-3.165803 0.130193 3.651532
-3.041734 0.125091 4.079356
-3.132363 0.407438 0.086380
-2.942609 0.382756 0.747491
-2.918751 0.379652 1.488220
-2.927946 0.380848 2.098324
-2.947070 0.383336 2.971499
-2.934485 0.381699 3.350137
-2.871336 0.373485 4.098448
-2.939922 0.643367 0.234329
-2.824029 0.618006 0.679564
-2.847422 0.623125 1.411049
-2.851852 0.624094 1.969434
-2.801063 0.612980 2.638639
-2.732740 0.598028 3.243529
-2.635436 0.576734 3.927993
-2.771176 0.890455 0.365652
-2.657620 0.853966 0.707905
-2.620687 0.842099 1.681293
-2.615160 0.840323 2.015215
-2.601043 0.835786 2.817348
-2.510488 0.806689 3.392889
-2.374030 0.762841 4.302518
-2.442961 1.049369 1.272940
-2.418842 1.039008 1.775656
-2.359867 1.013675 2.663318
-2.234160 0.959678 3.352001
-2.139838 1.151430 1.175801
-2.147238 1.155412 1.883855
-2.103061 1.131641 2.606936
-2.009213 1.081142 3.107526
-2.024780 1.350490 0.114864
-1.970535 1.314309 0.805830
-1.948341 1.299506 1.471887
-1.956866 1.305192 2.467235
-1.892574 1.262311 3.036501
-1.855112 1.237325 3.804822
-1.672164 1.115302 4.457986
-1.803053 1.446534 1.348862
-1.719037 1.379130 1.718976
-1.654033 1.326979 2.386155
-1.665877 1.336482 3.157450
-1.636212 1.594404 0.248543
-1.560041 1.520179 1.131436
-1.523771 1.484836 1.696164
-1.534278 1.495075 2.339763
-1.558579 1.518754 3.054693
-1.583948 1.543475 3.644734
-1.371736 1.336686 4.315516
-1.589389 1.844010 0.229727
-1.416325 1.643222 0.837516
-1.395268 1.618791 1.365031
-1.390996 1.613835 2.170343
-1.411244 1.637326 2.894350
-1.397547 1.621434 3.454205
-1.337254 1.551482 3.971095
-1.477590 2.058307 0.088084
-1.277944 1.780197 0.712256
-1.262405 1.758550 1.426354
-1.242652 1.731034 1.758596
-1.244903 1.734170 2.573458
-1.236061 1.721853 3.249079
-1.122413 1.925209 1.138596
-1.114976 1.912453 1.896917
-1.074484 1.842999 2.555623
-1.085982 1.862722 3.362477
-0.955179 2.028857 1.485300
-0.938946 1.994377 1.727874
-0.926735 1.968440 2.767479
-0.922906 1.960307 3.217413
-0.839978 2.337381 -0.079399
-0.793895 2.209148 0.948206
-0.786926 2.189753 1.676941
-0.765377 2.129790 1.885132
-0.768990 2.139845 2.741277
-0.751380 2.090841 3.265877
-0.717884 1.997634 3.962077
-0.673427 2.546202 0.087812
-0.617554 2.334949 0.654304
-0.611284 2.311240 1.443082
-0.618158 2.337229 1.956032
-0.616975 2.332759 2.898814
-0.606700 2.293909 3.268636
-0.598855 2.264245 4.106436
-0.436812 2.649414 0.315627
-0.436039 2.644730 1.184272
-0.435679 2.642547 1.693987
-0.430241 2.609563 2.356740
-0.422051 2.559889 2.962365
-0.415090 2.517664 3.535452
-0.390094 2.366053 4.342244
-0.199876 2.900036 1.219525
-0.201843 2.928566 1.820033
-0.198866 2.885378 2.312354
-0.193576 2.808626 3.171165
-0.191525 2.778870 3.819740
-0.174783 2.535957 4.287118
0.064253 3.208254 0.129365
0.062933 3.142339 0.769315
0.063028 3.147069 1.573954
0.063355 3.163389 2.257953
0.063003 3.145839 2.676510
0.062886 3.139962 3.400996
0.061454 3.068486 4.076174
0.391712 3.462333 0.222282
0.376442 3.327361 0.970549
0.376172 3.324973 1.538272
0.372486 3.292392 1.858846
0.366604 3.240405 2.545467
0.368299 3.255385 3.255930
0.702005 3.386759 -0.085562
0.642546 3.099905 0.673714
0.625165 3.016053 1.169550
0.625653 3.018406 2.168050
0.628068 3.030056 2.654753
0.627123 3.025497 3.152718
0.946739 3.119251 0.266930
0.870480 2.867999 0.929242
0.867444 2.857996 1.338260
0.862993 2.843330 2.001112
0.872165 2.873549 2.452727
0.873723 2.878683 3.090706
1.094222 2.683490 0.958287
1.093737 2.682300 1.560230
1.090976 2.675528 2.601738
1.098948 2.695078 3.117784
1.309351 2.532607 1.055733
1.316092 2.545645 1.911492
1.317682 2.548721 2.340311
1.343867 2.599370 3.274448
1.472901 2.299826 1.199941
1.537679 2.400971 1.649894
1.506033 2.351559 2.319574
1.503640 2.347823 2.882896
1.453237 2.269122 3.688419
1.236986 1.931462 4.121579
1.765004 2.280626 0.113269
1.679808 2.170542 0.840280
1.676488 2.166252 1.401273
1.692296 2.186677 2.286400
1.640669 2.119968 2.804183
1.651786 2.134333 3.501595
1.570227 2.028948 4.275028
2.003655 2.143891 0.226182
1.854566 1.984367 0.692045
1.854357 1.984143 1.437399
1.863557 1.993987 2.130612
1.852696 1.982367 2.889616
1.845415 1.974576 3.536647
1.716202 1.836319 3.861100
2.316653 2.072916 -0.051910
2.021954 1.809223 0.543140
2.025042 1.811986 1.472434
2.018004 1.805688 1.780287
1.997424 1.787273 2.495233
1.986381 1.777393 3.425361
2.171258 1.600797 0.946759
2.180768 1.607808 1.806570
2.198642 1.620986 2.165631
2.245285 1.655374 3.164891
2.158493 1.591385 3.574457
1.877030 1.383872 4.414247
2.324189 1.413646 0.867207
2.321994 1.412311 1.481192
2.340539 1.423590 2.279425
2.310113 1.405084 3.058375
2.212810 1.345901 3.424510
2.022579 1.230197 4.301296
2.524769 1.232941 1.293211
2.535239 1.238054 1.555159
2.530543 1.235761 2.300307
2.531213 1.236088 2.924315
2.477590 1.209902 3.574917
2.196545 1.072657 4.497970
2.857002 1.092352 0.069322
2.557649 0.977897 0.542717
2.575213 0.984613 1.225251
2.640328 1.009509 2.089077
2.678263 1.024013 2.638639
2.669460 1.020647 3.343151
3.021196 0.834653 0.216119
2.862114 0.790705 0.825701
2.885991 0.797301 1.503255
2.902608 0.801892 2.225232
2.876387 0.794648 2.830236
2.883618 0.796646 3.645531
2.782430 0.768691 4.028760
3.377260 0.620901 0.119882
3.160047 0.580967 0.526063
3.152878 0.579649 1.182199
3.162110 0.581346 1.890601
3.159680 0.580899 2.566732
3.182097 0.585020 3.347244
3.556789 0.312547 0.861313
3.560170 0.312845 1.586969
3.584153 0.314952 2.364042
3.579609 0.314553 2.904943
3.558719 0.312717 3.440914
3.513398 0.308735 4.295442
4.095996 -0.004485 0.872002
4.067901 -0.004454 1.452557
4.030932 -0.004414 2.111732
4.065581 -0.004452 2.852573
4.090298 -0.004479 3.570719
4.054014 -0.004439 4.274447
3.930143 -0.372838 0.935217
3.969898 -0.376609 1.827520
3.998785 -0.379349 2.264741
3.974623 -0.377057 2.876318
4.001757 -0.379631 3.612987
3.857338 -0.365931 4.067238
3.843273 -0.712112 -0.059034
3.706417 -0.686754 0.821920
3.734186 -0.691899 1.558634
3.738819 -0.692758 2.067888
3.755158 -0.695785 2.619697
3.699062 -0.685391 3.334310
3.759694 -1.068711 0.016867
3.546162 -1.008013 0.433223
3.478616 -0.988813 1.431215
3.393513 -0.964622 1.666345
3.393330 -0.964570 2.429468
3.361547 -0.955535 3.181564
3.299175 -0.937806 3.734249
3.129851 -0.889675 4.508529
3.256090 -1.239436 0.153888
3.194294 -1.215913 0.762641
3.250919 -1.237467 1.677553
3.252786 -1.238178 2.123700
3.104964 -1.181909 2.678968
3.085035 -1.174323 3.488200
3.081039 -1.172802 4.081940
3.075909 -1.525983 -0.008563
2.995015 -1.485851 0.781636
2.952458 -1.464738 1.532111
2.994649 -1.485670 2.305626
2.946155 -1.461612 2.577870
2.907474 -1.442422 3.442017
2.879189 -1.780984 0.343059
2.826543 -1.748419 0.971320
2.755012 -1.704172 1.396695
2.691883 -1.665122 2.275226
2.741192 -1.695623 2.974147
2.745536 -1.698310 3.513685
2.717317 -1.680855 3.875957
2.671703 -1.994990 0.214756
2.524014 -1.884709 1.019914
2.521793 -1.883051 1.565313
2.519531 -1.881362 1.964217
2.544651 -1.900119 2.726210
2.541812 -1.897999 3.223024
2.506185 -2.273828 0.145803
2.307583 -2.093639 0.674778
2.305577 -2.091819 1.367615
2.285333 -2.073452 1.820147
2.317898 -2.102997 2.773732
2.319826 -2.104747 3.323200
2.146026 -2.329988 1.469095
2.150512 -2.334859 2.040381
2.117086 -2.298568 2.408536
2.137696 -2.320944 3.303316
4.962852 -6.413406 -0.196777
2.086069 -2.695791 -0.042849
1.936586 -2.502616 0.604624
1.928511 -2.492181 1.643078
1.904039 -2.460556 1.827367
1.925164 -2.487856 2.667869
1.920336 -2.481616 3.130490
1.776332 -2.826419 1.366512
1.742193 -2.772099 2.033949
1.703533 -2.710584 2.732691
1.687531 -2.685122 3.214390
1.709489 -2.720061 3.812561
1.562974 -2.486934 4.411797
1.709838 -3.319399 -0.127218
1.577167 -3.061837 0.813396
1.586371 -3.079707 1.386758
1.581655 -3.070551 1.687446
1.545152 -2.999686 2.389601
1.540596 -2.990840 3.376989
1.563496 -3.035298 3.814327
1.462861 -2.839931 4.622692
1.417593 -3.562680 0.211347
1.345427 -3.381313 0.587050
1.317566 -3.311294 1.373814
1.316888 -3.309588 1.827072
1.321187 -3.320394 2.683366
1.323916 -3.327252 3.517630
1.120755 -3.718604 0.109724
1.111635 -3.688345 1.073436
1.117900 -3.709132 1.580201
1.109769 -3.682153 1.963167
1.118965 -3.712666 2.989245
1.113777 -3.695451 3.306747
1.099565 -3.648297 4.153162
0.793005 -3.975261 1.108481
0.802591 -4.023312 1.644162
0.813597 -4.078484 2.481507
0.805550 -4.038146 2.873088
0.809142 -4.056151 3.743696
0.798453 -4.002570 4.467420
0.442863 -4.262991 0.374895
0.425415 -4.095044 0.720523
0.423249 -4.074189 1.518440
0.420527 -4.047991 1.940552
0.416439 -4.008641 2.441187
0.423927 -4.080717 3.458910
0.048571 -4.033344 0.016799
0.046343 -3.848333 0.963594
0.046471 -3.858941 1.259290
0.046486 -3.860188 1.792681
0.046649 -3.873665 2.674595
0.046523 -3.863261 3.101462
-0.295715 -3.772115 0.059273
-0.279349 -3.563347 0.989191
-0.278926 -3.557947 1.484663
-0.277731 -3.542710 2.093042
-0.277406 -3.538559 2.694036
-0.273231 -3.485313 3.432028
-0.619154 -3.605957 0.076515
-0.573867 -3.342207 0.686078
-0.572307 -3.333121 1.209972
-0.573108 -3.337785 2.216225
-0.556789 -3.242747 2.595074
-0.545546 -3.177263 3.235201
-0.864790 -3.245626 0.120168
-0.827769 -3.106684 0.638161
-0.822523 -3.086995 1.511079
-0.801944 -3.009761 1.887920
-0.806978 -3.028652 2.825603
-0.801923 -3.009682 3.150247
-1.141979 -3.106357 0.249314
-1.050432 -2.857337 0.823758
-1.055566 -2.871301 1.274458
-1.069660 -2.909639 2.053858
-1.073400 -2.919812 2.548870
-1.077419 -2.930744 3.228088
-1.269503 -2.688877 0.973415
-1.278570 -2.708081 1.973497
-1.260810 -2.670465 2.456569
-1.263499 -2.676160 3.104231
-1.483304 -2.497723 1.167284
-1.482964 -2.497151 1.708273
-1.492808 -2.513728 2.397579
-1.486378 -2.502899 2.854286
-1.482018 -2.495557 3.523473
-1.358253 -2.287151 4.414383
-1.725222 -2.394872 1.069823
-1.731889 -2.404127 1.862068
-1.736357 -2.410330 2.673861
-1.724457 -2.393810 3.008602
-2.042188 -2.343768 -0.043258
-1.864814 -2.140200 0.567202
-1.861990 -2.136960 1.283475
-1.862528 -2.137576 1.817004
-1.863559 -2.138760 2.570895
-1.916811 -2.199876 3.433707
-2.051876 -1.971168 0.863833
-2.059437 -1.978432 1.737106
-2.039733 -1.959503 2.115262
-2.070203 -1.988774 2.963353
-2.102243 -2.019554 3.636653
-1.932062 -1.856067 4.179705
-6.467094 -5.137387 -0.188426
-2.434082 -1.933608 0.000000
-2.246910 -1.784920 0.837008
-2.246635 -1.784702 1.509150
-2.256046 -1.792177 2.155535
-2.245156 -1.783527 2.638639
-2.264186 -1.798644 3.181195
-2.592942 -1.714716 -0.008652
-2.412767 -1.595566 0.757961
-2.404691 -1.590226 1.246619
-2.414688 -1.596837 1.979684
-2.426785 -1.604836 2.836874
-2.438555 -1.612620 3.248343
-2.610444 -1.388078 1.208924
-2.586352 -1.375267 1.706937
-2.617165 -1.391652 2.595650
-2.608547 -1.387069 3.052073
-2.591463 -1.377985 3.590332
-2.351755 -1.250523 4.253122
-3.091120 -1.314307 -0.137335
-2.841425 -1.208140 0.502170
-2.836995 -1.206257 1.238822
-2.881076 -1.224999 2.138708
-2.836726 -1.206142 2.507581
-2.839347 -1.207257 3.354388
-3.244629 -1.045960 0.162826
-3.108088 -1.001943 0.662979
-3.143945 -1.013503 1.678304
-3.118858 -1.005415 2.076980
-3.151980 -1.016093 2.844452
-3.092782 -0.997009 3.241269
-3.545701 -0.794541 0.008508
-3.484788 -0.780891 0.886890
-3.499775 -0.784250 1.321591
-3.487009 -0.781389 2.014655
-3.454394 -0.774080 2.583110
-3.416992 -0.765699 3.249927
-3.390283 -0.441866 0.805477
-3.346717 -0.436188 1.614268
-3.303461 -0.430550 2.142428
-3.271926 -0.426440 2.706885
-3.307479 -0.431074 3.571363
-3.209882 -0.418354 4.203609
-3.145103 -0.097916 0.907584
-3.094143 -0.096329 1.533160
-3.107786 -0.096754 2.192302
-3.074678 -0.095723 2.734789
-3.152200 -0.098137 3.740804
-3.021842 -0.094078 4.302692
-3.252852 0.195591 0.077497
-2.935363 0.176500 0.669803
-2.899409 0.174338 1.158576
-2.891336 0.173853 2.005813
-2.911205 0.175048 2.625822
-2.929052 0.176121 3.352750
-2.852943 0.429475 0.304951
-2.763478 0.416008 0.838971
-2.759612 0.415426 1.434046
-2.781710 0.418752 2.256648
-2.796790 0.421022 3.046530
-2.787368 0.419604 3.674167
-2.555781 0.384741 4.227776
-2.664011 0.655856 1.497543
-2.638272 0.649519 1.937962
-2.616531 0.644167 2.353089
-2.557885 0.629729 3.118173
-7.407016 2.551813 -0.184076
-2.656224 0.915103 0.227068
-2.456954 0.846453 0.984867
-2.382219 0.820705 1.525656
-2.340209 0.806232 2.076576
-2.320391 0.799405 2.797243
-2.313068 0.796882 3.493350
-2.181479 0.751548 4.029751
-2.446031 1.104940 0.157815
-2.249713 1.016258 0.803348
-2.272330 1.026474 1.500377
-2.147872 0.970254 2.182015
-2.052942 0.927371 2.787802
-2.054812 0.928216 3.343357
-2.023465 0.914055 4.139897
-2.208420 1.244047 0.264251
-2.066604 1.164160 0.929772
-2.041533 1.150037 1.498469
-1.936248 1.090728 2.039230
-1.873246 1.055237 2.760677
-1.885886 1.062358 3.442669
-1.765624 0.994612 4.200873
-1.878707 1.303774 0.452694
-1.854840 1.287211 1.253219
-1.802610 1.250964 1.523182
-1.768060 1.226987 2.473471
-1.793386 1.244563 3.125933
-1.791169 1.243024 3.810618
-1.510493 1.048242 4.307270
-1.814052 1.511258 0.398518
-1.690054 1.407957 1.023781
-1.649380 1.374072 1.578998
-1.636950 1.363718 2.170343
-1.637443 1.364128 2.834134
-1.634710 1.361851 3.329361
-1.480037 1.232995 4.004075
-1.677882 1.694287 0.238931
-1.523010 1.537901 0.614804
-1.485444 1.499967 1.339303
-1.511482 1.526260 2.052824
-1.519359 1.534213 2.867619
-1.480282 1.494754 3.340819
-1.388880 1.402459 3.980114
-1.520704 1.835584 -0.053096
-1.382867 1.669206 0.766252
-1.373550 1.657960 1.703782
-1.370016 1.653694 2.043910
-1.384650 1.671358 2.992346
-1.396352 1.685483 3.665315
-1.275742 1.539900 3.986062
-1.325990 1.951199 0.177123
-1.250269 1.839775 1.014105
-1.231224 1.811750 1.443068
-1.207978 1.777545 2.070651
-1.213199 1.785228 2.858708
-1.236498 1.819512 3.763226
-1.138258 1.674950 4.383055
-1.125159 2.019489 0.452346
-1.096196 1.967504 1.102184
-1.083670 1.945022 1.673201
-1.060105 1.902727 2.131412
-1.072093 1.924242 3.070162
-1.066748 1.914650 3.692022
-0.969531 1.740160 4.323680
-0.948453 2.152193 1.089945
-0.950115 2.155965 1.755371
-0.937171 2.126591 2.424803
-0.930059 2.110453 3.355994
-0.816386 2.427791 1.338502
-0.805736 2.396123 1.693068
-0.776391 2.308855 2.238837
-0.770866 2.292424 2.960698
-0.767941 2.283724 3.613685
-0.679733 2.021410 4.432246
-0.644734 2.627471 1.183352
-0.636250 2.592895 1.984832
-0.637222 2.596858 2.725260
-0.627372 2.556717 3.100610
-0.448342 2.975977 0.243007
-0.439408 2.916679 1.008959
-0.434636 2.885002 1.471978
-0.437370 2.903154 2.221765
-0.434123 2.881598 2.889106
-0.428682 2.845485 3.526215
-0.412781 2.739932 4.301229
-0.190798 3.242763 0.965017
-0.190984 3.245909 1.646512
-0.190274 3.233856 2.261235
-0.191916 3.261749 3.169858
-0.192357 3.269257 3.909873
-0.180766 3.072247 4.330633
0.106875 3.251733 1.120049
0.107374 3.266913 1.947876
0.106705 3.246559 2.381842
0.107856 3.281559 3.324770
0.377795 3.026890 1.031799
0.379149 3.037734 1.830242
0.376659 3.017790 2.292853
0.379491 3.040480 3.146525
0.631214 2.876584 0.852437
0.634525 2.891674 1.818609
0.636474 2.900552 2.341698
0.629926 2.870713 2.886852
0.633152 2.885416 3.535377
0.597204 2.721592 4.032533
1.058713 -1.368157 -0.188426
4.465854 -5.771145 -0.188426
2.290185 -2.959566 -0.188426
3.613148 -4.669207 -0.188426
2.805212 -3.625126 -0.188426
1.793871 -2.318188 -0.188426
3.811909 -4.926063 -0.188426
3.285758 -4.246128 -0.188426
4.080534 -5.273202 -0.188426
4.344129 -5.613841 -0.188426
0.898351 -0.418456 -0.188426
0.567333 -0.264266 -0.188426
0.408334 -0.190204 -0.188426
2.216635 -1.032519 -0.188426
0.046424 -0.021625 -0.188426
2.383790 -1.110380 -0.188426
1.541340 -0.717963 -0.188426
1.069771 -0.498304 -0.188426
2.025865 -0.943657 -0.188426
0.911402 -0.424535 -0.188426
0.546915 -0.155463 -0.188426
0.031032 -0.008821 -0.188426
0.165025 -0.046909 -0.188426
0.903618 -0.256857 -0.188426
1.227428 -0.348902 -0.188426
2.436056 -0.692460 -0.188426
2.201732 -0.625853 -0.188426
2.328096 -0.661772 -0.188426
3.647536 -1.036829 -0.188426
1.420789 -0.403866 -0.188426
-1.071965 -0.033373 4.622692
-2.626927 -0.081784 4.622692
-2.591235 -0.080672 4.622692
-2.939796 -0.091524 4.622692
-2.906039 -0.090473 4.622692
-2.458881 -0.076552 4.622692
-0.791939 -0.024655 4.622692
-0.299985 -0.009339 4.622692
-2.603431 -0.081052 4.622692
-0.865650 -0.026950 4.622692
-0.452967 -0.024479 4.622692
-3.232015 -0.174661 4.622692
-0.797616 -0.043104 4.622692
-1.705801 -0.092183 4.622692
-0.405842 -0.021932 4.622692
-1.721054 -0.093007 4.622692
-0.915075 -0.049451 4.622692
-2.409192 -0.130195 4.622692
-1.994969 -0.107810 4.622692
-2.700862 -0.145957 4.622692
-1.166838 -0.200246 4.622692
-0.388699 -0.066706 4.622692
-0.809540 -0.138929 4.622692
-0.445141 -0.076393 4.622692
-2.554364 -0.438365 4.622692
-0.214517 -0.036814 4.622692
-0.892279 -0.153128 4.622692
-1.957084 -0.335863 4.622692
-0.962383 -0.165159 4.622692
-2.307431 -0.395988 4.622692
-0.073557 -0.024723 4.622692
-0.318216 -0.106956 4.622692
-2.322038 -0.780465 4.622692
-1.615175 -0.542880 4.622692
-0.338459 -0.113760 4.622692
-1.725688 -0.580024 4.622692
-0.048536 -0.016313 4.622692
-0.915961 -0.307865 4.622692
-2.557507 -0.859608 4.622692
-0.865285 -0.290833 4.622692
-2.311954 -1.031186 4.622692
-1.553431 -0.692867 4.622692
-0.214798 -0.095805 4.622692
-2.088104 -0.931344 4.622692
-2.212671 -0.986904 4.622692
-1.179721 -0.526183 4.622692
-1.400425 -0.624623 4.622692
-0.832078 -0.371126 4.622692
-0.788626 -0.351746 4.622692
-0.008938 -0.003986 4.622692
-0.089703 -0.047699 4.622692
-1.983899 -1.054919 4.622692
-1.474086 -0.783831 4.622692
-1.236456 -0.657474 4.622692
-0.738877 -0.392891 4.622692
-1.419934 -0.755036 4.622692
-2.322217 -1.234816 4.622692
-2.050544 -1.090356 4.622692
-0.230812 -0.122732 4.622692
-1.000577 -0.532047 4.622692
-1.287285 -0.762050 4.622692
-0.917065 -0.542886 4.622692
-2.170414 -1.284847 4.622692
-1.671850 -0.989706 4.622692
-0.385094 -0.227969 4.622692
-0.873949 -0.517363 4.622692
-0.968195 -0.573155 4.622692
-2.053418 -1.215588 4.622692
-0.839025 -0.496688 4.622692
-0.160966 -0.095289 4.622692
-0.317792 -0.229272 4.622692
-1.436881 -1.036644 4.622692
-2.037870 -1.470230 4.622692
-0.299473 -0.216056 4.622692
-0.310938 -0.224328 4.622692
-1.338902 -0.965957 4.622692
-0.385569 -0.278170 4.622692
-1.351490 -0.975039 4.622692
-0.062728 -0.045256 4.622692
-1.326609 -0.957088 4.622692
-0.303790 -0.440488 4.622692
-0.068113 -0.098762 4.622692
-0.235422 -0.341357 4.622692
-0.345961 -0.501635 4.622692
-0.972621 -1.410277 4.622692
-0.475909 -0.690057 4.622692
-1.030087 -1.493602 4.622692
-0.300858 -0.436237 4.622692
-0.943099 -1.367472 4.622692
-1.013098 -1.468969 4.622692
-0.846287 -1.425055 4.622692
-1.071685 -1.804601 4.622692
-0.480980 -0.809919 4.622692
-0.191394 -0.322288 4.622692
-0.921287 -1.551348 4.622692
-0.194321 -0.327216 4.622692
-0.597871 -1.006750 4.622692
-0.711804 -1.198601 4.622692
-1.048450 -1.765476 4.622692
-0.004798 -0.008080 4.622692
-0.182699 -0.342593 4.622692
-0.624545 -1.171130 4.622692
-0.379243 -0.711146 4.622692
-0.689458 -1.292853 4.622692
-0.319594 -0.599293 4.622692
-1.021144 -1.914819 4.622692
-0.608247 -1.140568 4.622692
-1.131636 -2.122011 4.622692
-0.749234 -1.404943 4.622692
-1.171151 -2.196110 4.622692
-0.122226 -3.612454 4.622692
-0.103070 -3.046282 4.622692
-0.092996 -2.748536 4.622692
-0.063276 -1.870146 4.622692
-0.097437 -2.879783 4.622692
-0.113961 -3.368183 4.622692
-0.068750 -2.031949 4.622692
-0.083681 -2.473223 4.622692
-0.021960 -0.649052 4.622692
-0.008582 -0.253636 4.622692
0.464000 -3.094642 4.622692
0.215258 -1.435660 4.622692
0.420824 -2.806678 4.622692
0.032107 -0.214137 4.622692
0.390167 -2.602214 4.622692
0.485172 -3.235850 4.622692
0.229274 -1.529141 4.622692
0.413275 -2.756332 4.622692
0.062319 -0.415639 4.622692
0.166490 -1.110403 4.622692
0.297688 -1.492280 4.622692
0.106882 -0.535788 4.622692
0.310597 -1.556995 4.622692
0.506317 -2.538120 4.622692
0.133997 -0.671713 4.622692
0.244222 -1.224261 4.622692
0.758885 -3.804220 4.622692
0.261269 -1.309715 4.622692
0.202227 -1.013746 4.622692
0.405626 -2.033366 4.622692
0.891485 -1.981842 4.622692
0.715662 -1.590973 4.622692
1.133442 -2.519733 4.622692
0.911107 -2.025464 4.622692
0.915916 -2.036154 4.622692
0.101983 -0.226716 4.622692
0.656715 -1.459930 4.622692
0.301203 -0.669599 4.622692
0.153238 -0.340661 4.622692
0.049268 -0.109526 4.622692
1.040738 -2.020440 4.622692
1.418482 -2.753774 4.622692
0.886305 -1.720631 4.622692
0.459064 -0.891205 4.622692
1.416524 -2.749974 4.622692
1.312291 -2.547620 4.622692
1.359953 -2.640148 4.622692
1.230138 -2.388133 4.622692
0.532056 -1.032908 4.622692
0.402006 -0.780435 4.622692
1.165271 -1.854126 4.622692
0.644109 -1.024876 4.622692
0.643790 -1.024370 4.622692
0.318733 -0.507154 4.622692
1.369454 -2.179012 4.622692
0.564511 -0.898225 4.622692
0.120296 -0.191409 4.622692
0.873571 -1.389987 4.622692
0.021332 -0.033942 4.622692
0.222220 -0.353587 4.622692
1.114414 -1.676297 4.622692
1.046906 -1.574751 4.622692
0.984739 -1.481240 4.622692
0.873931 -1.314564 4.622692
1.041220 -1.566199 4.622692
0.815138 -1.226127 4.622692
1.145090 -1.722440 4.622692
1.321642 -1.988009 4.622692
0.053651 -0.080702 4.622692
1.056500 -1.589182 4.622692
1.502027 -1.243239 4.622692
0.518617 -0.429263 4.622692
0.372623 -0.308423 4.622692
2.036982 -1.686026 4.622692
0.815637 -0.675109 4.622692
1.008851 -0.835034 4.622692
1.874429 -1.551480 4.622692
0.067934 -0.056229 4.622692
0.284132 -0.235179 4.622692
0.115712 -0.095776 4.622692
0.479423 -0.341686 4.622692
1.914865 -1.364729 4.622692
0.694088 -0.494678 4.622692
2.100152 -1.496784 4.622692
1.377805 -0.981965 4.622692
0.869502 -0.619697 4.622692
1.845149 -1.315043 4.622692
1.884483 -1.343077 4.622692
1.484607 -1.058083 4.622692
0.369984 -0.263688 4.622692
0.038971 -0.026701 4.622692
1.714548 -1.174701 4.622692
2.002692 -1.372119 4.622692
1.070030 -0.733117 4.622692
0.472686 -0.323855 4.622692
1.377212 -0.943580 4.622692
0.882252 -0.604464 4.622692
0.564992 -0.387097 4.622692
1.163718 -0.797307 4.622692
0.645827 -0.442480 4.622692
1.683183 -0.605455 4.622692
2.365920 -0.851041 4.622692
1.336399 -0.480714 4.622692
1.875123 -0.674497 4.622692
2.751964 -0.989904 4.622692
1.068731 -0.384431 4.622692
2.882618 -1.036901 4.622692
2.733944 -0.983422 4.622692
2.248177 -0.808688 4.622692
2.572412 -0.925318 4.622692
2.573755 -0.731602 4.622692
2.635886 -0.749263 4.622692
0.997198 -0.283458 4.622692
2.968313 -0.843757 4.622692
1.221552 -0.347232 4.622692
0.939486 -0.267053 4.622692
1.061534 -0.301746 4.622692
1.966703 -0.559044 4.622692
2.736795 -0.777947 4.622692
2.295890 -0.652617 4.622692
3.090329 -0.803270 4.622692
0.655267 -0.170324 4.622692
1.854856 -0.482133 4.622692
1.591018 -0.413554 4.622692
1.130776 -0.293923 4.622692
0.824134 -0.214217 4.622692
2.395321 -0.622617 4.622692
1.719414 -0.446928 4.622692
1.577046 -0.409922 4.622692
0.975787 -0.253637 4.622692
0.715180 -0.116657 4.622692
0.869200 -0.141780 4.622692
0.220369 -0.035946 4.622692
1.767992 -0.288386 4.622692
0.338468 -0.055209 4.622692
0.291741 -0.047587 4.622692
3.744485 -0.610783 4.622692
3.167577 -0.516680 4.622692
1.590978 -0.259513 4.622692
0.939862 -0.153306 4.622692
2.659627 -0.395135 4.622692
3.195984 -0.474820 4.622692
1.489750 -0.221329 4.622692
3.377629 -0.501807 4.622692
0.498392 -0.074045 4.622692
0.837346 -0.124403 4.622692
0.094035 -0.013971 4.622692
0.957966 -0.142323 4.622692
3.058648 -0.454416 4.622692
2.762894 -0.410477 4.622692
2.099384 -0.002299 4.622692
0.501286 -0.000549 4.622692
3.553430 -0.003891 4.622692
2.622223 -0.002871 4.622692
0.883016 -0.000967 4.622692
0.110785 -0.000121 4.622692
1.403212 -0.001536 4.622692
0.170239 -0.000186 4.622692
3.769735 -0.004128 4.622692
3.675777 -0.004025 4.622692
1.920705 0.038395 4.622692
2.988169 0.059734 4.622692
1.805634 0.036095 4.622692
2.607666 0.052128 4.622692
1.947204 0.038925 4.622692
2.341130 0.046799 4.622692
0.114232 0.002284 4.622692
1.926779 0.038517 4.622692
2.112102 0.042221 4.622692
1.573937 0.031463 4.622692
2.460638 0.216225 4.622692
1.564814 0.137506 4.622692
3.399301 0.298709 4.622692
1.212724 0.106566 4.622692
0.519347 0.045637 4.622692
0.200814 0.017646 4.622692
1.321427 0.116118 4.622692
0.383997 0.033743 4.622692
1.954679 0.171764 4.622692
2.447837 0.215100 4.622692
1.157775 0.238123 4.622692
1.578244 0.324603 4.622692
1.827416 0.375851 4.622692
0.583548 0.120020 4.622692
1.715192 0.352769 4.622692
1.761510 0.362295 4.622692
1.945513 0.400140 4.622692
2.413182 0.496327 4.622692
0.356925 0.073410 4.622692
0.494642 0.101735 4.622692
0.084464 0.025525 4.622692
0.476141 0.143890 4.622692
0.891769 0.269493 4.622692
2.126423 0.642605 4.622692
1.994170 0.602638 4.622692
1.971469 0.595778 4.622692
0.989970 0.299169 4.622692
0.151473 0.045775 4.622692
1.046829 0.316352 4.622692
0.703285 0.212533 4.622692
1.224753 0.598094 4.622692
0.732390 0.357654 4.622692
1.407032 0.687107 4.622692
0.038253 0.018681 4.622692
0.637846 0.311484 4.622692
0.090025 0.043962 4.622692
0.290969 0.142091 4.622692
0.807931 0.394543 4.622692
1.504012 0.734466 4.622692
0.670709 0.327533 4.622692
0.885953 0.538865 4.622692
0.834088 0.507319 4.622692
0.360168 0.219066 4.622692
0.773661 0.470565 4.622692
0.304448 0.185175 4.622692
1.866045 1.134988 4.622692
1.912057 1.162974 4.622692
1.139493 0.693076 4.622692
1.955390 1.189331 4.622692
1.620303 0.985520 4.622692
1.317345 0.971235 4.622692
1.191689 0.878593 4.622692
1.521051 1.121421 4.622692
1.533910 1.130901 4.622692
1.505291 1.109801 4.622692
1.754732 1.293706 4.622692
1.875856 1.383007 4.622692
0.060839 0.044855 4.622692
1.459682 1.076175 4.622692
0.253795 0.187114 4.622692
0.406148 0.524799 4.622692
0.046557 0.060158 4.622692
0.131019 0.169294 4.622692
0.591355 0.764112 4.622692
0.655378 0.846838 4.622692
0.951997 1.230110 4.622692
0.176635 0.228237 4.622692
0.567894 0.733796 4.622692
1.142134 1.475793 4.622692
0.670917 0.866916 4.622692
0.713616 1.871378 4.622692
0.747445 1.960089 4.622692
0.665297 1.744664 4.622692
0.711146 1.864899 4.622692
0.380960 0.999024 4.622692
0.112729 0.295619 4.622692
0.516626 1.354794 4.622692
0.024149 0.063329 4.622692
0.140111 0.367425 4.622692
0.023597 0.061881 4.622692
0.057173 0.309960 4.622692
0.367423 1.991973 4.622692
0.080916 0.438686 4.622692
0.035587 0.192935 4.622692
0.500876 2.715485 4.622692
0.199515 1.081668 4.622692
0.230401 1.249114 4.622692
0.501797 2.720482 4.622692
0.180434 0.978216 4.622692
0.540545 2.930553 4.622692
0.017176 0.192464 4.622692
0.016097 0.180376 4.622692
0.229028 2.566322 4.622692
0.168264 1.885448 4.622692
0.256198 2.870764 4.622692
0.188058 2.107244 4.622692
0.109632 1.228451 4.622692
0.180327 2.020612 4.622692
0.233733 2.619044 4.622692
0.080758 0.904918 4.622692
-0.042373 0.720156 4.622692
-0.167400 2.845095 4.622692
-0.083522 1.419525 4.622692
-0.053352 0.906749 4.622692
-0.098398 1.672354 4.622692
-0.081250 1.380904 4.622692
-0.148464 2.523252 4.622692
-0.008513 0.144690 4.622692
-0.117665 1.999802 4.622692
-0.020544 0.349155 4.622692
-0.134564 1.952403 4.622692
-0.040430 0.586603 4.622692
-0.061435 0.891363 4.622692
-0.078996 1.146167 4.622692
-0.021544 0.312579 4.622692
-0.052066 0.755431 4.622692
-0.070308 1.020106 4.622692
-0.052413 0.760467 4.622692
-0.137230 1.991095 4.622692
-0.023125 0.335521 4.622692
-0.035725 0.237136 4.622692
-0.263509 1.749103 4.622692
-0.206582 1.371240 4.622692
-0.218638 1.451262 4.622692
-0.139219 0.924098 4.622692
-0.236088 1.567092 4.622692
-0.298699 1.982691 4.622692
-0.017599 0.116820 4.622692
-0.162182 1.076522 4.622692
-0.307831 2.043305 4.622692
-0.123121 0.746770 4.622692
-0.376560 2.283970 4.622692
-0.091240 0.553400 4.622692
-0.322693 1.957248 4.622692
-0.129910 0.787948 4.622692
-0.348889 2.116136 4.622692
-0.306297 1.857795 4.622692
-0.238046 1.443832 4.622692
-0.329311 1.997384 4.622692
-0.331643 2.011533 4.622692
-0.253147 1.373166 4.622692
-0.034276 0.185925 4.622692
-0.189491 1.027872 4.622692
-0.170815 0.926566 4.622692
-0.148573 0.805915 4.622692
-0.089474 0.485340 4.622692
-0.050659 0.274791 4.622692
-0.076313 0.413950 4.622692
-0.150506 0.816401 4.622692
-0.240375 1.303887 4.622692
-0.185388 0.551311 4.622692
-0.290695 0.864477 4.622692
-0.036883 0.109683 4.622692
-0.471204 1.401281 4.622692
-0.378235 1.124807 4.622692
-0.606929 1.804904 4.622692
-0.159573 0.474542 4.622692
-0.012188 0.036244 4.622692
-0.076186 0.226563 4.622692
-0.088363 0.262777 4.622692
-0.373377 0.670155 4.622692
-0.197945 0.355282 4.622692
-0.149875 0.269003 4.622692
-0.336168 0.603370 4.622692
-0.549656 0.986548 4.622692
-0.036922 0.066270 4.622692
-0.588506 1.056278 4.622692
-0.462812 0.830676 4.622692
-0.757073 1.358830 4.622692
-0.707171 1.269263 4.622692
-0.070793 0.104172 4.622692
-1.083719 1.594696 4.622692
-0.729405 1.073322 4.622692
-0.941787 1.385843 4.622692
-0.221806 0.326388 4.622692
-0.237492 0.349470 4.622692
-0.217785 0.320471 4.622692
-0.823221 1.211372 4.622692
-0.686879 1.010745 4.622692
-0.210807 0.310204 4.622692
-1.056973 1.406165 4.622692
-0.334848 0.445471 4.622692
-1.007454 1.340286 4.622692
-0.268658 0.357414 4.622692
-0.713553 0.949289 4.622692
-0.104867 0.139512 4.622692
-0.071605 0.095262 4.622692
-0.137299 0.182659 4.622692
-0.621751 0.827159 4.622692
-0.729877 0.971006 4.622692
-0.945487 0.921328 4.622692
-0.737612 0.718765 4.622692
-0.625689 0.609702 4.622692
-0.607538 0.592014 4.622692
-1.346035 1.311641 4.622692
-0.961280 0.936717 4.622692
-0.326785 0.318435 4.622692
-0.498046 0.485320 4.622692
-0.650813 0.634184 4.622692
-1.066143 1.038901 4.622692
-1.016740 0.936626 4.622692
-1.213184 1.117591 4.622692
-0.082974 0.076436 4.622692
-1.047208 0.964693 4.622692
-0.610210 0.562129 4.622692
-1.226475 1.129834 4.622692
-0.714302 0.658018 4.622692
-0.097898 0.090184 4.622692
-0.921870 0.849231 4.622692
-0.762525 0.702441 4.622692
-1.434157 0.995268 4.622692
-0.612126 0.424799 4.622692
-0.736966 0.511435 4.622692
-0.697945 0.484356 4.622692
-0.820812 0.569622 4.622692
-0.542937 0.376784 4.622692
-0.142999 0.099238 4.622692
-1.393859 0.967302 4.622692
-0.089879 0.062373 4.622692
-0.185806 0.128944 4.622692
-0.857932 0.572224 4.622692
-0.592339 0.395079 4.622692
-1.092343 0.728572 4.622692
-1.247638 0.832151 4.622692
-1.245778 0.830910 4.622692
-0.266435 0.177707 4.622692
-0.368311 0.245657 4.622692
-0.008004 0.005339 4.622692
-1.618455 1.079479 4.622692
-0.349543 0.233139 4.622692
-0.090315 0.029021 4.622692
-0.003698 0.001188 4.622692
-1.579259 0.507459 4.622692
-0.006119 0.001966 4.622692
-0.214921 0.069060 4.622692
-0.489072 0.157152 4.622692
-0.931201 0.299220 4.622692
-0.245950 0.079031 4.622692
-1.396853 0.448847 4.622692
-0.705522 0.226703 4.622692
-1.999254 0.300963 4.622692
-1.360615 0.204824 4.622692
-2.129869 0.320625 4.622692
-2.124084 0.319755 4.622692
-2.155038 0.324414 4.622692
-2.161497 0.325387 4.622692
-0.955920 0.143902 4.622692
-1.610048 0.242373 4.622692
-0.679844 0.102342 4.622692
-1.294995 0.194946 4.622692
