-0.799597 -1.277141 7.829651
-0.731065 -1.167680 8.647199
-0.677960 -1.082859 9.415082
-0.713357 -0.939571 0.155954
-0.739220 -0.973636 1.173903
-1.160128 -1.528019 3.507260
-1.248409 -1.644295 4.191516
-1.087010 -1.431714 4.896243
-0.905380 -1.192487 7.402475
-0.711521 -0.937154 8.082564
-0.828045 -1.090629 8.943431
-0.839164 -0.907623 0.716409
-0.971346 -1.050588 1.415651
-1.279366 -1.383736 2.032726
-1.552957 -1.679646 2.832043
-1.474007 -1.594255 3.524417
-1.447916 -1.566037 4.348156
-1.285877 -1.390779 5.236861
-0.970655 -1.049840 6.019920
-0.692138 -0.748602 6.890685
-0.714336 -0.772612 7.728183
-0.880812 -0.952668 8.404184
-0.827401 -0.894900 9.385559
-1.012231 -0.910631 1.563325
-1.185692 -1.066680 2.223845
-1.541416 -1.386699 3.277753
-1.651656 -1.485874 4.020286
-1.538268 -1.383868 4.654393
-1.229105 -1.105736 6.882676
-0.916292 -0.824321 7.983970
-1.012732 -0.911081 8.803237
-0.739848 -0.665587 9.418503
-1.100377 -0.818039 1.127903
-1.112062 -0.826726 1.541615
-1.192716 -0.886685 2.489092
-1.581142 -1.175449 3.245799
-1.760371 -1.308690 3.992621
-1.620617 -1.204795 4.856950
-1.301627 -0.967652 5.453205
-0.994312 -0.739189 6.401982
-0.963060 -0.715956 7.180519
-1.072913 -0.797622 7.994510
-1.044531 -0.776522 8.762728
-1.153735 -0.700428 1.242507
-1.171644 -0.711301 1.770247
-1.222367 -0.742094 2.762629
-1.554885 -0.943964 3.238347
-1.811155 -1.099545 4.226490
-1.662239 -1.009138 5.053317
-1.435089 -0.871237 5.833144
-1.200512 -0.728826 6.480484
-1.096564 -0.665719 7.347608
-1.175052 -0.713369 8.289524
-1.016669 -0.617216 8.832396
-1.201744 -0.597569 0.983717
-1.226439 -0.609848 1.749557
-1.394089 -0.693213 2.784419
-1.775476 -0.882858 3.388314
-1.861729 -0.925747 4.097368
-1.715321 -0.852945 5.026081
-1.436894 -0.714497 5.844635
-1.174049 -0.583797 6.528423
-1.185041 -0.589263 7.554873
-1.117316 -0.555587 8.056633
-1.091751 -0.542875 9.176383
-1.152472 -0.444869 0.674882
-1.305457 -0.503923 1.230534
-1.271705 -0.490895 2.112940
-1.155164 -0.445908 2.880999
-1.448790 -0.559252 3.624655
-1.795931 -0.693253 4.506843
-1.604814 -0.619479 5.073227
-1.314187 -0.507293 5.885610
-1.184164 -0.457103 6.867146
-1.192774 -0.460426 7.585368
-1.258089 -0.485639 8.632056
-1.022628 -0.394748 9.305325
-1.120305 -0.306684 0.738624
-1.323688 -0.362360 1.169281
-1.263346 -0.345842 2.053554
-1.379249 -0.377570 2.762629
-1.704419 -0.466585 3.759122
-1.817640 -0.497579 4.377202
-1.682256 -0.460518 5.247413
-1.352538 -0.370258 5.844268
-1.235441 -0.338203 6.790131
-1.265455 -0.346419 7.751214
-1.175787 -0.321872 8.280011
-1.035061 -0.283348 9.421450
-1.638875 -0.300639 0.944506
-1.333241 -0.244573 1.408103
-1.306106 -0.239595 2.364324
-1.318440 -0.241858 3.217115
-1.446557 -0.265360 3.809651
-1.632308 -0.299435 4.601363
-1.444272 -0.264941 5.612441
-1.348477 -0.247368 6.432980
-1.360073 -0.249495 6.932127
-1.295787 -0.237702 7.901300
-1.251528 -0.229584 8.747603
-0.942921 -0.172972 9.582879
-1.606697 -0.143830 0.812143
-1.355299 -0.121325 1.542631
-1.313896 -0.117619 2.219317
-1.376138 -0.123190 3.109487
-1.367817 -0.122446 3.840359
-1.445242 -0.129376 4.543057
-1.456448 -0.130380 5.571165
-1.383106 -0.123814 6.387444
-1.352766 -0.121098 6.936622
-1.271892 -0.113858 7.704367
-1.242367 -0.111215 8.524193
-0.992036 -0.088806 9.629061
-1.138209 0.007163 0.822375
-1.430793 0.009005 1.415651
-1.366051 0.008597 2.164672
-1.353326 0.008517 3.070134
-1.345042 0.008465 3.550615
-1.457222 0.009171 4.594667
-1.438405 0.009053 5.226971
-1.482760 0.009332 6.191404
-1.445247 0.009096 6.856703
-1.346270 0.008473 7.668773
-1.363530 0.008581 8.585130
-1.107796 0.006972 9.247335
-1.250289 0.122850 0.383925
-1.416514 0.139182 1.198732
-1.346762 0.132329 1.926672
-1.342051 0.131866 2.674936
-1.403462 0.137900 3.440303
-1.421146 0.139637 4.346862
-1.254751 0.123288 5.219778
-1.324996 0.130190 5.876410
-1.478314 0.145255 6.509101
-1.384368 0.136024 7.380337
-1.305977 0.128321 8.238047
-1.218419 0.119718 9.197154
-1.108855 0.214417 0.041642
-1.245729 0.240884 1.047897
-1.237458 0.239284 1.536318
-1.312884 0.253869 2.509297
-1.351049 0.261249 3.339142
-1.353787 0.261778 4.132587
-1.172719 0.226766 4.710963
-1.308146 0.252953 5.717306
-1.520599 0.294035 6.434611
-1.398222 0.270371 7.288159
-1.310462 0.253401 7.984156
-1.086851 0.316943 0.458056
-1.298078 0.378540 1.314959
-1.254798 0.365919 2.001745
-1.288250 0.375673 2.925218
-1.309655 0.381916 3.486212
-1.319795 0.384873 4.321533
-1.445444 0.421514 5.165180
-1.522729 0.444051 6.047810
-1.375761 0.401193 6.645791
-1.320006 0.384934 7.684511
-1.340203 0.390824 8.501746
-1.153771 0.336457 9.103664
-1.304984 0.519230 -0.093021
-1.381152 0.549536 0.732331
-1.272217 0.506192 1.739212
-1.236852 0.492121 2.416104
-1.248757 0.496858 3.258526
-1.226862 0.488147 3.814321
-1.119911 0.445593 4.593628
-1.192970 0.474661 5.385724
-1.368374 0.544452 6.129510
-1.329535 0.528998 7.190502
-1.245754 0.495663 7.766924
-1.245335 0.495497 8.819241
-0.877172 0.349011 9.419979
-0.984706 0.500899 0.177096
-1.128252 0.573917 0.933794
-1.124906 0.572215 1.577817
-1.167812 0.594040 2.479863
-1.221688 0.621446 3.277078
-1.248149 0.634906 4.098870
-1.101824 0.560474 4.842885
-1.158936 0.589525 5.499753
-1.369547 0.696659 6.362525
-1.342808 0.683057 7.186820
-1.284653 0.653475 8.004885
-0.934670 0.592290 0.406272
-1.077922 0.683068 1.286444
-1.085304 0.687745 2.054904
-1.120488 0.710041 2.718122
-1.144455 0.725229 3.654119
-1.096309 0.694719 4.309294
-1.222287 0.774550 5.288922
-1.342750 0.850886 5.910183
-1.331011 0.843448 6.875586
-1.214544 0.769643 7.489185
-1.168795 0.740653 8.330894
-1.025679 0.649962 9.155610
-0.857762 0.661040 0.521196
-1.030031 0.793800 1.264871
-1.053360 0.811779 1.959008
-1.067374 0.822579 2.997681
-1.081998 0.833849 3.767943
-0.950264 0.732327 4.330952
-1.065433 0.821083 5.282055
-1.277217 0.984295 6.054131
-1.176373 0.906579 6.796230
-1.101887 0.849177 7.638194
-1.071272 0.825583 8.305212
-0.986628 0.760351 9.389956
-0.879261 0.823053 -0.010390
-0.922540 0.863565 0.840430
-0.904751 0.846913 1.630757
-0.977238 0.914767 2.530005
-0.977320 0.914844 3.196409
-0.991388 0.928012 3.936023
-0.904416 0.846600 4.863648
-0.967046 0.905226 5.665524
-1.075161 1.006430 6.129510
-1.058294 0.990641 7.154871
-1.002895 0.938784 7.803294
-0.989695 0.926427 8.663106
-0.745393 0.697743 9.522940
-0.738352 0.828593 0.645850
-0.850911 0.954909 1.369406
-0.850459 0.954402 1.930474
-0.892747 1.001858 2.925218
-0.925342 1.038437 3.765472
-0.822617 0.923157 4.431959
-0.889162 0.997835 5.219937
-1.045440 1.173213 5.955217
-1.017717 1.142102 6.618206
-0.996258 1.118021 7.659690
-0.959669 1.076959 8.480479
-0.846830 0.950329 9.185416
-0.549044 0.749885 0.041861
-0.730713 0.998010 0.757934
-0.761888 1.040588 1.638984
-0.790363 1.079479 2.519651
-0.792910 1.082958 3.237821
-0.794117 1.084607 3.801471
-0.709824 0.969479 4.562457
-0.785412 1.072718 5.527242
-0.926398 1.265276 6.399540
-0.862692 1.178266 6.939282
-0.864618 1.180897 7.989395
-0.843476 1.152022 8.864257
-0.620565 0.847569 9.537771
-0.583639 0.971888 0.572562
-0.656096 1.092544 1.234590
-0.660905 1.100553 2.034167
-0.683690 1.138494 2.738836
-0.707798 1.178639 3.600008
-0.635956 1.059007 4.421577
-0.691016 1.150694 5.261351
-0.819998 1.365479 6.088950
-0.804513 1.339693 6.803551
-0.766658 1.276655 7.618445
-0.746899 1.243752 8.402769
-0.695896 1.158820 9.297927
-0.517899 1.088314 0.259752
-0.525569 1.104432 1.194673
-0.539260 1.133202 1.962871
-0.569370 1.196475 2.697408
-0.585384 1.230127 3.465518
-0.574563 1.207388 4.210488
-0.578957 1.216622 4.923441
-0.613679 1.289587 5.681760
-0.656560 1.379696 6.607904
-0.662141 1.391426 7.233649
-0.643157 1.351533 8.262836
-0.593645 1.247487 8.885993
-0.331222 0.895108 -0.062750
-0.395412 1.068577 0.874415
-0.437547 1.182443 1.546693
-0.463824 1.253457 2.498943
-0.461309 1.246660 3.082506
-0.467226 1.262651 3.822175
-0.424918 1.148315 4.749438
-0.455964 1.232215 5.593012
-0.538205 1.454467 6.296607
-0.527294 1.424981 7.120335
-0.513395 1.387418 7.942974
-0.500603 1.352849 8.817265
-0.416600 1.125836 9.621877
-0.328407 1.237150 0.217763
-0.378971 1.427628 1.310630
-0.348163 1.311570 1.999115
-0.353712 1.332476 2.745582
-0.366523 1.380735 3.636602
-0.355229 1.338188 4.184296
-0.374318 1.410101 5.192592
-0.398231 1.500182 5.831705
-0.417510 1.572811 6.738878
-0.412438 1.553702 7.444951
-0.397087 1.495875 8.143887
-0.373195 1.405869 8.977839
-0.151037 0.891998 -0.157079
-0.168397 0.994525 0.574437
-0.214110 1.264500 1.462730
-0.220229 1.300637 2.219317
-0.229821 1.357284 3.047432
-0.236705 1.397940 3.783666
-0.194805 1.150488 4.482236
-0.210955 1.245867 5.420354
-0.273954 1.617931 6.228806
-0.280217 1.654916 7.154132
-0.261040 1.541659 7.979029
-0.251128 1.483123 8.640031
-0.221519 1.308254 9.611988
-0.074358 1.004381 0.459556
-0.101350 1.368964 1.179625
-0.096072 1.297678 1.887753
-0.100857 1.362310 2.912951
-0.103128 1.392979 3.566634
-0.093126 1.257884 4.429068
-0.099776 1.347709 5.144091
-0.123195 1.664030 5.929364
-0.122343 1.652522 6.903210
-0.114027 1.540203 7.639465
-0.113104 1.527731 8.536208
-0.100846 1.362156 9.250599
0.008504 0.780450 0.294167
0.012207 1.120266 1.104094
0.014124 1.296146 1.784108
0.014455 1.326538 2.343611
0.015073 1.383261 3.130170
0.015677 1.438728 4.220119
0.015802 1.450176 4.742238
0.017245 1.582601 5.700659
0.018352 1.684202 6.485437
0.017679 1.622403 7.260648
0.016119 1.479271 7.942974
0.015962 1.464864 8.692453
0.013542 1.242715 9.788045
0.118895 1.131126 0.780742
0.149779 1.424936 1.467291
0.145414 1.383416 2.163248
0.145407 1.383344 2.911038
0.146943 1.397958 3.659662
0.140660 1.338186 4.503219
0.150667 1.433393 5.247623
0.177348 1.687221 5.945987
0.175833 1.672804 6.760856
0.164840 1.568230 7.547259
0.166458 1.583617 8.576616
0.154383 1.468743 9.387648
0.281297 1.404544 2.005497
0.285714 1.426599 2.760811
0.281639 1.406256 3.427715
0.283457 1.415334 4.261422
0.298406 1.489976 4.890626
0.352235 1.758748 5.920141
0.346766 1.731438 6.661289
0.328111 1.638293 7.507118
0.308727 1.541508 8.138616
0.301881 1.507325 8.892975
0.310283 1.033813 0.000000
0.465903 1.552314 1.110196
0.451448 1.504152 1.760924
0.421850 1.405537 2.583607
0.425792 1.418670 3.392265
0.440713 1.468386 3.928269
0.407930 1.359158 4.893131
0.447865 1.492215 5.704394
0.508147 1.693065 6.228884
0.476324 1.587037 7.307259
0.459812 1.532018 7.907003
0.479876 1.598868 8.688734
0.363246 1.210278 9.462592
0.547523 1.353595 0.660574
0.621131 1.535572 1.427780
0.617225 1.525914 2.241441
0.578561 1.430328 2.930449
0.577719 1.428246 4.000365
0.593910 1.468274 4.600177
0.616347 1.523745 5.250979
0.695708 1.719940 6.298323
0.654037 1.616921 6.823726
0.623724 1.541981 7.722313
0.618011 1.527859 8.596338
0.548172 1.355199 9.533910
0.789009 1.528127 1.743682
0.724687 1.403551 2.751717
0.701121 1.357910 3.356894
0.730606 1.415014 4.244644
0.679962 1.316930 4.989889
0.741370 1.435862 5.916591
0.843783 1.634213 6.500826
0.803154 1.555523 7.395407
0.773265 1.497636 8.071230
0.752141 1.456724 8.890599
1.029761 1.603150 0.275378
1.114952 1.735777 0.802448
0.936573 1.458074 1.465923
0.880876 1.371363 2.386781
0.880005 1.370008 3.058234
0.884634 1.377215 3.959016
0.929876 1.447647 4.687556
0.926054 1.441698 5.387632
0.927760 1.444354 6.226819
0.973492 1.515551 7.130783
0.917895 1.428996 7.768573
0.924344 1.439036 8.754892
0.795368 1.238243 9.674203
1.081545 1.387425 2.029268
1.060325 1.360204 3.009152
0.964089 1.236749 3.779051
1.066064 1.367564 4.592264
1.201508 1.541315 5.124626
1.131142 1.451048 5.891913
1.093493 1.402751 6.732936
1.106546 1.419496 7.641036
1.057497 1.356576 8.461376
0.897935 1.151886 9.216590
1.311151 1.382855 0.305975
1.420709 1.498405 0.883695
1.211509 1.277765 1.536620
1.195607 1.260992 2.503408
1.262705 1.331760 3.134025
1.490645 1.572165 3.975040
1.571658 1.657609 4.760859
1.391942 1.468065 5.602917
1.237894 1.305592 6.265707
1.201545 1.267255 7.109398
1.202606 1.268374 8.004294
1.211709 1.277975 8.861883
0.971705 1.024846 9.744459
1.355036 1.196147 1.995893
1.407968 1.242873 2.719686
1.397872 1.233961 3.728738
1.555790 1.373361 4.499040
1.618874 1.429048 4.962386
1.358145 1.198892 6.032638
1.215309 1.072804 6.559846
1.338442 1.181498 7.569427
1.375776 1.214455 8.403270
1.273889 1.124515 9.245413
1.486427 1.076288 2.045657
1.687560 1.221924 3.103037
1.985265 1.437485 3.812484
1.998438 1.447023 4.614825
1.813515 1.313125 5.353583
1.468668 1.063429 6.042862
1.345441 0.974203 6.785810
1.444738 1.046102 7.686960
1.349312 0.977006 8.333483
1.248101 0.903722 9.229741
1.445397 0.858613 0.369377
1.610963 0.956964 1.204915
1.562865 0.928392 1.698157
1.811837 1.076290 4.125066
1.982967 1.177947 4.737492
1.775290 1.054580 5.544714
1.475372 0.876419 6.374460
1.447395 0.859800 7.312755
1.510250 0.897137 8.045257
1.463876 0.869590 8.940650
1.791499 0.841959 0.091609
1.801798 0.846799 0.926177
1.620923 0.761793 1.658369
1.954912 0.918759 3.914268
2.158844 1.014602 4.563745
1.929271 0.906708 6.858093
1.561182 0.733715 7.773764
1.554889 0.730758 8.677487
1.352045 0.635426 9.558739
1.673465 0.607079 0.245599
1.760827 0.638771 1.184499
1.665465 0.604177 1.782308
2.148977 0.779579 2.811853
2.469143 0.895725 3.289536
2.181835 0.791499 4.234162
1.975539 0.716661 5.094091
1.740779 0.631498 5.806334
1.300405 0.471745 6.505381
1.384429 0.502226 7.407279
1.701574 0.617276 8.290832
1.632960 0.592385 9.084145
2.014180 0.519797 0.243635
2.025503 0.522719 0.964289
1.758816 0.453895 1.667488
2.071607 0.534617 3.957431
2.069464 0.534064 4.594416
1.775115 0.458102 5.516545
1.356457 0.350059 6.459812
1.298024 0.334980 7.250570
1.589261 0.410139 7.984059
1.660704 0.428576 8.775395
1.309013 0.337815 9.506600
2.077103 0.337716 0.020289
2.090478 0.339891 1.004206
1.814906 0.295086 1.605076
2.098007 0.341115 4.061482
2.248265 0.365546 4.710377
1.880949 0.305824 5.318465
1.594776 0.259295 6.380902
1.419311 0.230766 7.092922
1.505839 0.244834 8.040892
1.693445 0.275337 8.667237
1.461725 0.237662 9.507174
1.510945 0.100603 0.865826
1.926589 0.128278 1.407167
2.176185 0.144897 3.625669
1.671300 0.111280 8.374535
1.604831 0.106854 9.398666
1.758469 -0.031522 0.573427
1.846868 -0.033106 1.154646
1.801346 -0.032290 1.883401
1.976741 -0.035434 2.702259
2.306163 -0.041340 3.358929
2.153396 -0.038601 4.089163
1.647266 -0.029528 4.905390
1.621532 -0.029067 7.516899
1.634083 -0.029292 8.189722
1.688219 -0.030262 9.095897
2.020171 -0.226579 0.508243
1.891757 -0.212176 1.346912
1.801172 -0.202016 2.087918
1.327295 -0.148867 2.842390
1.621608 -0.181877 8.524438
1.573216 -0.176449 9.503372
1.792858 -0.373673 0.388342
1.831558 -0.381739 1.113043
1.776036 -0.370167 1.616370
1.975150 -0.411667 2.566476
2.204807 -0.459532 3.312931
2.239971 -0.466861 4.166350
1.935999 -0.403507 4.727878
1.442457 -0.300641 5.474689
1.214740 -0.253180 6.561886
1.268153 -0.264312 7.280682
1.533504 -0.319617 7.870974
1.564453 -0.326068 8.932937
1.177303 -0.245377 9.731941
1.679664 -0.518471 0.511993
1.809874 -0.558664 1.051089
1.714879 -0.529341 1.740206
1.784852 -0.550940 2.576776
2.102688 -0.649048 3.297147
2.249231 -0.694283 4.301862
1.860715 -0.574357 5.073693
1.245025 -0.384309 5.689940
0.937078 -0.289253 6.671321
1.268531 -0.391564 7.575587
1.580846 -0.487968 8.045675
1.620080 -0.500079 9.018244
1.907793 -0.790543 0.893850
1.619453 -0.671062 1.331830
1.923841 -0.797193 3.645540
2.027287 -0.840058 4.649009
1.617935 -0.670433 5.298623
1.105092 -0.457923 6.142317
1.097540 -0.454794 6.838897
1.510135 -0.625763 7.706793
1.598790 -0.662500 8.620638
1.448314 -0.600146 9.234097
1.310136 -0.691448 0.391969
1.390241 -0.733724 1.152829
1.525746 -0.805239 1.856419
1.360309 -0.717927 2.516707
1.584964 -0.836493 3.498476
2.003010 -1.057124 3.954296
1.828604 -0.965078 4.840337
1.383397 -0.730112 5.577184
0.968018 -0.510889 6.447701
1.064763 -0.561948 7.201301
1.516137 -0.800168 8.204545
1.441344 -0.760695 8.849508
1.052396 -0.555420 9.580307
1.446214 -0.947088 1.353211
1.417253 -0.928122 2.207701
1.298257 -0.850195 3.043712
1.440021 -0.943032 3.546439
1.689455 -1.106380 4.454203
1.354348 -0.886927 5.254431
0.931787 -0.610203 6.102183
1.129905 -0.739946 6.895225
1.459304 -0.955660 7.492446
1.497211 -0.980485 8.542494
1.343760 -0.879994 9.181096
1.253349 -0.999243 1.913996
1.282866 -1.022775 2.551144
1.254073 -0.999820 3.360537
1.460674 -1.164535 4.234305
1.445384 -1.152345 4.899985
0.989949 -0.789245 5.780344
0.854479 -0.681241 6.437281
1.153112 -0.919328 7.417595
1.396421 -1.113308 7.942721
1.264926 -1.008473 8.798129
0.940695 -0.749977 9.632268
1.033843 -0.987153 0.072302
1.147540 -1.095716 0.740681
1.161044 -1.108610 1.398833
1.057705 -1.009937 2.097060
1.060100 -1.012224 2.905296
1.152883 -1.100817 3.786844
1.172451 -1.119501 4.491375
0.961235 -0.917824 5.347645
0.821017 -0.783939 6.077421
1.049416 -1.002023 7.026391
1.270833 -1.213441 7.681738
1.318774 -1.259216 8.577834
1.131184 -1.080098 9.530065
1.177771 -1.370535 0.449957
1.122266 -1.305945 1.148248
1.023214 -1.190681 2.225316
0.998489 -1.161910 2.786258
1.021414 -1.188587 3.509078
1.027407 -1.195561 4.538450
0.902250 -1.049919 5.013310
0.804373 -0.936023 5.902085
0.954795 -1.111064 6.682751
1.162540 -1.352811 7.686960
1.017672 -1.184232 8.324225
0.870626 -1.013120 9.126396
0.671985 -0.939467 0.228882
0.822953 -1.150528 0.878449
0.878583 -1.228302 1.526231
0.840752 -1.175412 2.232675
0.873008 -1.220508 3.328180
0.889437 -1.243477 3.887064
0.850564 -1.189130 4.835131
0.972841 -1.360079 6.985328
1.040156 -1.454189 7.707423
1.017824 -1.422967 8.702591
0.820344 -1.146880 9.634928
0.302335 -0.523597 0.137199
0.421594 -0.730135 1.028136
0.699101 -1.210734 1.820770
0.675788 -1.170359 2.716338
0.672111 -1.163992 3.540263
0.686269 -1.188512 4.300845
0.622709 -1.078435 5.105632
0.749840 -1.298605 5.818720
0.907361 -1.571407 6.505100
0.860107 -1.489571 7.369492
0.866109 -1.499966 8.168478
0.774779 -1.341796 8.944464
0.548888 -1.183302 -0.051814
0.595237 -1.283222 0.878449
0.634445 -1.367746 1.464388
0.616623 -1.329325 2.552651
0.589142 -1.270082 3.326613
0.578801 -1.247789 4.101558
0.565797 -1.219753 4.702913
0.705256 -1.520403 7.005852
0.749462 -1.615703 8.040019
0.661763 -1.426639 8.602741
0.566093 -1.220391 9.684468
0.425226 -1.182752 0.435805
0.508422 -1.414158 1.330382
0.477497 -1.328143 2.079159
0.419113 -1.165748 2.536654
0.446645 -1.242327 3.552943
0.497145 -1.382793 4.268943
0.429227 -1.193880 5.091936
0.408097 -1.135109 5.885137
0.491016 -1.365745 6.749044
0.547372 -1.522497 7.368179
0.590533 -1.642549 8.229945
0.539210 -1.499795 9.129684
0.323460 -1.289457 0.051780
0.320215 -1.276523 0.942926
0.361264 -1.440162 1.516926
0.322781 -1.286749 2.343611
0.373999 -1.490928 3.169330
0.427212 -1.703060 3.894754
0.331449 -1.321305 6.381250
0.304692 -1.214641 7.321222
0.400567 -1.596842 7.886472
0.390122 -1.555202 8.736453
0.297855 -1.187385 9.715369
0.288254 -1.806520 0.000000
0.258372 -1.619250 0.883506
0.230218 -1.442805 1.548889
0.183511 -1.150087 2.144863
0.227406 -1.425181 2.938186
0.252701 -1.583708 3.630158
0.213828 -1.340082 6.350207
0.208647 -1.307612 6.889337
0.245814 -1.540542 7.840097
0.266129 -1.667859 8.662596
0.213789 -1.339843 9.318625
0.099394 -1.641228 1.058110
0.086237 -1.423981 1.891881
0.104943 -1.732865 2.833020
0.122109 -2.016307 3.518256
0.112509 -1.857795 4.173044
0.092770 -1.531849 5.192697
0.069121 -1.141355 5.969445
0.057416 -0.948069 6.784517
0.076813 -1.268364 7.673254
0.095727 -1.580680 8.308554
0.086014 -1.420295 8.952620
-0.036508 -1.304372 0.196894
-0.035423 -1.265593 0.944167
-0.046158 -1.649138 1.849851
-0.052882 -1.889363 2.534249
-0.058919 -2.105061 3.070528
-0.053761 -1.920771 3.795151
-0.041708 -1.490144 6.391457
-0.033719 -1.204704 7.341059
-0.039140 -1.398410 8.046241
-0.040393 -1.443165 8.599555
-0.032835 -1.173120 9.617600
-0.245939 -1.938859 -0.040743
-0.208840 -1.646390 0.626285
-0.183805 -1.449025 1.538568
-0.132159 -1.041872 2.329253
-0.246118 -1.940269 3.884305
-0.237888 -1.875390 4.635289
-0.202245 -1.594401 5.350422
-0.116791 -0.920718 6.207009
-0.114052 -0.899125 7.105826
-0.154648 -1.219168 7.843903
-0.176348 -1.390237 8.750596
-0.153693 -1.211638 9.395945
-0.373838 -1.714321 0.133122
-0.321867 -1.475996 0.690621
-0.312811 -1.434465 1.713996
-0.224307 -1.028611 2.370981
-0.395516 -1.813729 3.894650
-0.368648 -1.690518 4.561525
-0.338548 -1.552488 5.573530
-0.195755 -0.897680 6.305232
-0.180719 -0.828730 7.203389
-0.261121 -1.197429 8.072195
-0.302247 -1.386022 8.713980
-0.278660 -1.277861 9.638848
-0.501447 -1.553828 0.503424
-0.506506 -1.569505 1.222423
-0.493601 -1.529517 1.996243
-0.581996 -1.803425 2.605666
-0.654244 -2.027298 3.620392
-0.561898 -1.741148 4.114501
-0.461965 -1.431486 4.966003
-0.406273 -1.258916 5.983834
-0.246341 -0.763334 6.810644
-0.261466 -0.810201 7.616084
-0.399678 -1.238478 8.305538
-0.414673 -1.284942 9.079157
-0.586890 -1.385781 0.206166
-0.553169 -1.306157 1.033434
-0.580357 -1.370354 1.599431
-0.470216 -1.110286 2.413652
-0.765642 -1.807854 3.955595
-0.680651 -1.607170 4.882230
-0.596846 -1.409289 7.043609
-0.453646 -1.071161 8.139763
-0.655538 -1.217186 0.486081
-0.780788 -1.449748 1.140269
-0.796580 -1.479069 1.951236
-0.953941 -1.771254 2.832681
-0.990089 -1.838372 3.440172
-1.006870 -1.869531 4.267050
-0.864969 -1.606052 5.277923
-0.704090 -1.307336 7.469171
-0.635120 -1.179275 8.362331
-0.652034 -1.210679 9.182627
-0.795008 -1.193195 0.578391
-0.805959 -1.209631 1.352786
-1.027187 -1.541664 2.341916
-1.266706 -1.901149 3.106613
-1.214319 -1.822524 3.716773
-0.999982 -1.500834 4.542260
-0.869407 -1.304859 5.429495
-0.882728 -1.324852 7.747671
-0.744445 -1.117308 8.491984
-0.673744 -1.011196 9.474661
-0.868883 -1.072192 0.227532
-0.943742 -1.164568 1.216980
-1.170618 -1.444531 3.409827
-1.403132 -1.731451 4.306207
-1.252475 -1.545541 4.819478
-0.963381 -1.188802 5.687528
-0.565216 -0.697470 6.631820
-0.530791 -0.654991 7.574134
-0.770178 -0.950392 8.181260
-0.845738 -1.043632 9.157456
-0.964462 -0.997807 0.796309
-0.928326 -0.960422 1.543646
-0.971386 -1.004971 2.276970
-1.285834 -1.330290 3.307699
-1.476605 -1.527657 3.815510
-1.395249 -1.443488 4.765424
-1.189210 -1.230325 5.545004
-0.717154 -0.741949 6.222356
-0.601862 -0.622671 7.297753
-0.837828 -0.866795 8.098160
-0.876049 -0.906337 8.695737
-0.634363 -0.656295 9.605471
-0.844412 -0.717262 0.520856
-1.123395 -0.954236 1.217784
-1.421888 -1.207783 3.738948
-1.632907 -1.387027 4.213532
-1.456926 -1.237545 4.995491
-1.205137 -1.023670 6.016950
-1.006353 -0.854818 6.868621
-0.910531 -0.773425 7.548083
-1.010969 -0.858739 8.419501
-0.905040 -0.768761 9.151058
-0.717820 -0.508452 0.146703
-1.039406 -0.736240 1.213848
-1.093549 -0.774591 1.647184
-1.048263 -0.742514 2.471123
-1.456293 -1.031532 3.416629
-1.769531 -1.253408 4.220843
-1.593538 -1.128746 4.731020
-1.335770 -0.946163 5.555948
-1.098822 -0.778326 6.586307
-1.053376 -0.746136 7.389078
-1.072576 -0.759735 8.129178
-1.054041 -0.746606 9.049330
-1.163927 -0.663612 0.890541
-1.164556 -0.663971 1.657537
-1.457597 -0.831048 2.352837
-1.886182 -1.075405 3.248730
-1.887779 -1.076316 4.035801
-1.698686 -0.968505 4.751391
-1.386201 -0.790341 5.446503
-1.094714 -0.624150 6.377087
-1.061355 -0.605131 7.294792
-1.117008 -0.636861 7.994445
-1.063041 -0.606092 8.758811
-1.210589 -0.553876 1.429742
-1.453656 -0.665085 2.285544
-1.316794 -0.602468 3.301595
-1.391199 -0.636510 3.897366
-1.816205 -0.830961 4.684044
-1.573005 -0.719691 5.500372
-1.182111 -0.540847 6.157499
-1.106484 -0.506245 7.134347
-1.207805 -0.552602 7.953089
-1.074061 -0.368619 0.687064
-1.330815 -0.456738 1.447590
-1.241578 -0.426111 2.105359
-1.193283 -0.409537 2.858364
-1.525427 -0.523529 3.722678
-1.848433 -0.634385 4.327748
-1.642963 -0.563868 5.196193
-1.313616 -0.450835 5.920468
-1.347336 -0.462408 7.020624
-1.337633 -0.459078 7.751891
-1.241372 -0.426041 8.585805
-1.080364 -0.370783 9.283087
-1.243844 -0.307148 0.373304
-1.354242 -0.334409 1.085808
-1.319562 -0.325845 2.040508
-1.461646 -0.360930 2.767481
-1.581257 -0.390466 3.358317
-1.618415 -0.399642 4.236256
-1.592543 -0.393254 5.042177
-1.431828 -0.353567 5.822523
-1.370199 -0.338349 6.809496
-1.243470 -0.307055 7.337239
-1.295946 -0.320014 8.341623
-1.140764 -0.281694 9.099076
-1.645184 -0.239038 0.780270
-1.415195 -0.205621 1.394994
-1.363487 -0.198108 2.361217
-1.340120 -0.194713 3.080483
-1.453362 -0.211167 3.789015
-1.571122 -0.228277 4.631035
-1.426301 -0.207235 5.426647
-1.348087 -0.195871 6.381250
-1.397573 -0.203061 7.226168
-1.331676 -0.193486 8.035921
-1.286305 -0.186894 8.643144
-0.927281 -0.134730 9.599403
-1.258233 -0.069805 0.664064
-1.500108 -0.083224 1.320073
-1.347063 -0.074734 1.843871
-1.332024 -0.073899 2.821681
-1.356815 -0.075275 3.695514
-1.415258 -0.078517 4.253886
-1.384946 -0.076835 5.033991
-1.352010 -0.075008 6.021344
-1.372668 -0.076154 6.602721
-1.352605 -0.075041 7.710174
-1.369525 -0.075980 8.507216
-1.155952 -0.064131 9.026272
-1.328809 0.045160 0.124273
-1.342159 0.045614 1.014775
-1.344907 0.045707 1.771412
-1.325214 0.045038 2.333254
-1.360217 0.046227 3.163270
-1.352908 0.045979 3.894628
-1.268221 0.043101 4.901972
-1.336310 0.045415 5.579017
-1.477742 0.050221 6.319261
-1.355718 0.046074 7.065340
-1.346941 0.045776 8.165356
-1.245588 0.165427 0.404677
-1.461803 0.194143 1.238417
-1.348476 0.179092 2.061204
-1.312780 0.174351 2.687051
-1.376766 0.182849 3.744793
-1.327770 0.176342 4.231196
-1.361419 0.180811 5.120046
-1.440208 0.191274 6.005673
-1.464513 0.194503 6.893514
-1.367179 0.181576 7.705197
-1.349714 0.179256 8.346606
-1.159888 0.154045 9.078278
-0.931801 0.209796 0.240540
-1.309079 0.294740 0.973364
-1.332168 0.299939 1.656446
-1.280211 0.288240 2.510946
-1.298360 0.292327 3.395309
-1.393682 0.313789 4.127171
-1.292888 0.291095 4.947372
-1.280300 0.288261 5.752112
-1.342644 0.302297 6.464012
-1.278078 0.287760 7.224179
-1.295365 0.291653 8.072171
-1.219600 0.274594 8.873005
-1.382593 0.452421 0.165151
-1.321586 0.432458 0.920387
-1.123174 0.367532 1.445782
-1.206871 0.394920 2.232605
-1.246977 0.408044 3.177785
-1.260909 0.412603 3.876467
-1.198689 0.392243 4.639520
-1.270106 0.415612 5.399421
-1.452143 0.475180 6.311022
-1.445910 0.473140 7.130639
-1.334075 0.436545 7.700219
-1.284846 0.420436 8.533388
-0.998059 0.326591 9.327588
-1.038804 0.449182 0.426826
-1.262411 0.545870 1.262376
-1.149470 0.497034 1.910988
-1.169759 0.505807 2.690580
-1.250419 0.540685 3.465518
-1.340072 0.579451 4.405940
-1.376836 0.595348 5.123945
-1.377520 0.595644 5.660324
-1.357248 0.586878 6.616519
-1.289850 0.557735 7.581587
-1.226840 0.530489 8.113593
-1.156358 0.500012 8.914510
-1.207308 0.667377 -0.093082
-1.146323 0.633665 0.642469
-1.062749 0.587467 1.631827
-1.120192 0.619220 2.398541
-1.152103 0.636860 3.229586
-1.190352 0.658004 3.956719
-1.110502 0.613864 4.701762
-1.160618 0.641567 5.326932
-1.307574 0.722802 6.104890
-1.296272 0.716554 6.914145
-1.275200 0.704906 7.958434
-1.205705 0.666490 8.647199
-0.975497 0.539236 9.588175
-0.914387 0.619872 0.156261
-1.109007 0.751806 0.890541
-1.097310 0.743877 1.876155
-1.074318 0.728291 2.668086
-1.068164 0.724119 3.503441
-1.132126 0.767479 4.259465
-1.121955 0.760584 4.985541
-1.104229 0.748567 5.558309
-1.231008 0.834512 6.519414
-1.187044 0.804708 7.339803
-1.148664 0.778690 8.113484
-1.105344 0.749323 9.017043
-0.762456 0.627712 0.794259
-0.954086 0.785477 1.547708
-1.020305 0.839993 2.260751
-0.978257 0.805376 2.930980
-1.007589 0.829524 3.658912
-0.966921 0.796043 4.566889
-1.042927 0.858617 5.323459
-1.196707 0.985221 6.138107
-1.165377 0.959427 6.930264
-1.092913 0.899770 7.633257
-1.070885 0.881635 8.688566
-0.914303 0.752724 9.349964
-0.713357 0.707836 0.208893
-0.915412 0.908328 0.881346
-0.899694 0.892732 1.702301
-0.898548 0.891594 2.566113
-0.892926 0.886016 3.130078
-0.917943 0.910840 4.037067
-0.860837 0.854175 4.856428
-0.925119 0.917960 5.520480
-1.044701 1.036616 6.277995
-1.039541 1.031496 7.098638
-0.998571 0.990843 7.839601
-0.723012 0.869616 0.343546
-0.800096 0.962330 1.297667
-0.790234 0.950468 2.078365
-0.848061 1.020021 2.718122
-0.871356 1.048039 3.736903
-0.776893 0.934422 4.245041
-0.829211 0.997348 5.299311
-0.957271 1.151375 5.966910
-0.934240 1.123674 6.662111
-0.932750 1.121882 7.721229
-0.906055 1.089773 8.366863
-0.817599 0.983382 9.315773
-0.610228 0.892310 0.354419
-0.732390 1.070943 1.171592
-0.720152 1.053048 1.878622
-0.753512 1.101828 2.832035
-0.762037 1.114295 3.602370
-0.683372 0.999265 4.203490
-0.713049 1.042661 5.050442
-0.831642 1.216074 5.812206
-0.833161 1.218296 6.744656
-0.772517 1.129619 7.395460
-0.810374 1.184975 8.449500
-0.718539 1.050689 9.185416
-0.571058 1.007812 0.551382
-0.626082 1.104920 1.089387
-0.604819 1.067394 1.901858
-0.659212 1.163387 2.863098
-0.678749 1.197867 3.620695
-0.607206 1.071607 4.390431
-0.659593 1.164059 5.230291
-0.748325 1.320656 5.773701
-0.726320 1.281821 6.585571
-0.690744 1.219035 7.432026
-0.724304 1.278262 8.485333
-0.662230 1.168713 9.157456
-0.463883 1.034245 0.562153
-0.521406 1.162495 1.224219
-0.514029 1.146047 1.983624
-0.548193 1.222219 2.894159
-0.564258 1.258037 3.641381
-0.500657 1.116234 4.317744
-0.530802 1.183445 5.299311
-0.614980 1.371123 5.839338
-0.627937 1.400011 6.787387
-0.609431 1.358752 7.618445
-0.598110 1.333511 8.335443
-0.559428 1.247267 9.360014
-0.349401 1.024164 0.458656
-0.419446 1.229479 1.223415
-0.416340 1.220374 2.137844
-0.432258 1.267035 2.883806
-0.448770 1.315433 3.755133
-0.408437 1.197210 4.460190
-0.419894 1.230793 5.140443
-0.499941 1.465424 5.969411
-0.504570 1.478995 6.803551
-0.478788 1.403422 7.458857
-0.485677 1.423614 8.412552
-0.450038 1.319150 9.364364
-0.230810 0.955452 0.522560
-0.311640 1.290053 1.315824
-0.307570 1.273205 2.053554
-0.306513 1.268829 2.771723
-0.319330 1.321887 3.705861
-0.294771 1.220224 4.377191
-0.312084 1.291889 5.347645
-0.368215 1.524249 6.092935
-0.363053 1.502881 6.710899
-0.350113 1.449315 7.500109
-0.354826 1.468825 8.443474
-0.317191 1.313030 9.188510
-0.161046 1.123344 0.645427
-0.202574 1.413014 1.322691
-0.181639 1.266982 1.961584
-0.187625 1.308741 2.655978
-0.192795 1.344802 3.424128
-0.188551 1.315195 4.358263
-0.196260 1.368973 5.002968
-0.224861 1.568470 6.037524
-0.225622 1.573778 6.671296
-0.223209 1.556944 7.398354
-0.212409 1.481612 8.262836
-0.194328 1.355495 8.943431
-0.042088 0.828585 0.146894
-0.053938 1.061880 0.823991
-0.066648 1.312086 1.617187
-0.066197 1.303217 2.396967
-0.070752 1.392882 3.264588
-0.070508 1.388088 3.755133
-0.063504 1.250202 4.767099
-0.070831 1.394443 5.464756
-0.087055 1.713842 6.374460
-0.081478 1.604044 7.040142
-0.078224 1.539998 7.876078
-0.077029 1.516467 8.701869
-0.064103 1.261987 9.462592
0.045429 1.010132 0.720642
0.060917 1.354504 1.418452
0.060723 1.350204 2.342071
0.061147 1.359628 3.163270
0.062128 1.381431 3.933444
0.055826 1.241318 4.483862
0.062067 1.380084 5.361357
0.076094 1.691979 6.241162
0.076748 1.706523 7.042291
0.071496 1.589739 7.619265
0.072173 1.604804 8.638310
0.061821 1.374608 9.291978
0.115662 0.847206 0.230682
0.175206 1.283354 1.099036
0.184957 1.354779 1.697830
0.184070 1.348281 2.486954
0.190376 1.394471 3.117779
0.203021 1.487093 4.098428
0.194052 1.421399 4.817646
0.210363 1.540873 5.515425
0.233128 1.707627 6.267818
0.223456 1.636779 7.148534
0.201959 1.479315 7.886287
0.195506 1.432051 8.718701
0.150648 1.103471 9.787936
0.336292 1.415847 1.962890
0.332413 1.399517 2.876232
0.330816 1.392794 3.667588
0.336284 1.415812 4.364655
0.367075 1.545450 5.216745
0.401533 1.690522 6.044552
0.397952 1.675448 6.700774
0.380921 1.603742 7.522278
0.372280 1.567362 8.431950
0.339656 1.430009 9.148780
0.327368 0.975931 0.010438
0.505976 1.508388 0.936103
0.508792 1.516784 1.852305
0.471370 1.405223 2.427209
0.459387 1.369498 3.260298
0.485938 1.448651 4.116338
0.457493 1.363852 4.848626
0.500546 1.492199 5.470656
0.571093 1.702510 6.245251
0.539136 1.607241 7.108441
0.525628 1.566972 7.917278
0.503692 1.501577 8.762671
0.376782 1.123240 9.559517
0.680223 1.528750 1.817838
0.640638 1.439786 2.700275
0.627759 1.410841 3.531989
0.654093 1.470025 4.388594
0.594108 1.335213 5.024121
0.645945 1.451713 5.741803
0.736227 1.654615 6.484651
0.711678 1.599444 7.395407
0.688782 1.547987 8.112261
0.658560 1.480063 8.916898
0.929731 1.662038 0.050996
0.970140 1.734275 0.763358
0.850429 1.520274 1.681064
0.828251 1.480628 2.248726
0.812076 1.451712 3.179408
0.813134 1.453603 3.748558
0.828494 1.481061 4.700906
0.860253 1.537835 5.547946
0.938279 1.677319 6.391999
0.886644 1.585013 7.075003
0.845881 1.512143 7.932586
0.843382 1.507676 8.718482
0.688572 1.230929 9.327370
0.967017 1.419126 2.175486
0.963768 1.414359 3.154696
0.958580 1.406746 3.610319
1.000874 1.468813 4.535032
0.976349 1.432822 5.353349
0.964756 1.415808 6.206318
0.988730 1.450992 6.747591
0.977354 1.434297 7.824998
0.917562 1.346550 8.514165
0.879825 1.291169 9.421055
1.139682 1.364989 1.915357
1.104489 1.322838 2.658822
1.056609 1.265493 3.574024
1.190366 1.425692 4.359683
1.288682 1.543446 4.982249
1.204339 1.442428 5.979903
1.180930 1.414391 6.805851
1.106278 1.324981 7.400238
1.098974 1.316234 8.322674
1.008763 1.208189 9.047391
1.257719 1.259333 0.184200
1.393156 1.394943 1.130433
1.250262 1.251866 1.731129
1.220480 1.222046 2.339469
1.261763 1.263382 3.426861
1.488411 1.490320 4.114922
1.585771 1.587805 4.642794
1.435016 1.436856 5.653747
1.266563 1.268188 6.224792
1.241868 1.243461 7.033085
1.253787 1.255395 8.127154
1.234142 1.235725 8.908601
0.915557 0.916731 9.487656
1.411645 1.173661 0.694901
1.416654 1.177825 1.686810
1.369924 1.138973 2.407996
1.403450 1.166847 3.011391
1.712632 1.423905 3.835636
1.818033 1.511536 4.597035
1.576213 1.310484 5.266868
1.297139 1.078459 6.200132
1.237971 1.029266 7.060702
1.308632 1.088014 7.660999
1.343460 1.116970 8.692349
1.156779 0.961761 9.599978
1.600749 1.095803 0.886660
1.511795 1.034909 1.441587
1.479327 1.012683 2.181382
1.527996 1.045999 3.029817
1.829346 1.252291 3.734510
2.022823 1.384736 4.688292
1.749817 1.197848 6.797261
1.424537 0.975176 7.656008
1.425070 0.975541 8.492121
1.230241 0.842170 9.340384
1.470748 0.818187 0.523275
1.727151 0.960826 1.283137
1.583875 0.881121 2.087918
1.856288 1.032666 2.987364
2.178492 1.211910 3.473632
2.154209 1.198402 4.390778
1.953221 1.086591 5.147906
1.898165 1.055963 5.912317
1.754217 0.975883 6.733889
1.594246 0.886890 7.636045
1.557030 0.866187 8.393747
1.435869 0.798784 9.226541
1.628927 0.718071 0.245599
1.712236 0.754796 1.123251
1.663369 0.733254 1.698157
2.169532 0.956383 2.602878
2.495386 1.100028 3.290579
2.174530 0.958586 4.278831
1.985129 0.875094 4.847701
1.777679 0.783645 5.740075
1.449806 0.639110 6.640439
1.444777 0.636893 7.429220
1.601155 0.705829 8.132445
1.526850 0.673073 8.905385
1.712119 0.570315 0.132945
1.769104 0.589297 0.878229
1.756676 0.585158 1.880894
2.181201 0.726569 2.648519
2.421958 0.806766 3.306259
2.098544 0.699036 3.929259
1.950820 0.649828 4.945156
1.875741 0.624819 7.118454
1.637707 0.545528 7.901845
1.975255 0.465557 0.020330
1.964147 0.462938 1.006905
1.814868 0.427754 1.624426
2.094212 0.493594 3.833222
2.168763 0.511165 4.716686
1.816605 0.428164 5.396981
1.442522 0.339994 6.339890
1.361224 0.320833 7.153820
1.475969 0.347878 7.752459
1.582724 0.373039 8.612178
1.340483 0.315944 9.401392
2.110715 0.285023 0.192619
2.092750 0.282597 0.740516
1.870418 0.252574 1.572325
2.147014 0.289924 3.975040
2.311562 0.312144 4.744399
1.972202 0.266318 5.379146
1.618742 0.218588 6.335640
1.399546 0.188989 7.226168
1.406848 0.189975 7.901600
1.595241 0.215415 8.540236
1.465031 0.197832 9.496859
2.133683 0.094270 0.689338
1.850754 0.081770 1.318072
2.165473 0.095675 3.985167
1.539744 0.068029 8.577406
1.415601 0.062544 9.249087
1.976882 -0.104559 0.142503
1.968122 -0.104096 1.110070
1.845965 -0.097635 1.819609
2.128517 -0.112579 2.395719
2.410802 -0.127509 3.156525
2.245576 -0.118770 4.037803
1.900803 -0.100535 4.934300
1.554788 -0.082234 7.049321
1.328531 -0.070267 7.963445
1.550126 -0.081987 8.737445
1.393281 -0.073692 9.473776
1.813048 -0.259268 0.398562
1.853928 -0.265114 1.174291
1.830422 -0.261753 1.829823
2.063246 -0.295047 2.439537
2.321057 -0.331914 3.223399
2.212511 -0.316392 4.141617
1.889641 -0.270221 4.975095
1.524002 -0.217934 5.749328
1.034733 -0.147968 6.456021
0.971017 -0.138857 7.232637
1.389654 -0.198722 7.948052
1.591650 -0.227608 8.865505
1.241538 -0.177542 9.630390
1.997247 -0.487496 0.335221
1.935089 -0.472325 0.966879
1.780224 -0.434524 1.451806
1.818457 -0.443857 2.248489
1.979818 -0.483242 3.158008
2.209795 -0.539376 4.045193
2.053017 -0.501109 4.803466
1.644190 -0.401321 5.589684
1.179687 -0.287943 6.406128
1.110476 -0.271050 7.148155
1.486808 -0.362906 7.943000
1.577434 -0.385027 8.601902
1.347919 -0.329006 9.442758
1.998564 -0.680825 0.720231
1.754287 -0.597611 1.338499
2.039644 -0.694819 3.863616
2.247597 -0.765660 4.677615
1.919815 -0.653999 5.467085
1.218362 -0.415044 6.234081
1.157334 -0.394254 7.165505
1.470639 -0.500984 7.809214
1.598739 -0.544622 8.662596
1.430869 -0.487436 9.215065
1.557215 -0.693214 0.112792
1.589122 -0.707417 0.870916
1.610562 -0.716962 1.587811
1.716372 -0.764064 2.360768
1.982745 -0.882643 3.238604
2.108660 -0.938696 3.888459
1.972361 -0.878021 4.766674
1.475618 -0.656889 5.580153
1.074147 -0.478170 6.327106
1.317479 -0.586492 7.381109
1.612829 -0.717971 8.086210
1.555973 -0.692661 8.724132
1.286470 -0.572688 9.525457
1.418830 -0.805659 0.410962
1.633957 -0.927814 1.358018
1.487794 -0.844818 2.062723
1.480712 -0.840797 2.722115
1.729589 -0.982117 3.716350
1.128835 -0.640990 6.744282
1.367741 -0.776648 7.398354
1.498564 -0.850934 8.245545
1.379138 -0.783120 8.990139
1.052999 -0.726668 -0.041479
1.186248 -0.818622 0.950150
1.453899 -1.003326 1.669710
1.294650 -0.893430 2.276767
1.396076 -0.963423 3.269618
1.653277 -1.140916 3.909647
1.601960 -1.105502 4.680085
1.278452 -0.882251 5.673511
0.990733 -0.683698 6.493413
1.188282 -0.820025 7.123899
1.430262 -0.987015 7.835243
1.417533 -0.978230 8.806145
1.141966 -0.788063 9.442758
1.223454 -1.036440 1.924277
1.277409 -1.082148 2.672613
1.203366 -1.019423 3.342180
1.270207 -1.076046 4.215727
1.254037 -1.062348 4.874581
0.969640 -0.821423 5.811463
0.914671 -0.774857 6.611951
1.161138 -0.983650 7.397671
1.311661 -1.111163 7.989007
1.245375 -1.055010 8.859782
0.893458 -0.756886 9.607201
1.023008 -1.033919 0.092898
1.081844 -1.093383 0.813758
1.074800 -1.086264 1.339805
1.012257 -1.023053 2.129422
1.056448 -1.067716 3.047730
1.135047 -1.147153 3.732957
1.148898 -1.161152 4.594124
0.942010 -0.952057 5.420128
0.849647 -0.858709 6.215052
1.029897 -1.040881 6.821292
1.262700 -1.276167 7.865955
1.226950 -1.240036 8.455885
1.084541 -1.096108 9.338692
1.138634 -1.404413 0.521537
0.977654 -1.205857 1.318328
0.901088 -1.111419 1.974513
0.989921 -1.220987 2.979967
1.064607 -1.313106 3.746081
1.027148 -1.266904 4.573577
0.839026 -1.034871 5.188873
0.810594 -0.999802 6.234081
0.960511 -1.184713 6.735880
1.116754 -1.377425 7.635792
1.030902 -1.271535 8.318344
0.946967 -1.168007 9.391935
0.857344 -1.272170 0.597464
0.898452 -1.333169 1.460516
0.820569 -1.217601 2.200250
0.807449 -1.198134 2.958835
0.819646 -1.216232 3.508019
0.870575 -1.291803 4.592909
0.757600 -1.124164 5.175140
0.700630 -1.039630 6.026638
0.868978 -1.289433 6.900658
1.000360 -1.484384 7.717654
0.956710 -1.419615 8.538644
0.839174 -1.245209 9.173834
0.729747 -1.347424 0.473858
0.771835 -1.425136 1.110196
0.672678 -1.242051 2.099826
0.634958 -1.172403 2.811326
0.620590 -1.145873 3.638186
0.639529 -1.180843 4.262254
0.600900 -1.109516 5.040068
0.552448 -1.020054 5.913575
0.706400 -1.304316 6.785917
0.835605 -1.542882 7.543654
0.829113 -1.530895 8.209458
0.759004 -1.401444 9.129684
0.605703 -1.406525 0.391451
0.635090 -1.474764 1.409114
0.566345 -1.315129 1.995169
0.540299 -1.254647 2.912951
0.521395 -1.210751 3.532225
0.548946 -1.274727 4.435294
0.514151 -1.193928 5.320040
0.469173 -1.089484 6.079954
0.575118 -1.335502 6.620827
0.685913 -1.592784 7.441225
0.686834 -1.594921 8.188969
0.632347 -1.468395 9.150251
0.489261 -1.507534 0.648106
0.464941 -1.432597 1.423157
0.452157 -1.393208 2.138338
0.434201 -1.337880 2.785118
0.422006 -1.300304 3.517250
0.447385 -1.378504 4.313042
0.395436 -1.218438 5.364986
0.361127 -1.112722 6.135896
0.475904 -1.466379 6.966952
0.527765 -1.626175 7.446082
0.514951 -1.586691 8.343747
0.444456 -1.369479 9.342049
0.285636 -1.273770 0.279796
0.277264 -1.236435 0.985660
0.316842 -1.412930 1.818371
0.270018 -1.204123 2.463984
0.315298 -1.406041 3.218997
0.391988 -1.748035 3.994490
0.262394 -1.170123 7.309887
0.377706 -1.684347 7.901845
0.344903 -1.538064 8.840365
0.233737 -1.042328 9.710747
0.164242 -1.274626 0.663628
0.192006 -1.490095 1.320073
0.188191 -1.460488 2.272473
0.215789 -1.674670 2.867555
0.229279 -1.779360 3.518935
0.205320 -1.593417 4.368033
0.164475 -1.276433 5.226747
0.125930 -0.977302 6.090558
0.146083 -1.133699 6.728867
0.195150 -1.514496 7.803977
0.207945 -1.613790 8.503890
0.183353 -1.422943 9.321395
0.046667 -1.304286 0.238345
0.045280 -1.265538 0.954540
0.057241 -1.599837 1.872869
0.064502 -1.802752 2.365490
0.073183 -2.045382 3.259625
0.068501 -1.914518 3.981255
0.048461 -1.354437 6.339858
0.040980 -1.145358 7.298496
0.052411 -1.464828 7.999714
0.052357 -1.463318 8.910165
0.038196 -1.067530 9.710747
-0.096857 -1.671393 1.221611
-0.085217 -1.470523 1.817172
-0.103616 -1.788026 2.551237
-0.124398 -2.146634 3.567311
-0.118657 -2.047565 4.069627
-0.100477 -1.733848 5.008419
-0.078919 -1.361841 5.924325
-0.053632 -0.925488 6.799337
-0.057175 -0.986617 7.404529
-0.081314 -1.403164 8.196186
-0.078799 -1.359768 8.912392
-0.256403 -1.684977 0.010254
-0.231532 -1.521534 0.854954
-0.219244 -1.440784 1.456003
-0.251015 -1.649565 2.198902
-0.301940 -1.984224 3.088926
-0.273901 -1.799962 4.032734
-0.192612 -1.265767 6.192607
-0.144553 -0.949944 6.987639
-0.191401 -1.257806 8.051455
-0.202522 -1.330893 8.621705
-0.174331 -1.145634 9.455526
-0.292759 -1.171077 0.457156
-0.370093 -1.480424 1.277992
-0.320374 -1.281540 2.250393
-0.404230 -1.616979 2.910513
-0.504816 -2.019334 3.635389
-0.412411 -1.649703 4.523521
-0.342508 -1.370080 5.220056
-0.327247 -1.309034 6.149502
-0.261944 -1.047815 6.944381
-0.251130 -1.004554 7.644711
-0.326179 -1.304764 8.502336
-0.316870 -1.267525 9.111516
-0.518316 -1.493328 0.318921
-0.533253 -1.536363 1.284886
-0.532609 -1.534507 1.840802
-0.643319 -1.853474 2.836468
-0.722983 -2.082996 3.613122
-0.627326 -1.807396 4.187901
-0.510406 -1.470538 5.168704
-0.507666 -1.462644 7.531571
-0.441254 -1.271301 8.274160
-0.466566 -1.344229 8.952620
-0.659513 -1.435107 -0.041152
-0.642963 -1.399094 0.885851
-0.612491 -1.332785 1.683041
-0.468495 -1.019450 2.272634
-0.844220 -1.837030 4.031675
-0.744570 -1.620192 4.783709
-0.654458 -1.424107 5.597768
-0.375830 -0.817810 6.190055
-0.323099 -0.703067 7.347931
-0.472887 -1.029006 7.994085
-0.583187 -1.269020 8.729922
-0.447373 -0.973487 9.621205
-0.740516 -1.289366 1.568493
-0.860802 -1.498805 2.359964
-1.079145 -1.878977 3.198095
-1.027742 -1.789476 3.708917
-0.758697 -1.321022 4.722612
-0.628195 -1.093796 5.579546
-0.726050 -1.264178 7.839793
-0.686116 -1.194646 8.647199
-0.572650 -0.997083 9.314305
-0.790894 -1.111995 0.879608
-0.849609 -1.194550 1.662403
-0.724771 -1.019027 2.327476
-1.164248 -1.636930 3.909647
-0.950274 -1.336083 4.843768
-0.805809 -1.132967 5.423401
-0.540557 -0.760023 6.539614
-0.407939 -0.573562 7.110642
-0.678443 -0.953890 7.931846
-0.947258 -1.107532 1.456003
-1.187882 -1.388868 2.343476
-1.451387 -1.696958 3.090575
-1.418894 -1.658967 3.645916
-1.275643 -1.491479 4.399040
-1.097763 -1.283501 5.213302
-1.032318 -1.206984 6.216394
-0.801629 -0.937263 6.948718
-0.723399 -0.845796 7.900373
-0.852293 -0.996499 8.466361
-0.782440 -0.914827 9.532657
-0.987684 -0.965503 0.372322
-1.103484 -1.078703 1.019728
-1.380979 -1.349966 3.639778
-1.538530 -1.503979 4.068899
-1.354459 -1.324042 4.862895
-1.174373 -1.148000 5.922985
-0.796665 -0.778774 6.562293
-0.728593 -0.712231 7.561203
-0.976902 -0.954964 8.367300
-0.918683 -0.898052 9.127714
-0.842744 -0.675413 0.218908
-1.124667 -0.901359 0.950150
-1.114004 -0.892813 1.912540
-0.985584 -0.789892 2.524618
-1.356642 -1.087274 3.462143
-1.689716 -1.354214 3.964912
-1.543160 -1.236758 4.727878
-1.195398 -0.958045 5.529340
-0.865154 -0.693374 6.531047
-0.895546 -0.717731 7.438512
-1.025739 -0.822074 8.248407
-1.049723 -0.841296 9.058455
-1.155483 -0.769517 1.603657
-1.440747 -0.959494 2.400952
-1.758415 -1.171051 3.151675
-1.786157 -1.189527 4.018236
-1.670945 -1.112799 4.765424
-1.403133 -0.934444 5.370662
-1.081252 -0.720081 6.306643
-1.008630 -0.671717 7.242858
-1.116875 -0.743805 7.896209
-1.027584 -0.684340 8.581575
-0.634868 -0.422803 9.520237
-1.026258 -0.548100 0.832238
-1.265996 -0.676138 1.529257
-1.600834 -0.854968 3.733693
-1.777086 -0.949100 4.413529
-1.556395 -0.831234 5.390776
-1.207552 -0.644925 6.114470
-1.072942 -0.573033 6.855257
-1.142466 -0.610164 7.668310
-1.123819 -0.600205 8.529100
-0.916137 -0.489287 9.385696
-1.275676 -0.540044 1.531274
-1.292364 -0.547109 2.370000
-0.873734 -0.369886 3.029174
-1.817361 -0.769361 4.490677
-1.528294 -0.646987 5.363929
-1.275565 -0.539997 6.366763
-1.181276 -0.500081 7.079068
-1.205260 -0.510234 7.859858
-1.173937 -0.496974 8.757974
-0.807034 -0.341649 9.458826
-1.310833 -0.411885 1.221002
-1.361479 -0.427798 1.902210
-1.555247 -0.488683 2.758354
-1.662247 -0.522305 3.503119
-1.663673 -0.522753 4.248354
-1.739624 -0.546618 5.090515
-1.433618 -0.450466 5.839338
-1.253180 -0.393769 6.688118
-1.323002 -0.415708 7.488546
-1.285741 -0.404000 8.165356
-1.181161 -0.371140 9.040148
-1.382349 -0.300128 0.878449
-1.357524 -0.294738 1.624337
-1.337957 -0.290490 2.611111
-1.131878 -0.245747 3.138277
-1.333386 -0.289498 3.998108
-1.693224 -0.367624 4.977683
-1.418654 -0.308011 5.498916
-1.305412 -0.283424 6.524190
-1.315840 -0.285688 7.281627
-1.236894 -0.268548 8.020337
-0.899467 -0.105718 0.314156
-1.312745 -0.154292 1.150105
-1.339413 -0.157426 1.833520
-1.359769 -0.159819 2.611111
-1.284426 -0.150963 3.252436
-1.425561 -0.167551 4.189139
-1.543134 -0.181370 4.959490
-1.352506 -0.158965 5.575383
-1.312647 -0.154280 6.441340
-1.297209 -0.152466 7.203455
-1.298810 -0.152654 8.098094
-1.195630 -0.140527 8.894749
-1.279489 -0.036047 0.217763
-1.368511 -0.038555 1.055488
-1.335631 -0.037628 1.554000
-1.372180 -0.038658 2.662834
-1.419914 -0.040003 3.272774
-1.405417 -0.039595 4.150550
-1.386525 -0.039062 5.033991
-1.449216 -0.040828 5.657405
-1.435634 -0.040446 6.368811
-1.394512 -0.039287 7.401014
-1.276602 -0.035965 7.952968
-1.206000 0.077758 0.561049
-1.447672 0.093340 1.270205
-1.295502 0.083529 1.825568
-1.335182 0.086087 2.873452
-1.390037 0.089624 3.525281
-1.438213 0.092730 4.460463
-1.318295 0.084998 5.106019
-1.345317 0.086741 5.820837
-1.495611 0.096431 6.729958
-1.432853 0.092385 7.478858
-1.307306 0.084290 8.227686
-1.177553 0.075924 9.119871
-1.436543 0.228555 0.134186
-1.419235 0.225801 0.764280
-1.265786 0.201388 1.441992
-1.360055 0.216386 2.350874
-1.369554 0.217897 3.171534
-1.417952 0.225597 3.959268
-1.233702 0.196283 4.746343
-1.314290 0.209105 5.706950
-1.524343 0.242524 6.403720
-1.411201 0.224523 7.180173
-1.312507 0.208821 7.834082
-1.275544 0.202940 8.830555
-0.769591 0.122443 9.482727
-1.167557 0.299098 0.259752
-1.408071 0.360711 1.352786
-1.257583 0.322160 1.825568
-1.276604 0.327033 2.593826
-1.336581 0.342397 3.380513
-1.362720 0.349093 4.380718
-1.335756 0.342186 4.971942
-1.394058 0.357121 5.754053
-1.457181 0.373292 6.760886
-1.400827 0.358855 7.530486
-1.385535 0.354938 8.309837
-1.225319 0.313895 9.044746
-1.369834 0.490649 0.227082
-1.448910 0.518972 0.854954
-1.300347 0.465760 1.427860
-1.296504 0.464383 2.350874
-1.299130 0.465324 3.088803
-1.266492 0.453634 3.811823
-1.099919 0.393970 4.703630
-1.222694 0.437946 5.489389
-1.430357 0.512327 6.259506
-1.355553 0.485533 7.103248
-1.300582 0.465844 7.963525
-1.223684 0.438300 8.643144
-0.879675 0.315083 9.588940
-0.954893 0.447245 -0.073017
-1.142226 0.534987 0.726313
-1.112016 0.520838 1.340055
-1.076759 0.504324 2.133065
-1.177435 0.551478 3.032711
-1.250337 0.585623 3.912760
