0.839374 3.592345 2.866373
0.846308 3.622022 3.945430
0.864143 3.698348 4.385396
0.859620 3.678993 4.547625
1.270274 3.698266 0.982478
1.281074 3.729709 1.583886
1.293173 3.764934 2.057951
1.267781 3.691006 2.962548
1.169323 3.404357 3.151361
1.176623 3.425612 3.968456
1.203800 3.504732 4.435818
1.356313 3.008997 1.706188
1.372456 3.044810 2.186889
1.390802 3.085510 2.627833
1.414580 3.138263 3.106652
1.442324 3.199813 3.584205
1.474022 3.270137 4.060300
1.614364 2.729425 1.229918
1.562301 2.641402 1.617238
1.567859 2.650798 2.085128
1.591773 2.691230 2.570206
1.620665 2.740078 3.054238
1.634663 2.763744 3.442834
1.643594 2.778845 3.887468
1.581378 2.673655 4.494989
1.729215 2.390130 0.712646
1.740724 2.406038 1.207212
1.756813 2.428276 1.668356
1.779428 2.459534 2.155186
1.807796 2.498746 2.641139
1.884464 2.604716 4.792830
1.734198 2.397018 5.506273
1.961430 2.216600 0.989653
1.977927 2.235243 1.477375
1.999182 2.259263 1.931604
2.107401 2.381560 3.220822
2.153703 2.433886 3.703645
1.940027 2.192412 3.402782
1.846589 2.086818 3.972964
1.943811 2.196689 5.159018
2.182007 1.997111 0.943493
2.245567 2.055285 2.247196
2.125954 1.945808 3.611796
1.960538 1.794409 4.261756
1.892523 1.732157 3.857803
1.966030 1.799436 4.446370
2.490544 1.870268 0.032759
2.355080 1.768542 0.521322
2.304954 1.730900 1.443791
2.184146 1.640179 3.260807
1.949988 1.464339 2.937215
1.969385 1.478905 3.509271
2.005076 1.505707 3.970228
1.963027 1.474131 4.547188
2.430408 1.484473 0.636100
2.339022 1.428655 1.131945
2.362755 1.443151 1.624057
2.365547 1.444857 2.004726
2.176074 1.329128 2.049998
2.027063 1.238113 2.596005
2.066640 1.262286 3.206186
2.098196 1.281561 3.654195
2.151184 1.313925 4.202651
2.060202 1.258354 4.736206
2.445744 1.185808 1.179725
2.422330 1.174455 1.602377
2.225186 1.078871 1.697823
2.085123 1.010962 2.260371
2.102320 1.019300 2.702701
2.170352 1.052285 3.324075
2.225942 1.079238 3.755124
2.930887 1.053814 -0.019655
2.661449 0.956937 0.815782
2.404204 0.864443 1.793254
2.358777 0.848110 3.277167
2.315878 0.832685 2.914074
2.381225 0.856181 3.451741
2.419201 0.869835 3.891307
2.327442 0.836843 4.509029
2.596925 0.651749 2.827659
2.346630 0.588933 2.536868
2.374695 0.595976 3.018033
2.404808 0.603533 3.623635
2.957574 0.442738 1.569585
2.841248 0.425324 1.683591
2.746850 0.411193 2.071171
2.604873 0.389940 2.663521
2.519635 0.377180 3.572498
2.553440 0.382241 3.800359
2.481430 0.371461 3.653589
2.947640 0.154411 0.765417
2.968325 0.155495 1.259940
3.067938 0.160713 2.529589
2.899146 0.151871 3.224416
2.743911 0.143739 3.727039
3.111479 -0.141209 0.072070
2.943200 -0.133572 0.567507
2.959561 -0.134315 1.055589
3.010681 -0.136635 1.541647
3.069904 -0.139322 2.006381
3.095613 -0.140489 4.171470
2.905498 -0.131861 4.525150
2.849336 -0.129312 4.631678
3.224172 -0.464722 0.925284
3.093029 -0.445819 0.707492
2.988430 -0.430743 1.198140
3.017221 -0.434892 1.684619
3.055723 -0.440442 2.170412
3.103919 -0.447389 2.655320
3.162638 -0.455852 3.145678
3.192275 -0.460124 3.540688
3.073891 -0.443061 4.210801
2.886807 -0.416095 4.701606
3.342729 -0.847070 0.646237
3.167912 -0.802770 1.166208
3.202625 -0.811567 1.751693
3.232935 -0.819248 2.134961
3.287813 -0.833154 2.692605
3.346009 -0.847901 3.177724
3.412843 -0.864837 3.655073
3.487910 -0.883860 4.124514
3.506367 -1.262416 0.753675
3.341508 -1.203061 1.320070
3.386678 -1.219324 2.001284
3.426656 -1.233718 2.450262
3.513099 -1.264840 3.211387
3.585209 -1.290802 3.727578
3.566407 -1.284033 3.600283
3.619730 -1.303231 4.639747
3.556094 -1.280320 4.932044
3.499472 -1.661645 0.660028
3.357884 -1.594416 1.137862
3.347128 -1.589308 1.381992
3.214142 -1.526163 2.102000
3.095212 -1.469692 2.551212
3.123013 -1.482892 2.822643
3.205648 -1.522130 3.505955
3.230411 -1.533888 3.844155
3.327509 -1.579993 4.453261
2.839610 -1.698846 0.962342
2.817949 -1.685887 1.452554
2.847270 -1.703429 1.933645
2.884917 -1.725952 2.413949
2.925505 -1.750234 2.841504
2.978856 -1.782153 3.319783
3.039591 -1.818488 3.790275
2.904240 -1.737512 3.589995
2.829494 -1.692794 3.996528
2.756725 -1.649259 4.650969
2.380675 -1.792033 0.856873
2.402974 -1.808819 1.442945
2.446759 -1.841777 1.875090
2.452973 -1.846455 2.258003
2.473448 -1.861867 2.746075
2.522336 -1.898667 3.237234
2.185218 -1.991354 0.903925
2.202339 -2.006956 1.391732
2.224114 -2.026800 1.832911
2.255084 -2.055022 2.319467
2.372830 -2.162322 3.609620
2.259741 -2.059266 4.077267
2.052174 -1.870114 3.749841
1.976654 -2.202673 0.983059
1.993192 -2.221102 1.470787
2.068211 -2.304699 2.752632
1.967898 -2.192916 3.534787
1.908343 -2.126551 4.788760
1.778438 -1.981792 4.433021
1.712210 -2.342534 1.734744
1.794898 -2.455662 2.220911
1.707703 -2.336368 3.691159
1.469855 -2.010961 3.347695
1.486643 -2.033928 3.885701
1.549462 -2.119873 4.508799
1.338147 -2.294117 2.634113
1.249433 -2.142026 3.068807
1.232539 -2.113062 2.786165
1.254098 -2.150024 3.334251
1.266692 -2.171614 3.852127
1.350475 -2.315252 4.795942
1.144165 -2.487554 1.539221
1.143681 -2.486501 1.880360
1.043083 -2.267789 2.007113
0.988209 -2.148487 2.494683
1.015503 -2.207826 3.074981
1.034422 -2.248958 3.596733
1.065453 -2.316423 4.073582
1.060569 -2.305805 4.977302
0.834834 -2.404203 1.652432
0.783895 -2.257505 2.492178
0.801777 -2.309003 2.984363
0.788239 -2.270017 2.620384
0.790407 -2.276259 3.111792
0.814278 -2.345006 3.643809
0.686747 -2.827940 0.998305
0.636717 -2.621924 0.646692
0.587785 -2.420427 1.136809
0.581520 -2.394627 2.219853
0.560050 -2.306218 2.037523
0.566562 -2.333034 2.600146
0.603888 -2.486738 3.975679
0.590006 -2.429572 3.593126
0.414176 -2.937769 0.329625
0.421270 -2.988086 1.600856
0.382415 -2.712490 2.470421
0.355694 -2.522957 2.795073
0.378241 -2.682883 3.467411
0.365622 -2.593376 3.712489
0.097388 -2.872201 2.784842
0.088754 -2.617542 2.523137
0.089369 -2.635681 2.913600
0.090949 -2.682278 3.805075
0.091648 -2.702902 4.521889
0.089275 -2.632913 4.555587
-0.185081 -2.948978 0.857759
-0.188038 -2.996080 1.344219
-0.196162 -3.125533 2.616041
-0.189263 -3.015599 3.698657
-0.183433 -2.922713 4.630835
-0.473223 -2.949288 1.041326
-0.476372 -2.968917 1.429783
-0.477039 -2.973072 1.859232
-0.483761 -3.014967 2.345742
-0.509379 -3.174628 3.642245
-0.466410 -2.906825 3.339928
-0.457276 -2.849902 4.262859
-0.461970 -2.879154 4.428110
-0.868691 -3.273623 1.030573
-0.843269 -3.177823 1.517606
-0.852369 -3.212117 1.998601
-0.863267 -3.253185 2.452852
-0.877204 -3.305704 2.932084
-0.893618 -3.367559 3.410122
-0.896025 -3.376633 3.474619
-1.264323 -3.343808 1.686557
-1.278265 -3.380682 2.168141
-1.294671 -3.424071 2.623209
-1.285963 -3.401040 2.392583
-1.286379 -3.402142 3.420769
-1.284486 -3.397134 4.026165
-1.294724 -3.424212 4.331666
-1.725792 -3.486094 0.120468
-1.718402 -3.471166 0.634648
-1.716482 -3.467288 1.168662
-1.753857 -3.542784 2.028550
-1.692393 -3.418628 2.162509
-1.638107 -3.308970 2.891952
-1.683454 -3.400570 3.625750
-1.668572 -3.370509 3.402765
-1.710797 -3.455804 4.684203
-1.659287 -3.351754 4.740767
-1.810551 -2.918416 0.970228
-1.824142 -2.940322 0.988578
-1.841367 -2.968087 1.925935
-1.769857 -2.852821 2.368554
-1.798839 -2.899537 2.867388
-1.831889 -2.952810 3.345599
-1.870019 -3.014272 3.822447
-1.842695 -2.970228 3.487516
-1.996006 -2.609162 0.989373
-2.011087 -2.628877 1.470531
-1.931048 -2.524251 1.360627
-1.890115 -2.470743 1.851550
-1.894240 -2.476136 2.227130
-1.909425 -2.495984 2.714226
-1.922267 -2.512772 3.096634
-1.952361 -2.552110 3.629195
-1.886290 -2.465743 4.204247
-1.838244 -2.402938 5.574115
-2.029470 -2.177005 0.751448
-2.026140 -2.173432 1.240167
-2.045285 -2.193969 1.701273
-2.089023 -2.240887 2.185790
-2.088097 -2.239893 3.954953
-2.247335 -1.952252 0.771216
-2.243950 -1.949312 1.259940
-2.265431 -1.967972 1.721022
-2.201856 -1.912745 3.135263
-2.089143 -1.814831 3.690034
-2.407894 -1.713347 0.870949
-2.426529 -1.726607 1.365376
-2.335456 -1.661804 2.718657
-2.178355 -1.550018 3.738368
-2.213671 -1.575147 4.588509
-2.695855 -1.510304 0.157406
-2.572236 -1.441049 0.653274
-2.588856 -1.450359 1.161071
-2.503264 -1.402408 3.525775
-2.138140 -1.197854 3.038233
-2.155371 -1.207507 3.563099
-2.233202 -1.251111 4.133922
-2.168301 -1.214751 4.841149
-2.521230 -1.110593 1.404671
-2.357645 -1.038535 2.344899
-2.186971 -0.963354 2.949869
-2.241775 -0.987495 3.415033
-2.281980 -1.005204 3.882878
-2.381950 -1.049241 4.790301
-2.840203 -0.930515 1.080844
-2.866010 -0.938970 1.574542
-2.754257 -0.902357 1.688472
-2.476622 -0.811398 2.639462
-2.275239 -0.745420 3.189158
-2.329292 -0.763129 3.772353
-2.471601 -0.553062 1.457876
-2.498548 -0.559092 2.902348
-2.319155 -0.518950 2.357152
-2.331291 -0.521665 2.943119
-2.402482 -0.537595 3.502542
-2.476358 -0.554126 3.999799
-2.430602 -0.543888 4.603170
-3.054771 -0.378385 0.807397
-2.927155 -0.362578 1.300824
-2.910493 -0.360514 0.937866
-2.658682 -0.329323 2.368751
-2.370030 -0.293568 2.936370
-2.485774 -0.307905 3.448495
-2.559812 -0.317076 3.944899
-2.461912 -0.304950 4.549383
-2.989836 -0.076060 0.243674
-2.974887 -0.075680 0.738269
-3.022258 -0.076885 2.010535
-3.065691 -0.077990 2.477076
-3.005785 -0.076466 2.111348
-2.839843 -0.072244 2.714813
-2.685552 -0.068319 4.133198
-2.485544 -0.063231 3.670704
-3.106749 0.221902 0.065518
-2.938589 0.209891 0.560909
-2.955367 0.211089 1.062182
-3.005703 0.214684 1.535068
-3.121108 0.222927 2.815277
-3.030734 0.216472 2.446774
-2.873548 0.205245 3.052490
-2.692730 0.192330 3.905081
-2.740866 0.195768 4.879482
-2.543463 0.181668 4.647648
-2.938239 0.526668 0.995218
-2.957078 0.530045 1.383712
-2.960901 0.530730 1.819750
-3.001882 0.538076 2.306329
-3.102517 0.556114 4.601649
-3.137239 0.880711 0.951335
-3.160028 0.887108 1.426531
-3.192921 0.896342 1.914156
-3.234152 0.907917 2.388010
-3.091692 0.867924 2.152652
-3.059676 0.858936 2.802920
-3.097795 0.869638 3.122851
-3.107942 0.872486 4.858057
-3.209931 1.244820 0.394235
-3.088452 1.197710 1.046820
-3.115829 1.208327 1.579335
-3.167658 1.228427 2.266498
-3.156322 1.224031 2.398468
-3.219054 1.248358 3.184184
-3.283457 1.273334 3.661514
-3.356828 1.301787 4.137353
-3.475714 1.789961 0.963473
-3.472289 1.788197 1.382890
-3.488923 1.796763 1.986416
-3.391994 1.746845 2.425751
-3.283932 1.691195 2.904740
-3.410733 1.756496 3.886540
-3.389468 1.745545 3.740301
-3.374988 2.174035 -0.031532
-3.252536 2.095156 0.450628
-3.267029 2.104492 1.002559
-3.317871 2.137242 1.628163
-3.300749 2.126213 2.523051
-3.096704 1.994775 3.022989
-2.930758 1.887879 3.245370
-3.008114 1.937709 4.008906
-3.080154 1.984115 4.483535
-2.704684 2.139744 0.659159
-2.604695 2.060640 1.228727
-2.611360 2.065913 1.762847
-2.643060 2.090991 2.242947
-2.678883 2.119332 2.683319
-2.705702 2.140549 3.164804
-2.759570 2.183165 3.642191
-2.636861 2.086087 3.440926
-2.467969 2.414888 0.794821
-2.375822 2.324723 1.280687
-2.379939 2.328752 1.762847
-2.262303 2.213645 1.558234
-2.196476 2.149235 2.006381
-2.203995 2.156591 2.395807
-2.224309 2.176469 2.883724
-2.287749 2.238544 3.371038
-1.927025 2.278335 0.968869
-1.943084 2.297322 1.462687
-1.984897 2.346757 2.012944
-1.992182 2.355371 2.408927
-1.962316 2.320059 3.965578
-1.762591 2.083923 4.379720
-1.752087 2.545257 0.144289
-1.671491 2.428175 0.633482
-1.631552 2.370156 2.342857
-1.594892 2.316900 4.419558
-1.454091 2.112358 4.009192
-1.514734 2.200454 5.249708
-1.417356 2.591599 0.831377
-1.364425 2.494815 2.506732
-1.273711 2.328946 3.611549
-1.198930 2.192213 3.216699
-1.282480 2.344980 4.624433
-1.226156 2.835941 0.065586
-1.169112 2.704005 0.554312
-1.175506 2.718793 1.042403
-1.221691 2.825614 2.343319
-1.171809 2.710243 2.342244
-1.065546 2.464471 3.097467
-0.969695 2.242779 2.977628
-0.998187 2.308677 3.522379
-1.020340 2.359916 4.049397
-1.014275 2.345887 4.938828
-0.888423 2.857779 1.602511
-0.899483 2.893354 2.089445
-0.845720 2.720414 2.025074
-0.771976 2.483205 3.223831
-0.734985 2.364217 3.768577
-0.627913 3.023257 1.056696
-0.556545 2.679635 1.519257
-0.518529 2.496599 2.049998
-0.501692 2.415531 2.511579
-0.489828 2.358407 3.105048
-0.509024 2.450831 3.613282
-0.524871 2.527132 4.109685
-0.499720 2.406038 4.560650
-0.326954 3.047893 0.196961
-0.318480 2.968895 1.497136
-0.308558 2.876408 1.609133
-0.292320 2.725032 2.483729
-0.284961 2.656436 2.990735
-0.269258 2.510052 2.580367
-0.260290 2.426447 3.155826
-0.264452 2.465242 3.623635
-0.028091 2.810894 2.168589
-0.026235 2.625182 2.583312
-0.026477 2.649421 2.803817
-0.025562 2.557838 3.283981
-0.025092 2.510775 3.831979
0.260058 2.972379 0.962281
0.251286 2.872123 2.864236
0.237978 2.720012 3.437274
0.235665 2.693574 3.931739
0.238230 2.722897 4.675063
0.236761 2.706097 4.719735
0.554349 2.930472 0.929343
0.554182 2.929590 1.424673
0.560343 2.962160 1.905289
0.568402 3.004763 2.391717
0.588207 3.109456 4.667048
0.529958 2.801533 4.351021
0.933085 3.124574 1.009945
0.903155 3.024348 0.896454
0.907482 3.038839 1.236454
0.936370 3.135572 1.662415
0.920565 3.082649 2.217899
0.899224 3.011185 2.714226
0.939152 3.144890 3.905471
0.858638 2.875277 3.560476
0.837994 2.806147 4.357605
0.805177 2.696256 4.563410
1.313844 3.194616 0.833577
1.252887 3.046399 1.184497
1.255212 3.052053 1.699687
1.273809 3.097271 2.284226
1.292042 3.141604 2.737933
1.314895 3.197172 3.216479
1.341416 3.261658 3.693715
1.298517 3.157349 3.618614
1.855476 3.443323 1.007816
1.781906 3.306794 1.398179
1.802031 3.344141 2.260314
1.820374 3.378183 2.629198
1.785843 3.314101 3.428265
1.769174 3.283167 3.179469
1.750301 3.248143 3.602733
2.138117 3.250532 0.228253
2.145530 3.261801 0.824086
2.158648 3.281744 1.337098
2.156397 3.278323 1.661571
2.116505 3.217676 2.749901
2.013520 3.061110 3.253595
1.984388 3.016821 3.746302
1.966956 2.990320 3.863431
2.018882 3.069261 4.534740
2.078215 3.159465 5.178318
2.179270 2.648042 0.840923
2.097951 2.549230 1.327538
2.102217 2.554414 1.810189
2.128513 2.586366 2.290713
2.158578 2.622898 2.737933
2.196758 2.669290 3.216479
2.240427 2.722353 3.687275
2.290763 2.783517 4.163028
2.187849 2.658466 3.958807
2.222535 2.218866 0.215982
2.233372 2.229684 1.407831
2.246352 2.242643 1.288742
2.174651 2.171060 1.676312
2.181136 2.177535 2.111372
2.189301 2.185686 2.494190
2.210827 2.207176 2.981987
2.219177 2.215513 4.516580
2.302406 1.892657 0.876638
2.300878 1.891401 1.371965
2.322596 1.909254 1.800007
2.354451 1.935439 2.286619
2.431979 1.999171 4.582023
2.586701 1.734935 0.058966
2.446577 1.640952 0.554312
2.459958 1.649926 1.042403
2.502237 1.678283 1.528488
2.527885 1.695486 1.955894
2.449551 1.642946 3.379514
2.375124 1.593027 4.802003
2.250148 1.509204 4.548541
2.613072 1.403091 0.257111
2.599964 1.396053 0.745628
2.617856 1.405660 1.240167
2.481503 1.332445 3.141467
2.308627 1.239619 4.041266
2.233229 1.199134 3.656631
2.256226 1.211482 4.140625
2.327649 1.249833 5.466043
2.874261 1.199747 0.039311
2.637982 1.101122 0.960635
2.545653 1.062583 1.464516
2.548716 1.063861 1.878439
2.448644 1.022090 2.837207
2.309901 0.964177 3.250295
2.254132 0.940899 2.970893
2.240338 0.935141 3.438676
2.294221 0.957633 3.994377
2.288689 0.955323 4.681753
2.725916 0.823388 0.622851
2.623148 0.792346 1.118637
2.621107 0.791730 1.539221
2.511819 0.758718 2.569941
2.387732 0.721237 3.183097
2.429394 0.733821 3.676759
2.675077 0.520312 1.319564
2.671371 0.519592 1.667338
2.561764 0.498273 2.672912
2.329037 0.453006 2.316631
2.327356 0.452679 2.787820
2.399118 0.466638 3.374629
2.447695 0.476086 3.882878
3.077477 0.276757 0.124613
2.874379 0.258493 1.019177
2.720999 0.244699 1.439391
2.560051 0.230225 1.994325
2.357198 0.211983 1.956464
2.387684 0.214724 2.566411
2.386611 0.214628 3.003858
2.597056 0.233553 4.408485
2.513788 0.226065 4.070955
2.600578 0.233870 5.325660
2.751611 -0.008694 1.344818
2.752898 -0.008698 1.758753
2.582719 -0.008160 2.411876
2.467742 -0.007797 3.172843
2.397325 -0.007574 2.798519
2.441314 -0.007713 3.354424
2.664754 -0.008419 4.715874
2.647963 -0.008366 4.760684
2.884721 -0.320755 1.356389
2.654493 -0.295156 2.538039
2.515329 -0.279682 3.629789
2.549829 -0.283518 3.857803
2.685443 -0.298597 4.508561
3.029215 -0.608375 0.078703
2.913054 -0.585046 0.566921
2.904607 -0.583349 1.055589
2.932403 -0.588932 1.576170
2.956255 -0.593722 3.820912
2.639474 -0.530101 3.858420
2.827096 -0.863307 0.890735
2.848996 -0.869994 1.378554
2.877895 -0.878819 1.832911
2.864236 -0.874648 3.689278
2.732527 -0.834428 4.240701
3.175165 -1.353560 0.756063
3.009905 -1.283111 1.244321
3.037474 -1.294863 1.725691
2.908938 -1.240069 1.512466
3.002430 -1.279924 2.674134
2.980566 -1.270604 2.452646
2.916443 -1.243269 2.949681
2.945231 -1.255541 3.377566
2.915191 -1.242735 4.557724
2.721140 -1.160012 4.652519
2.893109 -1.574440 1.608658
2.925886 -1.592278 2.089515
2.967180 -1.614750 2.569521
3.005487 -1.635597 2.945020
3.075244 -1.673559 3.526199
3.141014 -1.709351 3.996055
3.226422 -2.179264 0.424787
3.087567 -2.085476 0.728135
3.122208 -2.108874 1.576687
3.136788 -2.118721 1.818798
3.003609 -2.028767 2.277182
3.064958 -2.070205 2.943099
3.071003 -2.074287 3.000623
3.118205 -2.106170 3.584969
3.149275 -2.127156 4.398126
3.181291 -2.148781 5.205628
2.542391 -2.148736 1.749861
2.573528 -2.175052 2.236465
2.629535 -2.222387 2.699897
2.674170 -2.260110 3.171076
2.688529 -2.272246 3.483868
2.749845 -2.324068 4.137353
2.300563 -2.352959 1.563135
2.326009 -2.378985 2.044062
2.356320 -2.409986 2.498230
2.394946 -2.449492 2.977358
2.440324 -2.495903 3.455273
2.332054 -2.385168 3.252777
2.295004 -2.347273 3.751871
1.869734 -2.339265 1.205965
1.903567 -2.381595 1.691189
1.904846 -2.383195 2.041306
1.918103 -2.399781 2.529589
1.953033 -2.443482 3.014730
1.922565 -2.405363 4.486463
1.606456 -2.485605 0.983059
1.619896 -2.506400 1.470787
1.638098 -2.534563 1.944761
1.600005 -2.475623 3.366320
1.505549 -2.329476 3.893248
1.592935 -2.464683 5.165619
1.400224 -2.754589 0.150847
1.335875 -2.627999 0.640079
1.355276 -2.666166 1.126945
1.379112 -2.713057 1.612343
1.332107 -2.620586 3.118856
1.242333 -2.443977 3.687123
1.287701 -2.533229 4.709271
1.200660 -2.361997 5.024277
1.106803 -2.751542 0.243926
1.115553 -2.773296 1.549827
1.041089 -2.588176 2.210654
0.966883 -2.403697 3.150205
0.978308 -2.432100 4.047953
0.947828 -2.356326 3.690177
0.753337 -2.651608 1.431270
0.710343 -2.500276 2.322447
0.657708 -2.315011 2.879472
0.667943 -2.351036 3.374629
0.689959 -2.428531 3.919268
0.698985 -2.460301 4.819994
0.416358 -2.309999 2.026051
0.424997 -2.357928 2.552916
0.435177 -2.414405 3.058430
0.432990 -2.402273 3.532999
0.187063 -2.339839 1.692884
0.194768 -2.436215 2.765962
0.198500 -2.482903 3.156211
0.203976 -2.551392 3.652956
0.206230 -2.579589 4.149864
0.196655 -2.459817 3.714760
-0.042603 -2.341509 1.611743
-0.043815 -2.408172 2.428982
-0.043458 -2.388524 2.219823
-0.046382 -2.549241 3.585910
-0.044987 -2.472570 3.213208
-0.048060 -2.641476 4.595677
-0.290284 -2.531065 2.023174
-0.294721 -2.569755 3.116729
-0.295998 -2.580886 3.203754
-0.313658 -2.734872 4.224656
-0.295010 -2.572269 4.005167
-0.290530 -2.533207 4.779765
-0.627998 -2.886563 0.837972
-0.598734 -2.752053 2.228294
-0.556530 -2.558062 2.746484
-0.573404 -2.635622 3.380780
-0.599218 -2.754274 4.165435
-0.922106 -2.806006 0.824781
-0.929290 -2.827870 1.339020
-0.938952 -2.857271 1.813169
-0.928789 -2.826346 3.557535
-0.913067 -2.778503 4.611025
-1.200038 -2.756809 0.908638
-1.209470 -2.778476 1.402006
-1.208802 -2.776941 1.758698
-1.228671 -2.822586 2.343319
-1.286899 -2.956350 3.534166
-1.193303 -2.741335 3.656352
-1.184920 -2.722078 4.575309
-1.631249 -2.864529 1.647674
-1.650104 -2.897640 2.128469
-1.670969 -2.934279 2.556561
-1.698483 -2.982594 3.029086
-1.678771 -2.947979 2.699081
-1.745213 -3.064653 3.852205
-2.116789 -3.009424 0.832061
-2.043032 -2.904565 1.313637
-2.061046 -2.930175 1.789361
-2.084579 -2.963632 2.264356
-2.111062 -3.001282 2.700030
-2.095305 -2.978881 2.450262
-2.090957 -2.972700 3.401540
-2.101666 -2.987925 4.147914
-2.547088 -2.967358 0.988812
-2.567728 -2.991403 1.564908
-2.490046 -2.900903 2.251545
-2.369104 -2.760007 2.405402
-2.440060 -2.842671 3.300724
-2.415362 -2.813896 3.019794
-2.462441 -2.868744 4.151658
-2.405808 -2.802767 4.371895
-2.343162 -2.729784 5.037579
-2.402057 -2.259820 1.262525
-2.417742 -2.274576 1.953134
-2.454878 -2.309513 2.498230
-2.495120 -2.347372 2.977358
-2.542396 -2.391848 3.455273
-2.595905 -2.442190 3.925351
-2.566470 -2.414497 3.674395
-2.733664 -2.109773 0.801281
-2.592183 -2.000581 1.289880
-2.617019 -2.019749 1.777693
-2.531364 -1.953643 1.667626
-2.606405 -2.011557 2.703871
-2.567684 -1.981674 2.485231
-2.483890 -1.917003 2.887290
-2.608593 -2.013246 5.177135
-2.516686 -1.596720 0.876638
-2.514700 -1.595461 1.365376
-2.540425 -1.611782 1.826331
-2.575692 -1.634157 2.312898
-2.578737 -1.636089 4.057564
-2.768199 -1.373750 0.190198
-2.641712 -1.310980 0.679662
-2.658695 -1.319408 1.174254
-2.681527 -1.330739 1.615681
-2.715162 -1.347430 3.919563
-2.591081 -1.285854 4.439218
-2.782237 -1.069490 0.883226
-2.781934 -1.069373 1.404909
-2.681783 -1.030875 2.778224
-2.525827 -0.970926 3.945066
-2.554875 -0.982092 4.695029
-2.461374 -0.946150 4.430794
-2.847501 -0.779685 0.785206
-2.921278 -0.799886 2.076295
-2.769324 -0.758279 3.539012
-2.533763 -0.693779 4.081380
-2.418081 -0.662104 3.640154
-2.714389 -0.448906 1.338168
-2.745929 -0.454123 1.830027
-2.751739 -0.455083 2.204014
-2.660821 -0.440047 3.190810
-2.389719 -0.395212 2.795709
-2.456591 -0.406272 3.340973
-2.556567 -0.422806 3.860621
-2.646961 -0.437755 4.677800
-2.960386 -0.190375 1.141295
-2.738419 -0.176101 2.516995
-2.456668 -0.157982 3.125740
-2.435951 -0.156650 3.532999
-3.075758 0.114735 0.800836
-2.916469 0.108793 0.435995
-2.706542 0.100962 0.959902
-2.508853 0.093588 1.506373
-2.511681 0.093693 2.472939
-2.377440 0.088686 2.384163
-2.384886 0.088964 2.922869
-2.447931 0.091315 3.415033
-2.495015 0.093072 3.903040
-2.448253 0.091327 4.520258
-2.746608 0.358950 1.643995
-2.726983 0.356385 1.318215
-2.509109 0.327912 1.801784
-2.534847 0.331276 2.868830
-2.517607 0.329022 3.512130
-2.450393 0.320238 3.199754
-2.483544 0.324571 3.791675
-2.908752 0.676781 1.028152
-2.871862 0.668198 0.659871
-2.944583 0.685118 2.010535
-2.987558 0.695117 2.483641
-2.864543 0.666495 3.988413
-2.485239 0.578242 3.599322
-2.916996 1.018465 0.072145
-2.781415 0.971127 0.560909
-2.866818 1.000945 1.863885
-2.845336 0.993444 1.541647
-2.725664 0.951661 2.897308
-2.566995 0.896262 3.534021
-2.695111 0.940994 4.775515
-2.593012 0.905346 4.872830
-2.828963 1.305220 0.216207
-2.701222 1.246283 0.705320
-2.741582 1.264905 1.198140
-2.739269 1.263837 1.587699
-2.747653 1.267706 2.043417
-2.878876 1.328249 3.335309
-2.901708 1.338783 4.823863
-2.750781 1.269149 5.365785
-2.843192 1.662890 1.608658
-2.875403 1.681730 2.089515
-2.913577 1.704056 2.543600
-2.962772 1.732829 3.029086
-2.832256 1.656494 2.823836
-2.778762 1.625207 3.321895
-2.685495 1.941846 1.079308
-2.707420 1.957700 1.566355
-2.765595 1.999766 2.421840
-2.809112 2.031232 2.900128
-2.840386 2.053846 3.380776
-2.879576 2.082184 3.861045
-2.946603 2.130651 4.336202
-2.928451 2.583050 0.843095
-2.954316 2.605864 1.520623
-2.985002 2.632931 2.051635
-2.868932 2.530551 2.276978
-2.773770 2.446613 2.943099
-2.811557 2.479943 3.319862
-2.841958 2.506758 3.593915
-2.855497 2.518700 4.436309
-2.741852 2.418460 5.071955
-2.632549 2.866849 0.348712
-2.620448 2.853671 0.672717
-2.540412 2.766512 1.763353
-2.368301 2.579084 2.029095
-2.340949 2.549297 2.854932
-2.373494 2.584738 3.229084
-2.404116 2.618086 3.709148
-2.442114 2.659466 4.195115
-2.502611 2.725347 4.669051
-2.429382 2.645600 4.370963
-1.980559 2.636821 1.667180
-1.998187 2.660289 2.044062
-2.024635 2.695501 2.504712
-2.058385 2.740435 2.990291
-2.096957 2.791786 3.461722
-2.003913 2.667913 3.259268
-1.972166 2.625647 3.758377
-1.714443 2.797427 0.885279
-1.713274 2.795520 1.367972
-1.641940 2.679125 1.152675
-1.591482 2.596794 1.645198
-1.610186 2.627312 2.104811
-1.621951 2.646510 2.592532
-1.631985 2.662881 2.975438
-1.665914 2.718242 3.459458
-1.290720 2.717217 0.948125
-1.287895 2.711270 1.337636
-1.289621 2.714903 1.786844
-1.321124 2.781222 2.349881
-1.266959 2.667196 3.905217
-1.014027 2.799300 0.784395
-1.012948 2.796322 1.292891
-0.956930 2.641681 1.848059
-1.006244 2.777816 3.036531
-1.042485 2.877861 4.523882
-0.744559 2.910090 0.829659
-0.713057 2.786966 2.583580
-0.652083 2.548650 3.621881
-0.609474 2.382114 3.297223
-0.613429 2.397572 3.761851
-0.455604 2.969538 0.842823
-0.444244 2.895497 1.772575
-0.417843 2.723422 2.623416
-0.394272 2.569789 2.329139
-0.382051 2.490137 2.764328
-0.372751 2.429519 3.290492
-0.374687 2.442137 3.734943
-0.163136 2.973924 0.817340
-0.153295 2.794528 3.197780
-0.135835 2.476231 3.795478
0.160801 3.104999 0.970412
0.154323 2.979916 1.464200
0.147954 2.856930 1.498248
0.140921 2.721116 2.572832
0.132254 2.553764 2.875534
0.124022 2.394811 2.573158
0.124315 2.400473 3.064578
0.127208 2.456328 3.660925
0.459584 3.080656 0.091725
0.434885 2.915096 0.613690
0.423261 2.837182 2.738515
0.383308 2.569370 3.203754
0.362482 2.429771 3.085357
0.364105 2.440649 3.542916
0.371268 2.488664 4.023958
0.356417 2.389112 4.470832
0.672863 2.728102 2.155320
0.634293 2.571723 2.797138
0.617412 2.503279 3.247183
0.592088 2.400602 3.398154
0.606366 2.458493 3.966250
0.643621 2.609543 4.960894
1.041134 2.909414 0.157406
1.001753 2.799366 0.646009
1.008331 2.817749 1.166456
0.965999 2.699453 2.725276
0.902938 2.523231 3.057449
0.925765 2.587019 3.727039
0.898760 2.511555 4.019788
0.843689 2.357662 4.538129
1.293923 2.711877 0.855986
1.292729 2.709373 1.344219
1.294937 2.714000 1.806588
1.313021 2.751902 2.299759
1.344570 2.818025 4.444553
1.692937 2.832224 1.693186
1.621190 2.712193 1.473231
1.641731 2.746558 2.022112
1.647251 2.755793 2.409523
1.586993 2.654982 4.138686
2.009111 2.660719 1.456008
2.014721 2.668149 1.938112
2.025032 2.681804 2.400980
2.056673 2.723706 2.873859
2.094530 2.773841 3.352052
2.138194 2.831667 3.828881
2.069970 2.741317 3.754427
2.022614 2.678601 4.193603
1.941182 2.570759 4.696637
2.713531 2.959762 0.195495
2.635441 2.874585 0.691008
2.632937 2.871855 1.211781
2.530159 2.759750 1.597511
2.437362 2.658533 2.084726
2.499450 2.726255 2.943099
2.566231 2.799095 3.644848
2.603478 2.839722 3.981832
2.509280 2.736977 3.907104
2.464532 2.688168 4.393875
2.894554 2.600110 0.247273
2.904612 2.609145 0.830423
2.894692 2.600234 1.110351
2.816540 2.530032 3.223697
2.596120 2.332034 3.271170
2.670955 2.399256 4.079567
2.770836 2.488977 4.790438
2.811221 2.525253 5.165577
2.784273 2.011193 0.976692
2.682796 1.937892 1.464033
2.690910 1.943753 1.953134
2.724119 1.967741 2.400980
2.766682 1.998486 2.873859
2.818350 2.035808 3.358505
2.877194 2.078313 3.835314
2.769059 2.000203 3.631554
2.732546 1.973829 4.130938
2.632246 1.901377 4.698335
2.721533 1.625360 1.630145
2.709441 1.618138 1.407831
2.607871 1.557479 1.877031
2.666518 1.592503 2.367114
2.711728 1.619504 2.851608
2.732513 1.631917 3.240423
2.712405 1.251718 1.047912
2.730552 1.260093 1.436364
2.736810 1.262980 1.898710
2.776059 1.281093 2.385150
2.875709 1.327080 4.680124
2.794280 0.975157 0.983059
2.817658 0.983316 1.470787
2.848320 0.994017 1.931604
2.791811 0.974296 3.432280
2.644357 0.922837 4.059276
2.580345 0.900498 4.399689
3.003038 0.727628 0.131172
2.864636 0.694093 0.620288
2.931438 0.710279 1.925026
2.723497 0.659896 3.028671
2.404405 0.582580 3.021727
2.427975 0.588292 3.579686
2.478005 0.600414 4.073582
2.464459 0.597131 4.838224
2.948776 0.390427 1.703031
2.857512 0.378343 1.815920
2.600493 0.344313 2.793289
2.472955 0.327427 3.374581
2.548584 0.337440 3.891307
2.844617 0.096605 0.569852
2.736244 0.092925 1.065404
2.732792 0.092808 1.479326
2.742689 0.093144 1.973513
2.545090 0.086433 2.009761
2.420093 0.082188 2.557091
2.484261 0.084367 3.115876
2.498745 0.084859 3.593126
2.558304 0.086882 4.133922
2.519914 0.085578 4.764396
2.688828 -0.167738 1.200931
2.471133 -0.154158 1.339782
2.304069 -0.143736 1.852073
2.469056 -0.154028 3.219935
2.422851 -0.151146 2.842888
2.494313 -0.155604 3.408182
2.566899 -0.160132 3.898007
2.369068 -0.380795 2.334544
2.331682 -0.374785 2.195029
2.333509 -0.375079 2.720264
2.396168 -0.385151 3.246626
2.437394 -0.391777 3.721488
2.989111 -0.783671 0.163964
2.799178 -0.733875 1.961418
2.532097 -0.663853 2.509763
2.445927 -0.641261 3.438318
2.390715 -0.626786 3.001546
2.415614 -0.633314 3.572966
2.472832 -0.648315 4.113812
2.410500 -0.631973 4.609892
2.786328 -1.056112 0.856873
2.575757 -0.976299 2.616767
2.362693 -0.895540 3.424894
2.470165 -0.936276 4.168256
2.390212 -0.905971 3.797478
2.648758 -1.310037 0.864354
2.626825 -1.299189 3.240926
2.372226 -1.173268 2.777101
2.404716 -1.189338 3.274098
2.502603 -1.237751 4.006167
2.515127 -1.563470 1.029216
2.558137 -1.590207 1.515329
2.587354 -1.608369 1.988748
2.552930 -1.586970 3.761690
2.463870 -1.531608 4.485496
2.460892 -1.529757 4.602481
2.689762 -2.046808 0.855654
2.608035 -1.984617 1.341943
2.523547 -1.920325 1.229918
2.448335 -1.863091 1.728813
2.452214 -1.866043 2.104811
2.489912 -1.894730 2.589851
2.505801 -1.906821 2.978906
2.641058 -2.009746 4.267263
2.510122 -1.910109 4.479256
2.343993 -1.783691 4.586557
2.414360 -2.256180 1.379541
2.428511 -2.269403 2.005096
2.455767 -2.294874 2.407464
2.499441 -2.335687 2.938552
2.546295 -2.379470 3.416573
2.600186 -2.429831 3.893202
2.571634 -2.403150 3.648632
2.550217 -2.924017 0.844002
2.581607 -2.960008 1.712215
2.481448 -2.845168 1.685022
2.393847 -2.744727 2.450262
2.436401 -2.793518 3.007014
2.510671 -2.878675 3.784825
2.511350 -2.879453 3.791184
2.006414 -2.788047 0.983157
2.039282 -2.833719 1.122984
2.065171 -2.869693 1.831772
1.987835 -2.762231 2.324763
1.985693 -2.759254 2.534465
2.005834 -2.787241 3.042016
2.062976 -2.866644 3.725908
2.109032 -2.930642 4.195115
2.077516 -2.886848 3.880340
2.024928 -2.813773 4.648466
1.628109 -2.872661 1.725691
1.647672 -2.907179 2.206359
1.669153 -2.945079 2.634311
1.697748 -2.995534 3.113114
1.622837 -2.863359 2.908401
1.592694 -2.810174 3.400157
1.217821 -2.718533 0.830518
1.229129 -2.743775 1.423202
1.248173 -2.786287 1.750311
1.268439 -2.831527 2.334341
1.274910 -2.845972 2.723587
0.988319 -2.928525 0.242665
0.943572 -2.795935 0.739032
0.949916 -2.814732 1.226986
0.958374 -2.839795 1.668356
0.970711 -2.876351 2.155186
1.018836 -3.018953 3.446394
1.035089 -3.067112 3.939625
0.946214 -2.803763 3.620534
0.888363 -2.632342 4.508242
0.838243 -2.483831 5.134662
0.670306 -3.016556 0.163964
0.639598 -2.878366 0.659871
0.643555 -2.896173 1.147887
0.649551 -2.923155 1.628851
0.675907 -3.041767 2.916484
0.612622 -2.756967 2.562352
0.579717 -2.608882 3.731696
0.569609 -2.563394 4.074695
0.569128 -2.561228 4.061324
0.559273 -2.516879 4.795091
0.362759 -2.958075 0.870050
0.353475 -2.882368 1.767792
0.333346 -2.718233 3.314050
0.301875 -2.461607 3.267015
0.305758 -2.493268 3.838695
0.075603 -2.821724 0.630123
0.072063 -2.689597 1.127595
0.072806 -2.717319 1.620722
0.072892 -2.720544 2.002166
0.071477 -2.667746 3.167354
0.065084 -2.429116 2.637967
0.065571 -2.447310 3.216438
0.065851 -2.457741 3.654195
-0.201023 -2.557146 1.927315
-0.188865 -2.402487 2.442470
-0.183738 -2.337271 1.992244
-0.183493 -2.334148 2.510713
-0.187475 -2.384812 2.970116
-0.193696 -2.463937 3.569827
-0.196683 -2.501936 3.983662
-0.199439 -2.537002 5.010843
-0.432573 -2.508909 1.665846
-0.404291 -2.344872 2.111807
-0.399190 -2.315285 2.053094
-0.426545 -2.473945 3.488799
-0.421764 -2.446216 3.088980
-0.431023 -2.499917 3.670050
-0.707180 -2.534185 2.636788
-0.663652 -2.378204 2.981364
-0.687969 -2.465341 3.652956
-0.664704 -2.381972 3.213208
-0.674897 -2.418499 3.831979
-0.933208 -2.364181 1.949395
-0.950228 -2.407298 2.465445
-0.963052 -2.439789 3.391055
-0.978388 -2.478640 4.301809
-0.952192 -2.412274 3.874009
-0.932994 -2.363639 4.600699
-1.328995 -2.640097 0.884140
-1.366298 -2.714201 2.188050
-1.374907 -2.731304 2.630733
-1.311417 -2.605177 3.135263
-1.188603 -2.361204 2.750381
-1.218243 -2.420085 3.467411
-1.257825 -2.498716 4.039362
-1.225074 -2.433655 4.353090
-1.679263 -2.593750 0.124613
-1.601797 -2.474097 0.613690
-1.611204 -2.488628 1.101740
-1.663024 -2.568668 2.411418
-1.676934 -2.590152 2.873584
-1.654238 -2.555097 2.499349
-1.592533 -2.459789 3.422590
-1.527209 -2.358892 3.962304
-1.531344 -2.365278 4.008741
-1.517137 -2.343334 4.843117
-1.864199 -2.360600 0.941544
-1.898747 -2.404347 1.538458
-1.912819 -2.422167 1.860030
-1.923696 -2.435940 2.347451
-1.935496 -2.450882 2.762887
-1.864431 -2.360894 3.438416
-1.750737 -2.216926 3.735605
-2.360385 -2.453723 0.848281
-2.271775 -2.361609 1.335435
-2.294169 -2.384889 1.823187
-2.323038 -2.414900 2.303689
-2.356008 -2.449173 2.750883
-2.397843 -2.492662 3.229395
-2.368294 -2.461944 2.899739
-2.468131 -2.565729 4.051687
-2.702478 -2.312290 1.410117
-2.742677 -2.346685 2.116812
-2.777168 -2.376196 2.571980
-2.820237 -2.413047 3.045352
-2.794327 -2.390878 2.770423
-2.884366 -2.467917 3.795196
-2.820294 -2.413096 3.743356
-3.224248 -2.213898 1.001482
-3.253880 -2.234244 1.634488
-3.169638 -2.176401 2.467638
-3.051025 -2.094956 2.962276
-3.104236 -2.131493 3.434639
-3.083992 -2.117593 3.922136
-2.973695 -2.041858 4.030385
-2.971448 -1.644709 0.563429
-2.870966 -1.589091 1.413519
-2.900624 -1.605507 1.901162
-2.938434 -1.626435 2.381524
-2.981322 -1.650174 2.828560
-3.035488 -1.680155 3.306873
-3.098088 -1.714804 3.783839
-3.064046 -1.695962 3.532645
-3.032503 -1.678503 4.094448
-2.951952 -1.633917 5.302715
-3.018946 -1.308500 1.556631
-2.891798 -1.253391 1.335878
-2.806652 -1.216486 1.829124
-2.845016 -1.233114 2.314675
-2.859246 -1.239282 2.703934
-2.990390 -0.958584 0.183258
-2.829556 -0.907028 0.573512
-2.821479 -0.904439 1.062182
-2.846577 -0.912484 1.549827
-2.878939 -0.922858 2.010535
-3.015739 -0.966710 3.309161
-3.018419 -0.967569 4.693198
-2.725222 -0.873583 4.547571
-2.894460 -0.602301 0.903925
-2.916768 -0.606943 1.385143
-3.022286 -0.628900 2.667377
-2.855350 -0.594162 3.323530
-2.745608 -0.571326 4.647681
-2.565273 -0.533801 4.337213
-2.935042 -0.316919 0.778610
-2.980725 -0.321851 1.271805
-3.101783 -0.334923 2.504712
-3.043530 -0.328633 2.159526
-2.849783 -0.307712 2.718657
-2.631488 -0.284141 3.728786
-2.492601 -0.269145 3.640154
-3.114451 -0.033537 0.052414
-2.858404 -0.030780 0.960635
-2.861395 -0.030812 1.033469
-2.917466 -0.031416 1.946192
-2.800066 -0.030152 2.323517
-2.712763 -0.029212 3.310753
-2.586946 -0.027857 3.833840
-2.501813 -0.026940 3.428340
-2.504100 -0.026965 3.950075
-2.488060 -0.026792 4.589725
-2.734442 0.269591 1.271654
-2.765401 0.272644 1.770242
-2.602303 0.256564 2.719733
-2.418754 0.238467 3.273582
-2.456768 0.242215 3.721488
-3.077521 0.568945 0.851556
-2.927408 0.541193 1.345609
-2.616267 0.483672 1.866096
-2.369743 0.438097 2.442470
-2.428725 0.449001 2.988092
-2.471431 0.456896 3.508948
-2.469977 0.456627 3.997095
-2.466667 0.456015 4.697243
-2.953806 0.876580 0.892695
-2.880061 0.854696 1.383712
-2.635999 0.782267 2.570212
-2.313527 0.686569 2.476188
-2.329749 0.691383 3.074981
-2.370339 0.703429 3.576554
-2.415390 0.716799 4.044101
-2.456312 0.728943 5.217079
-2.733004 1.111193 0.719242
-2.621815 1.065985 2.374181
-2.426411 0.986537 3.364310
-2.289246 0.930768 3.199754
-2.316399 0.941808 3.764801
-2.655941 1.391806 1.688107
-2.690993 1.410175 2.181478
-2.731129 1.431207 2.634578
-2.627620 1.376965 4.140113
-2.253358 1.180839 3.881804
-2.471834 1.619306 0.864354
-2.490543 1.631562 1.352198
-2.516647 1.648662 1.826331
-2.455829 1.608821 3.280533
-2.297883 1.505350 4.191400
-2.620566 2.149897 -0.038861
-2.412924 1.979549 0.556853
-2.309534 1.894728 1.047912
-2.348973 1.927084 1.533480
-2.347993 1.926280 1.870458
-2.361732 1.937551 2.358879
-2.382892 1.954911 4.221676
-2.254355 1.849460 4.564792
-2.334860 2.313585 1.504596
-2.359876 2.338373 1.985611
-2.389882 2.368106 2.439885
-2.428294 2.406167 2.919146
-2.472910 2.450377 3.390768
-2.363293 2.341759 3.187850
-2.299343 2.278391 3.618928
-2.206059 2.185958 4.210801
-2.052066 2.033368 4.556195
-2.277289 2.761516 0.835606
-2.259307 2.739710 1.313637
-2.279228 2.763866 1.789361
-2.257755 2.737828 2.271544
-2.215830 2.686988 2.826136
-2.229834 2.703970 3.196860
-2.253784 2.733013 3.631946
-2.292822 2.780351 4.156610
-2.349235 2.848759 4.630692
-2.380645 2.886848 5.113564
-2.272672 3.409634 0.609662
-2.172695 3.259641 0.361003
-2.167353 3.251627 0.919126
-2.178818 3.268827 1.343428
-2.204822 3.307841 1.994788
-2.126295 3.190028 2.359617
-2.052699 3.079614 2.962276
-2.130170 3.195842 3.911958
-2.113415 3.170705 3.727578
-2.104944 3.157995 4.504657
-1.954853 2.932819 4.683920
-1.754382 3.258209 0.716128
-1.680636 3.121250 1.197832
-1.694373 3.146762 1.673704
-1.659772 3.082501 2.022649
-1.595474 2.963089 2.191085
-1.631586 3.030154 3.100189
-1.663532 3.089484 3.577761
-1.700040 3.157287 4.053877
-1.740511 3.232449 4.521941
-1.245790 3.056413 1.706188
-1.270239 3.116396 2.191085
-1.286847 3.157142 2.625084
-1.299309 3.187715 3.106652
-1.241985 3.047078 2.901897
-1.204347 2.954738 3.299212
-0.898480 3.003149 0.982496
-0.869802 2.907293 1.474322
-0.878826 2.937455 1.921048
-0.881265 2.945607 2.303946
-0.888877 2.971051 2.791968
-0.550664 2.931949 0.949106
-0.550501 2.931079 1.437849
-0.556475 2.962889 1.905289
-0.564479 3.005503 2.391717
-0.558424 2.973262 4.469326
-0.488861 2.602884 4.352897
-0.302823 3.075862 0.236107
-0.289080 2.936266 0.725839
-0.294652 2.992865 2.117929
-0.279276 2.836687 3.569117
0.020030 2.832116 2.394069
0.018577 2.626631 3.417797
0.017918 2.533456 3.814716
0.018248 2.580239 4.537938
0.322995 3.098011 0.104829
0.308171 2.955834 0.593284
0.307333 2.947795 1.081962
0.317042 3.040918 2.385150
0.304831 2.923790 2.463474
0.282259 2.707296 2.546198
0.261604 2.509184 3.008934
0.253222 2.428782 3.539734
0.258936 2.483587 4.061594
0.253705 2.433417 4.639287
0.588386 2.904182 1.068776
0.586101 2.892907 0.765417
0.569132 2.809150 1.584312
0.520937 2.571266 1.700894
0.505775 2.496426 2.788367
0.477718 2.357944 2.647366
0.481903 2.378599 3.246626
0.490194 2.419522 3.721488
0.918448 2.965970 0.858996
0.880721 2.844139 1.352198
0.850547 2.746697 2.798076
0.734544 2.372084 2.421651
0.710282 2.293734 3.044340
0.720352 2.326255 3.492581
0.737656 2.382136 4.041432
0.740500 2.391319 4.802743
1.210201 2.842786 0.065586
1.166220 2.739476 1.352198
1.160321 2.725618 1.048996
1.195299 2.807782 2.326036
1.081282 2.539953 2.892192
0.963934 2.264302 3.495812
0.977211 2.295489 4.048153
0.979009 2.299712 4.782586
1.499388 2.730278 0.124484
1.430771 2.605331 0.613056
1.451656 2.643361 1.918447
1.390461 2.531930 2.910535
1.256547 2.288081 3.481463
1.185059 2.157907 3.502542
1.207526 2.198818 3.976945
1.228950 2.237829 4.925419
1.732118 2.559765 0.236107
1.653507 2.443591 0.725839
1.695218 2.505233 2.030265
1.679673 2.482260 1.668356
1.633117 2.413459 3.115445
1.525052 2.253758 4.038322
1.536830 2.271164 4.721645
1.430437 2.113934 4.793176
2.018879 2.374236 0.307926
1.928956 2.268486 0.797573
1.958741 2.303513 1.283644
1.956813 2.301245 1.646901
2.020567 2.376222 2.942688
1.997879 2.349540 2.641139
2.082171 2.448669 4.915243
1.768140 2.079363 4.655094
2.353766 2.299738 1.563135
2.379801 2.325175 2.044062
2.410325 2.354999 2.491748
2.387605 2.332800 2.167417
2.341964 2.288207 2.765270
2.269631 2.217534 3.168543
2.186152 2.135972 3.760558
2.102436 2.054177 4.417015
2.053696 2.006556 5.227609
2.773294 2.226595 0.894376
2.698666 2.166679 1.480665
2.622063 2.105177 1.864765
2.655680 2.132167 2.350654
2.653543 2.130451 2.566833
2.713933 2.178937 3.384316
2.757981 2.214301 3.758095
2.728601 2.190713 3.513305
3.273814 2.140421 1.007816
3.141808 2.054116 1.353539
3.020135 1.974566 1.800302
3.049433 1.993721 2.210704
3.087079 2.018334 2.859978
3.211950 2.099974 3.892895
3.281670 2.145558 4.362315
3.619715 1.848966 -0.037756
3.399007 1.736228 1.126650
3.398463 1.735950 1.113929
3.369444 1.721127 3.016577
3.133987 1.600854 3.477426
3.187518 1.628198 4.015332
3.262857 1.666682 4.483535
3.056123 1.203478 0.976362
3.055756 1.203333 1.459060
3.087671 1.215901 1.940142
3.129226 1.232265 2.426917
3.175631 1.250539 2.873859
3.070347 1.209079 2.768894
2.997765 1.180497 3.155467
3.038547 1.196556 3.641230
3.083301 1.214180 4.094024
2.957744 1.164737 4.474667
3.020387 0.861313 0.242160
2.885795 0.822932 0.737505
2.904833 0.828361 1.224450
2.933317 0.836483 1.710897
2.934484 0.836816 2.047875
2.955032 0.842676 2.536152
3.008959 0.858054 3.021278
3.050655 0.869944 4.706271
2.936035 0.535829 0.982043
2.935819 0.535789 1.470787
2.965709 0.541244 1.905289
3.008363 0.549029 2.391717
3.168885 0.578324 3.681386
3.028712 0.552742 4.201993
2.747673 0.501453 3.856110
2.942246 0.248811 0.798398
2.963207 0.250584 1.286301
2.990175 0.252865 1.721022
3.116964 0.263586 3.014730
3.023033 0.255643 4.515351
2.779875 0.235080 4.960934
2.647731 0.223906 5.182962
3.139227 -0.069913 0.143989
2.887252 -0.064301 1.065474
2.889940 -0.064361 1.124993
2.950536 -0.065711 2.049750
2.669387 -0.059449 2.977389
2.498587 -0.055645 3.586406
2.704838 -0.060239 4.922611
2.497656 -0.055625 4.643495
2.729682 -0.323197 1.291609
2.730063 -0.323243 1.705546
2.742668 -0.324735 2.179677
2.688755 -0.318352 3.270781
2.411492 -0.285524 2.849627
2.418077 -0.286303 3.307270
2.499743 -0.295972 3.872273
2.662102 -0.583073 1.319564
2.669099 -0.584605 1.820461
2.475253 -0.542148 1.848758
2.305488 -0.504965 2.447384
2.339157 -0.512339 2.990362
2.365089 -0.518019 3.391496
2.424253 -0.530978 3.967482
2.502047 -0.548017 5.091302
2.576249 -0.832494 1.447526
2.441574 -0.788975 2.494750
2.309259 -0.746218 3.048026
2.342622 -0.756999 3.502542
2.400598 -0.775734 4.064242
2.424143 -0.783342 5.024256
2.498380 -1.112239 1.485981
2.397740 -1.067436 2.576627
2.166589 -0.964531 2.017260
2.162313 -0.962628 2.514951
2.195153 -0.977247 3.057832
2.261471 -1.006771 3.596733
2.324258 -1.034723 4.040049
2.238598 -0.996588 4.659487
2.613685 -1.487048 1.806588
2.506640 -1.426145 1.835764
2.275801 -1.294810 2.516450
2.173007 -1.236325 3.414902
2.173089 -1.236372 3.593126
2.132400 -1.213222 3.441963
2.176617 -1.238379 3.950075
2.252371 -1.281479 5.113012
2.546835 -1.793169 0.098277
2.409672 -1.696596 0.600495
2.464155 -1.734956 1.892131
2.479048 -1.745443 2.381040
2.356761 -1.659343 2.857621
2.146045 -1.510982 2.576627
2.177888 -1.533402 3.127310
2.256540 -1.588779 4.264554
2.110820 -1.486181 3.958294
2.068028 -1.456052 4.804671
2.244221 -1.929766 0.989653
2.263096 -1.945996 1.477375
2.276122 -1.957198 3.735363
2.064629 -1.775338 3.384013
2.237903 -1.924334 4.749624
2.087242 -1.794783 4.368654
2.042652 -2.169143 0.850284
2.040675 -2.167043 1.339020
2.060880 -2.188499 1.793425
2.089059 -2.218423 2.280049
2.080222 -2.209039 3.939285
1.999032 -2.575639 0.996921
2.014348 -2.595372 1.478576
2.035619 -2.622779 1.959630
2.061619 -2.656278 2.420433
1.956537 -2.520886 2.207145
1.925907 -2.481420 2.701137
1.977516 -2.547916 3.181555
2.004102 -2.582170 3.660761
1.930171 -2.486914 4.162922
1.847341 -2.380193 5.052671
1.815155 -2.885776 0.964779
1.773295 -2.819226 1.397576
1.787687 -2.842108 1.799917
1.791490 -2.848154 2.184601
1.828325 -2.906714 2.838532
1.841552 -2.927744 3.038834
1.886995 -2.999990 3.803144
1.929793 -3.068031 4.272090
1.742085 -3.479768 0.297993
1.734310 -3.464237 0.666372
1.748446 -3.492474 1.382890
1.691092 -3.377912 1.716879
1.628317 -3.252519 2.405402
1.655742 -3.307300 2.943099
1.703565 -3.402825 3.695764
1.684465 -3.364674 3.415515
1.735501 -3.466616 4.660242
1.757865 -3.511289 5.139522
1.225211 -3.182840 0.997135
1.172387 -3.045614 1.068549
1.183908 -3.075542 1.634669
1.205375 -3.131310 2.349096
1.223591 -3.178631 2.815616
1.245738 -3.236164 3.293963
1.271348 -3.302694 3.770968
1.300827 -3.379275 4.252851
1.258047 -3.268141 4.154665
1.255396 -3.261253 5.269046
0.856706 -3.195365 0.942846
0.862990 -3.218805 1.430039
0.821027 -3.062290 1.216845
0.838033 -3.125720 2.413537
0.831889 -3.102802 2.165703
0.812294 -3.029719 2.661866
0.827692 -3.087150 3.152208
0.844675 -3.150494 5.020964
0.485568 -2.916065 0.897330
0.493450 -2.963404 1.383712
0.498428 -2.993301 1.837592
0.501238 -3.010173 2.326036
0.513832 -3.085804 2.808729
0.510871 -3.068022 4.237016
0.199550 -2.955305 1.042403
0.201299 -2.981204 1.530069
0.203637 -3.015822 2.003959
0.198893 -2.945569 3.399303
0.188462 -2.791091 4.039362
0.186937 -2.768500 4.625796
-0.092774 -3.113665 0.150690
-0.088833 -2.981397 1.444437
-0.088323 -2.964260 1.121518
-0.085063 -2.854878 2.625964
-0.079058 -2.653315 3.611549
-0.074881 -2.513152 3.515663
-0.075739 -2.541946 4.033341
-0.076252 -2.559164 4.833400
-0.362255 -2.851359 1.298234
-0.346600 -2.728138 1.718848
-0.348082 -2.739802 2.179677
-0.336107 -2.645551 2.950695
-0.322160 -2.535766 3.797478
-0.309445 -2.435686 3.270298
-0.319966 -2.518499 3.848263
-0.332339 -2.615888 4.568951
-0.614041 -2.632520 1.374228
-0.614670 -2.635221 1.802332
-0.576055 -2.469668 1.875598
-0.570409 -2.445463 3.310752
-0.548481 -2.351452 2.946910
-0.557082 -2.388326 3.435231
-0.576427 -2.471262 3.999799
-0.586121 -2.512825 4.933904
-0.832139 -2.430810 1.980924
-0.776213 -2.267440 2.559663
-0.797028 -2.328246 3.119010
-0.819040 -2.392546 3.616366
-0.823646 -2.406000 4.033341
-0.792402 -2.314732 4.639287
-1.032338 -2.255843 2.123483
-1.018584 -2.225787 2.799633
-1.041215 -2.275241 3.243576
-1.010815 -2.208812 2.856366
-1.031213 -2.253385 3.438511
-1.054148 -2.303502 3.972960
-1.061041 -2.318564 4.779765
-1.352144 -2.342190 0.853293
-1.250367 -2.165891 1.338426
-1.247237 -2.160470 2.278107
-1.230035 -2.130672 2.907344
-1.279184 -2.215808 3.646252
-1.237285 -2.143231 3.226661
-1.264086 -2.189656 3.781161
-1.724368 -2.411229 1.095147
-1.740338 -2.433560 1.589341
-1.634148 -2.285071 2.148685
-1.504128 -2.103262 3.110033
-1.525786 -2.133546 3.391055
-1.546415 -2.162392 3.638256
-2.071021 -2.326998 0.163794
-1.984047 -2.229274 1.470787
-1.973257 -2.217150 1.174254
-2.036137 -2.287803 2.437683
-1.899316 -2.134071 2.632587
-1.751568 -1.968060 2.670203
-1.770800 -1.989670 3.127310
-1.815412 -2.039796 3.613918
-2.265700 -2.102294 0.242665
-2.183799 -2.026300 0.837107
-2.195964 -2.037587 1.225718
-2.200107 -2.041431 1.727605
-2.291234 -2.125986 2.995085
-2.241540 -2.079877 2.630733
-2.139940 -1.985604 3.343347
-2.055216 -1.906990 3.922490
-2.424730 -1.846856 1.269175
-2.443096 -1.860845 1.650058
-2.536180 -1.931745 2.174488
-2.588483 -1.971583 2.582960
-2.512136 -1.913431 3.050860
-2.481013 -1.889725 4.424903
-2.302946 -1.754096 4.165998
-2.336259 -1.779470 4.540363
-2.933251 -1.779617 0.879717
-2.819619 -1.710676 1.262525
-2.830938 -1.717543 1.849181
-2.866989 -1.739415 2.329637
-2.906773 -1.763553 2.763831
-2.958587 -1.794989 3.242311
-3.017780 -1.830901 3.713032
-3.002440 -1.821595 3.597093
-3.333795 -1.635384 1.054818
-3.192842 -1.566240 1.403686
-3.225372 -1.582197 1.917818
-3.270960 -1.604560 2.463077
-3.378202 -1.657167 3.415515
-3.444353 -1.689618 3.886540
-3.496969 -1.715428 4.222935
-3.515091 -1.283561 0.344581
-3.527388 -1.288051 1.379049
-3.371200 -1.231018 1.872864
-3.411204 -1.245626 2.347711
-3.454471 -1.261425 2.770423
-3.431986 -1.253214 3.359535
-3.368702 -1.230106 3.750233
-3.398791 -1.241093 4.094545
-3.196075 -0.829474 1.725691
-3.234479 -0.839441 2.206359
-3.278040 -0.850746 2.647266
-3.334428 -0.865380 3.126038
-3.400155 -0.882438 3.603536
-3.475196 -0.901914 4.079567
-3.220780 -0.513617 1.022968
-3.089057 -0.492611 0.805721
-2.986678 -0.476285 1.296796
-3.014990 -0.480800 1.750311
-3.054712 -0.487134 2.235996
-3.103372 -0.494894 2.714226
-3.125917 -0.498489 3.109711
-3.136177 -0.500126 3.548011
-3.008115 -0.479704 4.160308
-2.810058 -0.448119 4.984082
-2.975832 -0.153039 0.856873
-2.973084 -0.152898 1.345609
-3.003133 -0.154443 1.806588
-3.044447 -0.156568 2.293189
-3.107417 -0.159806 4.385593
-2.954950 0.133688 0.943493
-2.980463 0.134842 1.457613
-3.011613 0.136252 1.905289
-2.948334 0.133389 3.392707
-2.772181 0.125419 4.350958
-2.650445 0.119912 4.379610
-2.947216 0.425227 0.797573
-3.000023 0.432846 2.102594
-2.838442 0.409533 2.731896
-2.668720 0.385045 3.374114
-2.590181 0.373713 3.699114
-2.912926 0.711342 1.688107
-2.737034 0.668388 3.148100
-2.374221 0.579789 2.765962
-2.389529 0.583527 3.303953
-2.435176 0.594674 3.805111
