3.292824 -0.246315 0.725839
3.337571 -0.249663 1.219134
3.390034 -0.253587 1.678049
3.404453 -0.254666 2.172658
3.473970 -0.259866 4.496940
3.388028 -0.603884 0.118055
3.247732 -0.578877 0.613690
3.265368 -0.582021 1.114925
3.292794 -0.586909 1.609096
3.207515 -0.571709 3.055977
3.051148 -0.543838 3.727039
3.113210 -0.851121 0.741322
3.133942 -0.856789 1.675250
2.971287 -0.812321 3.240837
2.839698 -0.776346 3.867315
2.963450 -0.810178 4.608488
2.888058 -0.789567 4.319498
3.220891 -1.211315 0.006559
3.085615 -1.160440 0.514724
2.820809 -1.060852 1.886122
2.513610 -0.945320 2.436313
2.567365 -0.965536 2.963368
2.632492 -0.990029 3.495812
2.743315 -1.325157 1.220930
2.629116 -1.269994 1.967523
2.510541 -1.212716 2.698605
2.470965 -1.193599 2.260318
2.480794 -1.198347 2.852491
2.518161 -1.216397 3.381364
2.582227 -1.247344 3.865558
2.511185 -1.213027 4.307080
2.389463 -1.439694 1.078489
2.312083 -1.393071 1.699645
2.338746 -1.409135 2.105055
2.307812 -1.390497 1.625268
2.300571 -1.386134 2.170178
2.360601 -1.422303 2.633875
2.420837 -1.458597 3.226661
2.481779 -1.495315 3.730423
2.538718 -1.529622 4.435243
2.280120 -1.677426 1.785260
2.224907 -1.636807 2.449214
2.259338 -1.662137 3.058430
2.314665 -1.702839 3.569379
2.270277 -1.670184 3.166115
2.330641 -1.714593 3.703593
2.385508 -1.754957 4.421865
2.383390 -2.115802 1.008021
2.103480 -1.867319 1.881298
2.114340 -1.876959 2.062955
2.203894 -1.956459 3.374402
2.070436 -1.837984 2.967137
2.119684 -1.881703 3.472134
2.031229 -2.172374 2.556570
2.006517 -2.145945 2.181870
2.026553 -2.167372 2.726421
2.103748 -2.249932 3.600605
2.109153 -2.255712 3.653852
2.093713 -2.239200 4.293153
2.043591 -2.627785 1.742569
1.968319 -2.530996 2.612720
1.922800 -2.472464 3.776415
1.974057 -2.538374 4.280428
1.970488 -2.533784 4.247323
1.899287 -2.442230 4.721645
1.870327 -2.918728 0.144139
1.807210 -2.820232 0.638757
1.817150 -2.835744 1.138936
1.832439 -2.859604 1.632056
1.834848 -2.863363 2.021598
1.897349 -2.960898 3.296086
1.762378 -2.750270 3.122051
1.702107 -2.656214 3.759312
1.719723 -2.683704 3.964914
1.750450 -2.731656 5.209120
1.676177 -3.251949 0.910350
1.664123 -3.228562 1.400506
1.679768 -3.258915 1.894665
1.699804 -3.297788 2.381524
1.722617 -3.342047 2.835032
1.718770 -3.334582 2.763831
1.773522 -3.440808 3.807123
1.740725 -3.377177 3.507734
1.709768 -3.317118 4.463871
1.601957 -3.107953 5.072863
1.470115 -3.628102 1.513003
1.486512 -3.668568 2.084726
1.504899 -3.713945 2.578384
1.526547 -3.767370 3.058129
1.526861 -3.768144 3.064517
1.543452 -3.809089 4.024193
1.505179 -3.714636 4.167128
1.513798 -3.735907 4.693130
1.283829 -4.251849 -0.119432
1.261855 -4.179077 1.060244
1.259880 -4.172534 1.402183
1.265582 -4.191418 2.009407
1.254867 -4.155932 1.866408
1.267893 -4.199072 2.594173
1.219709 -4.039495 2.677172
1.180917 -3.911020 3.211387
1.237377 -4.098009 4.406630
0.817651 -4.187154 0.069670
0.814335 -4.170172 0.602276
0.810222 -4.149110 1.690518
0.790046 -4.045789 1.948225
0.759995 -3.891903 2.654425
0.738098 -3.779770 3.158183
0.736036 -3.769209 3.264720
0.757203 -3.877603 4.130934
0.369040 -3.734625 0.744711
0.357068 -3.613468 1.380986
0.360336 -3.646541 1.868675
0.364647 -3.690173 2.362068
0.369282 -3.737070 2.796198
0.375393 -3.798920 3.281051
0.382479 -3.870626 3.764531
0.382843 -3.874308 3.942329
0.031430 -3.514896 1.532081
0.032869 -3.675794 2.011591
0.031878 -3.564978 1.883018
0.031064 -3.473933 2.279533
0.031303 -3.500741 2.773115
-0.286973 -3.292044 0.804994
-0.288843 -3.313485 1.299481
-0.303604 -3.482821 4.562393
-0.276509 -3.171997 4.245002
-0.580292 -3.255986 0.884140
-0.594848 -3.337662 2.188050
-0.561434 -3.150178 2.781068
-0.535920 -3.007019 3.420769
-0.557854 -3.130088 4.218485
-0.544614 -3.055801 4.506141
-0.909165 -3.293201 0.111612
-0.846112 -3.064807 3.227677
-0.746873 -2.705341 3.071894
-0.805410 -2.917377 4.499754
-1.113377 -2.954528 2.108872
-1.024218 -2.717931 1.766435
-1.071367 -2.843047 3.110805
-1.070770 -2.841463 3.097467
-1.115144 -2.959216 4.119000
-1.049312 -2.784521 3.745920
-1.007630 -2.673913 4.683808
-1.336622 -2.727850 1.027574
-1.290628 -2.633983 2.128298
-1.287868 -2.628349 2.054620
-1.316485 -2.686752 2.940326
-1.264377 -2.580408 3.002220
-1.239634 -2.529910 3.529459
-1.464395 -2.423579 0.874595
-1.516611 -2.509996 2.121601
-1.474856 -2.440892 2.338588
-1.454132 -2.406594 2.907344
-1.430556 -2.367576 2.728292
-1.447903 -2.396285 3.216438
-1.493650 -2.471997 3.834845
-1.450844 -2.401153 4.401360
-1.801975 -2.423915 0.453841
-1.699292 -2.285791 0.591501
-1.716708 -2.309219 1.337070
-1.728679 -2.325320 1.665846
-1.656049 -2.227623 2.046904
-1.609511 -2.165023 2.558047
-1.644817 -2.212515 3.078069
-1.673044 -2.250484 3.613806
-2.205659 -2.476373 -0.065927
-2.049864 -2.301456 1.412766
-1.903941 -2.137622 1.028205
-1.871127 -2.100781 1.888028
-1.877125 -2.107516 2.002415
-1.865413 -2.094366 2.370243
-1.936716 -2.174421 3.824292
-1.898531 -2.131549 3.435058
-2.426903 -2.245449 0.857759
-2.302344 -2.130204 1.489584
-2.141598 -1.981477 1.940718
-2.158213 -1.996849 2.472140
-2.220746 -2.054707 3.207390
-2.276018 -2.105846 4.348702
-2.612372 -2.021616 0.765417
-2.544886 -1.969390 2.718657
-2.417180 -1.870563 3.250791
-2.410241 -1.865193 3.184144
-2.427530 -1.878573 4.018344
-2.439265 -1.887654 4.255550
-2.965097 -1.886872 1.059943
-2.874210 -1.829035 1.400555
-2.852147 -1.814995 1.765273
-2.760881 -1.756917 3.168289
-2.694466 -1.714653 4.154588
-2.827244 -1.799148 5.110473
-3.328489 -1.711409 0.272020
-3.222229 -1.656774 1.237812
-3.249602 -1.670848 1.732192
-3.286080 -1.689604 2.225828
-3.258319 -1.675330 1.862177
-3.340253 -1.717458 2.579779
-3.463054 -1.780599 3.631946
-3.283321 -1.688186 3.463979
-3.176344 -1.633181 4.690114
-3.021528 -1.553579 4.840347
-3.589904 -1.447016 0.457404
-3.571602 -1.439639 0.677109
-3.533134 -1.424133 1.798828
-3.430981 -1.382957 1.990023
-3.478757 -1.402215 2.757357
-3.535666 -1.425154 3.242311
-3.539787 -1.426815 3.274595
-3.511739 -1.415509 5.112991
-3.584282 -1.071950 -0.019430
-3.473600 -1.038849 1.283372
-3.343822 -1.000036 1.074137
-3.250173 -0.972029 1.572914
-3.285822 -0.982690 2.065443
-3.194386 -0.955344 3.435355
-3.120999 -0.933396 4.511933
-2.939719 -0.879181 4.450754
-2.826217 -0.568476 0.906378
-2.843757 -0.572004 1.712791
-2.925418 -0.588429 2.650155
-2.997285 -0.602885 3.257455
-2.957536 -0.594890 2.937347
-2.985008 -0.600416 3.865086
-2.871280 -0.577540 3.931503
-2.875590 -0.578407 4.940601
-2.868147 -0.280686 0.879534
-2.807771 -0.274777 1.988960
-2.758481 -0.269953 2.543609
-2.842812 -0.278206 3.263731
-2.769010 -0.270984 2.869843
-2.842753 -0.278201 3.448495
-2.922378 -0.285993 3.978384
-2.751534 -0.269274 4.457346
-2.584532 -0.011952 0.958175
-2.614696 -0.012092 1.555556
-2.650032 -0.012255 2.043672
-2.670766 -0.012351 2.540308
-2.709812 -0.012532 3.104519
-2.828940 -0.013083 3.940582
-2.682129 0.229929 0.202892
-2.539504 0.217703 0.619106
-2.533677 0.217203 1.157434
-2.566145 0.219987 1.721784
-2.607638 0.223544 2.244556
-2.692421 0.230812 3.043687
-2.606251 0.223425 3.350843
-2.515400 0.215636 3.773044
-2.498507 0.214188 4.440393
-2.495394 0.448571 0.980514
-2.422424 0.435454 1.503490
-2.331982 0.419196 1.984020
-2.324124 0.417784 2.461227
-2.355205 0.423371 2.984447
-2.314563 0.416065 3.449267
-2.328053 0.418490 4.352676
-2.126535 0.382265 4.487824
-2.251798 0.623927 1.015806
-2.279333 0.631557 1.571159
-2.279217 0.631525 1.929208
-2.164662 0.599784 2.305797
-2.109436 0.584482 3.169779
-2.185802 0.605642 3.748506
-2.313415 0.641000 4.551246
-2.063532 0.571763 4.377257
-2.237298 0.851785 0.376459
-2.132653 0.811945 0.894089
-2.130271 0.811038 1.390242
-2.014857 0.767097 1.813271
-1.953228 0.743634 2.243253
-2.011827 0.765944 2.865953
-2.089967 0.795693 3.703977
-2.188263 0.833117 4.505313
-1.985708 0.756000 4.280442
-2.078705 1.013878 1.044280
-1.938642 0.945563 1.438579
-1.856874 0.905680 1.952175
-1.922336 0.937609 2.496987
-1.977615 0.964572 3.259460
-2.071785 1.010502 3.989079
-1.822379 1.114141 1.003132
-1.745002 1.066835 1.660841
-1.777511 1.086710 2.167046
-1.841694 1.125949 2.690498
-1.903171 1.163534 3.486926
-1.869951 1.143225 3.569672
-1.693191 1.255807 1.844531
-1.662074 1.232728 1.645347
-1.689627 1.253163 2.109539
-1.752783 1.300005 2.904559
-1.823419 1.352395 3.762262
-1.792031 1.329115 3.838539
-1.735401 1.287113 4.487824
-1.645291 1.483758 1.110463
-1.558827 1.405784 2.054147
-1.591381 1.435142 2.538466
-1.591349 1.435112 2.273420
-1.642675 1.481399 3.152884
-1.695146 1.528718 3.844777
-1.624299 1.755905 0.205347
-1.664392 1.799246 0.703534
-1.614166 1.744951 1.343645
-1.554193 1.680119 1.914332
-1.596968 1.726360 2.614536
-1.611833 1.742429 3.425321
-1.576198 1.703906 3.930265
-1.590363 1.719220 4.215572
-1.465953 1.584730 4.331559
-1.446136 1.896854 0.979556
-1.479897 1.941137 1.937130
-1.422228 1.865495 2.296702
-1.428051 1.873133 2.399542
-1.444495 1.894702 2.895450
-1.512104 1.983383 3.903266
-1.459071 2.320825 0.107992
-1.370255 2.179553 0.645666
-1.382866 2.199612 1.263744
-1.380454 2.195774 1.966306
-1.329594 2.114876 2.571757
-1.295360 2.060423 2.903390
-1.293445 2.057377 3.084035
-1.350913 2.148787 3.861531
-1.324810 2.625946 0.060255
-1.286349 2.549711 1.398895
-1.295759 2.568363 1.727954
-1.283682 2.544426 1.702826
-1.321373 2.619133 2.872630
-1.249066 2.475811 2.557091
-1.183665 2.346179 3.052827
-1.235042 2.448014 4.329168
-1.101715 2.781413 0.160351
-1.062383 2.682116 0.960063
-1.095401 2.765474 2.023710
-1.096816 2.769047 1.747691
-1.098192 2.772519 2.386938
-1.138456 2.874170 3.503826
-1.101220 2.780164 3.130478
-1.085598 2.740725 3.729618
-1.097988 2.772004 4.667143
-0.905221 3.120634 0.628180
-0.902108 3.109902 1.032405
-0.900549 3.104529 1.417330
-0.922901 3.181585 2.427976
-0.919960 3.171444 2.569042
-0.916957 3.161093 2.917777
-0.951657 3.280717 3.968084
-0.922194 3.179147 3.782580
-0.574142 2.961476 0.153513
-0.554400 2.859645 1.516726
-0.566129 2.920146 2.023710
-0.569668 2.938399 2.237579
-0.576310 2.972660 2.591415
-0.573497 2.958152 2.687522
-0.586223 3.023792 3.423960
-0.604243 3.116740 4.041901
-0.278999 2.815780 0.814069
-0.281009 2.836065 1.291390
-0.285758 2.883997 2.009761
-0.291212 2.939035 2.599316
-0.292719 2.954248 2.739796
-0.305926 3.087535 3.910495
-0.298447 3.012053 4.066497
-0.296652 2.993941 5.301698
-0.017296 2.577703 0.761172
-0.017445 2.599882 1.297686
-0.017632 2.627745 1.752241
-0.017919 2.670638 2.280678
-0.018329 2.731727 2.868860
-0.018577 2.768700 3.543281
-0.018860 2.810849 4.706609
-0.017343 2.584659 4.300687
0.221353 2.526250 0.994125
0.223477 2.550486 1.483896
0.227212 2.593109 2.081710
0.233040 2.659624 2.766338
0.240541 2.745236 3.627794
0.232148 2.649445 3.828872
0.474858 2.624352 0.203097
0.449825 2.486006 0.715044
0.453358 2.505534 1.225465
0.459962 2.542029 1.830482
0.467935 2.586095 2.613212
0.466199 2.576501 3.550997
0.438304 2.422336 3.329918
0.461051 2.548047 4.327853
0.444946 2.459041 4.533398
0.623555 2.231146 1.133536
0.624497 2.234519 1.649794
0.634365 2.269826 2.136821
0.638174 2.283454 2.557152
0.614125 2.197405 2.893157
0.610971 2.186121 3.586708
0.896911 2.356741 0.524399
0.855931 2.249060 0.875977
0.859480 2.258386 1.588553
0.857306 2.252675 1.863829
0.788104 2.070838 2.246043
0.768309 2.018825 2.704314
0.792404 2.082135 3.466259
0.829623 2.179934 4.308925
0.801170 2.105171 4.713315
1.020642 2.077334 1.085477
0.962335 1.958659 1.444064
0.912461 1.857149 1.993774
0.928353 1.889494 2.661166
0.976654 1.987803 3.369781
1.027847 2.091998 3.992030
1.175165 1.931780 1.005071
1.133577 1.863416 1.423358
1.088359 1.789085 1.991820
1.123806 1.847355 2.480722
1.163942 1.913331 3.366477
1.205233 1.981207 3.916536
1.432476 1.915290 0.171123
1.302985 1.742154 1.319813
1.220462 1.631816 1.048735
1.227470 1.641186 1.723289
1.253612 1.676139 2.277887
1.281112 1.712909 2.965576
1.326941 1.774184 3.559286
1.387931 1.855731 4.219705
1.342952 1.795592 4.658242
1.548143 1.726297 1.629200
1.552300 1.730933 2.056594
1.408799 1.570918 1.872218
1.440099 1.605821 2.425457
1.472845 1.642335 3.104622
1.525424 1.700964 3.689848
1.856275 1.707889 1.677570
1.752915 1.612792 1.432671
1.687813 1.552894 1.976182
1.728049 1.589914 2.580255
1.680218 1.545906 2.906906
1.671874 1.538229 3.600463
2.037639 1.565967 1.197054
2.026952 1.557753 1.805116
1.962176 1.507972 2.333091
1.855571 1.426043 2.234979
1.879876 1.444723 2.792717
1.944824 1.494637 4.119817
1.811571 1.392229 3.858526
1.777535 1.366071 4.516060
2.260408 1.414723 0.155708
2.140099 1.339425 0.653769
2.162161 1.353232 1.313892
2.194973 1.373769 1.911983
2.224742 1.392400 2.579307
2.143257 1.341401 2.851038
2.120397 1.327094 3.616374
2.124596 1.329722 3.650445
2.282076 1.428284 5.010199
2.496557 1.270539 0.707171
2.393696 1.218192 1.489999
2.417922 1.230521 1.888900
2.376307 1.209342 1.579516
2.363803 1.202979 2.070768
2.415111 1.229090 2.672962
2.457341 1.250582 3.276865
2.508918 1.276830 4.011835
2.737449 1.077874 0.207542
2.657558 1.046417 0.860273
2.680475 1.055441 1.397477
2.714782 1.068949 1.940718
2.726027 1.073377 2.088113
2.804676 1.104345 3.120635
2.804676 1.104345 3.120635
2.891903 1.138691 3.943746
3.033846 0.867768 0.836530
3.052446 0.873088 1.281012
3.010608 0.861121 1.783529
3.011650 0.861419 2.627385
3.119575 0.892289 3.515569
3.116818 0.891500 3.495731
3.115322 0.891072 3.820627
3.245518 0.928312 4.858425
3.779075 0.721543 0.541714
3.810702 0.727581 1.347224
3.843108 0.733769 1.836268
3.884841 0.741737 2.318105
3.891136 0.742939 2.382281
3.896505 0.743964 3.266874
3.845722 0.734268 3.767023
3.893017 0.743298 4.201531
3.760624 0.355609 0.730993
3.606785 0.341062 1.231303
3.636825 0.343902 1.719190
3.676793 0.347682 2.206359
3.721598 0.351918 2.647266
3.575040 0.338060 2.446128
3.506309 0.331560 2.949681
3.532901 0.334075 3.344923
3.590867 0.339556 3.896484
3.557028 0.336356 4.696637
3.491434 0.012991 0.124354
3.349047 0.012462 0.619006
3.367061 0.012529 1.119200
3.363651 0.012516 1.515329
3.372056 0.012547 1.977650
3.418221 0.012719 2.477076
3.398892 0.012647 4.018148
3.113820 0.011586 4.559334
3.288074 -0.298902 0.712646
3.307627 -0.300679 1.207212
3.334510 -0.303123 1.661772
3.379524 -0.307215 3.985294
3.098128 -0.281635 3.636853
3.407536 -0.634903 -0.045863
3.239665 -0.603625 0.455340
3.253795 -0.606257 0.950088
3.279433 -0.611034 1.470787
3.386917 -0.631061 2.726403
3.243350 -0.604311 2.769693
3.063167 -0.570739 3.670093
2.953263 -0.550261 3.598194
3.076813 -0.573282 4.508242
2.981720 -0.555563 5.296407
3.216184 -0.905425 1.100602
2.953238 -0.831400 2.492921
2.802714 -0.789024 3.982382
2.745988 -0.773055 3.599845
2.824857 -1.081893 1.697434
2.632827 -1.008347 3.172843
2.567068 -0.983162 2.798519
2.601368 -0.996299 3.300533
2.664406 -1.020441 3.771520
2.695112 -1.032202 4.831514
2.408295 -1.188392 1.856978
2.398356 -1.183487 2.321287
2.449063 -1.208509 2.862108
2.508677 -1.237926 3.388098
2.575447 -1.270874 3.892415
2.640389 -1.302920 5.119706
2.409516 -1.486506 1.791985
2.338104 -1.442450 2.294060
2.410393 -1.487047 3.075532
2.347983 -1.448545 2.660856
2.357230 -1.454250 3.179221
2.420400 -1.493221 3.711038
2.536418 -1.564796 4.660459
2.268553 -1.698790 0.941840
2.245837 -1.681779 1.787065
2.202014 -1.648962 2.586652
2.178596 -1.631426 2.289613
2.220225 -1.662600 2.795709
2.365637 -1.771490 4.243569
2.316055 -1.734362 3.868389
2.234174 -1.673045 4.320553
2.166201 -1.960952 1.994325
2.144127 -1.940970 1.585355
2.146173 -1.942822 2.754832
2.141215 -1.938334 2.694455
2.154216 -1.950103 3.059545
2.131775 -1.929788 3.582805
2.020880 -2.196516 2.656838
2.060558 -2.239642 3.150811
2.107651 -2.290827 3.650150
2.086078 -2.267380 3.430617
2.130616 -2.315789 4.026085
2.146524 -2.333079 4.851506
2.034330 -2.675836 0.987608
2.072811 -2.726450 2.290820
1.960038 -2.578116 2.897308
1.928822 -2.537057 4.114826
1.906364 -2.507517 3.889303
1.910323 -2.512723 4.909498
1.916012 -3.053698 0.814556
1.914634 -3.051502 1.317289
1.942831 -3.096440 2.065701
1.898670 -3.026058 2.257039
1.842314 -2.936240 2.690830
1.766089 -2.814753 3.168395
1.680733 -2.678716 3.642746
1.704983 -3.400549 0.781902
1.649829 -3.290548 1.378097
1.661364 -3.313553 1.767487
1.651723 -3.294325 1.814788
1.671962 -3.334692 2.576001
1.706226 -3.403030 3.203562
1.737812 -3.466027 3.687275
1.755987 -3.502277 3.938209
1.451769 -3.680409 0.847556
1.488272 -3.772948 0.831175
1.550747 -3.931331 1.276532
1.504819 -3.814898 1.674064
1.456547 -3.692522 2.206632
1.477084 -3.744585 2.738429
1.528359 -3.874574 3.746663
1.529110 -3.876478 3.759384
1.193569 -4.145404 1.487386
1.203475 -4.179809 1.967400
1.198703 -4.163236 1.752749
1.210370 -4.203757 2.487031
1.193132 -4.143886 3.386601
1.159056 -4.025537 3.892895
1.139291 -3.956889 4.068820
0.738330 -3.805111 1.683686
0.702066 -3.618221 1.821280
0.705732 -3.637111 2.329637
0.719826 -3.709751 2.990291
0.736472 -3.795538 3.616422
0.751502 -3.872997 4.098832
0.362966 -3.762899 0.821524
0.350676 -3.635478 1.314536
0.353736 -3.667202 1.801804
0.355423 -3.684690 2.297201
0.359977 -3.731906 2.744408
0.365843 -3.792717 3.229395
0.355075 -3.681086 3.145606
0.337549 -3.499389 4.531573
-0.004922 -3.466937 0.196552
-0.004757 -3.351033 0.691424
-0.004785 -3.370222 1.184984
-0.004826 -3.399502 1.678049
-0.004879 -3.436507 2.144173
-0.004902 -3.452733 2.566312
-0.292633 -3.292215 0.824781
-0.294574 -3.314056 1.319251
-0.293091 -3.297371 3.445469
-0.282668 -3.180102 4.147962
-0.277584 -3.122915 3.796343
-0.284175 -3.197060 4.527707
-0.538375 -2.873810 1.267366
-0.549329 -2.932278 2.643471
-0.558233 -2.979810 3.254088
-0.576074 -3.075042 4.501598
-0.779683 -2.770514 2.600504
-0.803075 -2.853634 3.317496
-0.797803 -2.834900 3.170288
-0.788674 -2.802462 3.297387
-0.822728 -2.923471 4.691139
-0.805010 -2.860511 5.127976
-1.051657 -2.720043 0.080421
-1.037519 -2.683475 1.330358
-1.062300 -2.747569 1.978915
-1.045214 -2.703379 1.679260
-1.047532 -2.709373 2.090230
-1.067646 -2.761398 2.666222
-1.077749 -2.787528 3.491315
-1.085704 -2.808102 3.808918
-1.263538 -2.559927 0.819963
-1.261093 -2.554972 1.277950
-1.258922 -2.550574 2.257944
-1.250962 -2.534448 3.028453
-1.326604 -2.687697 3.551442
-1.298739 -2.631243 3.280670
-1.251417 -2.535369 3.768577
-1.245462 -2.523304 4.587572
-1.508247 -2.451294 2.600504
-1.436430 -2.334573 2.226573
-1.455956 -2.366307 2.836149
-1.464055 -2.379471 3.361159
-1.483818 -2.411591 3.795478
-1.466807 -2.383944 4.506791
-1.707052 -2.276429 0.457086
-1.649927 -2.200249 0.668121
-1.670989 -2.228336 1.477265
-1.667044 -2.223076 2.611011
-1.683137 -2.244537 2.853495
-1.733025 -2.311064 3.498712
-1.702182 -2.269933 3.115876
-1.735860 -2.314845 3.703593
-2.036767 -2.249025 0.940876
-1.936117 -2.137886 1.457876
-1.921932 -2.122223 1.041638
-1.926130 -2.126858 1.620537
-1.953006 -2.156535 2.143864
-1.926363 -2.127116 2.519945
-1.988352 -2.195564 3.981075
-2.029943 -2.241490 4.486410
-2.304567 -2.105921 1.223835
-2.319358 -2.119437 2.217295
-2.225232 -2.033424 2.917323
-2.208218 -2.017876 2.716977
-2.251352 -2.057293 3.387445
-2.352584 -2.149799 4.676136
-2.205255 -2.015169 4.424112
-2.628031 -2.002619 0.791802
-2.532831 -1.930075 2.400697
-2.409220 -1.835880 3.037437
-2.480727 -1.890370 3.690034
-2.494542 -1.900897 3.802985
-2.507439 -1.910725 4.209485
-3.177970 -1.974868 0.148966
-3.036192 -1.886763 0.639328
-3.047558 -1.893826 1.024039
-3.069944 -1.907737 1.519193
-3.011345 -1.871323 1.950289
-2.915468 -1.811743 2.369564
-3.031186 -1.883652 3.655293
-2.854385 -1.773784 3.781433
-2.820839 -1.752938 4.711855
-2.886227 -1.793572 5.210470
-3.378338 -1.705498 0.931439
-3.302644 -1.667285 0.635988
-3.337396 -1.684830 1.856333
-3.292445 -1.662137 1.853738
-3.351630 -1.692015 2.789725
-3.330705 -1.681451 2.582481
-3.456537 -1.744976 3.813564
-3.416231 -1.724628 3.688536
-3.276009 -1.653839 4.120012
-3.021017 -1.525110 4.508777
-3.430009 -1.338000 1.391083
-3.465022 -1.351658 1.929600
-3.457631 -1.348775 2.394495
-3.507888 -1.368379 2.880329
-3.497096 -1.364170 2.783252
-3.613128 -1.409432 3.852205
-3.230849 -0.916168 0.908638
-3.224243 -0.914294 1.304722
-3.227524 -0.915225 1.753935
-3.227229 -0.915141 3.741945
-3.170310 -0.899001 4.710040
-3.138085 -0.889863 4.668573
-2.964216 -0.559827 0.153513
-2.806538 -0.530048 0.860273
-2.847604 -0.537804 1.672553
-2.916985 -0.550907 2.503076
-2.880532 -0.544023 2.108206
-2.910610 -0.549703 2.679601
-3.008704 -0.568229 3.971717
-2.830381 -0.534551 3.616366
-3.003485 -0.276055 0.020024
-2.809875 -0.258260 0.524827
-2.829793 -0.260091 1.123365
-2.845688 -0.261551 2.399055
-2.682579 -0.246560 1.965195
-2.688518 -0.247106 2.578330
-2.744520 -0.252253 3.071323
-2.791488 -0.256570 3.607073
-2.581792 -0.005610 0.883456
-2.578231 -0.005602 1.360137
-2.590471 -0.005629 1.925565
-2.635060 -0.005725 2.434422
-2.701460 -0.005870 3.036927
-2.775902 -0.006031 3.762650
-2.665970 -0.005793 4.029136
-2.519372 -0.005474 4.910581
-2.680085 0.249429 0.162314
-2.514009 0.233973 0.660578
-2.533623 0.235798 1.191451
-2.563080 0.238539 1.701400
-2.621098 0.243939 2.407306
-2.521243 0.234646 3.653637
-2.402699 0.223613 4.619653
-2.695256 0.499546 0.033748
-2.479992 0.459648 0.551636
-2.496220 0.462656 1.062176
-2.538583 0.470508 1.810104
-2.519963 0.467057 3.690810
-2.264622 0.419731 3.813534
-2.373202 0.676356 0.279799
-2.191704 0.624629 0.804712
-2.212603 0.630585 1.320174
-2.243635 0.639430 1.835084
-2.257183 0.643291 2.310416
-2.178700 0.620923 2.748739
-2.137987 0.609320 3.431808
-2.249008 0.640961 4.194996
-2.266134 0.645842 4.587590
-2.114734 0.812558 1.108269
-2.012342 0.773216 1.417853
-1.956317 0.751689 2.012597
-1.981035 0.761186 2.582470
-2.019309 0.775892 3.165979
-2.122596 0.815579 3.951733
-1.917668 0.953910 1.141408
-1.814315 0.902499 1.752757
-1.864987 0.927705 2.439534
-1.903074 0.946650 2.848011
-2.007726 0.998708 3.745295
-1.983758 0.986785 3.735179
-1.997317 0.993530 4.867236
-1.775662 1.091792 1.484405
-1.766417 1.086107 2.049232
-1.782493 1.095991 2.536522
-1.870288 1.149973 3.414479
-1.966254 1.208980 4.164775
-1.680172 1.265789 1.782226
-1.672710 1.260168 1.643732
-1.790491 1.348901 2.521616
-1.821078 1.371944 2.879407
-1.828220 1.377325 3.886019
-1.771272 1.334422 3.748964
-1.682329 1.267414 4.169720
-1.672608 1.517253 0.929382
-1.632684 1.481037 1.789015
-1.647420 1.494405 2.050958
-1.641576 1.489103 2.252936
-1.630191 1.478776 3.063245
-1.662177 1.507791 3.583343
-1.675590 1.519959 4.038187
-1.534793 1.392238 4.417749
-1.644389 1.794893 1.470824
-1.539289 1.680174 1.376491
-1.545028 1.686438 1.893713
-1.596500 1.742622 2.724202
-1.547752 1.689412 2.975639
-1.524659 1.664205 3.672825
-1.531442 2.016024 1.424126
-1.470050 1.935206 1.793640
-1.425182 1.876140 2.406397
-1.466985 1.931171 3.043025
-1.478828 1.946762 3.200185
-1.517211 1.997290 3.831293
-1.473258 2.361519 0.923535
-1.403458 2.249634 0.718239
-1.389000 2.226459 1.282822
-1.374257 2.202829 1.658965
-1.336216 2.141850 2.328448
-1.287304 2.063450 2.661454
-1.354314 2.170860 3.830513
-1.374267 2.202843 4.068310
-1.280579 2.564894 0.181315
-1.277419 2.558563 1.466072
-1.286716 2.577185 1.781650
-1.289835 2.583431 1.875598
-1.320525 2.644902 3.060061
-1.253549 2.510753 2.860227
-1.240211 2.484038 3.418458
-1.285593 2.574936 4.236216
-1.237907 2.479424 4.351828
-1.089530 2.850635 1.722363
-1.110275 2.904912 1.831900
-1.143207 2.991074 2.800940
-1.102133 2.883609 2.672682
-1.090557 2.853321 2.831452
-1.101998 2.883255 3.470553
-1.153364 3.017647 4.503278
-1.118133 2.925471 5.039020
-0.867871 3.037587 0.936070
-0.896185 3.136688 2.159711
-0.888635 3.110260 2.643122
-0.861325 3.014673 2.653955
-0.889946 3.114851 3.651482
-0.868598 3.040131 3.284053
-0.879852 3.079519 4.057674
-0.850541 2.976931 4.322093
-0.519407 2.837132 1.457876
-0.519696 2.838711 1.484717
-0.522198 2.852377 1.699379
-0.537496 2.935939 2.656838
-0.558272 3.049421 3.563702
-0.572315 3.126131 4.061793
-0.265580 2.828368 1.103198
-0.262578 2.796394 1.827454
-0.258730 2.755409 2.503158
-0.264347 2.815236 2.347676
-0.269537 2.870506 2.871728
-0.264105 2.812658 3.404881
-0.268201 2.856280 4.182509
-0.260756 2.776995 4.857519
0.008140 2.716492 0.135126
0.007716 2.574845 0.659255
0.007773 2.593858 1.175486
0.007852 2.620383 1.643738
0.007867 2.625133 2.045722
0.007987 2.665309 2.725720
0.008237 2.748862 3.580568
0.007939 2.649235 3.761140
0.234539 2.525885 1.014541
0.236979 2.552158 1.531485
0.240616 2.591330 2.074922
0.244544 2.633639 2.769107
0.241548 2.601371 3.510294
0.228531 2.461185 3.404986
0.456274 2.501921 0.319782
0.453900 2.488907 0.830773
0.457951 2.511119 1.347898
0.446033 2.445766 1.871909
0.461965 2.533126 3.031743
0.447111 2.451680 2.751637
0.447956 2.456312 3.756333
0.432830 2.373372 3.866970
0.410816 2.252662 4.500385
0.666496 2.350096 0.286909
0.628989 2.217844 0.845126
0.628331 2.215524 1.361390
0.636673 2.244940 1.841945
0.605221 2.134038 2.273613
0.604471 2.131392 3.180457
0.608078 2.144112 3.283824
0.636258 2.243475 3.998891
0.596128 2.101978 4.185170
0.816144 2.135483 1.004076
0.825505 2.159977 1.526217
0.782042 2.046254 1.942606
0.752268 1.968350 2.430222
0.774225 2.025802 3.004109
0.796208 2.083320 3.662649
0.795762 2.082154 3.824762
0.781718 2.045405 4.918102
0.958365 1.927426 0.760331
1.040856 2.093329 2.207542
1.032706 2.076937 1.987957
0.946453 1.903468 2.617059
0.969785 1.950394 3.283366
1.012393 2.036085 3.951733
0.995224 2.001555 3.866091
0.920868 1.852012 4.539939
1.139373 1.827519 0.794881
1.085504 1.741115 1.347134
1.107333 1.776128 1.977967
1.126176 1.806351 2.644727
1.154286 1.851439 3.310976
1.197922 1.921430 3.889829
1.566232 2.084409 0.896142
1.411647 1.878682 0.665206
1.318013 1.754069 1.637274
1.244718 1.656525 1.686941
1.243518 1.654928 2.300918
1.274981 1.696800 2.820340
1.327420 1.766588 3.517925
1.392763 1.853549 4.226570
1.324572 1.762798 4.451521
1.709867 1.866047 1.800115
1.745236 1.904646 2.418918
1.613471 1.760845 2.479328
1.498476 1.635347 3.201135
1.477619 1.612585 3.155978
1.534016 1.674133 3.931101
1.975804 1.802231 0.636307
1.882688 1.717296 1.266280
1.876491 1.711643 1.560237
1.923599 1.754613 2.368997
1.813575 1.654254 2.107868
1.759578 1.605001 2.659887
1.717180 1.566328 3.041351
1.694770 1.545886 3.751702
2.034822 1.531156 1.232268
2.050789 1.543170 1.585866
2.073348 1.560145 2.273962
2.050505 1.542957 2.235456
2.083394 1.567705 3.649560
1.975810 1.486751 3.411809
1.913610 1.439946 3.750664
1.801866 1.355862 4.300941
2.331246 1.442091 0.067495
2.166256 1.340029 0.551084
2.204057 1.363413 1.127956
2.230800 1.379956 1.684431
2.257108 1.396230 2.371033
2.291156 1.417291 2.976075
2.352091 1.454986 3.695235
2.278061 1.409191 3.950717
2.558350 1.264833 1.365302
2.592651 1.281791 1.935978
2.561122 1.266203 2.392337
2.556583 1.263959 3.230138
2.499029 1.235505 2.917006
2.483062 1.227611 3.371272
2.562019 1.266647 4.267330
2.420172 1.196518 4.378354
2.751761 1.075257 1.762852
2.754937 1.076498 1.809688
2.711287 1.059441 1.853588
2.753187 1.075814 2.375980
2.913496 1.138455 3.749841
2.872344 1.122375 3.450586
2.920850 1.141328 3.959681
2.793106 1.091412 4.346218
3.450103 0.978397 0.978407
3.474550 0.985329 1.473611
3.508350 0.994914 1.961679
3.493678 0.990754 1.766539
3.410667 0.967213 2.933568
3.229138 0.915734 2.829834
3.301193 0.936168 3.582342
3.319361 0.941320 3.706958
3.753598 0.704838 0.380908
3.644779 0.684404 0.908441
3.693003 0.693460 1.776727
3.709743 0.696603 2.270590
3.650130 0.685409 2.158666
3.718870 0.698317 3.029086
3.810684 0.715557 3.687275
3.769784 0.707878 3.410122
3.592975 0.329570 0.899232
3.616264 0.331706 1.387493
3.511023 0.322053 1.288742
3.410586 0.312840 1.682875
3.422144 0.313900 2.144173
3.470823 0.318365 2.635682
3.492268 0.320332 3.031239
3.665494 0.336222 4.325715
3.463638 0.317706 4.328726
3.280912 0.300945 5.205217
3.330631 0.003814 0.837107
3.328207 0.003812 1.339020
3.357679 0.003845 1.793425
3.399406 0.003893 2.286619
3.389123 0.003881 3.959005
3.327981 0.003811 4.874889
3.426544 -0.317349 0.059028
3.283585 -0.304109 0.560909
3.300046 -0.305633 1.055589
3.326578 -0.308091 1.549827
3.360964 -0.311275 2.017112
3.300022 -0.305631 3.471844
3.252284 -0.604707 0.903925
3.277329 -0.609363 1.431261
3.187921 -0.592740 2.930375
3.018785 -0.561292 3.534021
3.091595 -0.574829 4.450587
2.826843 -0.525603 4.506751
3.102411 -0.883323 0.681768
3.024639 -0.861180 1.182746
2.917759 -0.830749 2.644779
2.760248 -0.785902 3.364475
2.704132 -0.769925 3.112280
2.721787 -0.774951 3.616910
3.221785 -1.242196 0.754118
2.884761 -1.112253 1.572492
2.575532 -0.993026 1.851379
2.502618 -0.964913 2.402487
2.553305 -0.984456 2.909368
2.617143 -1.009070 3.441963
2.687642 -1.036251 3.946117
2.639673 -1.017756 4.668303
2.612794 -1.303245 1.967523
2.390333 -1.192283 1.653978
2.380147 -1.187202 2.158814
2.425608 -1.209878 2.679720
2.484771 -1.239388 3.233147
2.554070 -1.273954 3.778239
2.635886 -1.314763 4.611590
2.290423 -1.413965 1.584692
2.305653 -1.423367 2.154483
2.274892 -1.404377 1.687820
2.288002 -1.412470 2.203999
2.314712 -1.428959 2.767555
2.384597 -1.472102 3.236637
2.451432 -1.513362 3.787872
2.407931 -1.486507 4.535933
2.234055 -1.691044 1.733206
2.210997 -1.673591 2.788968
2.240841 -1.696180 3.297223
2.199205 -1.664665 2.879472
2.234238 -1.691183 3.421766
2.292449 -1.735245 3.912556
2.283669 -1.728599 4.849764
2.157572 -1.955578 1.866994
2.139481 -1.939180 1.511556
2.151880 -1.950418 2.083525
2.187262 -1.982489 2.585932
2.248246 -2.037763 3.274098
2.297589 -2.082486 4.204704
2.327511 -2.556016 0.872105
2.220777 -2.438802 0.593898
2.264712 -2.487051 1.872392
2.293892 -2.519096 2.365447
2.155879 -2.367534 2.572980
2.062660 -2.265162 3.304092
2.123643 -2.332132 3.915853
2.105361 -2.312056 3.743197
2.016315 -2.657814 0.982043
2.035799 -2.683498 1.587699
2.043418 -2.693541 3.583130
1.877119 -2.474333 3.427138
1.922832 -2.534589 4.081683
1.878992 -2.476801 4.532740
1.967915 -3.169092 0.823256
1.913577 -3.081587 1.315912
1.930668 -3.109109 1.810189
1.920115 -3.092115 1.524110
1.927214 -3.103548 2.039699
1.927842 -3.104559 2.794897
1.881488 -3.029911 3.103279
1.890492 -3.044412 3.586333
1.837885 -2.959693 4.071294
1.762933 -2.838993 4.687316
1.732714 -3.470256 0.772988
1.734050 -3.472932 1.385856
1.759428 -3.523759 2.144745
1.736507 -3.477853 2.630652
1.734321 -3.473474 3.383674
1.748977 -3.502828 3.767023
1.723650 -3.452104 3.564872
1.570236 -4.041655 1.441585
1.558605 -4.011717 1.323013
1.504398 -3.872193 2.028895
1.448045 -3.727145 2.249147
1.505218 -3.874302 3.357386
1.502912 -3.868368 3.312835
1.562009 -4.020478 4.308845
1.182526 -4.137265 0.740112
1.181807 -4.134749 1.259775
1.189864 -4.162937 3.332464
1.128866 -3.949528 3.860623
1.093149 -3.824564 4.139438
0.678199 -3.596490 1.444536
0.682170 -3.617549 1.762847
0.690358 -3.660969 2.530638
0.697595 -3.699350 2.873859
0.709406 -3.761984 3.358505
0.723246 -3.835375 3.848180
0.693010 -3.675032 3.615906
0.339386 -3.620642 1.472071
0.342712 -3.656117 1.966125
0.346867 -3.700448 2.446368
0.344014 -3.670014 2.128469
0.343115 -3.660420 2.976827
0.334636 -3.569960 3.246760
0.007204 -3.336352 0.988631
0.007246 -3.356139 1.390294
0.007259 -3.362148 1.852652
0.007353 -3.405725 2.352311
0.007447 -3.448855 4.306938
0.007334 -3.396663 5.320937
-0.307203 -3.317605 0.870050
-0.309310 -3.340354 1.363966
-0.306635 -3.311469 3.550945
-0.282556 -3.051428 3.310753
-0.294372 -3.179040 4.147962
-0.290643 -3.138761 4.627771
-0.651326 -3.392266 0.793449
-0.626292 -3.261885 0.507601
-0.637822 -3.321935 1.791573
-0.595510 -3.101564 2.389883
-0.539107 -2.807800 2.881343
-0.564999 -2.942653 4.332859
-0.552048 -2.875200 3.924804
-0.551099 -2.870257 5.138211
-0.900344 -3.185798 0.969871
-0.841343 -2.977026 1.158559
-0.794651 -2.811812 1.994325
-0.796155 -2.817134 2.061319
-0.798504 -2.825446 2.161782
-0.801635 -2.836523 3.190368
-0.789016 -2.791873 3.585910
-0.782822 -2.769955 3.602943
-1.045934 -2.657748 0.860273
-1.074785 -2.731060 2.148389
-1.087597 -2.763614 2.516450
-1.067822 -2.713367 3.139984
-1.026894 -2.609367 3.250102
-1.086270 -2.760242 4.159074
-1.058441 -2.689529 3.848263
-1.024737 -2.603887 4.360962
-1.348064 -2.670722 0.160351
-1.285698 -2.547166 0.772931
-1.291343 -2.558350 1.102081
-1.303232 -2.581904 1.585355
-1.302793 -2.581035 2.721291
-1.305495 -2.586387 2.774953
-1.369642 -2.713472 3.831749
-1.320438 -2.615991 3.780266
-1.519571 -2.428337 1.075218
-1.527355 -2.440777 1.370631
-1.535661 -2.454049 2.754832
-1.448520 -2.314794 2.384163
-1.450789 -2.318420 2.895866
-1.484461 -2.372229 3.394832
-1.524595 -2.436366 3.905842
-1.458268 -2.330372 4.369658
-1.737252 -2.280804 0.214891
-1.713739 -2.249935 0.773715
-1.696341 -2.227094 1.699539
-1.659450 -2.178660 2.199573
-1.709109 -2.243856 2.981364
-1.657946 -2.176685 2.683783
-1.696990 -2.227946 3.223171
-1.745650 -2.291831 3.787872
-1.809778 -2.376022 4.825612
-2.058384 -2.241497 0.320041
-1.949811 -2.123265 1.431033
-1.967876 -2.142937 1.833478
-1.956209 -2.130232 1.585355
-1.976717 -2.152564 2.001025
-2.019801 -2.199481 2.670203
-2.052374 -2.234952 3.798405
-2.055476 -2.238330 4.428566
-2.357829 -2.152207 2.480228
-2.240842 -2.045422 3.077459
-2.217123 -2.023772 2.810495
-2.263575 -2.066172 3.494058
-2.320728 -2.118341 4.437308
-2.121290 -1.936296 4.347918
-2.665456 -2.001894 0.916167
-2.680028 -2.012838 1.311305
-2.585174 -1.941598 2.851006
-2.513585 -1.887831 3.849470
-2.517800 -1.890997 3.882665
-2.591569 -1.946401 4.693144
-3.090829 -1.919837 1.504596
-3.121668 -1.938993 1.998601
-3.027589 -1.880556 1.869968
-2.950063 -1.832402 2.266433
-2.972607 -1.846405 2.760030
-3.018105 -1.874665 3.191381
-2.885474 -1.792283 3.688297
-3.599392 -1.781497 0.006402
-3.455062 -1.710062 0.812482
-3.491399 -1.728047 1.604701
-3.525746 -1.745047 2.093356
-3.438179 -1.701706 1.822739
-3.463104 -1.714042 3.064689
-3.391972 -1.678836 2.832067
-3.505799 -1.735174 4.051687
-3.289534 -1.628135 3.819461
-3.321440 -1.643927 5.096377
-3.483778 -1.339680 0.881571
-3.388766 -1.303144 1.374479
-3.420137 -1.315207 1.868675
-3.460459 -1.330713 2.355582
-3.508624 -1.349235 2.828560
-3.369124 -1.295590 2.622039
-3.235395 -1.244165 3.966505
-3.063241 -1.177963 5.380907
-3.206160 -0.902030 0.837107
-3.281314 -0.923173 2.113558
-3.016678 -0.848720 1.816742
-2.862924 -0.805462 2.556570
-2.994641 -0.842520 3.636853
-3.071149 -0.864045 4.134709
-3.027097 -0.851651 3.856110
-3.044159 -0.856452 4.680859
-2.968374 -0.559242 0.467188
-2.826261 -0.532468 1.310220
-2.868254 -0.540379 1.954121
-2.843022 -0.535626 1.598771
-2.885351 -0.543600 2.161782
-2.943546 -0.554564 3.538083
-2.778313 -0.523434 3.035179
-2.850107 -0.536960 3.579204
-2.776531 -0.249432 1.517688
-2.659045 -0.238878 1.192256
-2.644019 -0.237528 1.777577
-2.663736 -0.239299 2.321287
-2.691451 -0.241789 2.831180
-2.732339 -0.245462 3.361153
-2.903029 -0.260796 4.444140
-2.738006 -0.245971 4.369658
-2.742262 -0.002758 0.236229
-2.616434 -0.002631 1.582691
-2.569542 -0.002584 1.190258
-2.576973 -0.002592 1.742168
-2.617814 -0.002633 2.251339
-2.679776 -0.002695 2.854317
-2.761722 -0.002777 3.668262
-2.625555 -0.002641 3.771664
-2.495653 -0.002510 4.372244
-2.526114 0.238080 1.028151
-2.563262 0.241581 1.708195
-2.654626 0.250192 2.233293
-2.692681 0.253779 2.851460
-2.470096 0.232801 3.285703
-2.264501 0.213424 3.438833
-2.305591 0.434224 1.228422
-2.450883 0.461588 1.974179
-2.448436 0.461127 2.242155
-2.229488 0.419891 2.539767
-2.180598 0.410684 3.208027
-2.284800 0.430309 4.112662
-2.220443 0.637077 0.975613
-2.221088 0.637262 1.498750
-2.121702 0.608746 1.830388
-2.037244 0.584514 2.554796
-2.086974 0.598783 3.024825
-2.191112 0.628661 3.824152
-2.142591 0.614740 3.824762
-2.089436 0.599489 4.835277
-2.136371 0.830111 1.141533
-2.011984 0.781779 1.466214
-1.923187 0.747275 2.224650
-1.971681 0.766118 2.513278
-2.096323 0.814549 3.246185
-2.190119 0.850995 4.108630
-1.824790 0.908860 1.069559
-1.830365 0.911637 1.653901
-1.876359 0.934545 2.312516
-1.935441 0.963972 2.948857
-1.997565 0.994913 3.493815
-2.001766 0.997006 3.703977
-1.897741 0.945195 4.252769
-1.926439 1.190427 1.087631
-1.818486 1.123719 1.536805
-1.762571 1.089167 2.028436
-1.827117 1.129052 2.586850
-1.926236 1.190302 3.363173
-1.913045 1.182151 3.435327
-1.718344 1.318442 1.119564
-1.749944 1.342688 1.415059
-1.822968 1.398718 2.578489
-1.683330 1.291577 2.317167
-1.759750 1.350212 3.201135
-1.793054 1.375765 3.693469
-1.818046 1.394941 4.216966
-1.652200 1.267692 4.330342
-1.646728 1.498820 0.730523
-1.687730 1.536138 1.438368
-1.662516 1.513189 2.035168
-1.702809 1.549864 2.855964
-1.770915 1.611853 3.575953
-1.697191 1.544750 3.758574
-1.672948 1.522685 3.876069
-1.553971 1.414394 4.291526
-1.606102 1.759306 0.897392
-1.630347 1.785864 1.966409
-1.598073 1.750512 2.550301
-1.593447 1.745444 2.481785
-1.666531 1.825500 3.585843
-1.638170 1.794434 3.466412
-1.623797 2.149049 0.344910
-1.539976 2.038116 0.816341
-1.539241 2.037142 1.361500
-1.533216 2.029168 1.963439
-1.477086 1.954882 2.053242
-1.437521 1.902518 2.687276
-1.460519 1.932956 3.022517
-1.486605 1.967480 3.544900
-1.563990 2.524422 0.414646
-1.477060 2.384109 0.814894
-1.510638 2.438307 1.951370
-1.442331 2.328053 1.534255
-1.455760 2.349730 2.469444
-1.428136 2.305141 2.912286
-1.372135 2.214751 3.635988
-1.386590 2.238082 3.819124
-1.289829 2.588110 0.167714
-1.271953 2.552240 0.719178
-1.286875 2.582182 1.471297
-1.297063 2.602626 1.813366
-1.305363 2.619279 2.331501
-1.308828 2.626231 2.655530
-1.288331 2.585103 3.314131
-1.292153 2.592773 4.198444
-1.318945 2.646533 4.803683
-1.181242 3.048297 0.383152
-1.163275 3.001929 1.172488
-1.158287 2.989059 1.385675
-1.161752 2.998000 1.544592
-1.175948 3.034636 2.347063
-1.209667 3.121649 3.352844
-1.193436 3.079763 3.392707
-1.186399 3.061604 3.773241
-0.821111 2.975914 1.012165
-0.777874 2.819210 0.643299
-0.784874 2.844581 1.306234
-0.822832 2.982151 2.497036
-0.794667 2.880072 2.177445
-0.786693 2.851171 2.639462
-0.801508 2.904866 3.113960
-0.838943 3.040539 3.915853
-0.833971 3.022519 4.109890
-0.506677 2.813328 0.927451
-0.505462 2.806583 1.324988
-0.512263 2.844343 1.909144
-0.531030 2.948545 2.973729
-0.528082 2.932180 2.833400
-0.541652 3.007524 4.089054
-0.519691 2.885589 3.951596
-0.498984 2.770614 4.594301
-0.249788 2.675439 1.877272
-0.253839 2.718832 2.384163
-0.250174 2.679576 1.931381
-0.252140 2.700626 2.454142
-0.257795 2.761199 3.206186
-0.261597 2.801920 3.846396
0.015412 2.666764 0.182787
0.014598 2.525946 0.701428
0.014737 2.549965 1.300289
0.014871 2.573189 1.687810
0.015427 2.669368 2.526770
0.015631 2.704749 3.063966
0.015011 2.597439 3.401708
0.015288 2.645290 4.499850
0.014734 2.549548 4.243738
0.234905 2.552926 1.061113
0.239776 2.605860 1.589475
0.246124 2.674857 2.443077
0.237958 2.586103 3.208331
0.222364 2.416628 3.056696
0.225333 2.448896 3.497122
0.500612 2.619400 0.182787
0.474141 2.480896 0.694620
0.459610 2.404861 1.271350
0.442625 2.315991 1.833266
0.443417 2.320133 2.198504
0.433702 2.269299 3.133641
0.413010 2.161030 3.056348
0.428144 2.240219 3.662350
0.663158 2.326953 0.417108
0.639544 2.244096 0.933483
0.639270 2.243134 1.442380
0.611668 2.146282 1.821694
0.581519 2.040492 2.317167
0.598761 2.100991 2.925263
0.621590 2.181095 3.572951
0.634816 2.227504 4.212840
0.600723 2.107876 4.660414
0.891277 2.272692 1.121082
0.836675 2.133462 1.596456
0.792252 2.020186 1.999766
0.764973 1.950626 2.564226
0.794924 2.026998 3.276463
0.824365 2.102071 3.848547
1.091556 2.185079 0.266417
1.005825 2.013462 0.695385
1.005372 2.012556 1.302141
0.967596 1.936936 1.576734
0.936778 1.875245 2.312516
0.965558 1.932857 2.935042
1.014833 2.031494 3.593586
1.056103 2.114109 4.190883
1.021629 2.045100 4.756850
2.050316 -0.771084 -0.065927
0.894671 -0.336468 -0.065927
2.352307 -0.884657 -0.065927
0.032651 -0.012280 -0.065927
1.516612 -0.570369 -0.065927
1.532917 -0.576501 -0.065927
1.232690 -0.463591 -0.065927
1.426896 -0.536628 -0.065927
2.594453 -0.975723 -0.065927
0.373642 -0.140520 -0.065927
-2.222813 -0.004830 5.301698
-1.090631 -0.002370 5.301698
-0.528563 -0.001148 5.301698
-0.520999 -0.001132 5.301698
-1.828946 -0.003974 5.301698
-2.266966 -0.004926 5.301698
-0.030172 -0.000066 5.301698
-0.328690 -0.000714 5.301698
-2.268438 -0.004929 5.301698
-1.698849 -0.003691 5.301698
-1.951803 -0.392593 5.301698
-2.410239 -0.484804 5.301698
-0.195277 -0.039279 5.301698
-2.111332 -0.424681 5.301698
-2.434364 -0.489657 5.301698
-2.205326 -0.443587 5.301698
-1.503274 -0.302374 5.301698
-0.664451 -0.133650 5.301698
-0.246501 -0.049582 5.301698
-0.273424 -0.054998 5.301698
-2.729128 -1.049481 5.301698
-2.182709 -0.839356 5.301698
-2.619507 -1.007326 5.301698
-0.883747 -0.339843 5.301698
-1.365450 -0.525081 5.301698
-1.094982 -0.421073 5.301698
-2.894413 -1.113041 5.301698
-1.326807 -0.510221 5.301698
-0.425895 -0.163777 5.301698
-0.184504 -0.070951 5.301698
-1.507000 -0.607440 5.301698
-0.129971 -0.052389 5.301698
-3.381071 -1.362840 5.301698
-2.897846 -1.168062 5.301698
-1.750444 -0.705568 5.301698
-1.175570 -0.473848 5.301698
-2.537605 -1.022856 5.301698
-2.715967 -1.094750 5.301698
-1.514012 -0.610267 5.301698
-0.462648 -0.186484 5.301698
-0.971622 -0.480899 5.301698
-2.176612 -1.077301 5.301698
-2.550695 -1.262451 5.301698
-2.027364 -1.003432 5.301698
-1.002467 -0.496165 5.301698
-1.257854 -0.622567 5.301698
-1.429719 -0.707631 5.301698
-0.183281 -0.090714 5.301698
-0.023919 -0.011838 5.301698
-0.422533 -0.209130 5.301698
-2.162367 -1.343747 5.301698
-1.331691 -0.827545 5.301698
-0.142890 -0.088795 5.301698
-0.443819 -0.275800 5.301698
-0.692496 -0.430334 5.301698
-2.263219 -1.406419 5.301698
-2.843490 -1.767014 5.301698
-0.259109 -0.161017 5.301698
-2.718374 -1.689263 5.301698
-2.807178 -1.744448 5.301698
-0.316140 -0.201179 5.301698
-2.392390 -1.522424 5.301698
-0.376477 -0.239575 5.301698
-1.431982 -0.911258 5.301698
-1.686038 -1.072929 5.301698
-1.597920 -1.016854 5.301698
-0.442799 -0.281780 5.301698
-0.526553 -0.335078 5.301698
-0.335459 -0.213473 5.301698
-1.050571 -0.668542 5.301698
-0.172300 -0.612249 5.301698
-0.385245 -1.368924 5.301698
-0.672795 -2.390700 5.301698
-0.156734 -0.556937 5.301698
-0.220565 -0.783751 5.301698
-0.607535 -2.158807 5.301698
-0.767603 -2.727590 5.301698
-0.277760 -0.986989 5.301698
-0.569915 -2.025128 5.301698
-0.110393 -0.392269 5.301698
-0.153646 -0.800228 5.301698
-0.181028 -0.942840 5.301698
-0.146961 -0.765411 5.301698
-0.539962 -2.812256 5.301698
-0.159398 -0.830182 5.301698
-0.497019 -2.588599 5.301698
-0.195692 -1.019215 5.301698
-0.285500 -1.486952 5.301698
-0.201079 -1.047268 5.301698
-0.226340 -1.178833 5.301698
0.004321 -2.001130 5.301698
0.006857 -3.175660 5.301698
0.002557 -1.184201 5.301698
0.005343 -2.474514 5.301698
0.006239 -2.889700 5.301698
0.002886 -1.336496 5.301698
0.003675 -1.702197 5.301698
0.006872 -3.182910 5.301698
0.001875 -0.868250 5.301698
0.005230 -2.422263 5.301698
1.008668 -1.956915 5.301698
0.510424 -0.990273 5.301698
1.174301 -2.278260 5.301698
0.593400 -1.151254 5.301698
0.499796 -0.969653 5.301698
0.300845 -0.583669 5.301698
0.163535 -0.317274 5.301698
0.538953 -1.045621 5.301698
1.318884 -2.558765 5.301698
0.096479 -0.187179 5.301698
0.469969 -0.733408 5.301698
0.441515 -0.689004 5.301698
1.013361 -1.581395 5.301698
1.652208 -2.578344 5.301698
0.376185 -0.587053 5.301698
1.123064 -1.752592 5.301698
0.999272 -1.559408 5.301698
0.598508 -0.933999 5.301698
1.130794 -1.764654 5.301698
0.502766 -0.784589 5.301698
1.300863 -1.711077 5.301698
1.647906 -2.167556 5.301698
1.112438 -1.463234 5.301698
1.424256 -1.873380 5.301698
0.775867 -1.020529 5.301698
1.109180 -1.458948 5.301698
1.516141 -1.994240 5.301698
0.986941 -1.298163 5.301698
1.465166 -1.927191 5.301698
1.188584 -1.563392 5.301698
1.779526 -0.878121 5.301698
0.093202 -0.045991 5.301698
2.546272 -1.256478 5.301698
1.714492 -0.846030 5.301698
1.046329 -0.516319 5.301698
2.340195 -1.154787 5.301698
2.065031 -1.019005 5.301698
1.911777 -0.943381 5.301698
0.186679 -0.092118 5.301698
2.431331 -1.199759 5.301698
0.341224 -0.063578 5.301698
1.543142 -0.287523 5.301698
2.645755 -0.492966 5.301698
2.847064 -0.530474 5.301698
2.515154 -0.468632 5.301698
0.764935 -0.142525 5.301698
2.181042 -0.406379 5.301698
1.651396 -0.307693 5.301698
1.223981 -0.228056 5.301698
0.903486 -0.168340 5.301698
1.950727 0.178933 5.301698
0.739787 0.067858 5.301698
1.958056 0.179605 5.301698
0.542908 0.049799 5.301698
0.868407 0.079656 5.301698
1.390425 0.127538 5.301698
2.565610 0.235334 5.301698
2.825885 0.259208 5.301698
2.938075 0.269498 5.301698
0.631392 0.057915 5.301698
0.239643 0.149986 5.301698
0.253167 0.158450 5.301698
1.757738 1.100116 5.301698
1.884368 1.179370 5.301698
0.116420 0.072864 5.301698
0.544416 0.340734 5.301698
2.110511 1.320907 5.301698
1.301935 0.814843 5.301698
0.732084 0.458190 5.301698
0.356984 0.223426 5.301698
0.039828 0.104212 5.301698
0.456170 1.193593 5.301698
0.404617 1.058703 5.301698
0.323007 0.845165 5.301698
0.079901 0.209065 5.301698
0.310185 0.811615 5.301698
0.107360 0.280913 5.301698
0.105822 0.276888 5.301698
0.113294 0.296439 5.301698
0.406059 1.062476 5.301698
-0.261056 2.634691 5.301698
-0.070004 0.706510 5.301698
-0.002473 0.024955 5.301698
-0.050483 0.509494 5.301698
-0.026821 0.270692 5.301698
-0.271733 2.742443 5.301698
-0.249608 2.519150 5.301698
-0.249315 2.516192 5.301698
-0.057513 0.580450 5.301698
-0.234996 2.371678 5.301698
-0.476215 1.245963 5.301698
-0.391210 1.023558 5.301698
-0.887419 2.321832 5.301698
-0.130947 0.342609 5.301698
-0.389727 1.019678 5.301698
-0.420338 1.099768 5.301698
-0.796220 2.083222 5.301698
-0.587081 1.536033 5.301698
-0.102194 0.267379 5.301698
-0.692371 1.811512 5.301698
