1.655146 -1.485340 6.504936
1.633096 -1.466424 7.251829
1.562027 -1.403145 7.754635
1.538791 -1.383072 8.496810
1.467369 -1.319506 9.133631
1.334397 -1.457443 2.079103
1.306802 -1.427904 2.594171
1.342050 -1.467495 3.484040
1.359561 -1.487489 4.178108
1.221207 -1.336701 4.742752
1.337240 -1.464324 5.239399
1.576476 -1.727469 6.019936
1.570778 -1.722299 6.794846
1.434634 -1.573612 7.304896
1.415863 -1.553992 8.100616
1.406395 -1.544420 8.781875
1.258840 -1.383010 9.424682
1.166154 -1.565118 1.625860
1.188598 -1.596651 2.656489
1.163255 -1.563140 3.059182
1.159543 -1.559391 3.995206
1.092303 -1.469597 4.518077
1.204887 -1.622200 5.320515
1.339778 -1.804573 5.785247
1.326218 -1.787397 6.514307
1.293575 -1.744648 7.384205
1.245118 -1.680195 8.053585
1.261869 -1.703851 8.803911
1.211666 -1.636781 9.369413
0.991275 -1.641873 1.940293
1.010739 -1.675036 2.535641
1.029274 -1.706923 3.274038
1.036514 -1.720275 4.121532
0.928209 -1.540971 4.464381
1.057117 -1.756707 5.508974
1.193531 -1.984429 6.033610
1.141788 -1.899567 6.729959
1.099682 -1.830482 7.333085
1.088142 -1.812229 7.929442
1.098390 -1.830651 8.760146
0.985701 -1.643950 9.594991
0.798273 -1.665968 0.777016
0.883630 -1.845522 1.498720
0.853409 -1.783523 2.097981
0.832476 -1.740523 2.509112
0.858950 -1.797793 3.521781
0.858813 -1.798387 3.989478
0.793175 -1.662283 4.786757
0.848531 -1.779327 5.328122
0.942678 -1.977993 5.900917
0.889223 -1.867175 6.622230
0.866782 -1.821440 7.377964
0.872405 -1.834854 8.236614
0.813529 -1.711814 8.730466
0.720583 -1.517289 9.486598
0.606703 -1.684712 0.370112
0.654708 -1.819946 1.191239
0.655926 -1.824933 1.872755
0.645510 -1.797600 2.586580
0.628108 -1.749822 2.895337
0.657739 -1.834566 3.822351
0.671766 -1.875548 4.593106
0.595884 -1.664808 5.155417
0.639535 -1.788319 5.824471
0.744727 -2.084251 6.448698
0.724052 -2.028529 7.299711
0.667798 -1.871798 7.710533
0.670573 -1.881701 8.624516
0.638336 -1.792781 9.354841
0.455339 -1.788297 0.682271
0.484008 -1.902962 1.313141
0.447819 -1.762598 1.955362
0.446496 -1.759511 2.660404
0.459069 -1.811803 3.543908
0.467656 -1.847472 4.104994
0.468145 -1.851369 4.729240
0.451092 -1.786149 5.474157
0.454857 -1.802769 6.035878
0.484626 -1.923843 6.971642
0.478875 -1.902979 7.597259
0.460818 -1.833268 8.290318
0.438556 -1.746283 8.865367
0.355606 -1.417756 9.731260
0.278358 -1.823333 0.634896
0.295835 -1.941499 1.322584
0.274547 -1.805561 2.088097
0.268728 -1.770070 2.662311
0.273994 -1.808404 3.394812
0.274121 -1.812904 4.132766
0.271927 -1.800853 4.635100
0.259367 -1.720750 5.305336
0.263677 -1.752536 5.972777
0.284772 -1.896948 6.768695
0.271272 -1.809707 7.338675
0.274290 -1.834308 8.248774
0.272247 -1.823940 8.935015
0.227924 -1.530336 9.851767
0.109224 -1.846130 0.862281
0.110168 -1.871449 1.582044
0.102257 -1.741790 1.978578
0.098540 -1.686316 2.650905
0.099156 -1.706434 3.454525
0.112817 -1.953725 4.319358
0.120780 -2.102692 5.047741
0.110698 -1.934260 5.594821
0.108301 -1.901568 6.291428
0.108405 -1.913080 7.014823
0.100050 -1.771978 7.558830
0.099645 -1.775957 8.467640
0.096264 -1.723967 9.178400
-0.086589 -1.974635 0.944133
-0.075614 -1.716579 1.436736
-0.074754 -1.684410 2.249403
-0.090227 -1.992850 4.420058
-0.096734 -2.127778 4.862019
-0.091078 -1.987881 5.760741
-0.083570 -1.812913 6.494003
-0.078437 -1.695408 6.940338
-0.078896 -1.691796 7.885935
-0.079882 -1.702997 8.586439
-0.076985 -1.631742 9.315125
-0.215335 -1.550659 0.362954
-0.253119 -1.817973 1.232585
-0.233132 -1.671378 1.848178
-0.228294 -1.633772 2.452749
-0.273844 -1.955978 3.075862
-0.313779 -2.235650 3.883085
-0.302720 -2.153334 4.444807
-0.300611 -2.133576 5.203812
-0.273687 -1.938886 5.872863
-0.235758 -1.666909 6.607230
-0.225520 -1.592780 7.007550
-0.230304 -1.623118 7.758069
-0.223803 -1.574401 8.432669
-0.213780 -1.500167 9.356878
-0.338576 -1.400192 0.364249
-0.397195 -1.639908 1.285492
-0.379119 -1.563895 1.785373
-0.362555 -1.493360 2.624032
-0.400231 -1.645149 3.783164
-0.516718 -2.121023 4.510494
-0.490981 -2.012558 5.322323
-0.423221 -1.732790 6.039229
-0.356792 -1.459555 6.591942
-0.360006 -1.470940 7.295466
-0.374537 -1.528103 8.144295
-0.368459 -1.501738 8.777659
-0.302245 -1.230382 9.588418
-0.480440 -1.390335 0.718364
-0.550298 -1.591494 1.190309
-0.503435 -1.454646 1.884785
-0.629371 -1.813399 4.007525
-0.711420 -2.048161 4.588848
-0.669940 -1.926639 5.443032
-0.531108 -1.526521 5.950458
-0.350461 -1.006471 6.704098
-0.382220 -1.096649 7.439474
-0.494204 -1.416550 8.161286
-0.485807 -1.391576 8.694080
-0.382015 -1.093339 9.472866
-0.721845 -1.555766 0.313848
-0.729368 -1.570622 1.122067
-0.630054 -1.356234 1.493851
-0.609770 -1.311305 2.409256
-0.613742 -1.319216 2.861506
-0.768731 -1.651068 3.567949
-0.887149 -1.903549 4.454414
-0.828570 -1.777027 4.914800
-0.747693 -1.602141 5.797695
-0.500306 -1.071523 6.372555
-0.477252 -1.021226 7.275153
-0.600169 -1.283348 7.908192
-0.589598 -1.260054 8.460321
-0.566624 -1.209891 9.363538
-0.651689 -1.117573 0.596820
-0.801911 -1.374168 1.384619
-0.718150 -1.229866 2.064135
-0.890025 -1.521195 4.170115
-0.986506 -1.685270 4.675261
-0.891228 -1.521676 5.292076
-0.786863 -1.341010 7.366824
-0.630894 -1.074397 8.281426
-0.621157 -1.057213 8.939872
-0.457232 -0.777714 9.771089
-0.748916 -1.027473 0.741717
-0.874774 -1.199654 1.216272
-0.799246 -1.095602 1.730862
-1.005213 -1.375402 3.878313
-1.212537 -1.658158 4.489074
-1.107502 -1.513435 5.362268
-0.811343 -1.108066 6.159911
-0.406060 -0.554427 6.583075
-0.370791 -0.505876 7.572120
-0.608208 -0.829368 8.117836
-0.694016 -0.945893 8.727553
-0.632279 -0.861098 9.715188
-0.948855 -1.068018 1.026251
-0.874105 -0.983596 1.385871
-0.857728 -0.964428 2.332888
-0.928867 -1.043787 3.069180
-1.190003 -1.336457 3.743917
-1.215300 -1.364259 4.287434
-0.912060 -1.023290 5.027929
-0.708459 -0.794580 5.517279
-0.512425 -0.574369 6.335990
-0.397553 -0.445290 7.302158
-0.568877 -0.636978 7.677151
-0.748283 -0.837212 8.627184
-0.751701 -0.840695 9.160498
-1.007158 -0.931734 0.768429
-0.965316 -0.892601 1.357014
-0.943818 -0.872096 2.246247
-0.987757 -0.912334 2.735085
-1.220144 -1.126282 3.468978
-1.278831 -1.179756 4.192095
-1.000771 -0.922705 4.960690
-0.738388 -0.680466 5.616144
-0.488496 -0.449903 6.455756
-0.379457 -0.349334 7.022068
-0.594774 -0.547200 7.819803
-0.726742 -0.668304 8.383004
-0.816984 -0.750757 9.289158
-0.933259 -0.701968 0.540976
-1.045153 -0.785725 1.154984
-0.946775 -0.711387 1.797382
-1.223123 -0.917230 4.110828
-0.446153 -0.333835 6.973214
-0.510582 -0.381843 7.621147
-0.774434 -0.578825 8.295600
-0.840700 -0.628119 8.747771
-0.727687 -0.543335 9.602291
-1.274971 -0.779763 0.641291
-1.053618 -0.644048 1.224928
-0.981119 -0.599270 2.080249
-1.251531 -0.764005 2.687103
-1.501711 -0.916072 3.449597
-1.394017 -0.849857 4.137316
-1.222454 -0.744756 4.921471
-0.956601 -0.582489 5.548299
-0.575405 -0.350189 6.221767
-0.437865 -0.266280 7.135098
-0.645262 -0.392162 7.810935
-0.777525 -0.472301 8.380736
-0.856301 -0.519793 9.172354
-1.320715 -0.652472 0.814130
-1.111014 -0.548583 1.340617
-1.035156 -0.510707 2.157560
-1.177041 -0.580418 2.640828
-1.456334 -0.717607 3.347512
-1.470870 -0.724145 4.194507
-1.164901 -0.573250 4.685231
-0.945414 -0.464830 5.608349
-0.589423 -0.289672 6.123801
-0.463518 -0.227575 7.154773
-0.679803 -0.333536 7.820707
-0.806577 -0.395530 8.332078
-0.910077 -0.445938 9.117614
-1.073860 -0.404511 0.792668
-1.024421 -0.385565 1.481825
-1.006527 -0.378549 2.094329
-0.922584 -0.346623 2.948614
-1.156824 -0.434331 3.491700
-1.476868 -0.554060 4.095458
-1.124195 -0.421368 4.894766
-0.671616 -0.251555 5.561212
-0.394852 -0.147760 6.377229
-0.416598 -0.155752 7.179222
-0.765114 -0.285799 7.858828
-0.856573 -0.319754 8.400194
-0.806410 -0.300782 9.125628
-1.030434 -0.276785 0.484382
-1.020349 -0.273795 1.124404
-0.941064 -0.252332 1.593881
-1.286827 -0.343741 3.929363
-1.420575 -0.379261 4.253672
-1.086680 -0.289762 5.072933
-0.572806 -0.152561 5.892536
-0.145887 -0.038820 6.568487
-0.426708 -0.113367 7.539188
-0.884892 -0.234829 8.184575
-0.899378 -0.238452 8.787372
-0.795973 -0.210825 9.478805
-1.050274 -0.168741 0.077503
-1.013681 -0.162494 0.960339
-0.930469 -0.148977 1.429757
-0.927124 -0.148106 2.317083
-0.568603 -0.090717 2.844156
-1.563363 -0.248535 4.143193
-1.156015 -0.183464 4.859559
-0.639764 -0.101321 5.762835
-0.333397 -0.052696 6.616544
-0.478141 -0.075475 7.120257
-0.798350 -0.125782 7.819803
-0.928997 -0.146029 8.723072
-0.730612 -0.114738 9.156562
-1.151745 -0.072632 1.043938
-0.883894 -0.055465 1.832066
-1.044382 -0.065283 2.426922
-1.324196 -0.082247 3.395336
-1.441826 -0.089306 3.810110
-1.410699 -0.086932 4.601641
-0.966306 -0.059272 5.383125
-0.502865 -0.030745 5.967743
-0.396144 -0.024097 6.799672
-0.607817 -0.036832 7.361040
-0.978149 -0.058915 8.241384
-0.875351 -0.052519 8.883249
-0.665267 -0.039709 9.761951
-0.613701 0.021888 0.176591
-0.754006 0.027159 1.065489
-0.955525 0.034677 1.740772
-0.922427 0.033738 2.454890
-0.704580 0.025970 3.188717
-1.020312 0.037886 3.846218
-0.161642 0.006169 6.628099
-0.415152 0.015955 7.287637
-0.939180 0.036452 8.178984
-0.922572 0.036008 8.758196
-0.825369 0.032433 9.488559
-0.410408 0.056721 0.217033
-0.554970 0.076932 1.248302
-0.879720 0.122179 1.880746
-0.763380 0.106188 2.426121
-0.830333 0.115787 3.275159
-1.234749 0.172598 4.065759
-1.295769 0.181291 4.370943
-0.771470 0.108202 5.301878
-0.339495 0.047688 5.913155
-0.299932 0.042223 6.704701
-0.591086 0.083359 7.302158
-0.978884 0.138410 8.167803
-0.892277 0.126401 8.877215
-0.641921 0.091096 9.598668
-0.330643 0.077984 0.276796
-0.446059 0.105376 1.192648
-0.859460 0.203256 1.783381
-0.786946 0.186378 2.609857
-0.753718 0.178669 3.123482
-1.068003 0.253512 3.857513
-1.218241 0.289524 4.524749
-0.781920 0.186060 5.298216
-0.373527 0.089003 6.160129
-0.503412 0.120107 6.899286
-0.749362 0.178916 7.277130
-0.972370 0.232549 8.216337
-0.876622 0.209837 8.773891
-0.645813 0.154798 9.657462
-0.393437 0.131877 0.305818
-0.567703 0.190428 0.854040
-0.796787 0.267460 1.385023
-0.754833 0.253727 2.434192
-0.589366 0.198196 2.791180
-0.789973 0.265992 3.738297
-0.258469 0.087348 6.679535
-0.532853 0.180218 7.258013
-0.914425 0.309528 7.836357
-0.873556 0.295951 8.542157
-0.789597 0.267821 9.517814
-0.497030 0.225052 0.707795
-0.700117 0.317263 1.466077
-0.716433 0.324939 2.287759
-0.722654 0.328025 3.052985
-0.733062 0.332890 3.455413
-0.917140 0.416804 4.171967
-0.819701 0.372875 5.095062
-0.429402 0.195454 5.770843
-0.286428 0.130486 6.630925
-0.576933 0.263005 7.233395
-0.909710 0.415058 7.991718
-0.859040 0.392144 8.526614
-0.763892 0.349019 9.443157
-0.165671 0.094914 0.406980
-0.238240 0.136550 0.891460
-0.682885 0.391760 1.866481
-0.718137 0.412235 2.530027
-0.702019 0.403135 2.943544
-0.719276 0.413420 3.935990
-0.713205 0.410071 4.312324
-0.540334 0.310938 5.274812
-0.318485 0.183371 5.909130
-0.491298 0.283091 6.757535
-0.812023 0.468170 7.344516
-0.881619 0.508578 7.957142
-0.814451 0.470139 8.723072
-0.621903 0.359236 9.569534
-0.181072 0.129736 0.813351
-0.629089 0.451035 1.593056
-0.662548 0.475324 2.344702
-0.670404 0.481275 3.128891
-0.664867 0.477484 3.592006
-0.677725 0.487050 4.409845
-0.477641 0.343425 5.029491
-0.300930 0.216522 5.928885
-0.433611 0.312158 6.580634
-0.706248 0.508739 7.266961
-0.901343 0.649641 7.915962
-0.909940 0.656321 8.832574
-0.575632 0.415324 9.341558
-0.066936 0.058601 0.149307
-0.669394 0.586884 1.919688
-0.603236 0.529133 2.522032
-0.587376 0.515500 3.201609
-0.638854 0.560991 3.894272
-0.615645 0.540865 4.490952
-0.464956 0.408768 5.415807
-0.321518 0.282779 5.970119
-0.502861 0.442511 6.626769
-0.729791 0.642554 7.266451
-0.957864 0.843938 8.081458
-0.847030 0.746714 8.861587
-0.515897 0.455061 9.745605
-0.798266 0.852555 0.550636
-0.652773 0.697466 1.088698
-0.541703 0.579197 1.973869
-0.520161 0.556463 2.652577
-0.527539 0.564681 3.379686
-0.562593 0.602447 3.887227
-0.500773 0.536549 4.610986
-0.379812 0.407222 5.505596
-0.347548 0.372856 6.300839
-0.515109 0.552856 6.813236
-0.767895 0.824582 7.396265
-0.758060 0.814491 8.149525
-0.612179 0.658135 8.970872
-0.349769 0.376223 9.771777
-0.345942 0.446071 0.245605
-0.521749 0.673162 0.965063
-0.531000 0.685356 1.423022
-0.473987 0.612099 2.082690
-0.466406 0.602748 2.976955
-0.489735 0.633122 3.406618
-0.523355 0.677123 4.377552
-0.379830 0.491697 5.084890
-0.252490 0.326969 5.557851
-0.180231 0.233569 6.522082
-0.329138 0.426767 7.140079
-0.634059 0.822643 7.820244
-0.646979 0.839912 8.580880
-0.524031 0.680611 9.219536
-0.725885 1.166371 0.845258
-0.507138 0.815158 1.234451
-0.408139 0.656508 2.063156
-0.410289 0.660430 2.857709
-0.423218 0.681584 3.426137
-0.448448 0.722661 4.121220
-0.389372 0.627847 4.839129
-0.287879 0.464424 5.436803
-0.281372 0.454261 6.296538
-0.444379 0.717902 7.008714
-0.579934 0.937348 7.522643
-0.580576 0.938948 8.222876
-0.498009 0.805821 8.855426
-0.284006 0.459858 9.775072
-0.592034 1.182318 0.779138
-0.443552 0.886334 1.398631
-0.353107 0.705951 1.905533
-0.338649 0.677506 2.593952
-0.350805 0.702275 3.240667
-0.358957 0.719085 3.928966
-0.312352 0.626326 4.924126
-0.228143 0.457657 5.371672
-0.241629 0.485098 6.193958
-0.384732 0.773115 7.106165
-0.499133 1.003541 7.609717
-0.490396 0.986540 8.213199
-0.428015 1.117504 0.752944
-0.355212 0.928213 1.466582
-0.283672 0.741727 1.993392
-0.264826 0.693047 2.722858
-0.284525 0.745181 3.377338
-0.307295 0.805415 4.001462
-0.258965 0.679329 4.751126
-0.203035 0.533122 5.594015
-0.195771 0.514433 6.243103
-0.302724 0.796147 6.916213
-0.410642 1.081115 7.774065
-0.427894 1.127552 8.545665
-0.366442 0.966287 9.195206
-0.057125 0.206155 0.138876
-0.134416 0.485772 1.053239
-0.234410 0.848027 1.715218
-0.204109 0.739145 2.367510
-0.242866 0.880349 2.983992
-0.261603 0.949392 3.742119
-0.277656 1.009137 4.689057
-0.204492 0.743619 5.073661
-0.117369 0.427307 5.906912
-0.153905 0.561127 6.836106
-0.224640 0.819650 7.291439
-0.313112 1.143837 8.020972
-0.318974 1.166566 8.769820
-0.218635 0.800239 9.404156
-0.102404 0.605359 0.147159
-0.112829 0.668373 1.008961
-0.166955 0.990715 1.709221
-0.151155 0.898173 2.270059
-0.196836 1.171668 2.970725
-0.248572 1.482198 3.648971
-0.243022 1.451286 4.263248
-0.206026 1.232670 5.064870
-0.117295 0.702708 5.692266
-0.065827 0.395116 6.543874
-0.119310 0.717548 7.316427
-0.190824 1.149242 7.812710
-0.190981 1.152043 8.493588
-0.157036 0.948993 9.317435
-0.050973 0.740106 0.479038
-0.058561 0.853325 1.091752
-0.069895 1.021435 1.581947
-0.054616 0.802637 2.551309
-0.107802 1.594773 3.600460
-0.076006 1.130606 4.579304
-0.056082 0.837040 5.193420
-0.042138 0.631132 5.825633
-0.023668 0.355947 6.582415
-0.047156 0.713247 7.502607
-0.080814 1.227422 8.102255
-0.082175 1.252840 8.748155
-0.060762 0.929417 9.398171
0.029623 1.019344 0.659669
0.039666 1.356020 1.124524
0.036798 1.243419 1.978009
0.046978 1.570484 2.746326
0.055866 1.856522 3.162706
0.046065 1.518454 3.802026
0.028503 0.912757 6.140181
0.021922 0.696902 6.773643
0.032332 1.018117 7.489702
0.036415 1.138763 8.041688
0.040038 1.237763 8.988082
0.027629 0.848432 9.670523
0.166674 1.361462 0.749222
0.166956 1.360345 1.499167
0.157581 1.282103 1.936713
0.201533 1.635084 2.759520
0.098197 0.785827 7.130559
0.128273 1.024998 7.557590
0.148292 1.181836 8.375782
0.330628 1.426053 0.124525
0.332892 1.434098 0.775824
0.297762 1.281354 1.376252
0.293946 1.263420 2.032964
0.391131 1.678769 2.772632
0.465920 1.997525 3.354105
0.176544 0.752186 7.032912
0.251292 1.069016 7.857902
0.297729 1.265281 8.400881
0.379750 1.153882 0.279761
0.374590 1.137414 0.791550
0.438856 1.331023 1.632457
0.411300 1.246354 2.283141
0.524226 1.586854 3.045287
0.668493 2.021814 3.631309
0.631574 1.908340 4.341461
0.280919 0.846048 6.989358
0.336310 1.011883 7.712658
0.408860 1.229038 8.381633
0.435440 1.307496 9.229108
0.561350 1.272100 0.355168
0.575885 1.304228 0.920774
0.596390 1.349645 1.609830
0.642556 1.453021 2.294015
0.776827 1.755211 3.014111
0.864059 1.951365 3.431430
0.774818 1.748084 4.363375
0.710747 1.602373 5.050940
0.634065 1.428414 5.782789
0.407970 0.918589 6.374444
0.361253 0.812906 6.979623
0.453173 1.018939 7.702049
0.556416 1.249873 8.577699
0.596488 1.338905 9.267574
0.817659 1.452394 1.400701
0.756180 1.342542 1.913459
0.620256 1.100469 2.654195
1.095223 1.940801 3.848416
0.924685 1.637632 4.511632
0.801032 1.417727 5.234597
0.618416 1.093884 5.922466
0.432466 0.764323 6.921201
0.477250 0.842845 7.733876
0.641513 1.132295 8.298891
0.737488 1.300844 8.983911
0.643721 1.134947 9.536836
0.772358 1.093736 0.144194
0.864891 1.224035 0.842259
0.897771 1.269626 1.701941
1.142465 1.614540 2.486625
1.389278 1.962222 3.103506
1.417530 2.000856 3.823372
1.401567 1.977298 4.422101
1.249444 1.762019 4.896085
0.739675 1.040489 8.081458
0.851171 1.196915 8.461949
0.867582 1.219079 9.382463
0.957300 1.108545 0.268205
1.013477 1.172989 0.898392
1.042765 1.206318 1.470512
1.576621 1.819860 4.092836
1.438606 1.659626 4.795273
1.294743 1.492630 5.675805
0.942048 1.085500 6.376206
0.673638 0.775864 7.033237
0.855933 0.985228 7.751541
1.057150 1.216248 8.306539
1.017882 1.170455 9.000179
1.224901 1.163679 0.247453
1.301437 1.235976 0.654787
1.211822 1.150080 1.495931
1.588703 1.505274 3.473384
1.853375 1.754872 4.245100
1.762748 1.668296 4.820105
1.581316 1.495794 5.508055
1.370163 1.294085 7.475533
1.224639 1.155759 8.500796
1.149270 1.084309 8.911383
1.130336 0.892017 0.297152
1.379138 1.087615 1.111763
1.334958 1.052353 1.590011
1.586105 1.249504 2.360501
1.580870 1.244494 3.205683
1.650461 1.298592 3.824711
1.980081 1.556893 4.570471
1.881391 1.478444 5.272795
1.632126 1.280750 7.041561
1.325928 1.039866 7.847866
1.356319 1.062917 8.763665
1.215159 0.951806 9.462048
1.239476 0.779085 0.153261
1.483294 0.931664 0.950269
1.457969 0.915291 1.512808
1.494299 0.937435 2.292066
1.250526 0.784154 2.811602
2.083123 1.304370 4.294710
2.010283 1.258011 4.961257
1.856487 1.160824 5.891537
1.601511 1.000917 6.480235
1.489492 0.930416 7.106529
1.475221 0.920992 7.745903
1.475774 0.920724 8.517478
1.391785 0.867662 9.435982
1.840720 0.939227 0.442504
1.766450 0.900682 1.151773
1.633991 0.832623 1.773903
1.916265 0.974417 3.819199
2.133613 1.083874 4.758329
2.030314 1.030644 5.501607
1.699315 0.862362 5.862307
1.670264 0.846738 6.925133
1.690305 0.856494 7.404053
1.698107 0.859750 8.237222
1.563428 0.791181 8.776572
1.302037 0.658363 9.721680
1.811148 0.705686 0.595278
1.828134 0.711724 1.265927
1.775668 0.690559 2.149813
1.782225 0.692718 2.614951
1.743710 0.677187 3.304751
1.876054 0.728014 3.939472
2.125723 0.823959 4.850418
1.980914 0.767253 5.497161
1.853351 0.717398 6.042784
1.859438 0.719139 6.763758
1.847416 0.713822 7.563591
1.773304 0.684758 8.117973
1.771155 0.499495 0.331676
1.974628 0.556340 0.942088
1.847829 0.520189 1.466322
1.856415 0.522069 2.119911
1.854347 0.520935 2.794589
1.957438 0.549133 3.670061
1.994833 0.559131 4.228594
1.941775 0.543804 4.772303
1.970116 0.551130 5.480716
2.012466 0.562353 6.189886
1.950817 0.544521 6.924069
1.937855 0.540262 7.705095
2.011126 0.559940 8.572100
1.825932 0.508065 9.032902
1.590036 0.279101 0.219371
1.922771 0.336898 0.963707
1.950325 0.341125 1.690757
1.936766 0.338242 2.316700
1.934374 0.337312 2.943688
1.982711 0.345297 3.472106
2.061987 0.358294 4.397977
1.907436 0.331042 4.918313
2.046118 0.354325 5.823730
2.172683 0.375825 6.266016
2.129055 0.367461 7.210049
2.092277 0.360569 7.858059
2.072109 0.356538 8.528459
1.904628 0.327263 9.174743
2.082151 0.170508 0.178759
2.170834 0.177031 0.994985
1.956717 0.159325 1.303699
1.975364 0.160133 2.173486
2.052550 0.165780 2.888138
2.089996 0.168224 3.558688
2.116850 0.169789 4.241312
1.981816 0.158416 4.930160
2.052063 0.163630 5.401478
2.327435 0.184715 6.280975
2.248391 0.177870 6.926694
2.122996 0.167352 7.659114
2.081276 0.163494 8.362600
1.942316 0.152244 8.837772
1.497360 0.116946 9.689209
1.793101 -0.036522 0.578877
2.035623 -0.042024 1.244342
1.987206 -0.041511 1.841749
1.944543 -0.041043 2.375058
1.980535 -0.042426 3.141932
2.034535 -0.044042 3.688907
2.084051 -0.045664 4.332118
2.164108 -0.048251 5.269536
2.231340 -0.050141 5.691574
2.291700 -0.052219 6.462930
2.190815 -0.050363 6.988434
2.151196 -0.050196 7.871285
2.141869 -0.050661 8.688245
1.934494 -0.046087 9.184194
1.802144 -0.205425 0.104317
2.061102 -0.235600 0.866111
1.984458 -0.227386 1.529188
1.995463 -0.229205 2.200211
2.055278 -0.236763 3.001119
2.069690 -0.238790 3.426975
2.087227 -0.241536 4.263176
1.925397 -0.223181 4.754212
2.053097 -0.238718 5.612557
2.310582 -0.269285 6.234262
2.349212 -0.274610 7.089283
2.225828 -0.260503 7.467412
2.179027 -0.255807 8.376567
1.895679 -0.413425 0.330721
1.979372 -0.432185 0.923919
1.950155 -0.426290 1.500888
1.957093 -0.428643 2.494265
1.960514 -0.429704 2.864014
2.025926 -0.444874 3.818054
2.040575 -0.448573 4.369753
2.036802 -0.448357 5.079591
2.093783 -0.461386 5.619309
2.255554 -0.497824 6.420912
2.245352 -0.496250 7.141904
2.161921 -0.478392 7.807710
2.042741 -0.452478 8.381416
2.012915 -0.446593 9.271614
1.800243 -0.572637 0.179795
2.095813 -0.667309 0.862975
1.905954 -0.607486 1.595218
1.840005 -0.586938 2.167169
1.899697 -0.606443 2.703663
2.003733 -0.640495 3.624524
2.000112 -0.639715 4.043867
1.837383 -0.588328 4.871059
1.928605 -0.618232 5.667715
2.203759 -0.706973 6.168845
2.152914 -0.691280 6.828161
2.034706 -0.653866 7.460474
2.067593 -0.665276 8.391868
2.031973 -0.654215 8.860298
1.783548 -0.574760 9.627262
2.017222 -0.879695 0.909865
1.829961 -0.798565 1.510321
1.815670 -0.792908 2.164049
1.846159 -0.806659 2.645147
1.900923 -0.831467 3.589491
1.906095 -0.834196 4.093835
1.716038 -0.751456 4.647428
1.807198 -0.792128 5.501909
2.068095 -0.907020 5.995474
2.106712 -0.925001 7.024637
1.941930 -0.852947 7.385295
1.930623 -0.848652 8.128827
1.938574 -0.852749 8.794510
1.741574 -0.766795 9.731356
1.682177 -0.931314 2.025382
1.680776 -0.930872 2.395676
1.687624 -0.935324 3.127550
1.730643 -0.959852 3.866805
1.630299 -0.904804 4.581150
1.765280 -0.980417 5.311088
1.943079 -1.079688 5.789400
1.931501 -1.074040 6.565846
1.917946 -1.067186 7.251829
1.887555 -1.050910 7.908845
1.890695 -1.053399 8.672743
1.765404 -0.984133 9.312865
1.378022 -0.956945 0.990396
1.634648 -1.135531 1.359371
1.609729 -1.119074 2.231716
1.613104 -1.121829 2.648961
1.686542 -1.173923 3.639169
1.702908 -1.185953 4.256831
1.539034 -1.072351 4.849619
1.562814 -1.089578 5.551519
1.828532 -1.275669 6.261534
1.827121 -1.275116 6.659575
1.743923 -1.217810 7.413491
1.794595 -1.254201 8.357806
1.801193 -1.259490 9.004214
1.567896 -1.096973 9.769186
1.495421 -1.288149 1.558612
1.480201 -1.276040 2.507307
1.522829 -1.313542 3.196253
1.535442 -1.324890 3.622939
1.460741 -1.261126 4.303549
1.523089 -1.315821 5.099944
1.611575 -1.392955 5.689124
1.649226 -1.426181 6.270498
1.735909 -1.502203 7.123201
1.665955 -1.442380 7.760832
1.611013 -1.395654 8.541252
1.584884 -1.373935 9.403366
1.247273 -1.288963 0.588366
1.386769 -1.434170 1.472586
1.362775 -1.410244 2.241160
1.380280 -1.429159 2.922699
1.409135 -1.459887 3.632364
1.398866 -1.449631 3.958330
1.308490 -1.357008 4.915876
1.348923 -1.399398 5.313030
1.570146 -1.629900 6.023559
1.554207 -1.614257 6.725156
1.465146 -1.522477 7.347692
1.505428 -1.565637 8.391868
1.516435 -1.577919 9.066846
1.321923 -1.376162 9.750273
1.228167 -1.548378 1.615248
1.214658 -1.532032 2.146720
1.242945 -1.568962 3.092514
1.254115 -1.583984 3.785846
1.188351 -1.501402 4.180650
1.225567 -1.549511 5.018654
1.309835 -1.657269 5.885395
1.346454 -1.704091 6.223576
1.366690 -1.731071 7.181049
1.331597 -1.687538 7.861894
1.312749 -1.664490 8.494260
1.259298 -1.597546 9.167999
1.016191 -1.571239 1.999895
1.027168 -1.589187 2.683069
1.055530 -1.633972 3.297644
1.068421 -1.654646 3.781848
1.002975 -1.554218 4.467491
1.094299 -1.697038 5.311088
1.209384 -1.876455 5.845623
1.196064 -1.857166 6.692461
1.193051 -1.853659 7.416472
1.158825 -1.801620 8.160671
1.130736 -1.759031 8.891567
1.034672 -1.610469 9.585536
0.871928 -1.707856 0.520068
0.916755 -1.797298 1.414958
0.857920 -1.682711 1.865991
0.867044 -1.701848 2.586580
0.885795 -1.740040 3.373216
0.907106 -1.783137 4.055513
0.855192 -1.681911 4.558953
0.932386 -1.835318 5.401478
1.015050 -1.999092 5.901830
1.006882 -1.984723 6.776821
0.926726 -1.827358 7.164625
0.900216 -1.776624 8.066884
0.903244 -1.783750 8.734363
0.838668 -1.657182 9.377333
0.700889 -1.763131 0.775898
0.750964 -1.890019 1.178380
0.707449 -1.782095 1.930838
0.705266 -1.778065 2.624407
0.700019 -1.766358 3.349684
0.702398 -1.773992 4.123910
0.700585 -1.770981 4.874538
0.748406 -1.892746 5.250761
0.800198 -2.025501 5.970844
0.765332 -1.938879 6.706936
0.750459 -1.902953 7.509901
0.723921 -1.836642 7.991386
0.735056 -1.866977 8.963689
0.616029 -1.565444 9.496117
0.435247 -1.476358 0.191167
0.543096 -1.843795 0.765885
0.557062 -1.893487 1.558612
0.531376 -1.807969 2.217612
0.518259 -1.765317 2.963753
0.527136 -1.797233 3.581779
0.540673 -1.845244 4.246833
0.535064 -1.827813 4.874538
0.548144 -1.873899 5.369710
0.594734 -2.035842 6.223073
0.578470 -1.982401 6.994493
0.557336 -1.911991 7.729404
0.542329 -1.862259 8.388486
0.313984 -1.665318 0.647153
0.353570 -1.877802 1.239384
0.348014 -1.850432 1.752426
0.349038 -1.859774 2.683069
0.338274 -1.804506 3.202884
0.343416 -1.834217 3.754834
0.350743 -1.876656 4.536783
0.319146 -1.709767 5.130569
0.346175 -1.858532 6.069450
0.359939 -1.934892 6.631629
0.360391 -1.941180 7.535274
0.351011 -1.892995 8.112277
0.338759 -1.829974 8.900381
0.289713 -1.566319 9.356634
0.139726 -1.711746 0.513558
0.152843 -1.879273 1.230813
0.152422 -1.879617 1.809211
0.145894 -1.806516 2.622470
0.149606 -1.858332 3.238470
0.141702 -1.765118 3.803567
0.141225 -1.764852 4.439079
0.157837 -1.981062 5.267709
0.145285 -1.830527 6.049636
0.140868 -1.779787 6.607614
0.147895 -1.876820 7.466069
0.138373 -1.759212 7.859906
0.136961 -1.749261 8.786072
0.124267 -1.592138 9.468101
-0.016791 -1.778128 1.006547
-0.017912 -1.866112 1.383217
-0.016641 -1.693178 1.952865
-0.017330 -1.691086 2.986018
-0.015167 -1.455739 3.431263
-0.018605 -1.726543 4.290168
-0.023581 -2.135170 4.899605
-0.022357 -1.987309 5.431942
-0.021500 -1.855328 6.300352
-0.021092 -1.780132 6.973175
-0.020812 -1.723750 7.559931
-0.022218 -1.785551 8.496116
-0.020295 -1.611444 8.933835
-0.182278 -1.684306 0.618605
-0.195212 -1.799633 1.223987
-0.181472 -1.669996 1.695876
-0.183306 -1.680677 2.669939
-0.200185 -1.832994 3.011132
-0.233042 -2.127788 3.734662
-0.245074 -2.230366 4.588304
-0.228732 -2.076511 5.271476
-0.198427 -1.798568 5.742065
-0.179032 -1.618788 6.449874
-0.187649 -1.691230 7.335958
-0.195221 -1.755362 7.979409
-0.192315 -1.724841 8.710055
-0.165173 -1.477500 9.539046
-0.360081 -1.733948 0.712229
-0.375381 -1.804907 1.441066
-0.333289 -1.599996 2.224023
-0.405087 -1.937206 4.086740
-0.450918 -2.153833 4.641818
-0.420494 -2.005130 5.499555
-0.330677 -1.575316 6.059608
-0.292929 -1.393789 6.715923
-0.321871 -1.529372 7.405036
-0.333686 -1.582976 8.224488
-0.539395 -1.709494 0.521943
-0.542327 -1.717762 0.939418
-0.473772 -1.499365 1.538409
-0.454120 -1.435888 2.174559
-0.526552 -1.662891 3.019766
-0.649668 -2.049266 3.819199
-0.665546 -2.097455 4.450983
-0.646247 -2.034878 5.072309
-0.569272 -1.787975 6.944067
-0.464537 -1.457180 7.953196
-0.462996 -1.451138 8.580461
-0.400634 -1.254755 9.193700
-0.581001 -1.375872 0.583868
-0.635368 -1.503657 1.144350
-0.590879 -1.397128 1.933951
-0.759762 -1.792139 4.023549
-0.837510 -1.974614 4.410440
-0.771537 -1.817537 5.182769
-0.691799 -1.625989 7.282544
-0.549578 -1.290727 8.072763
-0.538770 -1.264498 8.708510
-0.465354 -1.091144 9.672556
-0.681032 -1.243993 0.565933
-0.757882 -1.383796 0.993232
-0.751902 -1.371700 1.883443
-0.907952 -1.653075 3.934695
-0.965461 -1.756808 4.495519
-0.888923 -1.616805 4.989221
-0.798543 -1.449243 7.355773
-0.623870 -1.131613 8.037383
-0.655663 -1.188505 8.743339
-0.589311 -1.067534 9.508187
-0.731466 -1.071644 0.789314
-0.897281 -1.313883 1.384619
-0.786893 -1.151646 1.988823
-0.978347 -1.429163 4.125563
-1.091062 -1.592740 4.880510
-0.989047 -1.443049 5.527727
-0.727289 -1.060694 6.095830
-0.388959 -0.566959 6.856620
-0.389694 -0.567676 7.620569
-0.637828 -0.928535 8.319615
-0.718278 -1.044956 9.103717
-0.500867 -0.728428 9.608788
-1.005896 -1.200454 0.420260
-1.032528 -1.231508 1.135628
-0.863605 -1.029763 1.461785
-0.840912 -1.002087 2.215796
-0.707745 -0.842991 2.822178
-0.926518 -1.102908 3.529558
-1.100590 -1.309417 4.157037
-0.771860 -0.917822 4.885115
-0.645628 -0.767198 5.765658
-0.480129 -0.570172 6.622936
-0.376572 -0.446948 7.366050
-0.628654 -0.745663 8.109542
-0.755278 -0.895473 8.615366
-0.714897 -0.847235 9.186103
-1.199737 -1.189703 0.256970
-1.151362 -1.141297 0.724832
-0.900676 -0.892296 1.435997
-0.897238 -0.888283 2.286370
-0.851043 -0.842221 2.775647
-1.089457 -1.077561 3.443094
-1.240790 -1.226241 4.432739
-0.869769 -0.859316 4.872052
-0.698017 -0.689237 5.629752
-0.477766 -0.471511 6.353408
-0.375533 -0.370346 7.336740
-0.641478 -0.632313 7.891404
-0.804653 -0.792793 8.441409
-0.818730 -0.806111 9.340826
-0.965147 -0.776917 0.154243
-1.052655 -0.846813 0.932347
-0.992879 -0.798300 1.580469
-0.923906 -0.742436 2.252597
-0.662894 -0.532322 3.126712
-1.230704 -0.987276 4.308489
-0.922182 -0.739219 5.291577
-0.725943 -0.581701 5.787377
-0.513018 -0.410848 6.558189
-0.441892 -0.353659 7.400535
-0.675383 -0.540265 7.960663
-0.812759 -0.649811 8.606139
-0.805186 -0.643372 9.382382
-1.265031 -0.837831 0.506939
-1.054726 -0.698027 1.358936
-0.986083 -0.652119 2.204321
-1.239756 -0.819567 2.618192
-1.524565 -1.007149 3.375853
-1.452994 -0.959179 4.201598
-1.231631 -0.812726 4.690928
-0.981317 -0.647078 5.579205
-0.625052 -0.411911 6.359893
-0.471720 -0.310704 7.012514
-0.614784 -0.404685 7.722963
-0.777304 -0.511331 8.468280
-0.822435 -0.540732 9.104403
-1.008382 -0.529794 0.174014
-1.023909 -0.537455 1.121242
-1.041252 -0.546290 1.623570
-0.980177 -0.513961 2.199305
-0.596389 -0.312454 3.112582
-1.442355 -0.754570 4.505724
-1.069308 -0.559019 5.287882
-0.637551 -0.333136 5.891907
-0.236544 -0.123538 6.506694
-0.380717 -0.198672 7.356677
-0.727461 -0.379364 7.991048
-0.801351 -0.417544 8.886946
-0.698433 -0.363778 9.342188
-1.053026 -0.433999 0.145012
-1.064597 -0.438366 0.947301
-1.090777 -0.448760 1.700825
-1.460120 -0.599194 3.882577
-1.584088 -0.649542 4.572237
-1.160266 -0.475510 5.093780
-0.679180 -0.278098 5.979926
-0.301393 -0.123323 6.690270
-0.404945 -0.165563 7.396116
-0.759496 -0.310295 7.991048
-0.784207 -0.320195 8.549879
-0.746834 -0.304688 9.316361
-1.068060 -0.317656 0.212833
-1.031773 -0.306532 0.949305
-0.957558 -0.284220 1.583058
-0.939176 -0.278526 2.168196
-0.505027 -0.149630 2.857927
-1.436035 -0.424536 4.269805
-1.105175 -0.326439 4.911280
-0.647957 -0.191170 5.778465
-0.323393 -0.095326 6.473698
-0.506622 -0.149174 7.213787
-0.825582 -0.242819 7.941178
-0.875054 -0.257126 8.606367
-0.792281 -0.232590 9.290558
-0.874006 -0.168985 0.331008
-1.067683 -0.206002 1.297895
-0.989319 -0.190690 1.767443
-1.095925 -0.210974 2.344429
-0.957180 -0.183964 3.115818
-1.102479 -0.211445 4.080045
-0.356631 -0.068031 6.754899
-0.522051 -0.099405 7.602558
-0.842838 -0.160318 8.044072
-0.823776 -0.156473 8.727343
-0.656363 -0.124494 9.478055
-0.930505 -0.087121 1.810057
-1.082572 -0.100989 2.647944
-1.402832 -0.130387 3.464906
-1.522054 -0.141200 3.888088
-1.394998 -0.129074 4.505698
-0.952420 -0.087844 5.305400
-0.537650 -0.049450 6.032490
-0.564403 -0.051693 7.022338
-0.842169 -0.076916 7.638166
-0.982326 -0.089509 8.158094
-0.866134 -0.078667 8.957486
-0.564971 -0.051137 9.873342
-0.819991 -0.000991 0.673132
-1.138413 -0.001075 1.325072
-0.944431 -0.000642 1.994772
-0.865824 -0.000347 2.703649
-1.153292 -0.000247 3.148886
-1.497423 0.000110 3.833431
-1.307961 0.000467 4.566510
-0.770394 0.000458 5.243277
-0.327884 0.000279 5.976520
-0.432594 0.000538 6.987105
-0.814727 0.001193 7.491892
-0.999790 0.001756 8.216337
-0.935828 0.001956 9.116790
-0.538111 0.001215 9.670252
-0.462768 0.047613 0.334948
-0.582167 0.060111 1.247436
-0.859122 0.088933 1.891804
-0.809172 0.083899 2.315434
-0.713380 0.074171 3.039794
-1.081945 0.112921 3.995782
-0.211588 0.022291 6.629069
-0.574943 0.060769 7.459467
-0.994219 0.105409 8.216337
-0.939592 0.099876 8.948964
-0.708383 0.075469 9.644482
-0.830549 0.171339 0.818870
-0.821651 0.169683 1.346026
-0.805348 0.166551 2.050527
-0.839158 0.173842 2.910212
-1.057271 0.219267 3.438665
-1.377032 0.286124 4.349053
-1.246846 0.259336 4.874859
-0.706623 0.147202 5.750961
-0.447283 0.093317 6.574394
-0.674898 0.140930 6.998420
-0.957533 0.200314 7.894635
-0.965049 0.202113 8.485857
-0.825550 0.173169 9.358811
-0.994256 0.300736 0.077558
-1.022444 0.309483 0.571564
-0.834353 0.252900 1.539913
-0.773132 0.234573 2.227622
-0.677729 0.205736 2.607347
-0.882258 0.268121 3.365594
-1.173690 0.357191 4.322309
-1.028751 0.313330 4.902208
-0.625354 0.190647 5.641310
-0.383022 0.116884 6.401309
-0.679608 0.207608 7.106078
-0.876879 0.268072 7.612765
-0.915136 0.280098 8.472221
-0.748213 0.229164 9.020875
-0.475883 0.195384 0.236109
-0.581502 0.238965 1.039785
-0.762506 0.313548 1.600588
-0.736942 0.303187 2.042197
-0.645517 0.265799 2.804953
-0.772537 0.318445 3.757798
-1.138953 0.469717 4.155407
-0.932852 0.385058 4.970687
-0.411693 0.170040 5.603342
-0.261473 0.108108 6.595822
-0.534470 0.221171 7.336592
-0.867418 0.359169 7.832006
-0.915804 0.379571 8.720896
-0.659297 0.273393 9.257014
-1.031132 0.552339 0.656888
-0.866463 0.464362 1.175327
-0.714921 0.383389 1.845666
-0.765501 0.410866 2.742615
-0.615828 0.330733 3.396520
-0.698536 0.375389 4.058623
-0.802607 0.431549 4.617855
-0.495166 0.266419 5.374133
-0.249590 0.134363 6.014356
-0.518817 0.279532 6.875379
-0.873481 0.470971 7.606820
-0.937161 0.505673 8.385191
-0.830038 0.448167 9.145956
-0.515589 0.278535 9.847098
-0.575495 0.385797 0.548230
-0.528974 0.354837 1.294727
-0.650408 0.436482 1.788370
-0.669614 0.449677 2.580584
-0.686548 0.461382 3.423754
-0.681443 0.458121 3.857967
-0.682256 0.458998 4.708732
-0.501446 0.337520 5.317695
-0.300829 0.202625 6.184082
-0.557568 0.375796 6.910289
-0.903818 0.609548 7.585922
-0.847110 0.571586 8.201014
-0.735013 0.496268 9.025656
-0.450699 0.304422 9.594985
-0.146298 0.119973 0.198530
-0.270062 0.221588 0.879737
-0.618249 0.507583 1.611465
-0.608845 0.500143 2.307286
-0.613733 0.504466 3.062746
-0.646161 0.531424 3.767548
-0.629019 0.517608 4.451931
-0.468102 0.385400 5.157088
-0.287939 0.237178 5.786621
-0.348947 0.287636 6.687301
-0.652192 0.537928 7.393938
-0.872471 0.719927 7.891180
-0.826113 0.682112 8.732110
-0.556138 0.459360 9.286361
-0.553540 0.558397 1.846954
-0.542478 0.547488 2.426121
-0.546853 0.552222 3.152782
-0.584330 0.590438 3.945742
-0.583249 0.589635 4.568977
-0.410895 0.415581 5.180273
-0.250093 0.253096 5.992217
-0.446354 0.451981 6.714294
-0.771540 0.781869 7.624640
-0.863825 0.875729 8.102255
-0.731787 0.742195 8.718692
-0.441373 0.447981 9.814295
-0.467218 0.572232 0.078213
-0.567210 0.695096 0.778791
-0.534692 0.655642 1.521495
-0.516195 0.633181 1.952982
-0.470979 0.578099 2.771734
-0.487883 0.599266 3.636073
-0.521162 0.640396 4.124084
-0.399490 0.491145 4.803484
-0.269247 0.331233 5.646622
-0.200449 0.246731 6.364922
-0.379983 0.467997 7.076446
-0.639043 0.787575 7.825615
-0.617622 0.761483 8.353875
-0.552769 0.682054 9.391439
-0.451779 0.669041 1.767607
-0.428973 0.635593 2.367510
-0.416863 0.618023 3.076784
-0.427100 0.633588 3.794948
-0.438601 0.650992 4.415965
-0.336765 0.500208 5.307882
-0.193200 0.287106 5.932924
-0.366796 0.545384 6.558189
-0.599263 0.891621 7.265832
-0.605638 0.901681 8.033387
-0.516242 0.768961 8.664731
-0.426495 0.635813 9.745497
0.028420 -0.052681 0.329822
-0.369278 0.685399 1.690719
-0.376886 0.700002 2.414670
-0.389228 0.723578 3.365235
-0.384927 0.715862 3.779925
-0.388555 0.723235 4.698978
-0.295647 0.550677 5.455041
-0.188466 0.351236 6.096728
-0.333771 0.622558 6.954499
-0.499642 0.932308 7.309606
-0.519016 0.969165 8.091467
-0.461965 0.863149 8.775408
-0.345916 0.646832 9.722729
-0.141676 0.335840 0.246969
-0.215846 0.512147 1.110740
-0.319878 0.759401 1.590834
-0.306147 0.727395 2.326812
-0.270983 0.644190 2.814740
-0.294419 0.700635 3.755867
-0.318545 0.758517 4.312324
-0.220853 0.526215 4.901831
-0.145979 0.348088 5.654336
-0.093811 0.223929 6.654324
-0.235123 0.561707 7.361040
-0.430749 1.029683 7.823479
-0.421560 1.008676 8.716462
-0.299105 0.716128 9.397341
-0.296991 0.969287 0.087314
-0.334711 1.093152 0.570357
-0.274718 0.898214 1.351986
-0.239208 0.782808 1.982247
-0.205133 0.672130 2.863675
-0.261725 0.858188 3.367943
-0.334715 1.099021 4.302416
-0.289525 0.951369 4.863934
-0.215667 0.709160 5.387421
-0.187415 0.617072 6.347961
-0.261051 0.860228 6.896980
-0.325138 1.072357 7.488444
-0.334879 1.105784 8.333232
-0.312367 1.032461 9.069946
-0.212025 1.050938 0.774974
-0.225587 1.119660 1.421742
-0.185512 0.921680 1.917003
-0.147626 0.734797 2.820604
-0.200665 0.999896 3.336801
-0.268713 1.340973 4.022659
-0.202558 1.015383 6.259004
-0.154991 0.778042 7.008573
-0.191670 0.963063 7.436602
-0.211699 1.065257 8.145441
-0.067697 0.660631 0.176346
-0.081832 0.801488 1.103037
-0.103522 1.015606 1.514053
-0.077755 0.765474 2.406585
-0.161858 1.602227 3.714946
-0.123706 1.228618 4.585778
-0.087306 0.868624 5.079116
-0.056919 0.567693 5.755065
-0.024143 0.241582 6.654324
-0.057645 0.578224 7.223619
-0.117120 1.178453 7.899630
-0.118298 1.193183 8.516715
-0.089231 0.902828 9.404543
-0.011115 1.258819 1.195159
-0.009955 1.161225 1.837296
-0.012878 1.565225 2.669924
-0.004668 0.702785 6.803004
-0.006427 1.018864 7.611296
-0.006875 1.123743 8.085909
-0.007083 1.236343 9.081037
-0.004272 0.768558 9.660810
0.090604 0.934500 0.126386
0.092652 0.951689 1.117850
0.162071 1.650247 3.180843
0.190577 1.935401 3.784563
0.179712 1.819765 4.499119
0.083797 0.839752 7.262198
0.118131 1.180020 8.020972
0.120850 1.204632 8.564962
0.113900 1.131858 9.395546
0.198506 1.046102 0.280947
0.205307 1.080498 0.890570
0.314561 1.647315 3.111937
0.363323 1.900146 3.690073
0.317167 1.656381 4.372430
0.154740 0.803640 7.135430
0.228024 1.181960 7.986501
0.238196 1.232730 8.748155
0.220378 1.139332 9.286156
0.329149 1.116369 0.125588
0.333680 1.130230 1.023888
0.398383 1.347981 1.718814
0.366106 1.237653 2.332888
0.462535 1.562390 2.847300
0.602831 2.033304 3.784359
0.563719 1.899922 4.316264
0.248516 0.834536 7.013644
0.318906 1.069622 7.823479
0.366229 1.226880 8.639882
0.363172 1.215692 9.206311
0.489022 1.219702 0.173155
0.491727 1.225690 0.702196
0.528407 1.315981 1.439495
0.544108 1.353837 2.225555
0.661474 1.644793 2.759173
0.797556 1.980923 3.687688
0.673245 1.671473 4.078803
0.487551 1.207239 6.470351
0.344842 0.853310 7.135323
0.408126 1.009240 7.697673
0.498504 1.231686 8.414324
0.540856 1.334895 9.366625
0.586075 1.119709 0.105967
0.604727 1.154318 1.010653
0.665367 1.269121 1.765532
0.773670 1.474876 2.317682
1.004088 1.912956 2.898581
1.090157 2.075599 3.523692
1.077663 2.050087 4.369521
0.935068 1.777667 5.071655
0.656747 1.247806 5.778445
0.461079 0.875447 6.567804
0.427240 0.810791 7.115868
0.534999 1.014554 7.847093
0.631963 1.197633 8.520058
0.644203 1.220129 9.136381
0.924494 1.392570 1.514975
1.141522 1.716874 3.201067
1.276404 1.918220 4.067328
1.058290 1.589574 4.729240
0.954602 1.432891 5.512628
0.782889 1.174472 6.232362
0.497736 0.746339 6.887247
0.551988 0.827173 7.616527
0.769220 1.152044 8.218407
0.850847 1.273512 8.923717
0.722184 1.080462 9.517590
0.960950 1.174064 0.497375
1.135293 1.386028 1.395692
1.021466 1.246616 1.833067
1.066491 1.300782 2.555722
1.361523 1.659918 3.032195
1.568737 1.910940 4.000197
1.492492 1.817400 4.450403
1.365812 1.662405 5.012327
0.837172 1.016711 7.920510
1.055702 1.281123 8.820054
0.964889 1.170372 9.459001
1.272826 1.298313 1.432619
1.142139 1.164738 1.726902
1.211088 1.234255 2.514046
1.566494 1.595529 3.184912
1.766229 1.798072 3.759285
1.696240 1.725668 4.583767
1.613630 1.640642 5.334791
0.973985 0.988168 8.228007
1.138759 1.154902 8.667566
1.051204 1.065318 9.670071
1.160243 0.974596 0.334778
1.287129 1.080506 1.085597
1.308171 1.097563 1.751739
1.646486 1.379027 3.800415
1.907207 1.596639 4.328790
1.853160 1.550206 5.259666
1.229972 1.026714 8.047122
1.282238 1.069996 8.443671
1.145408 0.955308 9.168704
1.418518 0.963988 0.313848
1.569115 1.065911 0.756977
1.444256 0.980463 1.492721
1.432551 0.971939 2.170145
1.239126 0.840285 2.761760
2.130080 1.442243 4.402847
2.006649 1.358227 4.792155
1.851339 1.252128 5.710312
1.402071 0.947914 6.241495
1.314774 0.888225 7.151058
1.490554 1.006403 7.782499
1.511923 1.020173 8.547082
1.429445 0.964044 9.168893
1.199807 0.654957 0.480292
1.496169 0.816285 1.046768
1.520345 0.828923 1.731474
1.604850 0.874350 2.487894
1.373703 0.748085 2.968021
2.190079 1.190700 4.564497
2.096196 1.138941 5.226163
1.878019 1.019792 5.881188
1.645942 0.893374 6.395049
1.655145 0.897561 7.347276
1.588630 0.861124 7.820445
1.518354 0.822473 8.570957
1.325872 0.717748 9.328180
1.738700 0.739129 0.208184
1.860162 0.790302 0.716543
1.783089 0.757075 1.276290
1.701670 0.721881 2.039230
1.822128 0.772280 2.828326
1.705398 0.722368 3.373437
1.799729 0.761698 4.089672
2.122620 0.897538 4.846919
1.993484 0.842249 5.587122
1.805424 0.762323 6.174191
1.763597 0.744088 6.877532
1.746036 0.736256 7.404053
1.816251 0.765008 8.410928
1.713002 0.530146 0.559899
1.843679 0.570172 1.058923
1.846229 0.570395 1.740454
1.830941 0.565197 2.320038
1.956660 0.603123 3.316428
1.967628 0.605985 3.905563
2.028574 0.624099 4.623655
2.032973 0.624795 5.352298
1.897751 0.582939 5.732433
1.945895 0.596884 6.716477
1.940234 0.594545 7.434522
1.875864 0.574517 7.825316
1.865603 0.570645 8.746605
1.571948 0.480476 9.353250
1.972602 0.408221 0.226291
2.075508 0.429156 0.629872
1.902931 0.392824 1.427474
1.870680 0.385530 2.225475
1.946876 0.400642 2.932135
2.057659 0.422848 3.596310
2.042541 0.419278 4.131475
1.965271 0.402955 4.696867
2.008119 0.411188 5.344971
2.132086 0.436002 5.961460
2.128578 0.434458 6.894605
1.984401 0.404628 7.415672
2.010787 0.409260 8.321405
1.890202 0.384327 8.862858
1.547910 0.314279 9.688341
1.778942 0.189341 0.151843
2.035853 0.216158 0.772544
1.969869 0.208386 1.709633
1.957121 0.206522 2.345025
1.966616 0.207145 2.809449
2.032933 0.213516 3.535559
2.071540 0.217074 4.112656
1.909639 0.199584 4.804887
2.010171 0.209522 5.484633
2.323671 0.241259 6.425651
2.194650 0.227432 6.936582
2.141317 0.221207 7.762449
2.106403 0.217005 8.484860
1.940845 0.199553 9.048645
1.866710 0.025660 0.473474
2.025819 0.027469 0.923919
1.991047 0.026193 1.907798
1.963408 0.025532 2.278931
1.989922 0.025320 2.960442
2.065790 0.025619 3.742746
2.133325 0.025777 4.516993
2.037493 0.024294 4.923106
2.178204 0.025159 5.825860
2.257410 0.025653 6.275778
2.204662 0.024377 7.054084
2.137832 0.023107 7.696698
2.045844 0.021564 8.402641
1.881601 0.019299 9.178075
1.861461 -0.165260 0.596566
2.018549 -0.179498 0.942770
2.000239 -0.178544 1.755553
2.002392 -0.179426 2.588572
2.014253 -0.180868 3.043158
2.053574 -0.184961 3.705085
2.107900 -0.190449 4.385414
2.077053 -0.188248 5.079591
2.231208 -0.202979 5.892463
2.281274 -0.207936 6.318054
2.264710 -0.207287 7.264432
2.149152 -0.197039 7.672470
2.166215 -0.199324 8.510453
2.004032 -0.184896 9.183840
2.010731 -0.368693 0.621822
2.074667 -0.380925 1.194630
1.928845 -0.354654 1.814749
1.938633 -0.356929 2.392229
2.011747 -0.371166 3.297588
2.008591 -0.371165 3.983750
1.939606 -0.358784 4.442107
2.178408 -0.403744 5.271344
2.352885 -0.436725 5.895079
2.304964 -0.428627 6.733959
2.098062 -0.390523 7.205778
2.110163 -0.393522 8.070398
2.184147 -0.407978 8.797909
1.929320 -0.360704 9.288106
1.647079 -0.479767 0.361399
1.921282 -0.560132 0.934019
1.924598 -0.561747 1.689537
1.916041 -0.559848 2.390506
1.919763 -0.561267 2.779130
1.976890 -0.578769 3.686253
2.008638 -0.588522 4.197333
1.846228 -0.541435 4.833248
1.919930 -0.563892 5.826777
2.133625 -0.627195 6.369132
2.165802 -0.637312 7.062762
2.080301 -0.612723 7.719410
2.108822 -0.621738 8.395325
2.031796 -0.599612 9.095361
1.863225 -0.753023 1.783843
1.849341 -0.747930 2.371638
1.854100 -0.750215 2.779130
1.913867 -0.775272 3.733331
1.917869 -0.777327 4.209767
1.874694 -0.760363 4.819439
1.901095 -0.771699 5.518393
2.075086 -0.843134 6.317746
2.133715 -0.867805 7.160604
2.023086 -0.823159 7.558423
2.025617 -0.824923 8.348425
1.988716 -0.810571 9.107769
1.782706 -0.912410 1.642379
1.786183 -0.915022 2.541421
1.805688 -0.925554 3.118562
1.778957 -0.912280 3.587817
1.728523 -0.887137 4.407499
1.796619 -0.922775 5.147085
1.947343 -1.000955 5.891537
2.001075 -1.029212 6.509651
1.977119 -1.017396 7.020948
1.941187 -0.999640 7.785102
1.929597 -0.994345 8.491683
1.837708 -0.947518 9.098704
1.595315 -1.024079 0.700211
1.717624 -1.103281 1.385672
1.612579 -1.036303 1.921383
1.656908 -1.065555 2.715051
1.648668 -1.060709 3.191412
1.684875 -1.084873 4.083808
1.567486 -1.009719 4.581150
1.672819 -1.078260 5.286581
1.949049 -1.257384 6.196884
1.820197 -1.174649 6.603390
1.802770 -1.164067 7.262144
1.823324 -1.178273 8.173681
1.782506 -1.152514 8.813310
1.619382 -1.047561 9.449396
1.428508 -1.135523 0.881863
1.569761 -1.248681 1.708399
1.549387 -1.232926 2.145173
1.549425 -1.233685 2.847202
1.541165 -1.227832 3.552635
1.528621 -1.218800 4.501964
1.522519 -1.214253 4.820349
1.620306 -1.293148 5.650211
1.754143 -1.400955 6.481556
1.748843 -1.397279 6.969112
1.696667 -1.356294 7.620111
1.718666 -1.374755 8.404703
1.671415 -1.337769 9.179937
1.368050 -1.325065 1.684958
1.403801 -1.360623 2.516751
1.379179 -1.337320 3.033020
1.399463 -1.357875 3.831798
1.369476 -1.329316 4.335004
1.442819 -1.401380 5.090515
1.583218 -1.538727 5.849816
1.590748 -1.546658 6.341015
1.620924 -1.577247 7.325787
1.555551 -1.514095 7.728796
1.524600 -1.485007 8.631871
1.421171 -1.384911 9.272192
1.017955 -1.197614 0.754517
1.273190 -1.498698 1.388678
1.238761 -1.458746 1.864648
1.240950 -1.462324 2.690597
1.245082 -1.467991 3.347282
1.290082 -1.521887 4.008347
1.196443 -1.412378 4.853078
1.222325 -1.443660 5.466376
1.423840 -1.682632 6.120932
1.447900 -1.712103 6.861140
1.365215 -1.615094 7.475166
1.322719 -1.565844 8.311986
1.321008 -1.564447 8.822471
1.177855 -1.395639 9.548652
1.115522 -1.624726 1.492531
1.127463 -1.643349 2.343335
1.117146 -1.628935 2.781132
1.092453 -1.593819 3.422898
1.103236 -1.611041 4.483074
1.036879 -1.514695 4.922888
1.092249 -1.596500 5.575921
1.249294 -1.827280 6.312894
1.269313 -1.857707 7.025308
1.156030 -1.692575 7.528740
1.188462 -1.741424 8.447253
1.175758 -1.723557 8.973101
0.829976 -1.500679 0.294828
0.923216 -1.670705 1.182641
0.924424 -1.673952 1.836279
0.953158 -1.726949 2.411110
0.968346 -1.755693 3.130241
0.964754 -1.750339 3.816867
0.934035 -1.695462 4.350804
0.915725 -1.663541 5.184415
0.989781 -1.799232 5.837308
1.060792 -1.929114 6.247262
1.042771 -1.897878 7.111077
0.998897 -1.819098 7.760119
0.978861 -1.783579 8.355533
0.950124 -1.732447 9.143070
0.686833 -1.599616 0.389650
0.781501 -1.821637 1.132898
0.781077 -1.821899 1.737946
0.769857 -1.796539 2.137275
0.769478 -1.797079 2.839807
0.774976 -1.811866 3.791289
0.753618 -1.762726 4.199561
0.695086 -1.627218 4.990387
0.723050 -1.693904 5.629713
0.847092 -1.986081 6.293760
0.851174 -1.997522 7.139237
0.796171 -1.869489 7.680811
0.791060 -1.859151 8.508761
0.753577 -1.772413 9.247328
0.585945 -1.796770 0.293348
0.606905 -1.863424 1.209268
0.597732 -1.836568 1.721551
0.583384 -1.793783 2.246004
0.565185 -1.739229 2.831064
0.582804 -1.795676 3.723758
0.595314 -1.835703 4.303549
0.544570 -1.680720 4.971395
0.582427 -1.799203 5.621716
0.666858 -2.062566 6.476692
0.613464 -1.898756 7.028254
0.590400 -1.828852 7.645795
0.621114 -1.926578 8.627894
0.560536 -1.739581 9.070760
0.387823 -1.752602 0.664276
0.423588 -1.916588 1.294256
0.409914 -1.857633 2.102519
0.397489 -1.803554 2.743774
0.397138 -1.804900 3.584345
0.408205 -1.856947 4.067158
0.414810 -1.889412 4.725862
0.373044 -1.701540 5.480217
0.397751 -1.816223 6.035878
0.447484 -2.046817 6.890524
0.420349 -1.924884 7.516394
