-2.677996 -3.119268 2.485292
-2.718306 -3.166220 3.191220
-2.708786 -3.155131 4.339582
-5.849687 -5.647889 -0.378718
-2.856354 -2.757818 1.411530
-2.880240 -2.780880 1.879034
-2.910909 -2.810491 2.345772
-2.893490 -2.793673 2.093588
-2.936511 -2.835209 2.673190
-2.956592 -2.854598 3.097585
-2.936120 -2.834832 4.197945
-2.805629 -2.708843 4.710982
-2.772116 -2.676486 5.211982
-2.805381 -2.205054 0.862219
-2.729509 -2.145418 1.448377
-2.722242 -2.139706 2.758049
-2.749623 -2.161228 3.232468
-2.784481 -2.188627 3.706593
-2.847065 -2.237818 4.182281
-2.771497 -1.787140 0.982868
-2.771276 -1.786998 1.465566
-2.800213 -1.805657 1.946638
-2.837302 -1.829573 2.426917
-2.710626 -1.747889 2.165703
-2.647036 -1.706884 2.661866
-2.695565 -1.738177 3.139148
-2.719023 -1.753304 3.521122
-2.776416 -1.441947 0.222758
-2.673863 -1.388685 0.711173
-2.690671 -1.397415 1.191562
-2.687935 -1.395994 1.574542
-2.720490 -1.412902 2.061013
-2.783199 -1.445470 2.537462
-2.832249 -1.470944 3.015036
-2.772953 -1.440149 4.656946
-7.533350 -3.057857 -0.326845
-2.745620 -1.114473 0.719242
-2.763327 -1.121660 1.200621
-2.789910 -1.132451 1.681523
-2.826454 -1.147284 2.174905
-2.965138 -1.203577 3.452927
-2.995200 -0.900902 0.111380
-2.882371 -0.866966 0.599255
-2.899807 -0.872210 1.112622
-2.963405 -0.891339 2.376125
-2.986522 -0.898292 2.831297
-2.716228 -0.816993 2.555721
-2.423560 -0.728963 2.968651
-2.374530 -0.714216 3.536187
-2.437228 -0.733074 3.966250
-2.410326 -0.724983 4.538129
-2.751086 -0.535872 1.916363
-2.413662 -0.470146 2.296178
-2.509610 -0.488836 3.717009
-2.462108 -0.479583 3.381301
-2.485528 -0.484145 3.885701
-2.585445 -0.503607 4.620347
-8.221932 -0.736580 -0.298930
-2.824009 -0.252995 0.616860
-2.692092 -0.241177 1.114260
-2.536915 -0.227275 2.159457
-2.361052 -0.211520 2.666204
-2.398423 -0.214868 3.195906
-2.444054 -0.218956 3.705012
-3.068342 0.005636 0.873918
-2.819237 0.005179 0.902892
-2.530228 0.004648 1.958084
-2.350867 0.004318 2.476897
-2.372250 0.004358 2.905529
-2.419600 0.004445 3.469103
-2.502258 0.004597 4.014546
-2.588253 0.004755 5.158309
-2.281607 0.223663 1.411650
-2.290188 0.224504 1.914933
-2.331722 0.228576 2.395721
-2.357798 0.231132 2.878496
-2.407121 0.235967 3.462358
-2.478450 0.242959 3.940582
-2.403652 0.235627 4.396645
-2.451448 0.483593 1.022525
-2.470134 0.487280 2.385619
-2.324047 0.458461 1.814562
-2.322375 0.458131 2.386559
-2.347135 0.463016 2.862108
-2.409643 0.475347 3.367894
-2.467465 0.486753 3.936638
-2.568838 0.506751 4.803683
-2.992232 0.877741 0.872105
-2.894060 0.848943 1.363966
-2.901267 0.851057 1.852652
-2.754441 0.807987 2.639209
-2.433182 0.713749 3.008934
-2.384008 0.699324 3.569827
-2.448443 0.718226 4.006508
-2.474253 0.725797 4.860209
-7.602608 3.018380 -0.300116
-2.861713 1.136154 0.269177
-2.755584 1.094019 0.772014
-2.824982 1.121571 2.049993
-2.650240 1.052196 2.694933
-2.503786 0.994051 3.260758
-2.429543 0.964575 3.592080
-2.637412 1.371584 0.989653
-2.659141 1.382885 1.470787
-2.687487 1.397626 1.925026
-2.810074 1.461377 3.217612
-2.751108 1.430712 2.893262
-2.604661 1.354552 3.369765
-2.480787 1.290132 3.953039
-2.447420 1.272779 4.328746
-2.672070 1.724802 0.372661
-2.553578 1.648316 0.756469
-2.549267 1.645533 1.237605
-2.574375 1.661740 1.724036
-2.604218 1.681004 2.163852
-2.614613 1.687713 2.546645
-2.758646 1.780685 3.833886
-2.682946 1.731822 4.874546
-6.435062 5.050761 -0.336333
-2.592666 2.034936 1.439543
-2.629628 2.063947 2.076529
-2.654157 2.083199 2.407464
-2.695562 2.115697 2.880329
-2.668608 2.094542 2.582481
-2.717058 2.132569 3.284483
-2.826306 2.218316 4.306730
-2.699687 2.118935 4.115907
-2.565650 2.013732 4.833535
-5.880417 5.686906 -0.336333
-2.371500 2.293460 1.491587
-2.396628 2.317760 1.972621
-2.426339 2.346494 2.420433
-2.464929 2.383814 2.899739
-2.454357 2.373590 2.776779
-2.523782 2.440731 3.671792
-2.424987 2.345187 3.600216
-2.272805 2.198012 4.311207
-2.191719 2.119595 5.040974
-2.037635 2.373742 0.203103
-1.945829 2.266793 0.692140
-1.955119 2.277616 1.080844
-1.972250 2.297572 1.561384
-1.978300 2.304620 2.023689
-1.991866 2.320424 4.005007
-1.835961 2.138802 3.935763
-1.874871 2.184130 4.567432
-1.598246 2.256709 0.791695
-1.623903 2.292937 2.002676
-1.518794 2.144524 2.483012
-1.502595 2.121651 2.188566
-1.570250 2.217180 3.244128
-1.580155 2.231165 3.370695
-1.514202 2.138040 3.632226
-1.195439 2.074208 0.905147
-1.213667 2.105836 1.620363
-1.222715 2.121534 1.876462
-1.186644 2.058947 2.481170
-1.184958 2.056023 2.912286
-1.208206 2.096360 3.469103
-1.245136 2.160437 3.960758
-1.278555 2.218423 5.024256
-0.907449 2.020799 0.795940
-0.906617 2.018946 1.334296
-0.927730 2.065964 1.760786
-0.967060 2.153548 2.318959
-0.975934 2.173309 2.774310
-0.985080 2.193676 3.361153
-0.707065 2.081286 1.014541
-0.714757 2.103928 1.490695
-0.725199 2.134665 1.959516
-0.741296 2.182045 2.515750
-0.760049 2.237248 3.036927
-0.745685 2.194967 3.642305
-0.731297 2.152613 4.163326
-0.724720 2.133253 4.889319
-0.514335 2.139728 1.075785
-0.520495 2.165358 1.572272
-0.506475 2.107031 2.117301
-0.493905 2.054736 2.611020
-0.507808 2.112578 3.129380
-0.520313 2.164601 3.704406
-0.502190 2.089205 4.324521
-0.460063 1.913947 4.454789
-0.285095 1.989202 1.269563
-0.289455 2.019629 1.776665
-0.294483 2.054708 2.221502
-0.321254 2.241497 3.055874
-0.317633 2.216236 3.252296
-0.293148 2.045397 3.980277
-0.287464 2.005738 4.494052
-0.266200 1.857368 4.784546
-0.078755 1.952378 1.155276
-0.079901 1.980798 1.663522
-0.088501 2.193996 2.678118
-0.089328 2.214492 2.634652
-0.085817 2.127441 3.183369
-0.083108 2.060295 3.952910
-0.083287 2.064728 4.713146
-0.074329 1.842657 4.469660
0.105817 1.973347 1.092343
0.107390 2.002679 1.634444
0.107849 2.011242 2.088837
0.110495 2.060572 2.616206
0.106562 1.987235 3.277795
0.102884 1.918644 3.862309
0.107717 2.008775 4.411803
0.111222 2.074131 5.030471
1.185452 8.042438 -0.264593
0.321501 2.181157 0.333389
0.305282 2.071117 0.895607
0.290745 1.972497 1.442380
0.291870 1.980129 1.931122
0.320949 2.177411 2.725754
0.321171 2.178915 2.959931
0.292451 1.984068 3.576148
0.287209 1.948507 4.164775
1.982047 7.831204 -0.156055
0.516803 2.041926 0.437183
0.483764 1.911387 0.982480
0.489297 1.933245 1.449241
0.492747 1.946876 1.675588
0.502074 1.983729 2.445097
0.510336 2.016375 2.988333
0.520076 2.054856 3.490296
0.513509 2.028910 4.144379
2.687211 7.566250 -0.260769
0.746298 2.101315 0.346648
0.733613 2.065599 0.851194
0.708657 1.995332 1.414744
0.723923 2.038314 2.069601
0.733052 2.064020 2.376104
0.702261 1.977321 2.930721
0.677965 1.908914 3.356811
0.653018 1.838671 3.724214
0.927671 1.996576 1.096199
0.895810 1.928002 1.558093
0.911442 1.961648 2.069601
0.976689 2.102074 2.644464
0.947606 2.039482 3.133640
0.903716 1.945019 3.995806
0.881823 1.897901 4.580958
0.883829 1.902217 5.005057
1.107795 1.901858 1.082590
1.121130 1.924752 1.579069
1.153700 1.980669 2.113526
1.179157 2.024373 2.641817
1.208963 2.075544 3.148664
1.258341 2.160315 4.001100
1.250853 2.147460 4.773897
1.115845 1.915679 4.565281
1.427514 1.963624 0.094398
1.328626 1.827598 0.590711
1.339325 1.842315 1.120042
1.339129 1.842045 1.575908
1.490075 2.049679 2.995507
1.477398 2.032242 2.582973
1.443590 1.985737 3.169297
1.471374 2.023956 3.855991
1.429036 1.965717 4.338345
1.303354 1.792835 4.832949
1.679691 1.915513 1.491427
1.712535 1.952969 2.161782
1.735279 1.978906 2.523137
1.716482 1.957470 2.228737
1.754156 2.000433 3.000447
1.824804 2.081000 3.773596
1.853334 2.113536 4.614495
2.200750 2.074457 1.027089
2.064620 1.946139 1.300905
1.959324 1.846885 2.375421
1.958853 1.846441 2.368751
1.973018 1.859794 2.791464
2.053743 1.935886 3.799128
2.094725 1.974517 4.143755
2.725829 2.100901 0.815058
2.616971 2.017000 1.125967
2.622602 2.021340 1.673681
2.668805 2.056951 2.362068
2.642864 2.036957 2.005096
2.690119 2.073378 2.837998
2.705881 2.085527 2.999892
2.756220 2.124325 3.795713
2.738565 2.110718 4.666207
2.555238 1.969420 4.522287
6.820959 4.283903 -0.286469
2.797663 1.757072 1.563135
2.828487 1.776431 2.044062
2.863479 1.798408 2.478783
2.909253 1.827156 2.951488
2.962987 1.860904 3.423023
2.925325 1.837251 3.100189
2.986939 1.875947 3.774912
2.706055 1.351796 1.040249
2.729228 1.363372 1.526908
2.757305 1.377398 1.960436
2.797079 1.397267 2.445751
2.844892 1.421151 2.923533
2.866785 1.432088 3.305743
2.888459 1.133677 0.150847
2.756269 1.081795 0.640079
2.800604 1.099195 1.225718
2.821461 1.107381 1.607434
2.828840 1.110277 2.043417
2.873728 1.127895 2.549278
2.984326 1.171303 4.810803
2.774862 1.089092 4.958961
2.987742 0.837747 0.150847
2.851008 0.799408 0.640079
2.892233 0.810967 1.126945
2.918441 0.818316 1.607434
2.928777 0.821214 2.076295
2.865010 0.803334 3.471844
3.076992 0.561772 0.131035
2.936893 0.536194 0.619647
2.954035 0.539324 1.107188
2.835832 0.517743 2.517404
2.593923 0.473578 3.575088
2.626259 0.479481 4.399642
2.555458 0.466555 3.978384
2.650984 0.483995 5.415143
3.115470 0.274268 0.032759
2.860169 0.251793 0.954014
2.862574 0.252005 1.013606
2.918213 0.256903 1.932980
2.662273 0.234371 2.890621
2.493756 0.219536 3.525919
2.529919 0.222720 3.932693
2.583237 0.227413 5.059444
2.904295 -0.036510 1.589296
2.769738 -0.034818 3.447087
2.469388 -0.031043 3.085357
2.543552 -0.031975 3.629789
2.587089 -0.032522 4.069496
2.532100 -0.031831 5.135019
2.850456 -0.300426 1.372429
2.765190 -0.291440 1.951559
2.797655 -0.294861 2.323517
2.578109 -0.271722 2.378390
2.584658 -0.272412 3.827145
2.498247 -0.263305 3.408182
2.561011 -0.269920 3.995788
2.535966 -0.267280 4.844934
3.038034 -0.637256 0.282014
2.901461 -0.608608 0.765417
2.707159 -0.567852 2.603466
2.456360 -0.515244 3.203259
2.567584 -0.538575 3.981075
2.487639 -0.521805 3.616366
2.858362 -0.884966 0.843695
2.726560 -0.844159 2.226013
2.527039 -0.782386 2.873504
2.625680 -0.812926 4.124864
2.463115 -0.762595 3.693170
2.794218 -1.150747 0.967867
2.793746 -1.150552 1.456107
2.673517 -1.101039 2.824543
2.504300 -1.031350 3.367448
2.587522 -1.065623 3.966323
2.570669 -1.058682 4.448436
7.298133 -3.858559 -0.329850
2.744648 -1.451109 0.321363
2.644266 -1.398037 0.810751
2.658274 -1.405443 1.192796
2.660243 -1.406483 1.655188
2.693600 -1.424120 2.135465
2.701563 -1.428329 3.991865
2.511183 -1.327675 4.068423
2.575885 -1.361883 5.477721
2.766106 -1.841921 0.994835
2.745316 -1.828077 1.478576
2.773749 -1.847010 1.953134
2.810591 -1.871542 2.433401
2.685567 -1.788290 2.178753
2.622207 -1.746099 2.668412
2.639192 -1.757410 3.050860
2.614899 -1.741233 4.612907
2.687969 -2.181558 0.665619
2.592611 -2.104166 1.319654
2.617052 -2.124002 1.799917
2.637597 -2.140677 2.385512
2.648752 -2.149729 2.750883
2.694923 -2.187202 3.222937
2.749164 -2.231224 3.700154
2.809988 -2.280589 4.169446
2.883947 -2.847128 0.056696
2.656887 -2.622966 0.530173
2.669901 -2.635815 1.066457
2.820666 -2.784654 1.685082
2.748750 -2.713657 2.512102
2.651738 -2.617883 3.058129
2.698363 -2.663913 3.523854
2.669470 -2.635389 3.243298
2.644835 -2.611069 3.692235
5.287819 -6.348136 -0.597785
2.769883 -3.325301 0.118266
2.695821 -3.236388 0.663324
2.706986 -3.249792 1.113601
2.732790 -3.280771 1.756958
2.763991 -3.318228 2.305543
2.809660 -3.373055 2.927307
2.787131 -3.346008 3.400790
2.728925 -3.276131 3.631611
2.642838 -3.172782 4.040192
2.570038 -3.085384 4.523563
2.595649 -3.116130 5.312446
2.371044 -3.454844 1.316458
2.353047 -3.428621 1.192494
2.299051 -3.349944 2.261405
2.311391 -3.367923 2.698355
2.344859 -3.416690 3.163289
2.383630 -3.473183 3.626935
2.427056 -3.536459 4.082869
2.414648 -3.518379 3.958108
2.420297 -3.526612 5.045148
3.927898 -7.032969 -0.338549
1.937529 -3.469178 1.462102
1.954216 -3.499057 1.929532
1.974548 -3.535461 2.377276
1.999855 -3.580774 2.836702
1.993856 -3.570032 3.311933
1.578780 -3.570552 0.266293
1.582091 -3.578040 0.671995
1.587451 -3.590161 1.033154
1.590767 -3.597662 2.222939
1.548694 -3.502509 2.438472
1.492342 -3.375065 3.167004
1.440200 -3.257141 3.670552
1.461682 -3.305724 4.143773
1.496926 -3.385431 4.611508
1.426962 -3.227201 4.371766
1.022526 -3.155866 1.379541
1.030909 -3.181739 2.096008
1.045223 -3.225919 2.569521
1.062441 -3.279057 3.042016
1.082849 -3.342045 3.519752
1.034665 -3.193332 3.311190
1.018707 -3.144080 3.810413
0.724846 -3.229928 1.660678
0.733247 -3.267362 2.141452
0.743614 -3.313558 2.614876
0.756043 -3.368941 3.087263
0.722824 -3.220919 2.882385
0.709321 -3.160746 3.374073
0.721885 -3.216734 3.758377
0.428113 -3.305800 1.632959
0.429769 -3.318593 2.115485
0.411179 -3.175044 1.884980
0.400632 -3.093598 2.373668
0.407412 -3.145953 2.858148
0.413603 -3.193759 3.237072
0.422618 -3.263371 3.719338
0.088587 -3.355345 1.175527
0.080772 -3.059343 1.671479
0.080819 -3.061105 2.021598
0.082301 -3.117242 2.605641
0.083468 -3.161444 2.985449
0.084509 -3.200871 3.465990
-0.201952 -3.266520 0.983897
-0.193730 -3.133534 0.759882
-0.187275 -3.029124 1.250759
-0.189135 -3.059216 1.737174
-0.191305 -3.094316 2.170412
-0.193609 -3.131581 2.550560
-0.195505 -3.162251 3.031239
-0.198055 -3.203489 3.518234
-0.575720 -3.415567 0.730223
-0.545772 -3.237892 1.218284
-0.523261 -3.104343 0.995589
-0.536384 -3.182198 2.185277
-0.538141 -3.192620 2.020008
-0.523276 -3.104430 2.410491
-0.527917 -3.131962 2.890843
-0.536015 -3.180006 3.269701
-2.008718 -7.671357 -0.309312
-0.836519 -3.194693 1.543623
-0.845639 -3.229524 2.024580
-0.856016 -3.269153 2.459335
-0.818819 -3.127098 2.243993
-0.799875 -3.054750 2.733858
-0.814865 -3.111996 3.210964
-0.822474 -3.141054 3.599372
-1.186367 -3.204160 0.822390
-1.141803 -3.083798 1.309405
-1.152664 -3.113134 1.790692
-1.166896 -3.151571 2.271250
-1.182683 -3.194210 2.705557
-1.141945 -3.084184 2.554242
-1.129121 -3.049547 3.093546
-1.138229 -3.074148 3.468270
-3.443633 -7.143443 -0.319796
-1.611943 -3.343800 1.273336
-1.546566 -3.208183 1.992653
-1.483939 -3.078270 2.579779
-1.491824 -3.094627 2.951488
-1.519784 -3.152627 3.429474
-1.551926 -3.219303 3.906063
-1.587720 -3.293553 4.374653
-2.088992 -3.483009 0.642471
-2.021865 -3.371087 0.398999
-2.016335 -3.361867 0.906455
-2.029152 -3.383237 1.406721
-2.045659 -3.410759 1.862097
-2.054946 -3.426244 2.338192
-2.042698 -3.405823 3.193446
-1.957847 -3.264350 3.932971
-1.909482 -3.183709 4.536389
-2.445529 -3.262998 0.100683
-2.388327 -3.186674 1.176284
-2.390167 -3.189130 1.639048
-2.412832 -3.219371 2.106203
-2.439471 -3.254914 2.547320
-2.473117 -3.299808 3.012631
-2.511820 -3.351448 3.470453
-2.497409 -3.332220 3.307542
-2.488514 -3.320351 4.425797
-2.855889 -3.163531 1.255987
-2.848555 -3.155407 1.037448
-2.804930 -3.107083 1.958839
-2.764829 -3.062662 2.388439
-2.800267 -3.101917 2.852603
-2.847323 -3.154042 3.537952
-2.789210 -3.089669 3.295003
-2.843680 -3.150007 3.968617
-2.912502 -2.672211 0.082248
-2.919676 -2.678793 1.272423
-2.942075 -2.699344 1.740118
-2.934369 -2.692273 1.594820
-2.946994 -2.703857 2.121099
-2.852919 -2.617544 3.713340
-2.718328 -2.494057 4.547538
-6.394361 -4.774851 -0.334650
-2.647896 -1.977259 1.138974
-2.661091 -1.987112 1.810189
-2.706134 -2.020747 2.439885
-2.748825 -2.052626 2.912677
-2.799049 -2.090129 3.384316
-2.857629 -2.133872 3.861045
-2.922957 -2.182655 4.329792
-7.040833 -4.311290 -0.360770
-2.791303 -1.709189 0.990409
-2.680668 -1.641444 0.871199
-2.735267 -1.674877 1.956819
-2.718674 -1.664717 1.702042
-2.645455 -1.619883 2.190089
-2.686699 -1.645138 2.668412
-2.704813 -1.656229 3.057400
-2.652868 -1.624422 4.449102
-2.688869 -1.314905 0.870050
-2.686305 -1.313651 1.352198
-2.712562 -1.326491 1.800007
-2.749047 -1.344333 2.280049
-2.794786 -1.366700 2.765745
-2.801983 -1.060997 0.949106
-2.824494 -1.069521 1.436364
-2.831424 -1.072145 1.905289
-2.785345 -1.054697 4.133521
-2.407458 -0.911606 3.830995
-2.459205 -0.931201 4.317152
-2.997062 -0.803321 0.131172
-2.883980 -0.773011 0.632828
-2.974044 -0.797152 1.921048
-2.773024 -0.743271 3.264122
-2.379737 -0.637856 3.038233
-2.397876 -0.642718 3.556372
-2.434474 -0.652527 3.970228
-2.417915 -0.648089 4.735541
-2.694746 -0.461290 1.239661
-2.699724 -0.462142 1.733922
-2.736731 -0.468477 2.199620
-2.684100 -0.459468 3.290768
-2.399438 -0.410739 2.788968
-2.390154 -0.409150 3.324075
-2.445166 -0.418567 3.880040
-2.537953 -0.434450 4.437438
-2.524382 -0.179663 1.964799
-2.344267 -0.166844 2.470134
-2.403086 -0.171030 3.003858
-2.448676 -0.174275 3.539734
-2.504744 -0.178265 4.068314
-2.444459 -0.173975 4.452911
-8.127253 0.200075 -0.290531
-2.807883 0.069124 0.551109
-2.506399 0.061702 1.642342
-2.350121 0.057855 2.210763
-2.374184 0.058447 2.706750
-2.441772 0.060111 3.266843
-2.486971 0.061224 3.761851
-2.304460 0.284679 1.858845
-2.355824 0.291025 2.454142
-2.381365 0.294180 2.922869
-2.412969 0.298084 3.371272
-2.499248 0.308742 3.956793
-2.553329 0.315423 4.958939
-2.654772 0.592378 0.926589
-2.557994 0.570783 0.950449
-2.543252 0.567494 1.179063
-2.560196 0.571275 1.863207
-2.468462 0.550805 1.944655
-2.344985 0.523253 2.492178
-2.408669 0.537463 3.071894
-2.419159 0.539804 3.529459
-2.477048 0.552721 4.077668
-2.496360 0.557030 5.010843
-7.637497 2.478187 -0.276414
-2.644508 0.858080 0.365585
-2.858466 0.927505 1.595926
-2.681736 0.870160 3.061853
-2.414882 0.783572 3.596230
-2.335163 0.757705 3.169297
-2.383965 0.773540 3.717759
-2.918660 1.256230 0.039229
-2.746014 1.181921 1.339020
-2.732592 1.176144 1.042403
-2.813716 1.211061 2.312898
-2.757116 1.186699 1.894086
-2.595940 1.117327 2.456232
-2.418415 1.040918 3.548343
-2.389065 1.028285 3.998471
-2.346685 1.010044 3.868389
-2.394389 1.030577 4.473165
-7.246363 3.955307 -0.340157
-2.723989 1.486844 0.203315
-2.600445 1.419410 0.699452
-2.616874 1.428377 1.180846
-2.662026 1.453022 1.633746
-2.768875 1.511344 2.920015
-2.745657 1.498671 4.405249
-2.503133 1.366293 4.134709
-2.377837 1.297903 4.613124
-2.622996 1.792171 1.079558
-2.536552 1.733108 1.466229
-2.541412 1.736429 1.907918
-2.577248 1.760914 2.393329
-2.621813 1.791363 2.884305
-2.838124 2.353699 0.672099
-2.717456 2.253627 1.147567
-2.643832 2.192570 1.236511
-2.588453 2.146643 2.015974
-2.629340 2.180551 2.566833
-2.672930 2.216701 3.045292
-2.635857 2.185956 2.860917
-2.781518 2.306755 3.991875
-2.828308 2.345559 4.470730
-2.417628 2.411320 0.757658
-2.325815 2.319746 1.244321
-2.347034 2.340910 1.725691
-2.247811 2.241946 1.505927
-2.183049 2.177353 1.973564
-2.214716 2.208937 2.458855
-2.252742 2.246864 2.936608
-1.979420 2.422724 0.222758
-1.887971 2.310794 0.560330
-1.913620 2.342188 1.865812
-1.898943 2.324224 1.536655
-1.970767 2.412134 2.798523
-1.993356 2.439781 3.279855
-1.883201 2.304956 3.478437
-1.823975 2.232466 4.313524
-1.795119 2.197147 4.048532
-1.772992 2.170065 4.568020
-1.516961 2.246080 0.620030
-1.427049 2.112952 1.524975
-1.412010 2.090685 1.001339
-1.416694 2.097620 1.627251
-1.496252 2.215418 2.897297
-1.445163 2.139772 2.976067
-1.458282 2.159198 3.163594
-1.474158 2.182705 3.555030
-1.436148 2.126425 4.093698
-1.384699 2.050247 4.580842
-3.833380 7.055525 -0.286844
-1.207642 2.222725 0.322331
-1.127851 2.075865 0.703273
-1.077589 1.983355 1.216223
-1.156127 2.127908 1.851379
-1.193909 2.197449 2.204167
-1.161076 2.137018 2.768745
-1.163527 2.141529 3.226407
-1.189614 2.189543 3.788753
-0.865159 2.049361 1.047517
-0.864675 2.048215 1.511091
-0.887775 2.102933 1.998250
-0.904634 2.142870 2.479382
-0.936345 2.217985 2.990362
-0.970860 2.299744 3.650533
-0.669204 2.094352 1.028151
-0.684660 2.142723 1.529952
-0.692655 2.167745 1.910069
-0.708849 2.218423 2.746030
-0.686208 2.147567 2.974411
-0.673053 2.106396 3.602411
-0.689216 2.156982 4.109038
-0.686552 2.148644 4.902899
-0.409026 1.958008 1.070682
-0.435253 2.083557 1.599040
-0.462233 2.212712 2.034196
-0.476536 2.281179 2.759569
-0.457283 2.189013 3.031743
-0.448131 2.145203 3.640024
-0.433238 2.073912 4.147127
-0.427612 2.046978 4.843065
-0.226728 1.965278 1.140401
-0.232507 2.015370 1.605417
-0.233753 2.026177 2.093615
-0.236331 2.048522 2.602521
-0.239995 2.080280 3.104537
-0.231086 2.003060 3.651568
-0.231939 2.010451 4.480347
-0.239510 2.076075 4.836230
-0.026836 1.978131 1.140401
-0.027556 2.031211 1.646524
-0.029816 2.197777 2.698535
-0.029602 2.182038 2.548771
-0.028800 2.122945 3.135595
-0.027768 2.046873 3.857088
-0.027354 2.016303 4.439225
-0.028420 2.094943 4.863566
0.156588 2.003418 1.269563
0.157269 2.012136 1.819557
0.158393 2.026508 2.301278
0.162350 2.077141 2.800866
0.157526 2.015417 3.510958
0.150633 1.927222 3.937979
0.161346 2.064297 4.868330
0.140473 1.797239 4.662560
1.410267 8.159126 -0.313974
0.342930 1.984031 1.344981
0.344351 1.992251 1.867534
0.347292 2.009265 2.369773
0.351149 2.031580 2.831013
0.341744 1.977164 3.583006
0.329510 1.906384 3.782895
2.162160 7.732829 -0.271199
0.569468 2.036668 1.366951
0.608033 2.174592 2.294329
0.613680 2.194787 2.511485
0.598255 2.139620 2.909400
0.540305 1.932368 3.401271
0.517963 1.852460 3.876069
2.839212 7.403697 -0.272617
0.834210 2.175335 0.338488
0.784705 2.046243 0.837581
0.756431 1.972513 1.325981
0.777397 2.027185 2.164993
0.827396 2.157568 2.576728
0.795496 2.074383 2.909400
0.745469 1.943930 3.753806
0.722312 1.883543 4.297850
0.973136 1.968855 0.966903
0.984033 1.990901 1.470298
0.998013 2.019186 1.932355
1.017537 2.058687 2.434422
1.057945 2.140439 3.232879
0.998433 2.020034 3.360971
0.965526 1.953457 3.892599
1.178057 1.914358 1.005718
1.176163 1.911281 1.441657
1.179354 1.916466 1.905192
1.199775 1.949651 2.359848
1.236186 2.008819 3.003122
1.317207 2.140479 4.081754
1.284982 2.088113 3.856982
1.278807 2.078078 4.803616
4.824039 6.293118 -0.267374
1.471677 1.919850 0.904234
1.422158 1.855251 1.320851
1.434243 1.871017 1.652316
1.524791 1.989139 2.264665
1.596923 2.083239 2.692979
1.521330 1.984625 2.706621
1.482736 1.934278 3.226407
1.517871 1.980113 3.808928
5.576442 6.018792 -0.310055
1.769847 1.910239 0.281183
1.706894 1.842293 0.665421
1.720522 1.857003 1.196090
1.750304 1.889147 1.893805
1.843084 1.989287 3.007698
1.898253 2.048832 3.606595
1.848923 1.995589 3.270781
1.949000 2.103604 4.370891
6.032898 5.374940 -0.306899
2.446791 2.179939 1.538727
2.331468 2.077194 2.864065
2.165519 1.929344 3.475891
2.161481 1.925746 3.611796
2.158011 1.922655 3.747863
2.230034 1.986822 4.601672
2.193135 1.953948 5.236893
2.816799 2.054843 1.674334
2.787646 2.033576 2.158348
2.784540 2.031311 2.380516
2.768854 2.019868 2.670379
2.778040 2.026569 2.977358
2.883054 2.103176 4.025963
2.875128 2.097394 3.968068
7.111095 4.193274 -0.329850
2.820775 1.663356 1.029480
2.842857 1.676377 1.511101
2.873306 1.694333 1.992107
2.908083 1.714840 2.426917
2.954437 1.742174 2.906208
3.008320 1.773947 3.377863
2.980737 1.757682 3.145422
2.933993 1.730118 3.648289
2.707318 1.281658 0.929343
2.705808 1.280943 1.411497
2.764738 1.308841 1.982178
2.827195 1.338409 2.458855
2.876462 1.361732 2.943145
2.938457 1.071218 0.078621
2.780173 1.013516 0.567507
2.795561 1.019125 1.055589
2.819804 1.027963 1.536655
2.852523 1.039891 2.010535
2.903591 1.058508 4.195431
2.651276 0.966526 3.955669
2.728111 0.994537 4.699757
2.903304 0.734866 0.916167
2.901800 0.734485 1.404909
2.912858 0.737284 3.669523
2.642508 0.668855 3.310753
2.698119 0.682931 4.324378
8.181416 1.272979 -0.298534
2.943517 0.457994 0.263703
2.928948 0.455727 0.752225
2.948480 0.458766 1.233577
2.845037 0.442671 2.718657
2.623202 0.408154 3.524722
2.689959 0.418541 4.548541
2.760415 0.170172 1.364770
2.724297 0.167946 3.337397
2.548904 0.157133 3.696885
2.498139 0.154004 3.340973
2.576739 0.158849 3.877907
2.643657 0.162974 4.424112
8.198307 -0.330090 -0.304888
2.976670 -0.119850 0.276888
2.878788 -0.115909 1.179107
2.752181 -0.110812 1.592453
2.762666 -0.111234 2.066638
2.689003 -0.108268 3.044108
2.438785 -0.098193 2.617750
2.496593 -0.100521 3.115876
2.549665 -0.102658 3.683468
2.994588 -0.402448 1.826331
2.847846 -0.382727 1.857515
2.650323 -0.356182 2.903972
2.346686 -0.315376 2.393318
2.350333 -0.315866 2.898771
2.413307 -0.324329 3.398237
2.523485 -0.339136 3.972960
2.425205 -0.325928 4.432700
3.045299 -0.700461 1.035941
2.924548 -0.672687 1.530069
2.879878 -0.662412 1.155671
2.975031 -0.684298 2.459919
2.724396 -0.626649 2.130958
2.544290 -0.585222 3.203754
2.407559 -0.553772 3.092088
2.444403 -0.562246 3.559525
2.854293 -0.971782 1.740770
2.835792 -0.965483 1.444437
2.739272 -0.932622 2.844390
2.573504 -0.876184 3.440760
2.689055 -0.915525 4.636362
2.832565 -1.267095 0.163964
2.703344 -1.209290 0.659871
2.719710 -1.216611 1.141295
2.745226 -1.228025 1.628851
2.659659 -1.189749 3.009712
2.497280 -1.117111 3.560658
2.616410 -1.471801 1.087430
2.639821 -1.484970 1.574542
2.661395 -1.497106 1.916465
2.678268 -1.506598 2.411418
2.681732 -1.508547 4.116666
2.582549 -1.452753 4.743028
6.752927 -4.705329 -0.340607
2.706584 -1.885903 1.008888
2.706801 -1.886054 1.491587
2.735481 -1.906038 1.972621
2.771024 -1.930804 2.439885
2.815392 -1.961719 2.919146
2.691512 -1.875402 2.706687
2.638661 -1.838576 3.204436
2.671332 -1.861340 3.658034
2.613736 -1.821209 4.441991
2.410216 -1.679399 4.611025
2.649525 -2.267573 1.285540
2.594794 -2.220732 2.044121
2.599730 -2.224957 2.383014
2.624063 -2.245782 2.896705
2.649160 -2.267261 3.339145
2.725020 -2.332185 3.983202
2.684664 -2.297647 3.655073
5.661668 -5.873669 -0.461103
2.716382 -2.818097 0.735370
2.730193 -2.832425 1.210479
2.750425 -2.853415 1.678758
2.790378 -2.894864 2.341989
2.710753 -2.812257 2.886490
2.658399 -2.757943 3.772105
2.714519 -2.816165 4.241950
2.694052 -2.794931 4.077056
2.794673 -2.899320 5.186393
5.160694 -6.515987 -0.601341
2.708120 -3.419322 0.652773
2.641663 -3.335413 1.118632
2.635682 -3.327860 0.900031
2.680920 -3.384978 2.035411
2.706790 -3.417643 2.458482
2.692109 -3.399107 2.228377
2.715870 -3.429107 2.803113
2.743523 -3.464023 3.321544
2.763205 -3.488873 3.843565
2.705293 -3.415753 4.314925
2.556628 -3.228045 4.778109
4.468781 -6.822850 -0.367860
2.175647 -3.321737 1.417852
2.193910 -3.349620 1.885347
2.216986 -3.384852 2.345772
2.202167 -3.362227 2.062047
2.276236 -3.475314 3.238567
2.314056 -3.533057 3.695733
2.294782 -3.503630 3.470453
3.844010 -7.250251 -0.377225
1.859667 -3.507549 1.405208
1.875161 -3.536772 1.872721
1.895071 -3.574324 2.339471
1.883229 -3.551989 2.074664
1.887628 -3.560287 3.249692
1.849174 -3.487757 4.694726
1.781475 -3.360069 5.216530
2.965781 -7.300576 -0.310117
1.456168 -3.584507 0.876657
1.453353 -3.577578 1.980107
1.400684 -3.447927 3.390798
1.344283 -3.309092 3.893202
1.375658 -3.386325 4.368246
1.330220 -3.274475 4.264204
1.306634 -3.216413 5.338058
2.288713 -7.566327 -0.304465
1.010961 -3.342166 1.362977
0.966570 -3.195414 2.024580
0.978431 -3.234625 2.459335
0.994201 -3.286759 2.938552
1.012229 -3.346359 3.403671
1.033509 -3.416710 3.880340
0.987331 -3.264050 3.674190
0.685398 -3.373953 0.853854
0.653885 -3.218827 1.237812
0.659732 -3.247609 1.712690
0.667578 -3.286234 2.193379
0.676633 -3.330807 2.640789
0.688204 -3.387769 3.119576
0.657790 -3.238050 2.908401
0.638140 -3.141321 3.312273
0.647295 -3.186390 3.792232
0.323295 -3.281851 0.982868
0.323230 -3.281193 1.459060
0.309766 -3.144519 1.244286
0.300484 -3.050293 1.737174
0.303990 -3.085880 2.176971
0.305223 -3.098400 2.559756
0.308335 -3.129994 3.047468
0.314749 -3.195100 3.524763
0.032093 -3.294001 0.891785
0.030560 -3.136642 0.668198
0.029280 -3.005194 1.159871
0.029555 -3.033515 1.646901
0.029899 -3.068770 2.100422
0.030259 -3.105680 2.487633
0.030916 -3.173130 3.070479
0.031409 -3.223751 3.442834
-0.297286 -3.382788 0.933402
-0.277205 -3.154282 0.817965
-0.267670 -3.045793 1.203471
-0.268043 -3.050030 1.691189
-0.271100 -3.084815 2.131053
-0.275293 -3.132532 2.616041
-0.279178 -3.176741 2.995432
-0.282731 -3.217170 3.481983
-0.635746 -3.405109 0.736683
-0.602701 -3.228119 1.224793
-0.577834 -3.094926 1.002135
-0.565361 -3.028123 1.597545
-0.576232 -3.086347 2.048070
-0.578042 -3.096042 2.423583
-0.581211 -3.113019 2.812366
-0.587813 -3.148377 3.292681
-0.950262 -3.283863 0.874172
-0.914778 -3.161240 1.354958
-0.876522 -3.029038 1.113407
-0.900618 -3.112307 2.322258
-0.948664 -3.278341 2.763831
-0.907082 -3.134645 2.550388
-0.888040 -3.068842 3.041172
-0.906455 -3.132477 3.523996
-1.378080 -3.464419 0.210807
-1.277644 -3.211929 1.177055
-1.223514 -3.075849 1.660678
-1.237694 -3.111498 2.141452
-1.254406 -3.153510 2.595439
-1.275242 -3.205891 3.067873
-1.299908 -3.267898 3.545537
-1.242044 -3.122432 3.337146
-1.207877 -3.036538 3.736216
-1.722384 -3.403139 0.738533
-1.670009 -3.299654 0.985589
-1.610307 -3.181692 2.316574
-1.551720 -3.065935 2.957956
-1.591681 -3.144891 3.597093
-1.626631 -3.213947 4.073145
-1.665912 -3.291560 4.547538
-4.437977 -6.873065 -0.382897
-2.153550 -3.335189 1.405208
-2.171216 -3.362547 1.866408
-2.162125 -3.348468 1.645366
-2.168876 -3.358924 2.108470
-2.198760 -3.405205 2.644574
-2.190945 -3.393102 3.486564
-2.093198 -3.241722 4.231872
-2.035764 -3.152774 4.740767
-1.975882 -3.060036 4.436945
-2.436977 -3.134815 0.917150
-2.480369 -3.190632 2.028316
-2.490634 -3.203837 2.459166
-2.523487 -3.246098 2.918405
-2.562511 -3.296296 3.382753
-2.607277 -3.353882 3.845724
-2.609213 -3.356372 3.864461
-2.814318 -2.951151 0.144732
-2.733812 -2.866730 0.638928
-2.747025 -2.880585 1.138370
-2.801033 -2.937219 2.217324
-2.814510 -2.951351 2.641730
-2.854541 -2.993329 3.106808
-2.901041 -3.042090 3.570620
-2.885253 -3.025534 3.420345
-2.843970 -2.982244 4.275148
-2.709074 -2.840789 4.317983
-6.019689 -5.238905 -0.318965
-2.956200 -2.572766 0.874776
-2.973639 -2.587943 1.356087
-2.906568 -2.529572 2.423165
-2.820443 -2.454618 3.983746
-2.758049 -2.400316 4.374653
-2.701550 -1.909089 1.628166
-2.732346 -1.930852 2.108993
-2.768195 -1.956185 2.556561
-2.814954 -1.989228 3.042016
-2.868244 -2.026886 3.513305
-2.741362 -1.937223 3.311190
-2.699081 -1.907345 3.810413
-6.880313 -3.942339 -0.293586
-2.757863 -1.580223 1.564772
-2.746169 -1.573523 1.342420
-2.662764 -1.525733 1.789720
-2.698355 -1.546125 2.275338
-2.710629 -1.553159 2.658069
-2.739905 -1.569934 3.145647
-2.821868 -1.289880 0.098379
-2.691745 -1.230401 0.587300
-2.729452 -1.247637 1.067671
-2.753519 -1.258638 1.554805
-2.763360 -1.263136 2.036841
-2.805207 -1.282264 2.523025
-2.784537 -1.272816 4.594213
-2.489807 -1.138094 4.891044
-2.803758 -0.974164 0.870949
-2.825715 -0.981793 1.371965
-2.925498 -1.016463 2.641139
-2.814431 -0.977872 4.140113
-2.427742 -0.843518 3.804182
-3.012017 -0.745602 0.144289
-2.873546 -0.711325 0.613690
-2.673570 -0.661822 2.490382
-2.478101 -0.613435 3.518839
-2.384388 -0.590237 2.977628
-2.410725 -0.596757 3.563099
-2.537586 -0.628160 4.078794
-2.467633 -0.610844 4.672427
-2.714137 -0.396613 1.406109
-2.576702 -0.376530 2.235432
-2.351492 -0.343620 1.915927
-2.376734 -0.347309 2.485428
-2.380620 -0.347876 2.976865
-2.436677 -0.356068 3.415033
-2.502550 -0.365694 4.023958
-2.483370 -0.362891 4.769147
-8.095469 -0.385434 -0.285719
-2.884757 -0.137346 0.714854
-2.754125 -0.131127 1.205131
-2.566734 -0.122205 2.130457
-2.370745 -0.112874 2.693235
-2.407924 -0.114644 3.216149
-2.456135 -0.116939 3.738686
-2.356363 0.112402 2.012528
-2.406110 0.114775 2.552916
-2.409716 0.114947 3.030847
-2.482613 0.118425 3.576554
-2.533973 0.120875 4.070955
-2.550760 0.121676 4.990719
-8.044828 1.187666 -0.415028
-2.502230 0.369407 0.302187
-2.464663 0.363861 0.827519
-2.442954 0.360656 2.132360
-2.283305 0.337087 1.662416
-2.297442 0.339174 2.172357
-2.319063 0.342366 2.655348
-2.390042 0.352844 3.256628
-2.449996 0.361695 3.687845
-2.375974 0.592186 1.510951
-2.378816 0.592895 1.558107
-2.353285 0.586532 1.898586
-2.279130 0.568049 2.456606
-2.327469 0.580097 2.916119
-2.403212 0.598975 3.516001
-2.444542 0.609276 3.963511
-2.420229 0.603217 4.688478
-7.494565 2.590319 -0.283101
-2.625694 0.907509 1.117492
-2.816737 0.973538 1.597575
-2.851857 0.985677 2.085022
-2.615928 0.904133 1.785354
-2.442733 0.844273 2.996168
-2.267409 0.783676 2.697285
-2.297716 0.794151 3.179221
-2.373639 0.820392 3.751362
-2.825838 1.280848 0.059028
-2.694797 1.221452 0.547714
-2.710130 1.228402 1.055589
-2.734015 1.239228 1.543241
-2.558494 1.159671 3.177865
-2.386757 1.081829 3.461394
-2.616571 1.185995 4.802003
-2.450750 1.110834 4.651120
-7.098302 4.066059 -0.331159
-2.737350 1.568012 0.320695
-2.592737 1.485175 0.711910
-2.587805 1.482350 1.200621
-2.610730 1.495482 1.648604
-2.643358 1.514172 2.128892
-2.733286 1.565685 4.523125
-2.575662 1.475394 4.769412
-2.378544 1.362481 4.648437
-2.695799 1.925802 1.699687
-2.727657 1.948560 2.180398
-2.587796 1.848647 1.932707
-2.551343 1.822607 2.530912
-2.605910 1.861588 2.900914
-2.637369 1.884061 3.387116
-2.637382 1.884070 3.727038
-6.008736 5.288987 -0.302884
-2.574093 2.265758 1.126542
-2.506272 2.206061 1.710898
-2.506747 2.206479 2.037568
-2.556753 2.250495 2.705557
-2.625685 2.311171 3.416573
-2.571234 2.263242 3.071082
-2.638466 2.322421 4.008595
-2.626617 2.311991 4.872804
-2.350232 2.068712 4.689704
-2.301563 2.439121 0.227162
-2.136010 2.263673 0.688561
-2.080357 2.204694 1.178406
-2.099736 2.225232 1.658338
-2.124078 2.251028 2.111372
-2.131996 2.259419 2.494190
-2.122593 2.249455 4.208554
-1.974693 2.092715 4.423861
-1.913387 2.432741 0.918938
-1.829973 2.326685 0.607093
-1.764152 2.242998 2.219387
-1.645487 2.092124 2.567335
-1.745231 2.218941 3.962304
-1.712008 2.176701 3.616906
-1.775192 2.257034 4.795382
-1.683404 2.140333 4.817783
-1.440260 2.245728 0.868392
-1.355438 2.113468 0.638542
-1.352127 2.108306 1.156974
-1.344705 2.096732 2.089858
-1.344705 2.096732 2.089858
-1.382740 2.156040 3.012607
-1.402367 2.186643 3.978384
-1.373779 2.142067 3.636500
-1.373740 2.142006 4.117938
-1.355833 2.114084 5.034265
-1.049503 2.050288 1.132470
-1.062629 2.075930 1.647210
-1.076169 2.102381 2.046333
-1.062027 2.074754 2.526770
-1.075504 2.101082 3.016645
-1.123012 2.193893 3.607073
-1.172011 2.289616 4.278906
-1.102952 2.154704 4.702487
-0.804489 2.040055 0.878422
-0.813555 2.063047 1.415902
-0.824386 2.090511 1.864444
-0.840048 2.130228 2.366628
-0.857151 2.173598 2.813716
-0.892608 2.263512 3.384755
-0.922419 2.339109 4.088473
-2.253989 7.889455 -0.315222
-0.639635 2.238863 0.216636
-0.601427 2.105126 0.769507
-0.607089 2.124944 1.273082
-0.615276 2.153601 1.762550
-0.627295 2.195668 2.298817
-0.643640 2.252880 3.080565
-0.659184 2.307288 3.506331
-0.637292 2.230663 3.822100
-0.376443 2.063867 1.011771
-0.383569 2.102933 1.735500
-0.403629 2.212911 2.199268
-0.385037 2.110981 2.435404
-0.379302 2.079538 3.060498
-0.387559 2.124806 3.595928
-0.377998 2.072391 4.226364
-0.380835 2.087942 5.127985
-0.166822 1.949421 1.210248
-0.169342 1.978865 1.718431
-0.174300 2.036799 2.148398
-0.178742 2.088717 2.688788
-0.179874 2.101937 3.227505
-0.174005 2.033352 3.816004
-0.173394 2.026214 4.535159
-0.168742 1.971857 5.050141
0.009922 1.957856 1.237732
0.010074 1.987962 1.745882
0.010389 2.050169 2.216862
0.010642 2.100014 2.722950
0.010080 1.989172 3.270933
0.009807 1.935227 3.951733
0.010244 2.021465 4.608152
0.009522 1.878998 4.662778
0.221130 1.988309 1.077541
0.221341 1.990212 1.586436
0.222379 1.999540 2.061414
0.227235 2.043201 2.540932
0.234208 2.105904 3.101463
0.226718 2.038560 3.716441
0.220125 1.979275 4.295202
0.224842 2.021687 4.676669
0.477551 2.354895 0.128240
0.414709 2.045009 0.676894
0.393558 1.940710 1.181591
0.400060 1.972772 1.744152
0.407587 2.009890 2.223708
0.417521 2.058876 2.729782
0.399148 1.968278 3.414985
0.380413 1.875890 3.814137
0.400527 1.975076 4.432370
0.383053 1.888908 4.917550
2.349017 7.809230 -0.300511
0.580295 1.929172 1.365547
0.628186 2.088385 2.273974
0.668297 2.221731 2.664781
0.630098 2.094741 2.830615
0.561802 1.867694 3.164221
0.555504 1.846756 3.741627
0.827009 2.035424 0.987319
0.836884 2.059727 1.511091
0.844731 2.079039 2.138140
0.865348 2.129783 2.701339
0.843033 2.074861 3.058921
0.809004 1.991109 3.520940
0.781850 1.924277 3.887486
0.814179 2.003845 4.949483
3.791666 7.162904 -0.280524
1.089630 2.058439 0.277563
1.025088 1.936512 0.823966
1.035245 1.955699 1.327495
1.048996 1.981677 1.796518
1.066585 2.014905 2.258122
1.092400 2.063673 2.800180
1.061127 2.004594 3.282994
1.016985 1.921205 3.691321
1.286618 1.970407 0.196129
1.209460 1.852243 0.693924
1.233190 1.888586 1.182276
1.275781 1.953811 1.667515
1.309913 2.006084 2.152318
1.292116 1.978828 2.598612
1.305879 1.999906 3.239633
1.361847 2.085619 4.099291
1.351679 2.070047 4.706609
1.178560 1.804920 4.781125
1.555125 1.957584 1.056140
1.538311 1.936418 1.867838
1.492406 1.878634 2.458428
1.585183 1.995420 2.905279
1.641974 2.066909 3.595143
1.572566 1.979539 3.522379
1.581760 1.991112 3.952828
1.600399 2.014574 5.084599
1.793063 1.849402 1.543536
1.803760 1.860436 1.771342
1.846540 1.904560 2.480494
1.832122 1.889689 2.266602
1.876200 1.935152 3.077459
1.896168 1.955747 3.297430
1.992864 2.055481 4.344397
5.980586 5.091754 -0.278943
2.473336 2.105750 0.997964
2.512475 2.139072 1.857620
2.559889 2.179440 2.533285
2.549638 2.170712 2.403491
2.566620 2.185170 3.038592
2.470802 2.103592 3.586333
2.414603 2.055746 4.634353
2.327398 1.981502 4.567931
2.190005 1.864527 4.945961
2.914585 2.031415 0.090102
2.807903 1.957059 0.977722
2.747822 1.915183 1.494957
2.794881 1.947983 2.227647
2.839385 1.979001 2.745128
2.843418 1.981813 2.993623
2.904733 2.024548 3.700154
2.915616 2.032133 3.783839
2.984759 1.670747 0.925949
2.874620 1.609096 1.413519
2.903298 1.625149 1.888167
2.940778 1.646129 2.368554
3.003002 1.680959 2.793273
2.872239 1.607763 2.580272
2.791359 1.562490 3.073836
2.848894 1.594696 3.550055
2.842648 1.245805 0.236107
2.739962 1.200802 0.823929
2.754666 1.207246 1.205965
2.756106 1.207877 1.655188
2.821651 1.236602 2.231746
2.857391 1.252266 2.618749
2.896434 1.269377 4.588565
2.643291 1.158435 4.868198
2.818932 0.951678 1.048996
2.843652 0.960024 1.536655
2.873561 0.970121 1.971072
2.939072 0.992238 4.261034
2.670640 0.901615 3.935763
2.818372 0.951489 5.290965
7.950335 1.813211 -0.274607
2.904810 0.662492 0.303257
2.891004 0.659343 0.785206
2.911254 0.663962 1.273121
2.803596 0.639408 2.685557
2.600637 0.593120 3.611549
2.636355 0.601266 3.851752
3.076247 0.404078 0.091820
2.934103 0.385407 0.574105
2.999783 0.394034 1.878972
2.919311 0.383464 2.111283
2.817026 0.370028 2.354293
2.671568 0.350922 3.070789
2.572714 0.337937 3.800359
2.663055 0.349804 4.348522
2.573427 0.338031 3.964991
2.545477 0.334359 4.932124
2.765981 0.103618 1.404671
2.711609 0.101581 3.021028
2.590927 0.097061 3.786964
2.508469 0.093972 3.394742
2.566891 0.096160 3.955568
2.627168 0.098418 4.593599
2.972964 -0.189654 0.270295
2.997358 -0.191210 1.569585
2.874606 -0.183380 1.604170
2.635800 -0.168146 1.767745
2.548119 -0.162552 2.728000
2.554467 -0.162957 3.565792
2.506473 -0.159895 3.216699
2.513910 -0.160370 3.633437
2.936716 -0.463135 0.996247
2.860515 -0.451118 1.822535
2.563966 -0.404351 2.411876
2.468953 -0.389367 3.122599
2.545993 -0.401516 3.686468
2.484178 -0.391768 3.428340
2.526767 -0.398484 3.888511
2.669033 -0.420920 4.967562
2.876770 -0.732866 0.884140
2.745346 -0.699385 2.268090
2.579161 -0.657049 3.571480
2.557165 -0.651446 4.074695
2.505535 -0.638293 3.740074
2.799893 -0.999697 0.996247
2.824228 -1.008386 1.497136
2.733322 -0.975928 2.917149
2.528309 -0.902729 3.889010
2.510833 -0.896489 4.379610
2.487365 -0.888110 4.522169
2.807259 -1.322668 0.190198
2.701961 -1.273055 0.672370
2.718686 -1.280936 1.159871
2.721337 -1.282185 1.642019
2.829010 -1.332916 2.903380
2.689464 -1.267167 3.627128
2.580762 -1.215951 4.141336
2.545238 -1.199214 5.014045
2.688380 -1.600872 0.262067
2.589778 -1.542157 0.750671
2.607016 -1.552422 1.237605
2.610864 -1.554713 1.719244
2.643347 -1.574056 2.185790
2.675638 -1.593285 2.566312
2.730740 -1.626097 4.538111
2.480452 -1.477056 4.744225
2.666753 -1.962723 1.673681
2.697863 -1.985620 2.154435
2.733905 -2.012146 2.601918
2.709124 -1.993907 2.303689
2.656693 -1.955318 2.862871
2.607438 -1.919067 3.361030
2.634416 -1.938923 3.755755
2.673296 -2.400655 0.854881
2.652558 -2.382032 1.332935
2.675778 -2.402884 1.802209
2.614834 -2.348155 2.029095
2.576204 -2.313465 2.758049
2.621201 -2.353873 3.235528
2.630817 -2.362508 3.503190
2.695180 -2.420307 4.188698
2.761632 -2.479982 4.662659
2.615686 -2.348921 4.701677
2.764855 -3.004391 0.503378
2.688104 -2.920990 0.891862
2.719375 -2.954970 1.713007
2.690220 -2.923289 1.449460
2.699223 -2.933073 1.969518
2.724014 -2.960011 2.360913
2.751172 -2.989522 2.930984
2.690698 -2.923809 3.554652
2.662982 -2.893692 4.355983
4.786731 -6.259950 -0.331139
2.844992 -3.720599 0.527055
2.687347 -3.514436 0.992341
2.595997 -3.394971 1.455695
2.616669 -3.422006 1.917069
2.605347 -3.407199 1.680233
2.616162 -3.421342 2.187200
2.564730 -3.354080 2.580900
2.587554 -3.383929 3.606641
2.611640 -3.415429 3.849909
2.626123 -3.434369 4.269780
2.628991 -3.438120 5.158096
2.164785 -3.456296 0.188780
2.115972 -3.378361 1.252101
2.131888 -3.403771 1.719317
2.139593 -3.416073 2.188188
2.164001 -3.455043 2.629145
2.194656 -3.503987 3.094254
2.229772 -3.560054 3.551844
2.270298 -3.624756 4.014265
1.826334 -3.628435 0.667659
1.767386 -3.511321 0.405332
1.790836 -3.557909 1.607457
1.783739 -3.543809 1.360952
1.785671 -3.547647 1.792568
1.806297 -3.588627 2.310446
1.797155 -3.570463 4.428881
1.357685 -3.567557 0.827631
1.346605 -3.538441 0.631003
1.367456 -3.593232 1.770426
1.340578 -3.522606 2.071490
1.272020 -3.342457 2.419467
1.242367 -3.264537 3.200211
1.266693 -3.328458 3.670552
1.285989 -3.379161 4.150191
1.317032 -3.460733 4.617903
1.258033 -3.305703 4.416855
2.166407 -7.862972 -0.362679
0.875990 -3.179405 1.472071
0.885029 -3.212213 1.946638
0.896576 -3.254122 2.420433
0.910835 -3.305877 2.899739
0.927417 -3.366058 3.371411
0.886471 -3.217445 3.168368
0.871658 -3.163682 3.660761
0.598659 -3.365763 0.874172
0.576370 -3.240446 1.361465
0.582032 -3.272278 1.842683
0.593750 -3.338161 2.320720
0.568155 -3.194260 2.098258
0.550182 -3.093217 2.589851
0.560190 -3.149484 3.073836
0.571907 -3.215354 3.556570
0.253066 -3.035826 0.953717
0.255578 -3.065966 1.538458
0.257677 -3.091144 1.892826
0.259136 -3.108650 2.373668
0.263522 -3.161259 2.858148
0.265468 -3.184609 3.240423
-0.152216 -7.953610 -0.314145
-0.060119 -3.141329 0.831913
-0.058145 -3.038212 1.323101
-0.058694 -3.066887 1.770016
-0.059460 -3.106886 2.249111
-0.060422 -3.157158 2.733858
-0.060832 -3.178604 3.116249
-0.062110 -3.245375 3.592852
-0.351165 -3.128214 0.989043
-0.340018 -3.028919 1.480896
-0.343369 -3.058767 1.907918
-0.348138 -3.101251 2.386776
-0.352769 -3.142503 2.773115
-0.359556 -3.202967 3.256650
-1.712662 -7.871052 -0.322925
-0.701961 -3.226072 1.530615
-0.709561 -3.260998 2.011591
-0.678488 -3.118193 1.747786
-0.660562 -3.035808 2.242553
-0.671066 -3.084084 2.720770
-0.675762 -3.105668 3.109711
-0.690142 -3.171754 3.592852
-2.332875 -7.605312 -0.314145
-0.968450 -3.157203 1.543623
-0.979008 -3.191625 2.024580
-0.991022 -3.230789 2.459335
-1.006994 -3.282862 2.938552
-1.025527 -3.343279 3.410122
-0.980224 -3.195589 3.207331
-0.960015 -3.129707 3.608674
-3.163837 -7.517088 -0.352318
-1.279961 -3.041112 1.498091
-1.293572 -3.073451 1.979116
-1.309654 -3.111660 2.426917
-1.330530 -3.161260 2.906208
-1.355153 -3.219764 3.384316
-1.383514 -3.287148 3.861045
-1.322096 -3.141221 3.661240
-1.846860 -3.438760 0.196552
-1.828222 -3.404058 1.303307
-1.795502 -3.343134 1.774213
-1.781486 -3.317037 2.026848
-1.770176 -3.295980 3.688345
-1.714486 -3.192287 4.195115
-1.756807 -3.271086 4.669051
-1.792092 -3.336785 5.146464
-2.178174 -3.287892 0.873835
-2.190522 -3.306531 1.341983
-2.208085 -3.333042 1.809584
-2.230856 -3.367414 2.276448
-2.216089 -3.345124 1.986332
-2.230087 -3.366254 2.505942
-2.197714 -3.317388 4.334125
-2.019960 -3.049072 4.381061
-2.725496 -3.329146 -0.018694
-2.608987 -3.186833 0.860970
-2.531732 -3.092467 0.941421
-2.530702 -3.091209 1.403696
-2.551956 -3.117170 1.877011
-2.579743 -3.151112 2.355836
-2.660500 -3.249756 3.379112
-2.620706 -3.201147 3.113084
-2.654690 -3.242659 3.649626
-2.633881 -3.217240 4.469701
-2.480181 -3.029499 5.144926
-2.869041 -2.899573 0.270581
-2.788443 -2.818117 1.310366
-2.800544 -2.830347 1.163646
-2.855985 -2.886378 2.236217
-2.869965 -2.900506 2.660607
-2.910432 -2.941404 3.119361
-2.885818 -2.916528 2.849274
-2.930443 -2.961628 3.492996
-2.933096 -2.964310 4.532392
-2.801251 -2.831061 4.615328
-3.069759 -2.568376 0.000000
-3.016370 -2.523708 0.500319
-2.848505 -2.383260 2.289129
-2.677875 -2.240499 2.996941
-2.675625 -2.238616 3.167947
-2.746754 -2.298128 3.951066
-2.811584 -2.352369 4.425904
-6.712739 -4.632020 -0.352318
-2.714702 -1.873238 1.478576
-2.742818 -1.892639 1.953134
-2.777076 -1.916278 2.407464
-2.820398 -1.946172 2.880329
-2.871460 -1.981406 3.352052
-2.931099 -2.022559 3.828881
-2.800197 -1.932232 3.622383
-2.867180 -1.574768 0.944822
-2.750716 -1.510802 0.720590
-2.658322 -1.460056 1.211295
-2.655894 -1.458722 1.594278
-2.693449 -1.479349 2.146393
-2.747637 -1.509111 2.524362
-2.774111 -1.523651 3.005075
-2.945881 -1.617994 4.288810
-2.869821 -1.243566 0.091725
-2.715337 -1.176624 0.574105
-2.753404 -1.193119 1.061085
-2.777562 -1.203588 1.548226
-2.786357 -1.207399 2.017112
-2.826960 -1.224993 2.490205
-2.818493 -1.221324 4.646760
-2.587937 -1.121418 5.047227
-2.833190 -0.901018 0.996247
-2.857426 -0.908726 1.490549
-2.768873 -0.880564 2.943600
-2.632363 -0.837151 4.204704
-2.464260 -0.783690 3.904707
-2.512258 -0.798955 4.495428
-3.028892 -0.677119 0.236107
-2.715413 -0.607040 1.637349
-2.483209 -0.555130 2.647484
-2.354928 -0.526452 2.593399
-2.363324 -0.528329 3.105048
-2.442988 -0.546138 3.697594
-2.740210 -0.335086 1.271654
-2.721110 -0.332751 1.767209
-2.633812 -0.322075 2.723659
-2.371763 -0.290031 2.357152
-2.375454 -0.290482 2.868860
-2.406990 -0.294338 3.324075
-2.496421 -0.305274 3.936638
-2.623337 -0.320794 4.798879
-8.126943 -0.206238 -0.280156
-2.835270 -0.071951 0.650017
-2.703233 -0.068600 1.140929
-2.731225 -0.069310 1.634041
-2.607397 -0.066168 2.769347
-2.411633 -0.061200 3.229643
-2.466339 -0.062588 3.792550
-3.133993 0.229172 0.845008
-2.810766 0.205536 0.876348
-2.521905 0.184413 1.937940
-2.344611 0.171449 2.476897
-2.373931 0.173593 2.973095
-2.420768 0.177018 3.523054
-2.496692 0.182570 4.021268
-2.426886 0.177465 4.497799
-2.426046 0.407274 1.686072
-2.371099 0.398050 2.246820
-2.417112 0.405775 2.712078
-2.353309 0.395064 2.323385
-2.348011 0.394174 2.760800
-2.389672 0.401168 3.310587
-2.449637 0.411235 3.900224
-2.643248 0.443737 4.985888
-2.655106 0.705040 0.978888
-2.441410 0.648295 1.546670
-2.436652 0.647032 2.663593
-2.283485 0.606360 2.339241
-2.316794 0.615205 2.902617
-2.384596 0.633209 3.448695
-2.455675 0.652083 3.939405
-2.455704 0.652091 4.797960
-7.533038 2.780493 -0.297274
-2.886260 1.065337 1.077491
-2.756425 1.017414 0.719985
-2.607093 0.962295 2.938725
-2.379008 0.878107 3.576092
-2.445176 0.902530 4.183337
-2.349368 0.867167 3.704316
-2.717123 1.300623 1.701273
-2.698224 1.291577 1.371965
-2.724471 1.304140 1.813169
-2.734426 1.308906 2.242940
-2.572657 1.231471 2.701560
-2.391973 1.144982 3.504678
-2.420542 1.158657 4.335177
-2.558109 1.560777 0.962281
-2.552686 1.557469 1.352198
-2.578057 1.572948 1.806588
-2.612839 1.594169 2.286619
-2.726220 1.663347 3.580683
-2.558206 1.560836 3.616832
-2.450988 1.495420 4.247323
-2.758539 2.055941 0.782727
-2.634957 1.963835 1.270355
-2.659407 1.982058 1.751693
-2.691641 2.006082 2.232317
-2.572935 1.917610 1.976408
-2.509122 1.870051 2.471958
-2.552394 1.902301 2.949681
-2.604032 1.940787 3.432755
-5.987472 5.388327 -0.312509
-2.534524 2.280903 1.237813
-2.518120 2.266141 2.013864
-2.517927 2.265967 2.288317
-2.537389 2.283482 2.770305
-2.532939 2.279477 2.718508
-2.595835 2.336080 3.549245
-2.454646 2.209018 4.521367
-2.263797 2.472772 0.032452
-2.117180 2.312621 0.615802
-2.044555 2.233292 1.106043
-2.062943 2.253377 1.592629
-2.085683 2.278216 2.039195
-2.093144 2.286366 2.428606
-2.077694 2.269490 4.116666
-1.965240 2.146655 4.465664
-4.880628 6.502298 -0.321657
-1.861199 2.479613 1.050137
-1.778941 2.370024 0.725839
-1.823621 2.429549 2.030265
-1.688024 2.248898 1.702058
-1.607800 2.142019 2.484650
-1.668523 2.222918 3.513567
-1.621595 2.160397 3.124141
-1.642048 2.187645 4.195634
-1.570648 2.092522 4.092177
-1.542355 2.054828 4.813290
-1.311526 2.152052 0.934168
