0.841497 -0.031679 0.581251
1.037359 -0.039052 -0.231200
1.068246 -0.052285 0.712319
1.485606 -0.072713 -0.057064
1.310287 -0.078402 0.143376
0.936193 -0.066090 0.289817
1.359973 -0.096006 -0.267251
0.717053 -0.058080 0.709661
0.810952 -0.065686 -0.300534
0.737918 -0.068156 0.514888
0.808959 -0.074717 -0.067863
0.870345 -0.090276 0.948637
0.864461 -0.099458 0.745392
2.084374 -0.239811 -0.859839
1.018310 -0.127670 0.992812
0.916958 -0.125586 0.966629
0.903205 -0.133211 0.212683
1.252455 -0.184721 -0.507300
0.705702 -0.112200 0.398595
0.916989 -0.155463 1.121242
0.973666 -0.165072 0.125411
1.642940 -0.278538 -0.529905
0.632467 -0.114671 0.623487
0.608144 -0.116639 0.701905
1.671631 -0.320610 -1.011663
0.850805 -0.173236 0.648599
1.090101 -0.221960 -0.096129
2.101378 -0.427870 -0.699958
0.905611 -0.194783 0.995620
0.966420 -0.207862 0.289408
1.212145 -0.260714 -0.421460
0.651499 -0.147312 0.632785
0.988642 -0.223545 -0.298843
0.699281 -0.166514 0.680501
0.644513 -0.161161 0.379684
1.010640 -0.252711 -0.558714
0.844978 -0.220476 0.880892
0.955398 -0.249287 0.057882
1.565886 -0.408579 -0.644371
0.668010 -0.182295 0.603160
0.894418 -0.253942 1.111579
1.918879 -0.544805 -0.712398
0.892700 -0.264295 1.150229
1.838384 -0.544277 -0.582449
0.862323 -0.266073 1.035004
1.877161 -0.579204 -0.384619
0.680418 -0.218257 0.398595
0.706939 -0.243178 0.854857
1.725684 -0.593613 -0.932670
0.898568 -0.320037 1.081827
1.189225 -0.423559 0.067004
2.162580 -0.770232 -0.752632
0.873408 -0.322375 1.150229
1.866715 -0.689004 -0.412460
1.274834 -0.484880 0.334062
1.601564 -0.609152 -0.283476
0.898578 -0.353909 0.492331
1.223501 -0.481881 -0.430117
0.713463 -0.289559 0.737785
1.482801 -0.601795 -0.948223
0.682851 -0.286166 0.466317
1.472394 -0.617045 -0.796537
0.683588 -0.294675 0.709164
0.562021 -0.250085 0.448456
0.676249 -0.309786 0.680024
0.690980 -0.325227 0.310665
0.894403 -0.420973 -0.289408
0.714070 -0.345528 0.649969
0.820067 -0.407879 0.502693
1.473601 -0.732929 -0.766989
1.131433 -0.578833 0.775272
1.324160 -0.677431 -0.057064
1.707150 -0.873366 -0.601235
1.090794 -0.572254 1.169237
1.097290 -0.575662 0.354412
1.298303 -0.681118 -0.513926
0.763507 -0.411655 0.600201
0.892185 -0.481033 -0.298843
0.802843 -0.443595 0.589690
1.129511 -0.640791 0.889470
2.168958 -1.230487 -0.655855
1.124627 -0.654957 0.994650
1.414887 -0.823997 0.009470
2.067891 -1.204291 -0.620737
1.125570 -0.671010 1.271896
0.764787 -0.455929 0.464353
0.827096 -0.493075 -0.202730
1.128806 -0.690268 0.869726
1.482181 -0.906358 -0.009443
2.108110 -1.289116 -0.767252
1.188483 -0.743620 1.010882
2.178340 -1.362961 -0.700481
1.200966 -0.771119 1.019687
1.803041 -1.157700 -0.606641
1.127634 -0.741510 0.926396
1.202574 -0.808445 0.904709
1.151742 -0.774273 0.181220
1.319506 -0.887054 -0.426743
1.198443 -0.824748 1.104636
1.104142 -0.759853 0.458463
1.206440 -0.830252 -0.390209
1.558474 -1.124133 -0.798485
1.247316 -0.921526 0.968574
1.497895 -1.106656 0.037634
1.481613 -1.094627 -0.574303
1.071649 -0.808911 0.611271
1.087495 -0.820871 -0.114537
1.047131 -0.809603 0.888836
1.394267 -1.077996 -0.066050
1.996925 -1.543948 -0.895318
1.157195 -0.913483 0.913575
1.304800 -1.030001 0.028389
1.366185 -1.078459 -0.472111
1.047774 -0.844729 0.773616
1.430375 -1.153187 -0.009415
1.922607 -1.550031 -0.702554
1.038407 -0.856889 0.792714
1.455765 -1.201291 -0.075213
1.631603 -1.346391 -0.457658
1.138329 -0.960828 0.399440
1.120586 -0.945852 -0.532959
1.320109 -1.137798 0.613731
1.392251 -1.199976 -0.216549
1.722887 -1.484950 -0.911226
1.367208 -1.205461 0.847899
1.359592 -1.198745 -0.131908
1.724089 -1.520121 -0.873401
1.347336 -1.212821 0.179018
1.404183 -1.263992 -0.366655
1.259972 -1.159984 0.141739
1.337079 -1.230973 -0.593560
1.230900 -1.159211 0.491703
1.156527 -1.089169 -0.303465
1.255387 -1.182271 -0.916477
1.028101 -0.990328 1.029214
1.161303 -1.118635 -0.085289
1.673606 -1.612116 -0.882043
0.896603 -0.901939 0.813551
1.119213 -1.125874 0.113801
1.708409 -1.718576 -0.860941
1.005102 -1.034007 0.571433
1.038444 -1.068308 -0.418460
0.857151 -0.900227 0.632170
1.129567 -1.186334 -0.227273
1.673249 -1.757339 -0.981257
0.915411 -0.981143 0.563519
0.982412 -1.052955 -0.438107
0.704172 -0.771747 0.722455
1.361605 -1.492269 -0.730611
0.781946 -0.876566 0.931025
1.056768 -1.184642 -0.104317
1.430435 -1.603525 -0.886576
1.028630 -1.177281 0.265724
1.196478 -1.369385 -0.650083
0.707858 -0.828869 0.432879
0.836830 -0.979889 -0.296518
0.556378 -0.666576 0.648599
0.600978 -0.720010 -0.193212
0.848475 -1.016528 -0.907947
0.503149 -0.615492 0.737267
0.594454 -0.727183 -0.367099
0.983094 -1.202598 -1.054011
0.669958 -0.838716 0.885553
1.478244 -1.850605 -0.649005
0.663114 -0.848059 1.001030
1.459631 -1.866727 -0.704626
0.648941 -0.849434 0.683445
1.483740 -1.942149 -0.675323
0.564710 -0.755095 0.627911
1.345840 -1.799572 -0.818863
0.636264 -0.871196 1.078010
1.411366 -1.932495 -0.620737
0.610347 -0.855619 0.982480
1.406851 -1.972202 -0.833175
0.572746 -0.820979 0.983871
1.312589 -1.881477 -0.678309
0.605670 -0.889017 0.972162
0.738926 -1.084613 0.066909
1.068097 -1.567779 -0.817862
0.423485 -0.635624 0.320373
0.673186 -1.010408 -0.354664
0.404334 -0.621909 0.563459
0.436311 -0.686629 0.290840
0.598619 -0.942055 -0.519080
0.487358 -0.786500 0.956965
0.506923 -0.818075 -0.067577
0.868062 -1.400882 -0.861661
0.478133 -0.791538 0.937637
0.498033 -0.824482 0.250998
0.889836 -1.473104 -0.774780
0.443381 -0.751246 0.842179
0.307042 -0.534106 0.516695
0.278665 -0.496365 0.702886
0.308321 -0.564006 0.623487
0.264948 -0.497555 0.312410
0.402303 -0.775080 0.880892
0.940835 -1.812619 -0.580335
0.546462 -1.082404 0.115028
0.728347 -1.442674 -0.511717
0.858585 -1.744939 -0.713434
0.319836 -0.669300 0.563459
0.271439 -0.583427 0.662451
0.420295 -0.930911 0.800070
0.830939 -1.840446 -0.693149
0.393214 -0.895758 1.061765
0.800096 -1.822654 -0.468702
0.340726 -0.801357 0.774428
0.789644 -1.857168 -0.627588
0.361489 -0.874419 0.792109
0.491834 -1.189715 -0.047826
0.350004 -0.874649 0.579614
0.751645 -1.878339 -0.861720
0.313621 -0.808051 0.561482
0.670310 -1.727070 -1.026109
0.233189 -0.623062 0.457564
0.243823 -0.670122 0.233327
0.236306 -0.672507 0.184718
0.362115 -1.070060 1.105308
0.324935 -0.960193 0.308483
0.399307 -1.179963 -0.766248
0.378772 -1.163036 0.872207
0.452916 -1.390698 0.133245
0.352932 -1.122595 1.007790
0.371363 -1.181219 0.249048
0.470418 -1.496293 -0.654787
0.334324 -1.102477 1.018108
0.308457 -1.017175 0.202157
0.376067 -1.240127 -0.774720
0.255862 -0.879438 0.502693
0.245642 -0.881061 0.406026
0.256252 -0.956909 0.482337
0.333126 -1.243976 -0.181738
0.321050 -1.256162 0.803408
0.325025 -1.333373 0.839859
0.316469 -1.358272 0.715297
0.302775 -1.365172 0.877399
0.343707 -1.549727 0.056900
0.398931 -1.798725 -0.593131
0.293632 -1.395296 0.972050
0.327003 -1.553872 0.199151
0.379419 -1.802942 -0.593131
0.276448 -1.390790 0.629021
0.265374 -1.419288 0.676184
0.310142 -1.658721 -0.094561
0.358015 -1.914754 -0.854217
0.273290 -1.549131 0.863522
0.219728 -1.245517 0.411588
0.232701 -1.319053 -0.382056
0.244114 -1.581021 0.929264
0.238468 -1.544455 0.170823
0.239515 -1.551234 -0.711717
0.206628 -1.448300 0.209384
0.203347 -1.425306 -0.409536
0.161730 -1.230564 0.517240
0.180877 -1.376251 -0.228909
0.241786 -1.839695 -1.120216
0.188525 -1.563955 0.948905
0.187002 -1.551326 0.123373
0.190959 -1.584145 -0.758613
0.166411 -1.685102 0.642981
0.175909 -1.781276 -0.424288
0.220865 -2.236509 -0.828166
0.111014 -1.271890 1.004927
0.164117 -1.880293 0.084614
0.191030 -2.188635 -0.810745
0.100208 -1.298689 1.032895
0.143291 -1.857034 0.122309
0.159198 -2.063189 -0.692140
0.120787 -1.815745 0.716025
0.123625 -1.858415 -0.112901
0.167389 -2.516303 -0.803035
0.088119 -1.614743 0.578045
0.090654 -1.661187 -0.302811
0.123874 -2.269926 -0.864745
0.071578 -1.616728 0.644371
0.073526 -1.660731 -0.037852
0.099700 -2.251912 -1.070032
0.056222 -1.714142 0.434657
0.054494 -1.661465 -0.037852
0.073942 -2.254396 -1.116539
0.040256 -1.791210 0.546852
0.038478 -1.712091 -0.113392
0.053467 -2.379042 -1.084647
0.016783 -1.516023 0.513190
0.017849 -1.612285 -0.056860
0.026538 -2.397197 -0.824526
0.001212 -1.269484 0.708283
0.001539 -1.612493 -0.104242
0.002291 -2.399969 -0.926410
-0.012326 -1.192800 0.623479
-0.014852 -1.437272 -0.028573
-0.022274 -2.155547 -1.119811
-0.022546 -1.072035 0.837434
-0.030251 -1.438434 -0.314298
-0.047959 -2.280396 -1.125015
-0.036369 -1.144127 0.720409
-0.051227 -1.611544 0.037906
-0.078593 -2.472464 -0.878157
-0.084993 -1.964511 -0.525324
-0.063945 -1.199510 0.987897
-0.084501 -1.585107 0.037934
-0.111286 -2.087559 -0.467338
-0.074471 -1.146494 0.902877
-0.096414 -1.484314 0.085596
-0.150209 -2.312489 -0.584970
-0.083909 -1.115246 0.653643
-0.109716 -1.458248 0.047587
-0.175939 -2.338425 -0.723698
-0.096712 -1.116757 0.778585
-0.126171 -1.456917 -0.047587
-0.196000 -2.263244 -0.799669
-0.081390 -0.839330 0.649056
-0.097713 -1.007658 -0.057841
-0.085698 -0.786398 0.514166
-0.140411 -1.179966 0.258995
-0.182187 -1.531043 -0.560302
-0.287199 -2.201209 -0.717046
-0.328463 -2.319879 -0.621650
-0.165417 -1.085669 0.875309
-0.174827 -1.066377 1.135741
-0.175614 -1.005530 0.771156
-0.421088 -2.411060 -0.832561
-0.181830 -0.976637 0.655961
-0.420416 -2.258124 -0.808373
-0.169118 -0.859319 0.977670
-0.210008 -1.067090 0.125057
-0.207263 -0.992832 0.366322
-0.283933 -1.360097 -0.381511
-0.185612 -0.844985 0.445320
-0.266581 -1.213587 -0.603438
-0.161523 -0.697900 0.534692
-0.245601 -1.061181 -0.365544
-0.163337 -0.674148 0.671251
-0.165865 -0.649149 0.739858
-0.452438 -1.770712 -1.026852
-0.191797 -0.719465 0.718877
-0.560532 -2.102660 -0.969837
-0.199391 -0.716041 0.650883
-0.591121 -2.122796 -1.052969
-0.263033 -0.908676 0.782451
-0.675005 -2.331880 -1.018274
-0.266765 -0.886517 0.976293
-0.624723 -2.076089 -0.624848
-0.214117 -0.684232 0.573575
-0.336518 -1.034263 0.144296
-0.492618 -1.514023 -0.578461
-0.189237 -0.561950 0.634114
-0.695251 -1.918569 -0.477380
-0.346999 -0.928601 0.530567
-0.451385 -1.207948 -0.392166
-0.341313 -0.882723 0.801767
-0.473310 -1.224102 0.076467
-0.847589 -2.192085 -0.937048
-0.373452 -0.935795 1.196004
-0.737091 -1.847001 -0.299975
-0.255618 -0.618685 0.710657
-0.310779 -0.733314 0.805162
-0.613632 -1.447924 -0.844547
-0.459461 -1.051228 0.835655
-0.575770 -1.317339 0.152389
-0.430058 -0.954410 0.818766
-0.559695 -1.242108 0.057269
-0.737013 -1.635621 -0.678835
-0.442268 -0.952545 0.953591
-0.563425 -1.213491 0.200582
-0.723613 -1.558500 -0.642517
-0.472151 -0.990487 0.836841
-0.532438 -1.116958 0.047894
-0.695013 -1.458013 -0.445388
-0.514772 -1.051466 0.767884
-0.610251 -1.246492 0.190758
-0.777158 -1.587414 -0.594419
-0.529588 -1.051802 1.036576
-0.545703 -1.083807 0.277982
-0.647685 -1.286351 -0.447631
-0.552494 -1.066917 0.997486
-0.637979 -1.231997 -0.057228
-0.814091 -1.572086 -0.745362
-0.562504 -1.059591 0.930363
-0.662238 -1.247459 0.019062
-0.830706 -1.564803 -0.801962
-0.585913 -1.073970 0.881790
-0.676960 -1.240857 0.285931
-0.848580 -1.555434 -0.811395
-0.599846 -1.073730 1.111753
-0.615706 -1.102120 0.086148
-0.789898 -1.413925 -0.710695
-0.636454 -1.109402 1.081469
-0.467763 -0.815357 0.434719
-0.567389 -0.965082 0.711310
-0.691264 -1.175782 -0.334062
-0.846278 -1.439448 -0.719133
-0.681818 -1.131313 0.774168
-0.719966 -1.164713 0.696722
-0.749326 -1.185221 1.020416
-0.773543 -1.192869 0.810074
-0.986408 -1.521125 0.207284
-1.123968 -1.733254 -0.486385
-0.818167 -1.231280 1.056281
-0.659005 -0.991752 0.489201
-0.756075 -1.137835 -0.515399
-0.815773 -1.201087 1.009437
-1.004236 -1.478566 0.037715
-1.303416 -1.919058 -0.714946
-0.716682 -1.027624 1.043942
-0.853518 -1.145289 1.057794
-1.038994 -1.394169 0.311598
-1.083809 -1.454303 -0.310923
-0.883120 -1.158435 1.161752
-1.129375 -1.481460 0.188167
-1.312794 -1.722060 -0.456990
-0.907195 -1.163752 0.961146
-1.160445 -1.488622 0.103417
-1.302854 -1.671304 -0.681792
-0.966507 -1.214173 1.006547
-1.175655 -1.476914 0.159827
-1.271802 -1.597698 -0.570976
-0.936560 -1.149766 1.198969
-1.239874 -1.522128 0.243908
-1.337356 -1.641802 -0.597745
-0.929959 -1.115381 1.018957
-1.257758 -1.508538 0.347096
-1.371835 -1.645361 -0.578645
-0.911629 -1.068877 1.106218
-1.290028 -1.512547 0.206234
-1.390347 -1.630170 -0.597309
-0.987628 -1.134538 1.084043
-1.304976 -1.499092 0.112492
-1.404146 -1.613014 -0.289333
-1.231006 -1.382267 0.969642
-1.206143 -1.354349 0.292080
-1.157282 -1.272949 0.746439
-1.168940 -1.285773 0.160522
-1.610344 -1.771294 -0.667055
-1.260488 -1.355799 0.979053
-1.182953 -1.272401 -0.028328
-1.199896 -1.264399 0.632613
-1.161855 -1.224313 -0.189122
-1.578433 -1.663284 -0.622564
-1.192958 -1.201226 0.624072
-1.295061 -1.304037 -0.188304
-1.205568 -1.189568 0.661890
-1.309694 -1.292312 -0.423675
-0.864052 -0.834462 0.987897
-1.322891 -1.277588 0.348358
-1.629898 -1.574081 -0.492847
-0.889208 -0.838544 0.833876
-1.246150 -1.175149 0.188985
-1.632251 -1.539251 -0.651391
-0.788894 -0.729052 0.914423
-1.092414 -1.009549 0.095107
-1.687555 -1.559545 -0.845532
-0.857817 -0.774738 1.142929
-1.160381 -1.047999 0.294194
-1.795398 -1.621516 -0.685077
-0.860951 -0.761895 0.931686
-1.170463 -1.035796 0.208784
-1.736163 -1.536410 -0.640675
-0.814019 -0.704069 0.991408
-1.030508 -0.891316 -0.104992
-1.581758 -1.368108 -0.523415
-0.802060 -0.677969 0.953591
-1.002648 -0.847523 0.191167
-1.465135 -1.238457 -0.648202
-0.786355 -0.651158 0.780794
-0.972709 -0.805473 0.201012
-1.555458 -1.288030 -0.702514
-0.753257 -0.609518 0.685381
-0.728673 -0.589626 -0.028982
-0.817219 -0.647621 0.616506
-1.009388 -0.799909 -0.200869
-0.685485 -0.530737 0.571162
-0.682357 -0.528316 -0.212983
-0.892262 -0.674901 0.672865
-1.027526 -0.777214 -0.267824
-0.908623 -0.672779 1.134132
-2.000469 -1.481224 -0.351037
-0.832262 -0.601903 1.021721
-1.145182 -0.828211 0.257338
-1.862304 -1.346843 -0.864111
-0.774868 -0.548712 0.927318
-1.091453 -0.772898 0.066861
-1.747775 -1.237663 -0.541316
-0.655139 -0.452523 0.795463
-0.750724 -0.518546 -0.067672
-0.679924 -0.459420 0.765827
-0.776700 -0.524812 -0.057964
-0.686494 -0.452740 0.843365
-0.907801 -0.598691 -0.086578
-1.288083 -0.849485 -0.626771
-0.929740 -0.598276 1.134936
-1.168879 -0.752158 0.429197
-1.651237 -1.062549 -0.290812
-0.959653 -0.603815 1.230207
-0.966115 -0.607881 0.537922
-1.387952 -0.873301 -0.416660
-0.944196 -0.579467 1.202238
-0.973776 -0.597620 0.605156
-1.270636 -0.779807 -0.494539
-0.764886 -0.457617 0.532067
-0.976323 -0.584116 -0.163304
-0.683365 -0.399035 0.533567
-0.896208 -0.523320 -0.183034
-0.898750 -0.511701 1.243332
-0.838712 -0.477518 0.444066
-1.098905 -0.625658 -0.392445
-0.901400 -0.500983 1.156620
-1.190920 -0.661893 0.104992
-2.047968 -1.138225 -0.621650
-0.703178 -0.381043 0.940943
-1.996207 -1.081717 -0.743888
-0.590242 -0.311594 0.603582
-0.920290 -0.472609 1.252966
-1.237488 -0.635504 0.515031
-1.816832 -0.933023 -0.589695
-0.619958 -0.309549 0.632342
-1.203673 -0.585655 0.296096
-1.585494 -0.771433 -0.245326
-0.926562 -0.437610 0.934992
-2.027607 -0.957628 -0.586259
-0.824181 -0.379348 1.189716
-2.176746 -1.001896 -0.778212
-0.727375 -0.324978 0.814861
-1.163990 -0.504330 0.660432
-1.525394 -0.660918 -0.075704
-1.856640 -0.781961 -0.393427
-0.952867 -0.388759 1.089172
-1.287316 -0.525210 0.457809
-1.910736 -0.779558 -0.299320
-0.865910 -0.342858 1.159891
-2.225104 -0.881033 -0.630000
-0.914969 -0.350329 1.110011
-2.256285 -0.863900 -0.499937
-0.681520 -0.252961 1.020674
-1.354055 -0.485402 0.276202
-1.730801 -0.620459 -0.301284
-0.977134 -0.337787 1.233697
-2.358265 -0.815232 -0.729743
-0.802765 -0.268375 0.804030
-0.924513 -0.285965 0.617815
-1.158299 -0.358278 -0.086271
-1.081253 -0.322054 1.057266
-1.379833 -0.410986 0.409536
-1.015001 -0.290034 1.136545
-1.943767 -0.555426 -0.796167
-1.013942 -0.278687 1.001739
-1.970688 -0.541654 -0.664568
-0.847494 -0.222998 0.997025
-0.865886 -0.218017 0.628797
-0.891164 -0.214519 0.551025
-0.974999 -0.223236 0.954940
-1.133636 -0.259558 -0.211184
-0.968255 -0.209963 0.491983
-1.357566 -0.294383 -0.352898
-2.487071 -0.512614 -0.368966
-1.305753 -0.253734 1.118144
-1.329471 -0.244104 1.002780
-1.330908 -0.228383 0.955040
-0.938894 -0.151518 0.985261
-1.073513 -0.173243 -0.067338
-0.961352 -0.143973 0.830155
-1.100071 -0.164747 -0.009613
-1.332083 -0.184942 0.725869
-1.524303 -0.211629 -0.332392
-1.339741 -0.171102 0.964588
-1.624946 -0.207526 0.236743
-2.499119 -0.319169 -0.692288
-1.362401 -0.159794 0.811233
-1.378021 -0.161626 0.095379
-1.705995 -0.180894 0.472451
-1.752617 -0.185837 -0.084921
-1.380254 -0.130469 1.297791
-1.855917 -0.175431 0.357513
-2.303993 -0.217785 -0.362135
-1.379454 -0.116091 1.240560
-1.882254 -0.158405 0.329051
-2.330023 -0.196088 -0.250527
-1.300842 -0.094726 1.090260
-1.832640 -0.133451 0.103567
-2.410807 -0.175553 -0.573995
-1.380073 -0.084717 1.192865
-1.909973 -0.117245 0.291235
-2.235368 -0.137219 -0.390850
-1.298502 -0.064830 0.946842
-1.911269 -0.095423 0.300629
-1.357750 -0.040094 1.212809
-1.914214 -0.056526 0.432149
-2.237429 -0.066071 -0.269876
-1.813767 -0.034551 0.348610
-1.693074 -0.013113 0.633526
-1.637661 -0.012684 -0.160986
-1.742076 -0.013492 -0.575966
-1.728200 0.006207 1.048715
-1.790670 0.006432 0.480857
-2.368695 0.008508 -0.658275
-1.722145 0.024202 0.831460
-1.687389 0.023713 0.122930
-2.293319 0.032229 -0.650437
-1.516374 0.037945 0.560704
-1.661818 0.041585 -0.009463
-1.405192 0.049502 1.144350
-1.787237 0.062960 0.264006
-2.462444 0.086746 -0.332807
-1.544391 0.071480 0.778693
-1.560853 0.072241 -0.113883
-1.355417 0.078449 1.193717
-1.665002 0.096367 0.615060
-1.811793 0.104863 -0.414560
-1.157730 0.080204 1.277335
-1.684461 0.116694 0.283681
-2.060338 0.142734 -0.448973
-1.154827 0.091688 1.219734
-1.682261 0.133564 0.122930
-2.132662 0.169324 -0.373329
-1.244256 0.112972 0.919465
-1.357224 0.123230 -0.181350
-1.362636 0.138511 0.715808
-1.554328 0.157997 0.000000
-1.106801 0.124518 1.365665
-1.605313 0.180602 0.464339
-2.100159 0.236274 -0.270864
-1.038154 0.127508 0.780242
-1.328687 0.163192 0.305647
-2.001593 0.245839 -0.543293
-1.078010 0.144828 1.337774
-2.294177 0.308218 -0.408561
-0.963529 0.140519 0.897712
-0.952276 0.138878 0.028962
-1.093912 0.170895 1.183009
-2.483424 0.387971 -0.286162
-0.863037 0.144280 0.948637
-0.974243 0.162871 -0.173646
-1.033215 0.185276 0.934331
-1.539281 0.276023 0.322663
-2.353617 0.422050 -0.509569
-0.979345 0.185946 0.819925
-1.093144 0.207553 -0.153807
-8.022182 1.523153 -1.732311
-0.908323 0.183101 1.005284
-7.941311 1.600821 -1.898789
-1.993529 0.422940 -0.196573
-7.960117 1.688791 -1.679967
-0.809460 0.181301 1.105024
-1.086121 0.243267 0.221096
-1.721448 0.385566 -0.349114
-0.652665 0.153243 0.759325
-0.771651 0.190334 0.727567
-7.931154 1.956287 -1.786134
-0.928333 0.240251 1.236315
-1.005992 0.260350 0.356430
-7.864340 2.035281 -1.858610
-0.680677 0.184298 1.128358
-1.657009 0.448646 -0.548038
-0.625738 0.176281 0.954650
-0.772070 0.226216 1.105802
-0.948963 0.278045 0.327994
-0.807610 0.246450 0.707173
-1.160460 0.354126 -0.258811
-0.502051 0.159423 1.016627
-2.008469 0.659545 -0.336243
-0.524225 0.178399 1.084277
-1.875830 0.661899 -0.356218
-1.836918 0.692936 -0.253289
-0.511332 0.199462 0.908490
-1.483898 0.578845 -0.616389
-1.935852 0.780675 0.000000
-2.139839 0.888309 -0.557117
-1.899093 0.813656 -0.505091
-1.097141 0.484582 0.920774
-1.474941 0.651448 0.066336
-1.923777 0.873496 -0.177464
-1.257292 0.587141 0.143069
-1.508460 0.704433 -0.416360
-1.702546 0.817909 -0.319650
-1.266080 0.625902 0.019062
-1.493684 0.738421 -0.520443
-1.885490 0.955968 -0.336243
-1.296702 0.676083 -0.047587
-1.005024 0.537566 0.413054
-1.399949 0.748803 -0.142251
-1.745943 0.959229 -0.571808
-0.674907 0.380011 0.931899
-1.053239 0.608904 0.546362
-1.594515 0.921830 -0.555475
-1.237081 0.731828 -0.009524
-1.059596 0.643193 0.392725
-1.659913 1.007596 -0.553866
-1.412377 0.878081 0.227109
-0.774667 0.493365 0.657351
-0.917320 0.584216 -0.125057
-0.829452 0.553718 0.839213
-0.925266 0.617681 0.105742
-0.883775 0.618162 1.068387
-1.573766 1.100781 -0.751523
-0.968112 0.693498 0.498793
-1.149300 0.823290 -0.314523
-0.866006 0.633882 0.875929
-1.489073 1.089943 -0.743746
-1.372629 1.028467 0.444106
-1.570546 1.176759 -0.103192
-0.809738 0.621150 0.761518
-1.125676 0.882108 1.114953
-1.309920 1.026486 0.359586
-1.645101 1.289142 -0.429953
-0.974757 0.781929 0.929041
-1.023711 0.821199 0.057350
-0.947871 0.776225 0.948867
-1.287411 1.054278 0.340661
-1.966827 1.610661 -0.571882
-1.003362 0.840743 1.233659
-1.370689 1.148537 0.254577
-1.696920 1.421894 -0.325949
-0.965354 0.845177 1.205840
-1.401361 1.226905 0.122309
-1.816933 1.590744 -0.416619
-1.060025 0.947446 0.810074
-1.526221 1.364130 -0.814304
-1.134054 1.036936 1.301726
-1.449114 1.325014 0.290812
-1.449642 1.325498 -0.365858
-1.150460 1.076075 0.948905
-1.159725 1.084741 0.208634
-1.418831 1.327094 -0.610186
-1.320577 1.260661 0.960925
-1.293128 1.234457 0.169719
-1.820300 1.737711 -0.535385
-1.337663 1.333288 0.300847
-1.780824 1.775001 -0.369239
-1.011592 1.032108 1.514975
-1.221714 1.246491 0.745900
-1.357665 1.385199 -0.394286
-1.013776 1.081850 1.189457
-1.190423 1.270360 0.500435
-1.633289 1.742964 -0.296484
-1.146527 1.247324 -0.690253
-0.902637 1.005779 0.993232
-1.178538 1.313206 0.386855
-1.679002 1.870857 -0.313855
-0.986380 1.121681 0.665707
-1.031797 1.173328 0.094902
-0.798602 0.927110 0.891372
-1.020461 1.184671 0.294194
-1.465484 1.701305 -0.744433
-0.962799 1.143993 0.741777
-1.006346 1.195735 -0.189804
-0.704455 0.854581 1.192623
-0.978928 1.187547 0.341888
-1.491009 1.808757 -0.677313
-0.721507 0.895728 0.950891
-0.792421 0.983765 0.248871
-0.675773 0.858624 1.462821
-0.939601 1.193838 0.693736
-1.198890 1.523287 -0.281636
-5.039187 6.402693 -1.849273
-0.655859 0.851033 0.924046
-0.953782 1.237614 0.104392
-1.446250 1.876634 -0.686086
-0.673825 0.895019 0.749753
-0.879885 1.168720 -0.199866
-0.638020 0.865766 0.962539
-1.538285 2.087390 -0.617083
-0.537475 0.747113 0.754007
-0.576639 0.801554 0.077176
-0.593409 0.844206 1.175890
-1.445408 2.056290 -0.276932
-0.547673 0.796491 0.550247
-0.658713 0.957978 -0.134390
-0.431412 0.642961 0.922194
-0.508755 0.758231 0.232018
-0.510481 0.779712 1.179216
-1.308069 1.997952 -0.222364
-0.404726 0.630884 0.932554
-0.465733 0.725980 0.116173
-0.497406 0.795023 1.343459
-1.334777 2.133425 -0.535385
-0.378701 0.620847 1.030392
-0.540242 0.885680 0.086701
-0.778525 1.276324 -0.732269
-0.316909 0.531550 0.682410
-0.460411 0.792427 0.541358
-0.797723 1.372985 -0.199151
-0.357789 0.632174 1.001237
-0.944271 1.668424 -0.573055
-0.311189 0.563230 0.662451
-0.434988 0.808890 0.657351
-0.717998 1.335165 -0.503687
-0.253042 0.482504 0.732680
-0.473450 0.925595 0.404594
-0.792254 1.548855 -0.406018
-0.323462 0.650407 1.001237
-0.376936 0.780031 0.532442
-0.659203 1.364154 -0.437166
-0.212275 0.451186 0.899977
-0.776721 1.699947 -0.677362
-0.795476 1.903613 -0.233845
-0.833435 2.053645 -0.521506
-0.590642 1.504306 -0.511717
-0.391577 1.099396 0.575933
-0.541069 1.519109 -0.132672
