-0.389823 1.080312 8.493588
-0.296975 0.829009 9.177849
-0.261066 0.887026 0.612458
-0.269634 0.922709 1.097645
-0.285285 0.990878 2.095801
-0.249914 0.873473 2.522970
-0.252232 0.892768 3.363246
-0.264275 0.946269 4.123446
-0.218738 0.791584 4.845250
-0.172169 0.629962 5.598258
-0.132166 0.490357 6.541300
-0.186053 0.698325 7.262558
-0.311241 1.182125 7.927303
-0.281795 1.078733 8.460748
-0.224585 0.870853 9.349542
-0.190800 0.999027 1.270636
-0.171025 0.909768 2.004492
-0.173276 0.937878 2.793239
-0.166634 0.913561 3.372965
-0.162782 0.910746 4.277921
-0.115485 0.653257 4.796863
-0.083844 0.483745 5.694092
-0.047834 0.280416 6.428623
-0.106257 0.637894 7.390208
-0.192413 1.168185 7.753699
-0.186123 1.152171 8.570844
-0.146132 0.925698 9.589297
-0.017873 0.169833 0.317646
-0.097923 0.991482 1.922677
-0.087622 0.914225 2.659101
-0.086242 0.929273 3.421560
-0.087758 0.972940 4.074918
-0.068453 0.790255 5.008116
-0.052018 0.614028 5.523684
-0.051189 0.628757 6.377365
-0.067355 0.863135 7.213300
-0.089493 1.192503 7.923128
-0.088398 1.219518 8.588000
-0.070733 1.016613 9.411470
-0.001326 0.144818 0.178800
-0.002861 0.935464 1.711620
0.000868 0.947740 2.715531
0.002561 0.912503 3.197974
0.006179 0.977983 4.084625
0.009754 1.028654 4.886243
0.009766 0.852865 5.417549
0.010293 0.721391 6.169864
0.019261 1.055765 7.144642
0.024719 1.227654 7.602771
0.028401 1.227012 8.393186
0.027153 1.061534 9.079629
0.039884 0.496698 0.531229
0.057997 0.705884 0.997777
0.081380 0.956986 1.710420
0.083752 0.941815 2.686387
0.100090 1.102871 3.131758
0.114090 1.203955 4.126479
0.118225 1.213186 4.801167
0.103813 1.037092 5.497903
0.086295 0.837620 6.279602
0.118162 1.111586 7.071852
0.136219 1.249785 7.737646
0.135109 1.216929 8.271788
0.127080 1.107192 9.282826
-0.471234 -0.011784 -0.057023
-1.032395 -0.025817 -0.057023
-0.346276 -0.008659 -0.057023
-0.070676 -0.001767 -0.057023
-0.192020 -0.004802 -0.057023
-0.274430 -0.006863 -0.057023
-0.066349 -0.001659 -0.057023
-0.996886 -0.024929 -0.057023
-0.184098 -0.004604 -0.057023
-0.085240 -0.002132 -0.057023
-1.045656 -0.062783 -0.057023
-1.037827 -0.062313 -0.057023
-0.773916 -0.046467 -0.057023
-0.108508 -0.006515 -0.057023
-0.444468 -0.026687 -0.057023
-0.235663 -0.014150 -0.057023
-0.392127 -0.023544 -0.057023
-1.332719 -0.080019 -0.057023
-0.997883 -0.059915 -0.057023
-0.998674 -0.059962 -0.057023
-1.308639 -0.205297 -0.057023
-0.651243 -0.102166 -0.057023
-0.098043 -0.015381 -0.057023
-1.085032 -0.170218 -0.057023
-1.367906 -0.214595 -0.057023
-0.028776 -0.004514 -0.057023
-0.027116 -0.004254 -0.057023
-0.794031 -0.124566 -0.057023
-1.157673 -0.181614 -0.057023
-0.175657 -0.027557 -0.057023
-0.490481 -0.094245 -0.057023
-0.127168 -0.024435 -0.057023
-0.876953 -0.168505 -0.057023
-0.048430 -0.009306 -0.057023
-0.919221 -0.176627 -0.057023
-0.851101 -0.163538 -0.057023
-0.426292 -0.081911 -0.057023
-0.712063 -0.136822 -0.057023
-0.757598 -0.145571 -0.057023
-0.015400 -0.002959 -0.057023
-0.829321 -0.164862 -0.057023
-0.098097 -0.019501 -0.057023
-1.216954 -0.241920 -0.057023
-0.994939 -0.197786 -0.057023
-0.494122 -0.098227 -0.057023
-0.342139 -0.068014 -0.057023
-1.135986 -0.225825 -0.057023
-1.105750 -0.219814 -0.057023
-0.432027 -0.085883 -0.057023
-0.996927 -0.198181 -0.057023
-1.124226 -0.378959 -0.057023
-0.668877 -0.225468 -0.057023
-1.331054 -0.448677 -0.057023
-0.400894 -0.135135 -0.057023
-0.144420 -0.048682 -0.057023
-1.096965 -0.369769 -0.057023
-1.231337 -0.415064 -0.057023
-0.507424 -0.171045 -0.057023
-0.422768 -0.142508 -0.057023
-0.862157 -0.290620 -0.057023
-0.825244 -0.310460 -0.057023
-0.955849 -0.359594 -0.057023
-1.294901 -0.487146 -0.057023
-1.244305 -0.468112 -0.057023
-0.498880 -0.187680 -0.057023
-0.346353 -0.130299 -0.057023
-1.089089 -0.409719 -0.057023
-0.574625 -0.216176 -0.057023
-1.096276 -0.412423 -0.057023
-1.380922 -0.519508 -0.057023
-0.476808 -0.303079 -0.057023
-0.527971 -0.335601 -0.057023
-0.175191 -0.111359 -0.057023
-0.696806 -0.442919 -0.057023
-0.999251 -0.635166 -0.057023
-0.763233 -0.485143 -0.057023
-0.824635 -0.524173 -0.057023
-0.152018 -0.096629 -0.057023
-0.908560 -0.577519 -0.057023
-0.248415 -0.157903 -0.057023
-0.796593 -0.563277 -0.057023
-0.371095 -0.262404 -0.057023
-0.316870 -0.224061 -0.057023
-0.460594 -0.325690 -0.057023
-1.054320 -0.745518 -0.057023
-1.086276 -0.768114 -0.057023
-0.344698 -0.243739 -0.057023
-0.777186 -0.549554 -0.057023
-0.699731 -0.494785 -0.057023
-0.485541 -0.343330 -0.057023
-0.370717 -0.284601 -0.057023
-0.339338 -0.260511 -0.057023
-0.192329 -0.147652 -0.057023
-0.944243 -0.724899 -0.057023
-1.138721 -0.874200 -0.057023
-1.018515 -0.781917 -0.057023
-0.479563 -0.368162 -0.057023
-0.218816 -0.167986 -0.057023
-0.290255 -0.222830 -0.057023
-0.860736 -0.660790 -0.057023
-0.476498 -0.408987 -0.057023
-0.322382 -0.276706 -0.057023
-0.185833 -0.159504 -0.057023
-0.545019 -0.467800 -0.057023
-0.905559 -0.777258 -0.057023
-0.768426 -0.659554 -0.057023
-0.089014 -0.076402 -0.057023
-0.464441 -0.398638 -0.057023
-0.063739 -0.054708 -0.057023
-0.029094 -0.024972 -0.057023
-0.686006 -0.628309 -0.057023
-0.912773 -0.836005 -0.057023
-0.439470 -0.402508 -0.057023
-0.666192 -0.610163 -0.057023
-0.340411 -0.311781 -0.057023
-0.854214 -0.782370 -0.057023
-1.192506 -1.092211 -0.057023
-1.210800 -1.108966 -0.057023
-0.484657 -0.443896 -0.057023
-0.351842 -0.322250 -0.057023
-0.912873 -1.020913 -0.057023
-0.722680 -0.808210 -0.057023
-0.147143 -0.164557 -0.057023
-0.143033 -0.159961 -0.057023
-0.106356 -0.118943 -0.057023
-0.298584 -0.333922 -0.057023
-0.182221 -0.203787 -0.057023
-0.179889 -0.201180 -0.057023
-0.874938 -0.978488 -0.057023
-0.307965 -0.344413 -0.057023
-0.928763 -1.079578 -0.057023
-0.882495 -1.025797 -0.057023
-0.458708 -0.533194 -0.057023
-0.363812 -0.422888 -0.057023
-0.071422 -0.083020 -0.057023
-0.794571 -0.923595 -0.057023
-0.082809 -0.096256 -0.057023
-0.922896 -1.072758 -0.057023
-0.043061 -0.050054 -0.057023
-0.065688 -0.076355 -0.057023
-0.881013 -1.095130 -0.057023
-0.764279 -0.950026 -0.057023
-0.975511 -1.212594 -0.057023
-0.719845 -0.894793 -0.057023
-0.605453 -0.752599 -0.057023
-0.013836 -0.017199 -0.057023
-0.859476 -1.068359 -0.057023
-0.161384 -0.200607 -0.057023
-0.235691 -0.292973 -0.057023
-0.318627 -0.396065 -0.057023
-0.143860 -0.191761 -0.057023
-0.367701 -0.490132 -0.057023
-0.047007 -0.062658 -0.057023
-0.657925 -0.876990 -0.057023
-0.578105 -0.770593 -0.057023
-0.786071 -1.047805 -0.057023
-0.125228 -0.166924 -0.057023
-0.081367 -0.108459 -0.057023
-0.173430 -0.231176 -0.057023
-0.790972 -1.054338 -0.057023
-0.214033 -0.298321 -0.057023
-0.923409 -1.287055 -0.057023
-0.704166 -0.981472 -0.057023
-0.131307 -0.183017 -0.057023
-0.778776 -1.085464 -0.057023
-0.411672 -0.573792 -0.057023
-0.932182 -1.299284 -0.057023
-0.949893 -1.323969 -0.057023
-0.548025 -0.763842 -0.057023
-0.599772 -0.835967 -0.057023
-0.727404 -1.182361 -0.057023
-0.071199 -0.115731 -0.057023
-0.462452 -0.751694 -0.057023
-0.507635 -0.825137 -0.057023
-0.358606 -0.582898 -0.057023
-0.750613 -1.220086 -0.057023
-0.526912 -0.856471 -0.057023
-0.741591 -1.205421 -0.057023
-0.142232 -0.231192 -0.057023
-0.816361 -1.326957 -0.057023
-0.214671 -0.368911 -0.057023
-0.231566 -0.397946 -0.057023
-0.365971 -0.628920 -0.057023
-0.010749 -0.018472 -0.057023
-0.434796 -0.747197 -0.057023
-0.358024 -0.615264 -0.057023
-0.757319 -1.301451 -0.057023
-0.480398 -0.825562 -0.057023
-0.219381 -0.377006 -0.057023
-0.731196 -1.256558 -0.057023
-0.706127 -1.428083 -0.057023
-0.298622 -0.603939 -0.057023
-0.471634 -0.953841 -0.057023
-0.383068 -0.774724 -0.057023
-0.545051 -1.102321 -0.057023
-0.489043 -0.989049 -0.057023
-0.382662 -0.773903 -0.057023
-0.242029 -0.489484 -0.057023
-0.256823 -0.519404 -0.057023
-0.358105 -0.724238 -0.057023
-0.221243 -0.448293 -0.057023
-0.664435 -1.346309 -0.057023
-0.385811 -0.781748 -0.057023
-0.320952 -0.650328 -0.057023
-0.435891 -0.883223 -0.057023
-0.645896 -1.308746 -0.057023
-0.207649 -0.420748 -0.057023
-0.134190 -0.271901 -0.057023
-0.734705 -1.488694 -0.057023
-0.619558 -1.255377 -0.057023
-0.317498 -0.823482 -0.057023
-0.506687 -1.314173 -0.057023
-0.264123 -0.685044 -0.057023
-0.309204 -0.801970 -0.057023
-0.391017 -1.014165 -0.057023
-0.326417 -0.846615 -0.057023
-0.369635 -0.958709 -0.057023
-0.067029 -0.173850 -0.057023
-0.253400 -0.657233 -0.057023
-0.480488 -1.246224 -0.057023
-0.597865 -1.659701 -0.057023
-0.177036 -0.491460 -0.057023
-0.294691 -0.818076 -0.057023
-0.005540 -0.015380 -0.057023
-0.262636 -0.729090 -0.057023
-0.024970 -0.069318 -0.057023
-0.524269 -1.455395 -0.057023
-0.454562 -1.261885 -0.057023
-0.427668 -1.187227 -0.057023
-0.213190 -0.591826 -0.057023
-0.281428 -0.832380 -0.057023
-0.446104 -1.319441 -0.057023
-0.246008 -0.727617 -0.057023
-0.025675 -0.075940 -0.057023
-0.029871 -0.088349 -0.057023
-0.397445 -1.175522 -0.057023
-0.116164 -0.343579 -0.057023
-0.304392 -0.900300 -0.057023
-0.390835 -1.155973 -0.057023
-0.149603 -0.442481 -0.057023
-0.109310 -0.362589 -0.057023
-0.272705 -0.904585 -0.057023
-0.356077 -1.181135 -0.057023
-0.346653 -1.149873 -0.057023
-0.105964 -0.351492 -0.057023
-0.440207 -1.460202 -0.057023
-0.203066 -0.673587 -0.057023
-0.264432 -0.877140 -0.057023
-0.216392 -0.717789 -0.057023
-0.315466 -1.046426 -0.057023
-0.247657 -0.873447 -0.057023
-0.372899 -1.315158 -0.057023
-0.292486 -1.031553 -0.057023
-0.230616 -0.813349 -0.057023
-0.402572 -1.419808 -0.057023
-0.127451 -0.449500 -0.057023
-0.364671 -1.286137 -0.057023
-0.010413 -0.036724 -0.057023
-0.162003 -0.571361 -0.057023
-0.032621 -0.115050 -0.057023
-0.071157 -0.260773 -0.057023
-0.029143 -0.106802 -0.057023
-0.142276 -0.521409 -0.057023
-0.107887 -0.395381 -0.057023
-0.152730 -0.559720 -0.057023
-0.325364 -1.192379 -0.057023
-0.293734 -1.076463 -0.057023
-0.219605 -0.804799 -0.057023
-0.354705 -1.299906 -0.057023
-0.290654 -1.065176 -0.057023
-0.012060 -0.046625 -0.057023
-0.018437 -0.071280 -0.057023
-0.402226 -1.555022 -0.057023
-0.449282 -1.736942 -0.057023
-0.360306 -1.392956 -0.057023
-0.359147 -1.388475 -0.057023
-0.004680 -0.018093 -0.057023
-0.021941 -0.084824 -0.057023
-0.144077 -0.557005 -0.057023
-0.264153 -1.021225 -0.057023
-0.270425 -1.122182 -0.057023
-0.294716 -1.222981 -0.057023
-0.236932 -0.983196 -0.057023
-0.210415 -0.873157 -0.057023
-0.176079 -0.730672 -0.057023
-0.116136 -0.481927 -0.057023
-0.179344 -0.744221 -0.057023
-0.037833 -0.156996 -0.057023
-0.322215 -1.337094 -0.057023
-0.035429 -0.147017 -0.057023
-0.330652 -1.509814 -0.057023
-0.045762 -0.208956 -0.057023
-0.125448 -0.572815 -0.057023
-0.312260 -1.425832 -0.057023
-0.062350 -0.284699 -0.057023
-0.315491 -1.440585 -0.057023
-0.260101 -1.187665 -0.057023
-0.056734 -0.259056 -0.057023
-0.228864 -1.045033 -0.057023
-0.090556 -0.413496 -0.057023
-0.189114 -0.930845 -0.057023
-0.108877 -0.535908 -0.057023
-0.029502 -0.145212 -0.057023
-0.079701 -0.392296 -0.057023
-0.186114 -0.916076 -0.057023
-0.000042 -0.000209 -0.057023
-0.135797 -0.668410 -0.057023
-0.309579 -1.523786 -0.057023
-0.300044 -1.476852 -0.057023
-0.313129 -1.541262 -0.057023
-0.262602 -1.482113 -0.057023
-0.303984 -1.715669 -0.057023
-0.121592 -0.686262 -0.057023
-0.224276 -1.265801 -0.057023
-0.072896 -0.411422 -0.057023
-0.291181 -1.643413 -0.057023
-0.013483 -0.076099 -0.057023
-0.224198 -1.265361 -0.057023
-0.111690 -0.630371 -0.057023
-0.257223 -1.451753 -0.057023
-0.144799 -0.900569 -0.057023
-0.115984 -0.721358 -0.057023
-0.227396 -1.414280 -0.057023
-0.230230 -1.431906 -0.057023
-0.014581 -0.090684 -0.057023
-0.088207 -0.548597 -0.057023
-0.087790 -0.546005 -0.057023
-0.101621 -0.632025 -0.057023
-0.020879 -0.129857 -0.057023
-0.097874 -0.608725 -0.057023
-0.001861 -0.014333 -0.057023
-0.179190 -1.380252 -0.057023
-0.161252 -1.242080 -0.057023
-0.132561 -1.021083 -0.057023
-0.205265 -1.581108 -0.057023
-0.161604 -1.244793 -0.057023
-0.035681 -0.274842 -0.057023
-0.009270 -0.071404 -0.057023
-0.100174 -0.771616 -0.057023
-0.066528 -0.512450 -0.057023
-0.117426 -1.236024 -0.057023
-0.140841 -1.482492 -0.057023
-0.093461 -0.983778 -0.057023
-0.064073 -0.674435 -0.057023
-0.025320 -0.266518 -0.057023
-0.046836 -0.492995 -0.057023
-0.000224 -0.002353 -0.057023
-0.141067 -1.484871 -0.057023
-0.001373 -0.014449 -0.057023
-0.145418 -1.530669 -0.057023
-0.022074 -0.327376 -0.057023
-0.018842 -0.279432 -0.057023
-0.026381 -0.391239 -0.057023
-0.039223 -0.581696 -0.057023
-0.026543 -0.393652 -0.057023
-0.039239 -0.581930 -0.057023
-0.088229 -1.308477 -0.057023
-0.054848 -0.813427 -0.057023
-0.050147 -0.743704 -0.057023
-0.049200 -0.729663 -0.057023
-0.084578 -1.599625 -0.057023
-0.025080 -0.474339 -0.057023
-0.038145 -0.721446 -0.057023
-0.063013 -1.191766 -0.057023
-0.069809 -1.320303 -0.057023
-0.000476 -0.009007 -0.057023
-0.042010 -0.794534 -0.057023
-0.071128 -1.345252 -0.057023
-0.055697 -1.053412 -0.057023
-0.012425 -0.235001 -0.057023
-0.029200 -0.964986 -0.057023
-0.006129 -0.202540 -0.057023
-0.008975 -0.296612 -0.057023
-0.041377 -1.367426 -0.057023
-0.030018 -0.992038 -0.057023
-0.041746 -1.379617 -0.057023
-0.022140 -0.731660 -0.057023
-0.010009 -0.330785 -0.057023
-0.042063 -1.390068 -0.057023
-0.018896 -0.624455 -0.057023
-0.016481 -1.248889 -0.057023
-0.003150 -0.238673 -0.057023
-0.003461 -0.262260 -0.057023
-0.021880 -1.657952 -0.057023
-0.010455 -0.792254 -0.057023
-0.015538 -1.177431 -0.057023
-0.010149 -0.769041 -0.057023
-0.013917 -1.054540 -0.057023
-0.000366 -0.027703 -0.057023
-0.022629 -1.714769 -0.057023
0.001403 -0.747654 -0.057023
0.002472 -1.317204 -0.057023
0.001977 -1.053421 -0.057023
0.002101 -1.119837 -0.057023
0.002396 -1.276600 -0.057023
0.002046 -1.090543 -0.057023
0.000704 -0.375220 -0.057023
0.001539 -0.819881 -0.057023
0.001516 -0.807827 -0.057023
0.000431 -0.229929 -0.057023
0.008870 -1.194632 -0.057023
0.007178 -0.966794 -0.057023
0.000487 -0.065659 -0.057023
0.000318 -0.042812 -0.057023
0.003383 -0.455681 -0.057023
0.005060 -0.681442 -0.057023
0.001064 -0.143304 -0.057023
0.004477 -0.602999 -0.057023
0.000616 -0.082913 -0.057023
0.003283 -0.442145 -0.057023
0.080577 -0.468659 -0.057023
0.090485 -0.526284 -0.057023
0.080616 -0.468885 -0.057023
0.237828 -1.383275 -0.057023
0.274183 -1.594726 -0.057023
0.226524 -1.317526 -0.057023
0.019469 -0.113239 -0.057023
0.021783 -0.126695 -0.057023
0.014559 -0.084678 -0.057023
0.214699 -1.248748 -0.057023
0.153346 -0.527699 -0.057023
0.117358 -0.403855 -0.057023
0.257734 -0.886922 -0.057023
0.154110 -0.530326 -0.057023
0.257151 -0.884913 -0.057023
0.088631 -0.304998 -0.057023
0.066263 -0.228026 -0.057023
0.425595 -1.464569 -0.057023
0.191391 -0.658620 -0.057023
0.026316 -0.090560 -0.057023
0.202982 -0.515765 -0.057023
0.228657 -0.581003 -0.057023
0.221798 -0.563574 -0.057023
0.267389 -0.679419 -0.057023
0.148491 -0.377306 -0.057023
0.434132 -1.103103 -0.057023
0.344451 -0.875228 -0.057023
0.524978 -1.333936 -0.057023
0.184168 -0.467960 -0.057023
0.556756 -1.414681 -0.057023
0.408491 -0.823165 -0.057023
0.417056 -0.840426 -0.057023
0.380468 -0.766695 -0.057023
0.050113 -0.100984 -0.057023
0.212233 -0.427679 -0.057023
0.230256 -0.463997 -0.057023
0.074026 -0.149172 -0.057023
0.227014 -0.457465 -0.057023
0.205467 -0.414044 -0.057023
0.084034 -0.169339 -0.057023
0.602481 -1.007370 -0.057023
0.477676 -0.798691 -0.057023
0.163618 -0.273575 -0.057023
0.242758 -0.405900 -0.057023
0.291021 -0.486597 -0.057023
0.040204 -0.067222 -0.057023
0.674541 -1.127857 -0.057023
0.346141 -0.578760 -0.057023
0.133602 -0.223388 -0.057023
0.174814 -0.292295 -0.057023
0.684031 -0.953121 -0.057023
0.132620 -0.184791 -0.057023
0.714461 -0.995521 -0.057023
0.259067 -0.360980 -0.057023
0.085807 -0.119563 -0.057023
0.660375 -0.920159 -0.057023
0.405782 -0.565412 -0.057023
0.749393 -1.044196 -0.057023
0.238301 -0.332046 -0.057023
0.012865 -0.017926 -0.057023
0.446120 -0.523667 -0.057023
0.145539 -0.170837 -0.057023
0.407954 -0.478867 -0.057023
0.847895 -0.995279 -0.057023
0.926716 -1.087802 -0.057023
0.637928 -0.748816 -0.057023
0.986249 -1.157684 -0.057023
1.088899 -1.278176 -0.057023
0.397007 -0.466017 -0.057023
0.265480 -0.311627 -0.057023
0.428386 -0.491161 -0.057023
0.747377 -0.856897 -0.057023
0.912352 -1.046047 -0.057023
0.992270 -1.137676 -0.057023
0.271816 -0.311647 -0.057023
0.954826 -1.094745 -0.057023
0.292657 -0.335542 -0.057023
0.099006 -0.113514 -0.057023
0.840055 -0.963156 -0.057023
0.978396 -1.121769 -0.057023
1.023446 -1.032767 -0.057023
1.094517 -1.104485 -0.057023
1.137837 -1.148200 -0.057023
1.026904 -1.036257 -0.057023
0.226390 -0.228452 -0.057023
0.285664 -0.288266 -0.057023
0.819397 -0.826860 -0.057023
0.981895 -0.990838 -0.057023
0.018360 -0.018527 -0.057023
0.466189 -0.470435 -0.057023
0.970166 -0.890482 -0.057023
0.640772 -0.588143 -0.057023
0.382002 -0.350627 -0.057023
0.439637 -0.403528 -0.057023
0.994479 -0.912798 -0.057023
0.030707 -0.028185 -0.057023
1.033793 -0.948882 -0.057023
0.036987 -0.033949 -0.057023
0.223389 -0.205041 -0.057023
0.119214 -0.109422 -0.057023
0.435739 -0.343861 -0.057023
0.442176 -0.348941 -0.057023
0.987041 -0.778918 -0.057023
1.046223 -0.825621 -0.057023
0.264223 -0.208511 -0.057023
0.366082 -0.288892 -0.057023
1.210347 -0.955138 -0.057023
0.279381 -0.220472 -0.057023
0.512335 -0.404306 -0.057023
0.774663 -0.611321 -0.057023
1.092655 -0.755963 -0.057023
0.408608 -0.282699 -0.057023
0.891120 -0.616530 -0.057023
0.712425 -0.492897 -0.057023
1.018448 -0.704622 -0.057023
0.341991 -0.236610 -0.057023
1.350471 -0.934335 -0.057023
0.443428 -0.306789 -0.057023
0.331695 -0.229486 -0.057023
1.009989 -0.698770 -0.057023
0.728652 -0.475488 -0.057023
0.426157 -0.278092 -0.057023
0.721840 -0.471042 -0.057023
0.194477 -0.126908 -0.057023
0.472361 -0.308243 -0.057023
0.101019 -0.065921 -0.057023
1.032251 -0.673604 -0.057023
0.604028 -0.394163 -0.057023
0.004997 -0.003261 -0.057023
1.032829 -0.673981 -0.057023
0.458816 -0.250160 -0.057023
0.364728 -0.198861 -0.057023
0.121005 -0.065975 -0.057023
1.120783 -0.611085 -0.057023
0.796463 -0.434256 -0.057023
0.836090 -0.455862 -0.057023
0.720573 -0.392878 -0.057023
0.321069 -0.175057 -0.057023
0.837547 -0.456656 -0.057023
0.272207 -0.148415 -0.057023
1.154171 -0.604231 -0.057023
0.350304 -0.183391 -0.057023
1.168721 -0.611848 -0.057023
1.294187 -0.677532 -0.057023
1.608922 -0.842301 -0.057023
1.134889 -0.594136 -0.057023
0.952487 -0.498645 -0.057023
1.576126 -0.825132 -0.057023
1.540541 -0.806503 -0.057023
0.277246 -0.145144 -0.057023
1.404008 -0.699385 -0.057023
1.247424 -0.621385 -0.057023
1.309520 -0.652317 -0.057023
1.342786 -0.668888 -0.057023
0.712503 -0.354922 -0.057023
0.704421 -0.350896 -0.057023
1.525842 -0.760074 -0.057023
0.077071 -0.038392 -0.057023
0.452291 -0.225302 -0.057023
1.411692 -0.703213 -0.057023
1.594688 -0.714869 -0.057023
0.224634 -0.100699 -0.057023
0.869740 -0.389888 -0.057023
0.350004 -0.156900 -0.057023
0.116404 -0.052182 -0.057023
1.149976 -0.515513 -0.057023
0.686793 -0.307876 -0.057023
0.664708 -0.297976 -0.057023
1.576694 -0.706803 -0.057023
1.091345 -0.489230 -0.057023
0.026081 -0.010265 -0.057023
0.854890 -0.336483 -0.057023
0.707088 -0.278308 -0.057023
0.461974 -0.181832 -0.057023
1.368812 -0.538761 -0.057023
0.956772 -0.376583 -0.057023
1.423043 -0.560106 -0.057023
1.448557 -0.570149 -0.057023
1.539453 -0.605925 -0.057023
0.238905 -0.094032 -0.057023
1.085694 -0.395388 -0.057023
0.859330 -0.312950 -0.057023
0.346252 -0.126098 -0.057023
1.504695 -0.547979 -0.057023
1.706011 -0.621294 -0.057023
1.347036 -0.490563 -0.057023
1.169426 -0.425881 -0.057023
1.296031 -0.471988 -0.057023
0.724388 -0.263807 -0.057023
0.034792 -0.012671 -0.057023
0.622998 -0.161509 -0.057023
1.722221 -0.446477 -0.057023
0.407657 -0.105683 -0.057023
1.219435 -0.316132 -0.057023
0.443972 -0.115097 -0.057023
0.284663 -0.073797 -0.057023
0.651144 -0.168806 -0.057023
0.981165 -0.254362 -0.057023
0.530311 -0.137480 -0.057023
0.065103 -0.016878 -0.057023
1.436620 -0.272609 -0.057023
1.658288 -0.314671 -0.057023
0.734954 -0.139462 -0.057023
0.302790 -0.057456 -0.057023
0.053247 -0.010104 -0.057023
0.476281 -0.090378 -0.057023
1.506153 -0.285803 -0.057023
0.771790 -0.146452 -0.057023
1.512904 -0.287084 -0.057023
0.828185 -0.157154 -0.057023
0.419312 -0.061148 -0.057023
0.947119 -0.138118 -0.057023
0.939511 -0.137009 -0.057023
1.390761 -0.202814 -0.057023
1.133337 -0.165274 -0.057023
0.013872 -0.002023 -0.057023
0.391125 -0.057038 -0.057023
1.474788 -0.215068 -0.057023
0.217863 -0.031771 -0.057023
1.155280 -0.168474 -0.057023
0.660529 0.012719 -0.057023
1.238871 0.023855 -0.057023
0.019904 0.000383 -0.057023
0.654977 0.012612 -0.057023
1.308781 0.025201 -0.057023
1.004472 0.019342 -0.057023
0.195726 0.003769 -0.057023
0.220058 0.004237 -0.057023
0.036674 0.000706 -0.057023
1.162739 0.022389 -0.057023
0.969802 0.036673 -0.057023
1.017179 0.038464 -0.057023
1.238937 0.046850 -0.057023
0.911910 0.034484 -0.057023
0.484010 0.018303 -0.057023
0.888370 0.033594 -0.057023
1.365992 0.051655 -0.057023
0.134564 0.005089 -0.057023
1.100306 0.041608 -0.057023
1.050723 0.039733 -0.057023
0.972373 0.072119 -0.057023
1.126594 0.083557 -0.057023
0.309139 0.022928 -0.057023
0.473699 0.035133 -0.057023
0.268925 0.019946 -0.057023
0.956334 0.070929 -0.057023
0.893057 0.066236 -0.057023
0.950751 0.070515 -0.057023
1.589318 0.117876 -0.057023
0.062543 0.004639 -0.057023
1.880498 0.202047 -0.057023
1.637927 0.175984 -0.057023
1.271650 0.136630 -0.057023
1.183618 0.127172 -0.057023
0.559415 0.060105 -0.057023
0.860339 0.092438 -0.057023
1.184485 0.127265 -0.057023
1.030527 0.110723 -0.057023
1.698132 0.182453 -0.057023
1.238526 0.133071 -0.057023
1.135107 0.150392 -0.057023
0.408798 0.054162 -0.057023
0.307428 0.040731 -0.057023
0.837228 0.110925 -0.057023
0.795545 0.105403 -0.057023
1.073587 0.142241 -0.057023
0.866848 0.114850 -0.057023
1.404464 0.186079 -0.057023
0.430630 0.057055 -0.057023
1.399552 0.185428 -0.057023
1.271773 0.289535 -0.057023
0.236670 0.053881 -0.057023
1.441110 0.328087 -0.057023
1.630653 0.371239 -0.057023
0.729784 0.166145 -0.057023
0.769716 0.175236 -0.057023
1.463131 0.333100 -0.057023
0.778994 0.177348 -0.057023
0.244950 0.055766 -0.057023
1.159295 0.263928 -0.057023
1.334040 0.331424 -0.057023
0.774628 0.192446 -0.057023
0.551540 0.137023 -0.057023
0.027305 0.006784 -0.057023
1.114091 0.276781 -0.057023
0.522336 0.129767 -0.057023
0.526939 0.130911 -0.057023
1.071903 0.266300 -0.057023
1.408353 0.349886 -0.057023
0.671408 0.166802 -0.057023
0.661058 0.175492 -0.057023
1.085758 0.288238 -0.057023
1.112214 0.295262 -0.057023
0.811520 0.215436 -0.057023
0.671442 0.178249 -0.057023
0.768818 0.204100 -0.057023
0.210435 0.055865 -0.057023
0.900952 0.239177 -0.057023
1.199288 0.318377 -0.057023
0.681561 0.180935 -0.057023
0.255254 0.081140 -0.057023
1.434591 0.456025 -0.057023
0.029196 0.009281 -0.057023
0.400591 0.127339 -0.057023
0.835652 0.265635 -0.057023
1.647821 0.523806 -0.057023
1.119058 0.355724 -0.057023
0.289572 0.092049 -0.057023
1.218988 0.387490 -0.057023
0.846311 0.269024 -0.057023
1.302821 0.453120 -0.057023
0.022649 0.007877 -0.057023
1.370864 0.476785 -0.057023
0.203964 0.070938 -0.057023
0.731774 0.254510 -0.057023
1.080366 0.375750 -0.057023
1.209644 0.420713 -0.057023
0.901390 0.313502 -0.057023
0.880310 0.306171 -0.057023
1.304180 0.453592 -0.057023
1.063879 0.408647 -0.057023
0.978072 0.375688 -0.057023
0.277307 0.106517 -0.057023
0.258493 0.099290 -0.057023
0.149065 0.057257 -0.057023
0.912153 0.350368 -0.057023
0.670953 0.257720 -0.057023
0.619142 0.237819 -0.057023
0.981478 0.376996 -0.057023
0.872624 0.335185 -0.057023
0.891871 0.364333 -0.057023
0.396064 0.161794 -0.057023
0.001751 0.000715 -0.057023
1.159662 0.473727 -0.057023
0.903462 0.369068 -0.057023
0.404139 0.165093 -0.057023
1.024224 0.418400 -0.057023
0.631574 0.258001 -0.057023
0.782129 0.319503 -0.057023
0.472246 0.192915 -0.057023
0.645941 0.273692 -0.057023
1.397771 0.592250 -0.057023
0.284289 0.120456 -0.057023
0.932330 0.395038 -0.057023
0.425439 0.180263 -0.057023
0.005534 0.002345 -0.057023
0.739273 0.313237 -0.057023
0.893079 0.378407 -0.057023
0.384538 0.162933 -0.057023
1.565433 0.663290 -0.057023
1.169054 0.667961 -0.057023
1.271894 0.726721 -0.057023
0.070300 0.040167 -0.057023
0.084684 0.048386 -0.057023
0.590688 0.337501 -0.057023
0.669625 0.382603 -0.057023
1.209313 0.690964 -0.057023
1.440133 0.822847 -0.057023
0.504706 0.288373 -0.057023
0.113305 0.064739 -0.057023
1.212312 0.746136 -0.057023
0.180324 0.110983 -0.057023
1.033823 0.636282 -0.057023
0.072977 0.044915 -0.057023
0.308879 0.190104 -0.057023
0.163164 0.100422 -0.057023
1.044728 0.642993 -0.057023
0.881909 0.542784 -0.057023
0.676441 0.416326 -0.057023
1.101235 0.677772 -0.057023
0.086015 0.063761 -0.057023
1.098654 0.814406 -0.057023
0.748692 0.554988 -0.057023
0.734465 0.544441 -0.057023
1.230325 0.912011 -0.057023
0.250187 0.185458 -0.057023
0.274620 0.203569 -0.057023
0.755683 0.560170 -0.057023
0.791213 0.586507 -0.057023
0.075105 0.055674 -0.057023
0.915645 0.709028 -0.057023
0.241050 0.186657 -0.057023
0.514056 0.398059 -0.057023
0.636084 0.492551 -0.057023
0.933416 0.722790 -0.057023
0.367185 0.284329 -0.057023
1.049927 0.813009 -0.057023
0.573958 0.444444 -0.057023
0.350770 0.271618 -0.057023
0.726053 0.562218 -0.057023
1.132156 0.925386 -0.057023
0.162916 0.133162 -0.057023
0.771911 0.630933 -0.057023
0.676282 0.552769 -0.057023
0.198040 0.161871 -0.057023
0.707103 0.577962 -0.057023
1.122995 0.917898 -0.057023
1.142987 0.934238 -0.057023
0.040823 0.033367 -0.057023
0.693890 0.567162 -0.057023
1.019089 0.852655 -0.057023
0.999361 0.836149 -0.057023
0.233930 0.195726 -0.057023
0.958993 0.802374 -0.057023
1.068377 0.893894 -0.057023
0.271058 0.226789 -0.057023
0.899072 0.752239 -0.057023
0.312836 0.261745 -0.057023
0.625234 0.523124 -0.057023
0.891519 0.745920 -0.057023
0.371411 0.324031 -0.057023
0.110102 0.096056 -0.057023
0.914688 0.798005 -0.057023
0.869264 0.758375 -0.057023
0.250167 0.218254 -0.057023
0.245997 0.214616 -0.057023
0.890178 0.776621 -0.057023
1.093299 0.953832 -0.057023
0.024754 0.021596 -0.057023
0.384179 0.335171 -0.057023
0.783551 0.849176 -0.057023
0.740655 0.802687 -0.057023
0.616004 0.667596 -0.057023
0.697043 0.755423 -0.057023
0.070056 0.075923 -0.057023
0.110836 0.120119 -0.057023
0.428287 0.464157 -0.057023
0.686694 0.744206 -0.057023
0.620956 0.672963 -0.057023
0.123720 0.134082 -0.057023
0.460743 0.533583 -0.057023
0.197268 0.228454 -0.057023
0.936397 1.084434 -0.057023
0.152812 0.176970 -0.057023
1.104810 1.279472 -0.057023
1.092791 1.265554 -0.057023
0.066128 0.076583 -0.057023
1.067569 1.236344 -0.057023
0.890568 1.031360 -0.057023
0.745216 0.863029 -0.057023
0.563893 0.743782 -0.057023
0.753320 0.993639 -0.057023
0.560024 0.738678 -0.057023
0.679639 0.896452 -0.057023
0.160419 0.211595 -0.057023
0.831686 1.097004 -0.057023
0.837439 1.104593 -0.057023
0.424068 0.559352 -0.057023
0.351056 0.463047 -0.057023
0.477965 0.630442 -0.057023
0.824974 1.222896 -0.057023
0.486454 0.721093 -0.057023
0.220162 0.326356 -0.057023
0.298974 0.443183 -0.057023
0.083663 0.124017 -0.057023
0.039330 0.058301 -0.057023
0.742464 1.100588 -0.057023
0.119589 0.177272 -0.057023
0.346891 0.514212 -0.057023
0.330388 0.489748 -0.057023
0.763869 1.160343 -0.057023
0.482485 0.732912 -0.057023
0.719735 1.093302 -0.057023
0.682588 1.036875 -0.057023
0.777077 1.180406 -0.057023
0.204962 0.311345 -0.057023
0.736292 1.118453 -0.057023
0.021187 0.032184 -0.057023
0.078680 0.119518 -0.057023
0.542384 0.823900 -0.057023
0.128513 0.204959 -0.057023
0.083512 0.133188 -0.057023
0.294964 0.470422 -0.057023
0.131722 0.210076 -0.057023
0.172767 0.275536 -0.057023
0.530946 0.846776 -0.057023
0.603632 0.962700 -0.057023
0.372062 0.593381 -0.057023
0.528591 0.843021 -0.057023
0.207502 0.330934 -0.057023
0.045512 0.075954 -0.057023
0.337593 0.563400 -0.057023
0.483186 0.806377 -0.057023
0.247272 0.412666 -0.057023
0.087594 0.146184 -0.057023
0.334585 0.558380 -0.057023
0.269968 0.450543 -0.057023
0.117034 0.195316 -0.057023
0.206472 0.344577 -0.057023
0.185224 0.309115 -0.057023
0.406983 0.716253 -0.057023
0.109083 0.191975 -0.057023
0.545532 0.960086 -0.057023
0.415762 0.731703 -0.057023
0.479848 0.844489 -0.057023
0.217446 0.382685 -0.057023
0.193816 0.341099 -0.057023
0.437833 0.770546 -0.057023
0.002943 0.005180 -0.057023
0.412003 0.725087 -0.057023
0.073467 0.133330 -0.057023
0.382544 0.694251 -0.057023
0.611441 1.109659 -0.057023
0.171638 0.311493 -0.057023
0.553770 1.004997 -0.057023
0.586584 1.064549 -0.057023
0.150536 0.273198 -0.057023
0.274601 0.498353 -0.057023
0.114381 0.207582 -0.057023
0.497378 0.902654 -0.057023
0.482541 0.963565 -0.057023
0.202574 0.404511 -0.057023
0.529673 1.057680 -0.057023
0.052247 0.104329 -0.057023
0.358340 0.715552 -0.057023
0.314808 0.628626 -0.057023
0.296213 0.591494 -0.057023
0.435340 0.869310 -0.057023
0.107259 0.214181 -0.057023
0.564341 1.126907 -0.057023
0.467891 0.984397 -0.057023
0.159439 0.335445 -0.057023
0.584024 1.228729 -0.057023
0.131963 0.277636 -0.057023
0.360970 0.759446 -0.057023
0.095786 0.201524 -0.057023
0.554281 1.166153 -0.057023
0.491635 1.034351 -0.057023
0.015634 0.032892 -0.057023
0.291988 0.614313 -0.057023
0.208485 0.496139 -0.057023
0.238800 0.568279 -0.057023
0.285296 0.678927 -0.057023
0.200972 0.478259 -0.057023
0.297839 0.708777 -0.057023
0.424100 1.009243 -0.057023
0.009317 0.022172 -0.057023
0.070537 0.167859 -0.057023
0.135337 0.322066 -0.057023
0.201486 0.479482 -0.057023
0.093384 0.487652 -0.057023
0.007814 0.040805 -0.057023
0.090507 0.472626 -0.057023
0.088460 0.461934 -0.057023
0.053883 0.281375 -0.057023
0.111081 0.580066 -0.057023
0.040544 0.211719 -0.057023
0.127070 0.663556 -0.057023
0.008101 0.042303 -0.057023
0.032786 0.171206 -0.057023
0.090210 0.598494 -0.057023
0.013405 0.088934 -0.057023
0.011912 0.079029 -0.057023
0.008593 0.057011 -0.057023
0.032828 0.217792 -0.057023
0.057444 0.381110 -0.057023
0.125500 0.832622 -0.057023
0.122065 0.809829 -0.057023
0.040494 0.268654 -0.057023
0.005922 0.039289 -0.057023
0.086829 0.646436 -0.057023
0.020141 0.149949 -0.057023
0.084244 0.627192 -0.057023
0.008144 0.060635 -0.057023
0.080035 0.595855 -0.057023
0.087492 0.651377 -0.057023
0.055739 0.414973 -0.057023
0.047592 0.354318 -0.057023
0.063391 0.471943 -0.057023
0.046684 0.347564 -0.057023
-0.001070 0.116835 -0.057023
-0.000056 0.006168 -0.057023
-0.000768 0.083896 -0.057023
-0.000282 0.030748 -0.057023
-0.001271 0.138807 -0.057023
-0.001265 0.138211 -0.057023
-0.000518 0.056558 -0.057023
-0.001266 0.138253 -0.057023
-0.001172 0.127976 -0.057023
-0.000148 0.016127 -0.057023
-0.002325 0.022091 -0.057023
-0.012213 0.116049 -0.057023
-0.013006 0.123589 -0.057023
-0.012883 0.122423 -0.057023
-0.008342 0.079269 -0.057023
-0.016890 0.160494 -0.057023
-0.000931 0.008844 -0.057023
-0.007345 0.069794 -0.057023
-0.010362 0.098463 -0.057023
-0.013973 0.132776 -0.057023
-0.009566 0.068956 -0.057023
-0.004642 0.033462 -0.057023
-0.006640 0.047863 -0.057023
-0.007868 0.056715 -0.057023
-0.000455 0.003282 -0.057023
-0.012303 0.088685 -0.057023
-0.006263 0.045143 -0.057023
-0.003102 0.022359 -0.057023
-0.010537 0.075957 -0.057023
-0.001378 0.009932 -0.057023
-0.004227 0.018881 -0.057023
-0.031202 0.139368 -0.057023
-0.027248 0.121707 -0.057023
-0.002215 0.009893 -0.057023
-0.008664 0.038698 -0.057023
-0.027183 0.121415 -0.057023
-0.036486 0.162970 -0.057023
-0.034320 0.153296 -0.057023
-0.045389 0.202735 -0.057023
-0.018111 0.080894 -0.057023
-0.042629 0.127735 -0.057023
-0.048292 0.144701 -0.057023
-0.007801 0.023374 -0.057023
-0.029711 0.089027 -0.057023
-0.008408 0.025194 -0.057023
-0.090150 0.270125 -0.057023
-0.029476 0.088321 -0.057023
-0.003239 0.009705 -0.057023
-0.089647 0.268620 -0.057023
-0.049774 0.149143 -0.057023
-0.016436 0.041410 -0.057023
-0.002439 0.006144 -0.057023
-0.049865 0.125635 -0.057023
-0.010085 0.025409 -0.057023
-0.000465 0.001171 -0.057023
-0.020547 0.051768 -0.057023
-0.092620 0.233359 -0.057023
-0.065875 0.165973 -0.057023
-0.030606 0.077113 -0.057023
-0.029242 0.073676 -0.057023
-0.581484 0.519147 -0.057023
-0.519237 0.463574 -0.057023
-0.268986 0.240150 -0.057023
-0.261050 0.233064 -0.057023
-0.235829 0.210547 -0.057023
-0.445887 0.398087 -0.057023
-0.327013 0.291957 -0.057023
-0.268361 0.239592 -0.057023
-0.458723 0.409546 -0.057023
-0.252405 0.225347 -0.057023
-0.234668 0.179847 -0.057023
-0.521228 0.399464 -0.057023
-0.614411 0.470879 -0.057023
-0.139310 0.106765 -0.057023
-0.392119 0.300516 -0.057023
-0.566807 0.434395 -0.057023
-0.457070 0.350294 -0.057023
-0.183837 0.140891 -0.057023
-0.537429 0.411880 -0.057023
-0.134174 0.102830 -0.057023
-0.185517 0.131842 -0.057023
-0.213706 0.151875 -0.057023
-0.149867 0.106506 -0.057023
-0.363551 0.258366 -0.057023
-0.422815 0.300483 -0.057023
-0.152699 0.108519 -0.057023
-0.289978 0.206080 -0.057023
-0.242494 0.172334 -0.057023
-0.097081 0.068993 -0.057023
-0.389023 0.276468 -0.057023
-0.511962 0.338512 -0.057023
-0.606004 0.400693 -0.057023
-0.149150 0.098619 -0.057023
-0.287241 0.189925 -0.057023
-0.359131 0.237460 -0.057023
-0.426716 0.282147 -0.057023
-0.089585 0.059234 -0.057023
-0.293851 0.194296 -0.057023
-0.013313 0.008803 -0.057023
-0.334135 0.220932 -0.057023
-0.738840 0.452339 -0.057023
-0.272355 0.166743 -0.057023
-0.737423 0.451471 -0.057023
-0.359201 0.219913 -0.057023
-0.447195 0.273785 -0.057023
-0.545210 0.333793 -0.057023
-0.772433 0.472905 -0.057023
-0.652655 0.399574 -0.057023
-0.745093 0.456167 -0.057023
-0.328544 0.201144 -0.057023
-0.640504 0.357669 -0.057023
-0.517365 0.288907 -0.057023
-0.074195 0.041432 -0.057023
-0.221586 0.123738 -0.057023
-0.142501 0.079575 -0.057023
-0.222274 0.124122 -0.057023
-0.509853 0.284711 -0.057023
-0.527550 0.294594 -0.057023
-0.723129 0.403809 -0.057023
-0.275324 0.153746 -0.057023
-0.523879 0.269460 -0.057023
-0.064123 0.032982 -0.057023
-0.617285 0.317504 -0.057023
-0.605329 0.311354 -0.057023
-0.760329 0.391079 -0.057023
-0.225255 0.115861 -0.057023
-0.364330 0.187395 -0.057023
-0.151098 0.077718 -0.057023
-0.475564 0.244609 -0.057023
-0.838165 0.431115 -0.057023
-0.650966 0.316141 -0.057023
-0.393463 0.191085 -0.057023
-0.294029 0.142795 -0.057023
-0.786733 0.382076 -0.057023
-0.658796 0.319943 -0.057023
-0.191157 0.092835 -0.057023
-0.522333 0.253671 -0.057023
-0.624878 0.303471 -0.057023
-0.862513 0.418879 -0.057023
-0.173667 0.084341 -0.057023
-0.926613 0.426366 -0.057023
-0.218451 0.100517 -0.057023
-0.684204 0.314826 -0.057023
-0.643333 0.296019 -0.057023
-0.189761 0.087316 -0.057023
-0.620846 0.285672 -0.057023
-0.184898 0.085078 -0.057023
-0.232870 0.107152 -0.057023
-0.278499 0.128147 -0.057023
-0.846312 0.389417 -0.057023
-0.058294 0.025411 -0.057023
-0.129418 0.056414 -0.057023
-0.282057 0.122950 -0.057023
-0.023347 0.010177 -0.057023
-0.861990 0.375744 -0.057023
-0.541169 0.235897 -0.057023
-0.074307 0.032391 -0.057023
-0.954975 0.416277 -0.057023
-0.704324 0.307017 -0.057023
-0.953973 0.415840 -0.057023
-0.191844 0.026736 -0.057023
-0.631713 0.088036 -0.057023
-0.899810 0.125399 -0.057023
-0.987553 0.137627 -0.057023
-0.055030 0.007669 -0.057023
-0.147513 0.020558 -0.057023
-0.620037 0.086409 -0.057023
-0.511579 0.071294 -0.057023
-0.246060 0.034291 -0.057023
-0.322291 0.044915 -0.057023
-0.004374 0.000546 -0.057023
-0.775185 0.096840 -0.057023
-0.308201 0.038502 -0.057023
-0.803478 0.100375 -0.057023
-0.700237 0.087477 -0.057023
-1.083233 0.135323 -0.057023
-1.118789 0.139765 -0.057023
-0.831861 0.103921 -0.057023
-1.113493 0.139104 -0.057023
-1.079408 0.134846 -0.057023
-0.405149 0.042754 -0.057023
-1.085438 0.114542 -0.057023
-0.525199 0.055422 -0.057023
-1.282173 0.135302 -0.057023
-0.617958 0.065210 -0.057023
-0.031497 0.003324 -0.057023
-0.813950 0.085893 -0.057023
-0.327246 0.034533 -0.057023
-0.936684 0.098844 -0.057023
-0.880775 0.092944 -0.057023
-0.374423 -0.023952 9.915468
-0.417572 -0.026712 9.915468
-0.550419 -0.035210 9.915468
-0.416036 -0.026614 9.915468
-0.144199 -0.009224 9.915468
-0.521719 -0.033374 9.915468
-0.316229 -0.020229 9.915468
-0.849980 -0.054373 9.915468
-0.678855 -0.043426 9.915468
-0.445551 -0.028502 9.915468
-0.576502 -0.080095 9.915468
-0.328282 -0.045609 9.915468
-0.294924 -0.040975 9.915468
-0.460179 -0.063934 9.915468
-0.624203 -0.086722 9.915468
-0.239649 -0.033295 9.915468
-0.803499 -0.111632 9.915468
-0.678606 -0.094281 9.915468
-0.761640 -0.105817 9.915468
-0.346967 -0.048205 9.915468
-0.171259 -0.036059 9.915468
-0.136661 -0.028774 9.915468
-0.624829 -0.131558 9.915468
-0.500264 -0.105331 9.915468
-0.075163 -0.015826 9.915468
-0.852293 -0.179451 9.915468
-0.824259 -0.173548 9.915468
-0.106276 -0.022376 9.915468
-0.679436 -0.143056 9.915468
-0.829605 -0.174674 9.915468
-0.546973 -0.171670 9.915468
-0.624454 -0.195988 9.915468
-0.588144 -0.184592 9.915468
-0.148410 -0.046579 9.915468
-0.537542 -0.168710 9.915468
-0.856048 -0.268675 9.915468
-0.772312 -0.242394 9.915468
-0.346543 -0.108764 9.915468
-0.102496 -0.032169 9.915468
-0.166108 -0.052134 9.915468
-1.020608 -0.365270 9.915468
-0.214381 -0.076726 9.915468
-0.377967 -0.135272 9.915468
-0.392010 -0.140298 9.915468
-0.667025 -0.238725 9.915468
-0.111017 -0.039732 9.915468
-0.632895 -0.226510 9.915468
-1.012515 -0.362373 9.915468
-0.947319 -0.339040 9.915468
-0.771559 -0.276137 9.915468
-0.032693 -0.013059 9.915468
-0.323983 -0.129416 9.915468
-0.609185 -0.243341 9.915468
-0.125902 -0.050292 9.915468
-0.802453 -0.320542 9.915468
-0.210184 -0.083959 9.915468
-0.707607 -0.282656 9.915468
-0.452685 -0.180826 9.915468
-0.144462 -0.057706 9.915468
-0.453334 -0.181086 9.915468
-0.627155 -0.285932 9.915468
-0.116616 -0.053168 9.915468
-0.478478 -0.218147 9.915468
-0.213205 -0.097204 9.915468
-0.801445 -0.365394 9.915468
-0.460543 -0.209971 9.915468
-0.405954 -0.185082 9.915468
-0.527509 -0.240502 9.915468
-0.399066 -0.181942 9.915468
-0.315620 -0.143897 9.915468
-0.575929 -0.266029 9.915468
-0.047802 -0.022080 9.915468
-0.198687 -0.091776 9.915468
-0.210777 -0.097361 9.915468
-0.338726 -0.156462 9.915468
-0.409396 -0.189105 9.915468
-0.402547 -0.185942 9.915468
-0.007419 -0.003427 9.915468
-0.124713 -0.057607 9.915468
-0.812319 -0.375221 9.915468
-0.547398 -0.280000 9.915468
-0.369986 -0.189252 9.915468
-0.630621 -0.322569 9.915468
-0.819960 -0.419418 9.915468
-0.350854 -0.179466 9.915468
-0.383848 -0.196342 9.915468
-0.334014 -0.170852 9.915468
-0.404450 -0.206881 9.915468
-0.752807 -0.385069 9.915468
-0.481118 -0.246097 9.915468
-0.520020 -0.276489 9.915468
-0.320278 -0.170288 9.915468
-0.702815 -0.373679 9.915468
-0.480079 -0.255252 9.915468
-0.753055 -0.400391 9.915468
-0.704297 -0.374466 9.915468
-0.743216 -0.395159 9.915468
-0.346167 -0.184053 9.915468
-0.644175 -0.342501 9.915468
-0.207919 -0.110548 9.915468
-0.083442 -0.066362 9.915468
-0.534334 -0.424959 9.915468
-0.831577 -0.661359 9.915468
-0.918694 -0.730643 9.915468
-0.569366 -0.452821 9.915468
-0.306294 -0.243598 9.915468
-0.247604 -0.196921 9.915468
-0.520130 -0.413663 9.915468
-0.279238 -0.222080 9.915468
-0.367467 -0.292249 9.915468
-0.057958 -0.062591 9.915468
-0.502295 -0.542444 9.915468
-0.028141 -0.030391 9.915468
-0.782841 -0.845414 9.915468
-0.240531 -0.259756 9.915468
-0.264339 -0.285468 9.915468
-0.362348 -0.391310 9.915468
-0.025672 -0.027724 9.915468
-0.794691 -0.858211 9.915468
-0.223120 -0.240954 9.915468
-0.652643 -0.807155 9.915468
-0.676776 -0.837003 9.915468
-0.758239 -0.937751 9.915468
-0.202901 -0.250938 9.915468
-0.687751 -0.850576 9.915468
-0.545507 -0.674655 9.915468
-0.187169 -0.231482 9.915468
-0.066491 -0.082232 9.915468
-0.424001 -0.524383 9.915468
-0.333337 -0.412255 9.915468
-0.445658 -0.821429 9.915468
-0.390627 -0.719996 9.915468
-0.022203 -0.040925 9.915468
-0.373605 -0.688623 9.915468
-0.087000 -0.160357 9.915468
-0.476121 -0.877578 9.915468
-0.005142 -0.009478 9.915468
-0.349097 -0.643449 9.915468
-0.520126 -0.958687 9.915468
-0.316654 -0.583652 9.915468
-0.056078 -0.163902 9.915468
-0.087863 -0.256803 9.915468
-0.357689 -1.045442 9.915468
-0.138583 -0.405047 9.915468
-0.434816 -1.270865 9.915468
-0.073922 -0.216056 9.915468
-0.341408 -0.997854 9.915468
-0.169430 -0.495203 9.915468
-0.278104 -0.812833 9.915468
-0.212974 -0.622473 9.915468
-0.210007 -0.669652 9.915468
-0.004923 -0.015699 9.915468
-0.422116 -1.346008 9.915468
-0.061189 -0.195113 9.915468
-0.103894 -0.331287 9.915468
-0.223211 -0.711755 9.915468
-0.337957 -1.077649 9.915468
-0.214904 -0.685266 9.915468
-0.389865 -1.243169 9.915468
-0.026079 -0.083158 9.915468
-0.332417 -1.179802 9.915468
-0.275809 -0.978889 9.915468
-0.431138 -1.530179 9.915468
-0.168000 -0.596257 9.915468
-0.423422 -1.502794 9.915468
-0.334454 -1.187032 9.915468
-0.388539 -1.378986 9.915468
-0.138537 -0.491692 9.915468
-0.043269 -0.153567 9.915468
-0.385255 -1.367332 9.915468
-0.132977 -0.589252 9.915468
-0.296487 -1.313799 9.915468
-0.147640 -0.654226 9.915468
-0.080963 -0.358764 9.915468
-0.118953 -0.527106 9.915468
-0.120360 -0.533342 9.915468
-0.308399 -1.366586 9.915468
-0.138541 -0.613905 9.915468
-0.210909 -0.934586 9.915468
-0.297964 -1.320346 9.915468
-0.109130 -0.504236 9.915468
-0.231981 -1.071870 9.915468
-0.173736 -0.802750 9.915468
-0.155879 -0.720241 9.915468
-0.283433 -1.309604 9.915468
-0.191413 -0.884428 9.915468
-0.283125 -1.308183 9.915468
-0.295368 -1.364749 9.915468
-0.011367 -0.052521 9.915468
-0.061495 -0.284137 9.915468
-0.125382 -0.744344 9.915468
-0.129756 -0.770310 9.915468
-0.213465 -1.267257 9.915468
-0.215575 -1.279781 9.915468
-0.116654 -0.692528 9.915468
-0.021767 -0.129225 9.915468
-0.070421 -0.418059 9.915468
-0.000265 -0.001576 9.915468
-0.122742 -0.728672 9.915468
-0.254118 -1.508598 9.915468
-0.085031 -1.242352 9.915468
-0.105655 -1.543687 9.915468
-0.016669 -0.243550 9.915468
-0.053759 -0.785445 9.915468
-0.104602 -1.528304 9.915468
-0.025877 -0.378076 9.915468
-0.094384 -1.379004 9.915468
-0.100306 -1.465532 9.915468
-0.053478 -0.781343 9.915468
-0.103893 -1.517939 9.915468
-0.054151 -1.056589 9.915468
-0.001926 -0.037588 9.915468
-0.072593 -1.416445 9.915468
-0.019579 -0.382020 9.915468
-0.059029 -1.151767 9.915468
-0.018391 -0.358836 9.915468
-0.021765 -0.424677 9.915468
-0.032304 -0.630323 9.915468
-0.003528 -0.068833 9.915468
-0.021817 -0.425694 9.915468
-0.019393 -1.474234 9.915468
-0.023244 -1.766948 9.915468
-0.020171 -1.533354 9.915468
-0.002048 -0.155669 9.915468
-0.022694 -1.725102 9.915468
-0.007089 -0.538866 9.915468
-0.015363 -1.167851 9.915468
-0.005028 -0.382227 9.915468
-0.020988 -1.595444 9.915468
-0.018154 -1.380024 9.915468
0.032504 -0.348469 9.915468
0.040650 -0.435809 9.915468
0.060412 -0.647667 9.915468
0.122804 -1.316570 9.915468
0.018536 -0.198724 9.915468
0.155819 -1.670525 9.915468
0.087160 -0.934440 9.915468
0.157011 -1.683300 9.915468
0.116626 -1.250342 9.915468
0.081630 -0.875149 9.915468
0.041030 -0.215826 9.915468
0.047247 -0.248527 9.915468
0.070931 -0.373114 9.915468
0.289800 -1.524414 9.915468
0.000377 -0.001986 9.915468
0.183426 -0.964863 9.915468
0.022841 -0.120150 9.915468
0.196792 -1.035170 9.915468
0.271946 -1.430495 9.915468
0.171094 -0.899994 9.915468
0.221823 -0.883631 9.915468
0.100189 -0.399100 9.915468
0.131704 -0.524641 9.915468
0.336978 -1.342351 9.915468
0.103499 -0.412287 9.915468
0.089199 -0.355325 9.915468
0.171848 -0.684554 9.915468
0.314161 -1.251460 9.915468
0.016572 -0.066014 9.915468
0.312554 -1.245058 9.915468
0.271097 -0.884647 9.915468
0.468134 -1.527622 9.915468
0.392828 -1.281884 9.915468
0.467555 -1.525734 9.915468
0.284950 -0.929853 9.915468
0.320315 -1.045258 9.915468
0.346742 -1.131495 9.915468
0.161780 -0.527925 9.915468
0.331824 -1.082815 9.915468
0.091607 -0.298933 9.915468
0.237718 -0.582273 9.915468
0.466070 -1.141603 9.915468
0.347826 -0.851973 9.915468
0.397607 -0.973907 9.915468
0.492114 -1.205394 9.915468
0.508934 -1.246594 9.915468
0.430375 -1.054170 9.915468
0.615728 -1.508178 9.915468
0.172742 -0.423118 9.915468
0.412945 -1.011476 9.915468
0.662094 -1.527344 9.915468
0.405022 -0.934321 9.915468
0.152412 -0.351589 9.915468
0.139513 -0.321833 9.915468
0.436611 -1.007191 9.915468
0.424817 -0.979985 9.915468
0.066746 -0.153973 9.915468
0.086720 -0.200050 9.915468
0.243900 -0.562638 9.915468
0.538737 -1.242778 9.915468
0.192666 -0.426995 9.915468
0.034632 -0.076753 9.915468
0.355476 -0.787820 9.915468
0.070041 -0.155228 9.915468
0.201869 -0.447390 9.915468
0.537141 -1.190433 9.915468
0.477509 -1.058274 9.915468
0.502193 -1.112980 9.915468
0.339394 -0.752179 9.915468
0.490499 -1.087063 9.915468
0.684663 -1.440560 9.915468
0.057095 -0.120129 9.915468
0.098916 -0.208123 9.915468
0.647743 -1.362877 9.915468
0.554891 -1.167513 9.915468
0.458985 -0.965723 9.915468
0.173174 -0.364365 9.915468
0.231437 -0.486952 9.915468
0.571399 -1.202246 9.915468
0.029558 -0.062191 9.915468
0.045692 -0.083228 9.915468
0.661405 -1.204753 9.915468
0.478478 -0.871550 9.915468
0.245217 -0.446664 9.915468
0.636879 -1.160078 9.915468
0.771206 -1.404756 9.915468
0.383476 -0.698504 9.915468
0.889538 -1.620298 9.915468
0.570777 -1.039673 9.915468
0.643111 -1.171429 9.915468
0.233172 -0.352235 9.915468
0.138310 -0.208934 9.915468
0.825965 -1.247720 9.915468
0.396868 -0.599518 9.915468
0.850761 -1.285178 9.915468
0.719485 -1.086869 9.915468
0.765352 -1.156156 9.915468
0.293187 -0.442895 9.915468
0.502427 -0.758976 9.915468
1.010937 -1.527142 9.915468
0.242643 -0.332981 9.915468
0.076567 -0.105073 9.915468
0.219461 -0.301168 9.915468
0.265816 -0.364782 9.915468
1.082179 -1.485084 9.915468
0.962363 -1.320660 9.915468
0.683161 -0.937508 9.915468
0.891095 -1.222858 9.915468
1.050665 -1.441837 9.915468
0.139326 -0.191198 9.915468
0.235261 -0.311760 9.915468
0.577547 -0.765349 9.915468
0.341728 -0.452848 9.915468
0.364738 -0.483340 9.915468
0.684684 -0.907324 9.915468
0.501064 -0.663995 9.915468
0.907362 -1.202410 9.915468
0.211858 -0.280748 9.915468
0.487499 -0.646020 9.915468
0.040689 -0.053920 9.915468
0.529670 -0.655050 9.915468
0.214400 -0.265152 9.915468
1.133748 -1.402121 9.915468
0.599586 -0.741516 9.915468
0.733615 -0.907272 9.915468
0.059510 -0.073597 9.915468
0.803494 -0.993692 9.915468
0.474127 -0.586359 9.915468
0.709002 -0.876833 9.915468
0.032008 -0.039584 9.915468
0.046780 -0.055139 9.915468
0.054683 -0.064455 9.915468
0.625202 -0.736922 9.915468
1.247732 -1.470696 9.915468
0.909406 -1.071913 9.915468
0.553808 -0.652771 9.915468
0.922809 -1.087712 9.915468
1.230843 -1.450789 9.915468
0.665435 -0.784345 9.915468
0.765884 -0.902744 9.915468
0.563373 -0.558734 9.915468
1.351416 -1.340288 9.915468
0.276952 -0.274672 9.915468
0.542801 -0.538331 9.915468
0.555707 -0.551131 9.915468
0.563794 -0.559151 9.915468
0.814678 -0.807970 9.915468
0.720105 -0.714175 9.915468
1.096326 -1.087298 9.915468
0.773480 -0.767111 9.915468
0.488802 -0.416182 9.915468
0.211600 -0.180163 9.915468
1.021043 -0.869348 9.915468
0.602952 -0.513372 9.915468
1.077744 -0.917625 9.915468
0.782068 -0.665877 9.915468
0.063909 -0.054414 9.915468
0.252176 -0.214711 9.915468
0.778706 -0.663015 9.915468
0.483119 -0.411343 9.915468
0.532643 -0.359715 9.915468
1.349012 -0.911042 9.915468
1.086666 -0.733869 9.915468
0.839379 -0.566866 9.915468
0.291644 -0.196959 9.915468
0.740557 -0.500127 9.915468
0.069394 -0.046864 9.915468
0.787903 -0.532102 9.915468
0.499727 -0.337485 9.915468
1.344879 -0.908250 9.915468
0.419971 -0.228953 9.915468
0.506749 -0.276261 9.915468
0.714000 -0.389246 9.915468
0.531168 -0.289573 9.915468
1.401436 -0.764011 9.915468
0.116579 -0.063555 9.915468
0.011735 -0.006397 9.915468
1.408264 -0.767733 9.915468
1.196542 -0.652310 9.915468
0.436142 -0.237768 9.915468
1.030248 -0.451012 9.915468
0.038382 -0.016802 9.915468
1.164963 -0.509986 9.915468
1.301094 -0.569580 9.915468
1.078015 -0.471923 9.915468
0.722966 -0.316493 9.915468
0.195146 -0.085429 9.915468
0.337683 -0.147828 9.915468
1.330887 -0.582623 9.915468
1.375992 -0.602368 9.915468
1.115693 -0.278105 9.915468
1.270555 -0.316707 9.915468
0.327042 -0.081521 9.915468
1.412406 -0.352066 9.915468
0.107527 -0.026803 9.915468
0.108631 -0.027078 9.915468
0.422992 -0.105438 9.915468
1.155462 -0.288018 9.915468
0.014831 -0.003697 9.915468
