0.034637 3.569495 3.934090
0.035454 3.653672 4.408477
1.495418 3.742780 0.749515
1.474863 3.691332 1.212886
1.485522 3.718011 1.673343
1.461620 3.658188 1.462102
1.466059 3.669299 1.963200
1.487812 3.723743 2.562666
1.474746 3.691041 3.620304
1.423942 3.563887 4.019930
1.455344 3.642481 4.482562
2.984987 2.934347 0.894759
2.998113 2.947250 1.282353
2.961843 2.911595 1.977628
2.878161 2.829333 2.070197
2.967331 2.916991 3.169001
2.981828 2.931241 3.312932
2.961038 2.910804 3.457928
2.899599 2.850407 4.162041
2.904970 2.855687 5.089123
3.697376 1.605955 0.768403
3.646908 1.584034 1.231819
3.674029 1.595814 1.698556
3.686412 1.601193 2.160636
3.647568 1.584321 1.967400
3.678646 1.597819 2.568968
3.629660 1.576542 3.506655
3.526173 1.531593 4.058017
3.513111 1.525920 3.975481
3.437116 1.492911 4.226159
3.460568 0.072884 1.427497
3.353815 0.070636 1.707315
3.388208 0.071360 2.395957
3.440593 0.072463 2.867846
3.477611 0.073243 3.342099
3.524135 0.074223 3.816013
3.605924 0.075945 4.291327
3.186520 -1.070036 0.926923
3.090547 -1.037809 1.413519
3.121703 -1.048271 1.888167
3.186616 -1.070069 2.372555
3.229299 -1.084402 2.786807
3.098848 -1.040596 2.684360
3.023600 -1.015328 3.070654
3.063517 -1.028732 3.556570
2.529664 -2.205396 0.777896
2.357470 -2.055275 0.667502
2.273343 -1.981932 1.045745
2.274142 -1.982629 1.533480
2.299516 -2.004750 1.993255
2.306796 -2.011096 2.376125
2.330879 -2.032092 2.896828
2.240738 -1.953506 3.514390
2.221362 -1.936614 4.705263
2.158859 -1.882123 4.399538
1.341546 -2.606253 0.791802
1.351112 -2.624839 1.279711
1.363874 -2.649632 1.727605
1.349199 -2.621122 3.517991
1.296282 -2.518319 4.220834
0.327125 -3.050994 0.091820
0.311841 -2.908447 0.574105
0.313601 -2.924864 1.062182
0.316366 -2.950651 1.543241
0.328587 -3.064628 2.811633
0.337702 -3.149641 3.286149
0.308243 -2.874891 2.900950
0.286679 -2.673768 3.474073
-0.767173 -2.853453 0.744858
-0.765696 -2.847962 1.220394
-0.735669 -2.736278 2.612720
-0.682158 -2.537246 3.571480
-0.649536 -2.415909 3.576092
-1.900100 -2.409193 0.026234
-1.810679 -2.295814 0.521322
-1.835543 -2.327339 1.001805
-1.743558 -2.210709 2.440466
-1.641822 -2.081714 3.731696
-1.545242 -1.959258 3.351046
-1.565537 -1.984991 3.915337
-1.523900 -1.932199 4.417146
-2.662218 -1.525662 0.065586
-2.537375 -1.454117 0.547714
-2.573901 -1.475049 1.061085
-2.440928 -1.398845 3.085247
-2.240895 -1.284210 3.940934
-2.149884 -1.232054 3.408182
-2.176646 -1.247391 3.952828
-2.128833 -1.219990 4.376794
-3.039585 -0.508552 0.806559
-2.912735 -0.487328 1.299481
-2.967561 -0.496501 1.778423
-2.749132 -0.459956 2.873031
-2.535831 -0.424269 3.867315
-2.460180 -0.411612 3.344331
-2.487118 -0.416118 3.875096
-2.556297 -0.427693 4.711957
-2.851271 0.685814 0.831377
-2.714721 0.652970 2.195126
-2.526822 0.607775 2.766544
-2.596848 0.624618 3.858420
-2.441902 0.587349 3.643210
-2.436915 1.669574 0.718499
-2.476951 1.697004 2.017112
-2.453121 1.680677 1.635435
-2.383656 1.633086 3.089017
-2.233078 1.529922 4.228924
-2.108037 1.444254 4.082894
-1.990442 1.363687 4.571930
-1.723195 2.538828 0.065586
-1.642472 2.419896 0.554312
-1.665547 2.453893 1.041326
-1.680109 2.475348 1.528488
-1.684971 2.482511 1.990805
-1.722892 2.538381 4.261034
-1.563782 2.303961 3.935763
-1.587752 2.339276 4.611807
-0.652313 3.294049 0.836215
-0.602425 3.042124 0.615802
-0.581532 2.936621 1.106043
-0.586822 2.963333 1.592629
-0.593364 2.996367 2.039195
-0.595382 3.006558 2.422046
-0.600764 3.033739 4.398697
-0.589063 2.974651 5.243317
0.570438 3.333206 0.796498
0.548639 3.205831 1.276864
0.553805 3.236017 1.758193
0.560609 3.275771 2.238806
0.568549 3.322167 2.692605
0.549597 3.211429 2.586779
0.536078 3.132432 2.979274
0.534374 3.122477 4.662271
1.796815 3.014423 0.869571
1.808261 3.033624 1.345799
1.777508 2.982032 1.925935
1.730597 2.903331 2.305343
1.756890 2.947442 2.783889
1.754600 2.943599 2.954862
1.798474 3.017206 3.738784
1.839564 3.086140 4.214363
2.776086 2.186127 1.377959
2.801308 2.205989 1.847173
2.739084 2.156989 2.099995
2.716504 2.139207 2.793876
2.687890 2.116674 2.909631
2.760412 2.173784 3.745221
2.753246 2.168141 3.687275
3.275264 0.841609 0.796498
3.150441 0.809535 1.283372
3.179765 0.817070 1.758193
3.218237 0.826956 2.232317
3.187908 0.819162 1.868675
3.288818 0.845092 2.906208
3.099984 0.796569 4.150100
2.893656 0.743551 4.909435
3.352490 -0.338954 0.246114
3.216923 -0.325248 0.847125
3.099521 -0.313378 1.028319
2.972046 -0.300489 1.456107
2.834791 -0.286612 2.270065
2.651431 -0.268073 2.442117
2.643488 -0.267270 2.834330
2.751484 -0.278189 3.816268
2.770908 -0.280153 3.779221
2.730394 -0.276057 4.297792
2.421687 -1.272243 1.811953
2.249612 -1.181843 1.893805
2.362598 -1.241201 3.137477
2.331517 -1.224872 2.850562
2.395061 -1.258255 3.587290
2.300609 -1.208634 3.719176
1.623388 -1.941571 0.784774
1.615467 -1.932097 1.571938
1.601287 -1.915138 1.175946
1.571184 -1.879135 2.002415
1.589353 -1.900864 2.325149
1.574212 -1.882756 2.592306
1.569288 -1.876867 3.172843
1.614221 -1.930607 3.676759
0.792839 -2.269130 1.322275
0.781365 -2.236291 2.233322
0.781970 -2.238023 2.253569
0.775193 -2.218628 2.303122
0.768622 -2.199819 2.837940
0.782211 -2.238711 3.367902
-0.112771 -2.617806 0.307334
-0.103659 -2.406264 1.409885
-0.098461 -2.285612 0.982378
-0.097599 -2.265595 1.567550
-0.098846 -2.294543 1.973939
-0.099883 -2.318616 2.517476
-0.100401 -2.330639 3.070725
-0.099025 -2.298707 3.584542
-0.907212 -2.067470 0.847786
-0.917327 -2.090521 1.403460
-0.896848 -2.043851 1.781147
-0.916382 -2.088367 2.364259
-0.937584 -2.136685 2.864978
-0.908385 -2.070143 3.479688
-0.888604 -2.025062 3.993613
-0.864211 -1.969472 4.528936
-1.642410 -1.522735 1.031849
-1.608055 -1.490883 1.572272
-1.628184 -1.509546 1.959516
-1.665889 -1.544502 2.529302
-1.639767 -1.520284 3.103378
-1.562038 -1.448219 4.956298
-2.149267 -0.874439 0.317859
-2.020404 -0.822011 0.802740
-2.018321 -0.821163 1.334296
-2.042076 -0.830828 1.748962
-2.082330 -0.847206 2.285253
-2.132564 -0.867644 2.813716
-2.368792 -0.002274 0.155238
-2.202388 -0.002114 0.672845
-2.195112 -0.002107 1.156275
-2.273409 -0.002183 1.655640
-2.310121 -0.002218 2.136353
-2.282983 -0.002192 2.637691
-2.354311 -0.002260 3.239633
-2.270295 -0.002180 3.720488
-2.084489 -0.002001 4.147127
-1.947631 -0.001870 5.063870
-2.032384 0.819711 1.074708
-2.039401 0.822541 1.667423
-2.071512 0.835492 2.122430
-2.115268 0.853140 2.617372
-2.176911 0.878003 3.185598
-2.092489 0.843953 3.625594
-1.910519 0.770560 3.996861
-1.731043 0.698173 4.502288
-1.729206 1.583104 0.236468
-1.625418 1.488084 0.720407
-1.703469 1.559541 2.129588
-1.681969 1.539858 1.757257
-1.670203 1.529086 2.188092
-1.707043 1.562814 2.695937
-1.751156 1.603199 3.388147
-1.811996 1.658899 4.099291
-0.968385 2.015352 0.936857
-1.036940 2.158026 1.939043
-1.125253 2.341817 2.759858
-1.053508 2.192506 2.376975
-1.011250 2.104560 2.878496
-1.032714 2.149231 3.462358
-1.080909 2.249532 4.327776
-1.083146 2.254188 5.148447
-0.199482 2.472819 0.786369
-0.199968 2.478845 1.466072
-0.202707 2.512800 1.956102
-0.205493 2.547343 2.351597
-0.211418 2.620786 3.584837
-0.197421 2.447280 3.240113
-0.196956 2.441514 3.734943
0.906894 2.566907 1.191825
0.865814 2.450631 2.279975
0.897855 2.541322 2.728693
0.904706 2.560713 3.111149
0.876823 2.481793 2.837207
0.894708 2.532416 3.951729
0.855084 2.420263 3.840536
0.867455 2.455277 4.904002
1.904165 2.301277 0.948125
1.893250 2.288085 2.924963
1.745779 2.109859 2.885543
1.739295 2.102023 3.393884
1.789059 2.162165 4.068423
2.843058 1.607666 1.511101
2.884099 1.630874 2.128469
2.923240 1.653007 2.582481
2.902726 1.641407 2.355582
2.828244 1.599289 3.987643
3.483069 0.396255 0.760110
3.514548 0.399836 1.804116
3.572802 0.406463 2.452855
3.482114 0.396146 2.540515
3.492591 0.397338 3.422299
3.489821 0.397023 3.574019
3.418087 0.388862 3.598161
3.342840 0.380301 4.215176
3.195416 0.363530 5.026108
3.177637 -0.836655 0.916849
3.151584 -0.829795 1.393999
3.183484 -0.838194 1.875172
3.224148 -0.848901 2.349096
3.273926 -0.862007 2.822088
3.237534 -0.852425 2.485266
3.184373 -0.838428 3.090416
3.084744 -0.812196 4.644444
2.400272 -1.826627 1.052318
2.391257 -1.819767 1.329677
2.402756 -1.828517 1.916465
2.456711 -1.869578 2.393329
2.423370 -1.844205 3.981215
1.601840 -2.617288 0.111496
1.527293 -2.495483 0.600495
1.536035 -2.509767 1.081962
1.549779 -2.532223 1.562999
1.567650 -2.561424 2.023689
1.595450 -2.606847 4.195431
1.467293 -2.397447 4.094941
1.516229 -2.477406 5.002031
0.546518 -3.019395 0.085262
0.520960 -2.878193 0.567507
0.523877 -2.894310 1.055589
0.501116 -2.768559 2.420582
0.468666 -2.589280 3.040518
0.485060 -2.679854 3.537093
0.509593 -2.815394 4.914513
0.470799 -2.601065 4.972540
-0.643849 -2.837345 0.885053
-0.604456 -2.663744 1.364770
-0.562229 -2.477657 1.887103
-0.568461 -2.505122 2.485530
-0.585979 -2.582319 2.970716
-0.577609 -2.545432 3.267366
-0.562800 -2.480171 3.851102
-1.663158 -2.425632 1.048996
-1.578906 -2.302755 1.075400
-1.428986 -2.084105 1.699379
-1.373632 -2.003373 1.733206
-1.361730 -1.986015 2.107558
-1.318733 -1.923306 2.625651
-1.353000 -1.973282 3.145509
-1.408546 -2.054294 3.673738
-2.294240 -1.603810 0.537279
-2.184355 -1.526994 1.034243
-2.181097 -1.524717 1.449004
-2.003493 -1.400561 1.590178
-1.867321 -1.305368 2.057221
-1.908947 -1.334468 2.598612
-1.959543 -1.369837 3.132023
-1.987150 -1.389136 3.566673
-2.038287 -1.424884 4.128781
-2.074230 -1.450010 5.289342
-2.617440 -0.614822 1.855633
-2.225093 -0.522662 1.450867
-2.329963 -0.547295 2.728292
-2.297898 -0.539763 2.411171
-2.310455 -0.542713 2.990362
-2.343559 -0.550489 3.445415
-2.402677 -0.564375 4.014546
-2.326111 -0.546390 4.443859
-2.368893 0.328554 1.072837
-2.466956 0.342155 1.526522
-2.501929 0.347005 2.788367
-2.334826 0.323829 2.377411
-2.337368 0.324181 2.875612
-2.375303 0.329443 3.378014
-2.432852 0.337425 3.940582
-2.438020 0.338142 4.695202
-2.227592 1.260441 0.891143
-2.123091 1.201311 1.874568
-2.131358 1.205989 1.995688
-2.185484 1.236615 2.878439
-2.074016 1.173543 2.859237
-2.113488 1.195878 3.415033
-2.147136 1.214917 3.849268
-2.190414 1.239405 4.977302
-1.880648 2.425215 0.177081
-1.793953 2.313417 0.666468
-1.837271 2.369279 1.964495
-1.849332 2.384832 2.453347
-1.757583 2.266515 2.917149
-1.594889 2.056711 2.569941
-1.617621 2.086026 3.107284
-1.708282 2.202939 4.536873
-0.883544 2.939359 0.216432
-0.842994 2.804458 0.699452
-0.848852 2.823946 1.213803
-0.833234 2.771990 3.128658
-0.807860 2.687574 4.068423
-0.786214 2.615565 3.590306
0.243273 3.084886 0.235861
0.232245 2.945039 0.725089
0.233384 2.959485 1.107188
0.234059 2.968041 1.688107
0.236263 2.995989 2.049993
0.232519 2.948516 3.583892
0.221592 2.809956 4.141336
0.214516 2.720224 4.492839
1.500037 2.896607 0.943834
1.499374 2.895328 1.420025
1.514785 2.925087 1.901162
1.534359 2.962885 2.375039
1.556846 3.006307 2.822088
1.487814 2.873005 2.609014
1.456867 2.813245 3.099964
1.473378 2.845128 3.540688
1.481098 2.860037 4.800955
1.395106 2.693983 5.009587
2.492907 2.183562 1.475483
2.483827 2.175609 1.671931
2.489343 2.180441 2.083022
2.569459 2.250615 2.864389
2.601806 2.278948 3.200211
2.651574 2.322540 3.816013
2.612653 2.288449 3.481068
3.692151 1.271402 0.734579
3.689566 1.270512 1.254800
3.734024 1.285821 1.937928
3.612135 1.243848 2.435873
3.514455 1.210212 3.243298
3.595393 1.238083 3.810260
3.672580 1.264662 4.279972
4.051607 -0.123857 0.685807
3.920075 -0.119836 1.152249
3.937999 -0.120384 0.999328
4.009748 -0.122577 2.078732
4.028090 -0.123138 2.515841
4.081911 -0.124783 2.968665
4.146475 -0.126757 3.432874
4.134455 -0.126389 3.351419
4.049515 -0.123793 4.080290
3.620113 -1.546544 1.417852
3.607452 -1.541135 1.171226
3.617821 -1.545565 1.748313
3.548448 -1.515929 2.778687
3.446046 -1.472182 4.226159
3.392445 -1.449283 4.720177
3.306557 -1.412590 5.127424
2.682305 -2.624509 0.662864
2.579597 -2.524014 0.859479
2.474831 -2.421505 1.809837
2.371572 -2.320472 2.180398
2.412798 -2.360809 2.737933
2.444058 -2.391396 3.093726
2.510653 -2.456555 3.738784
2.568013 -2.512680 4.214363
1.216689 -3.043233 1.680183
1.231077 -3.079222 2.160926
1.248265 -3.122213 2.621354
1.269384 -3.175037 3.093726
1.226716 -3.068314 2.983321
1.199392 -2.999968 3.377095
0.078404 -3.134073 0.896454
0.075712 -3.026463 1.282315
0.080449 -3.215821 2.433092
0.079895 -3.193694 2.204851
0.078005 -3.118129 2.694593
0.078526 -3.138946 3.077018
0.079582 -3.181179 3.563933
-1.050290 -2.771753 1.001805
-1.061273 -2.800736 1.581121
-1.082945 -2.857931 2.058882
-1.099403 -2.901363 2.544011
-1.105932 -2.918593 2.926560
-1.153918 -3.045230 5.214981
-1.932042 -2.210314 0.917114
-1.947463 -2.227955 1.404909
-1.968344 -2.251844 1.872392
-1.996020 -2.283507 2.352311
-2.030487 -2.322938 2.837851
-2.048124 -2.343115 4.503487
-2.751214 -1.358628 0.065586
-2.622333 -1.294982 0.554312
-2.636525 -1.301991 1.035809
-2.687814 -1.327319 1.620590
-2.733416 -1.349838 1.967000
-2.772800 -1.369288 2.445751
-2.798471 -1.381965 2.926560
-2.822984 -1.394070 4.693198
-3.084854 -0.248009 0.268618
-2.970596 -0.238823 0.757253
-2.990727 -0.240441 1.244182
-2.988486 -0.240261 1.627168
-2.997304 -0.240970 2.069720
-3.043829 -0.244711 2.555841
-3.083901 -0.247932 4.405249
-2.855995 -0.229610 5.058453
-2.969635 0.868784 0.196552
-2.834229 0.829171 0.685550
-2.876194 0.841448 1.171828
-2.896879 0.847499 1.553197
-2.937093 0.859264 2.104811
-2.981882 0.872367 2.583303
-3.000166 0.877717 2.965821
-3.002343 0.878353 4.588565
-2.299125 1.908404 0.974447
-2.454983 2.037775 2.159178
-2.462420 2.043948 1.980874
-2.392615 1.986007 2.364664
-2.413393 2.003254 2.845068
-2.431262 2.018086 3.227356
-2.470032 2.050267 3.746599
-1.606230 2.857382 1.686685
-1.625287 2.891283 2.167417
-1.645599 2.927417 2.582481
-1.673505 2.977061 3.061409
-1.705669 3.034279 3.532645
-1.688792 3.004256 3.293963
-0.477504 3.692322 0.472189
-0.462075 3.573012 0.667117
-0.443639 3.430458 1.764676
-0.425245 3.288225 2.154435
-0.432281 3.342630 2.692605
-0.435818 3.369981 2.925615
-0.446435 3.452079 3.532645
-0.456195 3.527549 4.008906
-0.449208 3.473520 3.674395
0.935841 3.933620 -0.069220
0.901620 3.789777 0.323005
0.904223 3.800718 0.791551
0.904820 3.803230 1.381405
0.914162 3.842494 1.944246
0.897044 3.770545 2.918184
0.832548 3.499450 3.103148
0.859943 3.614598 3.896609
0.879245 3.695729 4.368061
2.299462 3.194754 1.411530
2.318560 3.221288 1.872721
2.343390 3.255785 2.339471
2.370612 3.293606 2.761252
2.353818 3.270274 2.509544
2.385843 3.314768 3.160412
2.305111 3.202603 3.430842
2.234359 3.104303 3.943723
2.267046 3.149717 4.530078
3.451019 2.166379 0.540539
3.345563 2.100178 0.562425
3.379392 2.121415 1.471570
3.425587 2.150414 2.164601
3.421461 2.147824 2.603971
3.469236 2.177814 3.062865
3.458103 2.170826 2.962383
3.421986 2.148153 4.017370
3.275031 2.055902 4.041042
3.280901 2.059587 4.360592
3.905401 0.835444 0.145045
3.788546 0.810446 0.526213
3.807150 0.814426 1.077491
3.801872 0.813297 1.439911
3.720732 0.795939 2.527499
3.604719 0.771122 3.013404
3.518923 0.752768 3.298947
3.491737 0.746952 3.940512
3.533824 0.755956 4.329792
3.328075 -0.570477 0.628177
3.198862 -0.548328 1.140167
3.249265 -0.556968 1.933645
3.291856 -0.564268 2.407464
3.327124 -0.570314 2.737933
3.386343 -0.580465 3.216479
3.454077 -0.592075 3.687275
3.422313 -0.586630 3.474619
2.839058 -1.841820 0.867699
2.732165 -1.772474 1.354958
2.758759 -1.789727 1.829686
2.667396 -1.730455 1.713327
2.614445 -1.696104 2.172464
2.624350 -1.702530 2.547920
2.650081 -1.719223 3.028104
2.752469 -1.785647 5.209643
1.734326 -2.438989 1.086305
1.731803 -2.435442 1.475848
1.735321 -2.440389 1.918447
1.760982 -2.476477 2.411418
1.823807 -2.564828 4.686661
1.667482 -2.344987 4.472275
0.784429 -2.966415 0.059028
0.747610 -2.827179 0.541116
0.758046 -2.866645 1.028152
0.764502 -2.891059 1.508749
0.767172 -2.901155 1.997382
0.783998 -2.964786 4.254475
-0.400824 -3.042449 0.144289
-0.382236 -2.901357 0.626885
-0.387793 -2.943541 1.113773
-0.391543 -2.972005 1.620590
-0.376964 -2.861347 3.062586
-0.354274 -2.689118 3.633886
-0.375116 -2.847317 4.967422
-0.335012 -2.542906 4.835273
-1.433720 -2.543255 0.244178
-1.438858 -2.552369 0.752225
-1.474740 -2.616020 2.023689
-1.494544 -2.651150 2.457380
-1.365299 -2.421884 3.022034
-1.217342 -2.159424 3.593126
-2.184269 -1.793037 0.609601
-2.185482 -1.794032 0.669222
-2.276948 -1.869116 1.154479
-2.167973 -1.779660 3.214416
-1.900918 -1.560437 3.075532
-1.914522 -1.571605 3.579686
-2.712895 -0.923168 3.644869
-2.352006 -0.800362 3.270449
-2.378321 -0.809316 3.814716
-2.429669 -0.826789 4.439691
-2.951223 0.151602 1.729390
-2.990988 0.153644 2.216627
-2.733925 0.140439 1.838549
-2.528686 0.129896 2.842013
-2.492003 0.128012 3.351046
-2.484760 0.127640 3.297319
-2.516260 0.129258 3.861680
-2.572842 0.132165 4.493245
-2.649171 1.255686 0.804994
-2.717194 1.287928 2.069720
-2.667387 1.264320 1.683260
-2.495761 1.182971 2.137600
-2.317345 1.098403 3.110033
-2.337020 1.107729 3.277360
-2.520152 1.194532 4.543508
-2.019755 2.120959 0.712646
-2.032844 2.134703 1.194029
-2.051910 2.154725 1.661772
-1.990864 2.090620 3.069194
-1.871173 1.964932 3.640542
-1.938844 2.035994 4.793597
-1.808754 1.899385 5.241593
-1.008383 2.779649 0.810751
-1.013786 2.794545 1.192796
-1.014392 2.796214 1.648604
-1.035906 2.855518 2.133259
-1.038156 2.861720 3.974650
0.049125 3.267838 1.543623
0.049658 3.303287 2.018085
0.050252 3.342795 2.439885
0.048047 3.196144 2.224422
0.046917 3.120964 2.714226
0.047801 3.179743 3.191381
0.048026 3.194726 5.399557
1.292960 3.116537 0.524579
1.242755 2.995525 1.088082
1.255919 3.027254 1.680183
1.273063 3.068579 2.225828
1.294415 3.120045 2.757357
1.317251 3.175089 3.229395
1.344070 3.239735 3.706593
1.328396 3.201952 3.435924
1.312866 3.164519 3.984653
1.224178 2.950747 4.400262
2.406870 2.570259 0.373267
2.404110 2.567311 1.062690
2.435832 2.601186 1.821480
2.463806 2.631060 2.290007
2.443591 2.609473 1.962764
2.477606 2.645796 2.715701
2.476086 2.644173 3.465627
2.430525 2.595519 3.850581
2.454990 2.621646 4.207947
2.441983 2.607756 5.139169
2.968575 1.366670 1.086944
2.997452 1.379965 1.972621
3.028499 1.394258 2.349096
3.081613 1.418711 2.880329
3.137966 1.444654 3.352052
3.143818 1.447348 3.397219
3.033289 1.396463 3.600216
2.842051 1.308421 4.317749
2.672347 1.230293 4.808976
3.215073 0.149208 0.104283
3.202246 0.148613 0.769762
3.249641 0.150812 1.289880
3.329807 0.154533 2.342610
3.162426 0.146765 3.787004
2.794506 0.129690 3.695815
2.941409 0.136507 4.822162
2.970367 0.137851 5.325135
2.679529 -0.890835 2.265768
2.479898 -0.824466 2.670203
2.613522 -0.868890 3.743197
2.586154 -0.859792 3.550398
2.478712 -0.824071 3.806079
2.503724 -0.832387 4.820781
1.864277 -1.658317 1.149087
1.913467 -1.702073 2.134995
1.914778 -1.703239 2.155086
1.917437 -1.705604 2.195262
1.936416 -1.722486 3.317496
1.832510 -1.630060 3.219935
1.832451 -1.630007 3.755124
1.157003 -2.235357 1.080836
1.139426 -2.201398 0.719178
1.139310 -2.201173 1.318268
1.159795 -2.240751 1.982933
1.175923 -2.271912 2.378390
1.157614 -2.236536 2.721291
1.113175 -2.150680 3.176032
1.115510 -2.155191 3.752153
0.223880 -2.320451 1.767248
0.219503 -2.275089 1.450867
0.217412 -2.253411 1.874267
0.218166 -2.261231 2.269414
0.222000 -2.300967 2.894911
0.228095 -2.364141 3.394895
0.242511 -2.513562 4.205151
0.228868 -2.372156 4.264164
-0.572883 -2.141124 1.073632
-0.572794 -2.140793 1.543535
-0.575142 -2.149567 2.020619
-0.586813 -2.193188 2.515750
-0.602311 -2.251112 3.050447
-0.587880 -2.197174 5.040428
-1.343577 -1.782135 0.821492
-1.329012 -1.762815 1.400899
-1.362236 -1.806884 1.860711
-1.374073 -1.822586 2.384579
-1.391136 -1.845217 2.888146
-1.362068 -1.806662 3.493245
-1.306156 -1.732500 4.350022
-1.253309 -1.662402 4.569635
-2.017397 -1.192545 0.101345
-1.850963 -1.094160 0.585682
-1.867879 -1.104160 1.150630
-1.892240 -1.118560 1.653831
-1.923324 -1.136935 2.129216
-1.964056 -1.161013 2.624145
-1.934528 -1.143558 3.191571
-1.738435 -1.027642 4.644717
-2.283781 -0.400155 0.114973
-2.119751 -0.371414 0.660578
-2.138517 -0.374702 1.177844
-2.169212 -0.380080 1.714990
-2.204172 -0.386206 2.169930
-2.256630 -0.395398 2.712180
-2.199532 -0.385393 3.276207
-2.119506 -0.371371 3.773044
-2.292609 0.486575 0.135126
-2.153698 0.457093 0.645666
-2.148533 0.455997 1.183462
-2.179129 0.462491 1.720061
-2.211629 0.469388 2.147422
-2.261809 0.480038 2.675643
-2.185260 0.463792 3.282994
-2.101899 0.446100 3.752617
-1.857721 1.205753 1.032885
-2.002237 1.299551 1.844635
-2.013729 1.307010 2.019942
-1.942119 1.260532 2.463370
-1.974787 1.281736 3.040640
-1.811367 1.175668 4.436018
-1.287740 1.946188 0.872267
-1.230545 1.859747 1.351987
-1.247288 1.885052 1.826818
-1.274338 1.925933 2.402487
-1.285002 1.942050 2.824420
-1.328580 2.007909 3.624166
-1.257292 1.900171 3.774689
-1.311745 1.982466 5.167288
-0.553007 2.432422 0.241751
-0.544396 2.394547 0.780441
-0.547676 2.408973 1.156974
-0.559113 2.459277 1.969518
-0.559629 2.461547 2.774953
-0.523774 2.303840 2.677032
-0.522476 2.298131 3.060899
-0.536192 2.358459 3.698276
0.378985 2.487655 1.538394
0.384415 2.523296 2.034523
0.381957 2.507161 1.826774
0.385482 2.530304 2.391785
0.393504 2.582961 2.886870
0.385243 2.528736 3.253881
0.379470 2.490838 3.861680
0.372298 2.443761 4.616613
1.560757 2.570095 1.752123
1.424017 2.344925 1.564237
1.336931 2.201521 2.012381
1.363110 2.244630 2.553977
1.397252 2.300852 3.120973
1.395731 2.298347 3.290768
1.446191 2.381439 4.099094
1.440910 2.372743 4.333287
2.680785 2.098365 0.724526
2.558473 2.002626 1.211775
2.581555 2.020693 1.693186
2.471122 1.934253 1.466691
2.398910 1.877729 1.940743
2.433088 1.904481 2.419542
2.486191 1.946048 3.015036
2.363618 1.850105 3.362560
2.304108 1.803523 4.320194
3.378049 0.866078 0.947828
3.448461 0.884131 2.080508
3.426398 0.878474 1.804116
3.445919 0.883479 2.990800
3.388320 0.868712 3.477426
3.436024 0.880942 3.951066
3.223232 0.826386 3.847946
3.246046 -0.346523 1.485081
3.289430 -0.351155 2.070036
3.333034 -0.355809 2.524157
3.412342 -0.364276 2.993623
3.476264 -0.371100 3.464543
3.436845 -0.366892 3.364958
3.366896 -0.359424 3.738923
3.205705 -0.342217 4.556747
2.996397 -0.319873 5.034401
2.685451 -1.372145 1.039172
2.702428 -1.380819 1.413690
2.707263 -1.383290 1.861957
2.745086 -1.402616 2.347451
2.758706 -1.409575 2.730137
2.726743 -1.393243 4.228237
2.428779 -1.240997 4.754907
1.985552 -2.199298 0.975456
1.985049 -2.198741 1.457613
2.005597 -2.221501 1.898710
2.009849 -2.226210 3.853803
1.958403 -2.169226 4.710040
1.955019 -2.165478 4.813854
0.964606 -2.912978 0.104938
0.919724 -2.777438 0.600495
0.924988 -2.793337 1.081962
0.918774 -2.774572 3.339928
0.835759 -2.523877 3.057449
0.853300 -2.576847 4.124864
-0.128145 -3.059443 0.951740
-0.123179 -2.940881 1.558021
-0.115178 -2.749868 2.024661
-0.109093 -2.604594 2.610051
-0.112193 -2.678600 3.230800
-0.108431 -2.588771 3.494841
-0.106658 -2.546446 4.042697
-0.104898 -2.504422 4.797960
-1.190265 -2.715493 1.021566
-1.081901 -2.468269 2.230757
-0.976293 -2.227332 2.846763
-0.955000 -2.178756 2.593399
-0.961197 -2.192893 3.158995
-0.977682 -2.230502 3.640733
-1.997602 -1.998435 0.596352
-1.901232 -1.902025 1.013201
-1.743101 -1.743828 1.049417
-1.689609 -1.690314 2.455958
-1.665133 -1.665828 2.078044
-1.667719 -1.668414 2.643275
-1.689645 -1.690350 3.125280
-1.732242 -1.732964 3.569827
-2.132490 -0.865912 2.034855
-2.148989 -0.872612 2.503950
-2.209713 -0.897269 3.084814
-2.245520 -0.911809 3.559939
-2.319820 -0.941979 4.077668
-2.357335 -0.957212 5.111408
-2.313778 -0.046420 1.510292
-2.401837 -0.048187 2.577312
-2.348750 -0.047122 2.003751
-2.345854 -0.047064 2.521706
-2.384457 -0.047838 3.084814
-2.426016 -0.048672 3.580141
-2.507733 -0.050312 4.104516
-2.582047 -0.051802 5.292209
-2.585497 0.931045 1.203897
-2.307687 0.831005 2.042777
-2.321330 0.835918 2.210890
-2.436008 0.877214 3.481463
-2.268015 0.816719 3.088458
-2.320229 0.835521 3.677427
-2.223810 2.101413 0.886134
-1.990382 1.880833 1.484462
-1.835047 1.734048 2.003054
-1.870558 1.767604 2.532390
-1.906803 1.801854 3.544763
-1.821027 1.720799 3.424894
-1.844499 1.742979 3.975679
-1.847214 1.745544 5.098004
-1.291825 2.665389 0.949106
-1.328986 2.742064 2.238311
-1.303988 2.690485 1.859232
-1.265797 2.611686 3.188102
-1.147643 2.367902 2.830530
-1.167922 2.409744 3.394110
-1.232311 2.542596 4.181090
-1.256121 2.591722 5.007088
-0.189893 3.062858 0.144289
-0.181097 2.920990 0.633482
-0.182193 2.938665 1.121518
-0.183980 2.967488 1.628851
-0.179591 2.896703 3.188102
-0.173452 2.797674 4.048532
-0.182536 2.944197 4.848528
-0.176991 2.854764 5.156210
0.895268 2.962062 0.229310
0.854643 2.827652 0.718499
0.916827 3.033391 1.904574
0.912016 3.017473 1.682435
0.886211 2.932096 2.137613
0.900523 2.979448 2.635682
0.907266 3.001758 4.356996
0.839920 2.778940 4.741235
2.126672 2.631255 0.841809
2.050033 2.536432 1.433037
2.066156 2.556381 1.810189
2.091775 2.588078 2.284226
2.121439 2.624780 2.731458
2.159125 2.671408 3.210020
2.202873 2.725536 3.687275
2.201611 2.723975 3.674395
3.509005 1.961232 0.270874
3.384533 1.891663 0.646643
3.401950 1.901398 1.159821
3.312274 1.851276 2.175230
3.176861 1.775592 2.623209
3.226504 1.803339 3.090069
3.195611 1.786072 2.808809
3.229212 1.804852 3.297830
3.336376 1.864748 4.620690
3.219458 1.799400 4.587517
4.080103 0.573964 0.301061
3.945379 0.555012 0.858396
4.079983 0.573947 1.545175
4.041701 0.568562 1.327033
3.954909 0.556353 1.870705
4.022161 0.565813 2.576019
4.016980 0.565084 2.748674
4.088142 0.575095 3.467920
3.996645 0.562224 3.992193
3.977608 0.559546 4.824847
3.908355 0.549804 5.322938
3.797990 -1.056539 1.506347
3.831303 -1.065806 1.967400
3.870914 -1.076825 2.402476
3.856834 -1.072908 2.257538
3.789979 -1.054310 3.348670
3.669518 -1.020800 3.848406
3.671465 -1.021342 4.431639
3.622598 -1.007748 4.818643
3.555059 -0.988959 5.321425
3.169527 -2.322425 0.714817
3.003714 -2.200928 1.194072
2.974137 -2.179256 1.433114
2.886791 -2.115254 2.753542
2.791003 -2.045067 3.390768
2.872678 -2.104914 4.034605
2.941228 -2.155142 4.502740
1.739442 -2.775612 1.654176
1.759437 -2.807518 2.128469
1.782942 -2.845024 2.576001
1.813114 -2.893170 3.054945
1.847902 -2.948680 3.526199
1.785806 -2.849595 3.417912
1.749995 -2.792452 3.806468
0.638741 -3.174680 0.977384
0.643590 -3.198782 1.459060
0.650251 -3.231890 1.933645
0.658904 -3.274898 2.413949
0.668386 -3.322026 2.847975
0.638731 -3.174632 2.635064
0.625731 -3.110018 3.132618
0.631216 -3.137279 3.514599
-0.547261 -2.944442 1.132358
-0.552253 -2.971303 1.612343
-0.558577 -3.005324 2.065443
-0.566961 -3.050434 2.544011
-0.570328 -3.068549 2.926560
-0.580789 -3.124832 4.843450
-1.617700 -2.487767 1.080844
-1.628666 -2.504631 1.462687
-1.631561 -2.509083 1.898710
-1.654771 -2.544777 2.378582
-1.683610 -2.589126 2.864065
-1.685283 -2.591698 4.392145
-2.589099 -1.939507 0.892719
-2.387376 -1.788395 1.383712
-2.411633 -1.806566 1.837592
-2.424816 -1.816441 2.319467
-2.466201 -1.847443 2.805079
-2.494671 -1.868770 4.529671
-2.862579 -0.766906 0.988631
-2.905073 -0.778290 1.375706
-2.910603 -0.779772 1.837592
-2.927125 -0.784198 2.326036
-2.976461 -0.797416 2.805079
-2.984989 -0.799700 4.385593
-2.950113 0.432655 0.803330
-2.971015 0.435721 1.290220
-2.966837 0.435108 1.633746
-2.979103 0.436907 2.115743
-3.026201 0.443814 2.601774
-3.154863 0.462683 4.637918
-2.852779 0.418381 5.144403
-2.929621 1.684107 0.718816
-2.686131 1.544136 0.491351
-2.590686 1.489269 0.981028
-2.612108 1.501584 1.467749
-2.641580 1.518525 1.947307
-2.657757 1.527825 2.428606
-2.693667 1.548468 2.808729
-2.780184 1.598203 4.858057
-2.166511 2.627597 0.763327
-2.067989 2.508107 1.244321
-2.086756 2.530867 1.719190
-2.111913 2.561378 2.199869
-2.141846 2.597682 2.660221
-2.178528 2.642171 3.132499
-2.221184 2.693905 3.603536
-2.121266 2.572722 3.395530
-2.090810 2.535784 3.907932
-2.122213 2.573871 5.109349
-0.951318 3.133963 1.647674
-0.962386 3.170424 2.128469
-0.974836 3.211437 2.563041
-0.991264 3.265557 3.042016
-1.010217 3.327996 3.513305
-1.031892 3.399400 3.983202
-1.019090 3.357225 3.713032
0.321662 3.603728 2.424628
0.300586 3.367601 2.560360
0.303110 3.395887 3.016155
0.316320 3.543879 3.863431
0.325758 3.649619 4.327130
1.689717 3.560365 1.487386
1.704609 3.591744 1.954778
1.693913 3.569205 1.632730
1.703156 3.588683 2.196855
1.733192 3.651971 2.839755
1.714568 3.612728 3.771700
1.664882 3.508037 4.273636
1.642681 3.461256 3.981832
1.579205 3.327508 4.429427
3.175433 2.901578 0.609934
3.110906 2.842616 0.974990
3.112811 2.844357 1.488511
3.119708 2.850659 1.625884
3.080325 2.814673 2.190473
3.043074 2.780634 2.664558
3.029077 2.767844 2.717653
3.143364 2.872275 3.806277
3.106954 2.839005 3.814489
3.027332 2.766250 4.350496
2.910436 2.659435 5.303979
3.690780 1.429910 0.827744
3.664202 1.419612 1.297719
3.692575 1.430605 1.759065
3.678295 1.425072 1.544267
3.690071 1.429635 2.032687
3.755254 1.454888 2.713854
3.701732 1.434153 3.588744
3.588938 1.390453 4.083402
3.615401 1.400706 4.241950
3.598755 1.394256 4.804782
3.440363 0.004074 1.493579
3.339296 0.003954 1.838828
3.392246 0.004017 2.428310
3.420472 0.004051 2.903168
3.443696 0.004078 3.274595
3.531189 0.004182 3.854613
3.612594 0.004278 4.323382
3.014472 -1.281656 1.654176
3.049123 -1.296388 2.128469
3.093110 -1.315090 2.608397
2.957334 -1.257362 2.400499
2.891462 -1.229356 2.890843
3.011221 -1.280273 3.656971
3.006230 -1.278151 3.784397
2.864323 -1.217817 4.368011
2.123012 -2.108934 1.079726
2.141955 -2.127751 1.566342
2.165501 -2.151141 2.012944
2.172574 -2.158168 2.395807
2.192181 -2.177644 2.877171
2.222871 -2.208131 4.614732
1.212667 -2.671647 0.870949
1.221966 -2.692135 1.358787
1.233894 -2.718413 1.800007
1.234483 -2.719712 3.774853
1.200032 -2.643812 4.611025
1.211111 -2.668219 4.749624
0.120151 -2.926531 0.719242
0.120949 -2.945954 1.207212
0.122112 -2.974291 1.681523
0.123556 -3.009456 3.932711
0.112076 -2.729854 3.596957
-1.053944 -2.882075 0.144289
-1.005068 -2.748420 0.626885
-1.011000 -2.764642 1.108333
-0.968830 -2.649327 2.493481
-0.897403 -2.454005 3.471268
-0.914006 -2.499406 4.401890
-0.882296 -2.412693 4.011862
-0.842991 -2.305210 4.522482
-1.882647 -2.230628 0.171586
-1.888058 -2.237039 0.659871
-1.933423 -2.290789 1.957917
-1.828907 -2.166955 2.632587
-1.628910 -1.929992 2.999194
-1.625140 -1.925524 3.525547
-2.694891 -1.414080 0.052523
-2.589910 -1.358994 0.560909
-2.668223 -1.400087 1.837592
-2.483838 -1.303335 3.018954
-2.137713 -1.121714 2.910269
-2.147845 -1.127031 3.394832
-2.214841 -1.162185 3.905842
-2.233624 -1.172041 4.878476
-2.791875 -0.320075 3.254195
-2.584395 -0.296288 4.054639
-2.494215 -0.285949 3.636500
-2.852332 0.851774 1.681523
-2.889555 0.862890 2.168332
-2.693516 0.804348 3.260824
-2.447633 0.730921 3.760171
-2.421011 0.722971 3.743836
-2.324560 1.786056 0.798398
-2.342364 1.799736 1.312661
-2.419785 1.859221 2.536152
-2.259179 1.735821 3.532394
-2.093405 1.608450 4.281784
-1.579654 2.659789 0.098277
-1.506592 2.536768 0.586693
-1.502248 2.529453 1.068776
-1.528514 2.573679 1.554805
-1.559480 2.625819 2.032633
-1.584497 2.667943 4.315628
-1.426298 2.401570 3.988841
-1.407257 2.369509 4.770057
-0.495835 3.369300 0.763327
-0.469148 3.187960 0.436663
-0.453574 3.082127 1.028319
-0.457187 3.106679 1.499388
-0.462224 3.140909 1.976408
-0.445478 3.027112 2.369564
-0.453152 3.079264 2.854560
-0.459013 3.119086 4.448527
0.718481 3.192659 1.608658
0.726549 3.228510 2.083022
0.736232 3.271534 2.537119
0.748534 3.326202 3.016155
0.715195 3.178054 2.804316
0.701499 3.117196 3.302324
1.962835 2.946195 1.487284
1.953881 2.932756 1.204266
1.944749 2.919049 2.325457
1.925306 2.889865 2.916434
1.932652 2.900891 3.393666
1.954379 2.933503 3.816013
1.933156 2.901647 3.571317
2.946684 1.955636 1.429410
2.867880 1.903336 1.519407
2.824224 1.874363 2.402428
2.865388 1.901682 2.848475
2.864114 1.900837 3.038834
2.935227 1.948033 3.803144
2.920748 1.938423 3.693715
3.321864 0.745867 0.730993
3.170440 0.711868 1.218284
3.199169 0.718318 1.699687
3.236791 0.726766 2.173908
3.212510 0.721314 1.881670
3.316277 0.744613 2.932084
3.220562 0.723122 4.690360
2.948814 -0.444396 0.816495
2.969267 -0.447478 1.290220
2.939112 -0.442933 1.615681
2.955711 -0.445435 2.875900
2.853009 -0.429957 3.432698
2.717455 -0.409529 3.533506
2.690137 -0.405412 3.517134
2.126497 -1.322478 0.731874
2.129696 -1.324467 1.397477
2.145048 -1.334015 1.685966
2.228654 -1.386010 2.770421
2.227374 -1.385214 2.757061
2.295578 -1.427630 4.058298
2.161397 -1.344183 3.699871
1.503293 -1.977207 0.873709
1.507393 -1.982601 1.526522
1.506328 -1.981200 2.439358
1.507497 -1.982737 3.317468
1.439949 -1.893894 2.825507
1.453068 -1.911150 3.398237
1.496975 -1.968898 3.889599
1.512653 -1.989519 4.890053
0.662866 -2.380013 0.336102
0.642809 -2.308001 1.167233
0.615839 -2.211163 1.158410
0.616172 -2.212361 1.626903
0.620597 -2.228249 2.170178
0.620364 -2.227412 2.675643
0.630957 -2.265445 3.219372
0.653319 -2.345734 3.806013
-0.291839 -2.398858 1.071753
-0.271926 -2.235173 0.644370
-0.271092 -2.228316 1.147175
-0.275053 -2.260879 1.716614
-0.278917 -2.292636 2.129588
-0.282860 -2.325050 2.720264
-0.284111 -2.335330 3.226126
-0.279276 -2.295593 3.831827
-1.042395 -1.950387 0.951382
-1.041698 -1.949084 1.441657
-1.046807 -1.958644 1.966306
-1.067582 -1.997515 2.461534
-1.093381 -2.045786 2.962549
-1.071477 -2.004802 3.567791
-1.049131 -1.962991 4.081887
-1.035908 -1.938250 4.780628
-1.759035 -1.510703 0.142025
-1.651555 -1.418396 0.659917
-1.667986 -1.432507 1.231034
-1.689257 -1.450775 1.706485
-1.755646 -1.507792 2.183707
-1.775166 -1.524556 2.699993
-1.791448 -1.538540 3.293652
-1.751964 -1.504630 3.811532
-2.075454 -0.667496 0.768737
-2.075380 -0.667473 1.354699
-2.102905 -0.676325 1.810104
-2.144314 -0.689643 2.332725
-2.202901 -0.708485 2.915205
-2.146723 -0.690417 3.439010
-2.076579 -0.667858 3.963572
-2.204565 0.135541 0.876663
-2.206615 0.135667 1.455242
-2.237302 0.137554 1.910069
-2.280173 0.140190 2.404897
-2.308083 0.141906 2.901675
-2.261174 0.139022 3.513579
-2.045964 0.125790 3.767479
-2.122040 0.130468 4.935853
-2.013125 0.905886 0.842697
-2.014633 0.906564 1.428071
-2.038981 0.917521 1.835436
-2.082676 0.937183 2.398124
-2.111673 0.950231 2.928733
-2.126749 0.957015 4.684792
-1.545090 1.615850 0.930071
-1.545957 1.616757 1.474140
-1.548055 1.618951 1.889716
-1.578361 1.650645 2.398124
-1.619155 1.693307 2.946071
-1.653841 1.729582 3.523054
-1.750716 1.830893 4.535776
-1.659977 1.735999 4.783397
-0.854183 2.191386 2.037523
-0.866772 2.223682 2.422237
-0.870578 2.233447 2.762003
-0.851137 2.183570 2.494683
-0.854119 2.191220 3.020379
-0.881346 2.261070 3.752153
-0.040934 2.494092 0.235036
-0.041357 2.519868 1.598771
-0.041885 2.552067 2.034523
-0.041735 2.542900 1.920613
-0.042023 2.560462 2.405179
-0.040716 2.480819 2.609850
-0.039855 2.428351 3.229904
-0.040736 2.482028 3.784957
0.930195 2.412743 2.132830
0.947473 2.457561 2.627436
0.947683 2.458105 2.857239
0.958911 2.487228 3.825081
1.997647 2.216933 0.875731
2.013266 2.234266 1.375706
2.037196 2.260824 1.901353
1.933389 2.145621 2.146496
1.876081 2.082023 3.383547
1.901363 2.110080 3.967509
1.862266 2.066691 3.759312
3.099207 1.390402 0.407589
2.954103 1.325304 0.964360
3.002172 1.346870 1.855679
3.031671 1.360103 2.232317
3.075173 1.379620 2.692605
3.055179 1.370650 2.491748
3.051024 1.368786 4.098524
2.808078 1.259793 4.455659
3.503248 0.229675 0.908200
3.526332 0.231189 1.384391
3.559000 0.233330 1.860019
3.572750 0.234232 2.026962
3.525362 0.231125 2.791513
3.388767 0.222170 2.696258
3.394768 0.222563 2.957956
3.562853 0.233583 4.231615
3.356976 0.220086 4.068368
3.374232 0.221217 5.201239
3.188500 -1.056390 0.862133
3.090791 -1.024017 1.341943
3.120637 -1.033906 1.816688
3.160042 -1.046961 2.297201
3.052826 -1.011439 2.163449
2.969495 -0.983831 2.547920
2.999394 -0.993737 3.034638
3.019496 -1.000397 4.463549
2.587264 -2.213572 0.743927
2.354681 -2.014582 0.517552
2.271435 -1.943359 1.007349
2.290613 -1.959768 1.494043
2.290376 -1.959565 1.850739
2.303092 -1.970444 2.332605
2.396239 -2.050137 4.719342
1.510979 -2.699189 0.032759
1.428230 -2.551368 0.521322
1.435775 -2.564846 1.009435
1.447930 -2.586560 1.490549
1.464238 -2.615693 1.957917
1.433054 -2.559985 3.419090
1.353383 -2.417663 4.006167
1.406706 -2.512919 4.752649
0.386248 -3.069141 0.045863
0.365203 -2.901917 0.560909
0.367090 -2.916914 1.022622
0.343401 -2.728676 2.769664
0.311458 -2.474854 3.344331
0.329930 -2.621632 4.295134
0.321035 -2.550957 3.867315
0.337705 -2.683416 5.022520
-0.712223 -2.917440 1.699516
-0.647709 -2.653176 1.358120
-0.584709 -2.395113 2.190722
-0.578428 -2.369382 2.907344
-0.601506 -2.463917 3.639549
-0.577461 -2.365422 3.277030
-0.591439 -2.422679 3.858843
-1.571955 -2.055261 0.970518
-1.480749 -1.936013 1.847647
-1.460743 -1.909855 2.597532
-1.509355 -1.973413 3.270449
-1.464239 -1.914426 2.876581
-1.503119 -1.965261 3.381301
-1.530693 -2.001312 3.861680
-1.456058 -1.903730 4.484316
-2.158262 -1.342400 1.900507
-2.030005 -1.262626 2.462701
-2.079927 -1.293677 2.994819
-2.085447 -1.297110 3.431785
-2.096689 -1.304102 4.021268
-2.145201 -1.334276 5.024256
-2.303521 -0.376895 1.807804
-2.278745 -0.372841 1.422347
-2.312055 -0.378292 1.922684
-2.354022 -0.385158 2.408748
-2.415677 -0.395246 2.981364
-2.431148 -0.397777 3.485582
-2.450395 -0.400926 3.950075
-2.530313 -0.414002 5.205192
-2.690255 0.494544 0.911395
-2.400714 0.441318 1.894758
-2.372585 0.436148 2.671657
-2.403483 0.441827 2.947722
-2.481013 0.456080 3.717009
-2.407244 0.442519 3.371244
-2.460018 0.452220 3.905842
-2.388663 0.439103 4.520258
-2.436682 1.582047 0.759605
-2.268168 1.472637 1.326222
-2.104101 1.366114 1.795073
-2.113467 1.372195 2.734708
-2.130914 1.383523 2.915753
-2.130611 1.383326 3.310793
-2.077712 1.348981 3.751362
-1.701339 2.418146 0.804162
-1.744611 2.479648 2.067582
-1.650142 2.345377 2.696035
-1.535621 2.182607 3.327447
-1.491904 2.120471 3.679051
-0.732706 2.862497 0.744858
-0.751269 2.935018 2.041306
-0.718565 2.807249 2.953798
-0.699562 2.733009 4.004675
-0.677988 2.648725 3.610257
0.379559 2.963768 0.974447
0.382681 2.988145 1.461175
0.386584 3.018616 1.901353
0.387704 3.027365 2.290820
0.400173 3.124727 4.570797
1.651398 2.785893 0.983897
1.663798 2.806811 1.459060
1.681288 2.836317 1.940142
1.703388 2.873600 2.413949
1.728695 2.916293 2.860917
1.712780 2.889444 2.588960
1.681264 2.836276 3.122900
1.607636 2.712066 4.583869
2.724276 2.113506 1.609790
2.654918 2.059698 2.091623
2.688789 2.085976 2.531811
2.732323 2.119749 3.003393
2.732099 2.119575 3.193758
2.772884 2.151216 3.719470
2.869420 2.226109 4.425904
3.854930 1.173760 0.724329
3.753989 1.143025 1.196527
3.742092 1.139403 0.924467
3.744686 1.140193 1.463676
3.776456 1.149866 1.918972
3.801820 1.157589 2.464460
3.667626 1.116729 2.781653
3.594652 1.094510 3.523854
3.748873 1.141468 4.463584
4.036315 -0.378988 0.704676
3.905678 -0.366721 1.171226
3.933911 -0.369372 1.639048
3.971537 -0.372905 2.106203
4.013694 -0.376864 2.528433
4.043676 -0.379679 2.990725
4.032475 -0.378627 2.902675
4.062671 -0.381462 3.314662
4.069134 -0.382069 4.411679
3.585327 -1.841674 0.755811
3.491744 -1.793604 1.221827
3.481116 -1.788145 0.968765
3.488560 -1.791969 1.577560
3.414384 -1.753867 3.557114
3.141908 -1.613903 3.702716
3.252205 -1.670560 4.553937
3.338195 -1.714730 5.026452
2.415849 -2.628856 0.308260
2.423159 -2.636810 0.776953
2.338608 -2.544803 1.725961
2.244294 -2.442175 2.167417
2.271867 -2.472178 2.576001
2.322414 -2.527183 3.190643
2.368567 -2.577404 3.661514
2.421815 -2.635348 4.137353
1.168169 -3.058799 1.634669
1.190553 -3.117413 2.113272
1.214861 -3.181061 2.551212
1.234951 -3.233665 3.029201
1.171875 -3.068504 2.820898
1.140585 -2.986573 3.315372
1.166191 -3.053621 3.797405
-0.124907 -3.403090 0.756860
-0.119234 -3.248532 1.244321
-0.114257 -3.112947 1.021773
-0.117201 -3.193145 2.211375
-0.116368 -3.170462 1.950289
-0.113405 -3.089723 2.439199
-0.114048 -3.107237 2.828372
-0.115379 -3.143508 3.309161
-1.177715 -2.752584 1.112622
-1.188479 -2.777742 1.599200
-1.201993 -2.809328 2.052320
-1.219939 -2.851273 2.530912
-1.227105 -2.868021 2.913471
-1.211857 -2.832383 4.333161
-2.047720 -2.092905 0.686259
-2.060626 -2.106096 1.167663
-2.078675 -2.124543 1.615681
-2.104513 -2.150952 2.096020
-2.137526 -2.184693 2.582090
-2.131075 -2.178100 4.142926
-1.941978 -1.984830 4.614495
-2.671774 -1.212965 0.877545
-2.692382 -1.222320 1.365376
-2.742369 -1.245014 1.817870
-2.780240 -1.262207 2.303946
-2.826343 -1.283138 2.782535
-2.956122 -0.057656 0.804162
-2.977265 -0.058068 1.291556
-2.997559 -0.058464 1.627168
-3.009822 -0.058703 2.109169
-3.057282 -0.059629 2.595213
-3.141856 -0.061278 3.096634
-3.018160 -0.058866 4.548216
-2.937645 1.047918 0.176713
-2.804379 1.000380 0.665091
-2.821650 1.006541 1.152093
-2.847753 1.015852 1.632056
-2.903618 1.035780 2.076415
-2.947692 1.051502 2.561004
-2.976826 1.061895 3.041172
-2.934639 1.046846 4.523125
-2.469603 2.147843 1.615161
-2.516220 2.188386 2.087329
-2.567269 2.232783 2.525344
-2.437241 2.119697 2.313327
-2.363143 2.055253 2.805824
-2.409550 2.095614 3.289276
-2.434691 2.117479 3.690614
-1.585117 3.014920 0.782727
-1.513392 2.878497 1.270355
-1.527582 2.905488 1.751693
-1.546007 2.940532 2.225828
-1.567118 2.980686 2.666698
-1.594410 3.032596 3.145422
-1.626192 3.093046 3.622865
-1.614515 3.070835 3.455273
-0.383953 3.388666 0.899113
-0.372490 3.287495 1.384590
-0.371441 3.278240 1.632959
-0.372380 3.286527 2.063543
-0.380897 3.361695 2.802671
-0.387707 3.421804 3.274595
-0.391671 3.456785 3.519752
-0.403594 3.562012 4.169446
-0.414752 3.660495 4.694617
-0.389243 3.435355 4.579141
1.156025 3.882947 0.610324
1.111638 3.733859 0.342004
1.125586 3.780706 1.544267
1.121992 3.768636 1.341983
1.127786 3.788096 1.975836
1.106375 3.716181 2.930861
1.068137 3.587743 3.428265
1.065708 3.579586 3.860623
1.049534 3.525259 4.265077
2.390320 3.117677 0.689522
2.423761 3.161294 1.738245
2.432827 3.173119 2.207103
2.461905 3.211045 2.660607
2.445482 3.189624 2.415075
2.476202 3.229692 3.053592
2.465069 3.215172 4.080290
2.413569 3.148000 4.578880
2.471820 3.223976 5.038835
3.450993 2.107124 0.075513
3.350034 2.045480 0.563032
3.364488 2.054305 1.049893
3.429757 2.094157 2.154337
3.449064 2.105946 2.616558
3.424231 2.090783 2.345772
3.479873 2.124758 3.110152
3.350550 2.045795 3.291757
3.294521 2.011585 4.146845
3.334309 2.035878 4.400301
3.843034 0.545795 0.786066
3.873193 0.550078 1.425707
3.775213 0.536163 2.365973
3.626021 0.514974 2.821602
3.522837 0.500320 2.997226
3.422669 0.486094 3.187306
3.536910 0.502319 4.098832
3.345513 -0.764967 0.801281
3.187009 -0.728725 1.112960
3.177372 -0.726521 1.400506
3.239782 -0.740791 2.238806
3.284240 -0.750957 2.679652
3.341667 -0.764088 3.158344
3.407532 -0.779148 3.629307
3.390442 -0.775241 3.513305
2.713444 -1.854609 0.936347
2.712446 -1.853927 1.418539
2.719510 -1.858755 1.901162
2.602481 -1.778767 1.682435
2.555779 -1.746847 2.220579
2.586671 -1.767961 2.593711
2.613442 -1.786259 3.080368
2.552256 -1.744439 4.392145
1.610584 -2.483973 0.909579
1.609668 -2.482560 1.398320
1.639322 -2.528295 1.837592
1.614682 -2.490294 3.481463
1.521974 -2.347311 4.015373
1.569418 -2.420484 4.511933
0.655961 -2.905857 0.717756
0.654663 -2.900103 1.199380
0.660277 -2.924975 1.633746
0.668491 -2.961360 2.113558
0.681257 -3.017914 4.405249
-0.461505 -2.900740 0.956682
-0.465312 -2.924668 1.444437
-0.449170 -2.823209 2.837775
-0.422817 -2.657567 3.487397
-0.442355 -2.780369 4.682763
-0.426332 -2.679662 4.812946
-1.556875 -2.673103 0.078621
-1.472008 -2.527388 0.560909
-1.504734 -2.583577 1.859232
-1.410324 -2.421480 2.555721
-1.331544 -2.286216 3.154007
-1.299278 -2.230817 3.427941
-1.279396 -2.196679 4.002490
-1.265507 -2.172834 4.838224
-2.278283 -1.677840 0.735462
-2.459100 -1.811003 2.032633
-2.298770 -1.692929 3.396508
-1.983007 -1.460384 3.102428
-2.009667 -1.480019 3.707315
-3.003912 -0.801910 0.871199
-2.856811 -0.762640 1.365376
-2.888183 -0.771016 1.852652
-2.706760 -0.722584 2.549090
-2.591832 -0.691903 3.931739
-2.421584 -0.646454 3.431606
-2.457141 -0.655947 4.009192
-2.446146 -0.653011 4.925419
-2.946581 0.331582 1.028152
-2.910821 0.327558 0.725839
-3.006812 0.338360 1.995318
-3.048358 0.343035 2.448283
-2.790098 0.313973 2.086825
-2.575181 0.289788 2.699668
-2.673273 0.300827 3.978378
-2.491858 0.280412 3.616366
-2.671688 1.367390 1.673209
-2.487667 1.273206 2.221661
-2.318912 1.186836 2.820031
-2.378054 1.217106 3.347448
-2.515313 1.287356 4.735773
-2.019347 2.311137 0.190198
-1.942880 2.223622 0.678960
-1.989809 2.277331 1.975607
-2.017510 2.309035 2.435165
-2.052541 2.349128 2.913471
-1.992393 2.280289 2.551912
-1.951672 2.233685 3.805065
-1.795102 2.054490 3.570353
-1.885194 2.157600 4.934356
-1.694592 1.939456 4.888829
-0.985295 2.932826 0.170345
-0.940139 2.798415 0.652599
-0.945900 2.815563 1.140116
-0.944791 2.812263 1.530069
-0.954807 2.842075 1.964495
-0.969851 2.886856 2.477076
-1.005117 2.991826 4.732412
-0.936711 2.788210 4.932591
0.133586 3.270217 1.615161
0.135091 3.307064 2.089515
0.133921 3.278426 1.732192
0.135064 3.306394 2.351553
0.132957 3.254819 2.804316
0.128821 3.153564 3.201219
1.291873 2.982992 1.244321
1.307464 3.018992 1.849181
1.336579 3.086219 2.627833
1.354277 3.127086 3.003224
1.379903 3.186257 3.474619
1.409253 3.254027 3.944638
1.345646 3.107155 3.738923
2.579740 2.431807 0.302159
2.555572 2.409025 0.940389
2.570400 2.423002 1.358664
2.616226 2.466201 2.193802
2.595310 2.446484 1.860019
2.632791 2.481816 2.658031
2.618522 2.468365 3.298947
2.570968 2.423537 3.709148
2.574901 2.427246 3.899632
3.171156 1.253366 0.886182
3.033378 1.198911 0.937328
3.050154 1.205541 1.712690
3.098854 1.224789 2.329637
3.143535 1.242449 2.776779
3.200140 1.264822 3.255225
3.198492 1.264170 3.242311
3.124890 1.235080 3.570559
2.903696 1.147655 4.136749
2.825228 1.116641 5.029290
3.330940 0.046317 0.785201
3.222474 0.044809 0.462729
3.226815 0.044870 1.271684
3.141903 0.043689 1.532081
3.052598 0.042447 2.019507
3.067302 0.042652 2.448283
2.894268 0.040245 2.927375
2.740225 0.038103 3.480330
2.905653 0.040404 4.624232
2.839226 0.039480 4.404000
2.861287 -1.110476 0.209873
2.762676 -1.072204 1.477375
2.594270 -1.006845 2.088963
2.486394 -0.964978 3.124141
2.488784 -0.965906 3.144144
2.576216 -0.999838 3.802985
1.874081 -1.664353 1.370631
1.918355 -1.703672 2.188566
1.934316 -1.717848 2.416123
1.929458 -1.713533 2.349215
1.866089 -1.657256 2.744185
1.830758 -1.625878 3.377972
1.839148 -1.633330 3.802203
1.810438 -1.607832 4.479854
1.159512 -2.347666 0.066813
1.084911 -2.196622 0.571919
1.092117 -2.211212 1.062863
1.115426 -2.258406 1.929270
1.139935 -2.308029 2.282290
1.096549 -2.220186 2.562814
1.043657 -2.113095 3.060899
1.066190 -2.158718 3.624166
0.199498 -2.410440 1.578315
0.188023 -2.271792 1.342501
0.186235 -2.250181 1.792921
0.189792 -2.293160 2.314519
0.192395 -2.324614 2.858219
0.197872 -2.390788 3.384755
0.205879 -2.487531 4.030672
0.202812 -2.450475 4.814252
-0.713986 -2.138453 0.746085
-0.703906 -2.108260 1.209433
-0.713537 -2.137106 1.725118
-0.717895 -2.150160 2.215202
-0.728644 -2.182353 2.800180
-0.751018 -2.249367 3.367902
-0.805771 -2.413355 4.457544
-1.459086 -1.757402 0.887570
-1.457092 -1.754999 1.369595
-1.446127 -1.741793 1.874267
-1.454347 -1.751693 2.323615
-1.475640 -1.777340 2.881380
-1.452425 -1.749378 4.506626
-2.030275 -1.120659 0.189366
-1.886998 -1.041574 0.776315
-1.905163 -1.051601 1.279884
-1.950289 -1.076509 1.720061
-1.983005 -1.094567 2.194870
-2.006392 -1.107477 2.718950
-2.084273 -1.150465 3.435376
-2.023661 -1.117009 3.825062
-2.168622 -0.268757 0.918340
-2.167281 -0.268591 1.422702
-2.219432 -0.275054 1.842221
-2.287323 -0.283468 2.355123
-2.314854 -0.286880 2.858219
-2.241633 -0.277806 3.466129
-2.026168 -0.251103 3.712779
-2.055430 -0.254730 4.649281
-2.125379 0.513317 0.952337
-2.128685 0.514116 1.524687
-2.184033 0.527483 1.977903
-2.228410 0.538201 2.486152
-2.257172 0.545148 2.982837
-2.213434 0.534584 3.594891
-2.012874 0.486146 3.904150
-1.840681 0.444558 4.511659
-1.798939 1.290380 1.012510
-1.913804 1.372773 2.357152
-1.897856 1.361333 2.140967
-1.906003 1.367177 2.514951
