-0.647713 0.691567 8.012391
-0.784851 0.844262 8.454945
-0.723525 0.787545 9.256756
-0.827121 0.951683 0.462390
-0.833540 0.971469 1.252080
-0.829672 0.976414 1.850076
-0.998301 1.214951 3.882577
-0.439497 0.560075 6.881279
-0.482103 0.624171 7.873954
-0.634283 0.829137 8.429706
-0.664843 0.881049 9.289158
-0.667585 0.953554 2.399089
-0.541915 0.780342 2.892377
-0.714778 1.041790 3.575940
-0.849106 1.252287 4.238096
-0.596735 0.892387 5.109066
-0.440003 0.668715 6.108358
-0.242938 0.372350 6.677446
-0.214265 0.331990 7.341925
-0.435528 0.685617 8.206937
-0.518548 0.826176 8.888244
-0.373317 0.602641 9.748839
-0.550397 0.935124 0.396918
-0.590636 1.017510 1.149418
-0.551927 0.965068 1.955974
-0.762695 1.348841 2.536188
-0.905856 1.624870 3.257409
-0.774754 1.407864 3.965677
-0.678720 1.250505 4.716726
-0.509315 0.951182 5.484398
-0.282212 0.535799 6.444978
-0.229462 0.441775 7.218691
-0.356978 0.697686 7.967214
-0.450542 0.893142 8.676138
-0.423591 0.847541 9.184833
-0.473266 1.008035 0.638470
-0.528288 1.141977 1.339669
-0.460331 1.005692 1.849560
-0.587288 1.305175 2.631497
-0.701356 1.591190 3.556601
-0.626184 1.435386 4.047715
-0.492356 1.144064 4.711086
-0.388382 0.923277 5.794769
-0.193901 0.466706 6.452773
-0.159169 0.390434 7.346816
-0.258689 0.643088 7.905226
-0.281475 0.709880 8.547793
-0.306500 0.789554 9.491893
-0.468854 1.301264 0.143989
-0.431312 1.220749 0.914423
-0.342274 0.985239 1.580836
-0.435764 1.324826 3.630528
-0.109355 0.360089 6.720697
-0.165586 0.561808 7.764367
-0.235226 0.809873 8.230588
-0.304158 1.171448 0.414813
-0.277234 1.082919 0.841586
-0.247187 0.995021 1.737112
-0.320125 1.396862 3.985393
-0.067315 0.325428 6.892623
-0.117218 0.585882 7.700225
-0.160816 0.826065 8.333699
-0.138066 0.727213 8.978118
-0.152181 0.948059 0.408030
-0.149436 0.960912 1.019958
-0.140647 0.940855 1.760206
-0.152358 1.074367 2.696349
-0.171077 1.253128 3.332714
-0.179253 1.354505 3.837402
-0.171390 1.382298 4.867363
-0.127572 1.065385 5.445666
-0.052938 0.457093 6.044869
-0.040989 0.381857 7.159350
-0.074355 0.733940 7.874921
-0.079882 0.820180 8.368634
-0.074509 0.826721 9.329564
-0.046829 0.711447 0.606541
-0.064274 1.084109 1.414066
-0.050609 0.903384 1.830784
-0.049813 1.003286 2.624416
-0.055560 1.302375 3.474708
-0.053760 1.453203 4.167465
-0.037499 1.196856 4.914066
-0.017483 0.695808 5.784280
-0.007187 0.347099 6.419900
-0.006828 0.473250 7.223595
-0.005945 0.743603 8.017175
-0.002968 0.794960 8.571271
0.001419 0.709121 9.361125
0.020331 0.808307 0.224389
0.024955 0.774768 1.113572
0.034225 0.903654 1.821055
0.045748 1.065909 2.444590
0.055950 1.147853 3.168212
0.069208 1.284682 3.797402
0.026684 0.348365 6.848433
0.059667 0.709614 7.757576
0.075136 0.839046 8.446627
0.064040 0.677306 9.149355
0.089169 0.777797 -0.048815
0.087534 0.714556 0.929318
0.099237 0.781957 1.474816
0.169611 1.157238 3.878382
0.057369 0.341472 6.695616
0.097890 0.561850 7.449646
0.137704 0.764418 8.163712
0.143727 0.671997 0.558019
0.206113 0.935295 1.331608
0.179510 0.794344 2.011511
0.151371 0.656793 2.560199
0.229409 0.965937 3.377960
0.334336 1.373602 4.036168
0.140199 0.522473 7.179399
0.212037 0.773876 7.819803
0.234288 0.831772 8.750640
0.191403 0.669571 9.312201
0.112842 0.365992 0.098720
0.150617 0.475523 1.072919
0.235428 0.732228 1.612590
0.212428 0.643372 2.609159
0.237774 0.709409 3.174519
0.380371 1.111648 3.926666
0.402443 1.152485 4.714389
0.213495 0.604309 5.261383
0.067942 0.187852 6.302846
0.124557 0.337260 7.164201
0.242214 0.649021 7.546879
0.308767 0.809870 8.440877
0.248572 0.643284 9.084464
0.374682 0.908651 -0.029125
0.353204 0.843185 0.671251
0.300002 0.703144 1.505149
0.293775 0.675603 2.378935
0.263583 0.598796 2.955843
0.376963 0.842694 3.689002
0.066780 0.140940 6.628099
0.204887 0.425915 7.346708
0.382146 0.781338 8.122005
0.340245 0.687415 8.774435
0.203041 0.403428 9.755293
0.155162 0.294701 0.118628
0.222245 0.415296 0.975187
0.356873 0.657650 1.701671
0.334840 0.608027 2.489915
0.262884 0.472154 3.093889
0.397055 0.703737 3.789681
0.502205 0.875933 4.643826
0.278020 0.480675 5.193658
0.100787 0.171513 6.149798
0.226766 0.379540 7.065969
0.436613 0.722345 7.657660
0.453296 0.742518 8.234717
0.412557 0.666806 9.050165
0.372141 0.572584 -0.048951
0.534384 0.808706 0.903418
0.403471 0.607209 1.232464
0.382857 0.565570 2.323508
0.343930 0.504689 2.722516
0.457522 0.659775 3.740897
0.097838 0.134375 6.821356
0.289666 0.393659 7.425471
0.515067 0.692983 7.980146
0.476073 0.631784 8.872075
0.256114 0.336831 9.551699
0.444123 0.556184 0.528284
0.534785 0.662847 1.159963
0.436213 0.533358 2.008741
0.462389 0.557385 2.891024
0.375851 0.448240 3.575222
0.451701 0.533556 4.167762
0.530327 0.619195 4.887628
0.256374 0.296208 5.620872
0.078129 0.089229 6.419380
0.327578 0.368608 7.322041
0.556291 0.620329 7.843715
0.558383 0.615429 8.614206
0.447811 0.486848 9.572627
0.245505 0.260900 0.167940
0.306307 0.321747 0.906876
0.499181 0.518360 1.624619
0.489136 0.503147 2.224051
0.472428 0.478782 3.171345
0.516957 0.518818 3.787805
0.508020 0.504114 4.513191
0.341346 0.334495 5.355662
0.134427 0.130368 6.080332
0.345110 0.331178 6.722140
0.635921 0.602815 7.447309
0.667330 0.623229 8.419650
0.597854 0.552303 9.167268
0.593616 0.519231 0.644319
0.592395 0.512357 1.347908
0.519072 0.444949 1.910848
0.475938 0.403769 2.563754
0.516978 0.432354 3.457636
0.530652 0.439405 4.079678
0.456515 0.373211 4.898460
0.272277 0.220000 5.677956
0.153253 0.122713 6.283001
0.514196 0.404326 7.360816
0.832116 0.646628 8.029215
0.746656 0.574854 8.649110
0.507797 0.386400 9.484434
0.288975 0.211120 -0.039515
0.384509 0.275873 1.053968
0.578847 0.412729 1.419210
0.574992 0.404360 2.243621
0.547868 0.379791 3.102788
0.601534 0.412386 3.758474
0.602215 0.407048 4.601208
0.418004 0.279151 5.351994
0.230262 0.152205 6.004455
0.496940 0.323907 6.792188
0.783655 0.503465 7.588104
0.748942 0.476340 8.199900
0.479571 0.286143 0.206309
0.807356 0.478080 0.622178
0.662049 0.385550 1.544220
0.606620 0.349128 2.194695
0.571163 0.324024 2.985236
0.622291 0.347505 3.839346
0.638570 0.352775 4.422086
0.523385 0.284606 5.298068
0.296792 0.159695 5.913155
0.494880 0.262681 6.615443
0.856254 0.448392 7.266451
0.983774 0.507520 8.037544
0.874532 0.443298 9.010856
0.425333 0.213203 9.748777
0.210963 0.100255 0.227996
0.424639 0.199063 0.896400
0.656398 0.302635 1.693077
0.653605 0.296509 2.468624
0.593818 0.266893 2.916649
0.673979 0.297102 3.826910
0.675729 0.293755 4.480745
0.430419 0.184739 5.115737
0.240805 0.101680 5.915326
0.542919 0.224848 6.762742
0.905903 0.369023 7.446312
0.868774 0.349120 8.076213
0.691117 0.242939 1.888638
0.661285 0.228487 2.568206
0.640137 0.217577 3.210515
0.695624 0.231456 4.025152
0.575336 0.188466 4.636742
0.410020 0.131223 5.544196
0.326686 0.102659 6.247595
0.612096 0.188029 7.037395
0.976262 0.292461 7.874115
0.967321 0.283992 8.602321
0.679120 0.196754 9.152966
0.931066 0.243240 0.563459
0.766946 0.194027 1.543143
0.666967 0.166316 1.979375
0.636796 0.153561 2.965641
0.639076 0.151075 3.538419
0.691304 0.159298 4.255822
0.513666 0.114639 5.167728
0.309982 0.067318 5.946853
0.575758 0.121676 6.630560
1.000517 0.203596 7.528499
1.059816 0.212244 7.921407
1.060531 0.203426 8.996002
0.675765 0.126151 9.765185
1.172892 0.192551 0.637120
0.818302 0.130500 1.219279
0.678369 0.104144 1.959796
0.698349 0.101513 2.971312
0.697625 0.098374 3.513950
0.731119 0.098594 4.282204
0.511032 0.066496 4.908574
0.297287 0.036600 5.838037
0.413569 0.048218 6.662264
0.768542 0.086045 7.194046
1.098717 0.114397 8.139850
0.980668 0.097959 8.720896
0.727564 0.068010 9.637992
1.110235 0.077397 0.599778
0.856802 0.054595 1.354828
0.723687 0.041328 2.193169
0.671116 0.034779 2.865663
0.705685 0.032843 3.533518
0.730162 0.030014 4.223546
0.560661 0.018739 5.232955
0.341742 0.009646 5.942807
0.470217 0.011048 6.540377
0.916918 0.014080 7.520033
1.120108 0.011905 8.095581
1.045765 0.005199 8.860389
0.658871 0.000314 9.562830
0.582752 -0.011751 0.029452
0.767439 -0.020414 0.840122
0.834657 -0.025892 1.394771
0.759159 -0.029263 2.347972
0.851973 -0.036809 2.929701
0.881505 -0.044041 3.781780
0.925446 -0.050694 4.387880
0.771750 -0.047676 5.301878
0.409911 -0.027524 6.053121
0.605098 -0.043928 6.728695
0.981516 -0.076533 7.353845
1.149322 -0.096789 8.128669
0.910324 -0.112615 1.566938
0.750286 -0.097188 2.299124
1.146312 -0.157620 3.255170
1.392863 -0.199996 3.978617
0.886144 -0.141710 6.081799
0.786171 -0.131665 7.057375
1.036577 -0.177073 7.430959
1.210989 -0.217022 8.456819
1.045475 -0.190874 8.928212
0.794445 -0.167362 0.536566
1.126476 -0.243424 1.179216
0.983766 -0.218337 1.883872
1.340089 -0.308882 2.877196
1.703888 -0.401087 3.421101
1.771341 -0.427119 4.085372
0.701075 -0.187035 7.335985
1.161923 -0.317420 8.015448
1.126430 -0.312325 8.522564
0.866082 -0.245133 9.300896
1.072708 -0.342624 1.751572
1.334563 -0.436541 2.604584
0.784374 -0.285422 6.857729
1.047628 -0.389788 7.740740
1.131597 -0.427432 8.370025
1.049553 -0.403521 9.170168
1.165024 -0.485470 0.549082
1.291716 -0.545916 1.170900
1.198362 -0.513591 1.800665
1.513136 -0.659630 2.548021
1.819988 -0.807367 3.311773
0.796319 -0.381928 7.232773
1.013924 -0.493175 7.900849
1.078089 -0.530078 8.443339
1.053074 -0.526930 9.373082
0.804828 -0.421456 0.214033
0.905360 -0.482627 1.134892
1.277130 -0.689092 1.745117
1.578689 -0.865276 2.537109
0.680746 -0.403245 6.896433
0.872105 -0.523653 7.630695
1.054903 -0.644475 8.588000
1.118251 -0.691774 9.305843
0.992899 -0.643043 0.077231
0.938611 -0.618573 1.073684
1.158007 -0.769096 1.507701
0.945389 -0.637751 2.420109
1.661102 -1.144701 3.575811
1.449656 -1.010297 4.255579
1.244430 -0.881676 5.258965
0.914725 -0.656313 6.082679
0.535282 -0.386835 6.607177
0.678999 -0.497294 7.403686
0.996835 -0.741532 8.291064
1.199633 -0.965654 1.501281
1.257655 -1.022518 2.100089
1.460756 -1.200677 2.739837
1.696377 -1.418524 3.745326
1.502320 -1.265579 4.221873
0.732703 -0.648062 7.446312
0.941907 -0.843169 8.164108
1.032138 -0.931896 8.692912
0.986988 -0.901740 9.485348
0.998561 -0.966160 0.681508
1.165374 -1.137042 1.192013
1.173447 -1.164067 2.212909
1.087233 -1.087101 2.710054
1.501467 -1.536360 4.075609
1.250698 -1.295937 4.897941
1.062422 -1.110799 5.501732
0.713314 -0.754291 6.307476
0.672023 -0.722199 7.363552
0.887477 -0.964624 8.031832
1.031488 -1.134492 8.748987
1.016865 -1.129437 9.395131
1.056868 -1.215048 0.419660
1.157602 -1.345951 1.101474
1.040168 -1.224109 1.842605
0.815977 -0.969371 2.440487
1.498120 -1.828675 3.983848
1.211063 -1.499492 4.899413
1.034157 -1.294760 5.619607
0.794797 -1.001591 6.086202
0.594787 -0.759888 7.004089
0.789171 -1.024652 7.954861
0.954611 -1.251450 8.495819
0.936113 -1.239505 9.130643
1.000002 -1.384606 0.085596
1.026166 -1.437194 0.750209
0.972089 -1.376060 1.371149
1.229583 -1.765994 2.181296
1.446001 -2.102433 2.846462
1.436836 -2.122758 3.744524
1.359613 -2.023839 4.182994
1.209960 -1.825113 4.967611
0.737038 -1.168719 8.005581
0.866224 -1.390226 8.652021
0.723265 -1.177391 9.555671
0.903170 -1.542384 0.559899
0.880347 -1.530485 1.510641
1.104556 -2.007146 3.783963
1.237711 -2.265289 4.118396
1.135931 -2.105690 4.795628
0.650342 -1.281291 8.134280
0.769570 -1.533228 8.653015
0.669432 -1.350122 9.347313
0.660924 -1.412183 0.305647
0.710690 -1.542110 1.027741
0.743351 -1.632238 1.575971
0.906565 -2.034771 2.553037
1.024225 -2.322052 2.978548
1.009899 -2.330047 3.756543
1.021018 -2.396306 4.501585
0.946085 -2.264097 5.376891
0.613018 -1.557518 8.159725
0.553532 -1.538727 0.409829
0.633216 -1.790671 1.069145
0.607640 -1.747588 1.715800
0.707894 -2.075768 2.423611
0.785360 -2.350522 3.152532
0.777804 -2.370615 3.808511
0.783789 -2.441115 4.573101
0.712121 -2.266073 5.360579
0.590181 -1.919570 6.193703
0.518399 -1.712998 6.792646
0.534054 -1.808106 7.622795
0.528282 -1.820191 8.227762
0.505886 -1.794337 9.231815
0.483222 -1.908778 0.878059
0.479142 -1.927787 1.406546
0.441178 -1.835071 2.350093
0.459746 -1.954233 2.939453
0.541123 -2.360789 3.599869
0.566818 -2.544316 4.322315
0.517526 -2.367974 4.838737
0.466355 -2.206691 5.715575
0.408898 -1.990409 6.462121
0.389829 -1.967085 7.349678
0.379508 -1.971840 8.051779
0.354265 -1.897670 8.790531
0.308920 -1.712079 9.632165
0.344177 -2.080143 0.197432
0.349861 -2.191400 0.881090
0.306539 -1.997530 1.622343
0.291276 -1.951495 2.126297
0.285600 -2.034238 3.182235
0.307708 -2.249927 3.596875
0.317136 -2.459245 4.508702
0.299792 -2.445680 5.279975
0.258419 -2.170821 5.756035
0.232140 -2.048735 6.485770
0.217893 -2.056812 7.405183
0.198714 -1.958306 7.991386
0.183750 -1.941037 8.866109
0.146320 -1.644759 9.687391
0.122944 -1.829357 0.208484
0.124258 -2.099227 1.175824
0.112382 -2.046422 1.696515
0.102240 -2.028188 2.245738
0.091504 -2.122604 3.128370
0.079208 -2.183293 3.957186
0.069526 -2.236910 4.588304
0.059951 -2.235685 5.113950
0.044361 -2.160246 5.905144
0.033311 -2.117808 6.514136
0.020349 -2.036237 7.254515
0.008157 -2.025790 8.017839
-0.062992 -2.268747 0.898524
-0.071749 -2.166541 1.549616
-0.082532 -2.107077 2.287883
-0.087236 -2.059806 2.678991
-0.104549 -2.112269 3.546722
-0.124534 -2.207571 4.382168
-0.123323 -2.080031 4.752639
-0.148693 -2.219578 5.682205
-0.172029 -2.364538 6.369788
-0.172188 -2.226042 6.969112
-0.173269 -2.094313 7.673942
-0.183869 -2.070086 8.453201
-0.184887 -1.936704 9.341821
-0.217034 -1.846554 0.312498
-0.259262 -2.105823 0.977635
-0.267928 -2.080436 1.656445
-0.282668 -2.096087 2.381888
-0.305495 -2.143573 3.295095
-0.316223 -2.162440 3.738654
-0.343182 -2.213625 4.788368
-0.366146 -2.270995 5.525698
-0.394541 -2.371050 6.132491
-0.408013 -2.371360 6.817539
-0.410654 -2.295075 7.671773
-0.400127 -2.186367 8.199614
-0.422451 -2.014219 0.112983
-0.420055 -1.967851 0.546852
-0.473464 -2.137600 1.473460
-0.469694 -2.069626 2.107701
-0.470290 -2.030652 2.648834
-0.509398 -2.117967 3.672984
-0.532313 -2.163046 4.313431
-0.510315 -2.027551 4.981906
-0.550408 -2.125504 5.812309
-0.620843 -2.347953 6.407213
-0.625373 -2.317781 7.041858
-0.630374 -2.274530 7.910739
-0.618581 -2.181324 8.695112
-0.587650 -2.032587 9.396790
-0.645191 -2.086379 0.262669
-0.680039 -2.163378 0.823662
-0.665010 -2.067308 1.634078
-0.664440 -2.040018 2.078001
-0.683542 -2.048413 2.954910
-0.699764 -2.058702 3.635452
-0.740371 -2.127717 4.510108
-0.744654 -2.100610 5.230083
-0.782129 -2.176291 5.754097
-0.847684 -2.315198 6.467743
-0.826152 -2.225890 7.037573
-0.834656 -2.203153 7.892072
-0.816225 -2.115323 8.695112
-0.768431 -1.952171 9.614164
-0.862396 -2.064579 0.562025
-0.896649 -2.104272 1.422418
-0.871395 -2.015062 2.074990
-0.885794 -2.013571 2.838131
-0.887794 -1.999175 3.264574
-0.905797 -2.010661 3.916831
-0.850708 -1.859443 4.652465
-0.905710 -1.938613 5.628702
-1.015628 -2.149511 6.127578
-1.063781 -2.208733 7.041077
-1.022802 -2.101526 7.582281
-1.014966 -2.056994 8.281547
-0.967297 -1.934627 8.991775
-0.953545 -1.797790 0.386296
-1.029464 -1.915036 1.060672
-1.023154 -1.872912 1.880750
-1.037925 -1.869876 2.701369
-1.046945 -1.872424 3.079155
-1.073862 -1.891552 3.872749
-1.041414 -1.809816 4.598760
-1.122587 -1.926975 5.239451
-1.281663 -2.160588 6.170587
-1.248411 -2.081310 6.794020
-1.228379 -2.019427 7.586208
-1.197804 -1.943629 8.343551
-1.166554 -1.767531 0.827261
-1.135801 -1.698514 1.564658
-1.167166 -1.723941 2.261313
-1.206803 -1.760653 2.957048
-1.243562 -1.790972 3.691748
-1.255371 -1.781918 4.529259
-1.296169 -1.825969 4.960463
-1.408465 -1.957050 5.737538
-1.441243 -1.972776 6.616763
-1.440840 -1.950563 7.279947
-1.434843 -1.920868 7.961055
-1.432684 -1.889119 8.897591
-1.271188 -1.664355 9.412772
-1.286368 -1.613408 0.621372
-1.375782 -1.701617 1.445321
-1.341779 -1.642050 2.079507
-1.347257 -1.624458 2.968587
-1.361981 -1.630607 3.393843
-1.416077 -1.672063 4.222773
-1.406136 -1.640892 4.943025
-1.459116 -1.685460 5.556371
-1.589017 -1.808718 6.430463
-1.561561 -1.763086 6.944258
-1.562742 -1.740091 7.817382
-1.563218 -1.719064 8.611306
-1.459088 -1.591620 9.173499
-1.505507 -1.527011 2.059218
-1.501967 -1.510255 2.588636
-1.532722 -1.524314 3.257550
-1.563253 -1.535519 4.013465
-1.469047 -1.427852 4.680720
-1.599043 -1.533850 5.472038
-1.802833 -1.709059 6.156445
-1.772704 -1.663108 6.812649
-1.728641 -1.602982 7.558210
-1.662015 -1.525463 8.231260
-1.080973 -0.941031 0.153370
-1.498798 -1.285089 1.066834
-1.566507 -1.327423 1.771851
-1.573673 -1.316408 2.547173
-1.594746 -1.321898 3.095246
-1.637038 -1.336746 3.993959
-1.576695 -1.276309 4.529992
-1.742949 -1.393536 5.248819
-1.927864 -1.524797 5.863727
-1.913126 -1.496343 6.542267
-1.863465 -1.442201 7.197058
-1.783446 -1.363552 7.966986
-1.778410 -1.342747 8.744873
-1.593899 -1.190109 9.502300
-1.704803 -1.204463 1.939922
-1.663730 -1.162350 2.586705
-1.685690 -1.161630 3.372941
-1.681869 -1.146927 3.974329
-1.616939 -1.089117 4.694151
-1.733728 -1.152611 5.425842
-2.011962 -1.316554 6.276769
-2.033966 -1.313686 7.018182
-1.952332 -1.250908 7.498206
-1.950707 -1.229705 8.437058
-1.911726 -1.187197 9.319890
-1.518357 -0.889515 0.360881
-1.885085 -1.088134 1.135737
-1.797585 -1.028176 1.619999
-1.826686 -1.027980 2.468262
-1.880570 -1.044531 3.144889
-1.839739 -1.012174 3.643333
-1.801731 -0.978750 4.306982
-1.991582 -1.064953 5.091547
-2.073586 -1.090480 5.931588
-2.078250 -1.078378 6.617116
-2.123203 -1.083805 7.444872
-1.969683 -0.996988 7.916401
-2.019186 -1.003441 8.847890
-1.905567 -0.933756 9.607450
-1.842551 -0.845691 1.754285
-1.919874 -0.865022 2.599911
-1.888184 -0.837751 3.304626
-1.872688 -0.817537 4.040271
-1.776673 -0.763521 4.763661
-1.998402 -0.844171 5.498670
-2.269539 -0.943611 6.151581
-2.140707 -0.881304 6.612515
-2.104984 -0.849287 7.508895
-2.067794 -0.821268 8.208984
-1.729234 -0.619244 0.521193
-1.907526 -0.674098 1.027595
-1.921195 -0.664226 1.857936
-1.886595 -0.642459 2.428239
-1.889319 -0.628229 3.311773
-1.929810 -0.630915 3.927219
-1.864325 -0.595943 4.750814
-2.007247 -0.626916 5.557524
-2.271103 -0.697174 6.118250
-2.215549 -0.668303 6.738783
-2.128363 -0.624051 7.736585
-2.099769 -0.602789 8.466934
-2.014948 -0.567806 9.120552
-1.951801 -0.502629 0.725970
-2.044328 -0.515659 1.326260
-1.919932 -0.470064 2.182924
-1.982083 -0.471303 2.993864
-1.985090 -0.462763 3.535559
-1.989229 -0.452041 4.222214
-1.816300 -0.404463 4.783345
-1.883610 -0.406907 5.566470
-2.214165 -0.463071 6.331943
-2.160709 -0.438626 7.082212
-1.997882 -0.395587 7.727923
-2.054750 -0.393625 8.509648
-1.981643 -0.367217 9.312865
-1.810688 -0.290676 0.265342
-1.948093 -0.301286 0.963011
-1.993460 -0.291241 1.981842
-1.962459 -0.276313 2.618747
-1.932384 -0.263684 3.144192
-1.920413 -0.252204 3.765667
-1.859084 -0.233021 4.502167
-1.960652 -0.231412 5.384757
-2.238779 -0.249650 6.140258
-2.233491 -0.235226 6.907967
-2.056404 -0.205303 7.632316
-1.935158 -0.184721 8.216223
-1.992518 -0.126137 0.971748
-2.076359 -0.126760 1.242542
-1.926435 -0.102181 2.223874
-1.862984 -0.091145 2.732338
-1.902658 -0.081856 3.453728
-2.004601 -0.074728 4.149822
-1.952611 -0.060974 4.905357
-2.029675 -0.052204 5.578881
-2.119804 -0.042853 6.251270
-2.024348 -0.026016 7.197978
-2.012685 -0.013855 7.961285
-1.926872 -0.004455 8.570471
-1.757524 0.006696 9.412896
-1.834585 0.049325 0.407484
-1.976254 0.065397 1.161210
-1.908040 0.074540 1.893016
-1.833970 0.083321 2.677448
-1.816298 0.092393 3.347413
-1.875180 0.104132 3.915768
-1.955506 0.119236 4.577512
-1.920484 0.129653 5.392444
-1.968866 0.147181 6.287480
-2.026442 0.160963 6.862635
-1.929302 0.160922 7.384170
-1.933917 0.173839 8.206776
-1.757736 0.167619 8.953695
-1.656569 0.200114 0.866624
-1.850464 0.233291 1.496838
-1.762950 0.232674 2.214498
-1.726833 0.240172 3.076776
-1.542908 0.223007 3.758434
-1.705465 0.254604 4.318688
-2.034537 0.317767 5.111479
-1.686538 0.269710 5.621175
-1.635604 0.274971 6.640454
-1.895455 0.329995 7.327469
-1.947645 0.352158 8.148074
-1.821813 0.338307 8.790031
-1.470767 0.280317 9.503789
-1.641243 0.373849 1.876730
-1.596615 0.375415 2.740462
-1.324697 0.320483 3.565867
-1.590151 0.394109 4.232629
-2.099493 0.531758 4.798725
-1.944095 0.505406 5.601724
-1.736838 0.461165 6.290304
-1.676116 0.455487 7.040023
-1.638622 0.454447 7.713281
-1.617490 0.460759 8.620971
-1.446340 0.418921 9.245252
-1.394489 0.433740 0.421460
-1.621001 0.514268 1.113358
-1.577539 0.511265 1.878073
-1.526459 0.505189 2.647047
-1.344688 0.450124 3.086188
-1.675965 0.573175 3.860533
-2.030473 0.706917 4.494964
-1.926660 0.688402 5.518393
-1.588418 0.575193 6.113427
-1.415164 0.522151 6.917098
-1.482814 0.556924 7.648995
-1.519455 0.582270 8.503095
-1.450108 0.563571 9.140195
-1.466164 0.619893 0.792148
-1.506444 0.646992 1.487472
-1.408417 0.616691 2.364189
-1.810231 0.802849 2.913262
-2.086661 0.938443 3.519457
-1.920628 0.875968 4.184913
-1.906503 0.889236 5.239494
-1.690845 0.818847 7.109936
-1.435222 0.708974 8.176796
-1.384349 0.692003 8.806325
-1.114314 0.566006 9.736486
-1.249254 0.660009 0.594706
-1.458604 0.780181 1.219737
-1.318782 0.718856 2.203260
-1.604714 0.887988 2.963753
-1.709780 0.956016 3.495987
-1.729753 0.984501 4.429492
-1.853179 1.061796 4.764604
-1.615839 0.965992 7.128863
-1.243604 0.751988 7.868486
-1.241060 0.759146 8.534878
-1.064680 0.659903 9.363523
-1.351880 0.875715 0.448271
-1.359048 0.890410 1.087151
-1.206405 0.798175 1.649304
-1.517626 1.043268 3.814372
-1.699050 1.181608 4.457617
-1.552387 1.093411 5.222253
-1.386383 1.014755 7.559931
-1.151737 0.854299 8.448636
-1.112904 0.833948 9.101313
-1.274353 1.028954 1.449354
-1.073216 0.872612 1.883240
-1.374712 1.138610 2.977492
-1.592473 1.328571 3.389334
-1.427722 1.203560 4.041669
-1.392530 1.191166 4.941843
-0.679056 0.608665 8.081737
-0.908531 0.820979 8.539795
-0.820349 0.749768 9.318181
-1.221399 1.158152 0.152279
-1.170349 1.126572 1.077618
-0.964450 0.936037 1.596335
-1.188425 1.194905 3.764131
-1.449134 1.479337 4.658540
-1.274351 1.309004 5.078094
-0.888434 0.924128 5.956844
-0.477691 0.502464 6.783431
-0.458888 0.489325 7.684531
-0.718600 0.774040 8.263231
-0.773104 0.841600 8.938926
-0.792045 0.921178 0.704187
-0.878864 1.031332 1.249421
-0.812061 0.963327 1.918818
-1.105481 1.325723 2.552070
-1.287201 1.566956 3.431917
-1.112171 1.371563 4.246084
-1.006131 1.250865 4.760238
-0.823280 1.036795 5.594326
-0.489360 0.621400 6.200430
-0.357072 0.459835 7.130364
-0.522068 0.680442 7.838357
-0.658259 0.869331 8.623414
-0.579135 0.772021 9.252843
-0.669791 0.958563 2.088442
-0.769575 1.118263 2.965697
-0.934840 1.372254 3.526125
-0.906748 1.343960 4.089649
-0.662967 0.995561 4.904416
-0.516263 0.787901 5.894319
-0.316192 0.487739 6.591293
-0.269694 0.422151 7.484520
-0.453087 0.716535 8.024583
-0.550593 0.883416 8.841006
-0.496302 0.807134 9.673561
-0.545348 0.944557 0.745392
-0.577191 1.015276 1.575282
-0.550304 0.978188 2.139739
-0.447261 0.805364 2.845777
-0.614586 1.126733 3.768524
-0.707011 1.308210 4.231524
-0.522300 0.983677 5.211929
-0.349356 0.666793 5.975813
-0.175372 0.339183 6.750316
-0.211050 0.413516 7.430509
-0.384574 0.765332 8.176271
-0.427057 0.860821 8.829970
-0.326724 0.671074 9.885731
-0.482608 1.029010 0.512359
-0.493536 1.063437 1.014232
-0.456491 0.996936 1.656038
-0.495815 1.108355 2.744757
-0.495534 1.117236 3.142247
-0.567179 1.307090 4.132062
-0.603646 1.404822 4.566308
-0.440215 1.040222 5.318305
-0.214822 0.516180 6.179901
-0.136123 0.331929 6.897832
-0.234497 0.582843 7.724412
-0.296212 0.747759 8.393846
-0.312932 0.803575 9.154854
-0.351397 1.012013 2.123382
-0.360751 1.056893 2.781511
-0.487335 1.458740 3.557797
-0.481108 1.469213 4.301988
-0.336133 1.041475 4.898789
-0.238124 0.757435 5.918793
-0.132077 0.428340 6.697156
-0.146849 0.485451 7.390922
-0.221443 0.746843 8.060545
-0.218610 0.748770 8.616154
-0.220605 0.777733 9.638034
-0.249755 0.952678 0.378620
-0.248028 0.973096 1.232720
-0.250001 1.003550 1.911634
-0.310811 1.340272 3.923825
-0.340660 1.515335 4.747875
-0.247509 1.120023 5.266283
-0.118347 0.549470 6.048011
-0.082016 0.396280 7.134769
-0.124003 0.616954 7.847362
-0.155762 0.793736 8.413359
-0.157146 0.825820 9.170809
-0.158758 0.944773 0.106867
-0.150470 0.933019 0.933208
-0.156812 1.008091 1.630440
-0.176305 1.292561 3.960995
-0.187076 1.440668 4.751726
-0.140946 1.122170 5.327973
-0.070266 0.589720 6.234569
-0.039273 0.341544 6.818787
-0.067927 0.633061 7.763627
-0.083652 0.825404 8.501136
-0.075918 0.780430 9.050165
-0.068856 0.931283 0.262492
-0.062935 0.917928 0.933863
-0.059397 0.943425 1.633875
-0.054746 0.960954 2.383464
-0.038038 0.743782 3.135428
-0.042658 0.936538 3.825121
-0.008607 0.385101 6.903027
-0.010353 0.644207 7.679962
-0.008848 0.774708 8.266951
-0.003318 0.746278 9.205435
0.026953 0.982787 0.145626
0.029771 0.871170 0.993605
0.034260 0.870145 1.647049
0.068848 1.211059 3.815070
0.027859 0.346322 6.971693
0.047421 0.558117 7.523490
0.077088 0.846585 8.259825
0.072981 0.758506 8.962275
0.077072 0.680334 0.362231
0.108876 0.916602 1.040839
0.107724 0.854292 1.950256
0.125020 0.959687 2.461169
0.171592 1.239141 3.450704
0.196228 1.361112 4.137898
0.191362 1.268156 4.980775
0.127560 0.818662 5.662928
0.054926 0.341029 6.410018
0.077813 0.462126 7.327012
0.129979 0.750949 7.869557
0.142157 0.797383 8.526431
0.123257 0.668561 9.347857
0.125225 0.598375 0.500327
0.153987 0.713984 1.271574
0.166226 0.757053 1.739546
0.172161 0.766207 2.356100
0.230116 0.987577 3.336801
0.296174 1.242723 3.944529
0.090137 0.343436 7.011215
0.198350 0.736874 7.756776
0.231467 0.838889 8.563542
0.187960 0.669460 9.208088
0.112051 0.367919 0.355387
0.170395 0.548195 1.080510
0.234565 0.740247 1.768841
0.189400 0.586799 2.455875
0.267387 0.810970 3.233906
0.412143 1.227575 3.874397
0.152029 0.419271 7.085680
0.267875 0.727127 7.692905
0.294061 0.784500 8.427133
0.265879 0.694375 9.393913
0.334762 0.816981 0.058414
0.331696 0.798191 0.681932
0.294854 0.698965 1.358618
0.286419 0.666531 2.202947
0.268671 0.612881 3.132171
0.368450 0.832412 3.562559
0.133919 0.284438 6.660600
0.246767 0.516726 7.336592
0.369219 0.760520 8.127549
0.358437 0.726950 8.950139
0.169500 0.339246 9.774843
0.445971 0.852565 0.553745
0.375622 0.709357 1.190858
0.331097 0.613952 2.155551
0.314537 0.577555 2.679556
0.448660 0.807959 3.698727
0.600717 1.071591 4.174690
0.533205 0.934955 5.128433
0.234395 0.407913 5.638908
0.043829 0.075179 6.527600
0.222116 0.376348 7.169365
0.433398 0.724174 7.892454
0.452956 0.744104 8.883249
0.327023 0.532845 9.435413
0.072449 0.111780 0.159043
0.165293 0.250834 1.128337
0.437998 0.654793 1.983630
0.361157 0.535147 2.512977
0.392354 0.572625 3.406307
0.538541 0.778968 3.912596
0.546733 0.779399 4.779882
0.303596 0.428120 5.499539
0.184215 0.256222 6.384704
0.321742 0.443144 6.953561
0.497031 0.674080 7.863212
0.534722 0.717138 8.557713
0.418149 0.555569 9.208088
0.436091 0.557600 -0.039134
0.443485 0.560312 0.694577
0.433856 0.540273 1.586602
0.453267 0.559633 2.114934
0.361999 0.439725 3.140859
0.389862 0.470218 3.582561
0.557800 0.664660 4.316079
0.397530 0.467032 5.245386
0.176920 0.206162 5.822204
0.327749 0.376576 6.697884
0.528065 0.599286 7.443106
0.610897 0.683725 8.326395
0.521057 0.579098 8.823263
0.284769 0.311744 9.932718
0.074832 0.078670 0.228780
0.106798 0.110530 1.232349
0.490127 0.502710 1.782326
0.488363 0.495187 2.509489
0.410344 0.411206 3.268513
0.505759 0.502208 3.839346
0.632426 0.618039 4.838535
0.420407 0.406534 5.560729
0.243607 0.233350 6.217944
0.426838 0.403572 7.027371
0.587532 0.550356 7.594613
0.617442 0.571849 8.333699
0.530069 0.485538 9.097892
0.139542 0.121499 0.397055
0.212134 0.182206 1.257824
0.509567 0.431877 2.078701
0.458577 0.385678 2.565532
0.450238 0.374159 3.317600
0.530690 0.434315 4.268556
0.551366 0.445770 5.031763
0.335973 0.268926 5.705784
0.155130 0.123111 6.292924
0.469246 0.366034 7.321787
0.778587 0.601726 7.830986
0.758856 0.579557 8.594642
0.607699 0.457587 9.556646
0.350648 0.253833 0.039434
0.464972 0.331402 0.972487
0.542808 0.383400 1.509348
0.577575 0.402813 2.263190
0.585297 0.402962 3.030011
0.641566 0.436519 3.723968
0.644930 0.432403 4.594844
0.442146 0.292783 5.367990
0.266797 0.174595 6.109187
0.506084 0.326890 6.841255
0.776649 0.495280 7.539485
0.772080 0.486077 8.306941
0.647218 0.371791 1.662580
0.594551 0.337382 2.333298
0.559269 0.312964 3.095138
0.634693 0.348164 4.164878
0.606326 0.329310 4.705472
0.434022 0.231909 5.615368
0.298227 0.157661 6.217944
0.577820 0.300959 6.964013
0.917478 0.469676 7.810549
0.792142 0.400337 8.528512
0.583290 0.291220 9.240114
0.255780 0.120885 0.059396
0.427042 0.198114 0.965338
0.635614 0.290280 1.713828
0.605977 0.272669 2.423084
0.605438 0.268824 3.053812
0.680558 0.298334 3.648372
0.680184 0.292720 4.510070
0.456434 0.193960 5.131913
0.260822 0.108765 6.044056
0.580456 0.236950 6.968770
0.869261 0.351233 7.373681
0.896698 0.354021 8.417878
0.703372 0.274235 9.036753
0.710075 0.249171 1.789617
0.636651 0.219148 2.550406
0.590723 0.200068 3.185550
0.655715 0.218121 3.871372
0.548371 0.178975 4.610481
0.329459 0.105159 5.486400
0.278161 0.087031 6.246193
0.677123 0.205768 7.247956
0.987608 0.294944 7.810549
0.988264 0.287980 8.689608
0.746511 0.214086 9.322660
0.033064 0.008603 0.308988
0.219143 0.055482 1.150498
0.674963 0.167995 1.645324
0.680145 0.164033 2.568206
0.647868 0.153435 3.092993
0.693484 0.159988 3.829563
0.672102 0.150290 4.695684
0.438448 0.095904 5.329770
0.330019 0.069886 6.217944
0.606769 0.125448 6.797360
0.991429 0.198015 7.601595
1.052447 0.202241 8.545962
0.827251 0.154650 9.274526
1.178267 0.187240 0.849457
0.847312 0.131418 1.325601
0.689979 0.102421 2.155551
0.651800 0.092319 3.004830
0.695011 0.094376 3.731726
0.731910 0.094943 4.490520
0.505615 0.063478 5.049706
0.310165 0.036915 5.917181
0.517980 0.059004 6.541300
0.930722 0.100398 7.242288
1.038060 0.106772 7.868710
0.954453 0.092122 8.717130
0.706372 0.063539 9.654265
0.535172 0.035462 0.501371
0.489299 0.028463 1.526538
0.707049 0.038987 1.899736
0.681763 0.033407 2.677696
0.701028 0.029888 3.484596
0.751650 0.027845 4.191309
0.589109 0.017848 5.078574
0.363855 0.009641 5.604955
0.206486 0.004126 6.485753
0.495797 0.006987 7.208850
0.991394 0.009130 7.747985
1.080304 0.002079 8.687419
0.867743 -0.003710 9.569834
0.776027 -0.027726 1.768841
0.665930 -0.027358 2.452468
0.862773 -0.041608 3.341070
0.965222 -0.052323 4.087475
0.856947 -0.050118 4.643758
0.703842 -0.045872 5.522079
0.435839 -0.031052 6.353175
0.720167 -0.056248 7.194115
1.015914 -0.083308 7.640393
1.040956 -0.092594 8.542120
0.858060 -0.081287 9.352479
0.628633 -0.074658 0.117646
0.743641 -0.094165 1.094806
0.910386 -0.118938 1.586391
0.828124 -0.113351 2.362564
1.101345 -0.156926 3.035039
1.234048 -0.182279 3.665196
0.766099 -0.125991 5.811408
0.604323 -0.103141 6.626031
1.055310 -0.188370 7.527827
1.151964 -0.210970 8.094110
0.766349 -0.159928 0.000000
0.728277 -0.157645 0.938444
0.924462 -0.205819 1.672748
0.829145 -0.188176 2.195282
1.228695 -0.287678 3.022251
1.510878 -0.362898 3.710674
1.187178 -0.293042 4.537568
0.814405 -0.206593 5.411551
0.444134 -0.115270 6.186958
0.642420 -0.170671 6.900494
1.048319 -0.285212 7.595602
1.180007 -0.328418 8.325704
0.915582 -0.287541 0.359457
1.192661 -0.383309 1.185524
1.035042 -0.340101 2.005749
1.359961 -0.455171 2.669840
1.737258 -0.595406 3.527496
0.707893 -0.265652 7.360287
1.065673 -0.406241 7.958853
1.197157 -0.464244 8.678392
1.021290 -0.403437 9.559994
1.278908 -0.526140 0.057596
1.097219 -0.457470 0.646772
1.112326 -0.470969 1.331917
0.920246 -0.397316 2.224898
1.783510 -0.791772 3.420441
1.622406 -0.734899 4.369490
0.695778 -0.335203 7.560746
1.027563 -0.499764 7.968518
1.096638 -0.541580 8.744521
0.978536 -0.491203 9.643943
1.480775 -0.815137 3.043115
1.616243 -0.900511 3.660129
1.225962 -0.692053 4.406614
0.914138 -0.522588 5.141696
0.669799 -0.388227 5.952170
0.696020 -0.410881 6.984258
0.880811 -0.524397 7.426380
1.027211 -0.620432 8.219601
1.017339 -0.658462 0.530567
1.259047 -0.825606 1.263236
1.256597 -0.832800 1.866997
1.559660 -1.047100 2.578975
0.745621 -0.538520 7.033189
0.930774 -0.682285 7.905074
1.088361 -0.809399 8.762553
0.995592 -0.745573 9.231892
0.964495 -0.769339 0.250644
0.989194 -0.798492 0.972850
1.475185 -1.234660 3.127550
1.580602 -1.339007 3.846290
0.634220 -0.562679 6.925958
0.864531 -0.778581 7.832030
1.021349 -0.929169 8.441123
1.024350 -0.939909 8.999114
1.122677 -1.081229 0.238788
1.105956 -1.075248 0.821947
1.096443 -1.076294 1.415269
1.091576 -1.089267 2.431085
1.398623 -1.408703 2.969877
1.622861 -1.650597 3.535596
1.431047 -1.479392 4.564406
1.214171 -1.268892 5.282579
0.875634 -0.922940 5.899075
0.525641 -0.559657 6.637929
0.636618 -0.688430 7.617269
0.901144 -0.985306 8.249000
1.033994 -1.205709 0.620378
1.121489 -1.324467 1.388193
1.054998 -1.259537 2.050950
0.859668 -1.032986 2.464147
1.445789 -1.786555 4.067328
1.134222 -1.412711 4.606655
0.967767 -1.221980 5.478752
0.770023 -0.985404 6.359269
0.581254 -0.751488 7.057506
0.749146 -0.982951 7.927303
0.884538 -1.169785 8.369930
0.906084 -1.214046 9.181513
0.974921 -1.341368 0.161913
0.988324 -1.379041 0.980173
0.965403 -1.361043 1.581628
1.195386 -1.706768 2.289538
1.408796 -2.029830 2.778299
1.411222 -2.064253 3.629189
1.385727 -2.050063 4.272986
1.250816 -1.875429 5.063464
0.773940 -1.221191 8.172613
0.899141 -1.434675 8.769759
0.750430 -1.209229 9.421013
0.756702 -1.308473 0.506939
0.931592 -1.635360 1.297057
1.084962 -1.990477 3.559444
1.235066 -2.291145 4.087591
1.141485 -2.141322 4.676931
0.722846 -1.396134 6.311247
0.516457 -1.010899 7.091187
0.624230 -1.242936 7.932871
0.763917 -1.542173 8.570957
0.705265 -1.438029 9.118031
0.820694 -1.722732 0.160754
0.783352 -1.668594 0.852808
0.773086 -1.668522 1.469491
0.938002 -2.121507 3.582318
1.051937 -2.407901 4.084605
0.988821 -2.304196 4.893275
0.513301 -1.271843 7.846473
0.662456 -1.681071 8.811783
0.608539 -1.567711 9.515154
0.548809 -1.539756 0.352646
0.585750 -1.676185 1.110966
0.602034 -1.757255 1.857863
0.684169 -2.020971 2.286228
0.714594 -2.161458 3.142875
0.731567 -2.256126 3.831720
0.788674 -2.478637 4.473785
0.728165 -2.349448 5.414117
0.625688 -2.148236 7.594532
0.516444 -1.810727 8.390788
0.462140 -1.799468 -0.018940
0.441282 -1.760086 0.682762
0.447468 -1.835938 1.486300
0.428313 -1.790484 2.010808
0.429949 -1.865554 3.023566
0.509257 -2.245423 3.414087
0.556155 -2.531200 4.201835
0.515997 -2.430989 5.086431
0.468555 -2.266206 5.763442
0.384352 -1.900508 6.372014
0.350295 -1.778160 7.034653
0.356170 -1.884093 7.993181
0.338474 -1.842051 8.664222
0.297032 -1.671848 9.480041
0.240475 -1.440007 0.383147
0.309994 -1.925098 1.086494
0.299943 -1.928315 1.739200
0.299154 -1.992314 2.379355
0.252812 -1.758795 3.169507
0.269240 -1.991281 4.178108
0.327552 -2.487858 4.542597
0.291658 -2.323670 5.308430
0.239424 -2.006873 6.123329
0.215565 -1.911312 6.953164
0.211663 -1.961278 7.554152
0.200183 -1.976881 8.395591
0.181248 -1.914123 9.256780
0.156161 -2.051971 -0.056491
0.142729 -2.089324 0.884294
0.134145 -2.079786 1.346037
0.114606 -1.969202 2.116858
0.108167 -2.071622 2.839003
0.095852 -2.130525 3.715873
0.089956 -2.217588 4.247841
0.079558 -2.419454 5.162720
0.063297 -2.236136 5.757149
0.049301 -2.091130 6.373100
0.037660 -2.040165 7.027720
0.025992 -2.042838 7.756184
0.008603 -2.048986 8.850727
0.000830 -1.733403 9.419420
-0.034428 -1.709484 0.370910
-0.050890 -2.021123 0.980471
-0.063730 -2.071667 1.657644
-0.076000 -2.064433 2.394748
-0.092248 -2.087638 3.292837
-0.107525 -2.139985 4.028653
-0.118958 -2.197599 4.497868
-0.131354 -2.146092 5.376633
-0.146195 -2.170558 6.134697
-0.166786 -2.264218 6.903036
-0.167043 -2.147302 7.445794
-0.171068 -2.076231 8.044177
-0.247019 -2.170897 0.375238
-0.271175 -2.280856 0.982023
-0.255046 -2.073874 1.477740
-0.270847 -2.089973 2.269080
-0.288177 -2.105802 3.137767
-0.299884 -2.127495 3.628689
-0.319451 -2.178303 4.307170
-0.327938 -2.116096 5.320286
-0.344155 -2.165267 5.793553
-0.393435 -2.375467 6.565610
-0.386226 -2.258064 7.249902
-0.392875 -2.203325 8.156351
-0.393953 -2.136486 8.929164
-0.333612 -1.773762 9.491760
-0.382108 -1.822277 0.530287
-0.439125 -2.033696 1.251951
-0.447529 -2.045707 1.581206
-0.461142 -2.054488 2.240874
-0.480738 -2.070348 3.137767
-0.507278 -2.132086 3.794931
-0.539475 -2.201394 4.613070
-0.562097 -2.249914 5.158975
-0.603168 -2.340140 6.062865
-0.618938 -2.344849 6.784706
-0.602034 -2.239268 7.380773
-0.598905 -2.177086 8.131855
-0.567229 -1.828392 0.671344
-0.659581 -2.083217 1.370280
-0.648991 -2.026822 1.768007
-0.666621 -2.029764 2.673188
-0.696697 -2.082082 3.348983
-0.704491 -2.078577 3.823066
-0.723087 -2.076123 4.851540
-0.755960 -2.149039 5.222558
-0.816330 -2.271062 6.044229
-0.808231 -2.212912 6.691804
-0.804025 -2.161801 7.442132
-0.796472 -2.103491 8.203174
-0.814320 -2.103732 9.147749
-0.788483 -1.927847 0.000000
-0.822552 -1.976527 0.742130
-0.822073 -1.945136 1.410869
-0.843557 -1.957778 2.258043
-0.900202 -2.052810 3.032791
-0.909339 -2.049419 3.562024
-0.914111 -2.034601 4.132378
-0.911571 -1.992491 4.976990
-0.975605 -2.096702 5.754097
-1.038792 -2.205185 6.318817
-1.041697 -2.167190 7.303801
-1.000039 -2.063705 7.729464
-1.038907 -2.098967 8.785585
-0.924882 -1.854837 9.236900
-0.817052 -1.557144 0.208934
-1.001651 -1.874920 1.109197
-1.007871 -1.867022 1.636450
-1.028078 -1.876875 2.380165
-1.034829 -1.867846 2.966442
-1.070583 -1.904087 3.729273
-1.109933 -1.947842 4.425835
-1.164619 -2.013592 5.205690
-1.241631 -2.115235 5.979683
-1.238924 -2.089058 6.542267
-1.241970 -2.060930 7.430235
-1.228535 -2.017359 8.028400
-1.244105 -2.012609 8.878930
-1.082017 -1.736527 9.425936
-1.176361 -1.766794 1.655245
-1.171234 -1.735092 2.430642
-1.196908 -1.752258 3.100178
-1.228041 -1.777651 3.741355
-1.186973 -1.692276 4.630303
-1.302337 -1.828576 5.496201
-1.420177 -1.975508 6.011938
-1.428348 -1.957280 6.901401
-1.413426 -1.919596 7.444872
-1.399457 -1.875546 8.260471
-1.245227 -1.556759 0.858559
-1.331527 -1.645740 1.533067
-1.352288 -1.650372 2.286228
-1.375259 -1.660743 2.917358
-1.382425 -1.654464 3.457119
-1.436786 -1.696150 4.275953
-1.424666 -1.662940 4.967611
-1.510169 -1.741056 5.707363
-1.611743 -1.837924 6.356060
-1.586288 -1.787270 7.112188
-1.511004 -1.686849 7.716245
-1.504532 -1.659591 8.483083
-1.471831 -1.600441 9.421178
-1.465051 -1.503118 1.684658
-1.466852 -1.488031 2.374205
-1.498697 -1.502300 3.100178
-1.548775 -1.527437 4.091438
-1.473536 -1.437997 4.756051
-1.596250 -1.542609 5.336951
-1.752365 -1.679093 5.830705
-1.765361 -1.665498 6.794020
-1.729479 -1.617015 7.370244
-1.725809 -1.590430 8.288483
-1.247779 -1.074883 0.991105
-1.612338 -1.375057 1.580061
-1.619103 -1.369380 2.079507
-1.694912 -1.413338 2.922511
-1.702686 -1.406673 3.480246
-1.659184 -1.353943 4.228866
-1.673375 -1.347474 5.031108
-1.812613 -1.441162 5.772787
-1.889767 -1.489404 6.286089
-1.868587 -1.455418 7.009584
-1.829540 -1.407095 7.794907
-1.819732 -1.382349 8.561293
-1.731358 -1.296692 9.474722
-1.735424 -1.223742 1.674040
-1.758136 -1.217654 2.701369
-1.773710 -1.218703 3.154279
-1.797059 -1.219838 3.844598
-1.657165 -1.106218 4.822891
-1.753311 -1.155530 5.538717
-2.015091 -1.315996 6.006952
-2.050076 -1.316295 6.966598
-1.950716 -1.242063 7.470172
-1.916744 -1.206077 8.159934
-1.843164 -1.054507 1.674040
-1.830817 -1.030375 2.534091
-1.859880 -1.034053 3.165956
-1.904931 -1.041009 4.053903
-1.689570 -0.916189 4.486283
-1.835089 -0.980060 5.252659
-2.159913 -1.131475 6.183953
-2.099415 -1.090883 6.612373
-2.026142 -1.036710 7.419372
-1.985886 -1.002944 8.100144
-1.881780 -0.859272 1.572939
-1.894421 -0.847189 2.526513
-1.906920 -0.844458 2.970732
-1.944602 -0.844794 3.831353
-1.856781 -0.792314 4.646377
-2.018354 -0.848163 5.303273
-2.262933 -0.938997 5.817191
-2.220609 -0.904336 6.644923
-2.189726 -0.873414 7.558210
-2.090285 -0.824190 8.085044
-2.028487 -0.784605 8.938548
-1.660379 -0.634396 9.580881
-1.849676 -0.659220 0.632613
-1.968045 -0.688029 1.364853
-1.919270 -0.656158 2.208047
-1.879858 -0.630181 2.941570
-1.892398 -0.623474 3.578384
-1.935146 -0.627102 4.175109
-1.957573 -0.621654 4.900748
-2.011381 -0.623845 5.730809
-2.101613 -0.641847 6.256639
-2.098898 -0.625048 7.134159
-1.990357 -0.582161 7.778942
-1.994825 -0.570569 8.543871
-1.933414 -0.541353 9.284581
-1.851201 -0.475704 0.491703
-2.035629 -0.512851 1.062983
-2.040435 -0.502139 1.731676
-2.006623 -0.482783 2.366508
-1.973480 -0.461402 3.156259
-2.013907 -0.456064 4.009128
-1.923218 -0.422229 4.835783
-2.118486 -0.453067 5.479900
-2.410587 -0.503243 6.035520
-2.218328 -0.453069 6.612629
-2.190398 -0.428124 7.684263
-2.098764 -0.400598 8.269802
-1.953041 -0.361814 9.007706
-1.453753 -0.262797 9.715012
-1.981100 -0.326715 -0.009429
-2.024817 -0.315577 1.064523
-1.939707 -0.296464 1.426444
-1.928050 -0.283225 2.137275
-1.906896 -0.268655 2.860753
-1.957166 -0.259205 3.876243
-1.956246 -0.252454 4.287950
-1.826769 -0.225390 4.998696
-1.993068 -0.231025 5.892793
-2.235311 -0.244370 6.664182
-2.048341 -0.217026 7.121893
-1.983390 -0.198494 7.876413
-2.016624 -0.189358 8.656169
-1.801328 -0.159430 9.409334
-1.965076 -0.124153 0.878059
-2.079338 -0.123770 1.317812
-1.957003 -0.107207 1.899732
-1.897154 -0.089336 2.843893
-1.918215 -0.078413 3.605008
-1.922342 -0.070973 4.092603
-1.899163 -0.058036 4.883996
-1.995940 -0.050467 5.526282
-2.200461 -0.041820 6.275393
-2.098936 -0.027037 7.064778
-2.035577 -0.014074 7.837050
-2.037982 -0.001930 8.602999
-1.805893 0.005847 9.206733
-1.840462 0.049527 0.758067
-2.037259 0.066516 1.451619
-1.949060 0.074978 2.165609
-1.877190 0.083434 2.902724
-1.849652 0.090110 3.430270
-1.943475 0.108272 4.281578
-2.007370 0.122914 4.954919
-1.881220 0.127340 5.777165
-1.851736 0.133563 6.338236
-2.006131 0.155956 7.013850
-1.979038 0.168516 7.957461
-1.914525 0.171693 8.551567
-1.763895 0.166179 9.175164
-1.945130 0.226526 0.169964
-2.086399 0.260365 1.166421
-1.840474 0.239677 1.829453
-1.780528 0.241559 2.489679
-1.771802 0.248210 3.024938
-1.678691 0.246717 3.868799
-1.821433 0.279676 4.650745
-2.004450 0.318120 5.250761
-1.914873 0.314714 5.952635
-1.859073 0.317688 6.764023
-1.862173 0.329815 7.532307
-1.779799 0.322770 8.078176
-1.692507 0.317518 8.883888
-1.358126 0.264059 9.844379
-1.628765 0.351066 0.761885
-1.767148 0.390074 1.366242
-1.670404 0.377009 1.951468
-1.608398 0.371144 2.548021
-1.539617 0.367735 3.505026
-1.847560 0.454931 4.335004
-2.079317 0.521235 4.820962
-1.933956 0.496121 5.526282
-1.811033 0.475973 6.286425
-1.781323 0.481767 7.195774
-1.801722 0.497938 7.894700
-1.732188 0.489865 8.682386
-1.526696 0.438403 9.264315
-1.662554 0.531034 0.931268
-1.748908 0.566992 1.460016
-1.558560 0.512900 2.012835
-1.844216 0.642593 4.127450
-2.017793 0.715899 4.802177
-1.830046 0.660806 5.524725
-1.592659 0.585574 6.298585
-1.563285 0.587460 7.212230
-1.579762 0.604995 8.015192
-1.586359 0.618683 8.807813
-1.387509 0.548702 9.484651
-1.740558 0.726478 0.473133
-1.723989 0.727733 0.965792
-1.463144 0.625388 1.527769
-1.404358 0.610197 2.268609
-1.540842 0.684600 3.273754
-1.853973 0.832341 3.717175
-1.983506 0.906798 4.538641
-1.857351 0.860810 5.199919
-1.645005 0.776690 6.129781
-1.445505 0.692386 6.878672
-1.449129 0.701592 7.413769
-1.537679 0.756710 8.220613
-1.443391 0.720201 8.962447
-1.266959 0.678296 0.546362
-1.479920 0.805193 1.371149
-1.330908 0.734041 2.086961
-1.684388 0.968544 4.253240
-1.878806 1.093161 4.855033
-1.608541 0.974351 7.119400
-1.244125 0.761143 7.776837
-1.262620 0.781496 8.446522
-1.144740 0.719006 9.347512
-1.198679 0.809096 2.110582
-1.173366 0.801843 2.825182
-1.512610 1.052351 3.823846
-1.729471 1.216197 4.413615
-1.612109 1.146222 5.075283
-1.410360 1.036728 7.106529
-1.128447 0.842229 8.120733
-1.106118 0.834137 8.775717
-0.871576 0.666531 9.747307
-1.081346 0.866599 0.451155
-1.169431 0.950510 1.301499
-1.091969 0.897430 1.977822
-1.334847 1.132684 3.901287
-1.513981 1.301529 4.668572
-0.713297 0.644037 7.958343
-1.002765 0.913470 8.446952
-0.927224 0.855367 9.299336
-0.949576 0.940747 2.358427
-0.967274 0.964539 2.761964
-1.191105 1.204607 3.609254
-1.297879 1.329382 4.379087
-1.198438 1.240923 5.073540
-0.641071 0.694475 8.115092
-0.785960 0.859952 8.717895
-0.657504 0.729669 9.705852
-0.828979 0.989438 2.023339
-0.969106 1.172105 2.817173
-1.172592 1.433304 3.430270
-1.129155 1.400241 4.309467
-0.839668 1.053395 5.079512
-0.610691 0.791614 7.178843
-0.589319 0.775402 8.128964
-0.703192 0.934818 8.737211
-0.556033 0.746385 9.417618
-0.731396 1.026485 0.423859
-0.748849 1.063660 1.126119
-0.699454 1.002881 1.679140
-0.848623 1.264409 3.888088
-0.325626 0.509116 6.851067
-0.391411 0.622762 7.865146
-0.540608 0.871344 8.567357
-0.545056 0.890328 9.356622
-0.569353 0.983200 0.483359
-0.646507 1.131345 1.193469
-0.582153 1.032803 1.932539
-0.756927 1.361804 2.650821
-0.889765 1.626223 3.449212
-0.791442 1.461545 4.007664
-0.682705 1.282735 4.937166
-0.520438 0.992079 5.745666
-0.279552 0.539174 6.454789
-0.195765 0.383077 7.262983
-0.320516 0.636538 7.993289
-0.429213 0.861866 8.520798
-0.399937 0.813638 9.226503
-0.669018 1.435097 0.190894
-0.571483 1.241922 0.806844
-0.460074 1.013847 1.471109
-0.441032 0.989562 2.317035
-0.290380 0.663392 3.186504
-0.606392 1.422090 4.301988
-0.462210 1.101423 5.071964
-0.267977 0.650408 5.984038
-0.119736 0.294624 6.680380
-0.182147 0.458550 7.691626
-0.291980 0.743603 8.148396
-0.376994 1.074563 0.647686
-0.425877 1.228813 1.116497
-0.374170 1.106711 2.069126
-0.452084 1.357943 2.631497
-0.543771 1.674815 3.525575
-0.505651 1.589210 4.267712
-0.393545 1.255710 4.858405
-0.269719 0.917870 7.217880
-0.198814 0.691205 8.022632
-0.229733 0.811706 8.559626
-0.225794 0.817332 9.397797
-0.308055 1.232035 0.924701
-0.259811 1.065719 1.665715
-0.252022 1.062347 2.442873
-0.153733 0.658243 2.914626
-0.071679 0.353763 6.774656
-0.101393 0.520698 7.745416
-0.149602 0.782479 8.138637
-0.152511 0.971388 0.174750
-0.151008 1.018395 1.241550
-0.142767 0.992483 1.786849
-0.146313 1.054803 2.415533
-0.161012 1.221215 3.248307
-0.181784 1.444355 3.963418
-0.166947 1.406448 4.854348
-0.114995 1.016528 5.612247
-0.054520 0.496758 6.129322
-0.035594 0.343703 6.961811
-0.059594 0.608570 7.645952
-0.070631 0.765280 8.350730
-0.066863 0.782749 9.257801
-0.074434 1.080297 0.000000
-0.061979 1.020562 1.018526
-0.052169 0.948922 1.740772
-0.046559 1.251818 3.947305
-0.005861 0.396497 6.962246
-0.005608 0.525394 7.479442
-0.002222 0.875959 8.479833
0.001774 0.782210 9.144188
0.020863 0.761602 0.537316
0.035854 1.079586 1.259169
0.035359 0.911364 1.966986
0.045665 1.030600 2.651663
0.065810 1.314705 3.347252
0.077705 1.406089 3.988210
0.072359 1.165094 4.878876
0.049029 0.715885 5.760742
0.028846 0.390133 6.524135
0.036094 0.453276 7.258059
0.060255 0.710730 7.880286
0.081659 0.889455 8.764158
0.070040 0.729960 9.354813
0.132707 1.084080 0.813143
0.114583 0.902377 1.382119
0.106056 0.805247 1.972492
0.090984 0.658838 2.777516
0.152942 1.054386 3.605773
0.215678 1.418720 4.422677
0.172954 1.095925 5.182909
0.081403 0.504134 5.733444
0.024581 0.145694 6.722020
0.075682 0.433212 7.435546
0.142630 0.788297 8.158155
0.149454 0.801524 8.866060
0.120651 0.624988 9.768507
0.130069 0.619360 0.029412
0.138991 0.634891 1.107659
0.181662 0.818263 1.472757
0.298610 1.225524 4.024374
0.112301 0.421489 6.903519
0.184850 0.678333 7.595810
0.242065 0.864735 8.464325
0.222765 0.778561 9.251541
0.141685 0.462346 0.226428
0.171255 0.546418 1.031410
0.233438 0.732865 1.612590
0.219614 0.675678 2.361025
0.309969 0.930798 3.251766
0.420885 1.244217 3.813965
0.113630 0.312287 6.892623
0.265550 0.712065 7.859788
0.267791 0.710664 8.311657
0.266806 0.691276 9.384139
0.128755 0.308093 0.276796
0.208082 0.487264 1.258999
0.292129 0.674074 1.927743
0.245301 0.556889 2.693085
0.350209 0.784646 3.292363
0.538024 1.182965 4.137030
0.216735 0.451063 6.972875
0.345582 0.707662 7.751485
0.415360 0.834580 8.713350
0.330799 0.656110 9.458921
0.419383 0.805402 -0.116746
0.380279 0.719518 0.653624
0.341397 0.634008 1.634399
0.354550 0.648767 2.418035
0.302815 0.548935 2.928477
0.424426 0.758786 3.655192
0.143263 0.242104 6.892063
0.302045 0.505328 7.415137
0.431951 0.713843 8.078812
0.390787 0.637088 8.903651
