-0.280372 -1.816854 4.228819
-0.281886 -1.826669 5.020489
-0.293916 -1.904622 5.841505
-0.301830 -1.955908 6.871166
-0.286379 -1.855782 7.620753
-0.283243 -1.835461 8.714934
-0.246545 -1.597650 9.624320
-0.413834 -1.719947 1.082379
-0.415273 -1.725925 1.961924
-0.429179 -1.783722 2.992111
-0.435692 -1.810790 3.955114
-0.380236 -1.580308 4.832214
-0.387072 -1.608718 5.496237
-0.454275 -1.888025 6.470745
-0.442635 -1.839645 7.413479
-0.429520 -1.785140 8.220916
-0.431884 -1.794963 9.389063
-0.578630 -1.716513 1.631972
-0.566523 -1.680598 2.420065
-0.566969 -1.681920 3.526465
-0.545598 -1.618524 4.431299
-0.610245 -1.810300 5.119787
-0.677140 -2.008746 6.135132
-0.629728 -1.868096 6.980100
-0.610788 -1.811912 8.085354
-0.602383 -1.786976 8.977123
-0.520186 -1.170022 0.063582
-0.675553 -1.519480 0.803040
-0.745156 -1.676032 1.572533
-0.734515 -1.652100 2.582551
-0.741308 -1.667378 3.522374
-0.712139 -1.601771 4.379298
-0.791340 -1.779913 5.221838
-0.876707 -1.971923 6.224462
-0.815564 -1.834397 7.045987
-0.777003 -1.747666 7.952308
-0.763125 -1.716449 8.942068
-0.901418 -1.652170 1.512277
-0.889517 -1.630358 2.567856
-0.865492 -1.586323 3.300015
-0.853357 -1.564081 4.163456
-0.903757 -1.656459 5.134439
-0.983755 -1.803083 6.204017
-0.946930 -1.735588 7.015080
-0.921252 -1.688524 8.010684
-0.903508 -1.656001 8.733323
-0.670014 -1.228040 9.908886
-1.029296 -1.521562 0.752989
-1.149909 -1.699859 1.366448
-1.031724 -1.525152 2.287199
-1.064419 -1.573483 3.198915
-1.089059 -1.609908 4.277353
-0.973119 -1.438518 4.926610
-1.015741 -1.501525 6.107670
-1.133301 -1.675308 6.983692
-1.077641 -1.593029 7.733143
-1.040602 -1.538275 8.714934
-0.911674 -1.347686 9.671344
-1.132081 -1.413338 0.683202
-1.282555 -1.601196 1.343171
-1.178942 -1.471841 2.179387
-1.163726 -1.452845 3.354638
-1.171897 -1.463046 4.083690
-1.085763 -1.355512 4.926610
-1.123399 -1.402499 5.811578
-1.249644 -1.560108 6.676844
-1.202096 -1.500748 7.588652
-1.177859 -1.470489 8.721639
-1.000817 -1.249462 9.553763
-1.253008 -1.304966 0.566154
-1.409402 -1.467845 1.588493
-1.299797 -1.353695 2.472875
-1.339772 -1.395328 3.325446
-1.314983 -1.369510 4.329051
-1.118778 -1.165170 5.178919
-1.207609 -1.257685 6.153407
-1.343286 -1.398987 6.781794
-1.300925 -1.354869 7.765405
-1.324831 -1.379767 8.861806
-0.945167 -0.984360 9.643312
-1.496981 -1.304186 1.602009
-1.416028 -1.233659 2.496248
-1.443183 -1.257316 3.385768
-1.449404 -1.262737 4.314864
-1.417505 -1.234945 5.076015
-1.498876 -1.305837 5.916348
-1.483759 -1.292667 6.801205
-1.409866 -1.228291 7.718656
-1.429281 -1.245205 8.901920
-1.024490 -0.892547 9.731551
-1.484562 -1.076826 0.554126
-1.686300 -1.223157 1.540114
-1.548659 -1.123320 2.224824
-1.670428 -1.211644 3.373943
-1.786516 -1.295849 4.145642
-1.747351 -1.267441 5.090107
-1.614421 -1.171020 5.962969
-1.561026 -1.132289 6.711768
-1.556485 -1.128996 7.588652
-1.502185 -1.089610 8.581378
-1.168875 -0.847843 9.538991
-1.611312 -0.966068 2.507934
-1.255273 -0.752604 3.397644
-1.430316 -0.857552 4.281222
-1.830681 -1.097592 5.305198
-1.651184 -0.989974 6.186982
-1.596362 -0.957105 6.926076
-1.672654 -1.002846 8.017752
-1.516984 -0.909514 8.781723
-1.538267 -0.741730 0.450149
-1.900101 -0.916201 1.574082
-1.724941 -0.831741 2.259853
-1.448919 -0.698647 3.327105
-1.701769 -0.820568 4.235597
-2.058682 -0.992666 5.098418
-1.686981 -0.813438 5.813205
-1.587647 -0.765540 6.942026
-1.645174 -0.793279 7.617807
-1.683608 -0.811811 8.773385
-1.159351 -0.559022 9.523888
-1.476785 -0.569769 0.463224
-1.825089 -0.704150 1.486302
-1.765082 -0.680999 2.296219
-1.372067 -0.529367 3.159789
-1.654959 -0.638511 4.081462
-2.222360 -0.857424 5.063395
-1.942595 -0.749486 5.867748
-1.705295 -0.657932 6.715560
-1.705954 -0.658186 7.629507
-1.759993 -0.679035 8.733323
-1.218761 -0.470219 9.494852
-1.909693 -0.546278 1.625322
-2.142573 -0.612894 4.108446
-2.264094 -0.647656 5.254278
-1.817503 -0.519906 6.120470
-1.521224 -0.435154 6.922874
-1.626944 -0.465396 7.859758
-1.797996 -0.345472 1.478944
-2.047891 -0.393487 2.612555
-2.303948 -0.442686 3.456302
-2.291393 -0.440274 4.401950
-2.246597 -0.431667 5.321384
-1.748174 -0.335899 6.231866
-1.331928 -0.255920 6.934862
-1.560170 -0.299775 7.988124
-1.683696 -0.323510 9.013011
-2.448000 -0.260128 2.624206
-2.709308 -0.287895 3.483103
-2.307304 -0.245177 4.274749
-2.108323 -0.224034 5.189016
-1.495728 -0.158938 6.067432
-1.002404 -0.106517 7.284330
-1.208506 -0.128418 8.167777
-1.500447 -0.159440 9.006884
-1.733721 -0.021416 1.564471
-2.237044 -0.027634 2.638148
-2.557333 -0.031591 3.277027
-2.217137 -0.027388 4.249998
-1.998802 -0.024691 5.227434
-1.512347 -0.018682 6.126367
-1.035288 -0.012789 6.986173
-1.389421 -0.017163 8.147313
-1.665466 -0.020573 8.900730
-7.765143 0.555177 -0.580728
-1.605370 0.114778 0.592311
-1.753514 0.125369 1.540124
-1.559045 0.111466 2.231214
-1.343414 0.096049 3.180726
-1.580917 0.113029 4.206287
-1.490001 0.106529 5.002238
-1.029558 0.073609 5.939370
-1.021388 0.073025 6.914668
-1.170586 0.083692 7.942197
-1.499320 0.107195 8.602920
-1.221145 0.087307 9.587412
-1.760236 0.280926 0.425940
-1.856561 0.296300 1.453851
-1.999654 0.319137 4.081107
-1.693178 0.270224 4.952918
-1.179452 0.188236 5.832704
-0.942117 0.150358 6.791192
-0.988989 0.157839 7.690493
-1.386389 0.221262 8.487627
-1.297685 0.207105 9.530375
-1.702570 0.435102 0.402750
-1.569839 0.401182 1.133183
-1.503188 0.384148 1.995741
-1.030883 0.263448 3.081764
-1.864916 0.476590 4.810466
-1.361087 0.347834 5.708318
-0.911851 0.233029 6.707613
-0.942405 0.240837 7.670959
-1.234638 0.315519 8.476108
-1.203312 0.307513 9.434387
-1.659162 0.580409 0.449626
-1.675313 0.586059 1.293251
-1.707964 0.597481 3.924594
-1.539241 0.538458 4.879231
-0.978893 0.342437 5.975119
-0.755002 0.264115 6.937847
-0.982497 0.343698 7.769579
-1.147813 0.401529 8.697079
-1.032960 0.361351 9.578616
-1.235087 0.560059 0.252730
-1.090794 0.494629 1.227455
-1.368520 0.620565 2.021626
-0.983515 0.445982 2.949076
-1.728026 0.783586 4.789896
-1.121419 0.508516 5.731178
-0.689624 0.312715 6.662168
-0.911839 0.413480 7.543100
-1.203164 0.545583 8.454699
-1.138166 0.516110 9.469963
-1.234523 0.699258 1.824357
-1.374119 0.778328 2.525462
-1.629431 0.922942 3.494908
-1.850905 1.048389 4.352901
-1.510614 0.855642 5.342910
-0.892652 0.505616 6.256141
-0.908014 0.514317 7.192730
-1.088558 0.616581 8.222458
-1.010473 0.572352 9.054525
-1.153988 0.785299 1.872680
-1.146396 0.780132 2.655358
-1.423013 0.968373 3.483643
-1.586616 1.079706 4.527574
-1.157949 0.787994 5.480617
-0.761568 0.518254 6.405301
-0.896186 0.609862 7.283908
-1.050892 0.715141 8.194111
-0.970159 0.660202 8.990055
-1.020467 0.830145 1.745691
-0.951367 0.773933 2.486594
-1.212085 0.986026 3.686161
-0.842449 0.685329 7.295810
-1.000190 0.813650 8.019052
-0.938845 0.763747 9.044351
-0.907495 0.887654 1.842521
-0.923095 0.902913 2.732554
-1.154773 1.129526 3.717182
-1.225367 1.198577 4.489958
-0.798777 0.781313 5.431880
-0.369318 0.361244 6.402888
-0.632117 0.618297 7.600223
-0.983952 0.962439 8.345797
-0.897999 0.878366 9.381669
-0.771997 0.900304 1.631971
-0.710117 0.828140 2.733210
-0.993803 1.158975 3.558702
-1.110244 1.294769 4.407833
-0.713121 0.831643 5.458770
-0.392823 0.458111 6.304331
-0.585516 0.682830 7.241006
-0.855072 0.997186 8.149329
-0.808860 0.943294 9.198581
-0.351190 0.493487 0.160835
-0.458761 0.644644 0.975132
-0.713285 1.002296 2.081926
-0.642017 0.902152 2.983081
-0.765681 1.075923 3.790306
-0.805721 1.132186 4.511878
-0.565020 0.793957 5.498152
-0.571982 0.803740 6.505451
-0.727053 1.021643 7.389670
-0.786463 1.105125 8.374181
-0.670674 0.942420 9.154696
-0.269921 0.457810 0.305751
-0.376736 0.638978 1.000233
-0.612406 1.038696 2.094991
-0.602039 1.021111 3.025466
-0.617490 1.047318 3.739674
-0.581750 0.986700 4.813822
-0.456170 0.773706 5.689968
-0.501026 0.849785 6.505451
-0.654497 1.110085 7.591148
-0.679674 1.152787 8.279533
-0.572027 0.970209 9.372367
-0.483804 1.010769 1.872661
-0.469084 0.980016 2.661801
-0.486611 1.016633 3.579649
-0.477631 0.997873 4.445190
-0.378401 0.790560 5.316205
-0.257584 0.538149 6.256192
-0.399849 0.835370 7.248877
-0.585456 1.223142 8.239365
-0.522677 1.091984 9.168153
-0.385974 1.035837 -0.031337
-0.467906 1.255716 0.915598
-0.391453 1.050539 1.884553
-0.361187 0.969316 2.629097
-0.378910 1.016879 3.678967
-0.392759 1.054043 4.623602
-0.316382 0.849072 5.555311
-0.221703 0.594983 6.520862
-0.340348 0.913391 7.388025
-0.483631 1.297918 8.258342
-0.429512 1.152677 9.139276
-0.288717 1.057417 1.885633
-0.274396 1.004967 2.748249
-0.287167 1.051738 3.738476
-0.289495 1.060266 4.373804
-0.233939 0.856793 5.411867
-0.168203 0.616036 6.372949
-0.263238 0.964101 7.383862
-0.363647 1.331845 8.234699
-0.322041 1.179462 9.103684
-0.181143 0.967982 1.603672
-0.183648 0.981370 2.439805
-0.186525 0.996744 3.420951
-0.182123 0.973222 4.288362
-0.164734 0.880296 5.471643
-0.144303 0.771121 6.156224
-0.199234 1.064656 7.125099
-0.235960 1.260909 7.983509
-0.217662 1.163130 9.037562
-0.091995 1.050710 1.458004
-0.086683 0.990040 2.356319
-0.086683 0.990043 3.482541
-0.086359 0.986343 4.288362
-0.070495 0.805145 5.166542
-0.063578 0.726151 6.298652
-0.090850 1.037628 7.180816
-0.107670 1.229737 7.857584
-0.100897 1.152377 8.783088
-0.006830 0.961505 0.732539
-0.008185 1.152323 1.383365
-0.007274 1.024007 2.450332
-0.008377 1.179353 3.288544
-0.008430 1.186810 4.245099
-0.005711 0.803993 5.130607
-0.004047 0.569726 6.063563
-0.006707 0.944262 7.049728
-0.009491 1.336211 7.717052
0.621661 7.609956 -0.603318
0.092332 1.130272 0.563168
0.106030 1.297953 1.378606
0.090771 1.111159 2.278231
0.112555 1.377822 3.320772
0.114629 1.403216 3.925575
0.085229 1.043310 5.053956
0.067091 0.821285 6.077454
0.082305 1.007518 6.831222
0.107215 1.312458 7.891612
0.098706 1.208296 8.549813
0.061761 0.756042 9.564376
0.150384 0.869772 0.446823
0.161537 0.934277 1.246441
0.201278 1.164120 2.108069
0.210878 1.219647 3.057584
0.226234 1.308461 3.873166
0.248429 1.436826 4.683750
0.184728 1.068402 5.569013
0.102666 0.593782 6.808748
0.153088 0.885409 7.536194
0.218689 1.264822 8.523507
0.165160 0.955231 9.356158
0.224596 0.851362 0.088084
0.235478 0.892611 1.247152
0.311720 1.181614 1.903966
0.336508 1.275577 2.778340
0.344799 1.307006 3.859114
0.388071 1.471036 4.569642
0.330448 1.252606 5.445788
0.172386 0.653450 6.625351
0.244401 0.926433 7.587413
0.353042 1.338254 8.516077
0.282105 1.069358 9.277215
0.581326 1.630180 0.168461
0.458418 1.285515 0.903244
0.382958 1.073908 1.740835
0.446848 1.253071 2.551904
0.508968 1.427269 3.417300
0.481813 1.351119 4.459475
0.354200 0.993264 5.330879
0.217596 0.610192 6.261197
0.318034 0.891844 7.220916
0.453213 1.270920 8.203877
0.402381 1.128374 8.985001
0.581580 1.254862 2.596255
0.673015 1.452149 3.221259
0.649447 1.401297 4.305365
0.490767 1.058917 5.220707
0.310405 0.669754 6.003769
0.394846 0.851952 7.173151
0.528156 1.139591 7.976171
0.509049 1.098363 8.796946
0.604126 1.054263 1.737842
0.720109 1.256666 2.426542
0.824092 1.438128 3.311513
0.752626 1.313411 4.248922
0.565815 0.987407 5.188019
0.329337 0.574728 6.185583
0.358422 0.625484 7.233527
0.576665 1.006341 8.006099
0.616352 1.075599 9.062986
0.691018 0.986263 1.441130
0.874444 1.248060 2.434127
1.035382 1.477762 3.264897
0.931095 1.328917 4.333194
0.775981 1.107529 5.294532
0.634220 0.905198 6.281206
0.515732 0.736085 7.081584
0.620709 0.885914 7.995848
0.686119 0.979272 8.849393
0.954817 1.134112 0.428915
1.173643 1.394030 3.169398
1.074060 1.275748 4.020465
1.029580 1.222915 5.037798
0.765154 0.908835 5.785210
0.340359 0.404271 6.820184
0.494188 0.586987 7.657541
0.795912 0.945369 8.668458
0.627861 0.745761 9.617350
1.017484 1.006230 0.228677
0.956829 0.946246 1.152241
1.006729 0.995594 1.753486
1.284436 1.270229 2.947030
1.350639 1.335700 3.810377
1.339017 1.324206 4.661385
1.093303 1.081210 5.367574
0.510543 0.504896 6.398230
0.497276 0.491775 7.558076
0.829298 0.820125 8.312333
0.914748 0.904630 9.164541
1.340634 1.133339 -0.089468
1.138093 0.962116 0.924225
1.122426 0.948872 1.845848
1.348142 1.139686 2.702733
1.524534 1.288804 3.473095
1.304371 1.102684 4.431299
0.995018 0.841164 5.505008
0.876658 0.741106 6.226544
0.711141 0.601181 7.125378
0.798577 0.675098 8.076347
0.916739 0.774989 8.996872
1.110640 0.781131 1.542623
1.337161 0.940447 2.616567
1.663552 1.170004 3.622460
1.526887 1.073885 4.261436
1.154222 0.811783 5.155520
1.094559 0.769822 8.144717
0.957857 0.673677 8.978176
1.303483 0.756889 0.405093
1.428383 0.829415 1.355753
1.306407 0.758587 2.186651
1.613122 0.936686 3.072205
1.629371 0.946121 3.917764
1.388720 0.806383 4.882043
1.219531 0.708141 5.936124
0.637602 0.370234 6.861679
0.699389 0.406112 7.749092
1.174042 0.681727 8.767226
0.950280 0.551796 9.714905
1.173372 0.544592 1.070651
1.475760 0.684938 2.004032
1.936322 0.898696 2.982852
1.923508 0.892749 3.755580
1.226682 0.569334 4.635367
0.965235 0.447990 5.801673
0.606468 0.281477 6.577291
0.651325 0.302297 7.666121
1.177541 0.546527 8.336287
1.131233 0.525034 9.458105
1.673529 0.607967 0.109701
1.658431 0.602482 0.883198
1.761913 0.640076 3.518283
2.112207 0.767333 4.539738
1.757992 0.638652 5.409322
1.245994 0.452651 6.406623
1.053290 0.382644 7.351159
1.108740 0.402788 8.113013
1.229551 0.446677 9.024004
1.310096 0.350101 0.240901
1.349603 0.360658 1.198183
1.715518 0.458443 1.973638
2.180473 0.582694 2.939373
2.148905 0.574258 3.793169
1.887411 0.504378 4.842672
1.541487 0.411936 5.814880
1.091484 0.291680 6.617885
1.056651 0.282372 7.637475
1.279560 0.341941 8.601569
1.125489 0.300768 9.314343
1.803894 0.313199 0.203166
1.565614 0.271828 0.863264
1.886018 0.327457 3.691412
2.237419 0.388469 4.525503
1.248008 0.216684 8.170406
1.328091 0.230588 9.213382
1.304208 0.108619 0.537225
1.570233 0.130774 1.322807
1.849434 0.154027 2.544472
2.318093 0.193059 3.201954
2.259423 0.188173 3.987850
2.020588 0.168282 5.046724
1.843288 0.153515 5.828260
1.544663 0.128645 7.036797
1.379414 0.114882 7.842739
1.314268 0.109457 8.701159
0.784265 0.065316 9.809508
1.380908 -0.009878 0.217119
1.417380 -0.010139 1.020325
1.498301 -0.010718 1.927313
1.056554 -0.007558 2.974582
2.263573 -0.016192 4.690320
1.866530 -0.013352 5.576143
1.528800 -0.010936 6.581423
1.395771 -0.009985 7.329084
1.440938 -0.010308 8.284403
1.400197 -0.010016 9.338212
1.553939 -0.135455 1.594380
1.875775 -0.163509 2.578047
2.281998 -0.198919 3.390928
2.322107 -0.202416 4.378826
2.098846 -0.182954 5.285041
1.556067 -0.135641 6.119349
1.277388 -0.111349 6.946703
1.493477 -0.130185 8.053494
1.428104 -0.124486 8.764174
1.536894 -0.274699 0.710726
1.601363 -0.286222 1.356540
1.624962 -0.290440 2.462341
1.476526 -0.263909 3.216917
1.762978 -0.315109 4.257146
2.077716 -0.371364 4.895541
1.702030 -0.304215 5.868549
1.499652 -0.268043 7.029035
1.473222 -0.263319 7.761540
1.351177 -0.241505 8.714982
0.953785 -0.170476 9.706273
1.264406 -0.341947 0.620114
1.516456 -0.410112 1.158037
1.563045 -0.422711 2.346209
1.392273 -0.376527 3.114392
1.703851 -0.460791 3.987735
2.082833 -0.563283 4.866617
1.722494 -0.465833 5.717898
1.478316 -0.399797 6.761954
1.492178 -0.403546 7.752705
1.419630 -0.383926 8.695276
1.199551 -0.324407 9.670446
1.552257 -0.575327 0.063033
1.729066 -0.640860 1.080490
1.574452 -0.583554 2.048673
1.668957 -0.618581 2.925317
1.863099 -0.690538 3.661658
1.899749 -0.704122 4.586938
1.748803 -0.648175 5.564454
1.565902 -0.580385 6.511864
1.506604 -0.558407 7.523444
1.397202 -0.517858 8.275005
1.303424 -0.483100 9.290940
1.406743 -0.664472 0.180921
1.578625 -0.745659 1.153343
1.517762 -0.716911 2.036933
1.517747 -0.716904 2.908631
1.483122 -0.700549 3.715034
1.606059 -0.758618 4.601923
1.645040 -0.777031 5.403881
1.490961 -0.704252 6.370915
1.481393 -0.699732 7.263892
1.471179 -0.694908 8.456127
1.263056 -0.596601 9.202995
1.755821 -1.020268 0.167286
1.676084 -0.973934 0.832923
1.438165 -0.835685 1.684651
1.412841 -0.820970 2.604814
1.501738 -0.872626 3.671272
1.558651 -0.905696 4.374229
1.551589 -0.901593 5.407005
1.556998 -0.904736 6.372387
1.507866 -0.876187 7.137631
1.438925 -0.836127 8.119998
1.264458 -0.734748 8.905816
1.378692 -0.985258 1.836256
1.355068 -0.968376 2.709011
1.430947 -1.022601 3.633990
1.465696 -1.047434 4.362522
1.541941 -1.101921 5.406192
1.537172 -1.098513 6.287614
1.459009 -1.042655 7.129441
1.395782 -0.997471 8.122465
1.301316 -0.929963 8.951200
1.340740 -1.143112 1.645590
1.342229 -1.144382 2.679299
1.366696 -1.165242 3.477588
1.417888 -1.208888 4.474385
1.452165 -1.238113 5.309651
1.456090 -1.241459 6.105257
1.362920 -1.162023 6.961459
1.320809 -1.126119 8.094377
1.265556 -1.079010 9.011521
1.294764 -1.322876 2.462622
1.328783 -1.357634 3.198915
1.299282 -1.327492 4.167911
1.270745 -1.298335 5.178473
1.316474 -1.345058 6.062050
1.335133 -1.364121 6.906424
1.264700 -1.292159 7.657296
1.242224 -1.269195 8.816868
0.931495 -0.951719 9.725189
1.115735 -1.340839 1.094731
1.126747 -1.354072 2.197455
1.157536 -1.391073 2.993851
1.183163 -1.421871 3.814808
1.027251 -1.234503 4.655848
1.078940 -1.296620 5.742834
1.227665 -1.475351 6.653400
1.214160 -1.459121 7.593015
1.158926 -1.392744 8.359111
1.034702 -1.243457 9.279053
0.989507 -1.454072 2.597273
1.006218 -1.478628 3.383911
1.018964 -1.497359 4.207864
1.043716 -1.533732 5.078956
1.083121 -1.591637 6.186982
1.040816 -1.529470 6.855922
1.041074 -1.529849 7.891286
0.888289 -1.556390 2.301571
0.915217 -1.603571 3.155861
0.905589 -1.586702 3.840424
0.810303 -1.419750 4.914490
0.833037 -1.459581 5.695877
0.943353 -1.652869 6.548306
0.940924 -1.648613 7.448524
0.936671 -1.641160 8.623209
0.816472 -1.430557 9.297292
0.551307 -1.211214 0.181863
0.723399 -1.589296 1.165065
0.737929 -1.621218 2.090771
0.744781 -1.636273 2.818254
0.752581 -1.653408 3.723409
0.671190 -1.474595 4.785191
0.694933 -1.526756 5.672397
0.753391 -1.655187 6.321910
0.749905 -1.647531 7.379454
0.791270 -1.738408 8.339994
0.724655 -1.592056 9.177176
0.595634 -1.688285 2.701163
0.600100 -1.700942 3.571248
0.572182 -1.621811 4.299734
0.596174 -1.689816 5.181468
0.627286 -1.777998 6.085419
0.634650 -1.798874 7.206503
0.624983 -1.771473 8.176449
0.590776 -1.674513 8.939069
0.442660 -1.739307 2.771420
0.446077 -1.752733 3.629776
0.424170 -1.666657 4.299734
0.450535 -1.770251 5.260384
0.486840 -1.912899 6.346692
0.477530 -1.876320 7.225696
0.451937 -1.775759 7.930909
0.444615 -1.746990 9.067883
0.285078 -1.767732 1.738317
0.280478 -1.739208 2.644146
0.287168 -1.780690 3.571248
0.280238 -1.737715 4.449613
0.288489 -1.788881 5.345365
0.306515 -1.900659 6.186982
0.307532 -1.906963 7.046520
0.307286 -1.905441 8.045702
0.138838 -1.776991 2.114196
0.141349 -1.809131 3.064076
0.142573 -1.824805 4.146933
0.138220 -1.769083 4.815503
0.146754 -1.878306 5.895008
0.150864 -1.930919 6.602884
0.150585 -1.927344 7.647014
0.147101 -1.882756 8.489798
0.131092 -1.677852 9.461712
-0.021411 -1.768319 1.058947
-0.021164 -1.747963 1.916179
-0.021638 -1.787083 3.030724
-0.021957 -1.813463 3.688299
-0.019490 -1.609708 4.691127
-0.020554 -1.697511 5.633927
-0.023683 -1.955983 6.564079
-0.022690 -1.873943 7.308316
-0.022663 -1.871745 8.274657
-0.020320 -1.678258 9.204578
-0.166040 -1.647384 0.168755
-0.187838 -1.863657 1.231805
-0.183411 -1.819728 2.041543
-0.183100 -1.816641 2.863420
-0.191562 -1.900603 3.644705
-0.171406 -1.700623 4.680312
-0.171054 -1.697128 5.501642
-0.202884 -2.012938 6.506120
-0.197362 -1.958147 7.412352
-0.190618 -1.891237 8.160084
-0.182082 -1.806541 9.248675
-0.360058 -1.871090 0.039310
-0.375800 -1.952895 0.843606
-0.343439 -1.784728 1.784118
-0.348149 -1.809205 2.733113
-0.361344 -1.877776 3.668059
-0.324135 -1.684414 4.501688
-0.327241 -1.700554 5.307734
-0.373788 -1.942442 6.203148
-0.360089 -1.871250 7.194825
-0.367211 -1.908261 8.248772
-0.342049 -1.777502 9.103000
-0.519924 -1.811026 1.570701
-0.490308 -1.707868 2.478636
-0.505029 -1.759144 3.274700
-0.506329 -1.763673 4.193727
-0.539705 -1.879928 5.078858
-0.578577 -2.015331 6.150321
-0.548216 -1.909574 7.073369
-0.526573 -1.834187 7.928953
-0.490227 -1.707586 8.694735
-0.373320 -1.300366 9.931862
-0.691505 -1.785788 1.721585
-0.653645 -1.688015 2.617666
-0.664838 -1.716921 3.415073
-0.665506 -1.718646 4.275605
-0.706262 -1.823898 5.078858
-0.756528 -1.953707 5.960778
-0.711269 -1.836827 6.812866
-0.679791 -1.755538 7.788776
-0.695980 -1.797344 8.931854
-0.507307 -1.310103 9.708789
-0.838523 -1.745348 1.627222
-0.811254 -1.688590 2.414440
-0.828083 -1.723618 3.362415
-0.819149 -1.705023 4.258962
-0.798087 -1.661183 5.187174
-0.834338 -1.736638 6.020029
-0.862742 -1.795760 6.952763
-0.808834 -1.683552 7.706967
-0.811490 -1.689080 8.796761
-0.693827 -1.444169 9.788173
-0.929587 -1.550572 0.460808
-0.963299 -1.606804 1.243493
-0.932376 -1.555225 2.230013
-0.943344 -1.573519 2.992111
-0.967709 -1.614160 3.894395
-0.840533 -1.402027 4.688423
-0.923156 -1.539845 5.799869
-1.025742 -1.710961 6.486578
-0.999420 -1.667054 7.705363
-0.978213 -1.631682 8.559886
-0.877916 -1.464383 9.456345
-1.117580 -1.543824 0.202811
-1.214817 -1.678147 1.179527
-1.126964 -1.556787 1.885037
-1.079919 -1.491799 2.721417
-1.082848 -1.495844 3.779725
-1.075141 -1.485199 4.666793
-1.138145 -1.572233 5.566468
-1.161528 -1.604534 6.393328
-1.123181 -1.551561 7.253212
-1.146468 -1.583729 8.440226
-1.029832 -1.422609 9.089937
-1.324911 -1.538924 0.155641
-1.414347 -1.642807 1.025876
-1.258099 -1.461320 2.025117
-1.220303 -1.417420 2.778278
-1.249591 -1.451438 3.703089
-1.235112 -1.434620 4.518521
-1.281551 -1.488561 5.551580
-1.341922 -1.558683 6.560549
-1.287052 -1.494950 7.291506
-1.259231 -1.462635 8.311872
-1.173173 -1.362677 9.166736
-1.603893 -1.549999 0.073782
-1.524326 -1.473106 1.108425
-1.346449 -1.301206 1.898925
-1.329202 -1.284538 2.826673
-1.412318 -1.364862 3.687118
-1.461540 -1.412430 4.409644
-1.206479 -1.165939 5.278639
-1.201004 -1.160649 6.343773
-1.375405 -1.329189 7.085614
-1.381315 -1.334901 8.132057
-1.359739 -1.314050 9.122491
-1.391010 -1.127315 0.929525
-1.466917 -1.188832 1.675857
-1.422954 -1.153203 2.557652
-1.377441 -1.116318 3.503036
-1.527704 -1.238095 4.498992
-1.614154 -1.308157 5.253224
-1.550037 -1.256195 6.319714
-1.481498 -1.200649 7.050581
-1.419700 -1.150566 8.040778
-1.423352 -1.153526 9.086115
-1.542352 -1.036630 1.548234
-1.495994 -1.005473 2.488903
-1.137448 -0.764490 3.488251
-1.338047 -0.899315 4.476822
-1.775164 -1.193106 5.340045
-1.635371 -1.099149 6.323371
-1.571832 -1.056444 7.124743
-1.575757 -1.059082 8.148404
-1.408993 -0.946998 8.808479
-1.778794 -0.978996 -0.019028
-1.654290 -0.910473 0.822213
-1.642249 -0.903846 1.945674
-1.651418 -0.908892 2.613100
-1.579329 -0.869216 3.559541
-1.794561 -0.987674 4.560989
-1.926259 -1.060157 5.415025
-1.610374 -0.886303 6.283178
-1.562503 -0.859956 7.371979
-1.655554 -0.911168 8.101677
-1.514883 -0.833747 8.960983
-1.768178 -0.775651 1.475499
-2.043471 -0.896415 4.389099
-2.106879 -0.924230 5.014449
-1.645004 -0.721618 5.990608
-1.478771 -0.648696 7.122835
-1.647596 -0.722755 7.888628
-1.892002 -0.657669 1.391353
-2.116787 -0.735805 4.235924
-2.247371 -0.781197 5.040297
-1.816757 -0.631513 5.996682
-1.491445 -0.518434 6.742455
-1.644847 -0.571757 7.850776
-1.641536 -0.570606 8.629360
-1.135803 -0.394811 9.604663
-1.941858 -0.483684 1.333091
-2.171234 -0.540817 4.201161
-2.302101 -0.573414 4.982545
-1.858465 -0.462912 5.938308
-1.257160 -0.313137 7.029631
-1.342357 -0.334358 7.696477
-1.674035 -0.416974 8.692928
-1.127924 -0.280947 9.538775
1.144095 -0.045481 2.365549
1.554527 -0.061797 3.703356
2.006533 -0.079765 4.705202
1.668192 -0.066315 5.647072
1.248304 -0.049624 6.601094
1.086614 -0.043196 7.662528
0.992936 -0.039472 8.781343
0.751436 -0.029872 9.539021
1.831652 -0.217129 1.272232
1.193721 -0.141507 2.101025
1.283937 -0.152201 3.439982
1.736585 -0.205859 4.415154
1.658446 -0.196597 5.537331
1.275494 -0.151200 6.437896
1.073084 -0.127206 7.564232
1.032176 -0.122357 8.656384
0.885956 -0.105024 9.619034
0.933843 -0.195914 0.559203
1.130835 -0.237241 1.918683
1.161746 -0.243726 2.825771
1.517016 -0.318259 4.287510
1.759284 -0.369085 5.226376
1.373816 -0.288217 6.244552
1.146029 -0.240429 7.229825
1.139377 -0.239033 8.220070
1.011627 -0.212232 9.172078
1.030592 -0.295341 0.600722
1.184551 -0.339462 1.762915
1.106087 -0.316976 2.687209
1.305342 -0.374077 3.760344
1.398737 -0.400842 5.153534
1.387017 -0.397484 6.070336
1.197461 -0.343162 7.111217
1.174646 -0.336623 8.037600
1.063725 -0.304836 9.027459
0.483338 -0.138512 10.071455
1.244717 -0.471701 1.782295
1.185359 -0.449206 2.646346
1.253366 -0.474978 3.730318
1.277979 -0.484306 5.094540
1.287835 -0.488041 5.908649
1.200339 -0.454883 6.924694
1.144593 -0.433757 8.025931
1.068123 -0.404778 8.961158
0.519760 -0.196970 9.861288
1.288687 -0.605303 1.580830
1.111398 -0.522029 2.863522
1.237928 -0.581461 3.725451
1.169683 -0.549406 4.877809
1.148654 -0.539528 5.932838
1.145421 -0.538010 7.139465
1.143529 -0.537121 7.948736
1.061248 -0.498473 8.930002
0.588481 -0.276412 9.910127
1.248567 -0.716988 1.611926
1.122245 -0.644448 2.730853
1.233452 -0.708308 3.715760
1.155010 -0.663263 4.925026
1.126139 -0.646684 5.804662
1.161177 -0.666805 7.154229
1.148626 -0.659597 8.031992
1.009729 -0.579836 9.144166
0.631027 -0.362366 9.896482
1.098728 -0.752675 1.304344
0.982367 -0.672963 2.302901
1.045340 -0.716102 3.621643
1.145386 -0.784638 4.604750
1.123348 -0.769541 5.536946
1.157821 -0.793156 6.597521
1.157073 -0.792644 7.745740
1.071930 -0.734317 8.770880
0.795914 -0.545235 9.641284
0.981258 -0.797702 2.069546
1.015834 -0.825810 3.116161
1.094579 -0.889825 4.324699
1.111027 -0.903196 5.565978
1.131298 -0.919676 6.463448
1.087929 -0.884419 7.480749
1.047287 -0.851380 8.468205
0.898026 -0.730040 9.358247
0.991855 -0.945177 1.743533
0.934983 -0.890982 2.653659
0.958337 -0.913236 3.976499
0.954895 -0.909956 4.772991
0.971639 -0.925912 5.949581
1.040836 -0.991853 6.920109
0.948696 -0.904049 7.969326
0.935511 -0.891485 8.972875
0.635423 -0.605519 10.096224
0.809684 -0.907849 2.221181
0.805565 -0.903230 3.365654
0.896448 -1.005132 4.369942
0.936851 -1.050433 5.560177
0.986264 -1.105837 6.590028
0.986949 -1.106605 7.724742
0.939727 -1.053658 8.550472
0.749843 -0.840752 9.747617
0.677336 -0.897154 1.934408
0.751711 -0.995666 3.059936
0.882080 -1.168344 4.127319
0.917970 -1.215881 5.293467
0.940250 -1.245393 6.230807
0.885264 -1.172562 7.397409
0.878299 -1.163336 8.283412
0.785699 -1.040685 9.391926
0.787458 -1.242091 1.519081
0.687723 -1.084774 2.676962
0.752844 -1.187493 3.773845
0.735393 -1.159967 4.762154
0.731695 -1.154134 5.955162
0.798943 -1.260207 7.028037
0.734440 -1.158464 8.052484
0.693452 -1.093811 9.116532
0.498990 -0.787078 10.067443
0.512812 -0.959241 1.482242
0.553114 -1.034628 2.527979
0.616518 -1.153229 3.570212
0.570517 -1.067181 4.495902
0.580356 -1.085586 5.764364
0.700765 -1.310817 6.809166
0.652623 -1.220764 7.982724
0.654674 -1.224602 8.845056
0.490754 -0.917981 9.819288
0.662846 -1.504382 1.474115
0.497890 -1.129999 2.329518
0.511629 -1.161181 3.433075
0.452467 -1.026908 4.635201
0.521459 -1.183491 5.717440
0.628901 -1.427339 6.703617
0.605834 -1.374987 7.620383
0.566837 -1.286481 8.895510
0.482225 -1.094446 9.792992
0.647511 -1.861533 1.443559
0.387077 -1.112809 2.427139
0.402388 -1.156826 3.496161
0.394545 -1.134279 4.530923
0.427044 -1.227710 5.472927
0.500580 -1.439120 6.514151
0.500249 -1.438168 7.648237
0.469370 -1.349394 8.601069
0.381471 -1.096693 9.680943
0.508910 -1.952787 1.382866
0.314170 -1.205531 2.294525
0.326711 -1.253656 3.251325
0.316057 -1.212774 4.332569
0.328324 -1.259846 5.571916
0.391046 -1.500522 6.507865
0.392417 -1.505781 7.606586
0.369326 -1.417177 8.690525
0.306669 -1.176748 9.474282
0.221180 -1.280625 2.042203
0.221689 -1.283568 3.316556
0.237885 -1.377345 4.470556
0.254954 -1.476172 5.397782
0.262627 -1.520602 6.542607
0.260272 -1.506968 7.481313
0.242965 -1.406756 8.457549
0.208587 -1.207713 9.582890
0.122827 -1.312544 1.983975
0.121048 -1.293539 3.328203
0.132527 -1.416198 4.377612
0.141683 -1.514037 5.305054
0.137826 -1.472829 6.601627
0.137077 -1.464820 7.518192
0.134871 -1.441249 8.640013
0.124039 -1.325495 9.550531
0.030808 -2.124024 1.304249
0.018977 -1.308368 2.096403
0.019485 -1.343383 3.265337
0.019543 -1.347395 4.270407
0.019980 -1.377513 5.577629
0.022625 -1.559896 6.582617
0.022600 -1.558156 7.462918
0.020826 -1.435863 8.709670
0.018280 -1.260304 9.516479
-0.123523 -1.860093 1.291830
-0.084499 -1.272449 2.367764
-0.086598 -1.304053 3.481824
-0.089191 -1.343105 4.568859
-0.095754 -1.441928 5.618205
-0.102700 -1.546530 6.749931
-0.104441 -1.572749 7.634424
-0.100472 -1.512984 8.532303
-0.085157 -1.282353 9.520070
-0.262448 -1.750094 1.182202
-0.200267 -1.335449 2.212243
-0.205363 -1.369428 3.302597
-0.210487 -1.403598 4.389227
-0.216699 -1.445023 5.658788
-0.239300 -1.595733 6.690880
-0.237053 -1.580750 7.518727
-0.218873 -1.459519 8.775789
-0.194517 -1.297106 9.512017
-0.391578 -1.677204 1.320519
-0.318315 -1.363402 2.138420
-0.314154 -1.345579 3.402566
-0.325502 -1.394187 4.342772
-0.352273 -1.508852 5.398001
-0.374197 -1.602757 6.540625
-0.356861 -1.528504 7.669145
-0.351689 -1.506349 8.501729
-0.295526 -1.265792 9.593542
-0.398389 -1.259983 2.471604
-0.418596 -1.323890 3.379316
-0.413097 -1.306498 4.575182
-0.456834 -1.444825 5.647115
-0.494678 -1.564516 6.563734
-0.466457 -1.475260 7.652904
-0.456386 -1.443409 8.698677
-0.379481 -1.200181 9.528138
-0.547903 -1.345936 2.385135
-0.535296 -1.314967 3.451289
-0.563616 -1.384535 4.396916
-0.592787 -1.456193 5.623924
-0.637090 -1.565025 6.574297
-0.595101 -1.461878 7.490835
-0.557876 -1.370434 8.752590
-0.485082 -1.191614 9.686741
-1.060749 -2.104533 1.167931
-0.683499 -1.356067 1.933242
-0.626311 -1.242605 3.279349
-0.668336 -1.325983 4.145489
-0.712940 -1.414478 5.467656
-0.790203 -1.567769 6.274445
-0.726754 -1.441884 7.305760
-0.664430 -1.318234 8.322514
-0.598814 -1.188052 9.383951
-0.816033 -1.338621 0.475364
-0.884932 -1.451644 1.621325
-0.744635 -1.221500 2.797719
-0.763462 -1.252383 3.928421
-0.762205 -1.250322 4.810254
-0.790027 -1.295961 5.855549
-0.802171 -1.315881 7.038053
-0.767372 -1.258798 8.046984
-0.739779 -1.213534 8.957534
-0.945648 -1.316190 1.543459
-0.820765 -1.142373 2.790458
-0.856102 -1.191557 3.740929
-0.934417 -1.300558 4.980902
-1.011842 -1.408321 5.808521
-0.947306 -1.318497 6.886169
-0.887525 -1.235293 7.791914
-0.831965 -1.157961 9.089176
-0.523024 -0.727965 9.955096
-0.965414 -1.141417 1.604465
-0.941251 -1.112849 2.539276
-0.917298 -1.084529 3.539493
-1.029411 -1.217082 4.707800
-1.114800 -1.318038 5.952557
-1.016838 -1.202216 6.875966
-0.958067 -1.132731 7.856904
-0.943355 -1.115337 8.868606
-0.580438 -0.686257 9.751842
-1.116161 -1.107780 1.372779
-0.994668 -0.987199 2.636422
-0.832840 -0.826586 3.494107
-0.983924 -0.976536 4.914037
-1.077274 -1.069185 5.745567
-0.891760 -0.885063 6.809646
-1.015926 -1.008297 8.003267
-0.999129 -0.991626 8.883891
-0.628773 -0.624051 9.845916
-1.080422 -0.927177 2.312100
-0.504527 -0.432965 3.272201
-1.379767 -1.184063 5.670286
-1.176207 -1.009375 6.749931
-1.116118 -0.957810 7.926502
-1.094119 -0.938931 8.674839
-0.753566 -0.646682 9.800752
-1.111454 -0.795955 2.409218
-0.906777 -0.649378 3.515474
-1.190530 -0.852584 4.810254
-1.489097 -1.066400 5.722086
-1.220526 -0.874065 6.618461
-1.140289 -0.816605 7.745740
-1.164405 -0.833875 8.732892
-0.859708 -0.615670 9.522890
-1.155795 -0.705526 2.366864
-1.423205 -0.868759 3.585146
-1.761019 -1.074969 4.890651
-1.565645 -0.955708 5.710583
-1.179869 -0.720221 7.717887
-1.050723 -0.641387 8.723831
-0.785469 -0.479469 9.599034
-1.071652 -0.541490 2.523662
-1.483209 -0.749444 3.695942
-1.863066 -0.941381 4.896901
-1.530941 -0.773563 5.889247
-1.110027 -0.560881 7.643549
-1.081828 -0.546632 8.840525
-0.777212 -0.392714 9.771942
-1.173988 -0.478674 2.224566
-1.941113 -0.791457 4.862604
-1.709135 -0.696872 5.555257
-0.934455 -0.381009 7.538504
-0.836212 -0.340952 8.561501
-0.847994 -0.345756 9.454450
-1.219690 -0.386660 2.022923
-1.525919 -0.483739 3.365533
-1.882597 -0.596811 4.733248
-1.707829 -0.541407 5.566563
-0.810958 -0.257086 7.435154
-0.706912 -0.224102 8.316236
-0.862515 -0.273430 9.356791
-1.168104 -0.271701 1.945686
-0.895558 -0.208307 2.847668
-1.707762 -0.397226 5.300996
-0.858457 -0.199677 7.147967
-0.590196 -0.137280 8.219898
-0.795161 -0.184955 9.271495
-1.077734 -0.160146 0.777709
-1.139182 -0.169277 1.930371
-0.937362 -0.139288 2.753685
-1.525504 -0.226683 5.113691
-0.619984 -0.092127 7.146544
-0.583127 -0.086650 8.168269
-0.812755 -0.120772 9.236158
-1.179077 -0.079594 0.665599
-1.162101 -0.078448 1.727964
-0.904806 -0.061079 2.715755
-1.404357 -0.094802 4.931800
-0.350627 -0.023669 6.993099
-0.480513 -0.032437 7.916905
-0.802801 -0.054193 9.016557
-0.575250 0.008245 0.132243
-0.875750 0.012552 2.732059
-1.406829 0.020163 4.832686
-0.407560 0.005841 6.967224
-0.470956 0.006750 7.976268
-0.612457 0.008778 8.950378
-0.290171 0.026493 0.258762
-0.906643 0.082776 2.704000
-1.357142 0.123907 5.007059
-0.483382 0.044133 6.710841
-0.481009 0.043916 8.051861
-0.606311 0.055356 8.974050
-0.768266 0.135025 2.445606
-1.447854 0.254464 4.687986
-0.533892 0.093833 6.561741
-0.536802 0.094344 7.707851
-0.634898 0.111585 8.906921
-0.539601 0.139821 2.234460
-1.510944 0.391514 4.736244
-0.484660 0.125585 6.515830
-0.793215 0.205537 7.465775
-0.685090 0.177520 8.516920
-0.434329 0.150857 1.877926
-1.297526 0.450675 4.464174
-0.751096 0.260881 5.114692
-0.312981 0.108709 7.224216
-0.720001 0.250081 8.344042
-0.429243 0.149091 9.326691
-0.503188 0.220925 2.775876
-0.974316 0.427774 4.169211
-0.784926 0.344622 4.967590
-0.322588 0.141632 7.117032
-0.699540 0.307133 8.186466
-0.523121 0.229676 9.053124
-0.209612 0.112895 2.422739
-0.776098 0.418000 4.973636
-0.286522 0.154318 7.124111
-0.595005 0.320465 8.110203
-0.451512 0.243181 9.104844
-0.318983 0.203356 2.737818
-0.760102 0.484577 4.100238
-0.738367 0.470720 4.997161
-0.303025 0.193183 7.081316
-0.659921 0.420710 8.080342
-0.448725 0.286069 9.144174
-0.081154 0.062799 2.525330
-0.642598 0.497261 5.043992
0.266505 -0.206229 5.666801
-0.599475 0.463891 8.075990
-0.447310 0.346141 9.258268
-0.160271 0.144413 2.324574
-0.316309 0.285012 3.473305
-0.332689 0.299772 4.852941
0.070609 -0.063622 5.506432
-0.509808 0.459365 8.051119
-0.387721 0.349358 9.045537
-0.171657 0.180619 2.047143
-0.120211 0.126487 3.351079
-0.231310 0.243387 4.381081
-0.097027 0.102093 5.485401
-0.203180 0.213789 6.522114
-0.561439 0.590752 7.623561
-0.522452 0.549729 8.670740
-0.125287 0.156360 0.748882
-0.204352 0.255035 1.966716
-0.126114 0.157392 2.983837
-0.217607 0.271578 4.040412
-0.200329 0.250015 5.162258
-0.228330 0.284960 7.181373
-0.393815 0.491489 8.528271
-0.211193 0.263572 9.260887
-0.148271 0.216010 2.430006
-0.112679 0.164157 3.448274
-0.133119 0.193935 4.672998
-0.074975 0.109228 5.521297
-0.161092 0.234687 6.818415
-0.428756 0.624635 7.795826
-0.353996 0.515721 8.867542
-0.181239 0.319985 0.646399
-0.217314 0.383677 1.937325
-0.182215 0.321707 3.032696
-0.220686 0.389630 4.054376
-0.176477 0.311577 5.007427
0.205886 -0.363501 6.029966
-0.376977 0.665568 8.477946
-0.215429 0.380348 9.445501
0.026799 -0.056930 1.380196
-0.088587 0.188187 2.609083
-0.099990 0.212409 3.599774
-0.170070 0.361281 4.840838
-0.076951 0.163467 5.645828
-0.119172 0.253158 6.842266
-0.306333 0.650745 8.008247
-0.227744 0.483799 8.962528
-0.132329 0.349558 2.320842
-0.118092 0.311950 3.524467
-0.175485 0.463558 4.662959
-0.101582 0.268337 5.519485
-0.096665 0.255349 7.805617
-0.244272 0.645265 8.780813
-0.013730 0.036270 9.767135
-0.153351 0.546521 1.951332
-0.201802 0.719191 3.167969
-0.220049 0.784221 4.329168
-0.139473 0.497060 5.309984
0.082709 -0.294763 6.104946
-0.193328 0.688991 8.469686
-0.100365 0.357685 9.375296
-0.102286 0.509806 1.936224
-0.143588 0.715662 3.047766
-0.155015 0.772615 4.233883
-0.110825 0.552369 5.220988
0.009590 -0.047799 6.097874
-0.129130 0.643602 8.520537
-0.090075 0.448946 9.302935
-0.077167 0.636317 0.621526
-0.068643 0.566031 1.860823
-0.085083 0.701592 2.861259
-0.076664 0.632168 5.025656
-0.023440 0.193285 6.038314
0.008923 -0.073579 7.082936
-0.050715 0.418198 8.114500
-0.072991 0.601880 9.324805
-0.038701 0.869800 1.501599
-0.037435 0.841343 2.670542
-0.028905 0.649645 3.880187
-0.029057 0.653057 4.854052
-0.024156 0.542896 5.853950
0.015659 -0.351927 6.688727
-0.023575 0.529839 9.156031
0.035573 0.864080 2.510258
0.043352 1.053031 3.548643
0.045910 1.115185 4.658596
0.032285 0.784208 5.585939
-0.009798 -0.237987 6.384716
0.023392 0.568197 8.907125
0.081791 0.660400 1.891221
0.098191 0.792812 3.348958
0.131618 1.062716 4.534438
0.088754 0.716620 5.309316
0.021792 0.175956 6.234884
-0.022462 -0.181361 7.249227
0.019084 0.154090 8.486445
0.063062 0.509174 9.444330
0.169436 0.832301 0.707278
0.178077 0.874750 1.756138
0.211391 1.038391 2.902320
0.196785 0.966643 5.174099
0.104132 0.511516 5.948808
-0.032472 -0.159509 7.015513
0.027593 0.135540 7.991125
0.111077 0.545633 9.317515
0.245061 0.860388 0.577866
0.236218 0.829341 1.850244
0.288266 1.012076 3.014871
0.278149 0.976555 5.056803
0.148218 0.520382 5.977998
-0.030006 -0.105350 6.875911
0.039627 0.139126 7.955233
0.162192 0.569441 9.250105
0.249342 0.658758 1.851570
0.326398 0.862338 3.282446
0.492775 1.301905 4.394421
0.381557 1.008066 5.221324
0.151627 0.400597 6.139799
0.013515 0.035707 7.030201
0.126652 0.334613 8.336296
0.233573 0.617096 9.477578
0.311422 0.658223 1.859195
0.442661 0.935608 3.073461
0.624292 1.319505 4.238297
0.462199 0.976903 5.209616
0.213399 0.451041 6.167770
0.032772 0.069266 7.224397
0.153013 0.323409 8.336296
0.286583 0.605723 9.406651
0.444843 0.785681 0.554351
0.434729 0.767819 1.869657
0.569043 1.005044 3.108752
0.547961 0.967809 5.291689
0.301681 0.532829 6.118190
0.094141 0.166272 7.159718
0.204690 0.361523 8.003176
0.300439 0.530636 9.301132
0.523034 0.771288 0.472084
0.514943 0.759357 1.842040
0.700629 1.033176 2.882379
0.690899 1.018828 4.126486
0.568261 0.837981 5.068529
0.431160 0.635807 5.880173
0.122760 0.181027 6.892023
0.233171 0.343843 8.003176
0.384932 0.567636 9.131162
0.548877 0.685829 1.478071
0.772672 0.965463 2.662362
0.971702 1.214153 3.890552
0.871446 1.088883 4.780000
0.571302 0.713849 5.802104
0.235968 0.294845 6.738161
0.249757 0.312074 7.668760
0.453666 0.566861 8.713931
0.165537 0.206841 9.591094
0.565874 0.601776 2.046201
1.071326 1.139296 4.526805
0.757988 0.806078 5.315089
0.365523 0.388714 6.361630
0.150220 0.159751 7.276765
0.433588 0.461097 8.358509
0.490586 0.521711 9.437474
0.576220 0.522158 0.761573
0.696745 0.631374 1.771545
1.602198 1.451875 4.611323
1.393395 1.262662 5.307943
0.808958 0.733059 6.150576
0.518982 0.470290 7.161087
0.450685 0.408400 8.061716
0.485919 0.440329 9.162871
0.823283 0.630311 1.556383
1.380546 1.056956 4.165032
1.112947 0.852080 4.955039
0.744342 0.569873 6.153165
0.496914 0.380441 7.023346
0.503945 0.385824 8.200496
0.594941 0.455491 9.213222
0.931493 0.606318 1.490114
1.568401 1.020887 3.966302
1.315308 0.856146 5.108174
0.896075 0.583263 6.022548
0.610144 0.397148 6.896395
0.615201 0.400440 7.925617
0.655185 0.426466 9.000934
0.780100 0.421435 1.532945
0.781318 0.422093 2.349970
1.555662 0.840419 5.035386
1.118739 0.604379 5.810663
0.752367 0.406453 6.652292
0.640556 0.346049 7.680554
0.635614 0.343379 8.894952
0.304827 0.164678 9.917903
0.848362 0.373751 2.477890
1.628141 0.717287 4.890989
1.272891 0.560780 5.629903
0.881173 0.388206 6.625893
0.729741 0.321492 7.717822
0.833019 0.366992 8.671364
0.517485 0.227981 9.790191
1.530777 0.529475 1.233972
1.066487 0.368883 2.167704
1.556229 0.538278 3.566704
1.889297 0.653481 4.543502
1.511442 0.522787 5.618145
0.981690 0.339553 6.629678
0.820810 0.283907 7.475162
0.909309 0.314517 8.510986
0.601341 0.207996 9.643139
0.720221 0.189768 0.551755
0.925926 0.243969 1.880849
1.953851 0.514813 4.463321
1.698898 0.447636 5.497244
0.962244 0.253538 6.239803
0.669425 0.176384 7.073528
0.918040 0.241891 8.436385
0.765934 0.201813 9.436461
1.016128 0.178857 0.415036
1.065617 0.187568 1.739797
0.976981 0.171966 2.779834
1.553709 0.273481 3.996524
1.901105 0.334629 5.210625
1.341191 0.236074 6.088643
0.971532 0.171007 7.132261
1.033791 0.181966 8.006668
0.896980 0.157884 8.984872
0.300250 0.052849 9.851713
1.010215 0.095453 2.363538
2.005841 0.189528 4.878150
1.642981 0.155242 5.837604
1.246228 0.117754 6.589433
1.029352 0.097262 7.676741
0.947743 0.089550 8.726404
0.701100 0.066246 9.520136
0.808519 0.010393 0.825042
1.220725 0.015692 1.797919
0.976858 0.012557 3.005334
1.783821 0.022930 5.491607
1.359985 0.017482 6.210431
1.016799 0.013070 7.235831
1.008159 0.012959 8.241107
0.830554 0.010676 9.345835
1.072195 -0.073084 0.443519
1.291207 -0.088012 1.654122
1.140037 -0.077708 2.799662
1.601173 -0.109140 3.991618
1.954617 -0.133232 5.095904
1.469088 -0.100137 6.052661
1.079691 -0.073595 7.163546
1.080220 -0.073631 7.964253
0.938814 -0.063992 8.953493
0.306850 -0.020916 10.021860
1.298594 -0.190297 1.440371
1.137587 -0.166703 2.776282
1.527652 -0.223863 3.837508
1.838744 -0.269451 4.984791
1.448228 -0.212224 5.867446
1.148686 -0.168329 6.777553
1.176009 -0.172333 7.802349
1.066053 -0.156220 8.890925
0.618170 -0.090587 9.725953
1.247643 -0.288247 1.299995
1.200165 -0.277277 2.507692
1.119861 -0.258725 3.487245
1.349859 -0.311862 4.715649
1.478827 -0.341658 5.855549
1.238431 -0.286118 6.739698
1.144679 -0.264458 7.739384
1.086616 -0.251044 8.812952
0.764702 -0.176671 9.663957
1.614916 -0.514113 1.169333
1.110192 -0.353433 2.217822
1.179341 -0.375447 3.360923
1.323116 -0.421218 4.505423
1.398109 -0.445092 5.525362
1.285980 -0.409395 6.610319
1.221130 -0.388750 7.578260
1.140650 -0.363129 8.622333
0.906852 -0.288699 9.555575
1.135972 -0.460236 1.863983
1.105686 -0.447966 2.980246
1.207070 -0.489041 4.245797
1.253308 -0.507775 5.362385
1.231036 -0.498751 6.471791
1.248668 -0.505895 7.240580
1.146759 -0.464607 8.533085
1.026800 -0.416005 9.350903
1.104317 -0.559865 1.906676
1.085196 -0.550171 3.076178
1.309711 -0.663995 4.016292
1.235352 -0.626297 5.333406
1.178718 -0.597585 6.384984
1.216161 -0.616567 7.159150
1.153893 -0.584999 8.350764
0.977004 -0.495320 9.265292
1.067575 -0.641857 1.883348
1.110897 -0.667904 2.896757
1.220434 -0.733761 4.178806
1.222445 -0.734970 5.269630
1.230598 -0.739871 6.215144
1.186800 -0.713539 7.308446
1.105008 -0.664363 8.229976
1.023528 -0.615375 9.280169
0.468194 -0.281492 9.932402
1.018833 -0.729762 1.860025
0.997822 -0.714713 2.952369
1.148015 -0.822292 3.938298
1.159935 -0.830830 5.060170
1.156827 -0.828604 6.273208
1.189286 -0.851853 7.046235
1.078226 -0.772304 8.164439
0.992623 -0.710989 9.105071
0.518339 -0.371272 10.004743
0.983446 -0.841307 1.654122
0.930394 -0.795923 2.875190
1.053596 -0.901318 4.031265
1.069579 -0.914990 4.931800
1.071879 -0.916958 6.099658
1.133843 -0.969966 7.028037
1.054604 -0.902180 8.247248
0.971909 -0.831437 9.221396
0.517448 -0.442660 10.058541
0.983224 -0.979572 1.530197
0.851521 -0.848358 2.690082
0.912752 -0.909361 3.916623
0.911298 -0.907913 4.901111
0.925767 -0.922328 5.880179
1.043687 -1.039810 7.120823
1.060841 -1.056900 7.919414
0.981544 -0.977897 9.023351
0.635011 -0.632652 9.955096
1.129588 -1.315873 1.363162
0.814088 -0.948342 2.449372
0.823182 -0.958937 3.633300
0.813692 -0.947881 4.643159
0.875870 -1.020313 5.717205
0.979291 -1.140790 6.728002
0.953117 -1.110299 7.829150
0.929349 -1.082612 8.922691
0.712260 -0.829722 9.623652
0.676784 -0.932596 2.342170
0.754929 -1.040279 3.286276
0.785965 -1.083047 4.305316
0.822773 -1.133768 5.374184
0.880574 -1.213416 6.508856
0.899524 -1.239529 7.469728
0.841183 -1.159136 8.732892
0.701710 -0.966945 9.447316
0.619142 -1.019934 2.046728
0.602870 -0.993128 3.174227
0.689974 -1.136617 4.240644
0.752136 -1.239018 5.385983
0.811097 -1.336146 6.219230
0.792400 -1.305347 7.492899
0.785346 -1.293726 8.400612
0.702317 -1.156950 9.399257
0.596456 -1.183858 1.638657
0.546805 -1.085308 2.732371
0.602191 -1.195240 3.830153
0.639958 -1.270200 4.873717
0.641792 -1.273840 6.029964
0.671096 -1.332004 6.907039
0.653986 -1.298044 8.163018
0.623165 -1.236869 9.189932
0.409745 -0.813269 9.849291
0.559574 -1.376479 1.395138
0.466600 -1.147774 2.484361
0.476346 -1.171747 3.721685
0.411279 -1.011693 4.752207
0.458484 -1.127810 5.822707
0.590259 -1.451959 6.910688
0.574518 -1.413239 8.044276
0.563664 -1.386539 8.803006
0.415188 -1.021309 9.923096
0.595063 -1.886922 1.343781
0.375868 -1.191863 2.116185
0.378615 -1.200575 3.468048
0.381188 -1.208732 4.573203
0.407863 -1.293318 5.560210
0.462055 -1.465160 6.456224
0.453235 -1.437191 7.597199
0.442403 -1.402844 8.500758
0.356672 -1.130992 9.684433
0.281533 -1.233978 1.902702
0.282833 -1.239675 3.244319
0.328448 -1.439611 4.080913
0.333805 -1.463093 5.177178
0.335729 -1.471525 6.462486
0.338668 -1.484407 7.516073
0.341118 -1.495142 8.284742
0.306489 -1.343365 9.236435
0.183073 -1.227198 2.061940
0.200260 -1.342403 3.041790
0.206305 -1.382924 4.371177
0.223732 -1.499749 5.217960
0.229673 -1.539569 6.363578
0.232935 -1.561439 7.358745
0.223009 -1.494900 8.412202
0.203344 -1.363079 9.402922
0.094711 -1.324965 1.871513
0.091876 -1.285304 3.186051
0.099301 -1.389166 4.294991
0.108935 -1.523940 5.171610
0.113639 -1.589756 6.311111
0.116609 -1.631305 7.201726
0.107059 -1.497694 8.470161
0.101179 -1.415445 9.468325
-0.020108 -1.349996 1.724110
-0.019148 -1.285599 2.931708
-0.021632 -1.452329 4.074313
-0.022145 -1.486769 5.025919
-0.022411 -1.504628 6.023422
-0.023089 -1.550168 7.244833
-0.023206 -1.558014 8.289053
-0.021415 -1.437813 9.174284
-0.126346 -1.425898 1.557604
-0.120419 -1.359012 2.586848
-0.124504 -1.405112 3.850286
-0.122307 -1.380317 4.814870
-0.128707 -1.452549 5.780553
-0.139188 -1.570834 6.864393
-0.132814 -1.498902 8.160169
-0.129097 -1.456948 8.857002
-0.082526 -0.931366 10.043947
-0.274854 -1.568761 1.469745
-0.230928 -1.318048 2.502288
-0.233264 -1.331377 3.507234
-0.222376 -1.269234 4.591163
-0.249016 -1.421287 5.519535
-0.286056 -1.632696 6.724397
-0.277610 -1.584487 7.868071
-0.258990 -1.478215 8.625032
-0.193559 -1.104759 9.603775
-0.463057 -1.805764 1.291830
-0.350018 -1.364950 2.358565
-0.339893 -1.325466 3.449076
-0.333659 -1.301157 4.481062
-0.386973 -1.509063 5.363264
-0.401513 -1.565762 6.558452
-0.375450 -1.464124 7.441779
-0.358766 -1.399065 8.508183
-0.304432 -1.187181 9.582890
-0.750645 -2.188096 1.292954
-0.494403 -1.441162 1.998881
-0.470385 -1.371150 3.170236
-0.483543 -1.409505 4.221617
-0.503393 -1.467366 5.496518
-0.522093 -1.521876 6.593140
-0.521727 -1.520809 7.340450
-0.492401 -1.435325 8.377434
-0.435291 -1.268853 9.480702
-0.581561 -1.334800 1.964224
-0.549047 -1.260174 2.983640
-0.580559 -1.332500 4.261508
-0.617088 -1.416341 5.311007
-0.642273 -1.474144 6.362776
-0.663968 -1.523939 7.195104
-0.628080 -1.441570 8.208023
-0.558980 -1.282971 9.429828
-0.524253 -0.972762 0.809330
-0.734767 -1.363374 1.840568
-0.688080 -1.276745 2.905066
-0.695505 -1.290523 4.215090
-0.679412 -1.260661 5.246405
-0.707385 -1.312566 6.312642
-0.780322 -1.447902 7.155505
-0.736275 -1.366172 8.180505
-0.683902 -1.268993 9.151064
-0.883638 -1.374770 1.740484
-0.754858 -1.174414 2.825319
-0.763531 -1.187907 3.938298
-0.849224 -1.321229 4.899167
-0.942060 -1.465664 5.883380
-0.886245 -1.378827 7.058086
-0.813625 -1.265844 8.160169
-0.798158 -1.241779 8.930574
-0.892896 -1.167181 2.249979
-0.858235 -1.121873 3.386270
-1.001699 -1.309408 4.499713
-0.909275 -1.188591 5.618158
-0.806655 -1.054449 6.593457
-0.907468 -1.186230 7.534521
-0.887508 -1.160139 8.713732
-0.689468 -0.901263 9.689146
-1.197844 -1.329312 1.356210
-0.965326 -1.071274 2.254041
-0.844588 -0.937285 3.367863
-1.043015 -1.157490 4.450949
-1.184557 -1.314566 5.658699
-1.070402 -1.187882 6.639401
-1.034307 -1.147826 7.400230
-0.957694 -1.062804 8.589457
-0.828330 -0.919242 9.501223
-0.890666 -0.838279 0.850366
-1.066667 -1.003928 2.018318
-1.200372 -1.129768 3.291632
-1.494402 -1.406504 4.250737
-1.414999 -1.331771 5.262568
-1.121696 -1.055720 6.092447
-0.977706 -0.920199 7.263852
-1.095854 -1.031397 8.303613
-0.931381 -0.876599 9.221396
-1.082818 -0.874836 0.372878
-1.129439 -0.912502 1.654606
