2.657677 -0.113683 4.954726
2.839219 -0.121448 3.997054
2.797946 -0.119683 3.356477
2.229373 -0.095362 2.539607
1.953845 -0.083576 1.674691
2.226841 -0.095254 0.924023
2.389853 -0.102226 -0.019567
2.376405 -0.101651 -0.910392
2.240510 -0.095838 -1.356373
2.180673 -0.093279 -2.177384
2.080960 -0.089013 -3.195537
2.044994 -0.087475 -4.899171
2.551896 -0.324550 5.225172
2.792996 -0.355213 4.411796
2.859529 -0.363674 3.426616
2.700648 -0.343468 2.738911
2.279406 -0.289895 2.003122
2.223551 -0.282791 1.326900
2.500910 -0.318065 0.536191
2.376097 -0.302192 -0.479372
2.269335 -0.288614 -1.217135
2.308585 -0.293606 -2.080146
2.244781 -0.285491 -2.952174
1.813359 -0.230623 -3.428465
1.740046 -0.221299 -4.382188
2.723490 -0.591983 4.385857
2.809857 -0.610756 3.846707
2.617498 -0.568944 2.820401
2.214999 -0.481456 2.320149
2.267978 -0.492972 1.441781
2.632887 -0.572289 0.407457
2.656805 -0.577488 -0.358700
2.721552 -0.591562 -1.132499
2.506485 -0.544814 -1.851538
2.246207 -0.488240 -2.771562
1.966672 -0.427480 -3.520843
2.540518 -0.770278 4.915882
2.733036 -0.828649 3.897697
2.669697 -0.809444 3.240396
2.162625 -0.655702 2.586949
2.114046 -0.640972 1.741844
2.414633 -0.732110 0.662914
2.671921 -0.810119 0.009674
2.971530 -0.900959 -0.959130
2.846054 -0.862915 -1.502357
2.512736 -0.761854 -2.443454
2.253758 -0.683333 -3.151758
2.635745 -1.038993 4.350736
2.692336 -1.061301 3.542393
2.550866 -1.005535 2.981178
2.204838 -0.869133 1.950007
2.177597 -0.858394 1.303625
2.461551 -0.970327 0.524602
2.738639 -1.079553 -0.346797
2.917960 -1.150240 -1.169237
2.602121 -1.025739 -1.975321
2.277641 -0.897831 -2.760038
1.949032 -0.768296 -3.592517
1.870667 -0.737405 -4.211026
2.498505 -1.251253 4.443905
2.529659 -1.266855 3.646522
2.337774 -1.170759 3.246591
2.033728 -1.018492 2.437947
2.100838 -1.052101 1.528938
2.457886 -1.230911 0.697487
2.675374 -1.339829 -0.076958
2.772769 -1.388604 -0.796109
2.764987 -1.384707 -1.881905
2.434002 -1.218950 -2.388150
2.069840 -1.036577 -3.263993
1.906315 -0.954683 -3.947457
2.077145 -1.040236 -5.071589
2.393733 -1.456307 4.698591
2.468403 -1.501735 3.972153
2.296596 -1.397211 3.494410
1.984433 -1.207296 2.759840
2.013261 -1.224834 1.685642
2.201254 -1.339206 0.827457
2.343515 -1.425755 0.280947
2.672385 -1.625834 -0.881790
2.669468 -1.624059 -1.515145
2.311396 -1.406215 -2.126367
2.319498 -1.700435 4.492497
2.212933 -1.622311 3.792409
2.026578 -1.485693 2.941494
1.886938 -1.383323 2.285933
2.006419 -1.470914 1.220131
2.252778 -1.651521 0.299900
2.413292 -1.769195 -0.144296
2.503628 -1.835421 -0.930363
2.252766 -1.651513 -1.907606
1.987445 -1.457005 -2.640968
1.753784 -1.285707 -3.375994
2.193742 -1.894241 4.470059
2.151291 -1.857586 3.772133
1.857266 -1.603703 3.133249
1.635411 -1.412136 2.228124
1.831135 -1.581139 1.398670
2.059960 -1.778724 0.571966
2.359311 -2.037206 -0.086271
2.502128 -2.160525 -0.982280
2.142433 -1.849938 -1.653707
1.910324 -1.649517 -2.421052
1.774341 -1.532099 -3.310717
1.629251 -1.406817 -3.905349
1.783362 -1.539888 -4.947112
1.939315 -1.975975 5.008718
2.041784 -2.080381 4.193972
1.817061 -1.851410 3.297503
1.637306 -1.668257 2.620769
1.737497 -1.770342 1.660263
1.926016 -1.962424 0.736231
2.218983 -2.260930 0.248871
2.365495 -2.410212 -0.837459
2.207962 -2.249701 -1.571527
1.908243 -1.944316 -2.018263
1.730653 -1.763369 -4.672951
6.178633 -6.295432 -10.463591
1.817402 -2.210280 4.376656
1.771758 -2.154769 3.503986
1.667157 -2.027555 2.775754
1.586526 -1.929494 2.001756
1.692220 -2.058037 1.262713
1.744337 -2.121420 0.561877
1.901627 -2.312713 -0.384783
2.005782 -2.439383 -1.063091
1.718343 -2.089806 -2.126367
1.579596 -1.921066 -2.609857
1.401339 -1.704274 -3.700662
1.501951 -2.166511 4.779882
1.659451 -2.393698 4.174690
1.484754 -2.141704 3.423949
1.323540 -1.909160 2.414964
1.513885 -2.183725 1.690998
1.753854 -2.529872 0.892640
1.918471 -2.767326 0.133245
1.949047 -2.811430 -0.522693
1.710297 -2.467043 -1.568616
1.474801 -2.127348 -2.260329
1.307270 -1.885691 -4.476630
5.066624 -7.308424 -10.664101
1.412459 -2.449998 4.704972
1.362858 -2.363962 3.647066
1.248768 -2.166065 3.089878
1.166726 -2.023759 2.227144
1.370165 -2.376637 1.366624
1.632584 -2.831819 0.343606
1.694682 -2.939531 -0.266296
1.588711 -2.755719 -0.985790
1.288582 -2.235126 -1.645897
1.149141 -1.993257 -2.455875
1.129961 -1.959987 -3.506497
1.084486 -1.881108 -4.292172
0.913653 -1.584788 -4.969080
4.044418 -7.015295 -10.287030
1.128576 -2.376986 4.929019
1.246565 -2.625491 4.331952
1.168731 -2.461558 3.353851
1.094078 -2.304327 2.448584
1.184958 -2.495736 1.802452
1.352687 -2.849003 0.909890
1.455427 -3.065393 0.304338
1.391919 -2.931632 -0.477565
1.157018 -2.436889 -1.475253
1.020776 -2.149939 -2.126192
0.957659 -2.017003 -4.384553
0.961434 -2.595910 4.634117
0.954962 -2.578434 3.605773
0.935837 -2.526796 3.014462
0.940477 -2.539324 2.165157
1.036301 -2.798053 1.087632
1.153454 -3.114371 0.533723
1.126906 -3.042691 -0.429811
0.973923 -2.629630 -0.928627
0.867771 -2.343016 -2.011511
0.865039 -2.335639 -2.658642
0.796060 -2.149392 -3.553130
0.718418 -1.939756 -4.274367
0.687336 -2.467955 4.789854
0.720701 -2.587756 3.955658
0.731394 -2.626151 3.089897
0.732888 -2.631518 2.144256
0.779531 -2.798993 1.650211
0.838468 -3.010612 0.757210
0.842988 -3.026843 0.019158
0.779878 -2.800240 -1.022443
0.684319 -2.457122 -1.549653
0.649334 -2.331506 -2.369159
0.624024 -2.240627 -3.104940
0.544180 -1.953939 -3.918788
0.545042 -1.957034 -4.971703
2.137782 -7.675944 -10.294326
0.480041 -2.456990 4.916888
0.511789 -2.619488 4.026383
0.513345 -2.627451 3.103933
0.509967 -2.610163 2.567996
0.538159 -2.754454 1.674213
0.575998 -2.948129 0.913775
0.573735 -2.936543 -0.048099
0.545649 -2.792790 -0.502338
0.488154 -2.498515 -1.432763
0.464334 -2.376600 -2.388710
0.461471 -2.361945 -3.166946
0.375874 -1.923836 -3.986264
0.272574 -2.627734 4.433407
0.276872 -2.669172 3.445894
0.273639 -2.638007 2.802951
0.275430 -2.655270 1.933734
0.292544 -2.820254 1.140567
0.293329 -2.827821 0.260836
0.275332 -2.654322 -0.330081
0.256968 -2.477287 -1.298186
0.242113 -2.334080 -1.980751
0.234285 -2.258609 -2.734219
0.214096 -2.063979 -3.644341
0.190367 -1.835226 -4.300752
0.054387 -2.561759 4.601591
0.056858 -2.678151 3.887729
0.057245 -2.696400 3.043564
0.057271 -2.697626 2.000281
0.059329 -2.794538 1.413071
0.057778 -2.721501 0.601046
0.053994 -2.543279 -0.360466
0.051651 -2.432909 -1.085034
0.050130 -2.361260 -1.793358
0.048936 -2.305017 -2.524528
0.044384 -2.090627 -3.553058
0.173155 -8.156089 -10.385769
-0.141861 -2.420863 4.708748
-0.156766 -2.675227 3.897434
-0.157579 -2.689096 3.004761
-0.159593 -2.723466 2.475383
-0.156466 -2.670100 1.524822
-0.154854 -2.642592 0.602314
-0.150169 -2.562638 0.009736
-0.140621 -2.399703 -0.919538
-0.139399 -2.378855 -1.713828
-0.134515 -2.295511 -2.436258
-0.128978 -2.201009 -3.155038
-0.118220 -2.017427 -3.849603
-0.136212 -2.324461 -4.741375
-0.366560 -2.616279 4.433407
-0.375575 -2.680626 3.678712
-0.368962 -2.633427 2.890355
-0.374086 -2.669994 1.961480
-0.376970 -2.690579 1.328807
-0.356571 -2.544984 0.447829
-0.339211 -2.421083 -0.439628
-0.327084 -2.334524 -1.048133
-0.322283 -2.300261 -2.001732
-0.304692 -2.174702 -2.739899
-0.260026 -1.855906 -3.384085
-0.259167 -1.849779 -4.489412
-0.565545 -2.410547 4.900773
-0.615808 -2.624786 4.042975
-0.613430 -2.614651 2.907739
-0.599433 -2.554990 2.424014
-0.580615 -2.474783 1.335343
-0.605170 -2.579445 0.728590
-0.580647 -2.474917 -0.077940
-0.532601 -2.270130 -1.029263
-0.505352 -2.153984 -1.810674
-0.486420 -2.073292 -2.517073
-0.449956 -1.917868 -3.335234
-0.415984 -1.773068 -4.909452
-1.825701 -7.781768 -10.212218
-0.698117 -2.178901 4.816606
-0.807126 -2.519131 4.038907
-0.798838 -2.493264 3.285480
-0.788861 -2.462123 2.583121
-0.785743 -2.452390 1.538836
-0.808411 -2.523141 0.728590
-0.768315 -2.397998 0.272978
-0.692908 -2.162644 -0.530125
-0.652987 -2.038046 -1.291174
-0.629010 -1.963211 -2.244157
-0.607564 -1.896274 -3.004326
-0.889721 -2.161040 5.169592
-1.009313 -2.451516 4.304082
-0.991070 -2.407206 3.394773
-0.973460 -2.364434 2.536237
-0.981702 -2.384452 1.616700
-1.011721 -2.457364 1.049091
-0.949130 -2.305338 0.273169
-0.854883 -2.076421 -0.501023
-0.814616 -1.978617 -1.281321
-0.787214 -1.912060 -2.342884
-0.754105 -1.831643 -2.875703
-0.943852 -2.292520 -4.542868
-1.170228 -2.238451 4.309332
-1.199265 -2.293994 3.749959
-1.155614 -2.210496 2.707422
-1.114725 -2.132282 2.144273
-1.096496 -2.097414 1.332090
-1.051153 -2.010679 0.363240
-1.004428 -1.921302 -0.265806
-0.964520 -1.844965 -1.036420
-0.924013 -1.767483 -1.950564
-0.894968 -1.711924 -2.889562
-0.738712 -1.413032 -3.611932
-0.682275 -1.305078 -4.344727
-1.268438 -2.022232 4.803337
-1.295662 -2.065634 3.755867
-1.283564 -2.046347 2.979025
-1.272779 -2.029153 2.370808
-1.243948 -1.983188 1.313422
-1.261140 -2.010597 0.675484
-1.204808 -1.920789 -0.157079
-1.091528 -1.740190 -0.938384
-1.038198 -1.655168 -1.635081
-1.010507 -1.611020 -2.483124
-0.884646 -1.410364 -3.292819
-1.312802 -1.763104 4.898738
-1.453676 -1.952299 4.171766
-1.459184 -1.959696 3.557926
-1.405889 -1.888121 2.501439
-1.385259 -1.860415 1.942916
-1.348152 -1.810580 1.051050
-1.279387 -1.718227 0.118219
-1.220836 -1.639593 -0.395146
-1.173458 -1.575964 -1.287524
-1.118852 -1.502628 -2.026754
-0.914867 -1.228674 -4.419017
-1.596357 -1.769551 4.773982
-1.629891 -1.806724 3.707010
-1.612609 -1.787567 3.176725
-1.548425 -1.716419 2.238496
-1.506618 -1.670077 1.523369
-1.506708 -1.670176 0.726948
-1.435071 -1.590767 -0.167476
-1.291761 -1.431909 -0.911893
-1.232131 -1.365810 -1.859285
-1.200259 -1.330479 -2.700571
-0.969970 -1.075205 -3.393313
-1.749625 -1.664523 4.431863
-1.725425 -1.641499 3.692583
-1.668156 -1.587017 2.820604
-1.638421 -1.558727 1.788528
-1.601447 -1.523552 1.150843
-1.481811 -1.409735 0.484049
-1.408020 -1.339533 -0.316991
-1.346225 -1.280744 -1.082579
-1.307167 -1.243585 -2.130369
-1.682209 -1.336709 4.905467
-1.769009 -1.405682 3.963342
-1.793584 -1.425210 3.276064
-1.759163 -1.397858 2.400346
-1.760973 -1.399296 1.523369
-1.839354 -1.461579 0.724931
-1.677081 -1.332634 0.059109
-1.448131 -1.150707 -0.744951
-1.376511 -1.093797 -1.733688
-1.330555 -1.057279 -2.456861
-1.186480 -0.942795 -3.306259
-1.783484 -1.200307 5.096039
-1.891946 -1.273304 4.149859
-1.935677 -1.302735 3.460032
-1.962885 -1.321047 2.667906
-1.862157 -1.253255 1.946964
-1.725781 -1.161472 0.977211
-1.611952 -1.084864 0.267462
-1.509512 -1.015921 -0.427419
-1.450863 -0.976449 -1.524580
-1.389012 -0.934823 -2.047854
-1.297156 -0.873002 -2.989360
-0.880544 -0.592617 -3.807916
-1.039863 -0.699841 -4.811333
-1.927834 -1.062901 4.538160
-1.977532 -1.090302 3.715198
-1.956312 -1.078603 2.905087
-1.934298 -1.066465 2.195545
-1.867909 -1.029862 1.074406
-1.768337 -0.974964 0.405303
-1.635736 -0.901855 -0.248162
-1.560278 -0.860251 -1.035060
-1.504696 -0.829607 -1.935431
-1.080592 -0.595779 -4.239849
-1.977434 -0.889000 4.862727
-2.026489 -0.911053 3.848141
-1.971514 -0.886338 2.940654
-1.965831 -0.883783 2.139499
-1.931777 -0.868473 1.370935
-1.888467 -0.849002 0.503457
-1.771326 -0.796339 -0.069343
-1.574183 -0.707709 -0.807299
-1.587081 -0.713508 -1.874344
-1.528513 -0.687177 -2.478495
-1.179465 -0.530255 -3.346585
-0.947194 -0.425832 -4.066912
-1.798651 -0.639748 4.998609
-2.034876 -0.723769 4.193721
-2.035284 -0.723915 3.218480
-1.970140 -0.700744 2.678420
-1.895410 -0.674164 1.800931
-1.838506 -0.653924 0.822137
-1.782846 -0.634127 0.128956
-1.693325 -0.602286 -0.616685
-1.641431 -0.583828 -1.355265
-1.591434 -0.566045 -2.297283
-1.487400 -0.529042 -3.169491
-1.071292 -0.381040 -3.810406
-8.290762 -2.948877 -10.552689
-1.957703 -0.523776 4.550125
-2.068280 -0.553361 3.796996
-2.018272 -0.539981 2.976341
-2.021615 -0.540876 2.341269
-1.970167 -0.527111 1.274986
-1.980167 -0.529786 0.750738
-1.877072 -0.502204 -0.277368
-1.673168 -0.447650 -1.046441
-1.603329 -0.428965 -1.768382
-1.547306 -0.413976 -2.493563
-1.254577 -0.335657 -3.407079
-2.072930 -0.359900 4.360206
-2.030079 -0.352461 3.496263
-1.988713 -0.345279 2.713615
-1.989640 -0.345440 1.949222
-1.902632 -0.330333 1.010988
-1.790684 -0.310897 0.178923
-1.694087 -0.294126 -0.418624
-1.636830 -0.284185 -1.188354
-1.576942 -0.273787 -2.072043
-1.259978 -0.218756 -4.408530
-1.922552 -0.175868 4.783785
-2.037242 -0.186359 3.846963
-2.005070 -0.183416 3.261458
-2.015329 -0.184355 2.435075
-2.046526 -0.187209 1.660209
-2.093473 -0.191503 0.858192
-1.909149 -0.174642 -0.079303
-1.724252 -0.157728 -1.026514
-1.719233 -0.157269 -1.585414
-1.667568 -0.152543 -2.458537
-1.386980 -0.126876 -3.337571
-7.916973 -0.724215 -10.318905
-2.040368 -0.003628 4.658818
-2.155782 -0.003833 3.934894
-2.079709 -0.003698 2.857934
-2.078743 -0.003696 2.114329
-2.041231 -0.003629 1.324383
-1.948461 -0.003464 0.683481
-1.817811 -0.003232 -0.238563
-1.683798 -0.002994 -1.107733
-1.638192 -0.002913 -1.839514
-1.564539 -0.002782 -2.677150
-1.237322 -0.002200 -3.555364
-0.950362 -0.001690 -4.179553
-1.946708 0.153664 4.760716
-2.070506 0.163436 3.903544
-2.021581 0.159574 3.140643
-2.005988 0.158343 2.257137
-2.069219 0.163334 1.560373
-2.071735 0.163533 0.898261
-1.886653 0.148923 -0.188474
-1.717433 0.135566 -0.647851
-1.690386 0.133431 -1.446883
-1.664078 0.131354 -2.378699
-1.404342 0.110852 -3.234814
-2.066831 0.332139 4.271435
-2.027824 0.325870 3.427140
-1.987392 0.319373 2.962717
-1.991747 0.320072 1.909681
-1.958832 0.314783 1.108548
-1.821781 0.292759 0.476789
-1.722112 0.276742 -0.398418
-1.738321 0.279347 -1.165198
-1.679952 0.269967 -2.086345
-1.275850 0.205028 -4.519467
-1.910553 0.468716 4.869630
-1.982776 0.486435 3.807449
-1.949473 0.478264 3.192246
-1.966107 0.482345 2.444959
-1.989584 0.488105 1.512066
-1.944352 0.477008 0.850675
-1.765399 0.433106 -0.228623
-1.677345 0.411503 -0.857124
-1.659958 0.407238 -1.756000
-1.634309 0.400945 -2.578273
-1.274849 0.312759 -3.283870
-7.719565 1.893841 -10.236468
-1.890734 0.649791 4.533459
-1.931718 0.663876 3.817328
-1.885303 0.647925 2.715481
-1.920890 0.660155 2.156774
-1.930757 0.663546 1.334262
-1.814802 0.623696 0.376684
-1.673699 0.575203 -0.447911
-1.645869 0.565638 -1.305460
-1.598883 0.549490 -1.886881
-1.342900 0.461516 -4.534448
-1.688479 0.736174 4.876316
-1.826662 0.796421 4.052789
-1.795143 0.782679 3.206533
-1.822705 0.794696 2.646232
-1.841425 0.802858 1.741606
-1.816487 0.791985 1.029388
-1.735130 0.756514 0.247992
-1.626958 0.709351 -0.756437
-1.576871 0.687513 -1.435928
-1.518749 0.662172 -2.179055
-1.358189 0.592168 -3.208194
-1.159805 0.505673 -4.707222
-1.798582 0.963317 4.458111
-1.771422 0.948770 3.740855
-1.772988 0.949609 2.942943
-1.781568 0.954204 1.978876
-1.839222 0.985084 1.184431
-1.735203 0.929371 0.316773
-1.559996 0.835531 -0.437958
-1.483780 0.794710 -1.087780
-1.439055 0.770755 -2.190531
-1.269291 0.679830 -4.491225
-1.654018 1.067408 4.879529
-1.745408 1.126386 4.133296
-1.675856 1.081501 3.043895
-1.687666 1.089122 2.197813
-1.735490 1.119986 1.303725
-1.658634 1.070387 0.712703
-1.527551 0.985794 -0.268383
-1.452788 0.937546 -0.936839
-1.415120 0.913237 -1.757199
-1.375595 0.887730 -2.641727
-1.161971 0.749869 -3.226941
-6.716300 4.334314 -10.368660
-1.449341 1.127777 5.201062
-1.578365 1.228175 4.332617
-1.556014 1.210783 3.614770
-1.551333 1.207140 2.677750
-1.592500 1.239174 1.919566
-1.505907 1.171793 1.081093
-1.435129 1.116718 0.318082
-1.397932 1.087774 -0.557393
-1.362173 1.059949 -1.575449
-1.333069 1.037302 -2.297283
-1.236585 0.962225 -3.029396
-1.571157 1.222566 -4.665196
-1.476480 1.377676 4.691663
-1.481429 1.382294 3.899023
-1.418253 1.323345 2.988640
-1.448586 1.351648 2.159745
-1.492180 1.392325 1.314504
-1.439850 1.343497 0.405862
-1.330026 1.241022 -0.387660
-1.228403 1.146200 -0.978032
-1.201143 1.120764 -1.929409
-1.188029 1.108528 -2.813429
-0.920744 0.859129 -3.522699
-0.782804 0.730420 -4.351061
-1.321881 1.447960 4.820129
-1.390839 1.523494 4.004971
-1.358710 1.488302 3.281231
-1.360067 1.489787 2.336228
-1.383191 1.515117 1.581203
-1.416300 1.551384 0.789153
-1.427751 1.563927 -0.207025
-1.297231 1.420958 -0.713685
-1.153018 1.262991 -1.775938
-1.129006 1.236689 -2.458537
-0.894702 0.980037 -3.160788
-1.230458 1.587427 4.191251
-1.198414 1.546087 3.456367
-1.213510 1.565562 2.875703
-1.336625 1.724394 1.693848
-1.413915 1.824107 1.069204
-1.359295 1.753641 0.353914
-1.193146 1.539290 -0.633959
-1.037389 1.338347 -1.387041
-1.006771 1.298846 -1.939397
-0.939956 1.212647 -4.439053
-1.071536 1.651345 4.688183
-1.122890 1.730487 4.004971
-1.123246 1.731035 2.968518
-1.078779 1.662507 2.169640
-1.130311 1.741923 1.580112
-1.277289 1.968431 0.568204
-1.262285 1.945309 -0.372539
-1.051613 1.620642 -1.040715
-0.902917 1.391485 -1.748415
-0.895976 1.380789 -2.761583
-0.772675 1.190770 -3.355415
-4.404748 6.788160 -10.270573
-0.945779 1.771600 4.401842
-0.958643 1.795697 3.498666
-0.963029 1.803913 2.731505
-0.952044 1.783336 1.988761
-1.039563 1.947275 1.052509
-1.138435 2.132478 0.146648
-1.033848 1.936569 -0.482044
-0.866347 1.622812 -1.282021
-0.793444 1.486252 -2.227453
-0.777335 1.456077 -2.821501
-0.722545 1.353447 -4.642466
-0.776285 1.793873 4.579274
-0.813306 1.879422 3.866718
-0.817940 1.890129 2.919150
-0.815208 1.883817 2.096036
-0.892000 2.061271 1.444786
-0.991878 2.292072 0.624360
-0.911359 2.106007 -0.441469
-0.696416 1.609306 -0.916284
-0.625740 1.445987 -2.073454
-0.676248 1.562703 -2.847574
-0.537411 1.241872 -3.452827
-0.473784 1.094840 -4.531600
-0.644655 1.908271 4.240687
-0.653520 1.934513 3.298736
-0.652588 1.931754 2.652474
-0.690286 2.043346 1.695020
-0.769428 2.277618 0.929318
-0.813706 2.408686 0.165622
-0.799849 2.367668 -0.712150
-0.664730 1.967696 -1.589982
-0.539609 1.597321 -2.247405
-0.530016 1.568924 -2.891394
-0.459818 1.907272 4.830030
-0.483588 2.005865 3.775218
-0.473300 1.963192 3.041805
-0.474778 1.969325 2.464726
-0.519824 2.156172 1.367145
-0.578835 2.400940 0.439321
-0.566510 2.349817 -0.087989
-0.469670 1.948135 -0.929790
-0.399922 1.658831 -1.696180
-0.390923 1.621505 -2.358738
-0.340479 1.412268 -3.443514
-0.306203 1.939210 4.839930
-0.323939 2.051529 3.903544
-0.313948 1.988256 2.962717
-0.276017 1.748035 2.382166
-0.310464 1.966189 1.306424
-0.381509 2.416128 0.537316
-0.365539 2.314988 -0.342891
-0.305399 1.934117 -1.079607
-0.262684 1.663600 -1.757199
-0.261490 1.656037 -2.488474
-0.239136 1.514468 -3.223886
-1.253410 7.937941 -10.261955
-0.147349 2.021136 4.129087
-0.151975 2.084598 3.543192
-0.142455 1.954012 2.588645
-0.151144 2.073197 1.629458
-0.172844 2.370845 0.851668
-0.177674 2.437105 0.332167
-0.157699 2.163102 -2.356114
-0.129464 1.775820 -3.182129
-0.116211 1.594034 -3.894489
0.024153 1.966946 4.477170
0.025223 2.054024 3.686350
0.025564 2.081836 3.185669
0.022212 1.808813 2.209913
0.024450 1.991118 1.326210
0.027272 2.220921 0.540691
0.026307 2.142307 -0.177327
0.023048 1.876902 -0.853606
0.019852 1.616685 -1.910735
0.021309 1.735348 -2.614609
0.017985 1.464642 -3.300703
0.099995 8.143179 -10.344705
0.188805 2.041503 4.116381
0.189572 2.049800 3.476515
0.193629 2.093665 2.489224
0.205647 2.223618 1.720984
0.239850 2.593447 0.943588
0.252518 2.730414 0.048440
0.211678 2.288820 -0.686704
0.174449 1.886273 -1.409219
0.163432 1.767152 -2.052218
0.165555 1.790105 -3.090457
0.158096 1.709450 -4.690305
0.361284 2.035837 4.866206
0.369325 2.081151 4.009333
0.338605 1.908042 3.258271
0.270802 1.525970 2.466917
0.312642 1.761742 1.273832
0.305946 1.724007 0.806747
0.394096 2.220731 -0.982308
0.333064 1.876819 -1.686911
0.317582 1.789578 -2.708665
0.274292 1.545638 -3.351820
1.415897 7.978589 -10.303483
0.508915 1.892708 5.001701
0.575189 2.139190 4.237114
0.513668 1.910386 3.424310
0.433292 1.611459 2.729762
0.495068 1.841208 1.696827
0.565091 2.101635 0.817044
0.608314 2.262385 0.225330
0.583265 2.169223 -2.390523
0.470392 1.749439 -3.249555
0.767078 2.082054 4.476061
0.688238 1.868060 3.802783
0.654194 1.775656 2.703107
0.707873 1.921354 2.007146
0.796906 2.163013 0.971137
0.904894 2.456122 0.184718
0.836362 2.270107 -0.400831
0.668594 1.814742 -1.110075
0.626208 1.699696 -2.249682
0.663686 1.801420 -3.050167
0.670644 1.820305 -4.661667
3.086736 8.378219 -10.542555
0.930007 2.043406 4.682429
0.870653 1.912992 3.900863
0.712697 1.565934 3.066892
0.724811 1.592549 2.053622
0.884979 1.944471 1.182795
1.023270 2.248322 0.478370
1.043453 2.292668 -0.370467
0.788603 1.732714 -0.922437
0.708613 1.556961 -1.785908
0.810707 1.781281 -2.558940
0.609018 1.338130 -3.360916
0.585572 1.286614 -4.270198
1.091438 1.969276 4.731542
1.066551 1.924371 3.880303
0.860187 1.552030 3.393344
0.518307 0.935177 2.397327
0.944017 1.703284 0.624054
1.074759 1.939181 -0.068818
1.200150 2.165424 -0.790733
1.040716 1.877757 -1.468495
0.940365 1.696695 -2.301426
0.846335 1.527037 -3.355822
0.777364 1.402593 -3.944484
0.724104 1.306496 -4.912729
1.250775 1.849588 4.384553
1.100080 1.626746 3.535577
1.064684 1.574404 2.812211
1.140650 1.686739 1.789810
1.206718 1.784438 0.935794
1.383063 2.045209 0.370985
1.454257 2.150487 -0.535067
1.198844 1.772794 -1.291174
1.042315 1.541327 -2.236674
1.093039 1.616335 -2.818260
0.887219 1.311977 -3.501906
0.877475 1.297568 -4.496111
1.433850 1.776269 4.777356
1.367016 1.693474 3.892820
1.121445 1.389258 2.941250
1.089210 1.349325 2.214451
1.331804 1.649854 1.430081
1.506239 1.865945 0.655451
1.644171 2.036817 -0.204162
1.561032 1.933823 -1.142070
1.327584 1.644626 -1.835408
1.260175 1.561118 -2.545537
1.091011 1.351556 -3.527501
1.540833 1.606001 4.915032
1.621942 1.690541 4.251915
1.532455 1.597269 3.253371
1.259336 1.312598 2.728545
1.321926 1.377836 1.756319
1.512559 1.576531 1.131960
1.691062 1.762584 0.205164
1.834277 1.911856 -0.728590
1.537642 1.602676 -1.445788
1.329710 1.385949 -2.392221
1.337378 1.393941 -2.889562
1.232894 1.285038 -3.955616
1.827333 1.620168 4.448336
1.795350 1.591811 3.621561
1.410510 1.250600 2.933214
1.328752 1.178111 2.072121
1.631124 1.446204 0.964670
1.865385 1.653906 0.263413
2.017303 1.788601 -0.533567
1.802132 1.597824 -1.085790
1.560285 1.383396 -2.222877
1.534027 1.360114 -2.800646
1.241659 1.100892 -3.504762
1.977483 1.474940 4.445255
2.051078 1.529833 3.940258
1.861715 1.388593 3.065732
1.478554 1.102805 2.377282
1.542006 1.150133 1.517280
1.860909 1.387992 0.568599
2.017631 1.504886 -0.029248
2.007004 1.496959 -0.916975
1.704892 1.271624 -1.587787
1.610446 1.201179 -2.585089
1.373007 1.024081 -3.268402
6.559101 4.892221 -10.303856
2.040186 1.264653 4.901167
2.168623 1.344267 4.098877
2.172495 1.346667 3.153750
1.748811 1.084038 2.561785
1.626253 1.008067 1.835635
1.895091 1.174712 0.953507
1.990644 1.233942 -0.048985
2.124299 1.316792 -0.721904
1.953153 1.210703 -1.491829
1.760806 1.091473 -2.402112
1.725052 1.069310 -3.160408
1.436723 0.890583 -3.814111
2.230081 1.144230 4.559225
2.386178 1.224322 3.681285
2.244758 1.151761 2.754276
1.855831 0.952207 2.232744
1.793261 0.920103 1.305524
2.063415 1.058716 0.392146
2.084330 1.069447 -0.215533
1.919239 0.984740 -1.044121
1.842556 0.945395 -1.976151
1.848293 0.948339 -2.828327
1.551728 0.796175 -3.335902
1.313430 0.673906 -4.374827
7.373466 3.783245 -10.377718
2.353087 0.976534 4.682725
2.519088 1.045425 3.872607
2.544017 1.055771 3.126472
2.083376 0.864604 2.528029
1.802969 0.748235 1.595468
2.010477 0.834351 0.836729
2.163647 0.897916 -0.195940
2.151920 0.893050 -0.960662
1.986722 0.824492 -1.566992
1.940758 0.805417 -2.469499
1.912297 0.793606 -3.335955
1.566087 0.649928 -3.863981
1.695865 0.703786 -5.018760
2.482697 0.800697 4.368432
2.569523 0.828700 3.610823
2.533820 0.817185 2.606836
2.112500 0.681305 1.948313
1.980321 0.638676 0.996948
2.253444 0.726761 0.225173
2.207429 0.711921 -0.411752
2.083684 0.672011 -1.269711
1.988280 0.641243 -1.846542
1.983817 0.639803 -2.917141
1.689852 0.544996 -3.664446
1.345364 0.433895 -4.270198
2.517977 0.572034 4.559472
2.721189 0.618199 3.758078
2.700452 0.613488 3.008129
2.217343 0.503736 2.428132
2.020452 0.459006 1.471542
2.261984 0.513877 0.431359
2.259754 0.513370 -0.147057
2.224018 0.505252 -0.991440
2.162442 0.491263 -1.908990
2.068452 0.469911 -2.745580
1.704297 0.387182 -3.375741
1.377300 0.312895 -4.036239
2.587863 0.373347 4.990787
2.794793 0.403201 4.273420
2.813921 0.405960 3.274491
2.521068 0.363711 2.742615
2.141854 0.309002 1.842719
2.283989 0.329508 1.059398
2.466720 0.355870 0.126829
2.324888 0.335408 -0.705340
2.170495 0.313134 -1.368092
2.143472 0.309236 -2.306891
2.066248 0.298095 -2.956609
1.605444 0.231615 -3.881855
1.707477 0.246335 -4.557604
2.786485 0.174734 4.218373
2.848425 0.178618 3.643963
2.618304 0.164188 2.756314
2.256702 0.141513 2.231784
2.331383 0.146196 1.166452
2.539617 0.159254 0.428659
2.340514 0.146768 -0.470244
2.277039 0.142788 -1.020881
2.223551 0.139434 -2.095752
2.076234 0.130196 -4.373067
2.746183 -0.072241 4.853780
2.872382 -0.075561 3.827404
2.766521 -0.072776 3.271714
2.352549 -0.061886 2.491646
2.230022 -0.058663 1.671849
2.502183 -0.065822 0.887716
2.591138 -0.068162 0.009729
2.649384 -0.069695 -0.767442
2.486265 -0.065404 -1.796880
2.250120 -0.059192 -2.459281
2.025461 -0.053282 -3.120877
2.668114 -0.287130 4.941577
2.866741 -0.308506 4.139027
2.799328 -0.301251 3.247790
2.230693 -0.240057 2.706642
2.076138 -0.223425 1.826810
2.394349 -0.257669 1.076011
2.708828 -0.291512 -0.727056
2.875136 -0.309409 -1.322270
2.512092 -0.270340 -2.460040
2.254723 -0.242643 -3.011082
2.608544 -0.521247 5.133018
2.851210 -0.569737 4.341595
2.746214 -0.548756 3.356477
2.460558 -0.491676 2.569034
2.279862 -0.455569 2.040940
2.269427 -0.453483 1.265314
2.670355 -0.533598 -0.659206
3.010062 -0.601479 -1.392526
2.596973 -0.518934 -2.003088
2.328909 -0.465369 -2.785377
2.014357 -0.402515 -3.686350
1.928960 -0.385450 -4.477170
2.637905 -0.749352 4.430746
2.704546 -0.768283 3.951516
2.488324 -0.706860 2.925614
2.130636 -0.605251 2.293870
2.286615 -0.649561 1.586602
2.832972 -0.804765 0.462390
3.046780 -0.865501 -0.143580
3.057356 -0.868506 -0.890104
2.923697 -0.830537 -1.826937
2.584312 -0.734128 -2.595307
2.172951 -0.617272 -3.199782
2.033222 -0.577579 -4.009333
1.839007 -0.522408 -5.018439
2.653956 -0.992086 5.108048
2.744124 -1.025792 4.104308
2.563764 -0.958371 3.479834
2.164157 -0.808992 2.593172
2.237515 -0.836414 1.831250
2.445833 -0.914286 1.167253
2.521928 -0.942732 0.155225
2.875466 -1.074889 -0.441557
2.917312 -1.090532 -1.256349
2.553383 -0.954490 -2.047341
2.322621 -0.868228 -3.140830
1.958907 -0.732267 -3.802223
2.629521 -1.232496 4.312666
2.455777 -1.151060 3.482271
2.149762 -1.007625 2.775589
2.223304 -1.042096 2.131523
2.365479 -1.108735 1.206147
2.393294 -1.121773 0.281738
2.597314 -1.217400 -0.318573
2.726301 -1.277858 -1.154166
2.441216 -1.144235 -1.961480
2.162979 -1.013821 -2.636701
1.888022 -0.884944 -3.743025
1.779900 -0.834266 -4.256396
2.274843 -1.323726 5.285965
2.537597 -1.476622 4.367455
2.366278 -1.376932 3.734279
2.053370 -1.194851 2.795165
2.128939 -1.238825 1.817663
2.302315 -1.339712 1.243295
2.480761 -1.443549 0.473025
2.740494 -1.594687 -0.507300
2.672125 -1.554903 -1.314800
2.324448 -1.352591 -1.835362
2.112813 -1.229441 -2.711195
1.791794 -1.042641 -3.624601
1.702025 -0.990405 -4.286093
2.340322 -1.626474 4.485987
2.304349 -1.601473 3.903167
2.044752 -1.421059 3.257927
1.977728 -1.374479 2.183390
2.156718 -1.498872 1.565841
2.254372 -1.566740 0.484382
2.559636 -1.778892 -0.057514
2.608955 -1.813167 -0.842259
2.166164 -1.505437 -1.808790
1.991728 -1.384208 -2.447359
1.887887 -1.312041 -3.364353
6.738717 -4.683263 -10.295755
2.202968 -1.812126 5.065853
2.263350 -1.861795 4.113945
1.967753 -1.618642 3.341070
1.552128 -1.276756 2.594977
1.802471 -1.482683 1.735812
2.454769 -2.019254 0.899673
2.716200 -2.234303 -0.056860
2.564420 -2.109451 -0.495602
2.143428 -1.763149 -1.539900
1.935281 -1.591932 -2.138304
1.909735 -1.570918 -3.062746
1.740014 -1.431307 -3.904420
1.991865 -1.961482 4.453579
1.978973 -1.948786 3.632284
1.757819 -1.731007 2.994411
1.676351 -1.650781 2.088496
1.970906 -1.940843 1.307577
2.239656 -2.205494 0.296941
2.382673 -2.346329 -0.371441
2.134602 -2.102042 -2.708164
1.563914 -1.540059 -3.324483
1.760242 -2.038917 4.831447
1.904118 -2.205571 4.184331
1.752248 -2.029657 3.152459
1.657861 -1.920327 2.606220
1.828933 -2.118482 1.500127
2.091261 -2.422341 0.755594
2.249456 -2.605580 -0.123461
1.610053 -1.864950 -2.955358
1.378181 -1.596369 -3.730592
1.568243 -2.149767 4.776558
1.643980 -2.253589 3.748403
1.628390 -2.232217 3.223306
1.630311 -2.234851 2.297673
1.753935 -2.404317 1.550479
1.901890 -2.607135 0.841059
1.984351 -2.720173 0.028552
1.872032 -2.566206 -0.813551
1.576065 -2.160490 -1.515116
1.427504 -1.956841 -2.398485
1.413604 -1.937787 -3.355040
1.202394 -1.648257 -4.027479
1.404530 -1.925348 -4.773982
1.411172 -2.351350 4.224277
1.450811 -2.417398 3.549867
1.413755 -2.355654 2.736990
1.443624 -2.405422 2.120398
1.522128 -2.536228 1.059515
1.669808 -2.782298 0.448912
1.656535 -2.760184 -0.382329
1.395267 -2.324848 -1.173678
1.200783 -2.000792 -1.726013
1.218292 -2.029965 -2.687486
1.115278 -1.858319 -3.297245
1.036502 -1.727061 -4.240687
1.179009 -2.378549 4.915882
1.225157 -2.471650 3.928005
1.205788 -2.432574 3.247218
1.231408 -2.484260 2.394478
1.321354 -2.665718 1.531231
1.399144 -2.822652 0.766248
1.395434 -2.815168 -0.019158
1.354650 -2.732890 -0.758825
1.201264 -2.423447 -1.640138
1.069151 -2.156921 -2.546864
1.027690 -2.073276 -3.254188
0.895195 -1.805979 -3.800177
1.003031 -2.023528 -4.970579
0.903398 -2.265108 4.995507
0.983668 -2.466371 4.126324
0.982482 -2.463396 3.380323
0.985492 -2.470942 2.577706
1.040904 -2.609878 1.741902
1.085999 -2.722947 1.012084
1.090173 -2.733411 0.231200
1.074111 -2.693138 -0.723477
0.972655 -2.438756 -1.546402
0.888007 -2.226518 -1.987780
0.875808 -2.195931 -2.963584
0.720442 -1.806379 -3.597437
0.755499 -2.522258 4.562853
0.772452 -2.578855 3.533219
0.765778 -2.556573 3.006866
0.772846 -2.580171 1.912976
0.819976 -2.737515 1.052858
0.816547 -2.726068 0.511998
0.772597 -2.579338 -0.194031
0.712590 -2.379004 -1.083520
0.669966 -2.236703 -1.755411
0.677459 -2.261717 -2.599367
0.631097 -2.106937 -3.631817
0.577955 -1.929519 -4.240687
2.409705 -8.044874 -10.467297
0.510332 -2.373559 4.917330
0.560806 -2.608311 4.016675
0.569417 -2.648364 3.179345
0.568364 -2.643464 2.486818
0.569936 -2.650778 1.775899
0.573137 -2.665665 0.823981
0.560691 -2.607777 0.155334
0.525535 -2.444268 -0.760920
0.499491 -2.323135 -1.567026
0.483074 -2.246780 -2.416640
0.474468 -2.206754 -3.180142
0.418693 -1.947345 -3.812676
0.330517 -2.575962 4.478494
0.343139 -2.674331 3.817118
0.337237 -2.628333 2.773813
0.341519 -2.661707 2.176380
0.351806 -2.741878 1.259169
0.336712 -2.624241 0.514888
0.317301 -2.472957 -0.292680
0.302906 -2.360763 -0.969113
0.296849 -2.313560 -1.706414
0.297572 -2.319192 -2.630568
0.264788 -2.063685 -3.444522
0.248351 -1.935582 -4.348452
1.063957 -8.292188 -10.434796
0.103823 -2.428271 4.936876
0.114295 -2.673209 4.084625
0.116361 -2.721522 3.344159
0.114791 -2.684817 2.605010
0.115561 -2.702814 1.649836
0.117407 -2.745997 0.678115
0.113938 -2.664858 0.135917
0.105609 -2.470060 -0.615035
0.101194 -2.366804 -1.390830
0.097526 -2.280995 -2.181174
0.096457 -2.255992 -3.189962
0.086506 -2.023260 -3.889139
-0.097514 -2.499163 4.312324
-0.102946 -2.638371 3.518729
-0.104804 -2.685994 2.936848
-0.102706 -2.632214 2.189150
-0.102075 -2.616040 1.361708
-0.098180 -2.516236 0.282727
-0.095353 -2.443776 -0.508010
-0.093115 -2.386409 -1.233323
-0.087255 -2.236233 -1.819245
-0.083182 -2.131860 -2.903269
-0.074272 -1.903502 -3.701541
-0.066500 -1.704320 -4.398117
-0.296169 -2.392331 4.790242
-0.326983 -2.641231 3.958421
-0.330622 -2.670624 3.259194
-0.320798 -2.591270 2.591040
-0.320270 -2.587007 1.683645
-0.335508 -2.710097 0.988738
-0.312321 -2.522795 0.038970
-0.282735 -2.283814 -0.814215
-0.270789 -2.187319 -1.633670
-0.259488 -2.096033 -2.250924
-0.250653 -2.024668 -3.278978
-0.279511 -2.257770 -4.718471
-0.476019 -2.252029 5.274812
-0.530450 -2.509540 4.423197
-0.532622 -2.519814 3.623448
-0.522929 -2.473958 2.489280
-0.529537 -2.505222 1.763907
-0.529335 -2.504268 1.120202
-0.500152 -2.366203 0.322622
-0.470227 -2.224627 -0.696997
-0.448119 -2.120033 -1.339506
-0.426330 -2.016952 -2.244157
-0.736631 -2.474834 4.559472
-0.749712 -2.518782 3.883440
-0.701506 -2.356827 2.896771
-0.686406 -2.306097 2.144273
-0.688344 -2.312606 1.222687
-0.661881 -2.223699 0.470571
-0.640158 -2.150718 -0.373317
-0.614113 -2.063217 -0.876703
-0.596566 -2.004263 -1.886005
-0.572151 -1.922237 -2.535648
-0.459473 -1.543677 -3.519523
-0.430619 -1.446739 -4.228618
-2.360195 -7.929473 -10.336830
-0.862282 -2.202460 4.636946
-0.901018 -2.301401 3.831364
-0.882432 -2.253928 3.037683
-0.873003 -2.229843 2.361025
-0.864488 -2.208094 1.449566
-0.865529 -2.210754 0.714638
-0.817378 -2.087764 0.049121
-0.749265 -1.913790 -0.977886
-0.732006 -1.869706 -1.721830
-0.701654 -1.792179 -2.451689
-0.609596 -1.557042 -3.372664
-1.113256 -2.245475 4.143589
-1.123155 -2.265442 3.401880
-1.075389 -2.169095 2.732634
-1.037981 -2.093642 1.794606
-1.001826 -2.020718 0.982308
-0.941044 -1.898117 0.335180
-0.907691 -1.830844 -0.325997
-0.870282 -1.755388 -1.119213
-0.828827 -1.671772 -1.887792
-0.796908 -1.607390 -2.730411
-0.619833 -1.250223 -3.631535
-0.513969 -1.036692 -4.649009
-1.215210 -2.025817 4.806655
-1.261277 -2.102612 3.882863
-1.248149 -2.080727 3.106107
-1.208518 -2.014660 2.432879
-1.149460 -1.916208 1.750464
-1.170925 -1.951991 0.814781
-1.127645 -1.879841 -0.078703
-1.002025 -1.670427 -0.653768
-0.965170 -1.608986 -1.578912
-0.933064 -1.555464 -2.289447
-0.838159 -1.397253 -3.175179
-1.351434 -1.871895 4.176415
-1.372751 -1.901422 3.320514
-1.376035 -1.905970 2.797106
-1.359932 -1.883665 2.011535
-1.306559 -1.809737 1.041953
-1.225771 -1.697837 0.384736
-1.152318 -1.596096 -0.336571
-1.077424 -1.492360 -1.311822
-1.042518 -1.444010 -2.161678
-1.009044 -1.397644 -2.795808
-0.853032 -1.181549 -4.631795
-1.490667 -1.734530 4.617118
-1.499519 -1.744830 3.879415
-1.458126 -1.696665 2.944391
-1.488067 -1.731504 2.181174
-1.461178 -1.700216 1.336725
-1.348267 -1.568834 0.335644
-1.267563 -1.474927 -0.445764
-1.198331 -1.394369 -1.252218
-1.156711 -1.345940 -2.052218
-1.122566 -1.306211 -2.775876
-0.832682 -0.968903 -3.449725
-0.587042 -0.683078 -4.185118
-1.519484 -1.500352 4.806951
-1.622753 -1.602321 4.149859
-1.658696 -1.637811 3.163744
-1.657813 -1.636939 2.512977
-1.566450 -1.546727 1.574660
-1.621936 -1.601514 0.942370
-1.542009 -1.522594 -0.029534
-1.315328 -1.298767 -0.685363
-1.224914 -1.209491 -1.465827
-1.218345 -1.203005 -2.265810
-1.083638 -1.069994 -3.103658
-1.571240 -1.307069 5.060623
-1.751934 -1.457383 4.349072
-1.730585 -1.439623 3.388654
-1.701158 -1.415144 2.629863
-1.629641 -1.355651 1.953710
-1.580425 -1.314710 0.997636
-1.456209 -1.211379 0.396782
-1.360203 -1.131514 -0.408099
-1.337396 -1.112541 -1.285538
-1.292000 -1.074778 -2.157615
-1.209702 -1.006316 -3.109456
-0.815173 -0.678119 -3.797770
-0.811321 -0.674915 -4.641144
-1.789608 -1.245492 4.570806
-1.819398 -1.266224 3.798988
-1.797973 -1.251313 2.987819
-1.779150 -1.238213 1.911634
-1.698054 -1.181774 1.392573
-1.636033 -1.138610 0.296771
-1.574410 -1.095723 -0.287472
-1.486117 -1.034274 -1.163603
-1.427827 -0.993707 -1.864383
-1.813330 -1.057355 4.912196
-1.915572 -1.116972 4.037637
-1.881642 -1.097187 3.137534
-1.835585 -1.070331 2.448084
-1.768994 -1.031502 1.492312
-1.771491 -1.032958 0.790244
-1.678329 -0.978635 -0.237745
-1.517090 -0.884617 -1.015855
-1.454110 -0.847893 -1.737246
-1.413674 -0.824315 -2.631737
-1.112445 -0.648668 -3.286083
-0.895321 -0.522062 -4.272751
-1.835745 -0.870111 4.971703
-1.991381 -0.943880 4.138782
-1.890141 -0.895894 3.294202
-1.862451 -0.882770 2.611155
-1.859529 -0.881385 1.719458
-1.851915 -0.877776 0.730984
-1.710531 -0.810762 0.257911
-1.580346 -0.749057 -0.707162
-1.553063 -0.736125 -1.396061
-1.477329 -0.700229 -2.230492
-1.312454 -0.622081 -3.160171
-0.889811 -0.421755 -4.877285
-1.996296 -0.749446 4.386777
-1.966884 -0.738404 3.651699
-1.890381 -0.709683 2.723500
-1.888598 -0.709014 1.909681
-1.861281 -0.698758 1.237172
-1.750716 -0.657251 0.466536
-1.632728 -0.612956 -0.378498
-1.577820 -0.592342 -1.157615
-1.528315 -0.573757 -2.190531
-1.142932 -0.429077 -4.343736
-1.980423 -0.567431 4.616136
-2.022554 -0.579502 3.920587
-2.009081 -0.575642 3.274470
-2.033321 -0.582587 2.300220
-2.000023 -0.573046 1.668932
-1.970723 -0.564651 0.760614
-1.866977 -0.534926 0.069343
-1.688500 -0.483789 -1.025812
-1.595059 -0.457016 -1.758398
-1.511279 -0.433011 -2.425214
-1.218345 -0.349080 -3.338749
-7.831497 -2.243879 -10.352919
-1.910086 -0.383805 5.276084
-2.046608 -0.411238 4.432271
-2.003673 -0.402611 3.318493
-1.974604 -0.396769 2.654299
-2.001230 -0.402120 1.888608
-1.920292 -0.385856 1.099410
-1.757560 -0.353157 0.218833
-1.713350 -0.344274 -0.637449
-1.706250 -0.342847 -1.305460
-1.623776 -0.326275 -2.169071
-1.507700 -0.302952 -2.981374
-1.502934 -0.301994 -4.632449
-2.043443 -0.225168 4.777344
-2.061289 -0.227134 3.873934
-2.012286 -0.221734 3.101110
-2.040291 -0.224820 2.096036
-2.009811 -0.221462 1.473573
-1.912857 -0.210778 0.733507
-1.781273 -0.196279 -0.039788
-1.673972 -0.184456 -1.117710
-1.633988 -0.180050 -1.949384
-1.565951 -0.172553 -2.475247
-1.257040 -0.138514 -3.308478
-1.037811 -0.114357 -4.117671
-1.892067 -0.055243 4.879601
-2.073499 -0.060540 4.323721
-2.091720 -0.061072 3.304067
-2.048479 -0.059810 2.443276
-2.057429 -0.060071 1.729333
-2.077051 -0.060644 0.888392
-1.916654 -0.055961 0.178432
-1.719698 -0.050210 -0.498358
-1.723968 -0.050335 -1.545554
-1.665335 -0.048623 -2.328794
-1.464093 -0.042747 -3.007514
-1.197412 -0.034961 -4.572039
-2.035460 0.121758 4.448231
-2.098169 0.125510 3.661562
-2.024692 0.121114 2.842106
-2.040192 0.122042 1.938001
-1.977817 0.118310 1.019493
-1.864416 0.111527 0.228309
-1.740882 0.104137 -0.378498
-1.681099 0.100561 -1.117710
-1.616024 0.096668 -1.950713
-1.542782 0.092287 -2.759089
-1.252968 0.074951 -4.421583
-8.830868 0.528251 -10.535831
-1.973566 0.278561 4.484003
-2.032032 0.286814 3.666598
-2.008816 0.283537 3.150526
-2.056643 0.290287 2.084722
-2.019445 0.285037 1.274986
-1.900809 0.268292 0.436158
-1.774607 0.250479 -0.109417
-1.660180 0.234328 -0.838339
-1.627743 0.229750 -1.949384
-1.575326 0.222351 -2.695335
-1.269703 0.179214 -3.500158
-1.851876 0.416880 4.919277
-1.956628 0.440461 3.941254
-1.935686 0.435747 3.214228
-1.950002 0.438969 2.436751
-2.024156 0.455662 1.540634
-2.003302 0.450968 0.908758
-1.797064 0.404541 -0.009933
-1.710718 0.385103 -0.916284
-1.655808 0.372742 -1.486775
-1.611290 0.362721 -2.490170
-1.428958 0.321676 -3.007514
-0.945635 0.212874 -4.951736
-1.889329 0.587779 4.365273
-1.935785 0.602232 3.669116
-1.919730 0.597237 2.604865
-1.953617 0.607779 1.977514
-1.990135 0.619140 1.115362
-1.880199 0.584938 0.386065
-1.664894 0.517956 -0.338657
-1.615462 0.502578 -1.347144
-1.546854 0.481233 -1.970701
-1.493916 0.464764 -2.677150
-1.307325 0.406715 -4.530493
-1.817955 0.748420 4.668384
-1.842833 0.758662 3.822568
-1.874874 0.771853 2.832223
-1.919073 0.790048 2.055114
-2.052346 0.844915 1.406467
-1.913289 0.787667 0.385001
-1.611113 0.663267 -0.139449
-1.508389 0.620977 -1.019332
-1.547197 0.636954 -2.027895
-1.568179 0.645592 -2.757823
-1.184856 0.487785 -3.490072
-0.977061 0.402239 -4.445307
-1.829921 0.932570 4.566763
-1.853271 0.944469 3.693686
-1.829729 0.932472 3.148360
-1.854178 0.944931 2.153803
-1.936138 0.986700 1.497009
-1.822893 0.928988 0.533438
-1.597531 0.814139 -0.268567
-1.494039 0.761397 -0.848318
-1.465123 0.746660 -1.959371
-1.435175 0.731398 -2.623533
-1.211531 0.617424 -3.249251
-1.231086 0.627389 -4.426874
-1.596136 1.009111 5.031778
-1.724471 1.090248 4.247662
-1.702602 1.076421 3.271345
-1.691738 1.069553 2.476312
-1.844909 1.166391 1.713529
-1.817098 1.148808 0.748665
-1.641821 1.037994 0.168403
-1.542453 0.975172 -0.755401
-1.440743 0.910868 -1.656297
-1.398329 0.884054 -2.530110
-1.185541 0.749524 -3.164447
-0.823879 0.520874 -4.992419
-1.607955 1.201138 4.391953
-1.624981 1.213857 3.678999
-1.610708 1.203194 2.604865
-1.732126 1.293893 1.803335
-1.765449 1.318786 0.914829
-1.657913 1.238456 0.414616
-1.459127 1.089964 -0.556629
-1.318444 0.984874 -1.448859
-1.297854 0.969493 -1.970701
-1.268105 0.947271 -2.917308
-1.138623 0.850549 -4.544496
-1.520208 1.340115 4.550125
-1.574267 1.387770 3.871274
-1.534178 1.352430 3.049592
-1.496918 1.319584 2.387295
-1.547603 1.364264 1.234615
-1.686090 1.486346 0.638546
-1.701129 1.499603 -0.225800
-1.487806 1.311552 -1.088759
-1.251870 1.103566 -1.948055
-1.227034 1.081672 -2.621748
-1.039380 0.916249 -3.257116
-0.994749 0.876905 -4.382465
-1.308086 1.356238 5.002014
-1.411548 1.463509 4.188380
-1.391081 1.442288 3.152691
-1.399953 1.451487 2.326342
-1.443683 1.496826 1.649195
-1.577378 1.635443 0.608655
-1.574107 1.632052 0.176714
-1.197438 1.241517 -0.757473
-1.061631 1.100711 -1.654198
-1.159724 1.202415 -2.398660
-1.021443 1.059043 -3.087797
-0.877498 0.909799 -4.892073
-1.160585 1.440578 5.118091
-1.304375 1.619058 4.363198
-1.281281 1.590392 3.567824
-1.283361 1.592974 2.741383
-1.312253 1.628837 1.895870
-1.431880 1.777324 1.050321
-1.501021 1.863145 0.195667
-1.251530 1.553464 -0.455042
-1.065829 1.322962 -1.526665
-1.038329 1.288828 -2.149102
-0.961351 1.193278 -3.213868
-1.305301 1.620207 -4.774075
-1.169686 1.721773 4.382935
-1.150412 1.693402 3.617214
-1.128586 1.661275 2.575201
-1.156915 1.702974 1.739207
-1.293944 1.904681 0.873063
-1.386726 2.041255 0.224546
-1.289380 1.897962 -0.421849
-1.078322 1.587286 -1.398339
-0.935157 1.376547 -2.298850
-0.926238 1.363418 -3.103123
-1.004986 1.772847 4.438351
-1.082422 1.909447 3.831121
-1.008802 1.779578 2.741383
-0.995350 1.755849 1.929452
-1.137182 2.006047 1.000558
-1.255244 2.214315 0.487109
-1.292037 2.279219 -0.456923
-1.076830 1.899584 -1.092600
-0.808375 1.426015 -1.859492
-0.754257 1.330548 -4.398981
-0.850605 1.875891 4.806968
-0.870635 1.920064 3.960033
-0.845286 1.864159 3.069348
-0.770976 1.700279 2.335948
-0.857181 1.890393 1.560373
-1.041367 2.296590 0.575184
-0.998532 2.202122 -0.254189
-0.766184 1.689712 -0.983285
-0.642224 1.416334 -1.673097
-0.699415 1.542461 -2.727903
-0.602675 1.329116 -3.513785
-0.546838 1.205975 -4.147887
-0.701762 1.949574 4.303980
-0.691869 1.922089 3.308615
-0.645278 1.792655 2.871712
-0.683939 1.900059 1.949222
-0.805419 2.237543 0.890817
-0.835632 2.321478 0.136681
-0.854264 2.373242 -0.614176
-0.726443 2.018141 -1.419242
-0.570403 1.584644 -2.217476
-0.565827 1.571930 -3.071073
-0.735933 2.044505 -4.511753
-0.506687 1.973839 4.639059
-0.520238 2.026630 3.812088
-0.490556 1.911000 3.085578
-0.419823 1.635453 2.287307
-0.489927 1.908549 1.436011
-0.601833 2.344487 0.498589
-0.582828 2.270452 -0.382077
-0.466945 1.819020 -0.893301
-0.392992 1.530933 -1.681963
-0.423229 1.648721 -2.496749
-0.364196 1.418753 -3.300703
-0.364781 2.064882 4.301028
-0.358947 2.031859 3.525883
-0.330774 1.872381 2.822128
-0.349719 1.979620 1.771269
-0.414491 2.346272 1.057189
-0.442286 2.503606 0.155879
-0.412511 2.335062 -0.548230
-0.303339 1.717080 -1.395106
-0.270865 1.533260 -2.184996
-0.311731 1.764587 -3.020833
-0.300037 1.698389 -3.901218
-0.268907 1.522175 -4.732608
-0.191222 2.031332 4.458111
-0.199414 2.118358 3.908037
-0.184519 1.960120 3.036087
-0.172752 1.835128 2.357416
-0.198944 2.113357 1.489224
-0.201445 2.139928 0.728966
-0.196120 2.083361 -0.197303
-0.178241 1.893434 -0.843103
-0.151778 1.612318 -1.960707
-0.167800 1.782522 -2.680677
-0.139445 1.481310 -3.278410
-0.126947 1.348540 -4.409721
-0.023624 1.997176 4.905873
-0.024250 2.050072 4.116381
-0.022932 1.938608 3.268179
-0.019289 1.630682 2.551816
-0.021913 1.852469 1.609788
-0.022477 1.900129 0.773682
-0.023572 1.992737 -0.247310
-0.029612 2.503363 -0.907222
-0.025544 2.159464 -1.754103
-0.021707 1.835096 -2.607470
-0.019272 1.629249 -3.175179
-0.017199 1.453952 -4.184140
-0.012947 1.094483 -4.945423
0.150981 2.211280 4.456399
0.136404 1.997777 3.671635
0.129838 1.901612 2.881628
0.146509 2.145779 2.060711
0.174159 2.550739 1.022821
0.186814 2.736091 0.174382
0.163389 2.392998 -0.684796
0.120584 1.766081 -1.433965
0.107762 1.578283 -2.183511
0.122520 1.794430 -2.790086
0.120225 1.760828 -4.471791
0.342309 2.154580 4.580647
0.329650 2.074899 3.651699
0.281164 1.769715 3.020833
0.265131 1.668801 2.307258
0.335114 2.109294 1.163088
0.403189 2.537774 0.428359
0.399231 2.512860 -0.409175
0.303090 1.907725 -1.030806
0.265118 1.668718 -1.866931
0.298339 1.877822 -2.822128
0.236496 1.488567 -3.488984
0.234100 1.473488 -4.505230
0.499502 2.064990 4.527811
0.506093 2.092238 3.905349
0.425298 1.758223 3.219728
0.389959 1.612127 2.209006
0.468689 1.937606 1.385564
0.429192 1.774321 0.785215
0.456595 1.887607 -0.029718
0.518523 2.143625 -0.983671
0.461825 1.909228 -1.852914
0.455098 1.881420 -2.610239
0.396223 1.638024 -3.512355
0.664275 2.008350 5.030529
0.665472 2.011969 4.058626
0.551762 1.668183 3.475319
0.313293 0.947203 2.452971
0.661091 1.998723 0.976536
0.735578 2.223927 -0.166549
0.855428 2.586279 -0.707671
0.763985 2.309811 -1.711443
0.619012 1.871503 -2.398835
0.582595 1.761401 -3.175613
0.564018 1.705235 -3.863420
0.702929 2.125217 -4.823241
0.914046 2.108170 4.297031
0.796950 1.838098 3.681524
0.769999 1.775938 2.610239
0.813874 1.877131 1.977514
0.850362 1.961287 1.222207
0.962600 2.220156 0.449710
1.042518 2.404480 -0.515250
0.871193 2.009333 -1.289388
0.733159 1.690969 -1.928820
0.789473 1.820853 -4.414749
1.059851 1.993802 4.780647
1.016977 1.913147 4.033358
0.855118 1.608657 3.078407
0.502477 0.945265 2.417614
0.940729 1.769709 0.939680
1.075831 2.023865 0.019621
1.116322 2.100036 -2.489915
0.852408 1.603559 -3.299260
0.777043 1.461781 -3.959105
0.783125 1.473223 -4.706650
