-1.144769 -1.434732 4.651516
-1.162551 -1.457018 3.888444
-1.154993 -1.447546 3.309149
-1.069411 -1.340286 2.263227
-1.036233 -1.298704 1.797760
-1.015028 -1.272128 0.972586
-1.006338 -1.261237 0.091766
-0.994829 -1.246813 -0.670346
-0.910574 -1.141217 -1.208131
-1.026136 -1.286051 -2.682706
-1.075144 -1.134977 6.904215
-1.188118 -1.254239 6.177653
-1.213882 -1.281437 5.671449
-1.229968 -1.298417 4.676666
-1.296058 -1.368185 3.849145
-1.264658 -1.335038 3.430131
-1.151895 -1.215999 2.413172
-1.123110 -1.185612 1.734900
-1.109232 -1.170962 1.285368
-1.095665 -1.156641 0.569346
-1.076908 -1.136839 -0.413551
-1.022376 -1.079273 -1.253295
-0.758701 -0.800924 -1.650168
-1.177899 -1.030946 6.397774
-1.257534 -1.100646 5.715627
-1.304230 -1.141516 5.160786
-1.344483 -1.176747 4.286605
-1.296640 -1.134873 3.525222
-1.266413 -1.108417 2.836427
-1.265594 -1.107700 2.145871
-1.249012 -1.093187 1.200988
-1.239665 -1.085006 0.779363
-1.158585 -1.014042 -0.294302
-1.028416 -0.900112 -2.305273
-1.311949 -0.966932 6.728291
-1.368183 -1.008378 5.880453
-1.383997 -1.020033 5.069327
-1.413611 -1.041859 4.039998
-1.379468 -1.016695 3.433743
-1.346845 -0.992651 2.717361
-1.354841 -0.998544 2.164186
-1.338329 -0.986375 1.274296
-1.300891 -0.958782 0.422113
-1.238613 -0.912882 -0.137956
-1.094242 -0.806478 -2.194334
-1.330066 -0.799121 6.591067
-1.391979 -0.836319 6.026186
-1.385877 -0.832653 5.225685
-1.455658 -0.874578 4.381700
-1.432780 -0.860833 3.512128
-1.512039 -0.908453 2.903206
-1.476717 -0.887230 1.996353
-1.330573 -0.799425 1.619262
-1.326271 -0.796841 0.772486
-1.361572 -0.818050 0.045917
-1.371029 -0.823732 -0.863148
-1.104810 -0.663784 -1.316304
-1.301156 -0.645907 6.734960
-1.404576 -0.697246 5.998251
-1.471501 -0.730468 5.390783
-1.542215 -0.765571 4.369317
-1.556601 -0.772713 3.662393
-1.502425 -0.745819 3.058416
-1.459801 -0.724660 2.480965
-1.388808 -0.689419 1.582488
-1.369912 -0.680038 1.039874
-1.333869 -0.662146 0.230266
-1.336092 -0.663250 -0.469731
-1.135764 -0.563805 -1.419257
-1.000966 -0.496890 -2.668601
-1.267399 -0.490033 7.148673
-1.443635 -0.558173 6.439219
-1.518925 -0.587284 5.458959
-1.633264 -0.631492 4.588751
-1.657979 -0.641049 4.009612
-1.594865 -0.616646 3.397143
-1.558478 -0.602577 2.689879
-1.513212 -0.585075 1.993120
-1.471571 -0.568975 0.983217
-1.458864 -0.564062 0.220564
-1.459878 -0.564454 -0.349223
-1.377115 -0.532454 -0.940066
-1.325141 -0.376043 7.115795
-1.462272 -0.414958 6.292046
-1.494980 -0.424239 5.622117
-1.605167 -0.455508 4.721447
-1.663367 -0.472023 4.024701
-1.576782 -0.447453 3.441379
-1.541935 -0.437564 2.455266
-1.579660 -0.448269 1.899961
-1.542631 -0.437762 1.010026
-1.529449 -0.434021 0.312232
-1.505839 -0.427321 -0.358413
-1.332095 -0.378016 -1.201571
-1.366969 -0.253021 6.805045
-1.485561 -0.274972 6.103464
-1.481074 -0.274141 5.327737
-1.629383 -0.301593 4.638979
-1.717084 -0.317826 3.957747
-1.670611 -0.309224 3.287322
-1.610016 -0.298008 2.581847
-1.531257 -0.283430 1.720381
-1.506180 -0.278788 1.113468
-1.463977 -0.270977 0.175003
-1.466871 -0.271512 -0.478940
-1.259893 -0.233201 -1.103182
-1.302147 -0.241023 -2.745582
-1.353207 -0.134539 6.907377
-1.442873 -0.143454 6.047824
-1.516371 -0.150761 5.438178
-1.655256 -0.164569 4.684798
-1.730226 -0.172023 3.893757
-1.715412 -0.170550 3.284885
-1.642593 -0.163310 2.424130
-1.581750 -0.157261 1.856868
-1.572499 -0.156342 1.065891
-1.556002 -0.154701 0.137853
-1.558027 -0.154903 -0.395172
-1.330868 -0.132318 -1.277361
-1.361885 -0.019203 7.041851
-1.500447 -0.021157 6.324253
-1.529198 -0.021562 5.626230
-1.561620 -0.022019 4.858353
-1.619479 -0.022835 3.731022
-1.728649 -0.024375 3.072172
-1.648556 -0.023245 2.396630
-1.556179 -0.021943 1.701996
-1.553966 -0.021912 1.029911
-1.563557 -0.022047 0.147044
-1.568209 -0.022112 -0.578957
-1.379065 -0.019445 -1.035256
-1.316499 0.100752 6.963647
-1.485188 0.113662 6.126334
-1.543384 0.118115 5.585343
-1.528764 0.116996 4.656072
-1.663096 0.127277 4.143601
-1.697630 0.129920 3.323933
-1.660983 0.127115 2.625747
-1.581930 0.121065 1.801767
-1.545914 0.118309 0.901205
-1.535526 0.117514 0.331089
-1.538258 0.117723 -0.542604
-1.379053 0.105539 -1.155375
-1.229096 0.094063 -1.736947
-1.353029 0.230620 7.213383
-1.469106 0.250405 6.269001
-1.472019 0.250902 5.405322
-1.488100 0.253643 4.481239
-1.651210 0.281445 3.994023
-1.712624 0.291912 3.163612
-1.638658 0.279305 2.579933
-1.531951 0.261117 1.656034
-1.506304 0.256746 0.993876
-1.516643 0.258508 0.091971
-1.546224 0.263550 -0.588146
-1.357447 0.231373 -0.961329
-1.194370 0.203577 -1.812515
-1.247878 0.321409 7.299070
-1.353678 0.348660 6.181127
-1.421364 0.366093 5.712312
-1.489713 0.383697 4.692863
-1.585551 0.408382 3.886955
-1.665078 0.428865 3.239150
-1.591012 0.409789 2.314120
-1.510351 0.389013 1.766339
-1.485782 0.382685 1.187056
-1.490936 0.384013 0.285106
-1.492805 0.384494 -0.459839
-1.341568 0.345540 -1.220049
-1.176218 0.302952 -1.868230
-1.237175 0.445640 7.061278
-1.328813 0.478648 6.121258
-1.383051 0.498185 5.418489
-1.416819 0.510349 4.641079
-1.546438 0.557038 3.941970
-1.532828 0.552136 3.081295
-1.477722 0.532286 2.356025
-1.465559 0.527905 1.729572
-1.415941 0.510032 1.059057
-1.400619 0.504513 0.147371
-1.452342 0.523144 -0.597778
-1.328800 0.478643 -1.274539
-1.116412 0.402140 -1.813844
-1.143965 0.524218 6.783305
-1.270122 0.582028 6.314960
-1.291524 0.591836 5.426405
-1.352033 0.619564 4.502952
-1.558179 0.714030 3.674257
-1.582548 0.725196 3.200181
-1.447666 0.663387 2.308371
-1.319944 0.604859 1.614839
-1.249151 0.572419 0.850432
-1.353693 0.620324 0.211845
-1.358062 0.622327 -0.607874
-1.262556 0.578562 -1.312432
-1.114427 0.510682 -2.063191
-1.162707 0.532806 -2.805225
-1.036658 0.596401 6.853729
-1.288418 0.741240 6.384132
-1.271658 0.731599 5.400057
-1.304231 0.750338 4.631873
-1.403888 0.807672 3.731022
-1.510157 0.868809 2.941932
-1.502660 0.864496 2.528475
-1.268744 0.729922 1.845316
-1.192482 0.686048 0.915123
-1.313711 0.755792 0.386555
-1.358299 0.781444 -0.496256
-1.221611 0.702806 -1.191453
-1.051494 0.604936 -1.840373
-1.311834 0.754712 -2.600621
-1.048820 0.739987 6.653100
-1.086157 0.766330 5.792844
-1.128707 0.796351 5.007040
-1.209981 0.853693 4.054492
-1.404073 0.990634 3.479486
-1.540993 1.087236 2.553606
-1.536877 1.084332 2.124013
-1.177405 0.830709 1.365840
-1.079446 0.761595 0.722103
-1.257120 0.886952 -0.091971
-1.249683 0.881704 -1.039874
-1.047646 0.739159 -1.725132
-0.938572 0.662202 -2.413582
-0.949402 0.800455 6.699824
-1.013314 0.854340 5.917404
-1.032729 0.870708 5.304885
-1.096330 0.924332 4.481884
-1.270682 1.071330 3.420507
-1.471362 1.240527 2.724478
-1.454456 1.226273 2.067842
-1.067332 0.899883 1.487933
-0.911821 0.768769 0.538943
-1.099710 0.927181 0.036897
-1.076033 0.907219 -2.163407
-0.861689 0.858964 6.955892
-0.946730 0.943737 5.982180
-0.945509 0.942520 5.203131
-0.962065 0.959024 4.482489
-1.109835 1.106326 3.932326
-1.351391 1.347118 3.110788
-1.375537 1.371188 2.293520
-1.288868 1.284793 1.451039
-1.186042 1.182292 0.870386
-1.054765 1.051430 0.248687
-1.057213 1.053870 -0.543408
-0.951654 0.948645 -1.434629
-0.897029 0.894193 -1.902576
-0.779937 0.936857 7.090926
-0.860734 1.033910 6.171606
-0.825283 0.991326 5.238506
-0.850819 1.022000 4.825688
-0.976614 1.173105 3.797251
-1.221385 1.467122 3.119884
-1.301811 1.563729 2.177924
-1.096254 1.316816 0.036597
-0.969696 1.164795 -0.386555
-0.902990 1.084668 -1.246845
-0.783245 0.940831 -2.035343
-0.814910 0.978867 -2.740345
-0.596005 0.858089 7.234389
-0.726915 1.046565 6.337873
-0.746003 1.074045 5.511025
-0.711762 1.024748 4.780596
-0.817663 1.177217 3.863795
-1.065546 1.534103 3.215625
-1.167415 1.680767 2.350067
-1.075420 1.548319 1.767535
-0.761044 1.095701 1.184838
-0.721174 1.038298 0.231800
-0.879536 1.266297 -0.478231
-0.762565 1.097891 -1.258857
-0.683806 0.984499 -2.027546
-0.612549 1.075206 6.546590
-0.627388 1.101252 5.574669
-0.607626 1.066565 4.991844
-0.652576 1.145466 4.167932
-0.830036 1.456960 3.317238
-0.979203 1.718794 2.446140
-0.952413 1.671768 2.011746
-0.737651 1.294798 1.345402
-0.663895 1.165333 0.434814
-0.712915 1.251379 -0.350519
-0.696698 1.222913 -1.136058
-0.648215 1.137811 -1.770163
-0.882144 1.548426 -2.506454
-0.497663 1.098282 6.514166
-0.547989 1.209344 5.783589
-0.521937 1.151851 5.071677
-0.513388 1.132983 4.177072
-0.660153 1.456875 3.297069
-0.789252 1.741783 2.569890
-0.773287 1.706549 2.005652
-0.657369 1.450733 1.405700
-0.574136 1.267046 0.424936
-0.594272 1.311486 -0.313623
-0.588758 1.299317 -0.941456
-0.535648 1.182109 -1.529374
-0.520601 1.148902 -2.228612
-0.408201 1.145946 6.569884
-0.439380 1.233475 5.824831
-0.390690 1.096788 5.077132
-0.390509 1.096279 4.139720
-0.538234 1.510991 3.342968
-0.587266 1.648638 2.738732
-0.565241 1.586806 1.759797
-0.572689 1.607714 1.107694
-0.509667 1.430793 0.607424
-0.483410 1.357082 -0.387414
-0.478088 1.342142 -0.876862
-0.462314 1.297859 -2.462394
-0.299541 1.173551 6.802373
-0.320451 1.255473 6.037184
-0.284941 1.116350 5.164551
-0.228407 0.894859 4.625765
-0.401279 1.572144 2.712218
-0.401781 1.574110 2.029816
-0.405250 1.587700 -0.119207
-0.371568 1.455741 -2.453334
-0.187839 1.123818 6.952294
-0.195213 1.167937 5.980348
-0.180630 1.080692 5.125452
-0.158861 0.950451 4.734699
-0.197834 1.183622 3.570811
-0.268729 1.607776 3.090467
-0.293721 1.757301 2.139494
-0.300413 1.797341 1.505759
-0.222480 1.331072 0.869556
-0.204157 1.221448 0.009279
-0.246763 1.476355 -0.755215
-0.216598 1.295885 -1.315336
-0.202847 1.213611 -2.137444
-0.084164 1.160957 6.821467
-0.089672 1.236938 6.152398
-0.074665 1.029928 5.373784
-0.053691 0.740610 4.592649
-0.100111 1.380921 3.150301
-0.110090 1.518572 1.999035
-0.127751 1.762187 1.380131
-0.097300 1.342155 0.703072
-0.093166 1.285121 0.083387
-0.107925 1.488709 -0.534198
-0.093490 1.289598 -1.418214
-0.091380 1.260492 -2.265701
0.022822 1.128135 6.770526
0.024723 1.222069 6.193983
0.021336 1.054684 5.513764
0.014671 0.725190 4.652465
0.020974 1.036761 3.918519
0.025978 1.284127 2.870094
0.031333 1.548842 2.025139
0.038853 1.920563 1.473983
0.031822 1.572995 0.817852
0.028083 1.388169 -0.064666
0.030251 1.495339 -0.699963
0.026069 1.288617 -1.316304
0.025403 1.255724 -2.145151
0.134941 1.192104 6.872308
0.134480 1.188030 6.045393
0.102589 0.906302 5.411907
0.057370 0.506824 4.739374
0.141575 1.250709 2.862925
0.165276 1.460090 1.946699
0.187105 1.652936 -0.082467
0.171792 1.517655 -2.451523
0.221917 1.119571 6.835676
0.234077 1.180917 6.091840
0.172827 0.871909 5.425172
0.113873 0.574487 4.738697
0.187971 0.948314 3.964464
0.279247 1.408797 2.885145
0.347814 1.754720 2.249051
0.360506 1.818747 1.650425
0.266818 1.346096 0.776495
0.245648 1.239291 -0.027816
0.290590 1.466023 -0.644710
0.259202 1.307673 -1.157079
0.255068 1.286814 -2.234600
0.331244 1.149209 6.979479
0.337501 1.170917 6.031741
0.257825 0.894491 5.370568
0.209161 0.725657 4.869005
0.299826 1.040210 4.092836
0.406884 1.411634 2.975191
0.498069 1.727991 2.385963
0.532942 1.848977 1.546721
0.415704 1.442234 0.920956
0.363761 1.262024 0.027775
0.420757 1.459765 -0.625828
0.370224 1.284447 -1.258857
0.368588 1.278772 -2.140430
0.416115 1.071614 6.486350
0.428038 1.102321 5.971054
0.317982 0.818895 5.023880
0.106861 0.275198 4.642459
0.476228 1.226422 2.942059
0.559186 1.440064 1.951581
0.730230 1.880551 1.387973
0.649955 1.673819 0.693746
0.547816 1.410784 0.036816
0.552913 1.423909 -0.975476
0.414492 1.067436 -1.470994
0.425292 1.095248 -2.430411
0.537416 1.071575 6.342332
0.490769 0.978564 5.602987
0.358973 0.715771 4.833826
0.436329 0.870013 4.020576
0.631502 1.259177 3.399666
0.759459 1.514315 2.328996
0.890100 1.774805 1.771322
0.797285 1.589738 1.004777
0.690850 1.377514 0.423054
0.689958 1.375735 -0.211531
0.663751 1.323479 -1.078267
0.608792 1.213894 -1.739822
0.594443 0.972788 6.700535
0.644916 1.055386 6.133840
0.552848 0.904719 5.388563
0.439931 0.719934 4.779953
0.529826 0.867043 3.731785
0.695692 1.138479 2.865886
0.884339 1.447193 2.356460
1.031890 1.688657 1.644257
0.782246 1.280122 0.893334
0.659398 1.079084 0.287430
0.780276 1.276898 -0.736798
0.698865 1.143672 -1.351373
0.675651 1.105682 -1.975290
0.781877 1.046422 6.236128
0.765274 1.024201 5.487228
0.567786 0.759893 4.984965
0.597438 0.799578 4.017665
0.850439 1.138181 3.267985
0.931968 1.247295 2.514059
1.077038 1.441449 1.552514
1.098590 1.470293 1.212970
0.950938 1.272683 0.146934
0.921902 1.233823 -0.349482
0.887122 1.187276 -1.124330
0.829811 1.110574 -1.803214
0.861764 0.971577 6.467594
0.940604 1.060463 5.863311
0.747066 0.842262 4.987737
0.529816 0.597329 4.441813
0.766597 0.864282 3.378141
1.080643 1.218346 2.785605
1.190003 1.341642 1.918881
1.333513 1.503438 1.188487
1.173945 1.323537 0.621193
1.004261 1.132232 -0.055223
1.033182 1.164837 -2.514059
0.954095 0.893454 6.898839
1.064877 0.997195 6.236692
1.077344 1.008870 5.455349
0.802289 0.751297 4.801472
0.762806 0.714324 3.766406
0.999455 0.935931 3.254305
1.215596 1.138335 2.275755
1.406434 1.317043 1.601270
1.299163 1.216590 1.050434
1.159403 1.085714 -0.009183
1.109949 1.039403 -0.699445
0.991079 0.928087 -1.146981
0.857538 0.803034 -2.047624
1.158760 1.085111 -2.585675
1.163092 0.919973 6.365709
1.267312 1.002409 5.536385
1.141607 0.902979 4.996075
0.783675 0.619865 4.235573
0.924006 0.730863 3.601304
1.238801 0.979857 2.798917
1.327423 1.049955 1.906295
1.345960 1.064617 1.363893
1.210001 0.957077 0.542604
1.147833 0.907904 -0.082958
1.200906 0.949884 -1.095070
0.945758 0.748069 -1.701072
0.848585 0.671207 -2.530747
1.269818 0.825579 6.531451
1.363598 0.886550 5.600606
1.308972 0.851035 5.027415
0.951466 0.618600 4.313325
0.981999 0.638452 3.536231
1.327435 0.863038 2.844844
1.353157 0.879762 1.846315
1.309207 0.851187 1.250514
1.230677 0.800131 0.553027
1.248185 0.811514 -0.165792
1.278703 0.831355 -0.892673
1.003609 0.652501 -1.515292
0.847900 0.551266 -2.592333
1.336555 0.701041 6.370284
1.485487 0.779158 5.752267
1.437212 0.753837 4.755930
1.105506 0.579853 4.412123
0.994088 0.521413 3.550700
1.333490 0.699434 2.499367
1.444995 0.757920 1.707386
1.384125 0.725993 1.287277
1.322496 0.693667 0.580246
1.342472 0.704145 -0.414164
1.165574 0.611359 -2.299408
1.426245 0.601970 6.572679
1.560925 0.658813 5.702279
1.573221 0.664003 4.818650
1.211432 0.511304 4.140159
1.051794 0.443926 3.492287
1.382127 0.583349 2.749887
1.488860 0.628397 1.883020
1.461082 0.616673 1.231219
1.397787 0.589958 0.506195
1.418580 0.598734 -0.303499
1.480556 0.624892 -1.120172
1.244032 0.525064 -1.582617
0.988129 0.417056 -2.400227
1.487877 0.471129 6.637028
1.706654 0.540404 5.817559
1.742600 0.551786 4.950372
1.337665 0.423565 4.439002
1.038820 0.328937 3.714342
1.360153 0.430686 3.062633
1.581320 0.500717 2.174958
1.516620 0.480231 1.359788
1.451433 0.459589 0.782260
1.419224 0.449391 0.138160
1.452696 0.459989 -0.837468
1.490746 0.335545 6.729508
1.692234 0.380897 5.789550
1.753710 0.394734 5.085501
1.414888 0.318470 4.414061
1.108603 0.249530 3.681020
1.386244 0.312023 2.998035
1.680194 0.378187 2.373003
1.610540 0.362509 1.586965
1.508869 0.339624 0.744902
1.476472 0.332332 0.036816
1.509068 0.339669 -0.754097
1.702083 0.225077 6.653793
1.872392 0.247598 5.800436
1.792301 0.237007 4.813559
1.405595 0.185870 4.549786
1.152169 0.152358 3.687639
1.469338 0.194300 2.834836
1.702096 0.225079 1.895729
1.780577 0.235457 1.479503
1.627350 0.215195 0.458476
1.525474 0.201723 -0.156350
1.612372 0.213214 -0.935894
1.408773 0.186291 -1.486836
1.347004 0.178123 -2.185088
1.682044 0.065778 6.612876
1.912856 0.074804 5.946005
1.808547 0.070725 4.999653
1.345290 0.052609 4.390011
1.201076 0.046969 3.589389
1.623827 0.063501 3.035431
1.868909 0.073085 1.951016
2.064238 0.080724 1.349675
2.040302 0.079788 0.480201
1.836992 0.071837 -0.018231
1.718909 0.067219 -0.677005
1.720650 0.067287 -1.501110
1.701499 0.066538 -2.080215
1.745151 -0.077558 6.676352
1.907582 -0.084777 5.918719
1.838496 -0.081706 5.359119
1.396662 -0.062071 4.590061
1.235519 -0.054909 3.905049
1.580219 -0.070228 2.826474
2.038093 -0.090577 1.332570
2.392367 -0.106322 0.645458
2.036412 -0.090502 -0.045304
1.790389 -0.079569 -0.502070
1.648774 -0.073275 -1.577799
1.631551 -0.072509 -2.167402
1.550407 -0.202751 6.779767
1.808954 -0.236561 5.868000
1.790206 -0.234110 5.299218
1.543355 -0.201828 4.821588
1.334949 -0.174575 3.761333
1.430402 -0.187057 2.958937
1.811796 -0.236933 2.438898
2.328964 -0.304564 1.527025
2.425550 -0.317195 0.716074
2.096800 -0.274204 0.289285
1.874831 -0.245176 -0.400462
1.799598 -0.235338 -1.332466
1.780307 -0.232815 -1.955390
1.810421 -0.410897 6.455839
1.799606 -0.408442 5.545426
1.564882 -0.355169 4.805329
1.266915 -0.287542 4.414954
1.557294 -0.353447 3.519927
2.100592 -0.476755 2.451373
2.324858 -0.527655 1.732128
2.464651 -0.559382 0.955500
1.698141 -0.554436 6.488329
1.732741 -0.565733 5.858881
1.580824 -0.516133 5.030988
1.281134 -0.418285 4.201884
1.406534 -0.459228 3.355322
2.028448 -0.662280 2.516466
2.358858 -0.770158 2.112734
2.412608 -0.787707 1.267910
2.211985 -0.722204 -0.943372
2.015272 -0.657978 -1.447073
1.956797 -0.638886 -2.158179
1.662215 -0.702357 6.959457
1.806080 -0.763147 6.200476
1.636476 -0.691482 5.434928
1.363555 -0.576161 4.992421
1.445472 -0.610774 3.950704
1.716547 -0.725315 3.170086
1.814613 -0.766752 2.665933
2.130563 -0.900255 1.807964
2.287831 -0.966707 1.153643
2.039399 -0.861734 0.198285
1.882913 -0.795612 -0.616093
1.892182 -0.799528 -1.023699
1.734821 -0.932057 6.641477
1.595610 -0.857264 5.644858
1.363327 -0.732467 5.104672
1.227567 -0.659527 4.365120
1.524779 -0.819209 3.598387
1.848336 -0.993045 2.701180
2.232865 -1.199638 1.742088
2.415212 -1.297606 1.357731
2.107583 -1.132328 0.519964
1.905760 -1.023896 0.018053
1.853809 -0.995985 -1.031201
1.625133 -0.873125 -1.449955
1.573683 -0.845483 -2.212534
1.611906 -1.045820 6.783494
1.626560 -1.055327 6.082373
1.384364 -0.898189 5.436621
1.106808 -0.718107 4.751645
1.341254 -0.870218 3.538288
1.959698 -1.271471 2.844581
2.341230 -1.519012 2.244007
2.382024 -1.545480 1.300508
2.200082 -1.427434 0.774567
1.920028 -1.245732 0.152873
1.759080 -1.141307 -0.750843
1.582185 -1.026536 -1.229361
1.442958 -0.936204 -1.950617
1.507959 -1.187831 6.774401
1.566992 -1.234332 6.109689
1.308082 -1.030387 5.528267
1.050536 -0.827515 4.513523
1.351195 -1.064347 3.729147
1.830712 -1.442066 3.062342
2.169915 -1.709259 2.192554
2.288332 -1.802537 1.262214
1.939182 -1.527509 -0.581382
1.566024 -1.233569 -1.416235
1.485583 -1.170206 -1.876755
1.323469 -1.251402 6.917890
1.433310 -1.355262 6.264038
1.313894 -1.242348 5.626612
1.217089 -1.150814 4.767251
1.403819 -1.327377 4.037230
1.723550 -1.629698 2.968027
2.001836 -1.892830 2.442533
2.115586 -2.000385 1.766270
1.811612 -1.712965 -0.563066
1.339467 -1.506794 6.359178
1.228061 -1.381471 5.563652
1.099407 -1.236745 4.976003
1.263318 -1.421132 4.197954
1.599974 -1.799843 3.344552
1.841360 -2.071383 2.325485
1.951004 -2.194724 1.764907
1.761638 -1.981703 0.925173
1.373562 -1.545147 0.516051
1.272030 -1.430932 -0.281935
1.381413 -1.553980 -2.456911
1.165819 -1.586143 6.105125
1.166718 -1.587366 5.683465
1.039070 -1.413696 4.793267
1.128855 -1.535853 4.031140
1.437735 -1.956096 3.288297
1.652476 -2.248260 2.235152
1.717656 -2.336939 1.545666
1.473861 -2.005247 -0.125132
1.197198 -1.628836 -2.351831
1.025038 -1.674650 6.482277
1.016471 -1.660654 5.547228
1.019485 -1.665577 5.108391
1.015967 -1.659830 4.349339
1.209626 -1.976219 3.435552
1.458872 -2.383424 2.626647
1.487325 -2.429909 1.982551
1.247110 -2.037459 -0.170339
1.021315 -1.668567 -2.128334
0.801607 -1.632415 6.652580
0.853927 -1.738961 5.932528
0.835916 -1.702283 5.070478
0.883326 -1.798830 4.406365
1.018387 -2.073872 3.608937
1.154586 -2.351232 2.927754
1.172262 -2.387228 2.154830
1.019801 -2.076752 0.125800
0.914006 -1.861308 -0.823820
0.881566 -1.795246 -1.561388
0.833284 -1.696925 -2.269651
0.664400 -1.698762 6.679940
0.700381 -1.790760 5.850716
0.702804 -1.796954 5.121271
0.730403 -1.867520 4.221751
0.850962 -2.175770 3.615195
0.944985 -2.416171 2.633865
0.932577 -2.384447 2.170343
0.827196 -2.115005 1.467523
0.754669 -1.929566 0.751409
0.742470 -1.898374 0.027182
0.764079 -1.953624 -0.787022
0.732466 -1.872794 -2.197696
0.500736 -1.734789 6.456202
0.535256 -1.854383 5.746428
0.535091 -1.853812 4.953908
0.557389 -1.931064 4.258027
0.623452 -2.159937 3.497357
0.663600 -2.299028 2.623046
0.651831 -2.258255 2.022051
0.588696 -2.039527 1.510340
0.545898 -1.891254 0.581165
0.565294 -1.958450 -0.027182
0.582510 -2.018094 -0.895552
0.562417 -1.948483 -1.623663
0.521936 -1.808238 -2.142220
0.350191 -1.751733 6.355807
0.383496 -1.918333 5.751264
0.398716 -1.994468 5.142336
0.400813 -2.004957 4.133936
0.435456 -2.178250 3.481969
0.438934 -2.195648 2.580946
0.421414 -2.108008 2.016255
0.398849 -1.995130 1.187594
0.395450 -1.978128 0.507762
0.404668 -2.024239 -0.244453
0.412318 -2.062507 -0.995029
0.387596 -1.938843 -1.607949
0.364168 -1.821651 -2.152931
0.187122 -1.778843 6.630073
0.207297 -1.970629 6.037094
0.206735 -1.965294 5.095524
0.214028 -2.034620 4.529936
0.219678 -2.088328 3.751027
0.225108 -2.139946 2.742273
0.226286 -2.151147 2.223912
0.213780 -2.032262 1.414108
0.211146 -2.007223 0.571226
0.213259 -2.027305 0.081546
0.219224 -2.084018 -0.687529
0.194422 -1.848238 -1.157406
0.181233 -1.722860 -2.151826
0.022627 -1.713917 6.892408
0.025964 -1.966662 6.096045
0.026692 -2.021780 5.227762
0.026878 -2.035911 4.642075
0.027245 -2.063718 3.654262
0.029266 -2.216816 2.918429
0.028973 -2.194584 2.321445
0.027425 -2.077347 1.612174
0.026735 -2.025088 0.888512
0.025601 -1.939194 0.254461
0.025662 -1.943784 -0.608861
0.025254 -1.912895 -1.283012
0.025077 -1.899462 -2.022351
-0.138734 -1.737010 7.029588
-0.155298 -1.944400 6.145977
-0.156482 -1.959216 5.190132
-0.158448 -1.983832 4.491327
-0.165904 -2.077185 3.606288
-0.177883 -2.227172 3.107632
-0.175517 -2.197549 2.456696
-0.165546 -2.072706 1.648373
-0.160882 -2.014307 0.698149
-0.156320 -1.957190 0.045406
-0.154718 -1.937141 -0.572515
-0.150239 -1.881050 -1.256668
-0.269975 -1.640347 6.636033
-0.311494 -1.892613 5.823437
-0.329548 -2.002308 5.431133
-0.320260 -1.945877 4.355182
-0.342187 -2.079101 3.814327
-0.364214 -2.212937 2.925235
-0.342109 -2.078632 2.127810
-0.324065 -1.968993 1.461598
-0.324614 -1.972329 0.834752
-0.314974 -1.913760 0.272636
-0.299813 -1.821641 -0.720049
-0.278755 -1.693692 -1.373041
-0.325044 -1.974945 -2.745583
-0.413891 -1.585791 7.022605
-0.483595 -1.852860 6.227818
-0.506609 -1.941033 5.444235
-0.499778 -1.914861 4.594538
-0.508089 -1.946707 3.862030
-0.516583 -1.979249 3.235089
-0.489246 -1.874511 2.220819
-0.491732 -1.884034 1.500136
-0.474238 -1.817008 0.983569
-0.464433 -1.779439 0.209649
-0.458677 -1.757386 -0.437847
-0.450008 -1.724172 -1.114351
-0.646310 -1.778245 6.241508
-0.662937 -1.823992 5.660412
-0.662524 -1.822856 4.850290
-0.679180 -1.868683 4.085670
-0.652094 -1.794158 3.119884
-0.634994 -1.747109 2.528185
-0.628417 -1.729014 1.852218
-0.618879 -1.702772 1.250367
-0.595108 -1.637368 0.502820
-0.586222 -1.612918 -0.430007
-0.515303 -1.417795 -2.536189
-0.676297 -1.490461 7.253067
-0.772746 -1.703020 6.123161
-0.797475 -1.757520 5.596790
-0.784450 -1.728815 4.559303
-0.813000 -1.791736 3.913202
-0.792004 -1.745462 3.201739
-0.773711 -1.705148 2.701234
-0.760158 -1.675279 1.852218
-0.745305 -1.642544 1.013152
-0.720101 -1.586999 0.539386
-0.708300 -1.560991 -0.228732
-0.682575 -1.504297 -0.953531
-0.763418 -1.682465 -2.373294
-0.871619 -1.537615 6.255354
-0.881029 -1.554216 5.339649
-0.958423 -1.690745 4.877552
-0.971591 -1.713975 4.143198
-0.940984 -1.659981 3.110788
-0.902736 -1.592509 2.484487
-0.893924 -1.576964 1.817114
-0.876120 -1.545556 0.940854
-0.858633 -1.514706 0.429687
-0.834157 -1.471529 -0.457794
-0.801318 -1.413599 -0.880854
-0.635712 -1.121454 -2.617907
-0.962623 -1.383249 6.223343
-1.022168 -1.468811 5.357907
-1.042357 -1.497823 4.755292
-1.016171 -1.460195 3.805817
-1.046322 -1.503521 3.099519
-1.051609 -1.511118 2.621227
-0.989625 -1.422050 1.720604
-0.931536 -1.338578 1.082654
-0.937510 -1.347163 0.440138
-0.950705 -1.366122 -0.256561
-0.932222 -1.339563 -1.119340
-0.731559 -1.051219 -2.506713
-1.080751 -1.301919 6.259968
-1.100893 -1.326183 5.575036
-1.114825 -1.342966 4.729291
-1.174156 -1.414439 4.094835
-1.157496 -1.394370 3.414439
-1.078569 -1.299291 2.596332
-1.066762 -1.285068 1.953520
-1.043811 -1.257420 1.183539
-1.047516 -1.261883 0.330107
-1.047516 -1.261883 -0.330107
-1.012556 -1.014772 7.017372
-1.147918 -1.150431 6.310413
-1.193586 -1.196198 5.524208
-1.235093 -1.237796 4.570473
-1.274832 -1.277622 3.812118
-1.210161 -1.212809 3.175110
-1.130713 -1.133188 2.427727
-1.115630 -1.118072 1.663993
-1.116599 -1.119043 1.084262
-1.086621 -1.088999 0.018394
-1.088574 -1.090956 -0.432250
-1.012664 -1.014880 -1.172122
-0.919945 -0.921958 -2.086438
-1.104041 -0.914134 6.892404
-1.238196 -1.025212 6.076491
-1.292360 -1.070059 5.450949
-1.370437 -1.134706 4.789727
-1.410795 -1.168123 4.040138
-1.346961 -1.115268 3.282448
-1.238746 -1.025667 2.528696
-1.221279 -1.011205 1.783399
-1.197266 -0.991323 1.039104
-1.186804 -0.982660 0.404661
-1.190223 -0.985491 -0.680537
-1.111050 -0.919937 -1.402734
-1.234464 -0.860859 6.868225
-1.312011 -0.914937 5.888530
-1.327331 -0.925620 5.234860
-1.392935 -0.971369 4.381700
-1.397784 -0.974750 3.582752
-1.359389 -0.947976 2.829367
-1.324598 -0.923714 2.269958
-1.271808 -0.886900 1.582488
-1.266622 -0.883284 0.625365
-1.242225 -0.866271 0.266910
-1.249697 -0.871482 -0.828266
-1.103156 -0.769290 -1.462379
-1.045350 -0.728979 -2.749614
-1.188935 -0.676856 6.694159
-1.362950 -0.775922 6.140517
-1.378635 -0.784851 5.192789
-1.472226 -0.838133 4.540613
-1.491272 -0.848975 3.692555
-1.455526 -0.828625 3.030937
-1.381174 -0.786297 2.262458
-1.370676 -0.780320 1.618062
-1.369758 -0.779798 0.928098
-1.315592 -0.748961 0.174873
-1.298974 -0.739501 -0.653919
-1.160215 -0.660506 -1.212596
-1.438247 -0.818788 -2.801872
-1.278404 -0.583948 6.753961
-1.398032 -0.638591 5.965846
-1.460322 -0.667044 5.152267
-1.502908 -0.686496 4.220000
-1.511107 -0.690241 3.652211
-1.478578 -0.675383 2.748913
-1.464454 -0.668931 2.196543
-1.378860 -0.629834 1.362814
-1.408559 -0.643400 0.827653
-1.376950 -0.628961 -0.165669
-1.383886 -0.632129 -0.736252
-1.175051 -0.536738 -1.390421
-1.310787 -0.464943 6.680078
-1.457791 -0.517086 6.021023
-1.499133 -0.531750 5.220339
-1.597786 -0.566743 4.549767
-1.608364 -0.570495 3.832590
-1.561938 -0.554028 2.829367
-1.507071 -0.534566 2.022141
-1.438179 -0.510130 1.592860
-1.454725 -0.515998 0.588582
-1.426492 -0.505984 -0.110446
-1.435481 -0.509173 -0.809864
-1.237269 -0.438866 -1.287561
-1.396505 -0.354948 6.929303
-1.503901 -0.382245 6.048605
-1.552746 -0.394660 5.293789
-1.590886 -0.404354 4.333165
-1.613001 -0.409975 3.679700
-1.641841 -0.417305 2.964613
-1.580562 -0.401730 2.130716
-1.499864 -0.381219 1.518129
-1.503629 -0.382176 0.937980
-1.466961 -0.372856 0.119650
-1.475337 -0.374985 -0.773059
-1.278865 -0.325048 -1.454199
-1.372523 -0.232317 6.814283
-1.486342 -0.251582 5.942586
-1.539778 -0.260627 5.196598
-1.644677 -0.278382 4.534802
-1.678274 -0.284069 3.564447
-1.730782 -0.292956 2.802702
-1.658295 -0.280687 2.145871
-1.521891 -0.257599 1.426177
-1.523771 -0.257917 0.689732
-1.492376 -0.252603 0.119650
-1.502413 -0.254302 -0.837468
-1.315363 -0.222642 -1.184838
-1.359871 -0.100770 6.407347
-1.431415 -0.106072 5.670358
-1.525729 -0.113061 5.154416
-1.597133 -0.118352 4.217049
-1.645970 -0.121971 3.551396
-1.605390 -0.118964 2.861096
-1.548273 -0.114731 2.080301
-1.529437 -0.113335 1.168660
-1.514871 -0.112256 0.616626
-1.459635 -0.108163 -0.129045
-1.417790 -0.105062 -2.375717
-1.356574 0.013950 6.504481
-1.444587 0.014855 5.725702
-1.494134 0.015364 4.915105
-1.608166 0.016537 4.067132
-1.679446 0.017270 3.344715
-1.615907 0.016616 2.629643
-1.512076 0.015549 1.814978
-1.465860 0.015073 1.364831
-1.440131 0.014809 0.350519
-1.490970 0.015332 -0.423681
-1.336725 0.013745 -2.232959
-1.373919 0.141622 6.499771
-1.470218 0.151548 5.919282
-1.493036 0.153900 4.961146
-1.618840 0.166868 4.418928
-1.644126 0.169474 3.328861
-1.601307 0.165060 2.861096
-1.553684 0.160152 2.227372
-1.527495 0.157452 1.223848
-1.511886 0.155843 0.662637
-1.481046 0.152664 -0.184213
-1.423674 0.146750 -2.143361
-1.392695 0.262149 6.684472
-1.438323 0.270737 5.836342
-1.453402 0.273576 4.983208
-1.593753 0.299994 4.177246
-1.739451 0.327419 3.492595
-1.659486 0.312367 2.596332
-1.526283 0.287294 2.089494
-1.488651 0.280211 1.335204
-1.470802 0.276851 0.746006
-1.462783 0.275342 -0.073686
-1.341261 0.252467 -2.277541
-1.295568 0.369515 6.717503
-1.393777 0.397526 5.753368
-1.406748 0.401226 5.211838
-1.496835 0.426920 4.260035
-1.702120 0.485470 3.492595
-1.674657 0.477637 2.932791
-1.494076 0.426133 2.098687
-1.463791 0.417495 1.510052
-1.440038 0.410720 0.782840
-1.432473 0.408563 -0.285528
-1.312476 0.374338 -2.277541
-1.280890 0.498598 6.596923
-1.315014 0.511881 5.826387
-1.264749 0.492315 4.840662
-1.427257 0.555572 4.057733
-1.578151 0.614309 3.482065
-1.517621 0.590748 2.785605
-1.435708 0.558862 1.878014
-1.388001 0.540292 1.326982
-1.345839 0.523880 0.627219
-1.387277 0.540010 -0.138160
-1.399190 0.544647 -0.939370
-1.073790 0.417982 -1.629151
-0.917267 0.357055 -2.566176
-1.165236 0.569428 6.458332
-1.298576 0.634589 5.877489
-1.248766 0.610248 4.892561
-1.322062 0.646066 4.383181
-1.427406 0.697545 3.678682
-1.535854 0.750542 2.852625
-1.576785 0.770544 2.113675
-1.337884 0.653798 1.317771
-1.205100 0.588909 0.444065
-1.337268 0.653497 0.027632
-1.224016 0.598153 -2.240562
-1.076312 0.656774 6.667177
-1.181738 0.721106 5.964258
-1.216791 0.742496 5.132612
-1.234162 0.753095 4.180366
-1.376297 0.839827 3.425571
-1.488905 0.908542 2.665611
-1.485159 0.906256 1.857751
-1.125044 0.686511 1.417171
-1.019295 0.621982 0.622564
-1.270537 0.775292 -0.027632
-1.179126 0.719512 -2.146522
-1.010311 0.750155 6.783305
-1.031143 0.765622 5.676624
-1.094723 0.812830 5.056923
-1.159884 0.861212 4.171144
-1.300549 0.965656 3.498978
-1.494345 1.109550 2.867246
-1.489177 1.105712 2.107379
-1.071890 0.795877 1.212596
-0.956783 0.710410 0.473903
-1.195229 0.887456 -0.138160
-1.125109 0.835392 -2.442114
-0.897453 0.790527 6.853729
-1.001878 0.882510 5.972927
-1.026271 0.903996 5.084656
-1.073204 0.945338 4.257256
-1.234904 1.087772 3.505560
-1.399127 1.232429 2.601056
-1.423425 1.253832 1.976856
-1.193478 1.051282 1.350605
-1.048353 0.923448 0.766686
-1.079438 0.950829 -0.083019
-1.040108 0.916185 -2.220436
-0.770685 0.810900 6.975909
-0.867771 0.913052 5.976658
-0.890584 0.937056 5.257035
-0.898312 0.945187 4.452001
-1.063023 1.118493 3.720897
-1.314524 1.383117 3.110788
-1.379729 1.451726 2.070725
-1.180944 1.242567 0.237881
-1.027789 1.081421 -0.488150
-0.926234 0.974567 -1.453129
-0.805957 0.848013 -1.963952
-1.064099 1.119625 -2.977809
-0.730681 0.917181 6.059058
-0.810169 1.016958 5.464720
-0.801845 1.006509 4.699523
-0.907272 1.138845 3.842520
-1.147806 1.440773 3.208907
-1.259987 1.581588 2.360896
-1.143833 1.435787 1.779295
-0.748382 0.939400 0.929136
-0.725529 0.910714 0.260379
-0.944509 1.185587 -0.404961
-0.812671 1.020099 -1.037546
-0.756822 0.949995 -1.868230
-0.665162 1.013440 6.138276
-0.731769 1.114923 5.668385
-0.660324 1.006069 4.824711
-0.722126 1.100231 4.149417
-0.940103 1.432341 3.175110
-1.103218 1.680862 2.544071
-1.019142 1.552764 1.714198
-0.732738 1.116400 1.221848
-0.694401 1.057988 0.380147
-0.818349 1.246836 -0.451311
-0.729051 1.110782 -1.018274
-0.696429 1.061079 -1.948931
-0.584866 1.102402 6.333180
-0.618548 1.165888 5.585092
-0.562766 1.060746 4.806134
-0.632903 1.192946 3.798328
-0.829330 1.563189 2.967150
-0.935110 1.762571 2.335451
-0.815704 1.537505 0.374836
-0.699272 1.318045 -0.497360
-0.636791 1.200275 -1.174719
-0.594093 1.119794 -1.921119
-0.490244 1.147470 6.467671
-0.489104 1.144802 5.435558
-0.464113 1.086307 4.846807
-0.511789 1.197899 4.038302
-0.672788 1.574734 3.165960
-0.781937 1.830210 2.262866
-0.673872 1.577271 0.347669
-0.566035 1.324866 -0.396637
-0.531613 1.244298 -0.999029
-0.510160 1.194086 -2.021604
-0.368561 1.156313 6.686084
-0.386287 1.211926 5.602480
-0.358742 1.125508 4.846807
-0.333930 1.047663 4.431418
-0.426618 1.338460 3.605365
-0.461356 1.447446 2.674245
-0.479399 1.504056 2.097134
-0.579458 1.817978 1.146578
-0.529572 1.661465 0.603374
-0.452674 1.420209 -0.386841
-0.456616 1.432576 -1.013025
-0.445532 1.397801 -2.307705
-0.267574 1.159671 6.565329
-0.264399 1.145909 5.933874
-0.238592 1.034062 5.063879
-0.241372 1.046109 4.425311
-0.309665 1.342090 3.337484
-0.329030 1.426019 2.910674
-0.341946 1.481996 1.971430
-0.433615 1.879293 1.009369
-0.392412 1.700719 0.685642
-0.334677 1.450494 -0.119739
-0.337071 1.460871 -0.856503
-0.258666 1.121062 -1.591940
-0.255085 1.105543 -2.564285
-0.164269 1.214409 6.616302
-0.154799 1.144395 5.660018
-0.123293 0.911477 4.960463
-0.112749 0.833532 4.178887
-0.176048 1.301484 3.690030
-0.163002 1.205038 2.950694
-0.222975 1.648410 -0.045815
-0.199584 1.475479 -2.259951
-0.056902 1.241225 6.439840
-0.053526 1.167585 5.743716
-0.039923 0.870853 5.149451
-0.041054 0.895540 4.219726
-0.066708 1.455134 3.115699
-0.088746 1.935851 2.577057
-0.088036 1.920380 1.984470
-0.079260 1.728945 1.079436
-0.071745 1.565007 0.468688
-0.068249 1.488738 -0.359211
-0.070147 1.530157 -1.113468
-0.071841 1.567103 -2.328459
0.050289 1.194916 6.853729
0.053324 1.267022 6.166492
0.040865 0.971000 5.469596
0.019419 0.461407 4.755621
0.057654 1.369909 3.002447
0.069455 1.650303 2.064976
0.077744 1.847275 1.541085
0.059635 1.416975 0.572304
0.056280 1.337253 -0.055510
0.062906 1.494709 -0.718381
0.056778 1.349105 -1.582617
0.055984 1.330240 -2.149683
0.145402 1.154887 6.821467
0.150800 1.197764 6.110415
0.114112 0.906360 5.258187
0.079905 0.634661 4.577512
0.123191 0.978472 3.687759
0.190555 1.513524 3.044418
0.223379 1.774241 2.239922
0.224613 1.784042 1.525136
0.153153 1.216449 0.928455
0.148458 1.179164 0.074340
0.189792 1.507465 -0.635031
0.168200 1.335970 -1.499377
0.163870 1.301574 -2.234600
0.248238 1.122072 6.747057
0.261809 1.183413 5.994600
0.208326 0.941664 5.422833
0.146801 0.663561 4.870052
0.196702 0.889122 3.686413
0.314286 1.420618 3.097260
0.384859 1.739616 2.139494
0.405519 1.833001 1.612774
0.308595 1.394893 1.015275
0.283744 1.282561 0.111101
0.328729 1.485901 -0.754656
0.288102 1.302263 -1.175585
0.287096 1.297714 -2.112668
0.368737 1.155489 6.937322
0.370966 1.162477 6.041025
0.285669 0.895186 5.263765
0.199079 0.623841 4.690793
0.279622 0.876237 3.770716
0.428575 1.343002 2.868806
0.540950 1.695144 2.102969
0.581279 1.821523 1.255727
0.462655 1.449798 0.754656
0.414527 1.298979 -0.092448
0.462068 1.447957 -0.662637
0.408746 1.280866 -1.453129
0.410102 1.285116 -2.027882
0.447340 1.081164 6.723613
0.459655 1.110926 5.938875
0.373122 0.901787 5.334791
0.284376 0.687299 4.602063
0.389434 0.941213 3.977401
0.515321 1.245464 3.023151
0.658947 1.592590 2.391297
0.743671 1.797358 1.454707
0.583404 1.410012 0.920274
0.502223 1.213808 0.120359
0.580957 1.404098 -0.644233
0.504186 1.218552 -1.435685
0.507705 1.227059 -2.094160
0.577655 1.096425 6.941610
0.578715 1.098436 6.018101
0.469888 0.891876 5.215032
0.357801 0.679128 4.397977
0.458750 0.870735 3.669063
0.571155 1.084088 2.762928
0.756732 1.436324 2.011468
0.903358 1.714629 1.282051
0.707968 1.343767 0.607424
0.623870 1.184145 0.055510
0.698939 1.326630 -0.865711
0.603974 1.146380 -1.483059
0.612623 1.162797 -2.271634
0.668216 1.043844 6.816034
0.698700 1.091463 5.893911
0.617059 0.963930 5.279975
0.465135 0.726603 4.548022
0.486663 0.760233 3.611458
0.714606 1.116311 3.053137
0.973717 1.521078 2.128775
1.063923 1.661992 1.526247
0.872877 1.363551 0.614799
0.775581 1.211562 0.101468
0.805405 1.258152 -0.607874
0.707597 1.105362 -1.278302
0.715035 1.116981 -2.066395
0.766268 0.986050 6.987997
0.836468 1.076385 6.130155
0.811937 1.044818 5.290238
0.624070 0.803067 4.755881
0.608246 0.782705 3.734494
0.828588 1.066246 3.050897
1.054425 1.356857 2.318118
1.211132 1.558511 1.535326
1.100909 1.416673 0.620729
0.974682 1.254242 0.055101
0.915458 1.178032 -0.488150
0.823339 1.059490 -1.388377
0.773978 0.995971 -2.228612
0.941129 1.004479 7.231866
0.976023 1.041722 6.204322
0.950428 1.014404 5.393416
0.740894 0.790766 4.870208
0.689832 0.736267 3.893339
0.912603 0.974033 3.154930
1.041121 1.111202 2.387118
1.204241 1.285302 1.792417
1.201052 1.281898 1.106045
1.035317 1.105007 0.239299
1.018224 1.086764 -0.239476
0.994053 1.060965 -1.023745
0.819184 0.874325 -2.018256
1.098412 0.975635 6.291996
1.214947 1.079144 5.742361
1.016690 0.903047 4.859154
0.743611 0.660492 4.198194
0.904410 0.803318 3.419650
1.112896 0.988500 2.602541
1.209403 1.074220 1.910547
1.312696 1.165967 1.078632
1.171222 1.040306 0.459498
1.113828 0.989327 -0.303949
1.144454 1.016530 -2.497521
1.225988 0.910540 6.595864
1.338287 0.993944 5.838963
1.207252 0.896625 5.148986
0.904606 0.671850 4.446822
1.015582 0.754272 3.470288
1.273896 0.946121 2.576491
1.309695 0.972709 2.139887
1.336996 0.992985 1.347599
1.259091 0.935125 0.578957
1.194924 0.887469 -0.055264
1.226927 0.911237 -1.003076
0.951061 0.706352 -1.776671
0.819426 0.608587 -2.375715
1.230927 0.767915 6.725739
1.414355 0.882347 5.838963
1.489908 0.929481 5.307039
1.033707 0.644879 4.567147
0.881623 0.550001 3.937186
1.168224 0.728798 3.067140
1.315778 0.820850 2.052721
1.349409 0.841830 1.350605
1.291890 0.805947 0.791462
1.284042 0.801051 -0.046019
1.314232 0.819885 -0.846041
1.309067 0.658588 6.924285
1.564968 0.787330 6.031563
1.647986 0.829097 5.227611
1.346408 0.677374 4.650285
1.008491 0.507369 3.841990
1.197800 0.602609 3.219692
1.496278 0.752773 2.413172
1.478697 0.743928 1.678623
1.408481 0.708602 0.946471
1.374363 0.691438 0.082774
1.356249 0.682325 -0.570614
1.192333 0.599859 -1.203343
1.361176 0.533160 6.781056
1.674194 0.655766 6.145814
1.755454 0.687595 5.323898
1.405584 0.550554 4.481239
1.069455 0.418896 3.792681
1.241586 0.486318 2.856633
1.521222 0.595848 2.176573
1.513471 0.592812 1.578971
1.441470 0.564610 0.809264
1.432457 0.561080 -0.045985
1.439172 0.563710 -0.698927
1.301045 0.509607 -1.515640
1.172726 0.459346 -2.872198
1.546579 0.459383 6.645721
1.661258 0.493447 5.780406
1.609970 0.478212 4.972341
1.247672 0.370598 4.433478
1.045521 0.310553 3.723661
1.349134 0.400736 2.841108
1.599489 0.475099 1.926036
1.569446 0.466175 1.266074
1.458638 0.433262 0.745454
1.450949 0.430978 -0.119650
1.463757 0.434782 -0.957076
1.271718 0.377741 -1.611548
1.166658 0.346534 -2.315451
1.634644 0.327212 6.397447
1.739111 0.348123 5.416663
1.702530 0.340801 4.842527
1.272819 0.254784 4.208031
1.159068 0.232014 3.638483
1.447313 0.289713 2.761130
1.612143 0.322708 1.936635
1.646128 0.329511 1.016935
1.538013 0.307869 0.588146
1.511183 0.302498 -0.432250
1.533936 0.307053 -2.264134
1.705443 0.180005 6.246236
1.850343 0.195298 5.636539
1.700943 0.179530 4.659594
1.316714 0.138975 4.214213
1.360761 0.143625 3.497110
1.753664 0.185094 2.590550
1.818167 0.191902 1.633422
1.875605 0.197965 1.229361
1.731888 0.182796 0.457112
1.608243 0.169745 -0.504695
1.671502 0.176422 -1.081045
1.366399 0.144220 -1.553727
1.311421 0.138417 -2.336438
1.789965 0.037132 6.241637
1.915671 0.039740 5.664599
1.749259 0.036288 4.933940
1.353160 0.028071 4.248125
1.398312 0.029007 3.298094
1.898328 0.039380 2.387950
2.088341 0.043322 1.829339
2.175728 0.045134 0.920597
2.039554 0.042310 0.326180
1.763790 0.036589 -0.228391
1.726254 0.035810 -0.942258
1.513831 0.031404 -1.851794
1.517907 0.031488 -2.322704
1.830839 -0.129982 6.478815
1.883937 -0.133752 5.500838
1.657902 -0.117704 4.853249
1.260979 -0.089524 4.136940
1.435525 -0.101916 3.452518
1.939428 -0.137691 2.658842
2.191396 -0.155580 1.968131
2.343541 -0.166382 0.852900
2.284907 -0.162219 0.386670
1.959297 -0.139102 -0.236108
1.878439 -0.133361 -2.517195
1.777499 -0.276602 6.287273
1.900960 -0.295814 5.710064
1.665452 -0.259166 4.840518
1.350098 -0.210093 4.349828
1.545827 -0.240551 3.449015
2.081125 -0.323850 2.482192
2.320334 -0.361074 1.986148
2.452032 -0.381568 1.091066
1.642664 -0.255620 -1.816087
1.635025 -0.254431 -2.479126
1.825954 -0.459618 6.328051
1.825747 -0.459566 5.464429
1.621831 -0.408237 4.748931
1.349525 -0.339694 4.149554
1.498510 -0.377196 3.506736
1.951100 -0.491119 2.562207
2.322012 -0.584483 1.920394
2.447357 -0.616034 0.821582
2.390323 -0.601678 0.313064
2.122824 -0.534344 -0.207454
1.962209 -0.493915 -2.379026
1.580331 -0.557403 7.196734
1.715692 -0.605147 6.123059
1.696639 -0.598426 5.571864
1.476604 -0.520817 4.885924
1.435068 -0.506167 3.974930
1.635967 -0.577026 3.136182
1.904571 -0.671766 2.324634
2.248682 -0.793139 1.741094
2.384937 -0.841198 1.009063
2.229595 -0.786407 0.233272
1.993898 -0.703273 -0.244085
1.618541 -0.727911 7.060991
1.707837 -0.768070 6.273424
1.652271 -0.743080 5.494791
1.404148 -0.631491 4.702060
1.394956 -0.627357 3.824851
1.650212 -0.742154 3.387070
1.859588 -0.836317 2.587469
2.198733 -0.988842 1.766650
2.327750 -1.046865 0.954771
2.088922 -0.939456 0.368686
1.863095 -0.837895 -0.543619
1.898322 -0.853737 -1.095323
1.582237 -0.711584 -1.766323
1.621435 -0.917393 6.994824
1.709435 -0.967183 6.218639
1.474085 -0.834024 5.392022
1.265103 -0.715784 4.808089
1.435301 -0.812081 3.987808
1.671293 -0.945603 3.238113
1.781099 -1.007730 2.350067
2.186460 -1.237080 1.788076
2.266787 -1.282528 1.024565
1.841964 -1.042167 0.442960
1.734343 -0.981276 -0.535363
1.835494 -1.038506 -1.166832
1.526031 -0.863415 -1.637082
1.504444 -1.037878 6.698177
1.571735 -1.084300 5.918719
1.385687 -0.955950 5.327930
1.224181 -0.844532 4.502952
1.379982 -0.952014 3.789633
1.776229 -1.225375 3.096602
2.133489 -1.471840 2.266705
2.323253 -1.602754 1.487318
2.032060 -1.401867 -0.590326
1.678088 -1.157670 -1.296328
1.534007 -1.058273 -1.832619
1.463216 -1.212847 6.929995
1.525560 -1.264523 6.037094
1.261587 -1.045719 5.203509
1.073470 -0.889790 4.562353
1.397662 -1.158509 3.903348
1.785409 -1.479910 2.936585
2.099901 -1.740590 2.043422
2.252806 -1.867331 1.562111
1.881793 -1.559802 -0.617626
1.535111 -1.272440 -1.425308
1.457166 -1.207832 -1.904057
1.324908 -1.301550 6.844003
1.434964 -1.409667 6.200392
1.226867 -1.205238 5.397205
1.060066 -1.041378 4.493741
1.337740 -1.314156 3.767209
1.756067 -1.725109 3.122338
2.003987 -1.968658 2.144938
2.081648 -2.044950 1.385716
1.760755 -1.729714 -0.563495
1.449629 -1.424073 -1.115097
1.333106 -1.309604 -1.923695
1.182226 -1.391480 6.689059
1.301335 -1.531671 6.191324
1.189673 -1.400246 5.340889
1.051988 -1.238190 4.587363
1.283205 -1.510333 3.819537
1.670102 -1.965710 3.039195
1.846773 -2.173652 2.035587
1.899503 -2.235715 1.712010
1.530361 -1.801235 0.107665
1.356446 -1.596537 -0.660393
1.314587 -1.547269 -1.060721
1.215985 -1.431215 -2.078493
1.063758 -1.497163 6.990833
1.133680 -1.595574 6.182311
1.116967 -1.572051 5.587700
1.040764 -1.464802 4.554590
1.166529 -1.641807 3.880165
1.444704 -2.033319 3.200406
1.622305 -2.283279 2.385674
1.653693 -2.327456 1.645276
1.429258 -2.011579 -0.527721
1.217032 -1.712886 -0.922683
1.030790 -1.450764 -1.663257
0.878372 -1.515705 6.827522
0.981045 -1.692877 6.314082
0.955504 -1.648803 5.292671
0.972519 -1.678164 4.674087
1.067387 -1.841868 3.784363
1.263128 -2.179635 3.197976
1.379069 -2.379701 2.380472
1.325944 -2.288029 1.424173
1.094841 -1.889242 1.155173
0.985047 -1.699783 0.281513
1.050422 -1.812593 -0.660393
1.058904 -1.827229 -1.248202
0.990016 -1.708356 -2.017813
0.749867 -1.630925 6.913828
0.815542 -1.773766 5.873650
0.824617 -1.793503 5.244608
0.833421 -1.812652 4.527620
0.929933 -2.022561 3.754997
1.056028 -2.296810 3.025971
1.094739 -2.381004 2.318390
0.956415 -2.080158 0.269773
0.863523 -1.878121 -0.497946
0.802461 -1.745316 -1.473983
0.743074 -1.616151 -2.093838
0.616445 -1.753421 6.597283
0.648837 -1.845558 5.751264
0.659504 -1.875899 5.010087
0.669534 -1.904428 4.127957
0.745310 -2.119965 3.488353
0.825123 -2.346986 2.858486
0.816479 -2.322398 2.194856
0.726108 -2.065346 1.308520
0.670021 -1.905813 0.670952
0.676082 -1.923053 -0.054364
0.688536 -1.958476 -0.914328
0.655057 -1.863250 -1.562560
0.603442 -1.716434 -2.329465
0.472440 -1.835987 6.656148
0.487865 -1.895932 5.610817
0.505818 -1.965699 5.115149
0.515565 -2.003578 4.324106
0.560245 -2.177212 3.251719
0.587161 -2.281813 2.472503
0.573999 -2.230665 2.070062
0.534430 -2.076891 1.436951
0.503342 -1.956078 0.652820
0.507983 -1.974112 -0.045304
0.517469 -2.010977 -0.932429
0.450413 -1.750387 -1.716761
0.407734 -1.584529 -2.213256
0.322694 -1.885241 6.350682
0.321300 -1.877097 5.442196
0.328319 -1.918103 4.719521
0.356572 -2.083164 4.079476
0.385470 -2.251992 3.366205
0.380465 -2.222754 2.461993
0.356537 -2.082961 1.818922
0.343547 -2.007067 1.232902
0.340440 -1.988916 0.544028
0.340111 -1.986997 -0.408029
0.142347 -1.675615 7.224210
0.161235 -1.897947 6.173243
0.164259 -1.933543 5.352375
0.166710 -1.962399 4.706936
0.177784 -2.092751 3.970972
0.192255 -2.263099 3.231274
0.192187 -2.262296 2.659983
0.177934 -2.094516 1.601917
0.170001 -2.001138 1.152212
0.164117 -1.931880 0.172671
0.164168 -1.932473 -0.263549
0.170514 -2.007173 -1.315438
0.143089 -1.684345 -1.869674
-0.016634 -1.779958 6.964548
-0.018385 -1.967390 6.236800
-0.018513 -1.981088 5.289995
-0.018574 -1.987618 4.473179
-0.019838 -2.122859 3.949925
-0.021087 -2.256526 3.078288
-0.020412 -2.184273 2.168114
-0.019222 -2.056991 1.703949
-0.018460 -1.975440 0.898926
-0.018601 -1.990487 0.381114
-0.018641 -1.994718 -0.653311
-0.017407 -1.862668 -1.275826
-0.166684 -1.645419 6.847486
-0.191112 -1.886562 5.986794
-0.197770 -1.952287 5.330248
-0.202957 -2.003486 4.839488
-0.208926 -2.062411 3.735734
-0.215406 -2.126382 3.144102
-0.208228 -2.055524 2.612688
-0.204441 -2.018144 1.632727
-0.201575 -1.989849 0.880109
-0.195662 -1.931481 0.445298
-0.195638 -1.931245 -0.427124
-0.190292 -1.878466 -1.283973
-0.320358 -1.640851 7.178414
-0.367266 -1.881112 6.236912
-0.380531 -1.949054 5.475501
-0.379219 -1.942334 4.594538
-0.398119 -2.039138 3.992045
-0.407811 -2.088783 3.309155
-0.382213 -1.957668 2.326378
-0.379561 -1.944087 1.680564
-0.378943 -1.940921 0.971547
-0.371917 -1.904934 0.408949
-0.366741 -1.878421 -0.181895
-0.336186 -1.721921 -2.471769
-0.453422 -1.618317 6.727641
-0.512466 -1.829052 6.004992
-0.534504 -1.907710 5.289995
-0.538920 -1.923472 4.545764
-0.534311 -1.907021 3.580790
-0.536165 -1.913640 2.874705
-0.519520 -1.854231 2.413440
-0.497827 -1.776805 1.459069
-0.484976 -1.730940 0.785013
-0.469348 -1.675159 0.292557
-0.463861 -1.655576 -0.631267
-0.447044 -1.595556 -1.118509
-0.649814 -1.729851 6.542616
-0.689352 -1.835104 5.919065
-0.695433 -1.851292 4.937480
-0.696037 -1.852901 4.215822
-0.683856 -1.820473 3.713373
-0.693000 -1.844817 2.675012
-0.677768 -1.804267 2.066295
-0.633365 -1.686062 1.589017
-0.613461 -1.633078 0.639938
-0.620149 -1.650880 -0.091357
-0.615785 -1.639264 -0.923278
-0.498602 -1.327314 -1.413000
-0.810377 -1.668662 6.579062
-0.831718 -1.712605 5.741578
-0.813468 -1.675027 5.010481
-0.818704 -1.685808 4.377259
-0.818767 -1.685938 3.527755
-0.820937 -1.690406 2.783179
-0.794107 -1.635161 1.908329
-0.757015 -1.558784 1.143446
-0.739884 -1.523508 0.595119
-0.727086 -1.497156 -0.256561
-0.697483 -1.436200 -0.743797
-0.591624 -1.218224 -1.665848
-0.891087 -1.473931 6.681236
-0.928360 -1.535585 5.694660
-0.959904 -1.587761 5.132660
-0.956315 -1.581823 4.176860
-0.961866 -1.591006 3.382034
-0.971843 -1.607509 2.774075
-0.940192 -1.555156 1.899208
-0.900394 -1.489327 1.344593
-0.877648 -1.451703 0.732435
-0.861052 -1.424251 -0.247398
-0.842978 -1.394355 -1.036793
-0.676994 -1.119805 -1.751644
-0.629979 -1.042038 -2.324736
-0.935137 -1.262694 7.065505
-1.055815 -1.425643 6.424411
-1.054684 -1.424115 5.407530
-1.088363 -1.469592 4.782647
-1.080421 -1.458867 3.903348
-1.047756 -1.414761 3.142991
-1.017733 -1.374221 2.548656
-0.984064 -1.328758 1.641962
-0.968108 -1.307213 0.945067
-0.961399 -1.298155 0.367057
-0.946242 -1.277689 -0.321415
-0.926318 -1.250786 -1.103451
-0.710807 -0.959787 -1.953223
-1.018453 -1.176194 6.867450
-1.107333 -1.278839 6.392770
