32.400000 -10.771484 1.376223
32.300000 -10.093750 1.376223
32.200000 -9.164062 1.376223
32.200000 -8.984375 1.376223
32.100000 -7.929688 1.376223
32.000000 -7.000000 1.376223
32.000000 -6.820312 1.376223
32.000000 -5.515625 1.376223
32.400000 -11.124512 1.516855
32.300000 -10.319336 1.516855
32.200000 -9.764160 1.516855
32.200000 -8.833984 1.516855
32.100000 -8.028809 1.516855
32.000000 -7.848633 1.516855
32.000000 -7.043457 1.516855
32.000000 -5.863281 1.516855
32.400000 -11.189941 1.641810
32.400000 -10.638672 1.641810
32.300000 -10.087402 1.641810
32.200000 -9.411133 1.641810
32.200000 -8.109863 1.641810
32.100000 -7.308594 1.641810
32.000000 -7.007324 1.641810
32.000000 -6.081055 1.641810
32.200000 -5.904785 1.641810
32.400000 -10.708984 1.782439
32.300000 -10.030273 1.782439
32.200000 -9.851562 1.782439
32.200000 -8.422852 1.782439
32.100000 -8.494141 1.782439
32.000000 -7.190430 1.782439
32.000000 -6.761719 1.782439
32.000000 -5.958008 1.782439
32.400000 -11.496094 1.907471
32.300000 -10.819824 1.907471
32.300000 -10.018555 1.907471
32.200000 -9.092285 1.907471
32.200000 -8.291016 1.907471
32.100000 -8.114746 1.907471
31.900000 -7.313477 1.907471
32.000000 -6.637207 1.907471
32.000000 -5.835938 1.907471
32.400000 -11.076172 2.048097
32.400000 -10.648438 2.048097
32.300000 -10.095703 2.048097
32.200000 -8.917969 2.048097
32.200000 -8.490234 2.048097
32.100000 -7.437500 2.048097
32.000000 -7.263184 2.048097
32.000000 -6.088867 2.048097
32.100000 -5.914551 2.048097
32.400000 -11.471680 2.188724
32.400000 -10.794434 2.188724
32.300000 -10.117188 2.188724
32.200000 -8.814941 2.188724
32.200000 -8.637695 2.188724
32.100000 -7.585449 2.188724
32.000000 -7.158203 2.188724
32.000000 -6.605957 2.188724
32.000000 -5.553711 2.188724
32.400000 -11.149414 2.329349
32.300000 -10.220703 2.329349
32.200000 -9.541992 2.329349
32.200000 -9.113281 2.329349
32.100000 -8.434570 2.329349
32.000000 -7.380859 2.329349
32.000000 -7.202148 2.329349
32.000000 -5.898438 2.329349
32.300000 -5.344727 2.329349
32.400000 -10.714844 2.469936
32.300000 -10.409180 2.469936
32.200000 -9.853516 2.469936
32.200000 -9.172852 2.469936
32.100000 -8.492188 2.469936
32.000000 -7.686523 2.469936
32.000000 -7.005859 2.469936
32.000000 -5.700195 2.469936
32.400000 -11.064941 2.594976
32.300000 -10.011719 2.594976
32.200000 -9.208496 2.594976
32.200000 -8.530273 2.594976
32.100000 -8.102051 2.594976
32.000000 -7.048828 2.594976
32.000000 -6.620605 2.594976
32.000000 -5.942383 2.594976
32.400000 -11.271484 2.736492
32.400000 -10.589844 2.736492
32.300000 -10.158203 2.736492
32.200000 -9.226562 2.736492
32.100000 -8.419922 2.736492
32.100000 -7.863281 2.736492
32.000000 -7.056641 2.736492
31.900000 -6.750000 2.736492
32.100000 -5.947754 2.736492
32.400000 -11.134766 2.877110
32.300000 -9.833496 2.877110
32.200000 -9.407227 2.877110
32.200000 -8.855957 2.877110
32.100000 -8.054688 2.877110
32.000000 -7.503418 2.877110
32.000000 -7.077148 2.877110
32.000000 -6.025879 2.877110
32.400000 -10.896484 3.002074
32.300000 -10.218750 3.002074
32.200000 -9.293945 3.002074
32.200000 -8.744141 3.002074
32.100000 -7.694336 3.002074
32.000000 -7.644531 3.002074
32.000000 -6.719727 3.002074
32.000000 -5.669922 3.002074
32.400000 -10.559570 3.143051
32.300000 -10.132324 3.143051
32.200000 -9.705078 3.143051
32.200000 -8.527832 3.143051
32.100000 -8.475586 3.143051
32.000000 -7.673340 3.143051
32.000000 -6.621094 3.143051
32.000000 -6.068848 3.143051
32.400000 -11.149902 3.268051
32.400000 -10.723633 3.268051
32.300000 -9.797363 3.268051
32.200000 -8.996094 3.268051
32.100000 -8.069824 3.268051
32.100000 -7.643555 3.268051
32.000000 -7.342285 3.268051
32.000000 -5.916016 3.268051
32.200000 -5.489746 3.268051
32.300000 -10.916016 3.408896
32.300000 -9.988281 3.408896
32.200000 -9.560547 3.408896
32.200000 -8.757812 3.408896
32.100000 -7.955078 3.408896
32.000000 -7.027344 3.408896
32.000000 -6.349609 3.408896
32.000000 -6.046875 3.408896
32.400000 -10.556641 3.549526
32.300000 -9.880371 3.549526
32.200000 -9.704102 3.549526
32.200000 -8.527832 3.549526
32.100000 -7.851562 3.549526
32.000000 -7.300293 3.549526
32.000000 -6.999023 3.549526
32.000000 -5.822754 3.549526
32.400000 -10.523438 3.690150
32.300000 -10.218750 3.690150
32.200000 -9.791992 3.690150
32.200000 -8.740234 3.690150
32.100000 -7.688477 3.690150
32.100000 -7.136719 3.690150
32.100000 -6.709961 3.690150
32.000000 -6.033203 3.690150
32.400000 -11.397461 3.815109
32.400000 -10.592285 3.815109
32.300000 -9.787109 3.815109
32.200000 -8.731934 3.815109
32.100000 -8.551758 3.815109
32.000000 -7.871582 3.815109
32.000000 -6.816406 3.815109
32.000000 -5.886230 3.815109
32.300000 -5.956055 3.815109
32.400000 -11.147461 3.955735
32.300000 -10.720703 3.955735
32.300000 -9.668945 3.955735
32.200000 -8.617188 3.955735
32.100000 -8.565430 3.955735
32.100000 -7.888672 3.955735
32.000000 -6.711914 3.955735
32.000000 -6.035156 3.955735
32.200000 -5.983398 3.955735
32.300000 -11.359375 4.096523
32.300000 -10.431641 4.096523
32.300000 -9.878906 4.096523
32.200000 -9.201172 4.096523
32.100000 -8.648438 4.096523
32.100000 -7.845703 4.096523
32.100000 -7.042969 4.096523
32.000000 -6.240234 4.096523
32.400000 -5.687500 4.096523
32.400000 -10.935547 4.221557
32.300000 -10.132812 4.221557
32.200000 -9.330078 4.221557
32.200000 -8.652344 4.221557
32.100000 -7.849609 4.221557
32.100000 -7.671875 4.221557
32.100000 -6.619141 4.221557
32.000000 -5.691406 4.221557
32.200000 -8.385742 4.362570
32.100000 -8.083984 4.362570
32.000000 -7.407227 4.362570
32.000000 -6.855469 4.362570
32.000000 -6.178711 4.362570
32.400000 -10.968750 4.503196
32.300000 -10.416016 4.503196
32.300000 -9.613281 4.503196
32.200000 -9.310547 4.503196
32.100000 -8.507812 4.503196
32.100000 -7.330078 4.503196
32.000000 -6.902344 4.503196
32.000000 -6.349609 4.503196
32.200000 -5.796875 4.503196
32.300000 -10.597656 4.628158
32.300000 -9.921875 4.628158
32.200000 -9.121094 4.628158
32.200000 -8.570312 4.628158
32.100000 -7.769531 4.628158
32.100000 -7.843750 4.628158
32.100000 -7.042969 4.628158
32.000000 -6.242188 4.628158
32.300000 -10.538086 4.768787
32.300000 -10.235840 4.768787
32.200000 -9.433594 4.768787
32.200000 -8.631348 4.768787
32.100000 -7.829102 4.768787
32.000000 -7.651855 4.768787
32.000000 -6.224609 4.768787
32.000000 -5.797363 4.768787
32.300000 -11.183594 4.909411
32.300000 -10.257324 4.909411
32.200000 -9.831055 4.909411
32.200000 -9.279785 4.909411
32.100000 -8.603516 4.909411
32.100000 -7.677246 4.909411
32.100000 -7.250977 4.909411
32.000000 -5.824707 4.909411
32.400000 -5.398438 4.909411
32.400000 -10.857422 5.034442
32.300000 -10.679688 5.034442
32.300000 -9.501953 5.034442
32.200000 -9.199219 5.034442
32.100000 -8.021484 5.034442
32.000000 -7.343750 5.034442
32.000000 -6.792969 5.034442
32.000000 -6.367188 5.034442
32.300000 -5.816406 5.034442
32.300000 -11.053711 5.175069
32.300000 -10.125000 5.175069
32.200000 -9.071289 5.175069
32.200000 -8.642578 5.175069
32.100000 -8.213867 5.175069
32.000000 -7.410156 5.175069
32.000000 -6.356445 5.175069
32.000000 -6.177734 5.175069
32.300000 -11.332031 5.315701
32.300000 -10.404297 5.315701
32.300000 -9.476562 5.315701
32.200000 -8.673828 5.315701
32.100000 -7.996094 5.315701
32.100000 -7.318359 5.315701
32.000000 -7.140625 5.315701
32.000000 -5.837891 5.315701
32.300000 -5.660156 5.315701
32.400000 -11.622559 5.456562
32.300000 -10.692383 5.456562
32.300000 -9.637207 5.456562
32.200000 -9.207031 5.456562
32.200000 -8.651855 5.456562
32.100000 -8.096680 5.456562
31.900000 -7.166504 5.456562
31.900000 -6.361328 5.456562
32.000000 -5.431152 5.456562
32.400000 -10.929199 5.581560
32.300000 -10.127930 5.581560
32.200000 -9.701660 5.581560
32.200000 -8.775391 5.581560
32.100000 -8.224121 5.581560
32.000000 -6.922852 5.581560
32.000000 -6.496582 5.581560
32.000000 -6.195312 5.581560
32.400000 -11.252930 5.722183
32.300000 -10.324219 5.722183
32.300000 -9.770508 5.722183
32.200000 -9.466797 5.722183
32.200000 -8.913086 5.722183
32.100000 -7.609375 5.722183
31.900000 -7.184082 5.722183
31.900000 -6.133789 5.722183
32.000000 -6.083496 5.722183
32.200000 -5.527344 5.862848
32.300000 -11.308105 5.987845
32.300000 -10.006836 5.987845
32.200000 -9.705566 5.987845
32.200000 -8.654297 5.987845
32.100000 -8.103027 5.987845
32.100000 -7.176758 5.987845
32.000000 -6.750488 5.987845
32.400000 -10.666016 6.128473
32.300000 -9.986816 6.128473
32.200000 -9.432617 6.128473
32.200000 -8.503418 6.128473
32.100000 -8.199219 6.128473
32.000000 -7.520020 6.128473
32.000000 -6.590820 6.128473
32.000000 -5.786621 6.128473
32.400000 -11.085938 6.269364
32.300000 -10.785156 6.269364
32.300000 -9.859375 6.269364
32.200000 -9.308594 6.269364
32.200000 -8.757812 6.269364
32.100000 -7.582031 6.269364
32.000000 -6.781250 6.269364
31.900000 -6.230469 6.269364
32.100000 -5.804688 6.269364
32.400000 -10.761230 6.394361
32.300000 -10.456055 6.394361
32.300000 -10.025879 6.394361
32.200000 -8.970703 6.394361
32.100000 -8.540527 6.394361
32.100000 -7.360352 6.394361
32.000000 -6.680176 6.394361
32.000000 -6.000000 6.394361
32.200000 -5.448242 6.394361
32.400000 -10.808594 6.535020
32.300000 -10.129883 6.535020
32.200000 -9.201172 6.535020
32.200000 -9.022461 6.535020
32.100000 -8.343750 6.535020
32.000000 -7.665039 6.535020
32.000000 -7.111328 6.535020
32.000000 -6.307617 6.535020
32.400000 -11.176758 6.675649
32.300000 -10.119629 6.675649
32.300000 -9.937500 6.675649
32.200000 -9.384277 6.675649
32.100000 -8.456055 6.675649
32.100000 -7.277832 6.675649
32.000000 -6.724609 6.675649
32.000000 -6.421387 6.675649
32.200000 -5.493164 6.675649
32.400000 -10.704590 6.816450
32.300000 -10.401367 6.816450
32.200000 -9.598145 6.816450
32.200000 -8.669922 6.816450
32.100000 -8.366699 6.816450
32.000000 -6.938477 6.816450
32.000000 -6.260254 6.816450
32.000000 -6.207031 6.816450
32.300000 -10.713867 6.942414
32.300000 -10.535156 6.942414
32.200000 -9.356445 6.942414
32.200000 -8.552734 6.942414
32.100000 -8.124023 6.942414
32.000000 -7.570312 6.942414
32.000000 -6.891602 6.942414
32.000000 -6.337891 6.942414
32.300000 -11.169434 7.083518
32.300000 -10.364258 7.083518
32.200000 -9.934082 7.083518
32.200000 -8.628906 7.083518
32.100000 -8.448730 7.083518
32.000000 -7.268555 7.083518
32.000000 -6.713379 7.083518
32.400000 -11.234863 7.208553
32.300000 -10.683594 7.208553
32.300000 -10.007324 7.208553
32.200000 -8.956055 7.208553
32.100000 -8.154785 7.208553
32.100000 -7.478516 7.208553
32.000000 -6.677246 7.208553
31.900000 -6.125977 7.208553
32.200000 -5.949707 7.208553
32.300000 -11.096680 7.349183
32.300000 -10.041504 7.349183
32.200000 -9.111328 7.349183
32.200000 -8.806152 7.349183
32.100000 -8.500977 7.349183
32.000000 -7.695801 7.349183
32.000000 -7.015625 7.349183
32.000000 -6.340332 7.349183
32.400000 -11.226562 7.489806
32.300000 -10.673828 7.489806
32.300000 -9.871094 7.489806
32.200000 -9.068359 7.489806
32.200000 -8.640625 7.489806
32.100000 -7.712891 7.489806
32.000000 -7.035156 7.489806
31.900000 -6.107422 7.489806
32.000000 -6.054688 7.489806
32.300000 -10.942871 7.614805
32.300000 -10.515625 7.614805
32.300000 -9.715820 7.614805
32.200000 -9.041016 7.614805
32.100000 -8.616211 7.614805
32.000000 -7.316406 7.614805
32.000000 -7.391602 7.614805
32.000000 -6.216797 7.614805
32.200000 -5.416992 7.614805
32.300000 -11.061523 7.755393
32.300000 -10.260254 7.755393
32.300000 -9.708984 7.755393
32.200000 -9.407715 7.755393
32.100000 -8.231445 7.755393
32.000000 -7.930176 7.755393
32.000000 -6.753906 7.755393
32.000000 -6.577637 7.755393
32.200000 -5.401367 7.755393
32.300000 -11.291504 7.896056
32.300000 -10.737305 7.896056
32.300000 -9.808105 7.896056
32.200000 -9.378906 7.896056
32.100000 -8.074707 7.896056
32.100000 -7.270508 7.896056
32.000000 -6.716309 7.896056
32.000000 -6.037109 7.896056
32.300000 -5.482910 7.896056
32.400000 -11.046875 8.037194
32.300000 -10.617188 8.037194
32.300000 -9.812500 8.037194
32.200000 -9.132812 8.037194
32.100000 -8.328125 8.037194
32.100000 -8.023438 8.037194
32.000000 -6.718750 8.037194
32.000000 -6.039062 8.037194
32.300000 -5.984375 8.037194
32.300000 -10.742676 8.162626
32.300000 -10.064453 8.162626
32.300000 -9.761230 8.162626
32.200000 -8.958008 8.162626
32.100000 -8.029785 8.162626
32.000000 -7.476562 8.162626
32.000000 -7.173340 8.162626
32.000000 -5.870117 8.162626
32.300000 -5.941895 8.162626
32.300000 -11.277832 8.303261
32.300000 -10.221680 8.303261
32.300000 -9.790527 8.303261
32.200000 -9.109375 8.303261
32.100000 -8.431641 8.303261
32.100000 -7.753906 8.303261
32.000000 -7.201172 8.303261
31.900000 -6.523438 8.303261
32.100000 -5.720703 8.303261
32.400000 -10.593750 8.443879
32.300000 -9.789062 8.443879
32.200000 -9.359375 8.443879
32.200000 -8.679688 8.443879
32.100000 -7.625000 8.443879
32.000000 -7.320312 8.443879
32.000000 -6.515625 8.443879
32.000000 -6.085938 8.443879
32.400000 -10.569336 8.568841
32.300000 -10.018066 8.568841
32.200000 -9.591797 8.568841
32.200000 -8.790527 8.568841
32.100000 -7.864258 8.568841
32.000000 -7.562988 8.568841
32.000000 -6.386719 8.568841
32.400000 -10.972656 8.709468
32.300000 -10.043945 8.709468
32.200000 -9.740234 8.709468
32.200000 -9.186523 8.709468
32.100000 -8.382812 8.709468
32.000000 -7.704102 8.709468
32.000000 -6.400391 8.709468
32.000000 -6.221680 8.709468
32.400000 -11.501953 8.850124
32.300000 -10.575195 8.850124
32.300000 -10.148438 8.850124
32.200000 -9.346680 8.850124
32.200000 -8.669922 8.850124
32.100000 -7.993164 8.850124
32.000000 -7.066406 8.850124
31.900000 -6.139648 8.850124
32.000000 -5.962891 8.850124
32.400000 -11.110352 8.975128
32.300000 -10.056641 8.975128
32.200000 -9.627930 8.975128
32.200000 -8.824219 8.975128
32.100000 -8.395508 8.975128
32.000000 -7.591797 8.975128
32.000000 -7.038086 8.975128
32.000000 -5.734375 8.975128
32.300000 -10.998047 9.115754
32.300000 -10.695312 9.115754
32.300000 -9.892578 9.115754
32.200000 -8.714844 9.115754
32.100000 -7.912109 9.115754
32.100000 -7.234375 9.115754
32.000000 -6.931641 9.115754
32.000000 -6.628906 9.115754
32.300000 -5.451172 9.115754
32.300000 -11.353027 9.256380
32.300000 -10.422852 9.256380
32.300000 -9.867676 9.256380
32.200000 -8.937500 9.256380
32.100000 -8.134277 9.256380
32.100000 -7.581055 9.256380
32.000000 -6.902832 9.256380
32.000000 -6.224609 9.256380
32.100000 -5.796387 9.256380
32.300000 -11.351562 9.396967
32.300000 -10.671387 9.396967
32.300000 -9.491211 9.396967
32.200000 -8.686035 9.396967
32.100000 -8.380859 9.396967
32.100000 -7.450684 9.396967
32.000000 -7.145508 9.396967
32.000000 -5.965332 9.396967
32.300000 -5.285156 9.396967
32.300000 -10.888672 9.522330
32.300000 -9.835938 9.522330
32.200000 -9.408203 9.522330
32.200000 -8.605469 9.522330
32.100000 -7.927734 9.522330
32.000000 -7.250000 9.522330
32.000000 -6.822266 9.522330
32.000000 -5.894531 9.522330
32.400000 -11.184082 9.662953
32.300000 -10.756836 9.662953
32.300000 -10.204590 9.662953
32.200000 -9.652344 9.662953
32.200000 -8.975098 9.662953
32.100000 -8.047852 9.662953
32.000000 -7.495605 9.662953
32.000000 -6.693359 9.662953
32.000000 -5.766113 9.662953
32.300000 -10.796875 9.787988
32.300000 -10.619141 9.787988
32.300000 -9.941406 9.787988
32.200000 -8.888672 9.787988
32.100000 -8.210938 9.787988
32.100000 -7.283203 9.787988
32.000000 -7.230469 9.787988
32.000000 -6.177734 9.787988
32.200000 -5.375000 9.787988
32.300000 -10.786621 9.928617
32.300000 -10.607422 9.928617
32.300000 -9.928223 9.928617
32.200000 -8.874023 9.928617
32.100000 -8.069824 9.928617
32.100000 -7.390625 9.928617
32.000000 -6.964355 9.928617
32.000000 -6.663086 9.928617
32.200000 -5.736816 9.928617
32.400000 -11.190430 10.069246
32.300000 -10.013184 10.069246
32.200000 -9.085938 10.069246
32.200000 -8.533691 10.069246
32.100000 -7.856445 10.069246
32.000000 -7.804199 10.069246
32.000000 -6.626953 10.069246
32.000000 -6.324707 10.069246
32.400000 -11.105469 10.209828
32.300000 -10.054688 10.209828
32.200000 -9.503906 10.209828
32.200000 -8.703125 10.209828
32.100000 -7.902344 10.209828
32.000000 -7.601562 10.209828
32.000000 -7.050781 10.209828
32.000000 -5.750000 10.209828
