1.060565 2.814785 1.894783
0.980312 2.652989 2.222580
0.936021 2.563572 2.229139
0.822369 2.334534 2.826392
0.697294 2.082166 3.046220
0.572942 1.831261 3.269842
0.487491 1.658800 3.355262
0.323217 1.327352 3.661848
0.123438 0.924330 4.122046
0.174938 1.028393 4.244488
0.422752 1.529006 4.644388
0.519058 1.723516 4.747351
0.519058 1.723516 4.747351
0.536664 1.759249 5.009632
0.511492 1.708624 5.287865
0.497727 1.681124 5.698925
0.480894 1.647383 6.045854
0.416461 1.517508 6.347885
1.328094 2.671572 1.353019
1.379112 2.752574 1.225058
1.340033 2.690843 1.859369
1.340068 2.690899 1.860599
1.243628 2.537833 2.189419
1.141877 2.376216 2.331117
0.934258 2.046365 2.489183
0.780182 1.801600 2.642959
0.651937 1.598197 3.325972
0.171167 0.834708 4.244892
0.458816 1.291995 4.516473
0.584395 1.491703 4.754847
0.727532 1.719429 5.185909
0.733326 1.728675 5.252640
0.722941 1.712453 5.729167
0.605749 1.526156 5.634089
0.578796 1.483491 5.917475
0.521854 1.393297 6.420260
1.584834 2.518124 1.093560
1.659016 2.613543 1.657918
1.605507 2.545056 1.916423
1.540055 2.461060 1.797587
1.360045 2.230288 1.942595
1.318898 2.177788 2.462211
1.144084 1.953717 2.679972
0.895827 1.635336 2.648421
0.747911 1.446000 3.334109
0.630732 1.296223 4.302650
0.564593 1.211381 4.250830
0.653096 1.325040 4.571759
0.768861 1.473794 5.153858
0.802540 1.517154 5.484954
0.802729 1.517397 5.486754
0.770810 1.476609 5.769312
0.703622 1.390703 6.270386
0.567274 1.215803 6.177552
0.306549 0.881670 6.611832
1.831074 2.342586 1.013789
1.839053 2.351085 1.392399
1.848327 2.360907 1.707851
1.777187 2.286638 1.649971
1.578728 2.079650 1.919658
1.463096 1.959216 2.444947
1.273501 1.761512 2.791210
0.997735 1.473739 2.824978
0.798747 1.266147 2.983038
0.624824 1.085267 4.360227
0.562442 1.020202 4.440886
0.712189 1.176526 4.547934
0.889112 1.361330 4.917333
0.903235 1.376128 5.049802
0.856857 1.327826 5.264202
0.835326 1.305544 5.678302
0.817715 1.287354 6.094062
0.708599 1.173589 6.331825
2.069524 2.135426 1.030531
2.072143 2.137687 1.158555
2.015083 2.089842 1.795612
1.867620 1.965577 1.935048
1.791367 1.901292 1.942595
1.650538 1.782673 2.212693
1.374527 1.550200 2.760925
1.154502 1.364766 2.918836
0.935103 1.179862 3.079345
0.543400 0.849983 3.951957
0.444123 0.766518 4.519421
0.754366 1.028083 4.534553
0.882096 1.135956 4.988417
0.965727 1.206486 5.041498
0.974975 1.214561 5.721719
0.993498 1.230233 5.856036
0.862179 1.119591 6.027104
0.771476 1.043301 6.465653
2.278287 1.922042 1.273762
2.283981 1.926013 1.463770
2.213329 1.877759 1.784752
2.054101 1.768786 1.923122
1.895417 1.660187 2.063216
1.648368 1.491036 2.082079
1.418818 1.333992 2.427517
1.124225 1.132492 2.985642
0.964766 1.023341 3.070233
0.262689 0.543151 4.464711
0.456978 0.676276 4.710450
0.742793 0.872089 5.004608
1.021932 1.063304 5.225401
0.949462 1.013714 5.308407
0.914651 0.990011 5.658498
0.893459 0.975660 6.076791
0.785028 0.901558 6.449540
2.375596 1.618934 1.053765
2.465069 1.667152 1.113995
2.466650 1.668027 1.176772
2.390751 1.627278 1.558866
2.225394 1.538298 1.821737
2.058810 1.448635 2.023948
1.825565 1.323182 2.558342
1.566590 1.183710 2.646018
1.224788 0.999648 2.809077
0.966433 0.860510 2.900187
0.815462 0.779894 4.886409
0.929322 0.841294 5.072035
1.073184 0.918926 5.455695
1.026946 0.894120 5.738630
1.026906 0.894098 5.738370
0.885505 0.818012 5.974040
0.803885 0.774250 6.548106
2.620717 1.409480 1.106855
2.619178 1.408821 1.043334
2.540207 1.376243 1.487999
2.458371 1.342413 1.745242
2.201301 1.236007 2.143744
1.936404 1.126294 2.355880
1.664099 1.013467 2.441288
1.318817 0.870488 2.799782
1.075288 0.769702 3.224084
1.357005 0.886471 3.261146
0.744315 0.632960 4.485432
0.888470 0.692837 4.874611
1.007849 0.742376 5.060026
1.057241 0.762960 5.393386
1.019020 0.747239 5.743603
0.961488 0.723468 5.961489
0.850807 0.677746 6.400904
2.650478 1.107641 0.962596
2.754659 1.139024 1.277208
2.750955 1.137871 1.152893
2.670806 1.113953 1.600100
2.580668 1.086931 1.729141
2.392272 1.030388 1.800468
2.122526 0.949505 2.135799
1.770290 0.843902 2.615175
1.388142 0.729170 2.643536
1.111574 0.646179 2.797718
1.347916 0.717310 3.309385
0.601165 0.493454 4.406603
0.834982 0.563760 4.715352
0.977016 0.606511 5.034474
1.154375 0.659933 5.550990
1.037933 0.624932 5.431733
0.904130 0.584877 5.798745
0.918510 0.589398 6.419804
0.610754 0.496967 6.340020
2.866249 0.841659 1.453926
2.763411 0.822330 1.331423
2.690369 0.808813 1.905724
2.487498 0.770721 1.788997
2.210702 0.718909 2.126484
1.830733 0.647706 2.346921
1.462335 0.578717 2.704751
1.173635 0.524592 2.795110
0.911242 0.476034 4.864026
1.069399 0.505825 5.251786
1.090855 0.509892 5.385717
1.004863 0.493789 5.469170
0.965162 0.486454 5.822116
0.820348 0.459388 6.127698
3.024200 0.556778 1.098713
3.034506 0.557753 1.414665
2.930478 0.548875 1.294438
2.746756 0.533384 1.683810
2.560905 0.517674 1.950573
2.282300 0.494105 2.291623
1.908339 0.462436 2.646782
1.506072 0.428239 2.613829
1.229533 0.404830 2.905662
1.140007 0.397805 4.755127
0.962700 0.382788 4.919784
1.014793 0.387322 5.257426
1.070567 0.392168 5.594475
0.995915 0.385872 5.747265
2.961899 0.248393 0.970700
3.068754 0.246657 1.222360
3.063454 0.246688 1.035167
3.073081 0.246624 1.350404
2.892623 0.249830 1.801289
2.699797 0.253149 1.940017
2.404033 0.258198 2.022236
2.144296 0.262798 2.624646
1.645974 0.271274 2.664707
1.386855 0.275829 3.154890
1.064389 0.281788 4.691535
0.876285 0.285013 4.788604
1.068979 0.281926 5.381038
1.047375 0.282252 5.247975
0.929593 0.284411 5.753819
0.843333 0.285903 5.840136
0.820377 0.286426 6.265743
3.090161 -0.078231 1.557881
3.093014 -0.078561 1.622612
3.006445 -0.067853 1.881011
2.732319 -0.034078 2.280785
2.431125 0.002880 2.238784
0.366698 0.257015 4.545782
0.709364 0.215049 4.848281
0.915947 0.189704 4.889165
1.098172 0.167502 5.414617
1.023067 0.176770 5.567755
0.874734 0.195074 5.874225
0.839682 0.199490 6.232944
0.684472 0.218619 6.476852
3.144554 -0.411617 0.969821
3.157660 -0.414468 1.409131
3.171053 -0.417424 1.723121
3.080036 -0.396601 1.854756
2.997004 -0.377560 2.113112
2.916242 -0.359037 2.373081
0.743068 0.137967 4.955842
0.997688 0.079955 5.333047
0.987367 0.082290 5.267477
0.968967 0.086649 5.758036
0.884969 0.105855 5.844893
0.729537 0.141421 6.086003
3.096971 -0.730513 1.333361
3.198680 -0.764799 1.520019
3.193974 -0.763251 1.396303
3.201326 -0.765671 1.584304
3.128392 -0.740894 2.027421
3.066523 -0.719833 2.535841
0.695904 0.081394 4.530333
0.741423 0.066136 4.871657
0.864145 0.024755 5.061496
0.925752 0.004085 5.468433
0.992413 -0.018292 5.874482
0.910958 0.009244 5.960871
0.760628 0.060091 6.201779
3.082435 -1.096094 0.993120
3.190349 -1.145794 1.551230
3.198334 -1.149421 1.738771
3.198389 -1.149446 1.739984
3.207503 -1.153595 1.927463
3.134573 -1.119767 2.245715
3.069413 -1.089508 2.628337
0.624441 0.041599 4.654446
0.749913 -0.016322 4.914152
0.849044 -0.062135 4.968630
0.907014 -0.088796 5.376023
0.848440 -0.061638 5.596828
0.891611 -0.081504 5.868940
0.735575 -0.009302 6.041636
3.047025 -1.449210 1.108017
3.146511 -1.507690 1.539633
3.146547 -1.507711 1.540601
3.254836 -1.571358 2.030499
3.168897 -1.520703 2.037532
3.100731 -1.480410 2.354775
3.040137 -1.444557 2.736134
2.963766 -1.399494 2.870332
2.817958 -1.313433 3.202966
2.566454 -1.165161 3.297327
0.398874 0.112743 4.185600
0.320860 0.158755 4.267922
0.555153 0.020853 4.791775
0.760273 -0.099957 5.035747
0.872629 -0.166111 5.224109
0.930394 -0.200010 5.629908
0.920493 -0.194200 5.562644
0.929921 -0.199528 6.188369
0.783195 -0.112984 6.361767
2.888947 -1.750137 1.228916
2.963972 -1.805308 0.980384
3.066630 -1.880379 1.720822
3.074686 -1.886220 1.908192
3.090145 -1.897448 2.216787
3.080581 -1.890499 2.032425
3.100765 -1.905171 2.402511
3.108382 -1.910715 2.526117
3.048991 -1.866994 2.843126
3.013432 -1.840670 3.409362
2.927921 -1.777918 3.358675
2.704276 -1.613658 3.579113
0.675977 -0.124395 4.419638
0.618426 -0.082062 4.638173
0.713765 -0.152001 4.761130
0.868745 -0.265537 5.357007
0.886819 -0.278751 5.492716
0.905371 -0.292317 5.628326
0.884481 -0.276817 6.051696
0.736269 -0.167978 6.156646
2.686363 -2.048662 1.249793
2.758721 -2.114768 1.185548
2.837240 -2.186394 1.368558
2.851699 -2.199415 1.801269
2.865033 -2.211460 2.110415
2.880864 -2.225786 2.419347
2.884374 -2.228964 2.481873
2.899251 -2.242446 2.728987
2.907322 -2.249763 2.852956
2.920147 -2.261397 3.038337
2.860424 -2.206774 3.233881
2.749315 -2.105113 3.689508
2.649897 -2.014101 4.212685
0.822334 -0.344702 5.246573
0.863634 -0.382273 5.585596
0.898672 -0.414156 5.856573
0.735669 -0.265341 5.757170
0.684245 -0.218075 6.474725
0.415001 0.027895 6.691075
2.530180 -2.378956 1.077649
2.531394 -2.380282 1.141761
2.607026 -2.464607 1.511221
2.621606 -2.480692 1.945032
2.631972 -2.492156 2.193686
2.710300 -2.579553 2.434673
2.707350 -2.576285 2.375477
2.660724 -2.524015 2.754217
2.696588 -2.563823 3.309469
2.684015 -2.549861 3.127383
2.663541 -2.526691 3.755289
2.597520 -2.452923 3.769577
2.414810 -2.248687 3.995174
0.766460 -0.406578 5.083186
0.810231 -0.455288 5.491397
0.841494 -0.490088 5.763834
0.726587 -0.361628 5.936403
0.646893 -0.272382 6.383240
0.421972 -0.020924 6.737332
2.336876 -2.708239 1.229002
2.339439 -2.711700 1.353616
2.407698 -2.805455 1.719930
2.429875 -2.835652 2.335208
2.438108 -2.846885 2.520455
2.450180 -2.863369 2.766902
2.382522 -2.770338 2.592231
2.412224 -2.810924 3.146821
2.423585 -2.826462 3.332011
2.314754 -2.676589 3.477923
0.710168 -0.467240 4.959896
0.734862 -0.501084 5.231774
0.754326 -0.527766 5.435699
0.788445 -0.574546 5.774375
0.716759 -0.475641 6.217072
0.543663 -0.237361 6.274185
0.270837 0.138282 6.507517
2.004447 -2.849886 1.420656
2.055993 -2.938410 1.479414
2.066751 -2.956624 1.912045
2.115268 -3.040023 1.845928
2.080873 -2.980618 2.345263
2.085538 -2.988555 2.469369
2.095650 -3.005773 2.716491
2.053869 -2.933868 2.911099
2.009717 -2.857925 3.045020
1.986082 -2.817001 3.551997
1.829127 -2.547392 3.461624
0.604563 -0.442545 4.907779
0.620162 -0.469218 5.112703
0.625568 -0.478463 5.181672
0.732504 -0.661779 5.842876
0.683087 -0.576863 5.861541
0.602935 -0.439003 6.101940
0.494625 -0.252623 6.569112
1.693331 -3.042416 1.359951
1.735261 -3.135772 1.419650
1.737414 -3.140471 1.544714
1.783259 -3.242406 1.787853
1.792301 -3.262263 2.158027
1.764539 -3.200087 2.597279
1.687216 -3.027739 2.739038
1.658136 -2.962716 3.059941
1.607959 -2.851129 2.821850
1.514162 -2.641642 3.542278
0.358199 -0.066080 4.356388
0.498922 -0.379310 4.661914
0.608807 -0.623737 5.110691
0.626637 -0.663245 5.383153
0.645446 -0.704935 5.655225
0.619923 -0.647912 5.877131
0.589891 -0.580895 6.032307
1.373463 -3.186866 0.969496
1.409312 -3.294343 1.400371
1.408581 -3.292205 1.339878
1.416839 -3.316507 1.896152
1.388910 -3.232248 2.088503
1.355066 -3.130494 1.971836
1.331370 -3.058791 2.352456
1.302891 -2.972937 2.485692
0.254734 0.183892 4.366096
0.397368 -0.245074 4.729426
0.459852 -0.433180 4.702721
0.513477 -0.594128 5.165758
0.551465 -0.708352 5.286738
0.538238 -0.668186 5.642606
0.526301 -0.631900 5.999992
0.499323 -0.550608 6.087065
0.427139 -0.332936 6.485647
1.043864 -3.315373 1.178775
1.050381 -3.343670 1.861628
1.031975 -3.260595 2.117295
1.010324 -3.163299 2.125570
0.970773 -2.985197 2.390948
0.927475 -2.790620 2.407345
0.868006 -2.522906 2.749642
0.363183 -0.252039 4.487759
0.442500 -0.607805 4.926899
0.442569 -0.608112 4.929024
0.470873 -0.735019 5.119682
0.468966 -0.725637 5.679643
0.482271 -0.784930 6.020018
0.466531 -0.713982 6.175796
0.389909 -0.369284 6.457816
0.689864 -3.419890 1.532621
0.677682 -3.313324 1.351742
0.668705 -3.233195 1.792941
0.661005 -3.164113 2.299321
0.636994 -2.953565 2.125649
0.605716 -2.677718 2.463479
0.321879 -0.177661 4.402496
0.361948 -0.528800 4.775249
0.374284 -0.637067 4.830482
0.397644 -0.840533 5.494300
0.397669 -0.840752 5.495620
0.403025 -0.887075 5.766996
0.383580 -0.715696 5.938788
0.346478 -0.388447 6.354476
0.339256 -3.358003 1.142977
0.340594 -3.464038 1.327782
0.340741 -3.471363 1.515453
0.339488 -3.368975 1.459501
0.338442 -3.277291 1.652479
0.336671 -3.113909 2.291058
0.334417 -2.923502 2.432980
0.329539 -2.520126 2.400236
0.303710 -0.324915 4.515160
0.307688 -0.650280 4.680591
0.309439 -0.788592 4.938723
0.310178 -0.841012 5.278019
0.312146 -0.995694 5.599833
0.311125 -0.908917 5.685020
0.309259 -0.748065 5.923683
0.306235 -0.490736 6.183089
-0.014539 -3.475018 1.152889
-0.015227 -3.483496 1.403243
-0.006029 -3.381649 1.344460
0.000529 -3.311358 1.970841
0.018833 -3.108920 1.919209
0.043045 -2.843188 2.442267
0.070417 -2.540569 2.399737
0.249640 -0.567781 4.608294
0.215900 -0.942361 5.107540
0.215907 -0.942280 5.107012
0.213090 -0.974105 5.308823
0.214926 -0.955522 5.797036
0.221667 -0.881565 5.949250
-0.383295 -3.454862 1.186516
-0.385879 -3.468433 1.557043
-0.365862 -3.367806 1.498330
-0.351800 -3.298085 2.062322
-0.291898 -2.997057 1.953800
-0.220274 -2.638180 2.485782
-0.161832 -2.344693 2.507016
0.196011 -0.550305 4.293792
0.160467 -0.729787 4.892906
0.125625 -0.904513 4.727611
0.109860 -0.984560 5.266687
0.101308 -1.027946 5.535145
0.092300 -1.073619 5.803209
0.111566 -0.976881 5.819694
-0.694757 -3.301554 1.099276
-0.699893 -3.318926 1.597817
-0.669982 -3.220804 1.541449
-0.618063 -3.051072 1.990760
-0.530707 -2.764696 2.009715
-0.425563 -2.420633 2.612410
-0.303717 -2.020918 2.384885
0.106181 -0.679268 4.421235
0.055114 -0.847261 4.952486
-0.017757 -1.086497 5.260314
-0.030664 -1.129103 5.529998
-0.034037 -1.140236 5.598144
-0.015588 -1.079988 5.817915
-0.004929 -1.045423 6.173399
0.098217 -0.707562 6.453454
-1.028515 -3.213594 1.110444
-0.993761 -3.131281 1.429913
-0.916267 -2.947174 1.440171
-0.924166 -2.966299 1.881960
-0.808005 -2.690330 1.900772
-0.658924 -2.336359 2.182084
-0.509122 -1.980629 2.405220
-0.366055 -1.641064 2.831235
0.024068 -0.715654 4.654270
-0.049325 -0.889951 4.561709
-0.164733 -1.164670 5.208343
-0.220109 -1.296442 5.462176
-0.190841 -1.227029 5.615160
-0.166493 -1.169360 5.835923
-0.104620 -1.022550 6.076100
-0.005368 -0.786953 6.337633
-1.301521 -3.008253 1.218242
-1.353666 -3.103957 1.465811
-1.352551 -3.101875 1.405866
-1.309761 -3.023641 1.661243
-1.169192 -2.766179 1.803538
-1.040304 -2.530370 2.329941
-0.845092 -2.172631 2.230961
-0.617087 -1.755109 2.593177
-0.103246 -0.815048 4.750985
-0.202896 -0.997656 4.792465
-0.321939 -1.215972 5.100488
-0.342621 -1.254043 5.369929
-0.334249 -1.239023 5.856565
-0.293138 -1.163756 5.943706
-1.731546 -3.024109 1.434683
-1.613954 -2.854273 1.256975
-1.511969 -2.707343 1.767253
-1.458887 -2.630794 1.899701
-1.294629 -2.393810 2.108445
-1.076940 -2.079741 2.392287
-0.860825 -1.767948 2.682975
-0.304118 -0.965505 4.750359
-0.445337 -1.169517 5.057937
-0.495936 -1.242511 4.977565
-0.576071 -1.358322 5.229547
-0.558152 -1.332686 5.645925
-0.459584 -1.190500 5.815615
-1.957445 -2.753655 1.252706
-1.965162 -2.762847 1.564818
-1.837305 -2.613077 1.637614
-1.711576 -2.465831 1.774268
-1.528626 -2.251635 2.108941
-1.351264 -2.044022 2.514147
-0.691198 -1.271531 4.347005
-0.451668 -0.991005 4.603089
-0.611730 -1.178694 4.910913
-0.753405 -1.344740 5.015387
-0.780919 -1.377106 5.281759
-0.776415 -1.372093 5.829439
-0.736650 -1.325608 6.048009
-2.230381 -2.541130 1.329411
-2.237540 -2.548069 1.578406
-2.163336 -2.477240 1.520994
-2.027197 -2.347453 1.780980
-1.983038 -2.305592 2.415847
-1.766587 -2.099070 2.438165
-0.537366 -0.927057 4.469960
-0.786255 -1.164668 4.763097
-0.973154 -1.343163 5.130682
-1.083784 -1.448859 5.443716
-1.037323 -1.404621 5.658360
-0.974651 -1.344857 5.742276
-0.895132 -1.269198 6.241960
-0.611169 -0.998281 6.319225
-2.484811 -2.293061 1.331353
-2.488549 -2.295992 1.456589
-2.494955 -2.301006 1.643916
-2.344172 -2.184830 1.841834
-2.276553 -2.132798 2.099047
-2.142857 -2.029897 2.554230
-0.704027 -0.921282 4.398465
-1.007101 -1.155175 4.956689
-1.188186 -1.294859 5.124694
-1.309306 -1.388367 5.437111
-1.213865 -1.314737 5.323763
-1.121466 -1.243694 5.819510
-1.102952 -1.229584 6.234625
-0.958013 -1.117877 6.340464
-2.784577 -2.073459 1.032647
-2.790826 -2.077416 1.281583
-2.711764 -2.028586 1.472606
-2.641809 -1.985459 1.851842
-2.559853 -1.934794 1.920961
-2.410153 -1.842348 2.310947
-0.973253 -0.954411 4.457179
-1.257563 -1.130341 4.681176
-1.450673 -1.249842 4.849478
-1.560542 -1.317864 5.030604
-1.541006 -1.305955 5.503468
-1.486826 -1.272523 5.717275
-1.476569 -1.266355 6.193532
-2.980161 -1.783859 1.089746
-3.070101 -1.827668 1.089906
-3.083774 -1.834480 1.524715
-3.010535 -1.798938 1.903194
-2.834356 -1.713149 1.979601
-2.762489 -1.678254 2.297857
-2.595399 -1.596936 2.500337
-1.031760 -0.835884 4.181573
-1.266020 -0.950144 4.619603
-1.576419 -1.101437 4.904362
-1.772278 -1.196873 5.003837
-1.839723 -1.229884 5.457334
-1.771622 -1.196763 5.604207
-1.704167 -1.163958 5.751838
-1.571214 -1.099301 6.049362
-3.349310 -1.535534 1.442638
-3.349364 -1.535554 1.444079
-3.271721 -1.507453 1.819573
-3.187799 -1.477009 2.011924
-3.000251 -1.408833 2.025343
-2.831964 -1.347763 2.352268
-1.315243 -0.797024 4.283709
-1.747677 -0.954365 4.690173
-1.849884 -0.991539 4.742168
-2.019669 -1.053430 5.246171
-2.040390 -1.061007 5.376754
-2.012856 -1.051133 5.783054
-1.909519 -1.013551 5.737941
-1.726531 -0.947221 6.316161
-3.570618 -1.208008 0.975497
-3.583678 -1.211440 1.407527
-3.588686 -1.212743 1.533143
-3.491942 -1.188360 1.540604
-3.400673 -1.165397 1.671440
-3.234466 -1.123668 2.180798
-3.134009 -1.098329 2.128245
-1.599392 -0.711979 3.566627
-1.214116 -0.614881 3.612951
-1.228715 -0.618605 3.749477
-1.605777 -0.713872 4.443155
-1.834182 -0.771521 4.680241
-2.026546 -0.820000 4.654612
-2.141540 -0.849024 4.772467
-2.201080 -0.864158 5.162357
-2.243727 -0.874991 5.422906
-2.228001 -0.871180 5.894054
-2.050006 -0.826349 5.999265
-1.814621 -0.767121 6.320239
-1.447942 -0.674744 6.468446
-3.680178 -0.844128 1.204583
-3.787901 -0.860076 1.448937
-3.689184 -0.845535 1.456341
-3.700259 -0.847246 1.704659
-3.512485 -0.819645 1.902895
-3.338285 -0.794104 2.289845
-3.267951 -0.783864 2.673471
-2.858958 -0.723561 2.520717
-2.507726 -0.671989 3.065923
-2.126393 -0.615864 3.236335
-1.851138 -0.575385 3.465319
-1.570382 -0.534076 3.632221
-1.706605 -0.554247 3.953237
-2.033930 -0.602542 4.180515
-2.184941 -0.624909 4.558941
-2.399789 -0.656594 4.662287
-2.501116 -0.671726 5.305665
-2.415066 -0.659076 5.390053
-2.386571 -0.655007 5.795316
-2.278067 -0.639008 5.752313
-2.183066 -0.625188 6.309093
-3.744080 -0.465717 1.110752
-3.745927 -0.465819 1.173467
-3.759631 -0.466545 1.542474
-3.665536 -0.462396 1.671203
-3.598005 -0.459565 2.232187
-3.394616 -0.450493 2.185160
-3.317199 -0.447146 2.504371
-2.914107 -0.429187 2.473401
-2.769308 -0.422944 3.124490
-2.465020 -0.409383 3.090802
-2.007378 -0.389142 3.530099
-1.816024 -0.380649 3.618575
-1.846155 -0.382074 3.881941
-2.076783 -0.392418 4.119659
-2.219182 -0.398857 4.431778
-2.463625 -0.409835 4.726374
-2.524081 -0.412648 5.111941
-2.457854 -0.409765 5.321972
-2.404569 -0.407479 5.597304
-2.378375 -0.406440 6.002535
-2.157804 -0.396590 5.912543
-3.770573 -0.070288 1.048034
-3.782595 -0.069674 1.416142
-3.682875 -0.075730 1.420545
-3.600098 -0.080874 1.795007
-3.522305 -0.085716 2.171832
-3.345212 -0.096571 2.496595
-3.141479 -0.108926 2.449695
-2.996159 -0.117953 3.095398
-2.823006 -0.128552 3.368610
-2.512087 -0.147400 3.272456
-2.227503 -0.164730 3.432392
-2.096311 -0.172886 4.039001
-2.096374 -0.172882 4.039509
-2.354395 -0.157350 4.466295
-2.480981 -0.149721 4.645261
-2.608638 -0.142025 4.822741
-2.691729 -0.137141 5.333114
-2.604484 -0.142464 5.414415
-2.575630 -0.144342 5.815924
-2.379525 -0.156261 5.853354
-2.258834 -0.163723 6.278820
-3.659237 0.301087 1.051368
-3.756367 0.317134 0.988185
-3.769811 0.319216 1.417817
-3.676294 0.303744 1.545406
-3.583350 0.288367 1.673849
-3.418273 0.260947 2.242837
-3.347325 0.249119 2.623673
-3.160991 0.218327 2.765791
-2.964439 0.185888 2.783558
-2.773314 0.154325 2.864802
-2.606191 0.126641 3.202342
-2.464433 0.103080 3.736393
-2.163133 0.053372 3.707039
-2.103609 0.043443 4.044075
-2.324069 0.079767 4.213407
-2.456574 0.101554 4.457874
-2.757885 0.151059 5.130483
-2.727503 0.146106 4.940640
-2.628594 0.129592 5.547762
-2.617524 0.127785 5.484716
-2.505294 0.109112 5.969812
-2.291208 0.073644 6.415501
-3.705514 0.692972 0.989143
-3.627179 0.671601 1.545646
-3.641832 0.675464 1.853607
-3.555851 0.652144 2.044702
-3.449137 0.623335 1.865978
-3.282708 0.578169 2.313556
-3.123137 0.534857 2.766769
-2.952714 0.488669 3.036352
-2.754839 0.435157 2.992195
-2.626216 0.400149 3.649050
-2.537486 0.376123 3.724830
-2.257227 0.300279 3.824592
-2.138158 0.267872 4.432889
-2.320900 0.317335 4.341524
-2.529387 0.373698 4.442922
-2.660805 0.409169 4.684228
-2.813819 0.450442 5.050121
-2.887027 0.470101 5.493166
-2.792093 0.444415 5.511278
-2.575927 0.385798 5.948152
-2.303717 0.312124 6.069848
-3.426082 1.008014 1.027222
-3.522472 1.045346 1.148661
-3.534994 1.050076 1.518515
-3.532636 1.049182 1.458006
-3.462285 1.021738 1.956348
-3.369258 0.985668 1.963119
-3.307278 0.961468 2.466197
-3.108724 0.884543 2.294929
-2.856543 0.786633 2.695145
-2.691356 0.722496 2.966423
-2.627327 0.697560 3.294628
-2.673098 0.715157 3.740392
-2.540637 0.663640 4.213775
-2.305264 0.572260 4.576415
-2.636116 0.700422 4.916306
-2.848951 0.782888 5.075408
-3.001369 0.841861 5.436865
-2.920274 0.810392 5.518311
-2.700320 0.724987 5.890024
-2.357509 0.592005 6.094884
-3.310021 1.348471 1.133301
-3.317457 1.352165 1.382055
-3.418497 1.403451 1.687526
-3.240529 1.312926 1.699203
-3.184787 1.284352 2.326673
-3.081206 1.231752 2.086649
-3.042767 1.211933 2.844021
-2.875532 1.126821 2.989200
-2.609451 0.991472 3.018955
-2.560939 0.966636 3.475406
-2.411616 0.890310 4.540816
-2.323657 0.845565 4.557100
-2.542800 0.956927 4.847756
-3.154212 1.674360 1.018302
-3.160393 1.678244 1.267328
-3.158747 1.677207 1.207790
-3.181013 1.691302 1.826798
-3.091763 1.633920 1.710565
-3.032196 1.595405 2.214242
-2.959406 1.548497 2.408854
-2.817116 1.456797 2.800514
-2.575343 1.301176 2.954127
-2.491690 1.247348 2.964440
-2.433963 1.210082 3.292889
-2.958522 2.001723 1.057841
-2.962803 2.005100 1.242260
-2.959818 2.002744 1.118113
-2.972010 2.012399 1.549292
-2.903520 1.957077 1.800483
-2.828348 1.896440 1.867079
-2.768441 1.847985 2.245472
-2.642989 1.746629 2.759432
-2.582946 1.698113 3.018381
-2.341289 1.503310 2.918838
-2.297505 1.467825 3.372367
-2.396478 1.547527 3.614493
-2.514554 1.642273 4.747298
-2.736872 2.294714 1.038554
-2.742200 2.299890 1.286129
-2.749065 2.306592 1.533630
-2.686576 2.244481 1.786223
-2.625695 2.183963 2.040450
-2.583061 2.141413 2.607396
-2.515974 2.074819 2.678553
-2.382128 1.941957 2.821417
-2.174008 1.735426 2.911650
-2.143815 1.705211 3.493776
-2.432440 2.475993 0.998773
-2.498228 2.555583 1.121247
-2.499436 2.557015 1.184407
-2.443044 2.488585 1.498526
-2.386823 2.420392 1.752598
-2.342226 2.366149 2.257388
-2.345050 2.369537 2.321093
-2.218069 2.215792 2.336600
-2.113167 2.088562 2.793653
-1.993505 1.943613 2.939162
-1.962418 1.905720 3.458526
-2.044023 2.004399 3.702499
-2.037804 1.996197 5.068419
-2.222366 2.794929 1.006970
-2.231757 2.808730 1.507366
-2.173573 2.721528 1.388732
-2.127453 2.652139 1.766181
-2.141748 2.673333 2.201640
-2.088783 2.593852 2.271491
-1.988360 2.443077 2.536820
-1.935853 2.364281 2.608378
-1.781920 2.133239 2.887112
-1.695429 2.003248 3.352654
-1.813327 2.180022 3.459668
-1.735656 2.062815 4.709586
-1.927343 2.349843 5.565484
-1.920322 3.019323 1.264677
-1.920357 3.019387 1.266846
-1.877232 2.937004 1.458141
-1.882490 2.946864 1.707905
-1.849671 2.883926 2.211576
-1.803410 2.795685 2.220424
-1.723752 2.643486 2.611937
-1.646601 2.496067 3.008301
-1.543678 2.299914 2.775300
-1.513794 2.242650 3.167915
-1.502403 2.219952 4.606143
-1.590275 2.387176 5.164079
-1.712578 2.620214 5.509854
-1.626740 2.456425 5.610766
-1.384899 1.994496 6.581081
-1.603589 3.193419 1.107746
-1.604308 3.195156 1.172113
-1.609547 3.207896 1.544955
-1.612879 3.216038 1.732624
-1.540993 3.036820 1.869504
-1.545129 3.046965 2.058390
-1.482218 2.889843 2.510568
-1.417752 2.728946 2.842763
-1.343636 2.544269 2.862982
-1.273838 2.370244 3.010567
-1.204317 2.196909 3.159874
-1.088570 1.907829 3.984862
-1.030558 1.762996 4.337844
-1.209620 2.208683 4.863238
-1.254038 2.319256 4.977250
-1.318763 2.480154 5.407556
-1.310661 2.460073 5.282458
-1.185546 2.147570 6.208486
-0.976500 1.626524 6.459026
-1.270450 3.338458 1.055672
-1.270468 3.338518 1.058083
-1.273969 3.350271 1.430736
-1.246391 3.254329 1.437101
-1.221082 3.166065 1.629844
-1.169499 2.986325 1.891656
-1.177245 3.012773 2.330796
-1.127446 2.839230 2.598066
-1.044869 2.551939 2.623516
-0.995828 2.381027 2.896751
-0.973275 2.302341 3.099562
-0.863983 1.921047 4.062847
-0.853616 1.884449 4.532738
-0.943525 2.197045 4.685470
-0.970921 2.292364 4.672553
-0.987574 2.349856 5.058480
-0.972254 2.296251 5.332737
-0.981648 2.328708 5.526633
-0.937068 2.173367 5.756587
-0.876379 1.961737 6.202350
-0.802483 1.704455 6.393358
-0.925698 3.455451 1.235511
-0.925005 3.451817 1.114014
-0.910203 3.368826 1.552207
-0.897992 3.300009 2.117295
-0.882599 3.214172 2.312340
-0.867444 3.129654 2.508617
-0.831277 2.928864 2.463007
-0.780067 2.644174 2.614337
-0.748632 2.469100 2.887766
-0.741189 2.426723 3.474993
-0.662707 1.989920 3.989782
-0.630540 1.810989 4.147075
-0.701185 2.202153 4.821593
-0.727850 2.349708 5.129600
-0.727909 2.350031 5.131605
-0.714315 2.274269 5.278483
-0.685409 2.113321 5.507875
-0.704743 2.219668 6.090996
-0.667788 2.014462 6.066522
-0.627335 1.789100 6.452895
-0.567903 1.458404 6.799998
-0.557674 3.530364 1.132577
-0.558754 3.543533 1.504474
-0.551474 3.443958 1.510375
-0.545372 3.359150 1.826819
-0.538640 3.266531 1.958432
-0.525302 3.083007 2.222493
-0.504512 2.797795 2.434105
-0.491904 2.623956 2.769050
-0.412384 1.531815 3.869892
-0.432549 1.805118 4.438525
-0.454231 2.101778 4.399459
-0.463522 2.228045 4.581388
-0.471050 2.328197 5.227719
-0.469488 2.307381 5.100744
-0.468059 2.285831 5.570177
-0.462648 2.211191 5.718719
-0.453838 2.088879 6.146108
-0.432411 1.795623 6.205646
-0.198097 3.570250 1.186336
-0.197877 3.581510 1.496282
-0.197761 3.587005 1.621090
-0.203195 3.396600 1.818088
-0.205688 3.311127 2.073999
-0.210714 3.137354 2.463891
-0.219376 2.829214 2.361135
-0.223884 2.676019 2.950142
-0.255539 1.564311 3.858533
-0.249523 1.778710 3.968105
-0.242391 2.036283 4.401388
-0.238385 2.181735 4.713294
-0.234289 2.330349 5.022000
-0.235961 2.274144 5.297105
-0.235956 2.274313 5.298113
-0.237858 2.209275 5.509896
-0.241863 2.071358 5.870679
-0.248862 1.826865 6.189011
0.153080 3.476037 1.289565
0.140401 3.379206 1.357324
0.142013 3.392290 1.670118
0.131591 3.313487 2.050888
0.117756 3.207360 1.934147
0.097200 3.051666 2.576706
0.072661 2.864283 2.721151
0.033256 2.562740 2.683292
-0.110415 1.466137 3.715481
-0.061491 1.841925 4.339502
-0.063669 1.824950 4.209708
-0.028747 2.093306 4.705628
-0.001846 2.299193 4.742229
-0.008233 2.251155 5.081672
-0.029715 2.087365 5.309769
-0.030706 2.081088 5.848340
-0.037076 2.033034 6.128489
-0.054094 1.903737 6.495298
0.474439 3.239268 1.084490
0.478469 3.256635 1.583818
0.476204 3.246916 1.334924
0.484552 3.282508 2.083243
0.462987 3.193323 2.214889
0.392767 2.902368 2.235255
0.353550 2.740474 2.693712
0.287192 2.465785 2.911046
0.007799 1.309517 4.029971
0.058203 1.518528 4.138864
0.108692 1.727893 4.245945
0.138082 1.849929 4.430083
0.176723 2.010642 4.873438
0.188727 2.060824 5.199323
0.193775 2.081915 5.329820
0.195011 2.087845 5.932604
0.174859 2.004447 6.016816
0.117718 1.768093 6.336538
0.730664 2.989875 1.196846
0.763724 3.084266 1.195736
0.763743 3.084323 1.197692
0.738158 3.011815 1.767744
0.707337 2.923941 1.900685
0.684871 2.860285 2.413261
0.620507 2.676589 2.493258
0.524893 2.403741 2.645993
0.438996 2.158947 3.125112
0.367380 1.954304 2.950485
0.252513 1.626878 3.515796
0.135882 1.294299 3.960652
0.111215 1.224075 4.175320
0.215276 1.521277 4.272332
0.250997 1.623319 4.327429
0.337790 1.871540 4.761376
0.351025 1.909578 5.024797
0.365025 1.949802 5.287854
0.343481 1.888493 5.502472
0.318589 1.817566 5.652667
0.281775 1.712929 6.150687
0.225524 1.552485 6.323090
0.104658 1.207593 6.535048
1.030705 2.904467 1.321216
1.031675 2.906586 1.385724
1.033770 2.911152 1.513006
1.005303 2.850854 2.148508
0.958211 2.750196 1.967124
0.887621 2.599897 2.488792
0.720506 2.243234 2.584740
0.597999 1.981840 2.739592
0.520494 1.816552 2.953908
0.157141 1.041937 4.329919
0.394541 1.549000 4.729560
0.466729 1.702930 4.505004
0.495324 1.764311 4.965602
0.499726 1.773757 5.032412
0.485178 1.743006 5.443203
0.448224 1.664184 5.527102
0.410735 1.584624 6.157330
0.391306 1.543362 6.442122
1.266096 2.693902 1.138860
1.270305 2.701078 1.391415
1.282112 2.721089 1.895766
1.238420 2.648338 2.154363
1.140102 2.484355 2.294688
0.998299 2.247932 2.636470
0.804416 1.924569 2.928496
0.717614 1.779929 3.273416
0.622123 1.620673 3.425135
0.393088 1.238789 3.945535
0.312375 1.104321 4.305216
0.534521 1.475155 4.518889
0.614905 1.609528 4.900746
0.625346 1.627033 5.032783
0.675845 1.711663 5.624002
0.643473 1.657775 5.839028
0.548654 1.499608 5.941735
0.524014 1.458664 6.225419
1.539368 2.545614 1.075588
1.551604 2.562195 1.644379
1.493416 2.484801 1.713910
1.437281 2.410171 1.847282
1.328444 2.265515 2.178638
1.216320 2.116420 2.385767
1.042235 1.884846 2.538297
0.808728 1.574204 2.701336
0.645961 1.357797 3.058378
0.562449 1.247419 4.496450
0.668502 1.388815 5.014870
0.753242 1.501708 5.265062
0.780011 1.537468 5.530185
0.741921 1.486896 5.746911
0.719717 1.457532 6.096755
0.668546 1.389483 6.183542
0.531659 1.207534 6.576136
0.313227 0.916980 6.793283
1.797737 2.384540 1.428578
1.794701 2.381199 1.304777
1.739429 2.321626 1.752911
1.671700 2.248374 1.760103
1.565485 2.133824 2.474079
1.353252 1.904199 2.305214
1.105630 1.636599 2.791277
0.922480 1.438672 3.147603
0.846833 1.356797 3.027188
0.256359 0.718732 4.283733
0.629716 1.122706 4.623751
0.804141 1.311533 4.995736
0.885475 1.399558 5.114714
0.930044 1.447947 5.511940
0.886956 1.401444 5.728885
0.786581 1.293020 6.031448
0.697197 1.196516 6.403576
2.021975 2.183973 1.127043
2.024899 2.186608 1.256531
1.961163 2.130489 1.642565
1.816090 2.002443 1.782471
1.682843 1.884947 2.180252
1.539735 1.758638 2.325348
1.244151 1.497667 2.421396
1.038732 1.316422 2.775648
0.915749 1.207998 3.193221
0.683269 1.003067 4.046743
0.580351 0.912395 4.544805
0.743124 1.056175 4.653997
0.854333 1.154512 4.975185
0.984532 1.269671 5.425767
0.945355 1.235196 5.710091
0.863142 1.162580 5.664081
0.770609 1.081053 6.102052
0.662660 0.985859 6.410300
0.389385 0.744637 6.626733
2.231542 1.965890 1.040872
2.241329 1.973048 1.422425
2.092796 1.866802 1.813106
1.930524 1.750569 1.825904
1.776846 1.640566 2.031522
1.536619 1.468519 2.116425
1.310865 1.306943 2.464756
0.998766 1.083469 2.694996
0.940506 1.041869 3.038027
0.805552 0.945680 4.281372
0.673833 0.851442 4.578675
0.842753 0.972458 4.620621
0.979688 1.070722 5.074533
1.032752 1.108888 5.475027
0.872814 0.994336 5.511146
0.860613 0.985784 5.998116
0.791245 0.936128 6.085915
0.605100 0.802942 6.481376
0.286632 0.574849 6.562361
2.437131 1.727575 1.455403
2.350325 1.678283 1.461823
2.111181 1.542672 1.986970
1.940924 1.446018 2.065151
1.687588 1.302213 2.215278
1.442934 1.163386 2.499039
1.118732 0.979415 2.862357
1.063611 0.948262 3.272231
0.904598 0.858343 4.318975
0.780594 0.788081 4.750829
0.901548 0.856859 5.006760
1.024340 0.926679 5.260585
0.948342 0.883554 5.345948
0.943546 0.881030 5.899590
0.924454 0.870341 6.321435
0.703983 0.745239 6.584009
2.588997 1.467870 1.123596
2.596537 1.471282 1.378617
2.514669 1.435276 1.636640
2.346775 1.361368 1.965359
2.069522 1.239119 1.919575
1.825508 1.131723 2.456489
1.570118 1.019226 2.741501
1.220726 0.865267 2.974235
1.038543 0.784953 2.993244
0.472445 0.535940 4.641507
0.744553 0.655892 4.601870
0.879702 0.715587 4.925466
1.048048 0.789986 5.446544
0.978863 0.759536 5.598445
0.943502 0.744067 5.952075
0.876610 0.714629 6.105988
0.708733 0.640652 6.212103
0.385839 0.498393 6.493566
2.724396 1.195433 1.085682
2.738853 1.200257 1.528736
2.649192 1.171290 1.661328
2.453832 1.108042 1.545326
2.292327 1.055980 2.132241
2.003815 0.962615 2.088143
1.753093 0.881671 2.630469
1.369002 0.757385 2.597296
1.127236 0.679344 3.155839
1.018518 0.644690 4.740746
0.849240 0.589974 4.906109
1.024097 0.646723 5.429642
1.068008 0.661020 5.699233
0.941639 0.620072 5.517415
0.915682 0.611813 5.939711
0.789362 0.571065 6.315440
2.930671 0.938983 1.182372
2.833051 0.917888 1.188096
2.741657 0.898199 1.383536
2.579897 0.863468 2.093542
2.273128 0.797094 1.857567
2.007123 0.739758 2.330325
1.728414 0.679595 2.549948
1.256441 0.577671 2.789627
1.170127 0.559063 2.934076
0.360526 0.384613 4.546396
0.804464 0.480669 4.901567
1.017990 0.526850 5.009324
1.038736 0.531378 5.146302
0.974287 0.517520 5.366345
0.945746 0.511488 5.789290
0.922890 0.506685 6.213880
0.718836 0.462576 6.186645
2.908070 0.621518 1.031762
3.014862 0.633387 1.284667
2.917851 0.622700 1.355235
2.831750 0.613297 1.679102
2.657457 0.594200 2.134523
2.471647 0.573753 2.339752
2.084245 0.531036 2.497775
1.801902 0.499937 2.716954
1.317452 0.446512 2.890723
1.261259 0.440459 3.366779
0.537761 0.361052 4.829629
0.961042 0.407825 4.975265
1.090322 0.422156 5.162273
1.058170 0.418739 5.581634
1.044123 0.417343 6.069810
0.887210 0.400096 6.309906
0.789783 0.389347 6.329734
3.059096 0.313395 1.101657
3.063011 0.313455 1.233644
3.077661 0.313645 1.613541
2.894048 0.312866 1.941709
2.610202 0.311588 2.217011
2.302930 0.310079 2.110873
1.916458 0.308292 2.334422
1.447368 0.306175 2.769618
1.277115 0.305468 3.122753
0.313672 0.301245 4.413060
0.776275 0.303601 4.839976
0.994614 0.304685 4.949235
1.114484 0.305299 5.071932
0.994159 0.304880 5.577747
0.809236 0.304024 5.682553
0.870278 0.304425 6.024242
0.738808 0.303912 6.403661
3.172045 -0.006692 0.998674
3.172126 -0.006698 1.002098
3.081954 0.002123 1.321952
3.007997 0.009455 1.895766
2.919787 0.018048 2.094178
2.610834 0.047871 1.924644
2.350434 0.073242 2.524624
1.974307 0.109708 2.819048
1.467877 0.158654 2.731790
1.589508 0.146974 2.991835
1.931123 0.114076 3.426540
0.837842 0.220319 5.074193
0.968394 0.207755 5.265106
1.001927 0.204577 5.470961
0.904367 0.214017 5.491133
0.877192 0.216780 5.917553
0.869042 0.217724 6.413254
3.162143 -0.326658 1.245117
3.171329 -0.328410 1.498578
3.162347 -0.326696 1.251473
3.076236 -0.309402 1.571857
3.012256 -0.296425 2.208969
2.923039 -0.278570 2.344977
0.814868 0.143091 4.794161
0.941647 0.117841 4.985194
1.004661 0.105392 5.392542
0.976386 0.111172 5.816532
0.892194 0.128008 5.904345
0.761703 0.154181 6.282456
3.219797 -0.696491 1.642740
3.232079 -0.700260 1.894919
3.222907 -0.697444 1.710907
3.137118 -0.670477 1.906309
2.961183 -0.615218 2.172103
0.412998 0.184672 4.591438
0.714977 0.090006 4.690161
0.847365 0.048576 4.950369
1.023714 -0.006553 5.478064
1.057096 -0.016954 5.682893
1.009600 -0.001964 5.972689
0.916254 0.027316 5.993616
0.709458 0.092319 6.459570
0.255010 0.234887 6.628297
3.194263 -1.085857 1.096363
3.213494 -1.094168 1.657502
3.206057 -1.090943 1.473091
3.216422 -1.095440 1.723488
3.148053 -1.065056 2.166433
3.090664 -1.039505 2.674410
0.596876 0.063810 4.438013
0.757882 -0.007201 4.971507
0.896696 -0.068470 5.297307
1.007421 -0.117389 5.418334
0.948808 -0.091396 5.639402
0.937030 -0.086018 6.131919
0.746004 -0.001560 6.103002
3.073257 -1.390698 1.077425
3.160340 -1.439822 1.075471
3.180824 -1.451154 1.695335
3.285719 -1.510194 2.061071
3.189328 -1.455884 1.882412
3.213184 -1.469185 2.315988
3.151444 -1.434220 2.695718
3.074048 -1.390513 2.829135
3.023900 -1.362063 3.274946
0.329011 0.158524 4.369601
0.619893 -0.005478 4.605626
0.870826 -0.146819 5.189218
0.861722 -0.141708 5.122326
0.949376 -0.190935 5.731416
0.970366 -0.202726 5.867108
0.928188 -0.178829 6.155926
0.671568 -0.034049 6.212365
0.314532 0.167539 6.720863
3.028181 -1.741237 1.629819
3.110264 -1.798303 1.626872
3.117925 -1.803557 1.813552
3.139609 -1.818467 2.246624
3.146877 -1.823472 2.371483
3.150734 -1.826129 2.434739
3.093916 -1.786484 2.814438
3.026280 -1.739387 3.010688
2.965014 -1.696695 3.270204
2.818374 -1.594670 3.480007
0.722828 -0.137316 4.806836
0.812412 -0.199574 4.862218
0.900331 -0.260438 5.540745
0.882073 -0.247795 5.407448
0.868462 -0.238145 5.899589
0.759080 -0.161957 6.276884
2.729971 -1.994270 1.320673
2.805215 -2.060184 1.319800
2.890036 -2.134359 1.627354
2.902258 -2.144936 1.938290
2.927074 -2.166468 2.433777
2.920434 -2.160702 2.313268
2.934577 -2.172988 2.562180
2.958795 -2.194047 2.933894
2.963348 -2.198009 2.998004
2.902428 -2.144561 3.195119
2.874772 -2.120096 3.764032
0.817431 -0.317288 5.146653
0.842089 -0.338803 5.352253
0.885233 -0.376455 5.692665
0.838595 -0.335508 5.915440
0.709684 -0.222509 6.089721
2.593260 -2.315875 1.210949
2.663284 -2.390142 1.272631
2.675796 -2.403217 1.707573
2.678053 -2.405582 1.772367
2.678165 -2.405699 1.775498
2.779768 -2.513163 2.510153
2.770432 -2.503341 2.329216
2.801615 -2.536171 2.884192
2.725909 -2.455899 2.772958
2.745707 -2.476763 3.082983
2.704349 -2.432707 3.465137
2.671907 -2.398083 3.911052
2.525375 -2.242659 3.814707
0.801062 -0.412501 5.308667
0.816574 -0.428896 5.446787
0.764898 -0.373997 5.601592
0.755821 -0.364140 6.096389
0.647986 -0.249617 6.340405
0.416448 -0.003796 6.694841
2.268870 -2.496639 1.088594
2.329313 -2.576316 1.087568
2.331581 -2.579240 1.213126
2.412269 -2.685221 1.951774
2.404269 -2.674803 1.706850
2.489910 -2.787347 2.379072
2.482127 -2.777181 2.196635
2.435455 -2.715494 2.512892
2.454499 -2.740405 2.883701
2.468866 -2.759215 3.131223
2.441399 -2.722746 3.635617
2.368626 -2.626905 3.463681
2.289735 -2.522607 4.046907
0.677693 -0.397012 5.166819
0.711079 -0.440845 5.507886
0.798970 -0.556572 5.763307
0.769276 -0.517278 6.053016
0.658322 -0.370961 6.159302
2.019610 -2.700795 1.044405
2.127584 -2.875460 1.226110
2.129884 -2.879107 1.351206
2.131160 -2.881136 1.414590
2.196177 -2.986084 1.903997
2.200052 -2.992282 2.028511
2.223471 -3.029822 2.643821
2.163387 -2.932670 2.469128
2.118866 -2.860490 2.663723
2.093944 -2.819810 3.230876
2.052203 -2.752127 3.428947
1.951468 -2.589019 3.514889
0.611130 -0.418667 4.844828
0.611273 -0.418897 4.846687
0.632911 -0.453758 5.120396
0.707678 -0.574627 5.377608
0.711724 -0.580803 6.004969
0.601979 -0.403179 5.974931
1.829687 -3.078274 1.343011
1.833011 -3.084972 1.531221
1.841224 -3.101588 1.904339
1.880641 -3.182750 1.717530
1.891666 -3.205104 2.150593
1.866504 -3.152973 2.714329
1.777155 -2.969331 2.672482
1.753813 -2.920982 3.180977
1.658852 -2.725889 3.016598
1.594756 -2.593751 3.542032
0.320753 0.025850 4.441006
0.475803 -0.292616 4.816913
0.558353 -0.462381 4.723921
0.619266 -0.587412 4.984507
0.633225 -0.615957 5.191068
0.657654 -0.665932 5.532565
0.640680 -0.630781 5.891135
0.571265 -0.487911 6.133810
0.410973 -0.158246 6.348099
1.448710 -3.155880 1.061923
1.481932 -3.248602 1.001183
1.487633 -3.264042 1.498450
1.492718 -3.277937 1.810421
1.491684 -3.275106 1.752376
1.429059 -3.100181 2.014509
1.398095 -3.013688 2.148677
1.378754 -2.959206 2.720720
0.238740 0.221937 4.087182
0.390440 -0.200860 4.456861
0.483548 -0.460082 4.980434
0.524092 -0.573056 5.105008
0.572176 -0.706939 5.363874
0.576132 -0.717906 5.434907
0.566762 -0.691376 5.861013
0.530699 -0.590303 6.375556
0.393935 -0.208815 6.386785
1.147415 -3.281476 1.194257
1.170865 -3.373419 1.008899
1.148524 -3.285650 1.323912
1.150400 -3.292748 1.512551
1.132121 -3.220625 2.016449
1.110422 -3.135515 2.212156
1.060002 -2.938389 2.165673
1.016180 -2.766590 2.497060
0.945930 -2.491581 2.713808
0.372229 -0.245650 4.527517
0.435834 -0.493910 4.914370
0.495247 -0.725948 5.159873
0.495391 -0.726508 5.163574
0.514937 -0.802345 5.640457
0.502623 -0.753817 5.931818
0.457147 -0.575833 6.039244
0.379487 -0.271501 6.528017
0.775481 -3.400249 1.503846
0.762095 -3.304023 1.572097
0.752124 -3.231311 2.076919
0.739512 -3.140495 2.210008
0.711409 -2.938910 2.162272
0.689143 -2.777922 2.683584
0.330989 -0.202981 4.656068
0.378875 -0.545962 4.958593
0.392565 -0.644243 4.946018
0.413569 -0.794247 5.271942
0.415141 -0.805371 5.341688
0.428123 -0.897309 5.883963
0.402744 -0.714929 5.989395
0.371081 -0.486774 6.387382
0.432537 -3.243385 1.017243
0.441043 -3.448449 1.201998
0.438056 -3.371647 1.766181
0.434599 -3.285770 2.022423
0.425738 -3.072491 1.785392
0.418735 -2.899032 2.239694
0.407252 -2.618173 2.516658
0.311111 -0.271829 4.169460
0.321191 -0.514089 4.489270
0.331829 -0.769402 4.872014
0.333163 -0.800197 5.077367
0.336470 -0.876848 5.552882
0.337481 -0.900347 5.690029
0.333097 -0.790044 6.201197
0.062856 -3.478656 1.284244
0.069632 -3.379044 1.290574
0.075831 -3.289085 1.546319
0.089037 -3.095551 1.683415
0.101772 -2.909518 1.948618
0.121116 -2.626379 2.223739
0.146741 -2.251217 2.576009
0.264182 -0.532809 4.388880
0.244401 -0.826704 5.044567
0.234867 -0.968082 5.302503
0.240811 -0.881075 5.389227
0.231846 -1.013770 5.578273
0.234583 -0.975174 5.934782
0.246264 -0.804226 6.108567
0.269467 -0.464679 6.458619
-0.258395 -3.461019 0.987401
-0.258875 -3.464227 1.112488
-0.244104 -3.373587 1.365091
-0.197298 -3.085188 1.565727
-0.168258 -2.906779 1.954787
-0.124101 -2.635121 2.355777
-0.076940 -2.344312 2.442359
0.215270 -0.545073 4.310889
0.187640 -0.716589 4.844562
0.157469 -0.902557 4.749792
0.146160 -0.973266 5.224014
0.119764 -1.136891 5.612818
0.133645 -1.051411 5.698660
0.143666 -0.990020 5.919775
0.194414 -0.677852 6.401861
-0.570564 -3.225684 1.153196
-0.599036 -3.330323 1.401497
-0.600348 -3.335284 1.528420
-0.577093 -3.250364 1.784665
-0.523730 -3.054747 1.734896
-0.446570 -2.772146 1.879228
-0.346385 -2.405406 2.224735
-0.244802 -2.033401 2.448938
0.147258 -0.599148 4.581079
0.079769 -0.846935 4.964131
0.024913 -1.048015 5.004971
0.002146 -1.132094 5.545726
-0.010247 -1.177836 5.817080
0.015522 -1.083422 5.837870
-0.977098 -3.335991 1.189177
-0.909670 -3.162976 1.574565
-0.870760 -3.062788 1.393733
-0.841667 -2.988381 1.839315
-0.738318 -2.722922 2.111209
-0.595086 -2.354774 2.202657
-0.462169 -2.013482 2.686254
0.049338 -0.700084 4.539910
-0.036289 -0.920431 4.786228
-0.079433 -1.031454 4.909265
-0.181737 -1.294900 5.416840
-0.198390 -1.337946 5.686080
-0.127140 -1.154805 5.723359
-0.077999 -1.028797 6.097668
0.014689 -0.790737 6.359380
-1.279525 -3.230597 1.142971
-1.193919 -3.059367 1.400930
-1.155321 -2.982304 1.720190
-1.070498 -2.812601 1.921587
-0.951259 -2.574216 2.449581
-0.732870 -2.137046 2.618153
-0.117536 -0.906425 4.733685
-0.223774 -1.119320 4.976833
-0.291535 -1.255227 5.298759
-0.335845 -1.343941 5.285537
-0.322197 -1.316909 5.704552
-0.267228 -1.207150 6.143913
-1.560630 -2.988076 0.990502
-1.511567 -2.911720 1.307643
-1.471121 -2.848954 1.877003
-1.415523 -2.762187 1.822649
-1.265962 -2.529098 2.221590
-1.065606 -2.216775 2.635969
-0.788780 -1.784825 2.482599
-0.191246 -0.853781 4.432706
-0.318321 -1.052167 4.678415
-0.451871 -1.260689 4.986936
-0.480548 -1.305623 5.322959
-0.511221 -1.353669 5.658375
-0.484182 -1.311654 5.945030
-1.813759 -2.725572 1.087414
-1.874635 -2.801017 0.963549
-1.816142 -2.728593 1.218486
-1.759085 -2.657951 1.475118
-1.716597 -2.605569 2.109826
-1.589012 -2.447296 2.062356
-1.426387 -2.245883 2.657561
-0.280428 -0.825376 4.406792
-0.490287 -1.085790 4.639007
-0.632922 -1.262793 4.813998
-0.727012 -1.379657 5.132729
-0.713729 -1.363422 5.614707
-0.697403 -1.343382 6.032224
-0.558756 -1.171365 5.938174
-0.360483 -0.925677 6.417919
-2.149465 -2.628783 1.679094
-2.070548 -2.547837 1.374382
-2.024281 -2.500772 2.068192
-1.896394 -2.369937 2.334287
-1.678540 -2.146784 2.166809
-0.523664 -0.965339 4.670805
-0.724976 -1.171431 4.565092
-0.856585 -1.306459 5.150299
-0.940776 -1.392722 5.269179
-0.972075 -1.424892 5.535324
-0.936274 -1.388359 5.818995
-0.842599 -1.292604 6.188971
-0.637194 -1.082300 6.248884
-2.468910 -2.459872 1.445566
-2.473016 -2.463366 1.573485
-2.396525 -2.399239 1.579862
-2.266814 -2.290723 2.153385
-2.190436 -2.226691 2.161754
-1.967547 -2.039881 2.309677
-0.998645 -1.228495 4.621669
-1.127616 -1.336810 5.070272
-1.253027 -1.442110 5.449368
-1.128624 -1.337906 5.682495
-1.062510 -1.282510 5.768025
-0.949526 -1.187908 6.070779
-0.753579 -1.023731 6.329262
-2.709508 -2.182114 1.276020
-2.623342 -2.124123 1.155844
-2.641550 -2.136579 1.715726
-2.652594 -2.144100 1.964805
-2.496453 -2.039174 2.164612
-2.345241 -1.937587 2.429848
-0.875755 -0.950228 4.659993
-1.146207 -1.132162 4.816762
-1.434334 -1.326029 5.100031
-1.443149 -1.331982 5.166058
-1.517225 -1.381994 5.688065
-1.475622 -1.354122 5.967441
-1.302435 -1.237647 5.939797
-2.999930 -1.935070 0.968875
-3.004254 -1.937438 1.155238
-3.029226 -1.950972 1.834986
-2.852988 -1.857171 1.846949
-2.788532 -1.823021 2.289485
-2.601546 -1.723434 2.116439
-1.399173 -1.084318 4.537077
-1.624870 -1.204578 4.901676
-1.757852 -1.275469 5.212000
-1.719788 -1.255331 5.554282
-1.556326 -1.168363 5.655566
-1.490505 -1.133382 5.805376
-3.194459 -1.602030 1.115943
-3.304225 -1.646187 1.607347
-3.307006 -1.647323 1.671203
-3.226423 -1.615114 1.925047
-3.041205 -1.540889 1.938860
-2.882272 -1.477346 2.390078
-2.705994 -1.406748 2.532753
-1.187273 -0.798664 4.218845
-1.421216 -0.892547 4.591378
-1.732594 -1.017412 4.812368
-1.907509 -1.087481 4.720122
-1.872072 -1.073417 5.126434
-1.922770 -1.093845 5.452531
-1.896668 -1.083523 5.860941
-1.863802 -1.070467 6.206150
-1.603180 -0.966061 6.332262
-1.355452 -0.866845 6.525724
-3.543753 -1.316509 1.341002
-3.546075 -1.317189 1.405135
-3.364195 -1.265645 1.662526
-3.287625 -1.244033 2.041397
-3.195478 -1.217899 2.112448
-3.011507 -1.165723 2.252959
-2.750823 -1.091856 2.654748
-1.850179 -0.836439 3.393311
-1.352937 -0.695244 3.249109
-1.098832 -0.623232 3.615347
-1.216153 -0.656598 3.807448
-1.549277 -0.751278 4.171433
-1.904430 -0.852251 4.656898
-2.009204 -0.882009 4.710259
-2.172493 -0.928504 5.149784
-2.204028 -0.937520 5.345812
-2.175714 -0.929615 5.752313
-2.104821 -0.909541 5.902574
-1.940208 -0.862869 6.072607
-3.656238 -0.975022 1.435763
-3.645997 -0.973045 1.134211
-3.673530 -0.978316 1.812757
-3.585736 -0.962260 2.005002
-3.480689 -0.942939 1.890373
-3.299130 -0.909691 2.152441
-3.051463 -0.864430 2.801003
-2.780392 -0.814756 3.082526
-2.309857 -0.728450 3.325651
-1.899724 -0.653108 3.173758
-1.660386 -0.609347 3.731140
-1.555684 -0.590109 3.679344
-1.821774 -0.639140 4.248656
-2.025631 -0.676579 4.290267
-2.186429 -0.706240 4.731897
-2.450691 -0.754888 5.153150
-2.333527 -0.733344 5.043868
-2.289513 -0.725373 5.384237
-2.204037 -0.709707 5.468456
-2.164855 -0.702624 5.811555
-1.924046 -0.658516 6.129761
-3.722440 -0.618469 1.129423
-3.733039 -0.619473 1.437677
-3.747007 -0.620766 1.745796
-3.738357 -0.619968 1.564005
-3.654225 -0.612865 1.877603
-3.491646 -0.599126 2.447061
-3.284009 -0.581317 2.339571
-3.004895 -0.557509 2.614270
-2.728419 -0.533928 2.894052
-2.480668 -0.512889 3.434997
-2.098618 -0.480237 3.609046
-1.809066 -0.455481 3.709632
-1.864472 -0.460369 4.169539
-2.062373 -0.477303 4.146032
-2.340440 -0.501283 4.702050
-2.458584 -0.511434 4.817461
-2.468752 -0.512325 4.883497
-2.575373 -0.521655 5.524590
-2.466340 -0.512307 5.480118
-2.391385 -0.505937 5.627899
-2.280507 -0.496599 6.117175
-3.769996 -0.131232 1.087293
-3.771842 -0.131170 1.151685
-3.771935 -0.131167 1.154796
-3.703987 -0.134424 1.898479
-3.711354 -0.134136 2.024433
-3.632253 -0.137755 2.341655
-3.428799 -0.146794 2.297114
-3.169423 -0.158501 2.822276
-2.965216 -0.167574 2.779864
-2.683815 -0.180165 2.999627
-2.529887 -0.187162 3.469494
-2.119255 -0.205408 3.385834
-1.963906 -0.212451 3.801342
-2.103210 -0.206352 4.117884
-2.344793 -0.195696 4.418005
-2.490559 -0.189307 4.728126
-2.551335 -0.186725 5.115438
-2.531199 -0.187582 4.990756
-2.508141 -0.188755 5.458607
-2.492552 -0.189596 5.928271
-2.445316 -0.191785 6.207232
-2.139201 -0.205406 6.204630
-3.763392 0.216140 0.982440
-3.772411 0.217282 1.292420
-3.777051 0.217881 1.418535
-3.589939 0.192064 1.676739
-3.511369 0.181137 2.056375
-3.433337 0.170303 2.376336
-3.231554 0.142565 2.332015
