26.000000 11.380859 2.904362
26.000000 12.335938 2.904362
26.200000 12.041016 2.904362
26.300000 13.496094 2.904362
26.500000 14.576172 2.904362
26.700000 14.781250 2.904362
26.800000 15.610352 2.904362
26.800000 15.439453 2.904362
26.900000 16.643555 2.904362
27.000000 16.722656 2.904362
27.200000 17.551758 2.904362
27.300000 18.880859 2.904362
27.400000 19.209961 2.904362
27.500000 19.539062 2.904362
27.600000 20.368164 2.904362
27.900000 21.072266 2.904362
20.200000 -3.857910 3.030946
20.200000 -3.153320 3.030946
20.200000 -2.448730 3.030946
20.200000 -1.744141 3.030946
20.200000 -1.039551 3.030946
26.200000 0.483398 3.030946
26.200000 1.687988 3.030946
26.000000 2.767578 3.030946
25.900000 3.347168 3.030946
25.900000 3.301758 3.030946
25.900000 4.881348 3.030946
25.900000 5.210938 3.030946
26.000000 6.165527 3.030946
26.100000 6.245117 3.030946
26.200000 6.574707 3.030946
26.200000 7.529297 3.030946
26.200000 7.733887 3.030946
26.300000 8.563477 3.030946
26.300000 10.143066 3.030946
26.000000 10.472656 3.030946
25.900000 12.052246 3.030946
26.000000 12.381836 3.030946
26.100000 12.461426 3.030946
26.300000 12.666016 3.030946
26.400000 13.870605 3.030946
26.700000 14.950195 3.030946
26.900000 14.904785 3.030946
26.900000 15.484375 3.030946
26.900000 15.939941 3.030946
27.000000 17.020508 3.030946
27.200000 17.851074 3.030946
27.300000 18.056641 3.030946
27.400000 18.762207 3.030946
27.600000 19.467773 3.030946
27.700000 20.673340 3.030946
27.900000 21.378906 3.030946
20.400000 -4.754883 3.156666
20.200000 -4.049316 3.156666
20.200000 -3.343750 3.156666
20.200000 -2.636230 3.156666
20.200000 -2.678711 3.156666
20.200000 -1.221191 3.156666
26.200000 4.271484 3.156666
25.900000 3.854004 3.156666
25.900000 4.436523 3.156666
26.000000 5.144043 3.156666
26.100000 6.601562 3.156666
26.200000 7.559082 3.156666
26.200000 7.141602 3.156666
26.000000 10.014160 3.156666
25.900000 10.971680 3.156666
25.800000 11.304199 3.156666
25.900000 11.511719 3.156666
26.000000 13.469238 3.156666
26.200000 12.926758 3.156666
26.300000 13.759277 3.156666
26.700000 15.506836 3.156666
27.000000 17.214355 3.156666
27.100000 17.546875 3.156666
27.200000 17.375977 3.156666
27.300000 19.080078 3.156666
27.400000 19.284180 3.156666
27.500000 19.613281 3.156666
27.700000 20.942383 3.156666
20.300000 -4.182129 3.297842
20.200000 -3.475586 3.297842
20.200000 -2.769043 3.297842
20.200000 -2.062500 3.297842
26.200000 2.339844 3.297842
26.100000 3.171387 3.297842
26.000000 2.752930 3.297842
25.900000 4.834473 3.297842
25.900000 4.916016 3.297842
26.100000 5.747559 3.297842
26.200000 5.704102 3.297842
26.200000 7.160645 3.297842
26.200000 7.367188 3.297842
26.100000 9.486816 3.297842
25.800000 10.943359 3.297842
25.800000 10.774902 3.297842
25.900000 10.981445 3.297842
26.000000 12.437988 3.297842
26.100000 12.769531 3.297842
26.300000 14.226074 3.297842
26.500000 14.557617 3.297842
26.900000 14.764160 3.297842
27.100000 15.595703 3.297842
27.100000 15.927246 3.297842
27.200000 17.133789 3.297842
27.200000 17.840332 3.297842
27.300000 17.921875 3.297842
27.400000 19.125488 3.297842
27.600000 19.329102 3.297842
27.700000 20.782715 3.297842
20.300000 -4.472656 3.423164
20.200000 -3.014648 3.423164
20.200000 -3.056641 3.423164
20.200000 -1.598633 3.423164
20.300000 -1.140625 3.423164
26.300000 1.470703 3.423164
26.200000 1.801758 3.423164
26.000000 2.632812 3.423164
25.900000 3.463867 3.423164
26.000000 3.919922 3.423164
26.100000 5.250977 3.423164
26.200000 6.582031 3.423164
26.200000 7.163086 3.423164
26.200000 6.869141 3.423164
26.200000 8.200195 3.423164
26.300000 9.156250 3.423164
26.400000 8.987305 3.423164
26.000000 10.068359 3.423164
25.800000 11.149414 3.423164
25.900000 11.605469 3.423164
26.000000 12.061523 3.423164
26.100000 12.392578 3.423164
26.300000 13.598633 3.423164
26.500000 13.554688 3.423164
26.900000 15.922852 3.423164
27.200000 17.003906 3.423164
27.300000 17.334961 3.423164
27.400000 18.041016 3.423164
27.500000 18.497070 3.423164
27.600000 19.828125 3.423164
27.700000 20.030762 3.423164
27.900000 20.983398 3.423164
28.300000 21.561035 3.423164
20.200000 -4.051758 3.551021
20.200000 -3.345215 3.551021
20.200000 -2.388672 3.551021
20.200000 -2.557129 3.551021
20.300000 -0.975586 3.551021
26.300000 0.179199 3.551021
26.500000 1.134766 3.551021
26.300000 2.840332 3.551021
26.000000 3.420898 3.551021
26.000000 4.126465 3.551021
26.200000 4.207031 3.551021
26.200000 5.412598 3.551021
26.200000 5.493164 3.551021
26.200000 7.073730 3.551021
26.200000 6.654297 3.551021
26.100000 9.395996 3.551021
25.900000 10.226562 3.551021
25.800000 10.182129 3.551021
26.000000 10.887695 3.551021
26.100000 12.218262 3.551021
26.100000 12.048828 3.551021
26.300000 12.879395 3.551021
26.600000 14.209961 3.551021
27.000000 15.826660 3.551021
27.300000 16.282227 3.551021
27.300000 17.862793 3.551021
27.400000 17.818359 3.551021
27.500000 18.398926 3.551021
27.600000 19.479492 3.551021
27.700000 20.435059 3.551021
27.900000 20.140625 3.551021
28.300000 20.843262 3.551021
20.200000 -3.707031 3.677096
20.100000 -2.999512 3.677096
20.200000 -2.291992 3.677096
20.200000 -1.584473 3.677096
20.300000 -0.876953 3.677096
26.200000 1.155273 3.677096
26.400000 1.982422 3.677096
26.300000 1.809570 3.677096
26.100000 3.136719 3.677096
26.100000 2.963867 3.677096
26.200000 4.041016 3.677096
26.200000 4.493164 3.677096
26.200000 5.570312 3.677096
26.300000 5.897461 3.677096
26.300000 7.724609 3.677096
26.100000 9.581055 3.677096
25.900000 9.408203 3.677096
26.000000 9.985352 3.677096
26.100000 11.812500 3.677096
26.200000 12.014648 3.677096
26.300000 12.216797 3.677096
26.500000 14.043945 3.677096
26.700000 14.121094 3.677096
27.700000 16.429688 3.677096
27.400000 17.131836 3.677096
27.400000 17.833984 3.677096
27.500000 18.161133 3.677096
27.600000 18.988281 3.677096
27.800000 19.815430 3.677096
28.000000 20.142578 3.677096
28.300000 21.469727 3.677096
20.300000 -3.616211 3.803661
20.200000 -2.907715 3.803661
20.200000 -2.199219 3.803661
20.200000 -1.490723 3.803661
20.300000 -0.782227 3.803661
26.200000 0.260254 3.803661
26.400000 1.343750 3.803661
26.300000 1.670898 3.803661
26.100000 3.498047 3.803661
26.100000 3.825195 3.803661
26.200000 4.277344 3.803661
26.200000 5.229492 3.803661
26.300000 5.431641 3.803661
26.300000 7.008789 3.803661
26.400000 7.460938 3.803661
26.200000 8.692383 3.803661
26.000000 11.019531 3.803661
26.100000 10.221680 3.803661
26.200000 11.798828 3.803661
26.300000 12.000977 3.803661
26.600000 12.203125 3.803661
26.700000 13.655273 3.803661
27.000000 13.857422 3.803661
27.900000 16.291016 3.803661
27.600000 17.743164 3.803661
27.600000 18.070312 3.803661
27.700000 19.272461 3.803661
27.800000 19.849609 3.803661
27.900000 19.676758 3.803661
28.100000 21.253906 3.803661
28.500000 20.956055 3.803661
20.100000 -5.375977 3.945007
20.300000 -5.294434 3.945007
20.300000 -4.087891 3.945007
20.200000 -3.506348 3.945007
20.200000 -2.174805 3.945007
26.300000 2.059082 3.945007
26.200000 2.640625 3.945007
26.200000 3.968750 3.945007
26.200000 5.046875 3.945007
26.200000 4.875000 3.945007
26.300000 6.328125 3.945007
26.400000 6.531250 3.945007
26.300000 7.484375 3.945007
26.000000 9.593750 3.945007
26.000000 10.546875 3.945007
26.100000 10.875000 3.945007
26.500000 12.359375 3.945007
26.900000 13.187500 3.945007
27.100000 13.515625 3.945007
27.700000 16.250000 3.945007
28.000000 16.828125 3.945007
27.800000 17.781250 3.945007
27.700000 18.359375 3.945007
27.700000 18.937500 3.945007
27.900000 19.015625 3.945007
28.000000 20.718750 3.945007
28.100000 20.546875 3.945007
28.500000 21.875000 3.945007
20.300000 -3.634766 4.070197
20.200000 -2.928711 4.070197
20.200000 -2.222656 4.070197
26.400000 2.256836 4.070197
26.200000 3.712891 4.070197
26.200000 3.043945 4.070197
26.300000 4.000000 4.070197
26.300000 4.453613 4.070197
26.300000 5.907227 4.070197
26.500000 6.610840 4.070197
26.500000 7.439453 4.070197
26.300000 8.925293 4.070197
26.100000 9.503906 4.070197
26.200000 10.082520 4.070197
27.100000 13.271973 4.070197
27.200000 14.100586 4.070197
27.700000 15.836426 4.070197
28.100000 16.415039 4.070197
27.900000 17.118652 4.070197
27.700000 18.447266 4.070197
27.800000 18.400879 4.070197
27.900000 19.229492 4.070197
28.000000 19.683105 4.070197
28.200000 20.886719 4.070197
28.600000 21.465332 4.070197
20.200000 -3.781250 4.195842
20.100000 -3.074219 4.195842
20.200000 -2.367188 4.195842
20.200000 -2.535156 4.195842
20.300000 -0.953125 4.195842
26.500000 0.582031 4.195842
26.600000 1.289062 4.195842
26.500000 1.496094 4.195842
26.300000 2.203125 4.195842
26.300000 4.410156 4.195842
26.300000 3.617188 4.195842
26.400000 5.324219 4.195842
26.500000 6.156250 4.195842
26.500000 5.733887 4.195842
26.600000 6.561523 4.195842
26.400000 8.919434 4.195842
26.200000 9.247070 4.195842
26.200000 10.574707 4.195842
26.400000 11.277344 4.195842
26.600000 11.979980 4.195842
26.900000 12.682617 4.195842
27.200000 12.635254 4.195842
27.300000 13.962891 4.195842
27.800000 15.445801 4.195842
28.100000 17.023438 4.195842
28.000000 17.101074 4.195842
27.900000 18.053711 4.195842
27.900000 18.756348 4.195842
28.000000 19.083984 4.195842
28.000000 20.536621 4.195842
28.200000 20.239258 4.195842
28.500000 21.066895 4.195842
20.400000 -4.658691 4.334988
20.200000 -3.952148 4.334988
20.100000 -3.245605 4.334988
20.200000 -2.289062 4.334988
20.200000 -1.832520 4.334988
20.200000 -1.125977 4.334988
26.300000 2.026367 4.334988
26.300000 3.232910 4.334988
26.400000 4.189453 4.334988
26.500000 4.270996 4.334988
26.500000 5.727539 4.334988
26.600000 6.684082 4.334988
26.700000 6.640625 4.334988
26.500000 9.122070 4.334988
26.200000 9.449219 4.334988
26.300000 9.776367 4.334988
26.500000 10.978516 4.334988
26.900000 12.709961 4.334988
27.300000 13.162109 4.334988
27.500000 14.114258 4.334988
27.900000 14.816406 4.334988
28.200000 15.268555 4.334988
28.200000 15.970703 4.334988
28.100000 17.047852 4.334988
27.900000 18.250000 4.334988
27.900000 18.452148 4.334988
28.000000 18.654297 4.334988
28.100000 19.731445 4.334988
28.200000 20.058594 4.334988
28.400000 20.635742 4.334988
20.300000 -3.624512 4.459611
20.200000 -2.918945 4.459611
20.200000 -3.088379 4.459611
20.200000 -1.507812 4.459611
20.300000 -0.802246 4.459611
26.400000 0.600586 4.459611
26.500000 2.761719 4.459611
26.400000 3.092285 4.459611
26.400000 4.422852 4.459611
26.400000 5.003418 4.459611
26.500000 4.958984 4.459611
26.600000 5.414551 4.459611
26.700000 6.620117 4.459611
26.700000 6.700684 4.459611
26.700000 8.406250 4.459611
26.700000 9.109375 4.459611
26.500000 9.812500 4.459611
26.200000 9.890625 4.459611
26.300000 10.218750 4.459611
26.800000 13.078125 4.459611
27.200000 13.656250 4.459611
27.500000 13.609375 4.459611
27.900000 16.218750 4.459611
28.100000 16.421875 4.459611
28.000000 17.750000 4.459611
28.000000 17.453125 4.459611
28.100000 18.656250 4.459611
28.100000 19.734375 4.459611
28.100000 19.937500 4.459611
20.300000 -4.594727 4.598464
20.200000 -3.890137 4.598464
20.100000 -4.060547 4.598464
20.200000 -2.480957 4.598464
20.200000 -1.776367 4.598464
20.200000 -1.071777 4.598464
26.400000 3.314941 4.598464
26.400000 3.519531 4.598464
26.500000 3.974121 4.598464
26.600000 4.303711 4.598464
26.700000 4.883301 4.598464
26.700000 6.337891 4.598464
26.700000 7.167480 4.598464
26.500000 8.906250 4.598464
26.300000 9.860352 4.598464
26.300000 10.939453 4.598464
26.500000 11.268555 4.598464
26.700000 11.597656 4.598464
27.000000 12.426758 4.598464
27.300000 13.255859 4.598464
27.500000 13.834961 4.598464
27.900000 15.447266 4.598464
28.200000 16.776367 4.598464
28.000000 17.605469 4.598464
28.000000 17.434570 4.598464
28.100000 18.513672 4.598464
28.200000 19.092773 4.598464
28.300000 19.671875 4.598464
28.300000 20.875977 4.598464
28.500000 21.205078 4.598464
20.300000 -4.091797 4.720402
20.200000 -3.386719 4.720402
20.200000 -2.681641 4.720402
20.200000 -1.976562 4.720402
26.500000 2.619141 4.720402
26.600000 2.574219 4.720402
26.600000 3.404297 4.720402
26.700000 5.109375 4.720402
26.700000 4.689453 4.720402
26.800000 5.644531 4.720402
26.800000 6.474609 4.720402
26.600000 9.464844 4.720402
26.400000 9.169922 4.720402
26.400000 10.250000 4.720402
26.600000 11.079590 4.720402
26.700000 11.159180 4.720402
27.100000 12.488770 4.720402
27.300000 12.443359 4.720402
27.500000 14.022949 4.720402
27.900000 15.386719 4.720402
28.200000 16.216309 4.720402
28.100000 16.795898 4.720402
28.000000 17.250488 4.720402
28.100000 17.705078 4.720402
28.200000 19.159668 4.720402
28.300000 19.489258 4.720402
28.400000 19.943848 4.720402
28.600000 20.898438 4.720402
20.300000 -4.328125 4.861940
20.200000 -2.996094 4.861940
20.200000 -2.289062 4.861940
20.200000 -1.582031 4.861940
20.300000 -0.875000 4.861940
26.700000 0.160156 4.861940
26.800000 1.367188 4.861940
26.700000 1.574219 4.861940
26.700000 2.281250 4.861940
26.700000 3.363281 4.861940
26.700000 3.695312 4.861940
26.800000 4.652344 4.861940
26.800000 5.234375 4.861940
26.800000 7.066406 4.861940
26.700000 6.523438 4.861940
26.800000 7.855469 4.861940
26.800000 8.312500 4.861940
26.500000 8.769531 4.861940
26.400000 10.101562 4.861940
26.500000 10.933594 4.861940
27.500000 12.627930 4.861940
27.800000 13.332031 4.861940
28.100000 14.661133 4.861940
28.200000 15.365234 4.861940
28.200000 16.194336 4.861940
28.100000 16.273438 4.861940
28.000000 16.727539 4.861940
28.100000 17.681641 4.861940
28.100000 18.385742 4.861940
28.300000 18.964844 4.861940
28.400000 20.293945 4.861940
28.600000 20.873047 4.861940
28.900000 21.077148 4.861940
20.200000 -3.916992 4.986060
20.100000 -3.210449 4.986060
20.200000 -3.128906 4.986060
20.200000 -2.297363 4.986060
20.200000 -1.090820 4.986060
26.900000 0.523438 4.986060
27.000000 2.229980 4.986060
26.800000 2.811523 4.986060
26.700000 3.768066 4.986060
26.700000 4.599609 4.986060
26.700000 5.181152 4.986060
26.700000 5.387695 4.986060
26.800000 5.969238 4.986060
26.800000 6.675781 4.986060
26.600000 8.545410 4.986060
26.400000 9.626953 4.986060
26.500000 9.958496 4.986060
26.700000 11.290039 4.986060
26.800000 12.246582 4.986060
27.100000 11.953125 4.986060
27.500000 12.405762 4.986060
27.700000 13.733398 4.986060
28.000000 14.186035 4.986060
28.100000 14.388672 4.986060
28.200000 15.841309 4.986060
28.100000 16.543945 4.986060
28.000000 17.621582 4.986060
28.000000 18.324219 4.986060
28.100000 18.276855 4.986060
28.200000 19.229492 4.986060
28.300000 19.432129 4.986060
28.500000 20.259766 4.986060
28.800000 21.337402 4.986060
20.200000 -3.894531 5.112778
20.100000 -3.188477 5.112778
20.200000 -2.482422 5.112778
20.200000 -2.276367 5.112778
20.200000 -1.070312 5.112778
26.800000 1.666016 5.112778
26.900000 1.747070 5.112778
26.900000 2.578125 5.112778
26.700000 3.034180 5.112778
26.800000 3.865234 5.112778
26.700000 4.946289 5.112778
26.800000 4.902344 5.112778
26.800000 6.108398 5.112778
26.800000 6.314453 5.112778
26.600000 9.432617 5.112778
26.400000 9.638672 5.112778
26.500000 10.469727 5.112778
26.700000 11.550781 5.112778
26.900000 11.756836 5.112778
27.200000 11.837891 5.112778
27.500000 12.918945 5.112778
27.700000 13.000000 5.112778
28.000000 14.577637 5.112778
28.100000 14.405273 5.112778
28.200000 15.857910 5.112778
28.100000 16.185547 5.112778
28.000000 17.388184 5.112778
28.000000 17.590820 5.112778
28.100000 18.043457 5.112778
28.200000 19.246094 5.112778
28.400000 19.323730 5.112778
28.500000 20.526367 5.112778
28.800000 20.604004 5.112778
20.200000 -3.902344 5.252200
20.100000 -3.197266 5.252200
20.200000 -3.117188 5.252200
20.200000 -1.787109 5.252200
20.200000 -1.457031 5.252200
26.900000 0.648438 5.252200
27.000000 1.228516 5.252200
26.900000 2.558594 5.252200
26.700000 3.263672 5.252200
26.800000 4.093750 5.252200
26.800000 5.423828 5.252200
26.900000 4.753906 5.252200
26.900000 5.958984 5.252200
26.900000 6.539062 5.252200
27.000000 6.994141 5.252200
27.000000 8.449219 5.252200
26.800000 9.154297 5.252200
26.500000 9.859375 5.252200
26.600000 10.689453 5.252200
26.600000 10.894531 5.252200
26.900000 11.224609 5.252200
27.200000 12.179688 5.252200
27.500000 13.259766 5.252200
27.800000 13.589844 5.252200
28.000000 14.669922 5.252200
28.100000 14.500000 5.252200
28.200000 15.203125 5.252200
28.100000 16.781250 5.252200
28.000000 16.859375 5.252200
28.000000 17.312500 5.252200
28.100000 18.765625 5.252200
28.100000 19.093750 5.252200
28.300000 19.921875 5.252200
28.500000 20.125000 5.252200
28.800000 20.703125 5.252200
20.200000 -3.750000 5.376371
20.100000 -3.046387 5.376371
20.200000 -2.342773 5.376371
20.200000 -1.639160 5.376371
20.300000 -0.935547 5.376371
26.900000 2.443359 5.376371
26.800000 3.021973 5.376371
26.800000 4.850586 5.376371
26.800000 4.429199 5.376371
26.900000 5.257812 5.376371
26.900000 6.711426 5.376371
26.900000 6.415039 5.376371
27.000000 7.993652 5.376371
27.000000 8.072266 5.376371
26.800000 9.025879 5.376371
26.500000 9.604492 5.376371
26.600000 10.808105 5.376371
26.700000 10.636719 5.376371
27.900000 14.076172 5.376371
28.200000 13.904785 5.376371
28.300000 14.733398 5.376371
28.200000 15.187012 5.376371
28.000000 16.390625 5.376371
27.900000 17.219238 5.376371
28.000000 18.047852 5.376371
28.100000 18.626465 5.376371
28.200000 19.080078 5.376371
28.400000 19.658691 5.376371
28.700000 20.237305 5.376371
29.000000 21.565918 5.376371
20.300000 -3.665039 5.516233
20.200000 -2.957520 5.516233
20.200000 -2.250000 5.516233
20.200000 -2.546387 5.516233
20.100000 -0.842773 5.516233
26.900000 2.161133 5.516233
26.900000 3.489746 5.516233
26.900000 4.068359 5.516233
26.900000 4.521973 5.516233
26.900000 5.850586 5.516233
26.900000 6.054199 5.516233
27.100000 6.882812 5.516233
27.100000 7.461426 5.516233
26.900000 9.040039 5.516233
26.700000 9.618652 5.516233
26.700000 10.447266 5.516233
26.800000 10.775879 5.516233
26.900000 10.729492 5.516233
27.500000 13.590332 5.516233
28.000000 13.293945 5.516233
28.200000 14.622559 5.516233
28.400000 14.451172 5.516233
28.200000 16.404785 5.516233
28.000000 16.608398 5.516233
28.000000 17.562012 5.516233
28.000000 17.640625 5.516233
28.100000 18.595215 5.516233
28.200000 18.799805 5.516233
28.400000 19.754395 5.516233
28.700000 20.333984 5.516233
29.100000 21.163574 5.516233
20.200000 -3.597656 5.641186
20.200000 -2.889648 5.641186
20.200000 -2.181641 5.641186
20.200000 -1.473633 5.641186
19.900000 -0.765625 5.641186
19.500000 -0.061035 5.641186
27.200000 0.882324 5.641186
27.000000 1.961914 5.641186
27.300000 1.916504 5.641186
27.200000 2.496094 5.641186
26.900000 3.075684 5.641186
26.900000 3.780273 5.641186
26.900000 4.984863 5.641186
27.000000 5.189453 5.641186
27.000000 5.644043 5.641186
27.100000 6.473633 5.641186
27.200000 7.053223 5.641186
27.100000 8.757812 5.641186
26.800000 8.712402 5.641186
26.800000 9.291992 5.641186
26.800000 10.246582 5.641186
27.000000 10.826172 5.641186
27.300000 12.030762 5.641186
27.500000 12.985352 5.641186
27.900000 12.939941 5.641186
28.100000 13.394531 5.641186
28.200000 15.099121 5.641186
28.200000 14.678711 5.641186
28.100000 16.008301 5.641186
27.900000 16.087891 5.641186
28.000000 16.917480 5.641186
28.000000 18.247070 5.641186
28.100000 19.076660 5.641186
28.300000 19.281250 5.641186
28.500000 19.736328 5.641186
20.200000 -3.717773 5.766201
20.200000 -3.012207 5.766201
20.200000 -2.306641 5.766201
20.200000 -1.601074 5.766201
20.000000 -0.895508 5.766201
27.300000 0.644043 5.766201
27.000000 3.397461 5.766201
26.900000 3.981934 5.766201
27.000000 3.566406 5.766201
27.000000 4.275879 5.766201
27.000000 4.985352 5.766201
27.000000 5.569824 5.766201
27.100000 7.404297 5.766201
27.300000 7.113770 5.766201
27.300000 8.323242 5.766201
27.100000 9.407715 5.766201
26.900000 9.242188 5.766201
27.200000 11.495605 5.766201
27.600000 12.580078 5.766201
27.900000 13.039551 5.766201
28.100000 13.249023 5.766201
28.200000 14.458496 5.766201
28.200000 14.917969 5.766201
28.100000 16.002441 5.766201
27.900000 17.211914 5.766201
28.000000 16.921387 5.766201
28.000000 18.255859 5.766201
28.100000 18.840332 5.766201
28.300000 19.299805 5.766201
28.500000 20.384277 5.766201
20.200000 -3.746094 5.891383
20.200000 -3.037598 5.891383
20.200000 -2.329102 5.891383
20.200000 -1.620605 5.891383
20.100000 -0.912109 5.891383
27.000000 2.992188 5.891383
26.900000 2.947266 5.891383
27.000000 3.527344 5.891383
26.900000 4.732422 5.891383
27.000000 5.937500 5.891383
27.100000 6.517578 5.891383
27.100000 6.722656 5.891383
27.200000 7.177734 5.891383
27.300000 8.757812 5.891383
27.300000 8.712891 5.891383
27.200000 10.292969 5.891383
27.100000 10.373047 5.891383
27.200000 10.578125 5.891383
27.500000 11.158203 5.891383
27.700000 12.738281 5.891383
28.000000 12.943359 5.891383
28.100000 13.273438 5.891383
28.200000 14.228516 5.891383
28.300000 15.183594 5.891383
28.100000 15.763672 5.891383
27.900000 16.218750 5.891383
28.000000 17.798828 5.891383
28.000000 18.003906 5.891383
28.100000 18.208984 5.891383
28.300000 19.414062 5.891383
28.500000 19.994141 5.891383
28.800000 20.199219 5.891383
29.200000 21.279297 5.891383
20.200000 -3.963867 6.031160
20.100000 -3.253418 6.031160
20.200000 -2.542969 6.031160
20.200000 -1.832520 6.031160
20.200000 -1.122070 6.031160
27.200000 1.765625 6.031160
27.400000 1.967285 6.031160
27.200000 2.918945 6.031160
26.900000 3.370605 6.031160
27.000000 3.322266 6.031160
27.000000 4.398926 6.031160
27.100000 4.975586 6.031160
27.200000 5.552246 6.031160
27.200000 6.628906 6.031160
27.200000 7.705566 6.031160
27.200000 7.907227 6.031160
27.300000 8.483887 6.031160
27.400000 8.935547 6.031160
27.300000 10.387207 6.031160
27.300000 11.088867 6.031160
27.400000 11.040527 6.031160
27.700000 11.992188 6.031160
27.900000 13.318848 6.031160
28.100000 13.270508 6.031160
28.200000 13.847168 6.031160
28.300000 14.548828 6.031160
28.100000 15.375488 6.031160
27.900000 16.327148 6.031160
28.000000 16.403809 6.031160
28.000000 17.980469 6.031160
28.100000 18.182129 6.031160
28.300000 19.508789 6.031160
28.500000 19.335449 6.031160
28.700000 20.287109 6.031160
29.000000 20.613770 6.031160
20.200000 -4.522461 6.155611
20.100000 -2.939453 6.155611
20.200000 -2.231445 6.155611
20.200000 -2.148438 6.155611
20.000000 -0.815430 6.155611
19.600000 -0.107422 6.155611
27.100000 2.593262 6.155611
27.000000 3.670898 6.155611
27.000000 3.873535 6.155611
27.100000 4.576172 6.155611
27.100000 5.653809 6.155611
27.200000 6.606445 6.155611
27.200000 7.059082 6.155611
27.200000 7.136719 6.155611
27.200000 7.839355 6.155611
27.300000 8.416992 6.155611
27.300000 9.369629 6.155611
27.400000 10.322266 6.155611
27.500000 11.274902 6.155611
27.600000 11.852539 6.155611
27.800000 12.430176 6.155611
28.000000 13.132812 6.155611
28.100000 14.085449 6.155611
28.200000 14.788086 6.155611
28.100000 14.865723 6.155611
27.900000 16.068359 6.155611
27.900000 16.645996 6.155611
27.900000 17.098633 6.155611
28.000000 18.176270 6.155611
28.200000 18.378906 6.155611
28.400000 19.331543 6.155611
28.600000 20.409180 6.155611
20.300000 -3.794434 6.296328
20.200000 -3.087891 6.296328
20.200000 -2.381348 6.296328
20.200000 -1.674805 6.296328
20.100000 -0.968262 6.296328
27.100000 2.809082 6.296328
26.900000 3.515625 6.296328
27.000000 3.467285 6.296328
27.100000 5.043945 6.296328
27.100000 5.870605 6.296328
27.100000 6.072266 6.296328
27.300000 6.898926 6.296328
27.400000 7.850586 6.296328
27.400000 8.427246 6.296328
27.400000 8.253906 6.296328
27.300000 9.205566 6.296328
27.400000 9.907227 6.296328
27.500000 10.608887 6.296328
27.600000 11.060547 6.296328
27.800000 11.762207 6.296328
28.000000 12.463867 6.296328
28.200000 14.040527 6.296328
28.200000 13.992188 6.296328
28.200000 15.068848 6.296328
28.000000 15.270508 6.296328
27.900000 16.597168 6.296328
27.900000 16.673828 6.296328
28.000000 17.375488 6.296328
28.200000 18.202148 6.296328
28.400000 19.028809 6.296328
28.600000 19.605469 6.296328
28.800000 19.932129 6.296328
29.200000 21.258789 6.296328
20.400000 -4.679688 6.421840
20.200000 -4.224121 6.421840
20.100000 -4.143555 6.421840
20.200000 -2.562988 6.421840
20.200000 -1.857422 6.421840
20.200000 -1.151855 6.421840
27.400000 0.331543 6.421840
27.500000 1.412109 6.421840
27.300000 2.742676 6.421840
27.000000 2.948242 6.421840
27.000000 4.403809 6.421840
27.000000 4.984375 6.421840
27.100000 5.562012 6.421840
27.200000 6.389648 6.421840
27.300000 6.717285 6.421840
27.400000 7.044922 6.421840
27.400000 8.497559 6.421840
27.400000 8.200195 6.421840
27.400000 8.777832 6.421840
27.400000 9.605469 6.421840
27.500000 11.183105 6.421840
27.600000 11.135742 6.421840
27.800000 11.463379 6.421840
28.000000 12.416016 6.421840
28.200000 13.368652 6.421840
28.300000 13.821289 6.421840
28.300000 14.648926 6.421840
28.100000 15.976562 6.421840
27.900000 16.054199 6.421840
27.900000 17.256836 6.421840
28.000000 17.959473 6.421840
28.000000 18.162109 6.421840
28.300000 18.739746 6.421840
28.600000 19.192383 6.421840
28.700000 20.645020 6.421840
29.100000 20.722656 6.421840
20.300000 -4.073730 6.545697
20.200000 -3.367188 6.545697
20.200000 -2.660645 6.545697
20.200000 -1.954102 6.545697
20.200000 -1.247559 6.545697
27.400000 0.741699 6.545697
27.500000 1.698242 6.545697
27.700000 2.029785 6.545697
27.500000 3.611328 6.545697
27.100000 3.567871 6.545697
27.100000 3.774414 6.545697
27.200000 4.730957 6.545697
27.300000 5.687500 6.545697
27.300000 5.891113 6.545697
27.400000 6.594727 6.545697
27.400000 7.298340 6.545697
27.400000 9.001953 6.545697
27.400000 9.455566 6.545697
27.400000 10.659180 6.545697
27.500000 10.112793 6.545697
27.600000 10.941406 6.545697
27.800000 11.520020 6.545697
28.000000 12.223633 6.545697
28.200000 13.677246 6.545697
28.300000 13.505859 6.545697
28.300000 14.459473 6.545697
28.100000 15.663086 6.545697
27.900000 16.116699 6.545697
27.900000 16.695312 6.545697
27.900000 17.523926 6.545697
28.300000 19.884766 6.545697
28.800000 20.588379 6.545697
29.100000 21.166992 6.545697
20.300000 -4.658691 6.686198
20.200000 -3.452148 6.686198
20.200000 -3.745605 6.686198
20.200000 -2.414062 6.686198
20.200000 -1.332520 6.686198
27.500000 1.031738 6.686198
27.300000 2.651367 6.686198
27.100000 2.982910 6.686198
27.200000 4.314453 6.686198
27.200000 4.770996 6.686198
27.300000 5.727539 6.686198
27.300000 5.934082 6.686198
27.400000 6.640625 6.686198
27.400000 7.469238 6.686198
27.400000 9.047852 6.686198
27.400000 9.501465 6.686198
27.400000 9.830078 6.686198
27.500000 10.908691 6.686198
27.600000 10.737305 6.686198
27.800000 11.940918 6.686198
28.000000 12.269531 6.686198
28.200000 13.223145 6.686198
28.300000 14.051758 6.686198
28.300000 14.880371 6.686198
28.100000 15.333984 6.686198
27.900000 16.662598 6.686198
28.000000 17.241211 6.686198
28.000000 16.944824 6.686198
28.100000 17.648438 6.686198
28.400000 18.852051 6.686198
28.600000 19.930664 6.686198
28.800000 20.634277 6.686198
29.100000 20.337891 6.686198
20.400000 -4.747070 6.811946
20.300000 -4.040527 6.811946
20.200000 -3.333984 6.811946
20.200000 -2.627441 6.811946
20.200000 -2.795898 6.811946
20.200000 -1.214355 6.811946
27.400000 1.024902 6.811946
27.400000 2.644531 6.811946
27.200000 3.851074 6.811946
27.200000 4.057617 6.811946
27.200000 4.889160 6.811946
27.300000 5.220703 6.811946
27.300000 7.177246 6.811946
27.400000 7.258789 6.811946
27.400000 7.340332 6.811946
27.400000 9.171875 6.811946
27.400000 8.875000 6.811946
27.400000 10.453125 6.811946
27.500000 10.156250 6.811946
27.700000 11.359375 6.811946
28.000000 11.687500 6.811946
28.100000 13.140625 6.811946
28.200000 13.093750 6.811946
28.300000 13.546875 6.811946
28.400000 14.250000 6.811946
28.200000 16.078125 6.811946
27.900000 15.781250 6.811946
27.900000 17.359375 6.811946
28.000000 17.812500 6.811946
28.200000 18.390625 6.811946
28.400000 19.468750 6.811946
28.500000 19.546875 6.811946
28.800000 20.000000 6.811946
29.100000 20.328125 6.811946
20.400000 -5.519531 6.952839
20.200000 -4.062988 6.952839
20.200000 -3.356445 6.952839
20.200000 -2.649902 6.952839
20.200000 -2.568359 6.952839
20.200000 -1.236816 6.952839
27.600000 1.127441 6.952839
27.400000 3.372070 6.952839
27.200000 3.328613 6.952839
27.200000 4.285156 6.952839
27.300000 5.241699 6.952839
27.300000 6.323242 6.952839
27.300000 5.904785 6.952839
27.400000 7.861328 6.952839
27.400000 8.067871 6.952839
27.400000 9.149414 6.952839
27.400000 9.855957 6.952839
27.400000 9.562500 6.952839
27.500000 10.889648 6.952839
27.700000 11.591797 6.952839
28.000000 11.793945 6.952839
28.100000 12.746094 6.952839
28.200000 12.948242 6.952839
28.300000 13.775391 6.952839
28.400000 14.477539 6.952839
28.200000 15.679688 6.952839
28.000000 15.881836 6.952839
28.000000 16.958984 6.952839
28.000000 17.536133 6.952839
28.200000 17.738281 6.952839
28.400000 19.065430 6.952839
28.500000 19.892578 6.952839
28.800000 20.469727 6.952839
29.100000 20.546875 6.952839
20.300000 -4.203613 7.077049
20.200000 -3.496094 7.077049
20.200000 -2.788574 7.077049
20.200000 -2.081055 7.077049
20.200000 -1.123535 7.077049
27.700000 1.246582 7.077049
27.300000 2.619141 7.077049
27.100000 3.076660 7.077049
27.200000 4.409180 7.077049
27.300000 5.366699 7.077049
27.300000 5.449219 7.077049
27.300000 6.656738 7.077049
27.400000 6.864258 7.077049
27.400000 7.321777 7.077049
27.400000 8.529297 7.077049
27.400000 9.111816 7.077049
27.400000 9.444336 7.077049
27.500000 10.276855 7.077049
27.600000 11.484375 7.077049
27.900000 11.937012 7.077049
28.100000 12.264648 7.077049
28.200000 13.592285 7.077049
28.300000 13.794922 7.077049
28.400000 13.997559 7.077049
28.200000 15.450195 7.077049
28.000000 15.527832 7.077049
28.000000 16.355469 7.077049
28.000000 17.058105 7.077049
28.100000 18.510742 7.077049
28.300000 18.713379 7.077049
28.500000 19.916016 7.077049
28.800000 20.243652 7.077049
29.100000 20.821289 7.077049
20.300000 -3.753906 7.200829
20.200000 -3.048828 7.200829
20.200000 -2.343750 7.200829
20.200000 -1.638672 7.200829
20.100000 -0.933594 7.200829
19.700000 -0.228516 7.200829
27.400000 3.332031 7.200829
27.100000 3.912109 7.200829
27.200000 3.492188 7.200829
27.300000 5.197266 7.200829
27.300000 5.402344 7.200829
27.400000 5.607422 7.200829
27.400000 6.437500 7.200829
27.500000 7.767578 7.200829
27.500000 7.597656 7.200829
27.500000 8.927734 7.200829
27.500000 9.257812 7.200829
27.600000 10.087891 7.200829
27.600000 11.417969 7.200829
27.800000 11.123047 7.200829
28.000000 12.703125 7.200829
28.100000 13.033691 7.200829
28.300000 13.239258 7.200829
28.400000 14.069824 7.200829
28.300000 14.775391 7.200829
28.000000 15.855957 7.200829
28.000000 16.561523 7.200829
28.100000 16.767090 7.200829
28.200000 17.722656 7.200829
28.300000 18.053223 7.200829
28.400000 18.758789 7.200829
28.600000 19.714355 7.200829
20.300000 -3.880859 7.342043
20.200000 -3.175293 7.342043
20.200000 -2.469727 7.342043
20.200000 -1.764160 7.342043
20.300000 -1.058594 7.342043
27.700000 0.674805 7.342043
27.700000 1.380371 7.342043
27.500000 2.085938 7.342043
27.100000 2.916504 7.342043
27.200000 3.747070 7.342043
27.300000 4.702637 7.342043
27.300000 5.033203 7.342043
27.400000 5.863770 7.342043
27.400000 6.194336 7.342043
27.500000 7.774902 7.342043
27.500000 7.855469 7.342043
27.500000 9.186035 7.342043
27.400000 9.641602 7.342043
27.500000 9.597168 7.342043
27.600000 10.427734 7.342043
27.600000 11.633301 7.342043
27.900000 12.213867 7.342043
28.100000 12.794434 7.342043
28.300000 13.000000 7.342043
28.300000 14.453613 7.342043
28.400000 14.782227 7.342043
28.300000 15.110840 7.342043
28.000000 15.814453 7.342043
28.100000 17.143066 7.342043
28.100000 17.596680 7.342043
28.300000 18.925293 7.342043
28.400000 19.628906 7.342043
28.600000 19.207520 7.342043
28.900000 20.036133 7.342043
29.400000 21.364746 7.342043
20.300000 -4.242188 7.467335
20.200000 -3.535156 7.467335
20.100000 -2.828125 7.467335
20.200000 -2.121094 7.467335
20.200000 -2.289062 7.467335
27.700000 0.953125 7.467335
27.400000 2.324219 7.467335
27.100000 3.031250 7.467335
27.200000 4.238281 7.467335
27.300000 5.195312 7.467335
27.300000 5.527344 7.467335
27.400000 5.734375 7.467335
27.500000 6.441406 7.467335
27.500000 7.648438 7.467335
27.200000 7.980469 7.467335
27.200000 9.312500 7.467335
27.400000 10.019531 7.467335
27.400000 10.476562 7.467335
27.800000 11.972656 7.467335
28.200000 13.679688 7.467335
28.400000 13.261719 7.467335
28.500000 14.718750 7.467335
28.400000 15.797363 7.467335
28.100000 16.500977 7.467335
28.000000 17.204590 7.467335
28.000000 17.533203 7.467335
28.100000 17.611816 7.467335
28.300000 18.315430 7.467335
28.500000 19.769043 7.467335
28.700000 20.222656 7.467335
29.100000 21.176270 7.467335
20.200000 -3.669434 7.606943
20.100000 -2.963867 7.606943
20.200000 -2.258301 7.606943
20.200000 -1.552734 7.606943
20.100000 -0.847168 7.606943
19.700000 -0.391602 7.606943
27.500000 0.555664 7.606943
27.300000 2.172363 7.606943
27.000000 3.002930 7.606943
27.200000 4.333496 7.606943
27.300000 4.914062 7.606943
27.300000 5.619629 7.606943
27.400000 6.575195 7.606943
27.400000 6.905762 7.606943
27.200000 7.111328 7.606943
26.900000 8.941895 7.606943
26.900000 9.647461 7.606943
27.200000 9.728027 7.606943
27.400000 9.808594 7.606943
27.400000 11.014160 7.606943
27.500000 11.719727 7.606943
27.900000 12.050293 7.606943
28.200000 13.380859 7.606943
28.300000 14.211426 7.606943
28.400000 14.416992 7.606943
28.300000 14.997559 7.606943
28.100000 15.828125 7.606943
28.000000 16.406250 7.606943
28.000000 17.109375 7.606943
28.100000 18.437500 7.606943
28.300000 18.640625 7.606943
28.400000 19.593750 7.606943
28.600000 20.046875 7.606943
29.000000 20.375000 7.606943
20.200000 -3.615723 7.732220
20.100000 -2.906250 7.732220
20.200000 -2.201172 7.732220
20.200000 -1.496094 7.732220
20.100000 -0.791016 7.732220
19.700000 -0.085938 7.732220
27.400000 0.984375 7.732220
27.300000 2.849609 7.732220
27.000000 2.804688 7.732220
27.200000 4.259766 7.732220
27.200000 5.089844 7.732220
27.200000 5.419922 7.732220
27.400000 6.625000 7.732220
27.300000 6.705078 7.732220
26.900000 7.785156 7.732220
26.700000 9.240234 7.732220
26.900000 10.355469 7.732220
27.100000 10.560547 7.732220
28.400000 14.255859 7.732220
28.500000 14.335938 7.732220
28.300000 14.791016 7.732220
28.100000 16.121094 7.732220
28.000000 16.826172 7.732220
28.000000 17.406250 7.732220
28.100000 18.483887 7.732220
28.300000 18.311523 7.732220
28.400000 19.014160 7.732220
28.600000 20.216797 7.732220
29.000000 20.169434 7.732220
20.300000 -4.144531 7.857254
20.200000 -3.436523 7.857254
20.200000 -2.728516 7.857254
20.200000 -2.020508 7.857254
20.200000 -1.312500 7.857254
27.300000 0.667969 7.857254
27.600000 0.873047 7.857254
27.600000 1.578125 7.857254
27.300000 3.408203 7.857254
27.100000 3.363281 7.857254
27.100000 3.818359 7.857254
27.200000 4.648438 7.857254
27.300000 5.603516 7.857254
27.400000 6.308594 7.857254
26.600000 8.343750 7.857254
26.600000 8.423828 7.857254
26.700000 8.753906 7.857254
27.100000 10.289062 7.857254
27.800000 12.904297 7.857254
28.200000 13.109375 7.857254
28.400000 14.189453 7.857254
28.600000 14.394531 7.857254
28.400000 15.724609 7.857254
28.100000 15.929688 7.857254
28.100000 16.634766 7.857254
28.200000 17.839844 7.857254
28.200000 17.794922 7.857254
28.300000 18.875000 7.857254
28.400000 19.452637 7.857254
28.700000 19.780273 7.857254
29.200000 20.607910 7.857254
20.300000 -4.499023 7.981066
20.200000 -3.418457 7.981066
20.200000 -3.462891 7.981066
20.200000 -2.007324 7.981066
20.200000 -1.301758 7.981066
20.000000 0.109375 7.981066
27.500000 1.967773 7.981066
27.100000 3.298340 7.981066
27.100000 3.128906 7.981066
27.100000 3.834473 7.981066
27.200000 4.665039 7.981066
27.200000 5.120605 7.981066
27.100000 7.201172 7.981066
26.900000 7.031738 7.981066
26.600000 8.237305 7.981066
26.500000 9.317871 7.981066
26.700000 8.773438 7.981066
27.000000 10.059570 7.981066
28.400000 14.087402 7.981066
28.600000 14.167969 7.981066
28.400000 15.498535 7.981066
28.100000 15.704102 7.981066
28.100000 16.409668 7.981066
28.200000 17.490234 7.981066
28.200000 18.320801 7.981066
28.300000 19.276367 7.981066
28.400000 19.106934 7.981066
28.700000 19.937500 7.981066
29.200000 20.890625 7.981066
20.300000 -4.015625 8.121063
20.200000 -3.308594 8.121063
20.200000 -2.601562 8.121063
20.200000 -1.894531 8.121063
20.200000 -1.937500 8.121063
20.000000 0.226562 8.121063
27.200000 1.043945 8.121063
27.600000 1.870605 8.121063
27.400000 1.947266 8.121063
27.000000 2.773926 8.121063
27.000000 4.225586 8.121063
27.100000 4.677246 8.121063
27.100000 4.503906 8.121063
27.100000 5.705566 8.121063
26.900000 6.032227 8.121063
26.600000 6.858887 8.121063
26.500000 8.560547 8.121063
26.500000 8.137207 8.121063
26.600000 9.963867 8.121063
26.900000 10.742188 8.121063
27.100000 11.443848 8.121063
28.400000 13.375488 8.121063
28.600000 14.577148 8.121063
28.400000 14.903809 8.121063
28.100000 15.980469 8.121063
28.100000 16.557129 8.121063
28.100000 17.883789 8.121063
28.200000 18.335449 8.121063
28.300000 18.787109 8.121063
28.400000 19.863770 8.121063
28.700000 20.065430 8.121063
29.300000 21.142090 8.121063
20.200000 -3.403320 8.247140
20.200000 -2.695312 8.247140
20.200000 -1.987305 8.247140
20.200000 -1.279297 8.247140
27.500000 1.172363 8.247140
27.400000 2.625977 8.247140
27.100000 2.579590 8.247140
27.000000 3.533203 8.247140
27.000000 4.736816 8.247140
27.000000 5.315430 8.247140
27.000000 6.269043 8.247140
27.100000 6.472656 8.247140
26.800000 7.676270 8.247140
26.500000 8.004883 8.247140
26.500000 8.083496 8.247140
26.800000 10.694336 8.247140
28.100000 13.383789 8.247140
28.400000 13.587402 8.247140
28.600000 14.166016 8.247140
28.500000 14.869629 8.247140
28.300000 15.948242 8.247140
28.200000 16.776855 8.247140
28.200000 17.855469 8.247140
28.200000 17.809082 8.247140
28.300000 18.637695 8.247140
28.400000 18.966309 8.247140
28.700000 19.794922 8.247140
29.200000 20.498535 8.247140
20.300000 -3.808594 8.370935
20.200000 -3.101562 8.370935
20.200000 -2.144531 8.370935
20.200000 -1.687500 8.370935
20.300000 -0.980469 8.370935
26.900000 3.378906 8.370935
26.900000 4.208984 8.370935
27.000000 4.539062 8.370935
26.900000 5.619141 8.370935
27.100000 6.199219 8.370935
26.500000 7.234375 8.370935
26.400000 8.564453 8.370935
26.500000 9.519531 8.370935
26.700000 10.099609 8.370935
27.000000 11.339844 8.370935
27.400000 12.919922 8.370935
27.800000 12.750000 8.370935
28.200000 13.830078 8.370935
28.400000 14.285156 8.370935
28.500000 14.865234 8.370935
28.400000 16.195312 8.370935
28.200000 16.525391 8.370935
28.100000 17.605469 8.370935
28.100000 18.310547 8.370935
28.300000 18.015625 8.370935
28.400000 19.470703 8.370935
28.600000 20.050781 8.370935
20.300000 -4.144531 8.511173
20.200000 -3.437500 8.511173
20.200000 -2.980469 8.511173
20.200000 -2.023438 8.511173
27.500000 2.714844 8.511173
27.000000 3.671875 8.511173
26.900000 3.876953 8.511173
26.900000 4.207031 8.511173
27.000000 4.912109 8.511173
26.700000 7.152344 8.511173
26.400000 7.607422 8.511173
26.400000 8.562500 8.511173
26.700000 10.927734 8.511173
26.900000 11.507812 8.511173
27.000000 11.712891 8.511173
28.600000 14.783203 8.511173
28.500000 15.488281 8.511173
28.300000 15.568359 8.511173
28.200000 16.523438 8.511173
28.200000 17.228516 8.511173
28.200000 18.183594 8.511173
28.300000 18.763672 8.511173
28.500000 19.593750 8.511173
28.700000 19.798828 8.511173
29.100000 20.628906 8.511173
20.200000 -3.672852 8.637358
20.100000 -2.966309 8.637358
20.200000 -2.259766 8.637358
27.100000 2.099121 8.637358
27.100000 3.055664 8.637358
26.800000 3.262207 8.637358
26.900000 4.718750 8.637358
26.900000 5.297363 8.637358
26.700000 7.908203 8.637358
26.500000 7.611816 8.637358
26.300000 9.190430 8.637358
26.300000 10.019043 8.637358
26.500000 9.472656 8.637358
26.800000 11.051270 8.637358
27.000000 11.004883 8.637358
27.200000 12.208496 8.637358
27.300000 13.037109 8.637358
27.700000 13.240723 8.637358
28.100000 14.194336 8.637358
28.400000 14.397949 8.637358
28.500000 14.976562 8.637358
28.400000 16.180176 8.637358
28.200000 17.008789 8.637358
28.200000 17.337402 8.637358
28.300000 18.041016 8.637358
28.300000 18.744629 8.637358
28.400000 19.073242 8.637358
28.500000 20.026855 8.637358
28.700000 20.980469 8.637358
20.200000 -3.812500 8.777165
20.100000 -3.106445 8.777165
20.200000 -2.400391 8.777165
20.200000 -1.694336 8.777165
20.300000 -0.988281 8.777165
26.900000 2.160156 8.777165
26.800000 2.866211 8.777165
26.900000 3.572266 8.777165
26.900000 4.403320 8.777165
26.900000 5.484375 8.777165
26.900000 6.312012 8.777165
27.100000 6.514648 8.777165
26.800000 8.467285 8.777165
26.300000 8.169922 8.777165
26.200000 9.497559 8.777165
26.400000 9.200195 8.777165
26.700000 10.652832 8.777165
27.000000 10.480469 8.777165
27.100000 11.183105 8.777165
27.300000 12.260742 8.777165
28.600000 14.571289 8.777165
28.500000 15.648926 8.777165
28.300000 16.601562 8.777165
28.200000 17.429199 8.777165
28.300000 17.631836 8.777165
28.300000 18.584473 8.777165
28.400000 18.787109 8.777165
28.400000 19.739746 8.777165
28.600000 20.317383 8.777165
20.200000 -3.793945 8.902022
20.100000 -3.088379 8.902022
20.200000 -2.382812 8.902022
20.200000 -1.677246 8.902022
20.300000 -1.846680 8.902022
26.900000 2.672852 8.902022
26.800000 2.753418 8.902022
26.900000 4.333984 8.902022
26.900000 5.164551 8.902022
26.900000 5.495117 8.902022
26.900000 6.700684 8.902022
27.000000 7.031250 8.902022
26.200000 8.440430 8.902022
26.200000 9.145020 8.902022
26.300000 10.474609 8.902022
26.500000 10.304199 8.902022
26.800000 10.883789 8.902022
27.000000 12.088379 8.902022
27.200000 12.667969 8.902022
28.500000 14.861328 8.902022
28.500000 16.065918 8.902022
28.300000 15.895508 8.902022
28.200000 16.725098 8.902022
28.300000 17.429688 8.902022
28.300000 18.009277 8.902022
28.300000 19.713867 8.902022
28.300000 19.668457 8.902022
28.600000 20.498047 8.902022
20.200000 -3.742188 9.027825
20.100000 -4.037109 9.027825
20.200000 -2.332031 9.027825
20.200000 -1.376953 9.027825
20.300000 -0.921875 9.027825
26.800000 2.968750 9.027825
26.800000 3.298828 9.027825
26.800000 4.378906 9.027825
26.900000 4.333984 9.027825
26.900000 5.414062 9.027825
26.500000 7.904297 9.027825
26.200000 7.859375 9.027825
26.200000 9.562988 9.027825
26.200000 10.391602 9.027825
26.400000 10.970215 9.027825
27.000000 12.581055 9.027825
28.500000 14.770508 9.027825
28.500000 15.849121 9.027825
28.300000 16.427734 9.027825
28.200000 17.506348 9.027825
28.300000 17.584961 9.027825
28.300000 18.913574 9.027825
28.300000 19.117188 9.027825
28.300000 19.695801 9.027825
28.600000 20.274414 9.027825
20.200000 -3.736328 9.167103
20.100000 -3.030273 9.167103
20.200000 -2.324219 9.167103
27.000000 0.993164 9.167103
27.200000 1.574219 9.167103
27.100000 2.405273 9.167103
26.800000 2.361328 9.167103
26.800000 3.067383 9.167103
26.800000 4.523438 9.167103
26.800000 5.229492 9.167103
26.800000 5.185547 9.167103
26.700000 7.016602 9.167103
26.800000 6.472656 9.167103
26.600000 7.803711 9.167103
26.200000 8.259766 9.167103
26.200000 8.965820 9.167103
26.200000 9.671875 9.167103
26.300000 10.500000 9.167103
26.500000 10.953125 9.167103
26.800000 11.781250 9.167103
27.000000 11.984375 9.167103
28.500000 14.796875 9.167103
28.500000 15.750000 9.167103
28.300000 16.203125 9.167103
28.200000 16.656250 9.167103
28.200000 17.609375 9.167103
28.200000 18.312500 9.167103
28.200000 18.890625 9.167103
28.300000 20.343750 9.167103
28.600000 20.421875 9.167103
20.200000 -4.152344 9.290382
20.100000 -2.944824 9.290382
20.200000 -2.237305 9.290382
20.200000 -1.529785 9.290382
20.300000 -0.822266 9.290382
26.900000 0.465332 9.290382
26.900000 2.047852 9.290382
26.800000 2.130371 9.290382
26.800000 2.462891 9.290382
26.700000 3.295410 9.290382
26.700000 3.877930 9.290382
26.800000 5.085449 9.290382
26.800000 5.167969 9.290382
26.500000 8.665527 9.290382
26.100000 8.123047 9.290382
26.000000 10.330566 9.290382
26.100000 9.538086 9.290382
26.200000 11.120605 9.290382
26.300000 12.078125 9.290382
26.400000 11.406250 9.290382
26.700000 12.609375 9.290382
28.500000 16.000000 9.290382
28.300000 16.453125 9.290382
28.200000 17.656250 9.290382
28.200000 18.234375 9.290382
28.200000 18.312500 9.290382
28.200000 19.515625 9.290382
28.300000 19.468750 9.290382
28.600000 20.296875 9.290382
20.300000 -4.170410 9.432065
20.200000 -3.463867 9.432065
20.200000 -2.757324 9.432065
20.200000 -2.175781 9.432065
26.900000 0.645020 9.432065
27.000000 1.726562 9.432065
26.700000 2.058105 9.432065
26.600000 2.889648 9.432065
26.600000 3.971191 9.432065
26.700000 4.677734 9.432065
26.700000 5.134277 9.432065
26.800000 5.590820 9.432065
26.500000 8.210449 9.432065
26.100000 9.416992 9.432065
26.000000 9.248535 9.432065
26.100000 9.830078 9.432065
26.200000 11.286621 9.432065
26.200000 11.618164 9.432065
26.400000 12.449707 9.432065
26.600000 13.156250 9.432065
28.500000 16.044434 9.432065
28.300000 16.622070 9.432065
28.200000 17.699707 9.432065
28.000000 17.902344 9.432065
28.100000 18.354980 9.432065
28.200000 19.432617 9.432065
28.300000 20.635254 9.432065
28.600000 20.587891 9.432065
20.400000 -4.805664 9.557983
20.200000 -4.599121 9.557983
20.200000 -3.392578 9.557983
20.200000 -2.686035 9.557983
20.200000 -2.354492 9.557983
26.600000 2.629395 9.557983
26.500000 2.835938 9.557983
26.600000 3.292480 9.557983
26.700000 4.874023 9.557983
26.700000 5.955566 9.557983
26.800000 5.912109 9.557983
26.500000 8.031738 9.557983
26.100000 8.738281 9.557983
26.000000 10.194824 9.557983
26.100000 9.901367 9.557983
26.200000 10.982910 9.557983
26.200000 11.439453 9.557983
26.400000 12.895996 9.557983
26.600000 13.727539 9.557983
28.500000 15.620605 9.557983
28.300000 16.447266 9.557983
28.100000 18.023926 9.557983
28.000000 17.975586 9.557983
28.100000 19.177246 9.557983
28.200000 19.628906 9.557983
28.300000 20.205566 9.557983
28.600000 20.782227 9.557983
20.400000 -4.750000 9.682381
20.200000 -4.044434 9.682381
20.100000 -3.338867 9.682381
20.200000 -2.633301 9.682381
20.200000 -2.177734 9.682381
20.200000 -1.222168 9.682381
20.300000 -0.516602 9.682381
26.600000 1.922363 9.682381
26.400000 3.002930 9.682381
26.600000 3.458496 9.682381
26.600000 4.539062 9.682381
26.700000 5.369629 9.682381
26.700000 5.450195 9.682381
26.500000 8.441895 9.682381
26.200000 8.647461 9.682381
26.000000 10.353027 9.682381
26.100000 10.933594 9.682381
26.200000 10.889160 9.682381
26.200000 12.219727 9.682381
26.300000 12.175293 9.682381
26.500000 12.880859 9.682381
28.500000 16.281738 9.682381
28.300000 16.610352 9.682381
28.100000 17.438965 9.682381
28.000000 18.142578 9.682381
28.000000 19.471191 9.682381
28.100000 19.799805 9.682381
28.300000 20.003418 9.682381
28.600000 20.832031 9.682381
20.400000 -4.726562 9.822041
20.200000 -4.019531 9.822041
20.200000 -3.312500 9.822041
20.200000 -2.607910 9.822041
20.200000 -1.903320 9.822041
20.200000 -1.198730 9.822041
26.600000 2.437988 9.822041
26.400000 3.517578 9.822041
26.500000 4.097168 9.822041
26.500000 4.676758 9.822041
26.600000 5.631348 9.822041
26.700000 5.460938 9.822041
26.600000 6.665527 9.822041
26.600000 8.120117 9.822041
26.800000 8.074707 9.822041
26.500000 8.404297 9.822041
26.100000 9.858887 9.822041
26.100000 10.063477 9.822041
26.200000 11.018066 9.822041
26.200000 11.097656 9.822041
26.300000 12.552246 9.822041
26.500000 13.256836 9.822041
28.400000 16.029785 9.822041
28.000000 17.234375 9.822041
27.800000 17.190918 9.822041
27.800000 17.897461 9.822041
27.900000 18.604004 9.822041
28.100000 19.810547 9.822041
28.200000 19.892090 9.822041
28.600000 21.098633 9.822041
20.400000 -4.748047 9.947564
20.200000 -4.041504 9.947564
20.200000 -4.084961 9.947564
20.200000 -2.628418 9.947564
20.200000 -1.921875 9.947564
20.200000 -1.216309 9.947564
26.800000 1.222656 9.947564
26.500000 2.428223 9.947564
26.300000 3.258789 9.947564
26.400000 3.589355 9.947564
26.400000 5.294922 9.947564
26.500000 5.125488 9.947564
26.700000 5.831055 9.947564
26.600000 6.661621 9.947564
26.300000 9.653320 9.947564
26.100000 10.233887 9.947564
26.100000 9.689453 9.947564
26.200000 10.520020 9.947564
26.200000 11.100586 9.947564
26.300000 12.306152 9.947564
26.500000 12.386719 9.947564
26.800000 14.092285 9.947564
27.100000 14.422852 9.947564
