20.300000 -8.415039 1.406544
20.300000 -6.847656 1.406544
20.300000 -5.462891 1.406544
20.300000 -4.770508 1.406544
20.200000 -4.078125 1.406544
20.100000 -3.389648 1.406544
20.200000 -2.701172 1.406544
20.100000 -2.012695 1.406544
20.300000 -7.287109 1.529924
20.300000 -5.218750 1.529924
20.200000 -4.529297 1.529924
20.200000 -3.839844 1.529924
20.100000 -3.150391 1.529924
20.100000 -2.460938 1.529924
20.100000 -1.771484 1.529924
20.300000 -1.707031 1.529924
20.300000 -6.304688 1.670191
20.300000 -5.614746 1.670191
20.300000 -4.924805 1.670191
20.200000 -4.234863 1.670191
20.200000 -3.544922 1.670191
20.200000 -2.854980 1.670191
20.100000 -2.165039 1.670191
20.300000 -5.344238 1.808197
20.300000 -4.650391 1.808197
20.200000 -3.956543 1.808197
20.100000 -3.262695 1.808197
20.100000 -3.193848 1.808197
20.100000 -1.875000 1.808197
20.200000 -1.936035 1.808197
20.400000 -6.366211 1.933897
20.300000 -4.985352 1.933897
20.200000 -4.294922 1.933897
20.100000 -4.229492 1.933897
20.100000 -2.914062 1.933897
20.200000 -2.223633 1.933897
20.200000 -4.636230 2.073458
20.200000 -3.945312 2.073458
20.100000 -4.129395 2.073458
20.100000 -2.563477 2.073458
20.100000 -1.872559 2.073458
20.200000 -1.181641 2.073458
20.700000 -10.020996 2.211747
20.300000 -7.261230 2.211747
20.300000 -6.571289 2.211747
20.300000 -5.191406 2.211747
20.200000 -4.501465 2.211747
20.200000 -3.811523 2.211747
20.100000 -3.121582 2.211747
20.200000 -2.431641 2.211747
20.100000 -2.491699 2.211747
20.300000 -1.051758 2.211747
20.400000 -6.390625 2.335182
20.300000 -5.007812 2.335182
20.200000 -4.316406 2.335182
20.100000 -3.625000 2.335182
20.100000 -3.808594 2.335182
20.200000 -1.992188 2.335182
20.700000 -10.031250 2.476291
20.300000 -7.265625 2.476291
20.300000 -7.574219 2.476291
20.300000 -5.191406 2.476291
20.300000 -4.500000 2.476291
20.200000 -3.808594 2.476291
20.100000 -3.117188 2.476291
20.200000 -2.425781 2.476291
20.300000 -7.651367 2.603220
20.300000 -6.958984 2.603220
20.300000 -5.574219 2.603220
20.300000 -4.881836 2.603220
20.200000 -4.814453 2.603220
20.100000 -3.497070 2.603220
20.200000 -2.804688 2.603220
20.100000 -2.112305 2.603220
20.300000 -6.447266 2.743095
20.300000 -5.059570 2.743095
20.200000 -4.865723 2.743095
20.100000 -3.671875 2.743095
20.100000 -2.983398 2.743095
20.100000 -2.294922 2.743095
20.300000 -7.205078 2.868096
20.300000 -6.514160 2.868096
20.300000 -5.132324 2.868096
20.300000 -4.441406 2.868096
20.200000 -3.750488 2.868096
20.100000 -2.809570 2.868096
20.200000 -2.368652 2.868096
20.100000 -1.677734 2.868096
20.300000 -0.986816 2.868096
20.100000 -7.309082 3.009019
20.300000 -5.242188 3.009019
20.300000 -4.553223 3.009019
20.200000 -3.864258 3.009019
20.100000 -3.175293 3.009019
20.200000 -2.486328 3.009019
20.100000 -1.797363 3.009019
20.300000 -1.983398 3.009019
20.300000 -4.645508 3.136855
20.200000 -3.954590 3.136855
20.100000 -3.263672 3.136855
20.100000 -2.572754 3.136855
20.100000 -1.881836 3.136855
20.300000 -1.190918 3.136855
20.300000 -6.225586 3.276006
20.200000 -4.658691 3.276006
20.200000 -3.966797 3.276006
20.100000 -4.024902 3.276006
20.100000 -2.583008 3.276006
20.100000 -1.891113 3.276006
20.200000 -1.199219 3.276006
20.300000 -7.192383 3.402344
20.300000 -6.501953 3.402344
20.300000 -5.121094 3.402344
20.200000 -4.430664 3.402344
20.100000 -3.740234 3.402344
20.100000 -3.049805 3.402344
20.100000 -2.359375 3.402344
21.200000 -11.170410 3.542353
20.300000 -6.576172 3.542353
20.300000 -5.188477 3.542353
20.300000 -4.494629 3.542353
20.200000 -3.800781 3.542353
20.100000 -3.106934 3.542353
20.100000 -2.413086 3.542353
20.400000 -7.955078 3.668518
20.300000 -6.511719 3.668518
20.300000 -5.625000 3.668518
20.300000 -4.436523 3.668518
20.200000 -3.748047 3.668518
20.100000 -3.059570 3.668518
20.100000 -2.371094 3.668518
21.100000 -10.014160 3.810801
20.200000 -3.822266 3.810801
20.100000 -3.134277 3.810801
20.100000 -2.446289 3.810801
20.100000 -1.758301 3.810801
20.200000 -1.070312 3.810801
20.300000 -6.259766 3.938748
20.300000 -5.128906 3.938748
20.300000 -4.438477 3.938748
20.200000 -4.623047 3.938748
20.100000 -3.057617 3.938748
20.200000 -2.367188 3.938748
20.300000 -8.279297 4.076631
20.300000 -5.452148 4.076631
20.200000 -4.759766 4.076631
20.200000 -4.067383 4.076631
20.100000 -3.375000 4.076631
20.200000 -2.936035 4.076631
20.100000 -1.997070 4.076631
20.700000 -10.062500 4.202713
20.300000 -7.298828 4.202713
20.300000 -7.607910 4.202713
20.300000 -5.226074 4.202713
20.300000 -4.535156 4.202713
20.200000 -3.844238 4.202713
20.100000 -3.153320 4.202713
20.100000 -2.462402 4.202713
20.400000 -6.479004 4.341252
20.300000 -5.099121 4.341252
20.300000 -4.409180 4.341252
20.200000 -3.719238 4.341252
20.100000 -3.029297 4.341252
20.100000 -3.214355 4.341252
20.400000 -7.525879 4.481728
20.300000 -6.832031 4.481728
20.300000 -5.944336 4.481728
20.200000 -5.625488 4.481728
20.200000 -4.056641 4.481728
20.100000 -3.362793 4.481728
20.100000 -2.668945 4.481728
20.100000 -1.975098 4.481728
20.100000 -1.281250 4.481728
20.400000 -6.387695 4.605209
20.300000 -5.009766 4.605209
20.300000 -4.320801 4.605209
20.300000 -3.631836 4.605209
20.200000 -2.942871 4.605209
20.200000 -2.253906 4.605209
20.300000 -6.791016 4.730942
20.300000 -6.037109 4.730942
20.200000 -4.722656 4.730942
20.200000 -4.533203 4.730942
20.100000 -3.343750 4.730942
20.100000 -2.654297 4.730942
20.100000 -1.964844 4.730942
20.100000 -1.275391 4.730942
20.400000 -8.150391 4.875002
20.300000 -7.459473 4.875002
20.300000 -5.077637 4.875002
20.300000 -4.386719 4.875002
20.200000 -3.945801 4.875002
20.200000 -3.004883 4.875002
20.100000 -2.313965 4.875002
20.300000 -6.741211 5.011225
20.300000 -5.359375 5.011225
20.200000 -4.668457 5.011225
20.200000 -3.977539 5.011225
20.100000 -3.286621 5.011225
20.100000 -2.595703 5.011225
20.100000 -1.904785 5.011225
20.200000 -1.213867 5.011225
20.400000 -7.779297 5.135681
20.300000 -7.088867 5.135681
20.300000 -6.398438 5.135681
20.300000 -5.017578 5.135681
20.200000 -4.327148 5.135681
20.200000 -3.636719 5.135681
20.100000 -2.946289 5.135681
20.200000 -2.255859 5.135681
20.300000 -4.507812 5.274309
20.300000 -3.121094 5.274309
20.300000 -5.380859 5.414985
20.200000 -4.687988 5.414985
20.200000 -3.995117 5.414985
20.100000 -3.427246 5.414985
20.100000 -2.609375 5.414985
20.100000 -1.921387 5.414985
20.100000 -1.733398 5.414985
20.400000 -7.809570 5.540456
20.300000 -7.620605 5.540456
20.300000 -6.431641 5.540456
20.300000 -5.303711 5.540456
20.200000 -4.364746 5.540456
20.200000 -3.675781 5.540456
20.100000 -3.236816 5.540456
20.200000 -2.297852 5.540456
20.300000 -5.314453 5.666989
20.300000 -5.500000 5.666989
20.200000 -3.935547 5.666989
20.100000 -3.246094 5.666989
20.100000 -2.556641 5.666989
20.100000 -1.867188 5.666989
20.200000 -1.177734 5.666989
20.300000 -5.535156 5.805468
20.300000 -4.845215 5.805468
20.200000 -4.155273 5.805468
20.200000 -4.215332 5.805468
20.200000 -2.775391 5.805468
20.100000 -2.710449 5.805468
20.700000 -11.066406 5.943252
20.300000 -7.300781 5.943252
20.300000 -6.609375 5.943252
20.300000 -5.727539 5.943252
20.300000 -4.536621 5.943252
20.200000 -3.845703 5.943252
20.100000 -3.779785 5.943252
20.100000 -2.463867 5.943252
20.100000 -2.022949 5.943252
20.200000 -1.457031 5.943252
20.300000 -5.962402 6.066965
20.200000 -4.771484 6.066965
20.200000 -4.080566 6.066965
20.200000 -3.389648 6.066965
20.200000 -2.698730 6.066965
20.100000 -2.007812 6.066965
20.100000 -1.941895 6.066965
20.300000 -6.959961 6.208923
20.300000 -6.068359 6.208923
20.300000 -5.372559 6.208923
20.200000 -4.176758 6.208923
20.200000 -3.480957 6.208923
20.100000 -3.160156 6.208923
20.100000 -2.089355 6.208923
20.100000 -1.393555 6.208923
20.700000 -10.012695 6.346847
20.400000 -7.243164 6.346847
20.300000 -6.925781 6.346847
20.300000 -5.166016 6.346847
20.300000 -4.473633 6.346847
20.200000 -3.781250 6.346847
20.100000 -3.092773 6.346847
20.100000 -2.904297 6.346847
20.300000 -7.003418 6.473397
20.300000 -5.623535 6.473397
20.300000 -4.933594 6.473397
20.200000 -4.243652 6.473397
20.100000 -3.553711 6.473397
20.100000 -2.863770 6.473397
20.100000 -2.173828 6.473397
20.300000 -5.388672 6.597085
20.200000 -4.699219 6.597085
20.200000 -4.009766 6.597085
20.100000 -3.320312 6.597085
20.100000 -2.630859 6.597085
20.100000 -1.941406 6.597085
20.200000 -1.251953 6.597085
20.300000 -5.360840 6.738075
20.200000 -5.419922 6.738075
20.200000 -3.979004 6.738075
20.100000 -3.288086 6.738075
20.100000 -2.597168 6.738075
20.100000 -1.906250 6.738075
20.200000 -1.216797 6.738075
20.700000 -10.026367 7.002933
20.400000 -7.955078 7.002933
20.300000 -7.264648 7.002933
20.300000 -6.824219 7.002933
20.300000 -5.443359 7.002933
20.300000 -4.502930 7.002933
20.200000 -3.812500 7.002933
20.100000 -3.122070 7.002933
20.100000 -2.431641 7.002933
20.300000 -5.293945 7.142866
20.300000 -4.601562 7.142866
20.200000 -3.909180 7.142866
20.100000 -3.216797 7.142866
20.100000 -2.524414 7.142866
20.100000 -1.832031 7.142866
20.200000 -1.139648 7.142866
20.300000 -5.296875 7.281578
20.300000 -4.607910 7.281578
20.200000 -3.918945 7.281578
20.100000 -3.229980 7.281578
20.100000 -2.541016 7.281578
20.100000 -1.602051 7.281578
20.200000 -1.163086 7.281578
20.300000 -6.751953 7.406055
20.300000 -5.373047 7.406055
20.200000 -5.558594 7.406055
20.200000 -3.994141 7.406055
20.100000 -3.304688 7.406055
20.100000 -2.615234 7.406055
20.200000 -1.925781 7.406055
20.300000 -1.236328 7.406055
20.300000 -5.621094 7.545527
20.200000 -4.242188 7.545527
20.100000 -3.552734 7.545527
20.100000 -2.863281 7.545527
20.100000 -2.173828 7.545527
20.200000 -1.484375 7.545527
20.300000 -6.791992 7.672381
20.300000 -6.158203 7.672381
20.200000 -4.466309 7.672381
20.200000 -4.024414 7.672381
20.100000 -3.332520 7.672381
20.100000 -3.265625 7.672381
20.100000 -1.949707 7.672381
20.200000 -1.758789 7.672381
20.300000 -6.552734 7.811472
20.300000 -5.172852 7.811472
20.300000 -4.482910 7.811472
20.200000 -3.792969 7.811472
20.100000 -3.978027 7.811472
20.100000 -2.913086 7.811472
20.300000 -7.215332 7.935751
20.300000 -6.526367 7.935751
20.300000 -5.148438 7.935751
20.200000 -4.459473 7.935751
20.200000 -4.270508 7.935751
20.200000 -3.956543 7.935751
20.100000 -2.392578 7.935751
20.400000 -7.276367 8.077948
20.300000 -7.210938 8.077948
20.300000 -5.205078 8.077948
20.300000 -5.014648 8.077948
20.200000 -3.824219 8.077948
20.100000 -3.133789 8.077948
20.100000 -2.443359 8.077948
20.100000 -1.752930 8.077948
20.300000 -1.187500 8.077948
20.300000 -6.999512 8.202930
20.300000 -6.311523 8.202930
20.300000 -4.935547 8.202930
20.200000 -4.247559 8.202930
20.100000 -4.309570 8.202930
20.100000 -2.871582 8.202930
20.100000 -2.683594 8.202930
20.400000 -7.506836 8.343602
20.300000 -6.816895 8.343602
20.300000 -5.437012 8.343602
20.200000 -4.747070 8.343602
20.200000 -4.057129 8.343602
20.200000 -4.117188 8.343602
20.100000 -3.302246 8.343602
20.200000 -1.987305 8.343602
20.200000 -1.047363 8.343602
20.300000 -7.162598 8.608690
20.300000 -6.467773 8.608690
20.300000 -5.078125 8.608690
20.200000 -4.387695 8.608690
20.100000 -3.697266 8.608690
20.100000 -3.006836 8.608690
20.100000 -2.316406 8.608690
20.300000 -7.172852 8.746801
20.300000 -6.482910 8.746801
20.300000 -5.103027 8.746801
20.200000 -4.413086 8.746801
20.100000 -3.723145 8.746801
20.100000 -3.033203 8.746801
20.100000 -3.218262 8.746801
20.300000 -7.535156 8.870521
20.300000 -6.843750 8.870521
20.300000 -6.152344 8.870521
20.300000 -6.085938 8.870521
20.200000 -4.769531 8.870521
20.200000 -4.078125 8.870521
20.200000 -3.386719 8.870521
20.100000 -2.820312 8.870521
20.100000 -2.003906 8.870521
20.200000 -1.312500 8.870521
20.300000 -7.652344 9.011246
20.300000 -6.959473 9.011246
20.300000 -5.573730 9.011246
20.300000 -4.880859 9.011246
20.200000 -4.187988 9.011246
20.100000 -3.495117 9.011246
20.100000 -2.802246 9.011246
20.100000 -2.109375 9.011246
20.300000 -7.214844 9.150034
20.300000 -6.525391 9.150034
20.300000 -5.146484 9.150034
20.300000 -4.457031 9.150034
20.200000 -3.767578 9.150034
20.100000 -3.078125 9.150034
20.200000 -2.388672 9.150034
20.300000 -6.703125 9.276036
20.300000 -5.320312 9.276036
20.200000 -4.628906 9.276036
20.200000 -3.937500 9.276036
20.100000 -3.246094 9.276036
20.100000 -2.554688 9.276036
20.100000 -1.863281 9.276036
20.200000 -1.171875 9.276036
20.700000 -10.062500 9.416322
20.400000 -7.292969 9.416322
20.300000 -6.600586 9.416322
20.300000 -5.215820 9.416322
20.300000 -4.523438 9.416322
20.200000 -3.831055 9.416322
20.100000 -3.138672 9.416322
20.200000 -2.446289 9.416322
20.100000 -1.753906 9.416322
20.300000 -1.061523 9.416322
20.300000 -7.144043 9.541497
20.300000 -6.450195 9.541497
20.300000 -5.062500 9.541497
20.200000 -5.248535 9.541497
20.200000 -3.684570 9.541497
20.100000 -3.745605 9.541497
20.100000 -2.306641 9.541497
20.300000 -6.103027 9.679182
20.300000 -4.538086 9.679182
20.200000 -4.098145 9.679182
20.100000 -3.908203 9.679182
20.100000 -2.468262 9.679182
20.100000 -1.778320 9.679182
20.200000 -1.088379 9.679182
20.300000 -5.400391 9.806074
20.200000 -4.709961 9.806074
20.200000 -4.019531 9.806074
20.100000 -3.329102 9.806074
20.100000 -2.638672 9.806074
20.100000 -1.948242 9.806074
20.200000 -1.257812 9.806074
20.300000 -4.511719 9.946197
20.200000 -3.820312 9.946197
20.100000 -3.128906 9.946197
20.100000 -2.437500 9.946197
20.100000 -1.750977 9.946197
20.200000 -1.064453 9.946197
20.100000 -4.561035 10.072058
20.200000 -3.871094 10.072058
20.100000 -3.181152 10.072058
20.100000 -2.491211 10.072058
20.100000 -1.801270 10.072058
20.200000 -1.736328 10.072058
20.700000 -10.016113 10.212106
20.300000 -8.252441 10.212106
20.300000 -6.561523 10.212106
20.300000 -5.179688 10.212106
20.300000 -4.488770 10.212106
20.200000 -3.797852 10.212106
20.100000 -3.106934 10.212106
20.100000 -2.416016 10.212106
20.100000 -2.350098 10.212106
20.200000 -1.034180 10.212106
20.400000 -6.414062 10.339304
20.300000 -5.029297 10.339304
20.200000 -4.336914 10.339304
20.100000 -3.644531 10.339304
20.100000 -2.952148 10.339304
20.100000 -2.259766 10.339304
