23.300000 -9.296875 1.372144
23.200000 -4.107422 1.372144
23.100000 -2.168945 1.372144
23.000000 -2.730469 1.372144
23.000000 -1.416992 1.372144
23.300000 -9.163086 1.496282
23.100000 -3.607422 1.496282
23.000000 -3.420898 1.496282
23.000000 -1.484375 1.496282
23.100000 -2.422852 1.496282
23.300000 -8.541016 1.649447
23.100000 -3.400391 1.649447
23.000000 -3.210938 1.649447
23.100000 -3.021484 1.649447
23.100000 -0.457031 1.649447
23.000000 0.232422 1.649447
23.300000 -7.828125 1.776290
23.100000 -2.343750 1.776290
23.000000 -2.158203 1.776290
23.100000 -1.847656 1.776290
23.100000 -1.912109 1.776290
23.200000 0.398438 1.776290
23.300000 -7.581543 1.902998
23.100000 -2.779297 1.902998
23.000000 -2.093262 1.902998
23.000000 -2.282227 1.902998
23.100000 -0.721191 1.902998
23.300000 -9.269043 2.042043
23.100000 -3.892578 2.042043
23.000000 -3.582031 2.042043
23.100000 -1.146484 2.042043
23.000000 -2.210938 2.042043
23.100000 -1.650391 2.042043
23.300000 -8.750000 2.168457
23.300000 -7.437500 2.168457
23.100000 -3.125000 2.168457
23.000000 -1.937500 2.168457
23.000000 -1.250000 2.168457
23.000000 -1.687500 2.168457
23.000000 -0.125000 2.168457
23.300000 -7.705078 2.452827
23.200000 -2.897949 2.452827
23.000000 -3.711914 2.452827
23.000000 -2.650879 2.452827
23.000000 -0.839844 2.452827
23.300000 -8.972656 2.577389
23.200000 -4.173828 2.577389
23.000000 -2.238281 2.577389
23.000000 -2.052734 2.577389
23.000000 -1.492188 2.577389
23.300000 -8.550781 2.720699
23.200000 -3.474609 2.720699
23.100000 -3.660156 2.720699
23.000000 -1.470703 2.720699
23.000000 -0.781250 2.720699
23.300000 -7.833984 2.841946
23.300000 -8.649414 2.841946
23.200000 -3.482422 2.841946
23.000000 -1.672852 2.841946
23.000000 -1.488281 2.841946
23.100000 -0.803711 2.841946
23.100000 -1.119141 2.841946
23.300000 -8.482422 2.980188
23.100000 -3.865234 2.980188
23.000000 -1.803711 2.980188
23.000000 -2.617188 2.980188
23.000000 -0.430664 2.980188
23.100000 -0.869141 2.980188
23.300000 -8.168945 3.118053
23.300000 -8.606934 3.118053
23.100000 -2.671875 3.118053
23.000000 -2.859375 3.118053
23.000000 -2.421875 3.118053
23.000000 -1.609375 3.118053
23.000000 0.078125 3.118053
23.300000 -7.709961 3.243172
23.200000 -2.904297 3.243172
23.100000 -2.217773 3.243172
23.000000 -2.656250 3.243172
23.000000 -0.844727 3.243172
23.300000 -7.887695 3.384585
23.100000 -3.254883 3.384585
23.000000 -3.316406 3.384585
23.000000 -1.002930 3.384585
23.100000 -1.439453 3.384585
23.100000 -1.125977 3.384585
23.300000 -9.468750 3.523957
23.100000 -2.607422 3.523957
23.000000 -3.296875 3.523957
23.000000 -1.236328 3.523957
23.000000 -1.800781 3.523957
23.000000 -1.490234 3.523957
23.300000 -9.425781 3.648119
23.200000 -2.883789 3.648119
23.100000 -2.199219 3.648119
23.000000 -1.514648 3.648119
23.000000 -2.455078 3.648119
23.300000 -9.746094 3.786108
23.100000 -2.484375 3.786108
23.000000 -3.299805 3.786108
23.000000 -1.115234 3.786108
23.000000 -1.930664 3.786108
23.000000 -0.496094 3.786108
23.300000 -8.489258 3.924095
23.200000 -4.433594 3.924095
23.100000 -3.122070 3.924095
23.000000 -3.185547 3.924095
23.000000 -2.624023 3.924095
23.300000 -8.375977 4.063371
23.200000 -4.570312 4.063371
23.100000 -4.258789 4.063371
23.000000 -1.697266 4.063371
23.000000 -1.010742 4.063371
23.000000 -1.949219 4.063371
23.100000 -1.387695 4.063371
23.300000 -8.008789 4.189075
23.100000 -4.129883 4.189075
23.000000 -1.818359 4.189075
23.000000 -1.131836 4.189075
23.000000 -1.445312 4.189075
23.000000 0.241211 4.189075
23.300000 -9.489258 4.314344
23.200000 -4.305176 4.314344
23.100000 -2.118164 4.314344
23.000000 -2.056152 4.314344
23.000000 -0.744141 4.314344
23.300000 -7.863281 4.452346
23.200000 -3.597656 4.452346
23.000000 -2.158203 4.452346
23.000000 -2.093750 4.452346
23.000000 -0.285156 4.452346
23.100000 -1.351562 4.452346
23.300000 -8.084961 4.592785
23.300000 -7.900879 4.592785
23.100000 -3.612305 4.592785
23.000000 -2.053223 4.592785
23.100000 -2.244141 4.592785
23.000000 -2.060059 4.592785
23.300000 -7.794922 4.733083
23.200000 -2.996094 4.733083
23.100000 -2.310547 4.733083
23.000000 -1.625000 4.733083
23.000000 -0.939453 4.733083
23.000000 -0.253906 4.733083
23.100000 0.431641 4.733083
23.300000 -8.156250 4.857290
23.300000 -7.718750 4.857290
23.100000 -2.657715 4.857290
23.000000 -1.970703 4.857290
23.000000 -1.283691 4.857290
23.100000 -2.221680 4.857290
23.000000 -0.409668 4.857290
23.300000 -7.582031 4.995236
23.200000 -2.786621 4.995236
23.100000 -2.976562 4.995236
23.000000 -2.291504 4.995236
23.000000 -0.731445 4.995236
23.300000 -7.824219 5.136705
23.200000 -3.504883 5.136705
23.100000 -4.066406 5.136705
23.000000 -2.752930 5.136705
23.000000 -1.064453 5.136705
23.000000 -2.000977 5.136705
23.100000 0.437500 5.136705
23.300000 -8.937500 5.262393
23.200000 -2.441406 5.262393
23.000000 -2.629395 5.262393
23.000000 -2.317383 5.262393
23.000000 -0.380371 5.262393
23.000000 0.306641 5.262393
23.300000 -9.285156 5.399973
23.200000 -3.683594 5.399973
23.000000 -2.624023 5.399973
23.000000 -2.064453 5.399973
23.000000 -0.379883 5.399973
23.000000 -0.195312 5.399973
23.300000 -7.964844 5.528545
23.200000 -3.812500 5.528545
23.000000 -1.754395 5.528545
23.000000 -1.071289 5.528545
23.000000 -1.638184 5.528545
23.000000 -0.330078 5.528545
23.300000 -8.164062 5.667389
23.300000 -8.724609 5.667389
23.100000 -4.023438 5.667389
23.000000 -3.208984 5.667389
23.000000 -3.019531 5.667389
23.000000 -1.705078 5.667389
23.300000 -7.812500 5.807619
23.200000 -3.000000 5.807619
23.100000 -3.687500 5.807619
23.000000 -1.625000 5.807619
23.000000 -0.937500 5.807619
23.000000 -0.250000 5.807619
23.100000 -1.312500 5.807619
23.300000 -9.159180 5.933207
23.300000 -9.345703 5.933207
23.200000 -4.038574 5.933207
23.000000 -3.477539 5.933207
23.000000 -3.166504 5.933207
23.000000 -0.730469 5.933207
23.300000 -8.092773 6.060125
23.100000 -2.854492 6.060125
23.000000 -2.918457 6.060125
23.000000 -1.232422 6.060125
23.000000 -0.921387 6.060125
23.300000 -7.781250 6.200333
23.200000 -4.593750 6.200333
23.000000 -2.281250 6.200333
23.000000 -2.968750 6.200333
23.000000 -0.911133 6.200333
23.000000 -1.978516 6.200333
23.100000 -1.295898 6.200333
23.300000 -8.431641 6.339020
23.200000 -4.636230 6.339020
23.000000 -2.576172 6.339020
23.000000 -2.391113 6.339020
23.000000 -2.456055 6.339020
23.000000 -1.395996 6.339020
23.100000 0.539062 6.339020
23.300000 -9.468750 6.469645
23.100000 -2.601562 6.469645
23.000000 -3.790039 6.469645
23.000000 -2.478516 6.469645
23.000000 -0.541992 6.469645
23.300000 -9.451660 6.602686
23.200000 -4.017578 6.602686
23.000000 -3.955566 6.602686
23.000000 -1.518555 6.602686
23.000000 -0.831543 6.602686
23.000000 -0.144531 6.602686
23.100000 -1.082520 6.602686
23.300000 -7.560059 6.741224
23.200000 -3.571777 6.741224
23.000000 -1.635742 6.741224
23.000000 -2.074707 6.741224
23.000000 -1.513672 6.741224
23.000000 -1.327637 6.741224
23.300000 -8.756348 6.880242
23.200000 -4.669922 6.880242
23.000000 -2.229004 6.880242
23.000000 -1.538086 6.880242
23.000000 -0.847168 6.880242
23.000000 -1.906250 6.880242
23.000000 0.529297 6.880242
23.300000 -9.750488 7.004890
23.200000 -2.379395 7.004890
23.000000 -3.067383 7.004890
23.000000 -1.255371 7.004890
23.000000 -0.318359 7.004890
23.000000 -0.631348 7.004890
23.300000 -9.263672 7.132887
23.200000 -2.833008 7.132887
23.000000 -3.021484 7.132887
23.000000 -1.959961 7.132887
23.000000 -2.398438 7.132887
23.300000 -7.906250 7.272735
23.200000 -3.787109 7.272735
23.000000 -1.727539 7.272735
23.000000 -1.042969 7.272735
23.000000 -0.358398 7.272735
23.000000 0.326172 7.272735
23.300000 -8.994629 7.412184
23.200000 -4.192383 7.412184
23.000000 -2.131348 7.412184
23.000000 -1.445312 7.412184
23.000000 -0.759277 7.412184
23.300000 -8.921875 7.551624
23.200000 -2.421875 7.551624
23.000000 -3.484375 7.551624
23.000000 -2.421875 7.551624
23.000000 -1.234375 7.551624
23.000000 -0.921875 7.551624
23.300000 -7.876465 7.676228
23.100000 -3.510254 7.676228
23.000000 -2.949219 7.676228
23.000000 -2.513184 7.676228
23.100000 -0.327148 7.676228
23.000000 -1.141113 7.676228
23.300000 -8.037109 7.813606
23.100000 -2.552734 7.813606
23.000000 -1.867188 7.813606
23.000000 -1.181641 7.813606
23.000000 -0.496094 7.813606
23.000000 0.189453 7.813606
23.300000 -8.153809 7.953235
23.300000 -8.464844 7.953235
23.200000 -4.267090 7.953235
23.000000 -1.953125 7.953235
23.000000 -1.268555 7.953235
23.000000 -0.583984 7.953235
23.300000 -7.728516 8.078596
23.200000 -2.933105 8.078596
23.000000 -2.748047 8.078596
23.000000 -2.687988 8.078596
23.000000 -1.752930 8.078596
23.000000 -0.192871 8.078596
23.100000 0.492188 8.078596
23.300000 -8.117188 8.218601
23.300000 -9.180176 8.218601
23.200000 -3.371094 8.218601
23.100000 -1.934082 8.218601
23.000000 -2.372070 8.218601
23.000000 -0.560059 8.218601
23.000000 -1.373047 8.218601
23.300000 -8.031250 8.345065
23.200000 -3.903809 8.345065
23.000000 -1.840820 8.345065
23.000000 -2.152832 8.345065
23.000000 -1.589844 8.345065
23.000000 -1.526855 8.345065
23.300000 -9.936523 8.485007
23.200000 -4.073242 8.485007
23.000000 -1.887207 8.485007
23.000000 -2.576172 8.485007
23.000000 -2.265137 8.485007
23.000000 0.170898 8.485007
23.300000 -9.537598 8.623333
23.300000 -7.472656 8.623333
23.200000 -2.643066 8.623333
23.000000 -1.953125 8.623333
23.000000 -1.269531 8.623333
23.000000 -1.710938 8.623333
23.300000 -8.239258 8.749014
23.200000 -3.058594 8.749014
23.000000 -2.122070 8.749014
23.000000 -1.435547 8.749014
23.000000 -0.749023 8.749014
23.300000 -8.109375 8.887556
23.100000 -2.609375 8.887556
23.000000 -1.921875 8.887556
23.000000 -2.984375 8.887556
23.000000 -0.546875 8.887556
23.300000 -8.841797 9.026676
23.200000 -3.361328 9.026676
23.000000 -1.801758 9.026676
23.000000 -1.117188 9.026676
23.000000 -0.432617 9.026676
23.000000 -1.498047 9.026676
23.300000 -9.312988 9.151799
23.200000 -2.885742 9.151799
23.000000 -3.699707 9.151799
23.000000 -3.263672 9.151799
23.000000 -1.702637 9.151799
23.000000 -0.641602 9.151799
23.200000 0.544434 9.151799
23.300000 -9.321289 9.283860
23.100000 -2.438477 9.283860
23.000000 -2.250000 9.283860
23.000000 -2.064941 9.283860
23.000000 -1.629883 9.283860
23.000000 0.305176 9.283860
23.300000 -7.708984 9.415633
23.200000 -4.031738 9.415633
23.000000 -2.220703 9.415633
23.000000 -1.534668 9.415633
23.000000 -1.973633 9.415633
23.300000 -8.523438 9.554508
23.100000 -3.378906 9.554508
23.000000 -1.688965 9.554508
23.000000 -2.374023 9.554508
23.100000 -1.309082 9.554508
23.100000 -0.369141 9.554508
23.300000 -9.474609 9.695543
23.100000 -3.970703 9.695543
23.000000 -1.908691 9.695543
23.000000 -2.221680 9.695543
23.000000 -1.659668 9.695543
23.000000 0.152344 9.695543
23.300000 -9.122559 9.822541
23.100000 -2.384277 9.822541
23.000000 -2.823242 9.822541
23.000000 -2.387207 9.822541
23.000000 -0.326172 9.822541
23.100000 -0.765137 9.822541
23.300000 -8.083496 9.966758
23.300000 -8.520508 9.966758
23.100000 -2.579590 9.966758
23.100000 -1.891602 9.966758
23.100000 -1.203613 9.966758
23.000000 -1.640625 9.966758
23.000000 0.168945 9.966758
23.300000 -8.596680 10.093378
23.200000 -4.294434 10.093378
23.100000 -2.233398 10.093378
23.000000 -1.297363 10.093378
23.000000 -2.611328 10.093378
23.000000 -1.925293 10.093378
23.200000 -0.989258 10.093378
23.300000 -9.458008 10.229059
23.100000 -2.469727 10.229059
23.000000 -3.533691 10.229059
23.100000 -2.597656 10.229059
23.000000 -0.411621 10.229059
23.100000 -1.475586 10.229059
