1.261869 -1.580900 2.650359
1.523941 -1.181713 3.045024
1.775590 -0.795912 3.617042
1.926148 -0.553492 4.858578
1.887813 -0.604131 5.401943
1.749338 -0.807887 5.749263
1.751392 -0.796574 6.386765
1.818432 -0.689476 6.874064
1.990925 -0.423308 7.399533
1.182795 -1.867950 1.123074
1.126084 -1.963260 1.642469
1.212487 -1.799696 2.090341
1.429881 -1.438114 -0.155816
1.620983 -1.045137 2.942624
1.840348 -0.638275 3.512416
1.956899 -0.404499 5.003913
1.933275 -0.441880 5.377204
1.800477 -0.675461 5.891466
1.779178 -0.709902 6.177943
1.824447 -0.618019 6.830488
2.021911 -0.251373 7.370682
1.317885 -1.775233 1.138248
1.271174 -1.871257 1.492432
1.346050 -1.699975 1.935748
1.501723 -1.351840 2.393072
1.646904 -1.022218 3.107790
1.844133 -0.585634 3.426047
1.940140 -0.348843 4.994626
1.965502 -0.288269 5.293738
1.850912 -0.529927 5.807594
1.838033 -0.554616 6.009367
1.871553 -0.468723 6.744510
1.994343 -0.189912 7.350592
1.736325 -0.903971 0.730081
1.448915 -1.676564 1.958095
1.542963 -1.407476 2.327878
1.662912 -1.060989 2.955775
1.885755 -0.431417 3.451896
1.998727 -0.086036 4.946447
2.023046 -0.013945 5.161154
1.871082 -0.429336 5.483550
1.833926 -0.517740 6.186441
1.884394 -0.370900 6.500823
1.973966 -0.105776 7.272433
1.595972 -1.530112 1.019065
1.564103 -1.634729 1.535301
1.607957 -1.456705 2.060248
1.678938 -1.181723 2.432383
1.794870 -0.731780 3.069982
1.942605 -0.171843 3.395301
2.004137 0.096359 4.799435
1.958624 -0.058772 5.329118
1.892698 -0.295138 5.673577
1.902652 -0.247471 6.055859
1.917111 -0.170964 6.874777
1.995745 0.136693 7.396901
1.704395 -1.408280 1.093358
1.712823 -1.330267 1.972497
1.763378 -1.049916 2.343961
1.825761 -0.694241 3.056743
1.948404 -0.032714 3.472396
1.991655 0.245491 4.792496
1.934279 -0.030310 5.478099
1.906910 -0.163939 5.751057
1.897574 -0.202171 6.036275
1.909500 -0.111310 6.770029
1.983614 0.299429 7.307913
1.901949 -0.462872 0.742677
1.826990 -1.160847 1.016994
1.811947 -1.269152 1.534638
1.807436 -1.282237 1.972313
1.832451 -1.006388 2.505834
1.895380 -0.565106 0.168631
1.923668 -0.068580 3.459856
1.970879 0.405212 3.784808
2.023742 0.951825 4.383300
2.005280 0.806343 4.835715
1.933434 0.151854 5.309769
1.907221 -0.080963 5.569821
1.893986 -0.165113 6.187334
1.907903 -0.010483 6.501043
1.937777 0.310690 7.017988
1.917375 -1.004513 1.030625
1.912036 -1.111941 1.467315
1.910048 -1.027550 1.989604
1.930521 -0.812380 -0.253702
1.912993 -0.571329 2.896982
1.924710 0.108904 3.224513
1.918982 0.372540 4.788805
1.915466 0.330623 5.159739
1.905495 0.053986 5.755381
1.902651 0.014705 6.039843
1.899313 0.106220 6.771826
1.904878 0.467844 7.038750
2.001225 -0.940120 0.959313
2.004825 -1.046756 1.394080
1.996159 -0.958967 1.832970
1.981154 -0.780445 2.359804
1.954524 -0.400501 2.739827
1.914766 0.157260 3.390591
1.881908 0.604272 4.051081
1.843711 1.181835 4.309573
1.849593 1.017682 4.931198
1.887606 0.369656 5.317956
1.900673 0.113658 5.743355
1.895117 0.149231 6.206863
1.883358 0.290918 6.603970
1.860101 0.582463 7.290049
1.960441 0.004661 0.335725
2.091039 -0.992254 1.298903
2.075508 -0.906927 1.820223
2.063165 -0.700932 -0.409752
2.031437 -0.493855 0.028310
1.951805 -0.073626 3.031603
1.857438 0.579759 3.617042
1.777857 1.125455 4.212302
1.794464 0.981446 4.664714
1.865712 0.448335 4.984353
1.897251 0.197283 5.413964
1.902202 0.137836 5.864909
1.880645 0.268999 6.344825
1.846286 0.491920 6.844647
2.122562 -0.647781 2.206403
2.058138 -0.372760 2.579997
1.973797 -0.014698 3.130006
1.825551 0.627121 3.714895
1.699871 1.170800 4.224350
1.706619 1.125686 4.684929
1.820636 0.609721 4.919635
1.898077 0.245464 5.502149
1.886430 0.282273 5.965381
1.873830 0.325988 6.347167
1.960838 0.235630 0.514908
2.078057 -0.148385 0.958941
2.256866 -0.726363 1.308954
2.227409 -0.644908 1.828269
2.198614 -0.559849 2.108223
2.111886 -0.294376 2.561718
1.938022 0.246146 3.121846
1.763808 0.791388 3.530745
1.597699 1.302436 4.290701
1.604240 1.274703 4.579863
1.799618 0.638996 5.137277
1.870261 0.405795 5.479164
1.879487 0.369675 5.761330
1.842297 0.472826 6.403936
1.764533 0.712688 6.733954
2.304902 -0.551859 0.997892
2.306814 -0.575021 1.947204
2.243863 -0.372223 -0.352571
2.130682 -0.147800 2.764210
1.915168 0.386562 3.163095
1.706961 0.897469 3.824436
1.569215 1.236077 4.230954
1.614483 1.116835 4.509280
1.776608 0.701109 4.920074
1.876992 0.435597 5.593648
1.896743 0.377274 6.040629
1.836946 0.521660 6.352006
1.709276 0.834489 6.780967
2.387436 -0.451064 1.247645
2.389161 -0.461483 1.681627
2.346865 -0.380977 1.959113
2.218694 -0.130743 2.408535
2.051927 0.194192 3.034121
1.796113 0.700179 3.522426
1.590331 1.104255 4.099529
1.565961 1.144411 4.648174
1.707519 0.857353 4.818605
1.864965 0.533147 5.315874
1.883647 0.489782 5.680379
1.874364 0.498401 6.306011
1.803740 0.635236 6.619125
1.493298 1.246733 7.370353
2.414231 -0.267598 0.892386
2.414924 -0.275943 1.405868
2.417534 -0.285274 1.759154
2.322299 -0.132321 2.281368
2.125036 0.194353 2.658210
1.931959 0.512730 3.124625
1.699758 0.893222 3.857137
1.510715 1.205680 4.261332
1.574275 1.094867 4.537240
1.850682 0.624222 4.932463
1.935902 0.472473 5.529540
1.857420 0.599091 5.919050
1.798934 0.688552 6.559633
1.681966 0.878444 7.055535
2.428104 -0.066897 1.031867
2.449408 -0.075915 -0.662992
2.324821 0.062748 2.260635
2.163278 0.282599 2.793883
1.884481 0.668530 3.185528
1.622028 1.027352 3.918761
1.465820 1.241426 4.313929
1.601052 1.047616 4.661627
1.811578 0.745436 5.240534
1.758315 0.849176 2.874935
1.876032 0.644161 6.130136
1.790867 0.758694 6.522876
1.600891 1.018659 7.034777
2.425241 0.135816 1.043751
2.313813 0.252729 2.356757
2.132706 0.461304 2.810972
1.894032 0.736714 3.360883
1.591956 1.087600 3.847346
1.432370 1.268721 4.489279
1.514411 1.168965 4.760928
1.790608 0.840630 4.996170
1.836194 0.780170 5.602547
1.866271 0.740727 5.962180
1.730067 0.894167 6.613554
1.528441 1.125401 7.207269
2.405713 0.336735 1.108173
2.480264 0.258070 1.536536
2.283906 0.445881 2.329743
2.082781 0.642723 2.698935
1.891298 0.828248 3.236907
1.625984 1.088896 3.626283
1.389374 1.316651 4.438912
1.479149 1.224399 4.709315
1.730546 0.968737 5.201422
1.831299 0.864770 5.547863
1.871961 0.819785 5.987602
1.689123 0.998878 6.308440
1.414431 1.265022 7.080182
1.911366 0.928660 0.430676
2.368439 0.539218 0.869868
2.448988 0.465810 1.458583
2.315178 0.570508 2.326965
2.171640 0.688885 2.609003
1.891969 0.918845 3.231813
1.762976 1.023350 3.686093
1.398875 1.327310 4.007131
1.289486 1.413629 4.638907
1.615799 1.136324 4.874881
1.717446 1.070501 2.747617
1.660272 1.114522 3.195144
1.751408 1.008867 6.280449
2.326884 0.704496 1.475281
2.339667 0.690003 2.070459
2.186308 0.798422 2.354872
1.960613 0.957661 2.809706
1.748475 1.105595 3.434518
1.619915 1.193800 3.977238
1.317301 1.409861 4.297434
1.360052 1.374248 4.829623
1.787899 1.062800 5.054381
1.839252 1.021038 5.578284
1.816346 1.032868 6.115807
1.619119 1.171933 6.523276
1.207420 1.464195 7.149894
2.255164 0.902554 1.060639
2.345942 0.844204 1.492883
2.353398 0.836758 1.846430
2.198319 0.925922 2.368942
2.045747 1.014203 2.816142
1.722342 1.206029 3.200654
1.743934 1.190001 3.561088
1.445722 1.364488 4.202997
1.149438 1.538403 4.774040
1.508508 1.320564 4.929561
1.892920 1.085453 5.323672
1.810437 1.152569 3.240660
1.750323 1.163076 6.327394
1.313117 1.421555 6.948803
1.634466 1.358685 0.382997
2.171086 1.089248 0.901768
2.263655 1.040667 1.254954
2.273361 1.031777 1.768496
2.197019 1.066031 2.206389
1.942668 1.188830 2.576887
1.710237 1.298160 3.277757
1.722773 1.290388 3.475242
1.594799 1.348075 4.176082
1.090857 1.593862 4.597855
1.223061 1.525033 5.033149
1.679706 1.317735 2.715338
1.944887 1.161854 5.824910
1.646354 1.305496 6.321042
1.277242 1.483179 6.924230
2.183079 1.203203 1.436132
2.098433 1.234750 1.791977
1.857855 1.324776 2.756022
1.610269 1.420921 3.294560
1.171604 1.587339 4.758363
1.283938 1.540391 4.945562
1.985836 1.252705 5.380890
2.120913 1.195363 5.721463
1.639296 1.385808 6.325216
1.154254 1.578154 6.862257
2.071368 1.383969 1.208487
2.092716 1.370879 2.071469
1.884168 1.451611 -0.055153
1.752241 1.470076 2.959021
1.494500 1.546769 3.416924
1.229005 1.619138 4.775117
1.561866 1.512641 5.180092
2.162978 1.324306 5.378083
1.872322 1.429887 3.341680
1.629263 1.482377 6.425280
1.023931 1.667019 6.896296
2.093663 1.519768 -0.994828
1.982166 1.523684 1.986073
1.870466 1.565083 -0.139646
1.633181 1.597849 2.871535
1.277172 1.695851 0.726609
1.230532 1.784049 0.465080
1.428132 1.753497 0.740185
1.927744 1.677605 1.247908
1.937232 1.673132 1.677659
1.849765 1.683223 2.031577
1.670693 1.705930 2.472306
1.496897 1.727843 2.917483
1.230634 1.781229 0.853738
1.070758 1.775268 4.882519
1.997707 1.654869 2.996824
1.776245 1.835994 0.816203
1.880841 1.826629 1.246474
1.893082 1.822243 1.756591
1.786913 1.843171 -0.276425
1.626661 1.832549 2.554078
1.353156 1.845745 3.007164
1.178199 1.871013 0.945403
1.725719 1.975884 1.433485
1.732878 1.974120 1.703882
1.648480 1.969044 2.137096
1.478379 1.960760 2.737694
1.195962 1.952046 3.029504
1.127445 1.947272 3.472494
1.657561 2.123077 1.563586
1.575514 2.110566 2.078367
1.396984 2.088235 2.517637
1.218685 2.066471 2.881228
0.950715 2.034419 3.336300
0.585458 1.984821 4.779358
1.424459 2.087840 2.983440
1.739861 2.100388 5.952726
1.289322 2.049513 6.298288
1.485227 2.242012 1.059451
1.408506 2.221681 1.922762
1.291273 2.214951 -0.109432
1.089234 2.174791 0.321303
0.797780 2.099415 3.345128
0.518159 2.038905 4.620237
0.860966 2.098790 5.026000
1.413499 2.196786 5.477370
1.364536 2.185157 5.842885
0.955220 2.105862 6.431323
0.517303 2.151779 0.517323
1.431493 2.413185 -1.307012
1.400015 2.383366 1.568980
1.302550 2.371900 -0.453081
1.148253 2.308053 2.520504
0.985940 2.260157 3.044848
0.518486 2.149699 0.841704
0.651798 2.156908 4.752658
0.989740 2.245584 5.153340
0.983730 2.259807 3.011144
1.105130 2.270465 6.019529
0.706602 2.158016 6.611202
0.545008 2.251578 0.413744
0.733856 2.316095 0.689098
1.220895 2.480783 1.623871
1.144628 2.450012 2.135226
0.976743 2.387471 2.575172
0.808861 2.325503 2.939672
0.550402 2.231507 3.315118
0.572265 2.229226 4.634367
0.714245 2.276086 5.058614
0.964434 2.360633 5.545642
0.940941 2.348373 6.070538
0.539928 2.203077 6.581314
0.538051 2.372184 0.309419
0.999351 2.572891 1.167412
1.013962 2.594668 -0.774497
0.935002 2.536621 2.104009
0.768497 2.458942 2.462726
0.614849 2.385764 2.984928
0.371228 2.272658 3.439632
0.207531 2.208976 2.172288
0.535416 2.332886 5.176288
0.440191 2.306223 3.113331
0.476306 2.298676 6.150662
0.245464 2.192371 6.470738
0.892120 2.687581 1.073900
0.992692 2.737395 1.654463
0.897737 2.702898 -0.436455
0.667390 2.555234 2.365947
0.430664 2.422600 2.892852
0.288350 2.341153 3.420072
0.297103 2.336544 4.571486
0.146209 2.271456 2.512652
0.410615 2.389745 5.598705
0.358087 2.358934 5.885535
0.254273 2.298224 6.429754
0.729546 2.815849 1.451132
0.658487 2.764634 1.878748
0.555317 2.712950 -0.138979
0.367503 2.561771 2.831675
0.134429 2.403341 3.122507
-0.087837 2.264769 1.943751
0.042445 2.325279 5.045210
0.154122 2.397754 5.305800
0.069084 2.334838 6.006733
-0.038266 2.259025 6.471481
-0.234340 2.124373 6.875816
-0.672006 1.827594 7.337945
0.593710 2.922550 1.272924
0.519252 2.881800 -0.657086
0.433745 2.811797 -0.314367
0.242229 2.635833 2.567313
0.034395 2.491667 0.534807
-0.030703 2.405622 4.407236
-0.400835 2.135292 2.285446
-0.302740 2.208120 2.717313
-0.048023 2.379358 5.809163
-0.330211 2.178650 3.597138
-0.316938 2.159667 6.835500
-0.677680 1.874910 7.114789
0.271737 2.893004 1.114952
0.278195 2.895618 1.461253
0.218665 2.835508 1.968212
0.084673 2.707851 2.324665
-0.042938 2.585297 2.764299
-0.535489 2.113934 4.290261
-0.805926 1.885021 2.058522
-0.249308 2.371785 5.048597
-0.190359 2.420649 5.641193
-0.525435 2.132303 3.360718
-0.400653 2.218295 6.406312
-0.624978 2.004709 6.989295
0.027617 2.905035 0.981509
0.042976 2.943989 -1.107060
0.033249 2.928844 -0.683453
-0.076354 2.777564 2.262011
-0.313196 2.540379 0.158035
-0.968438 1.776928 4.462051
-0.585644 2.190518 5.007743
-0.420592 2.367859 5.336449
-0.437677 2.343570 5.862375
-0.516177 2.251814 6.405576
-0.760209 1.981741 6.662502
-1.075092 1.628423 7.450375
-0.194019 2.953430 -1.457539
-0.146273 2.981056 1.479689
-0.199086 2.908346 1.831085
-0.340371 2.747462 -0.101042
-0.474923 2.539796 2.709647
-1.090308 1.716158 4.790124
-0.913577 1.973446 2.420346
-0.603462 2.340229 5.495583
-0.699964 2.211391 5.794295
-0.763091 2.122095 6.418277
-0.906391 1.931257 6.821001
-1.267953 1.454129 7.463403
-0.430334 2.872992 0.928743
-0.424361 2.876551 1.353597
-0.428301 2.896676 -0.655859
-0.511468 2.731956 2.290670
-0.715962 2.415244 2.740618
-0.872614 2.204684 0.618749
-1.060675 1.879280 3.659659
-1.360038 1.416702 4.236613
-1.288363 1.522147 4.506872
-1.029447 1.908468 5.066508
-1.098337 1.832956 2.818789
-0.913237 2.074984 5.846941
-0.929489 2.044420 6.297658
-1.053759 2.124402 0.570141
-0.716353 2.739212 0.920704
-0.614858 2.955656 -1.082118
-0.668377 2.850995 -0.659845
-0.767296 2.662900 -0.237364
-0.959421 2.304676 0.107829
-1.044917 2.102611 3.115841
-1.173069 1.861432 3.495694
-1.528991 1.198478 4.089810
-1.505162 1.235561 4.538758
-1.189304 1.809132 4.999097
-1.113074 1.942828 5.426776
-1.093552 1.974555 5.704335
-1.101503 1.951968 6.238113
-1.206767 1.751245 6.725281
-1.496777 1.209887 7.288168
-0.958171 2.587680 0.974929
-0.910168 2.685218 1.480837
-0.944838 2.602307 1.833546
-0.978074 2.522541 2.188075
-1.125903 2.184498 2.800137
-1.275322 1.845523 3.263143
-1.385760 1.578764 4.539522
-1.467730 1.434817 2.373010
-1.251028 1.860883 5.478150
-1.223387 1.914507 5.915856
-1.274737 1.792655 6.383603
-1.409963 1.840287 0.243628
-1.340244 2.026145 0.759780
-1.134730 2.595804 1.263077
-1.140635 2.625593 -0.908381
-1.187104 2.429440 2.125026
-1.277272 2.165260 2.569963
-1.436584 1.708832 2.873226
-1.520999 1.458842 3.414276
-1.572478 1.303644 3.872555
-1.718167 0.879880 4.447352
-1.695413 0.932786 4.978026
-1.480098 1.534679 5.268422
-1.433280 1.661247 5.532907
-1.442969 1.624200 5.985418
-1.478838 1.511109 6.536258
-1.582750 1.206773 7.043755
-1.377080 2.458661 -1.574045
-1.355422 2.524536 -0.983375
-1.366616 2.405566 1.730872
-1.382078 2.330045 2.322193
-1.499864 1.868528 2.781370
-1.618084 1.407319 3.170899
-1.733996 0.929489 4.463845
-1.718743 0.975101 4.907614
-1.601729 1.409706 5.300764
-1.584023 1.464829 5.738609
-1.607624 1.357240 6.368038
-1.636594 1.233651 6.839290
-1.779651 0.668305 7.568021
-1.553198 2.367619 1.033603
-1.576005 2.195009 2.049609
-1.699548 1.450745 2.954639
-1.795615 0.884637 3.353778
-1.795327 0.823513 4.867178
-1.755973 1.041430 5.040995
-1.704620 1.311246 5.618285
-1.705232 1.285624 6.151602
-1.724240 1.157409 6.621315
-1.775893 0.840870 7.128972
-1.737562 2.238820 1.368885
-1.759800 2.154567 -0.651183
-1.755437 1.971054 2.310175
-1.796838 1.491565 2.686494
-1.835639 1.026912 3.234992
-1.896982 0.250043 4.644100
-1.889213 0.299603 5.091723
-1.819568 1.035358 5.367309
-1.809468 1.104660 5.886831
-1.807652 1.082768 6.420739
-1.817701 0.943153 6.809978
-1.876848 0.248383 7.472474
-1.909366 1.991954 0.885469
-1.904756 2.097643 1.311060
-1.903014 2.008441 1.740431
-1.904296 1.631866 2.344434
-1.909368 1.146563 2.644077
-1.911016 0.691433 3.360244
-1.908143 0.215810 4.752035
-1.905650 0.247673 5.034760
-1.895363 0.709808 5.513369
-1.890547 0.782011 6.037338
-1.888533 0.737144 6.412623
-2.095669 1.976732 -1.359466
-2.090421 1.952990 -0.854897
-2.049478 1.649733 1.944461
-2.019767 1.273617 2.473559
-1.976921 0.700938 2.944961
-1.941306 0.233829 3.422763
-1.926476 0.168422 4.864471
-1.936783 0.080089 2.574392
-1.948665 0.587402 5.798774
-1.943003 0.552711 6.255539
-1.930172 0.398768 6.565774
-1.904819 0.092624 7.159791
-2.131606 1.171524 0.320052
-2.241626 1.834716 -1.687450
-2.248165 1.905687 -1.176925
-2.195341 1.682560 1.689245
-2.151669 1.401485 2.130259
-2.105830 0.976979 0.008434
-2.023889 0.564710 3.133880
-1.970727 0.083211 0.889218
-1.949721 0.145699 5.047623
-1.954411 0.200542 5.492422
-1.970965 0.324698 5.676816
-1.976727 0.386871 6.119447
-1.943282 0.187427 6.772960
-1.868933 -0.292900 7.487600
-2.276465 1.165026 0.358963
-2.413113 1.689529 -1.143219
-2.340686 1.470124 1.563737
-2.284612 1.176194 -0.386188
-2.180101 0.831796 2.613337
-2.066755 0.372864 3.081091
-1.976232 0.004301 3.388039
-1.952056 -0.050050 4.907367
-1.940055 -0.083595 5.447625
-1.969900 0.049229 5.715213
-1.956081 0.003070 6.091649
-1.927430 -0.096910 6.732391
-1.823670 -0.516416 7.180515
-2.473722 1.386384 1.515283
-2.399241 1.104033 -0.586233
-2.263824 0.748623 2.325086
-2.118610 0.310885 3.033887
-1.971788 -0.139188 3.431407
-1.846621 -0.500063 4.742757
-1.861794 -0.440052 5.277082
-1.931383 -0.216230 5.536177
-1.953059 -0.134042 6.148514
-1.913942 -0.243282 6.709192
-1.809483 -0.559966 7.142455
-2.348942 0.629868 0.359458
-2.570202 1.202670 1.646290
-2.459998 0.936478 2.006457
-2.313698 0.581044 2.377086
-2.132621 0.141244 2.842270
-1.958990 -0.275180 3.565663
-1.809069 -0.621645 4.876419
-1.819526 -0.590301 5.161084
-1.912096 -0.352834 5.585111
-1.936093 -0.283273 6.114461
-1.847318 -0.493834 6.607489
-1.686898 -0.881159 7.140264
-2.742314 1.096984 -1.323986
-2.685508 0.991001 -0.904692
-2.531011 0.732820 2.131056
-2.402473 0.485007 2.575315
-2.188306 0.069011 3.120390
-1.930342 -0.434784 3.604840
-1.752300 -0.767124 4.908205
-1.728659 -0.806699 5.368506
-1.841625 -0.576032 5.789815
-1.867433 -0.517798 6.235184
-1.817578 -0.606470 6.876906
-1.614771 -1.002782 7.242855
-2.725715 0.778476 1.434089
-2.677904 0.704926 1.864686
-2.583125 0.517043 -0.317717
-2.382440 0.224760 2.675547
-2.056495 -0.346912 0.542062
-1.346818 -1.461727 5.267341
-1.665706 -0.929574 5.396431
-1.761089 -0.761452 6.080687
-1.741998 -0.786789 6.543481
-2.432846 0.050701 0.226856
-2.546177 0.213113 0.660368
-2.838223 0.624146 1.163726
-2.783402 0.554332 1.670584
-2.729864 0.484401 2.022219
-2.621715 0.339808 2.459822
-2.341388 -0.043206 2.920665
-1.889294 -0.663942 3.415295
-1.551042 -1.114683 4.906417
-1.532962 -1.132060 5.536150
-1.553419 -1.100225 5.820733
-1.660003 -0.945115 6.422209
-1.554170 -1.090030 6.570479
-1.313260 -1.416483 7.187956
-2.814846 0.304789 0.818878
-2.816949 0.313666 1.403948
-2.821139 0.322385 1.752685
-2.828888 0.308461 -0.339585
-2.645703 0.127191 2.623685
-2.360762 -0.228558 0.511183
-2.029414 -0.581835 3.557911
-1.646578 -1.014244 4.870279
-1.439395 -1.247874 5.615211
-1.469797 -1.208373 5.981274
-1.502485 -1.166210 6.346842
-1.352805 -1.335457 6.842982
-0.959801 -1.786939 7.498993
-2.830591 0.070311 0.985921
-2.903783 0.145994 1.331206
-2.910932 0.158097 1.834458
-2.847623 0.099146 2.184919
-2.792177 0.049554 2.694863
-2.475739 -0.284536 0.516093
-1.323619 -1.370910 5.541356
-1.419652 -1.273442 5.811741
-1.392500 -1.295583 6.275133
-2.954043 -0.081687 -1.358909
-2.907943 -0.093559 1.498670
-3.001235 -0.035148 -0.586908
-2.988784 -0.040873 -0.085963
-2.905666 -0.106271 0.336035
-2.652487 -0.291331 3.141938
-0.935295 -1.705029 5.128543
-1.152916 -1.517220 5.806886
-1.275925 -1.410578 6.242354
-1.165239 -1.499206 6.638698
-1.013754 -1.619338 7.306402
-2.320652 -0.728802 0.312859
-2.806089 -0.377805 0.743815
-2.931803 -0.304843 -1.187037
-2.977392 -0.247158 1.668690
-2.985269 -0.259808 -0.413525
-3.005433 -0.218980 2.593597
-2.888302 -0.321039 0.511822
-2.724767 -0.434955 0.859557
-0.938168 -1.670817 5.644476
-1.120578 -1.538814 5.819108
-1.120178 -1.532827 6.533426
-0.984358 -1.627934 6.765623
-0.597755 -1.897361 7.573448
-2.765432 -0.608068 0.996688
-2.891879 -0.550095 -1.092964
-2.961068 -0.505314 -0.665792
-2.948741 -0.509146 -0.243178
-3.025565 -0.459194 0.258855
-2.936687 -0.508648 0.680669
-2.852081 -0.555537 1.104829
-0.890808 -1.685825 5.722778
-0.933117 -1.657564 6.089667
-0.830235 -1.714180 6.653620
-2.599272 -0.910609 -1.724264
-2.750899 -0.832575 -1.204629
-2.909205 -0.751327 -0.690252
-2.906520 -0.730584 2.085113
-2.978924 -0.711181 0.085581
-2.974251 -0.710080 0.510849
-2.884230 -0.750571 0.937039
-0.761225 -1.746335 5.847301
-0.907059 -1.671767 6.286166
-0.738512 -1.747961 7.036106
-0.175037 -2.018688 7.529154
-2.635151 -1.035997 0.993612
-2.765590 -0.999451 -1.014510
-2.748897 -1.002823 -0.587792
-2.829775 -0.967291 -0.158761
-2.823494 -0.967122 0.188733
-2.820060 -0.965217 0.614587
-2.729171 -0.997553 1.120167
-0.607681 -1.808093 5.668649
-0.643156 -1.791749 5.955480
-0.567303 -1.815693 6.773132
-1.773841 -1.489643 0.440787
-2.414861 -1.309430 -1.578538
-2.543282 -1.248793 1.302755
-2.659826 -1.228282 -0.705527
-2.758085 -1.177023 2.150526
-2.734730 -1.199672 0.070041
-2.634464 -1.227046 0.494949
-2.734036 -1.174783 3.431701
-0.333747 -1.890845 5.467191
-0.412571 -1.862189 6.088843
-0.369560 -1.872417 6.473916
-0.180943 -1.924870 7.144924
0.322859 -2.074785 7.623130
-2.229796 -1.502961 0.871998
-2.428877 -1.457536 1.219091
-2.548324 -1.445914 -0.712272
-2.536949 -1.445826 -0.364859
-2.673670 -1.394373 2.646135
-2.522938 -1.442619 0.487279
-2.327819 -1.481528 0.915084
-0.173625 -1.912427 5.457375
-0.231651 -1.896609 5.911508
-0.210502 -1.897132 6.463457
-0.004239 -1.937283 7.049962
0.481914 -2.037289 7.697044
-1.517313 -1.749189 0.542357
-2.112290 -1.664066 0.893032
-2.257553 -1.659040 -1.206578
-2.326084 -1.628250 1.744076
-2.341413 -1.623050 2.170167
-2.214987 -1.655705 0.075390
-2.189349 -1.637923 3.034991
0.054926 -1.931219 5.566328
-0.126872 -1.901602 6.173713
-0.083433 -1.904864 6.557576
0.123979 -1.929431 7.143610
0.645330 -1.998366 7.620466
-1.926163 -1.853654 -1.481144
-2.003625 -1.846336 -1.047835
-2.085015 -1.821311 1.831080
-2.005631 -1.821984 2.341351
-1.928682 -1.823075 2.774812
-1.552525 -1.840866 3.151603
0.955604 -1.962246 5.278906
0.292953 -1.922806 5.747390
0.131141 -1.910846 6.187432
0.200254 -1.913065 6.403483
0.299068 -1.913773 7.056864
0.976063 -1.945160 7.823389
-1.707797 -1.988141 1.046418
-1.817461 -1.987717 1.552453
-1.828254 -1.985539 1.901228
-1.646385 -1.977121 2.338456
-1.407242 -1.985301 0.219350
-0.694656 -1.943351 3.187174
0.908814 -1.881384 5.327097
0.465168 -1.891990 5.650109
0.402984 -1.890552 6.104681
0.309106 -1.888844 6.726164
-1.435926 -2.112783 0.990696
-1.455667 -2.108816 1.853313
-1.282388 -2.084902 2.453505
1.048622 -1.799758 5.441454
0.595142 -1.848136 5.847267
0.555189 -1.850597 6.133559
0.572469 -1.844666 6.686737
-1.185796 -2.193312 1.505355
-1.098179 -2.174136 1.860432
-0.886651 -2.148998 -0.192783
-0.451730 -2.045117 2.765527
0.298344 -1.898842 3.344371
1.048057 -1.745742 4.871456
1.190459 -1.715265 5.353696
0.731499 -1.798625 5.844639
0.655218 -1.809161 6.382831
0.695467 -1.798737 6.768141
-0.992861 -2.284948 1.241544
-0.909486 -2.257991 1.756653
-0.726652 -2.205166 2.037564
-0.374399 -2.102221 2.736918
0.089546 -1.971166 3.046433
0.333760 -1.898690 3.680383
0.672236 -1.793745 5.165366
1.094557 -1.672702 5.682624
0.949660 -1.710254 6.041800
0.909102 -1.719379 6.329294
1.017489 -1.685063 6.900633
1.307404 -1.600077 7.511114
-0.155276 -2.119595 0.401751
-0.722769 -2.318970 1.000906
-0.727162 -2.318458 1.276413
-0.649270 -2.285922 1.875433
-0.352722 -2.196208 -0.344430
0.030842 -2.055079 0.090340
0.602915 -1.825918 3.198885
0.993808 -1.670585 5.158097
1.032642 -1.653064 5.628084
0.984287 -1.667605 6.001613
1.013410 -1.653558 6.473581
1.129905 -1.607980 6.963274
1.782069 -1.368456 7.645248
-0.535069 -2.371410 1.455270
-0.275137 -2.249172 1.900896
0.062921 -2.089874 2.521113
0.497303 -1.888369 2.912977
1.007023 -1.651003 3.488868
1.348283 -1.484633 4.823556
1.379622 -1.465949 5.379834
1.154602 -1.565997 5.728988
1.060868 -1.603249 6.437901
1.109063 -1.578847 6.741884
1.397499 -1.442972 7.265887
-0.238554 -2.358103 0.875590
-0.174147 -2.313420 1.911238
0.163834 -2.121074 2.204205
0.565364 -1.889551 2.919765
0.972246 -1.656923 3.402961
1.937928 -1.098139 5.364102
1.300107 -1.454927 5.567920
1.223590 -1.492819 6.191634
1.236336 -1.481115 6.745823
-0.066805 -2.369363 1.165971
0.320227 -2.103302 2.216908
0.637148 -1.889559 2.596752
1.112283 -1.569852 3.079948
1.089548 -1.581797 3.447880
1.212486 -1.486844 4.999387
1.559462 -1.250528 5.683945
1.350928 -1.386067 6.029189
1.282503 -1.426895 6.567661
1.478158 -1.293360 6.986348
1.821168 -1.060887 7.529870
0.210555 -2.304378 1.102392
0.202049 -2.307141 1.538462
0.346151 -2.188980 1.981792
0.720871 -1.888005 2.444280
1.077395 -1.599068 3.167167
1.445716 -1.303688 3.571783
1.665225 -1.118565 4.810009
1.682932 -1.098718 5.449277
1.497205 -1.243410 5.712228
1.435858 -1.287079 6.251664
1.456824 -1.266191 6.721862
1.681145 -1.082238 7.413438
0.990953 -1.733037 0.434202
0.541002 -2.166706 -0.758081
0.739148 -1.951897 2.200834
1.085441 -1.622538 2.668886
1.418206 -1.304116 3.315594
2.027294 -0.716066 5.031952
2.081317 -0.663270 5.249490
1.611870 -1.100601 5.550493
1.483956 -1.215426 6.075500
1.556753 -1.140772 6.727114
0.588367 -2.238325 1.258659
0.713094 -2.095345 1.699614
0.901148 -1.882064 2.149247
1.082079 -1.675731 2.687862
1.470448 -1.241783 3.005030
1.766606 -0.905546 3.746001
1.861121 -0.784919 5.231637
1.777035 -0.876101 5.423051
1.602214 -1.065340 5.852154
1.622792 -1.037538 6.319879
1.752352 -0.886759 6.989644
2.037549 -0.565696 7.447236
0.880202 -2.028444 0.895451
0.926036 -1.959100 1.774794
1.097160 -1.733195 2.226795
1.380448 -1.360535 2.862159
1.656979 -0.996407 3.513079
2.009799 -0.526751 4.778731
2.029418 -0.494965 5.335742
1.762696 -0.836071 5.575154
1.654176 -0.969869 6.100378
1.731193 -0.864928 6.584287
1.043034 -1.949480 1.171442
0.982589 -2.037882 1.525215
1.133819 -1.798175 2.053344
1.338035 -1.477810 2.512690
1.596696 -1.074526 2.904227
1.837445 -0.694276 3.641926
1.925674 -0.541275 4.953383
1.887333 -0.593200 5.494283
1.817951 -0.697511 5.683964
1.766856 -0.768005 6.306107
1.817619 -0.681304 6.959235
1.995478 -0.401775 7.398207
1.201452 -1.856114 1.215067
1.149786 -1.948194 1.491802
1.282550 -1.694038 1.942167
1.410256 -1.447964 2.481404
1.625436 -1.037349 3.124403
1.846276 -0.619758 3.531112
1.969800 -0.369601 4.856595
1.972344 -0.353962 5.578202
1.847087 -0.580867 6.006209
1.819490 -0.626714 6.374963
1.836829 -0.588610 6.758951
1.969543 -0.330936 7.448491
1.337700 -1.760333 1.088932
1.328681 -1.770082 1.688553
1.400711 -1.600157 2.134336
1.551564 -1.252597 2.595148
1.740509 -0.819046 3.071553
1.923715 -0.396727 3.643570
2.026938 -0.141154 4.968160
1.911785 -0.389688 5.570222
1.849124 -0.524407 5.927496
1.870854 -0.470228 6.227720
1.879892 -0.441633 6.697242
2.039832 -0.070772 7.320265
1.477791 -1.644772 1.271652
1.472688 -1.651626 1.631351
1.527152 -1.481715 2.241679
1.615219 -1.218463 2.700269
1.801916 -0.672772 3.102739
1.978889 -0.149294 3.769729
2.029851 0.024226 5.009217
1.907149 -0.317630 5.516477
1.860309 -0.446358 5.791587
1.896306 -0.330486 6.359226
1.939581 -0.197250 6.762869
2.083143 0.235208 7.663087
1.582371 -1.616643 1.490541
1.646480 -1.346804 2.183245
1.715716 -1.068454 2.476924
1.832101 -0.603453 2.869379
1.963658 -0.069156 3.614965
2.001301 0.113055 4.848666
1.932675 -0.139562 5.367530
1.890322 -0.291956 5.809889
1.892017 -0.269473 6.362108
1.920113 -0.145972 6.848205
2.011115 0.229235 7.559310
1.719238 -1.390134 1.129713
1.724391 -1.319030 2.171112
1.771540 -1.040103 2.544092
1.850015 -0.578476 3.100358
1.965375 0.083877 3.517630
1.983389 0.244816 4.999620
1.933386 -0.013979 5.515821
1.902208 -0.170549 5.955934
1.910327 -0.112969 6.255485
1.923533 -0.012614 6.907579
2.030469 0.605549 7.397240
1.829606 -1.241271 1.087667
1.814873 -1.352911 1.685019
1.849155 -1.157712 -0.547278
1.851669 -0.890741 2.585261
1.893448 -0.414299 2.977230
1.950899 0.244330 3.561367
1.949012 0.324124 4.865481
1.920954 0.063855 5.381128
1.903100 -0.093226 5.820576
1.906490 -0.034119 6.119203
1.913344 0.082522 6.685566
1.953655 0.568708 7.409150
1.937857 -0.381457 0.501701
1.928826 -0.982715 0.942499
1.924069 -1.090918 1.460361
1.920819 -1.103494 1.898062
1.919409 -0.921459 2.344880
1.918216 -0.649872 2.883883
1.920310 -0.080872 3.370022
1.921572 0.474603 3.954242
1.924017 1.037895 4.383442
1.918655 0.881954 4.920546
1.913403 0.461434 5.079928
1.906264 0.097710 5.581238
1.900861 -0.074471 6.101779
1.901008 0.180242 6.430114
1.898892 0.391095 7.015122
2.001255 -0.939931 1.191358
2.005188 -1.049360 1.628601
1.990458 -0.861641 1.994040
1.975289 -0.685602 2.526206
1.954886 -0.402031 2.820013
1.914135 0.147973 3.554631
1.886869 0.444260 4.692779
1.893639 0.253401 5.467697
1.906837 0.029659 5.641147
1.901533 0.042208 6.268967
1.889105 0.209401 6.497924
1.858489 0.615554 7.113543
2.065844 -0.787733 1.120545
2.078400 -0.891777 1.393765
2.094947 -0.903587 -0.672147
2.034670 -0.624277 2.278833
1.993104 -0.350113 2.734821
1.911444 0.196936 3.467418
1.830270 0.752488 3.968077
1.764315 1.194427 4.557847
1.778990 1.083671 4.667107
1.865628 0.442978 5.057228
1.900418 0.158906 5.732619
1.892176 0.194041 6.195288
1.870934 0.321396 6.675182
1.823004 0.637976 7.192555
2.174821 -0.796352 1.546636
2.151960 -0.713055 1.985659
2.107332 -0.537654 2.431745
1.996302 -0.086439 3.064677
1.862861 0.464281 3.554631
1.731955 1.001194 4.142818
1.667511 1.264638 4.460382
1.721133 1.023572 4.898551
1.863923 0.411170 5.116422
1.898374 0.248876 5.636137
1.863855 0.380458 6.112495
1.835595 0.480179 6.759530
1.733334 0.899849 7.211033
2.280664 -0.741694 -0.911839
2.212906 -0.537242 -0.482429
2.111588 -0.286383 2.471879
1.996644 0.064740 3.019471
1.792505 0.699584 3.517615
1.620296 1.233104 4.023126
1.630144 1.191005 4.482746
1.759387 0.773743 4.813707
1.899579 0.314139 5.467423
1.914630 0.255826 5.915574
1.874779 0.368795 6.474930
2.310570 -0.529456 1.212692
2.311078 -0.537362 1.567300
2.276881 -0.465332 2.166700
2.168096 -0.208828 2.618536
2.010685 0.216760 0.378598
1.763544 0.761699 3.414679
1.556077 1.251287 4.255048
1.562232 1.232452 4.459294
1.731785 0.810080 4.955746
1.866032 0.473700 5.452892
1.885814 0.417094 5.900421
1.828124 0.550218 6.294405
2.030929 0.294794 0.403184
2.164629 0.025349 0.927600
2.315781 -0.248890 -0.417236
2.224879 -0.119952 2.687325
2.003139 0.308426 2.997095
1.698428 0.894664 3.578061
1.494729 1.280891 4.328301
1.551467 1.165658 4.607500
1.745187 0.783339 4.851767
1.910719 0.450847 5.430755
1.880639 0.504977 5.726714
1.821396 0.611958 6.286061
1.715198 0.811659 6.782936
2.421252 -0.231000 1.585961
2.436869 -0.227342 -0.541085
2.269959 0.035114 -0.112368
2.123130 0.232212 2.763575
1.871586 0.630053 3.239275
1.576880 1.094742 3.901520
1.498719 1.211706 4.541548
1.666549 0.939659 4.712904
1.746600 0.841121 2.485129
1.922729 0.517570 5.479577
1.852810 0.622435 6.034771
1.734931 0.804109 6.610075
1.562431 1.074369 7.126087
2.073397 0.467983 0.370600
2.369193 0.063623 0.970923
2.433055 -0.030552 1.675374
2.381444 0.032569 2.192250
2.214849 0.249918 2.722995
1.984687 0.555371 3.023916
1.709518 0.917148 3.668454
1.440945 1.269886 4.328298
1.456445 1.245668 4.612953
1.716007 0.893285 4.935448
1.917836 0.618371 5.262206
1.890366 0.649808 5.717784
1.827905 0.725087 6.436178
1.901690 0.771576 0.398071
2.161427 0.467241 0.838543
2.424116 0.160478 1.189480
2.427930 0.151355 1.622853
2.369613 0.213841 2.060021
2.186132 0.419652 2.590409
1.939142 0.699432 3.053893
1.757635 0.904577 3.436546
1.465644 1.233261 4.174472
1.362113 1.347519 4.645584
1.712467 0.940090 4.956914
1.875534 0.747456 5.377269
1.911741 0.700877 5.819832
1.821657 0.799620 6.291565
1.902991 0.857789 0.323423
2.403587 0.359262 1.355838
2.347645 0.405133 2.226714
2.220845 0.523554 2.752559
1.949221 0.784650 3.135152
1.747757 0.978139 3.435479
1.429345 1.281339 4.171651
1.316620 1.386590 4.641613
1.616027 1.093015 4.798596
1.807168 0.900760 5.383660
1.847189 0.857312 5.826213
1.757775 0.938992 6.379923
2.445772 0.474266 1.240297
2.450092 0.467351 1.592659
2.168517 0.694867 2.557365
1.956761 0.868485 3.012952
1.753778 1.033910 3.557058
1.464779 1.273737 3.870471
1.335950 1.378372 4.253969
1.534344 1.206203 4.846228
1.793437 0.985521 5.173372
1.842691 0.939272 5.696248
1.719459 1.039927 6.002465
1.645571 1.095280 6.721900
2.323598 0.724693 1.734771
2.334742 0.713032 2.167956
2.099147 0.876972 2.455969
1.880442 1.026100 3.073218
1.823046 1.062742 3.520417
1.607282 1.211105 3.987477
1.308530 1.418680 4.388555
1.441130 1.319735 4.989726
1.807933 1.057118 5.384472
1.935230 0.963449 5.810777
1.814397 1.045438 6.197795
1.535413 1.238865 6.619644
1.064524 1.564465 7.432272
2.339104 0.855436 1.037582
2.265685 0.892930 1.829800
2.043040 1.018583 2.797886
1.652594 1.270954 0.652657
1.756522 1.182463 3.782172
1.447717 1.363949 4.259752
1.300195 1.450051 4.559694
1.689389 1.212302 5.040063
1.616651 1.274140 2.861251
1.964035 1.039592 5.971402
1.753998 1.162397 6.372483
1.328358 1.412183 7.074627
2.187262 1.076073 1.977640
2.026722 1.150878 2.499976
1.721642 1.317984 0.357614
1.630885 1.337717 3.486734
1.552549 1.366239 4.744008
1.695058 1.292093 5.253201
2.011936 1.133071 5.650793
1.878119 1.195843 6.033534
1.593113 1.331408 6.613364
1.025711 1.606698 7.089298
2.167029 1.230093 1.321378
2.176050 1.223257 1.751973
2.096751 1.250979 2.186704
1.925472 1.315283 2.548651
1.757525 1.378254 2.914249
1.522315 1.464990 3.616051
1.454254 1.481389 4.953185
1.554871 1.460037 2.599491
2.100102 1.222965 5.667744
1.961594 1.274293 6.048133
1.574436 1.421374 6.640937
1.493458 1.572969 0.275827
2.067344 1.389533 1.150169
2.076954 1.382727 1.664368
1.997984 1.403197 2.182642
1.917991 1.425161 2.543087
1.587814 1.542880 0.410145
1.398079 1.578567 3.460676
1.411386 1.565079 4.716499
2.206762 1.312210 5.745705
1.854639 1.418870 5.997636
1.445076 1.541278 6.511508
1.356122 1.691563 0.374415
1.942334 1.558886 0.971775
2.086712 1.543336 -1.223506
2.064283 1.544503 -0.711691
1.968979 1.544709 2.113230
1.750499 1.607473 0.069332
1.540774 1.630091 3.254313
1.554692 1.625608 3.450744
1.943507 1.711953 -1.076862
1.923089 1.710972 -0.564651
1.814064 1.722913 -0.213687
1.608260 1.747115 0.218282
1.393075 1.754463 3.162220
0.823245 1.819507 4.631171
1.435546 1.744747 3.728383
1.773791 1.838435 1.038905
1.793711 1.831114 1.901497
1.711580 1.832740 2.337269
1.475262 1.862159 0.132987
1.258629 1.853048 3.155597
1.297605 1.847091 3.673562
1.704243 1.995409 1.502950
1.717403 1.992802 1.932372
1.375143 1.972756 3.054922
0.989822 1.957635 3.276615
1.644796 2.128662 1.212870
1.555324 2.115744 1.643420
1.451456 2.118391 -0.312184
1.400407 2.091353 2.670555
1.043121 2.067956 0.466887
1.050522 2.047677 3.402218
0.879860 2.037471 2.214616
1.143587 2.039006 6.031197
0.941578 2.012211 6.673293
1.468750 2.257469 1.541011
1.482565 2.257055 1.968620
1.301418 2.219073 2.326338
1.133209 2.182428 2.847589
0.874494 2.128014 3.381466
0.392227 2.025052 4.586960
0.636269 2.069681 5.003845
1.176743 2.172525 5.376693
1.063593 2.145920 5.995982
0.514491 2.054635 3.803131
0.495171 2.028944 6.814913
0.513182 2.155059 0.271354
0.899488 2.256366 0.868617
1.422291 2.415021 -1.233690
1.396474 2.386667 1.641140
1.318389 2.361515 2.151606
1.095352 2.316671 -0.036037
0.873521 2.234360 2.880602
0.722389 2.188484 3.489931
0.636263 2.156276 4.656241
0.982430 2.247463 5.136488
1.217848 2.309485 5.461870
1.108411 2.274966 6.078623
0.697956 2.158852 6.588551
1.180361 2.494603 1.091531
1.191685 2.511460 -0.580270
1.025922 2.429492 2.224649
0.801183 2.362141 0.270943
0.518823 2.256173 0.623487
0.152904 2.092978 4.481676
0.301717 2.143536 4.991501
0.829333 2.333086 5.445286
0.706702 2.305082 3.229186
0.565362 2.230106 6.289365
0.156003 2.077051 6.724969
0.419300 2.336968 0.248387
1.061144 2.626800 1.269228
1.075242 2.649811 -0.822314
0.972725 2.598886 -0.397110
0.744733 2.469680 2.574551
0.588500 2.393669 3.019882
0.256298 2.235848 3.483527
0.088830 2.168750 2.134687
0.289972 2.258721 2.563348
0.634922 2.395869 5.476459
0.533132 2.343741 6.097314
0.924776 2.755648 1.248694
0.848199 2.708475 1.677656
0.663021 2.618880 -0.262284
0.484012 2.513341 0.164878
0.303577 2.386505 3.083709
0.327059 2.396975 3.438101
-0.028111 2.211348 1.393983
-0.372900 1.989478 4.478031
-0.070474 2.158484 4.887347
0.331086 2.383499 5.356463
0.133054 2.288836 3.141818
-0.010271 2.203424 3.594610
-0.085382 2.133838 6.851737
0.719288 2.817002 1.324458
0.730084 2.820599 1.750443
0.551253 2.718278 -0.341602
0.346234 2.555433 2.550013
0.203582 2.455622 2.994291
0.236332 2.473241 3.507434
-0.220380 2.161039 4.075738
-0.504779 1.964828 4.638744
-0.413294 2.046671 2.282348
0.135528 2.390898 5.193497
0.111747 2.370351 5.721496
0.001854 2.292408 6.185983
-0.278031 2.100470 6.605415
-0.505011 1.941250 7.359387
0.561524 2.930391 1.407814
0.497284 2.874247 1.914480
0.357373 2.758086 2.349835
0.083063 2.558115 0.169232
-0.073132 2.428928 0.601215
-0.192628 2.304759 3.699243
-0.716177 1.881889 4.038352
-0.588777 1.978569 4.635388
-0.175970 2.307512 4.857443
-0.038568 2.412335 5.440881
-0.067183 2.385291 5.888977
-0.235324 2.245344 6.450075
-0.419047 2.094326 6.855856
-0.817650 1.769743 7.401556
0.251851 2.903309 1.784479
0.118030 2.772802 2.138116
-0.074937 2.583715 2.739147
-0.125133 2.531775 3.175134
-0.321124 2.342053 3.549236
-0.863571 1.821364 4.137203
-0.757317 1.917975 4.568480
-0.373871 2.279774 4.789279
-0.246692 2.394767 5.370847
-0.484940 2.189584 3.241699
-0.449527 2.193930 6.213850
-0.550603 2.094182 6.600271
-0.852315 1.802650 7.122467
0.050726 2.966326 -1.598412
0.102130 3.017541 -1.090369
0.026858 2.931009 -0.748448
-0.021418 2.847415 2.115149
-0.206816 2.638534 2.557401
-0.977514 1.770145 4.401963
-0.603063 2.177581 4.868574
-0.432038 2.361575 5.278902
-0.650799 2.143271 3.149604
-0.528309 2.244179 6.349048
-0.686914 2.065221 6.752060
-0.954379 1.764212 7.358428
-0.591680 2.421446 0.433751
-0.223361 2.896465 0.940094
-0.149223 3.017743 -1.142624
-0.218668 2.922129 -0.723002
-0.345899 2.751056 -0.303362
-0.425701 2.612953 2.581871
-0.591249 2.420638 0.550402
-0.684946 2.262950 3.558326
-1.209208 1.573245 3.992583
-1.175235 1.611427 4.518727
-0.781107 2.121698 4.893137
-0.692749 2.233052 5.235998
-0.715693 2.197830 5.683771
-0.929547 1.943677 3.546546
-0.879811 1.973517 6.535097
-1.132378 1.637568 7.057516
-0.458369 2.871375 1.357891
-0.449721 2.879254 1.782026
-0.548458 2.720524 2.135959
-0.693558 2.487240 2.657786
-0.787554 2.335788 3.020819
-0.975356 2.034532 3.644573
-1.376705 1.400524 4.237256
-1.354795 1.429914 4.599412
-1.009787 1.964300 4.892333
-0.925092 2.090829 5.316083
-0.891172 2.137998 5.750656
-0.900647 2.116208 6.279940
-1.012236 1.934647 6.844032
-1.278064 1.511644 7.469030
-0.676809 2.825023 0.829040
-0.668534 2.870489 -1.179989
-0.664253 2.835482 1.678689
-0.773683 2.663381 -0.336051
-0.924406 2.339998 2.639414
-1.054391 2.094065 3.010416
-1.279619 1.695219 1.836062
-1.196218 1.802480 4.963645
-1.207941 1.814640 2.710013
-1.083949 1.995934 5.905787
-1.144078 1.877748 6.371920
-1.255146 1.666286 6.777097
-1.450163 1.297757 7.304204
-0.988637 2.576247 0.995905
-0.942987 2.673086 1.419941
-0.973772 2.593637 1.927270
-1.073634 2.404198 -0.256937
-1.156270 2.163407 2.649015
-1.392683 1.659271 0.600128
-1.408541 1.554293 4.454338
-1.382187 1.605287 4.974648
-1.234019 1.935577 5.455044
-1.251981 1.887944 5.822707
-1.296999 1.775259 6.368446
-1.396003 1.543088 6.691271
-1.632477 0.990832 7.333663
-1.165572 2.582055 1.257848
-1.171745 2.611978 -0.911455
-1.186800 2.504164 1.962106
-1.272604 2.240745 2.486335
-1.388028 1.890081 3.025164
-1.567606 1.352359 3.509079
-1.578175 1.289653 4.940159
-1.529887 1.423691 5.286564
-1.448713 1.654589 5.617252
-1.462107 1.607103 5.986683
-1.465004 1.586798 6.519592
-1.560411 1.293838 7.105377
-1.360305 2.536065 -1.291883
-1.362093 2.519321 -0.944650
-1.388345 2.404020 -0.442749
-1.463529 2.104900 -0.100102
-1.612923 1.517763 0.326364
-1.687647 1.138509 3.552586
-1.769471 0.864638 2.106473
-1.636182 1.291032 5.156818
-1.569317 1.536639 5.570818
-1.575695 1.499256 6.022735
-1.609169 1.359395 6.410580
-1.703512 0.976760 7.097214
-1.557662 2.365470 1.165261
-1.553094 2.373947 1.594012
-1.564625 2.288909 2.024993
-1.624773 1.917669 2.553144
-1.717319 1.357413 3.105524
-1.798043 0.879207 3.338077
-1.795397 0.827213 4.939381
-1.751915 1.065296 5.277958
-1.705512 1.317091 5.693335
-1.705817 1.292809 6.228603
-1.749305 1.030239 6.471662
-1.797522 0.725555 7.063367
-1.807830 1.626584 0.364462
-1.760683 2.124509 0.875906
-1.748452 2.229507 1.303063
-1.754667 2.135924 1.576073
-1.767730 1.950486 2.012656
-1.795730 1.579627 2.624194
-1.859731 1.028548 0.409379
-1.863172 0.736759 3.483213
-1.852666 0.753307 4.747100
-1.833529 0.923511 5.343306
-1.818299 1.069344 5.691332
-1.826694 0.934571 6.161955
-1.822593 0.930470 6.783849
-1.858743 0.486521 7.148908
-1.924858 1.891638 1.887007
-1.922703 1.609575 2.329791
-1.940393 1.072491 0.121502
-1.919411 0.662891 3.264046
-1.910837 0.093363 4.749247
-1.908069 0.135007 5.116034
-1.903352 0.686699 5.500592
-1.900344 0.834588 5.847735
-1.896827 0.713902 6.400494
-2.071886 1.822546 0.990970
-2.096597 1.959855 -1.102614
-2.067136 1.842044 1.847112
-2.036949 1.460797 2.293338
-1.999531 0.995273 2.916143
-1.956283 0.416576 3.234246
-1.912425 -0.070164 4.546715
-1.923381 -0.131407 2.411101
-1.948817 0.528437 5.383021
-1.950057 0.598971 5.907239
-1.945058 0.591088 6.527497
-2.160287 1.246859 0.272814
-2.260133 1.803066 -1.579063
-2.246374 1.844086 1.206671
-2.233424 1.666978 -0.810564
-2.183126 1.359178 -0.471381
-2.105791 1.004849 2.607685
-2.030135 0.543680 3.156775
-1.955205 0.083975 3.636907
-1.918978 -0.089221 4.924156
-1.955721 0.170632 5.429149
-1.974725 0.305296 5.696020
-1.981220 0.367672 6.138939
-1.957963 0.240084 6.612590
-1.874566 -0.271068 7.157733
-2.199573 0.887415 0.505851
-2.387708 1.630719 -1.583055
-2.354064 1.576467 1.284915
-2.330830 1.492616 1.794698
-2.240752 1.116750 2.161533
-2.130172 0.660755 2.783597
-2.019601 0.197450 3.172626
-1.795718 -0.705919 5.061539
-1.944050 -0.050867 5.602494
-1.971229 0.071824 5.786122
-1.962264 0.050283 6.325775
-2.477916 1.370415 1.036371
-2.477369 1.374940 1.303678
-2.447291 1.293467 1.810422
-2.326194 0.926446 2.174309
-2.177398 0.417348 0.123715
-2.000954 -0.054604 3.353457
-1.784147 -0.694013 4.765311
-1.759036 -0.766961 4.976509
-1.933365 -0.211613 5.612472
-1.940202 -0.185823 5.809712
-1.929566 -0.206212 6.350751
-2.583990 1.157309 0.909937
-2.583509 1.164050 1.335667
-2.547464 1.088596 1.922338
-2.396595 0.734047 2.288353
-2.209837 0.295284 2.748246
-1.988461 -0.224530 3.308596
-1.724456 -0.827521 4.889562
-1.655300 -0.988997 5.113624
-1.865290 -0.478856 5.502616
-1.889569 -0.410900 6.031606
-1.907925 -0.360205 6.394839
-2.758776 1.069302 -1.435793
-2.717752 1.033414 1.345315
-2.628751 0.869988 1.856670
-2.451204 0.496742 -0.171279
-2.261934 0.137751 0.177366
-2.005068 -0.310620 3.156322
-1.692613 -0.886413 4.818930
-1.576451 -1.102494 5.306826
-1.783507 -0.697643 5.707960
-1.840652 -0.584729 5.894940
-1.827475 -0.601656 6.439660
-1.726791 -0.786519 7.019207
-2.733911 0.736165 0.833644
-2.786888 0.828777 1.337034
-2.684245 0.667394 1.689861
-2.587950 0.485045 -0.256007
-2.438930 0.284387 2.731449
-2.138550 -0.194372 3.287268
-1.653148 -0.951868 5.374351
-1.744652 -0.795541 5.976323
-1.730842 -0.810482 6.522142
-2.785760 0.505763 0.888711
-2.846246 0.592645 1.315256
-2.810486 0.519216 -0.774051
-2.678987 0.376973 2.182512
-2.513098 0.159061 2.709169
-2.192656 -0.300516 0.508471
-1.950566 -0.589958 3.655754
-1.720373 -0.885452 4.959963
-1.584584 -1.061175 5.611623
-1.605811 -1.029067 5.896027
-1.642018 -0.974722 6.345858
-1.528336 -1.119417 7.093040
-1.054210 -1.751928 7.790402
-2.818255 0.272149 0.941315
-2.885570 0.352578 1.287957
-2.824273 0.287401 1.717016
-2.765501 0.198625 -0.299352
-2.714290 0.172339 2.660779
-2.358100 -0.257038 0.476373
-1.951204 -0.688319 3.451088
-1.655959 -1.005978 5.173752
-1.422271 -1.267655 5.590486
-1.504371 -1.172096 5.778992
-1.551773 -1.112331 6.311881
-1.400013 -1.279816 6.809017
-0.880911 -1.862707 7.585537
-2.940354 0.149534 -1.103383
-2.909864 0.148212 1.754736
-2.847825 0.091605 2.183075
-2.763036 -0.011011 0.245356
-2.456846 -0.281649 3.232679
-0.927474 -1.763664 5.142585
-1.326764 -1.366988 5.618139
-1.431245 -1.260910 5.970566
-1.422907 -1.262800 6.599446
-2.443384 -0.496866 0.357649
-2.748926 -0.238639 0.867577
-2.951054 -0.091047 -1.298866
-3.007762 -0.039287 -0.791139
-2.997057 -0.044957 -0.445024
-2.929781 -0.074261 2.411624
-2.792484 -0.184110 2.849142
-1.037062 -1.616369 5.450177
-1.242243 -1.441408 5.959830
-1.281644 -1.405308 6.327375
-1.115681 -1.537604 6.908897
-0.793763 -1.799673 7.448948
-2.801993 -0.408223 1.021913
-2.888303 -0.344331 1.445918
-3.068217 -0.236283 -0.556738
-2.975228 -0.297478 -0.136127
-2.886297 -0.355822 0.286951
-2.801387 -0.410655 0.791191
-0.796601 -1.770130 5.250685
-1.013424 -1.614441 5.762553
-1.063675 -1.575461 6.214023
-0.977554 -1.629876 6.863216
-0.703340 -1.817333 7.299924
-2.152812 -0.996254 0.465397
-2.757547 -0.642043 0.895171
-2.846624 -0.587530 1.241639
-2.940210 -0.529773 1.664408
-2.954222 -0.517498 2.167031
-2.935820 -0.545350 0.085948
-2.987522 -0.491833 2.936848
-2.930686 -0.520583 3.446381
-0.851661 -1.708764 5.549921
-0.912771 -1.668910 6.085108
-0.862346 -1.695677 6.384465
-0.762739 -1.748751 6.951950
-0.257352 -2.035653 7.697125
-2.702796 -0.843870 0.988075
-2.827254 -0.798891 -0.943405
-2.897116 -0.742995 1.833812
-2.911045 -0.732883 2.257498
-2.929477 -0.720591 2.680955
-2.882029 -0.759478 0.678221
-2.890121 -0.732883 3.535065
-0.723660 -1.766620 5.559708
-0.787681 -1.731350 6.094877
-0.680560 -1.778771 6.660152
-0.479541 -1.872191 7.162664
-1.875980 -1.357869 0.506509
-2.528940 -1.103634 0.859557
-2.756367 -1.030791 -1.069674
-2.823729 -0.982965 1.788559
-2.835065 -0.975935 2.136466
-2.810911 -0.999384 0.288463
-2.875707 -0.953816 2.980808
-2.809532 -0.994642 0.977421
-0.412285 -1.881333 5.782035
-0.551689 -1.824918 6.136504
-0.613736 -1.797567 6.587221
-0.391663 -1.879931 7.003006
0.180147 -2.095799 7.578504
-2.428899 -1.309535 0.994671
-2.654805 -1.257934 -0.937888
-2.734736 -1.231404 -0.509852
-2.722045 -1.231374 -0.007657
-2.717230 -1.230208 0.338023
-2.715611 -1.228109 0.683728
-2.728433 -1.203107 3.540569
-0.430830 -1.858478 5.649082
-0.512616 -1.829990 6.267393
-0.293964 -1.890146 6.765447
-2.293271 -1.511561 -1.569892
-2.465261 -1.471714 -1.131807
-2.539590 -1.433814 1.889340
-2.549491 -1.429745 2.157572
-2.522883 -1.450083 0.148904
-2.421561 -1.468566 0.574305
-0.083333 -1.930388 5.559769
-0.239367 -1.893923 6.000353
-0.232011 -1.890853 6.635329
-0.000517 -1.937123 7.053906
0.597119 -2.060239 7.632780
-2.145286 -1.697670 -1.328065
-2.223708 -1.684575 -0.893480
-2.309762 -1.671093 -0.539774
-2.333294 -1.646880 2.408023
-2.192151 -1.679307 0.395278
-1.994979 -1.682929 3.372255
0.178022 -1.943313 5.560029
-0.045164 -1.913663 5.738962
-0.021776 -1.912652 6.292121
0.104985 -1.925255 6.778970
0.391989 -1.956730 7.472959
-1.946243 -1.855923 1.048007
-2.086031 -1.865496 -1.129548
-2.066364 -1.844648 1.904765
-1.984296 -1.845067 2.338261
-1.902828 -1.846013 2.694607
-1.531235 -1.858671 3.152855
0.877737 -1.946772 5.277758
0.225494 -1.916051 5.663055
0.064200 -1.905979 6.104513
0.095316 -1.903960 6.573586
-0.983917 -1.984746 0.278309
-1.182541 -1.989690 0.717510
-1.686048 -2.007109 1.147534
-1.808832 -2.026021 -0.799036
-1.715715 -2.001016 2.168866
-1.528894 -1.991393 2.451289
-1.082935 -1.987845 0.408480
-0.698714 -1.949773 3.546993
0.595696 -1.882492 5.589233
0.370585 -1.890374 5.768271
0.294271 -1.889623 6.307820
0.478425 -1.876731 7.062779
0.989150 -1.851920 7.625794
-0.932988 -2.063389 0.321456
-1.329868 -2.106071 0.757192
-1.453597 -2.131327 -0.768885
-1.365665 -2.099728 2.214195
-1.193602 -2.076103 2.737540
-0.709725 -2.018625 2.962831
-0.363406 -1.973500 3.678581
0.740835 -1.832691 5.533520
0.581597 -1.847887 5.976660
0.528140 -1.851390 6.347750
0.626383 -1.835343 7.002302
1.150077 -1.771471 7.477561
-1.153359 -2.207741 1.129897
-1.067696 -2.202833 -0.561091
-0.898130 -2.147435 2.362097
-0.437138 -2.050754 2.907424
0.223507 -1.914920 3.315517
1.320019 -1.680260 5.256753
0.754904 -1.789798 5.820987
0.727331 -1.793872 6.022952
0.745646 -1.786162 6.575748
-0.404132 -2.129599 0.424503
-0.634829 -2.180572 2.251245
-0.267725 -2.075106 2.628055
0.271362 -1.919550 3.273209
0.250761 -1.923223 3.554821
1.007292 -1.696236 5.631423
0.863027 -1.733931 5.989137
