24.500000 -7.086914 0.172039
24.400000 -8.587891 0.172039
24.700000 -5.467773 0.172039
24.500000 -9.285156 0.269039
24.500000 -7.663086 0.269039
24.400000 -8.166016 0.269039
24.600000 -9.578125 0.417039
24.500000 -7.587402 0.417039
24.400000 -8.221680 0.417039
24.600000 -10.539062 0.564038
24.600000 -9.296875 0.564038
24.500000 -8.929688 0.564038
24.400000 -8.187500 0.564038
24.500000 -8.204102 0.714039
24.400000 -8.712891 0.714039
24.600000 -4.131836 0.714039
24.500000 -9.329102 0.860039
24.400000 -6.583984 0.860039
24.400000 -7.463867 0.860039
24.600000 -5.233398 0.860039
24.600000 -7.585937 1.006038
24.500000 -8.591309 1.006038
24.500000 -8.471680 1.006038
24.600000 -9.353516 1.162038
24.500000 -6.732910 1.162038
24.400000 -7.237305 1.162038
24.600000 -7.347656 1.310039
24.500000 -8.724121 1.310039
24.400000 -7.225586 1.310039
24.600000 -8.404297 1.458040
24.500000 -7.033691 1.458040
24.400000 -6.413086 1.458040
24.500000 -9.209473 1.604038
24.500000 -7.590820 1.604038
24.400000 -7.097168 1.604038
24.500000 -3.497559 1.604038
24.600000 -7.388672 1.752038
24.500000 -8.019531 1.752038
24.400000 -7.400391 1.752038
24.500000 -9.414063 1.900039
24.500000 -8.796875 1.900039
24.400000 -7.929688 1.900039
24.500000 -7.154297 2.046039
24.400000 -6.535156 2.046039
24.300000 -7.416016 2.046039
24.500000 -5.564453 2.046039
24.500000 -9.038086 2.194039
24.500000 -8.669922 2.194039
24.400000 -7.426758 2.194039
24.500000 -7.446289 2.348039
24.500000 -6.826172 2.348039
24.400000 -6.206055 2.348039
24.500000 -8.436523 2.497039
24.400000 -7.441895 2.497039
24.600000 -5.093750 2.497039
24.500000 -9.458008 2.644039
24.500000 -7.213379 2.644039
24.400000 -7.468750 2.644039
24.500000 -9.560547 2.793039
24.500000 -8.942383 2.793039
24.400000 -8.074219 2.793039
24.500000 -7.318848 2.939039
24.400000 -7.574219 2.939039
24.400000 -7.454590 2.939039
24.500000 -5.101074 2.939039
24.500000 -9.251953 3.086039
24.400000 -7.507324 3.086039
24.400000 -7.387695 3.086039
24.600000 -3.409180 3.086039
24.600000 -9.782715 3.233039
24.600000 -9.039062 3.233039
24.500000 -8.045410 3.233039
24.400000 -8.051758 3.233039
24.600000 -5.458496 3.233039
24.500000 -8.966797 3.391039
24.500000 -8.847656 3.391039
24.500000 -8.353516 3.391039
24.600000 -9.133789 3.537039
24.500000 -6.515137 3.537039
24.300000 -6.896484 3.537039
24.500000 -5.421875 3.537039
24.700000 -9.243652 3.685039
24.600000 -7.625977 3.685039
24.500000 -7.758301 3.685039
24.500000 -7.390625 3.685039
24.600000 -3.809570 3.685039
24.600000 -8.980957 3.833039
24.500000 -8.615234 3.833039
24.500000 -7.624512 3.833039
24.600000 -9.625977 3.978039
24.500000 -7.007812 3.978039
24.400000 -8.514648 3.978039
24.600000 -5.173828 3.978039
24.500000 -7.255859 4.125039
24.400000 -7.885254 4.125039
24.400000 -6.014648 4.125039
24.600000 -8.476562 4.273038
24.500000 -6.980957 4.273038
24.500000 -8.110352 4.273038
24.700000 -4.632324 4.273038
24.600000 -7.654785 4.428040
24.500000 -6.784180 4.428040
24.500000 -8.038574 4.428040
24.600000 -7.757813 4.577039
24.500000 -7.136719 4.577039
24.400000 -6.140625 4.577039
24.500000 -7.230957 4.724039
24.400000 -7.734375 4.724039
24.400000 -7.491699 4.724039
24.600000 -9.585938 4.872039
24.500000 -8.343750 4.872039
24.400000 -6.351562 4.872039
24.700000 -5.015625 4.872039
24.500000 -7.195313 5.019039
24.500000 -6.579102 5.019039
24.400000 -6.712891 5.019039
24.500000 -3.998047 5.019039
24.600000 -9.117188 5.167039
24.400000 -8.498047 5.167039
24.400000 -7.753906 5.167039
24.600000 -9.429688 5.313039
24.500000 -6.810059 5.313039
24.400000 -7.315430 5.313039
24.500000 -7.302734 5.469039
24.500000 -8.185059 5.469039
24.400000 -7.942383 5.469039
24.500000 -9.191406 5.616039
24.500000 -8.321777 5.616039
24.400000 -7.452148 5.616039
24.600000 -9.623047 5.765039
24.500000 -7.002441 5.765039
24.500000 -7.131836 5.765039
24.500000 -7.145508 5.913039
24.500000 -8.150391 5.913039
24.500000 -7.655273 5.913039
24.500000 -8.685547 6.059039
24.500000 -8.065430 6.059039
24.600000 -5.214844 6.059039
24.600000 -9.319336 6.208039
24.500000 -8.699707 6.208039
24.400000 -8.205078 6.208039
24.500000 -9.213867 6.353039
24.500000 -8.470215 6.353039
24.400000 -7.726562 6.353039
24.500000 -8.392578 6.501039
24.500000 -8.776367 6.501039
24.400000 -6.160156 6.501039
24.500000 -7.353516 6.656039
24.500000 -8.485352 6.656039
24.500000 -7.742188 6.656039
24.500000 -8.083984 6.805037
24.500000 -6.590820 6.805037
24.400000 -7.847656 6.805037
24.500000 -8.645508 6.952038
24.500000 -8.150879 6.952038
24.400000 -7.531250 6.952038
24.600000 -8.969727 7.099039
24.400000 -7.103027 7.099039
24.400000 -7.236328 7.099039
24.500000 -5.644531 7.099039
24.600000 -8.822266 7.247039
24.400000 -7.454102 7.247039
24.400000 -6.710938 7.247039
24.500000 -3.613281 7.247039
24.500000 -8.392578 7.393040
24.500000 -8.397461 7.393040
24.400000 -6.277344 7.393040
24.700000 -10.041992 7.541039
24.600000 -9.298340 7.541039
24.500000 -8.929688 7.541039
24.400000 -6.811035 7.541039
24.300000 -5.817383 7.541039
24.500000 -8.217285 7.696038
24.400000 -8.346680 7.696038
24.300000 -7.976074 7.696038
24.600000 -4.743652 7.696038
24.500000 -9.672363 7.845039
24.500000 -8.426758 7.845039
24.400000 -7.306152 7.845039
24.600000 -9.252930 7.991039
24.400000 -8.509277 7.991039
24.400000 -7.390625 7.991039
24.500000 -5.552734 7.991039
24.500000 -7.043457 8.139039
24.400000 -7.927734 8.139039
24.600000 -5.474121 8.139039
24.600000 -7.651855 8.285038
24.500000 -8.910156 8.285038
24.400000 -8.543457 8.285038
24.500000 -8.148438 8.432039
24.500000 -7.779297 8.432039
24.400000 -8.285156 8.432039
24.700000 -10.415039 8.580039
24.600000 -9.796875 8.580039
24.500000 -8.928711 8.580039
24.400000 -6.435547 8.580039
24.500000 -8.185547 8.736038
24.500000 -7.191406 8.736038
24.400000 -7.447266 8.736038
24.600000 -8.597656 8.883040
24.500000 -8.599609 8.883040
24.700000 -5.609375 8.883040
24.500000 -9.319336 9.032040
24.500000 -7.948730 9.032040
24.400000 -7.203125 9.032040
24.500000 -8.408203 9.179039
24.500000 -8.789063 9.179039
24.400000 -6.169922 9.179039
24.500000 -7.528809 9.325039
24.500000 -7.285156 9.325039
24.400000 -7.916504 9.325039
24.500000 -9.673828 9.472039
24.500000 -8.304688 9.472039
24.400000 -6.935547 9.472039
24.500000 -9.119141 9.620039
24.400000 -8.375000 9.620039
24.400000 -7.005859 9.620039
24.500000 -8.485840 9.776038
24.400000 -8.244141 9.776038
24.400000 -7.252441 9.776038
24.500000 -8.002930 9.924039
24.400000 -8.132812 9.924039
24.400000 -8.262695 9.924039
