1.747369 2.999178 0.969166
1.753600 3.010775 1.298208
1.754195 3.011885 1.325326
1.757658 3.018352 1.473156
1.677206 2.865913 1.936192
1.597989 2.715845 2.344119
1.459343 2.453568 2.396601
1.290276 2.133534 2.833536
1.177596 1.920080 3.396121
0.957984 1.504531 3.675164
0.933003 1.457073 4.037615
1.082073 1.738969 4.152695
1.207642 1.976228 4.593915
1.239108 2.035513 4.999236
1.262368 2.079349 5.278293
1.230427 2.018539 5.972125
1.095887 1.764009 6.061299
1.633790 3.270492 0.260869
1.552585 3.090555 0.472181
1.559902 3.106347 1.104576
1.563638 3.114483 1.314008
1.572281 3.133369 1.701772
1.493985 2.959907 1.861227
1.427901 2.813247 2.389461
1.264776 2.452028 2.449478
1.170709 2.243274 3.189453
1.058198 1.993999 3.438485
0.827427 1.482813 3.793463
0.809708 1.443303 4.220150
0.941201 1.734374 4.332440
1.057138 1.990747 4.835323
1.103953 2.094352 4.908484
1.092909 2.069626 5.329680
1.079276 2.039208 5.689665
1.032679 1.935747 6.134805
1.453330 3.359732 0.587528
1.380510 3.171618 0.497673
1.388998 3.192999 1.249393
1.388463 3.191640 1.215904
1.402467 3.227317 1.906487
1.334284 3.051001 2.068533
1.263035 2.866852 2.110397
1.103372 2.453747 2.796819
0.965299 2.096800 2.989508
0.860998 1.826564 3.943467
0.817623 1.714056 4.509927
0.944481 2.041657 4.808227
0.997320 2.178007 5.071067
0.992940 2.166331 5.556423
0.968374 2.102720 5.729243
0.918234 1.972914 6.049377
1.183799 3.251453 0.563995
1.155037 3.160811 0.776496
1.158436 3.171206 1.108232
1.189829 3.269862 1.193263
1.143547 3.123581 2.017784
1.082342 2.931115 1.997184
1.004348 2.685353 2.538869
0.893465 2.336304 2.913889
0.812049 2.079982 3.223634
0.726747 1.810871 4.179922
0.709441 1.756184 4.477010
0.792337 2.016498 4.917466
0.814094 2.084565 5.323630
0.833810 2.146269 5.665815
0.787516 2.000452 5.921385
0.746000 1.869604 6.243155
0.655244 1.583745 6.740275
0.982783 3.225488 0.991985
1.009893 3.329982 1.196564
1.019557 3.366571 1.887174
0.972190 3.183445 2.049088
0.900076 2.904719 2.220854
0.811759 2.563004 2.776926
0.709625 2.168573 2.717473
0.533944 1.488206 4.405699
0.619269 1.817518 4.645521
0.675052 2.032848 4.769167
0.701243 2.133378 5.366014
0.659291 1.971134 5.557546
0.645392 1.917197 5.795381
0.784547 3.278233 0.960257
0.807983 3.397781 1.467498
0.810267 3.409210 1.676087
0.773136 3.218540 1.776045
0.724137 2.966280 2.374641
0.652649 2.599022 2.684480
0.576992 2.210710 2.749953
0.524044 1.938674 2.997557
0.502012 1.823587 4.459552
0.506664 1.847240 4.615868
0.530353 1.968596 4.756020
0.550343 2.070333 5.355248
0.546582 2.050441 5.782390
0.533847 1.984851 5.957422
0.580920 3.312890 0.706393
0.595384 3.421934 1.033571
0.596535 3.430238 1.242318
0.574130 3.259232 1.765129
0.537479 2.980635 2.057414
0.490336 2.622043 2.550007
0.426359 2.136499 2.686254
0.397486 1.915945 3.444548
0.382864 1.803634 4.132057
0.379318 1.775734 4.623872
0.404070 1.962407 5.147130
0.422136 2.099027 5.348819
0.409990 2.006804 5.395888
0.410925 2.012762 5.951965
0.381482 3.434730 0.239205
0.375569 3.347067 0.875012
0.382709 3.449632 0.960909
0.378471 3.385633 1.719880
0.364504 3.184445 1.698242
0.354019 3.030835 2.351170
0.325864 2.625340 2.287457
0.293083 2.151713 2.608207
0.277223 1.920480 3.301418
0.263075 1.713670 4.063695
0.259789 1.664915 4.427727
0.278785 1.936930 4.873115
0.292255 2.129041 5.392086
0.284993 2.024467 5.375049
0.275172 1.881697 5.695179
0.192735 3.555723 0.601562
0.191422 3.459221 0.751144
0.191479 3.461637 0.838217
0.191835 3.478461 1.287597
0.190698 3.392141 1.561179
0.186807 3.108974 1.849528
0.181730 2.738645 2.274951
0.176460 2.357859 2.522748
0.170035 1.891983 2.913462
0.163563 1.410083 3.968670
0.162959 1.360012 4.335752
0.169480 1.818500 4.691125
0.171254 1.942423 4.831054
0.172706 2.035844 5.368102
0.170408 1.868203 5.560236
0.169317 1.779279 6.139279
-0.029640 3.659254 0.524029
-0.015788 3.367605 0.860804
-0.020778 3.474519 1.067069
-0.021367 3.488882 1.397006
-0.016588 3.387427 1.367406
-0.003721 3.117757 1.897797
0.009745 2.833687 2.129750
0.032293 2.357625 2.445202
0.054135 1.897295 2.897754
0.061793 1.741986 4.131389
0.060902 1.765460 4.943940
0.050896 1.977860 5.001971
0.053805 1.917527 5.237705
0.054967 1.895340 5.666255
0.058596 1.822074 6.308880
-0.233205 3.648054 0.212592
-0.212830 3.451304 0.422142
-0.213426 3.457933 0.751144
-0.216618 3.490949 1.562965
-0.206179 3.389794 1.534921
-0.176238 3.100314 1.700866
-0.137403 2.725213 2.062548
-0.099577 2.360072 2.496247
-0.050959 1.890154 2.822939
-0.035339 1.744068 4.809633
-0.047018 1.857348 4.885993
-0.054226 1.928210 5.297497
-0.050686 1.894884 5.663262
-0.042994 1.822082 6.306880
-0.436581 3.533618 0.579221
-0.420255 3.434338 0.548654
-0.422112 3.446366 0.999364
-0.424226 3.459757 1.329099
-0.394553 3.279965 1.669485
-0.350790 3.014761 2.144176
-0.286361 2.623256 2.201922
-0.209923 2.159303 2.584493
-0.135356 1.706845 3.042784
-0.060521 1.253964 4.237709
-0.061180 1.258016 4.266760
-0.119362 1.612256 4.640482
-0.160534 1.863021 4.957891
-0.165871 1.896690 5.706647
-0.146844 1.780915 5.626120
-0.136862 1.721412 6.335841
-0.081224 1.383749 6.643665
-0.629218 3.400314 0.434652
-0.631007 3.408623 0.824768
-0.634018 3.422290 1.214725
-0.615305 3.340666 1.549588
-0.576206 3.169768 1.954226
-0.258331 1.777516 2.880247
-0.194803 1.500293 3.915110
-0.172103 1.401637 4.620903
-0.230917 1.659905 5.006175
-0.258823 1.782396 5.146958
-0.248255 1.736433 5.450309
-0.241161 1.705781 5.819291
-0.792578 3.285705 1.201262
-0.821147 3.385501 1.285710
-0.796431 3.299443 1.500381
-0.722641 3.042408 2.032298
-0.615791 2.669642 2.211751
-0.489332 2.228756 2.718703
-0.349697 1.741335 2.664730
-0.254013 1.408721 4.057866
-0.251227 1.399602 4.684270
-0.315374 1.623681 4.874470
-0.331684 1.680946 5.223873
-0.315487 1.624644 5.462415
-0.317275 1.631427 6.024230
-1.084356 3.492099 0.333048
-1.019000 3.307641 0.603646
-1.022521 3.317901 0.992759
-1.026011 3.327977 1.260949
-0.960679 3.143448 1.357505
-0.876154 2.905231 2.135788
-0.746969 2.540344 2.317584
-0.586740 2.087800 2.575352
-0.464632 1.743071 2.959057
-0.347396 1.412818 4.228046
-0.345282 1.407346 4.855001
-0.430753 1.649111 5.172926
-0.443866 1.686340 5.393917
-0.437157 1.667730 5.826064
-0.399925 1.562887 6.280532
-1.199286 3.243656 0.449522
-1.200766 3.247344 0.658163
-1.208934 3.267349 1.289483
-1.172030 3.179010 1.382077
-1.141897 3.107104 1.779130
-0.998710 2.764395 2.201224
-0.807479 2.306354 2.267545
-0.628798 1.878641 2.716968
-0.565181 1.726505 3.084109
-0.461463 1.478814 4.183258
-0.370783 1.261913 4.645070
-0.430646 1.405546 4.982819
-0.543389 1.675971 5.492401
-0.521657 1.624078 5.732220
-0.453018 1.459747 5.863719
-1.532595 3.429363 0.308116
-1.446993 3.256083 0.698208
-1.450386 3.263121 0.965763
-1.458639 3.280121 1.413670
-1.378395 3.117671 1.753459
-1.250180 2.857879 1.921690
-1.130809 2.616167 2.340159
-0.867238 2.081954 2.417121
-0.655169 1.652247 2.679253
-0.526680 1.392878 4.464347
-0.463490 1.265021 4.848433
-0.552906 1.446267 4.845268
-0.617731 1.577830 5.115185
-0.558295 1.457586 5.501220
-0.506765 1.353409 5.955995
-1.670978 3.250757 0.133146
-1.625665 3.170788 0.702911
-1.629477 3.177688 0.971169
-1.640235 3.197023 1.479912
-1.541223 3.021599 1.457558
-1.456280 2.871366 1.922564
-1.272247 2.545529 2.286362
-0.987126 2.040549 2.551575
-0.700241 1.532414 2.761346
-0.599234 1.354364 4.409470
-0.528711 1.229632 4.793547
-0.589905 1.338123 4.936511
-0.642618 1.431841 5.547624
-0.615144 1.383299 5.789208
-0.582245 1.325112 5.967136
-0.418770 1.035698 6.337486
-1.828211 3.058244 0.694446
-1.829440 3.060168 0.782856
-1.831855 3.063935 0.931441
-1.787179 2.995806 1.385689
-1.753398 2.944435 2.024352
-1.586097 2.688441 1.952272
-0.947046 1.711463 3.438326
-0.402402 0.878626 4.318662
-0.593741 1.171514 4.632861
-0.709276 1.348597 5.295769
-0.725003 1.372736 5.455306
-0.728893 1.378964 6.021204
-1.997424 2.958812 0.935203
-2.008253 2.973746 1.384071
-1.951734 2.896897 1.477163
-1.854696 2.765144 2.062367
-1.676071 2.522129 2.051182
-0.592431 1.049026 4.579454
-0.684162 1.173975 4.919558
-0.771465 1.292869 5.191937
-0.750829 1.264963 5.562931
-0.740607 1.251254 6.000303
-2.169978 2.827818 0.750879
-2.185002 2.846113 1.379372
-2.120036 2.768124 1.350793
-2.001224 2.625637 1.630558
-0.653735 1.009530 4.565923
-0.780634 1.162091 5.165228
-0.883929 1.286211 5.500211
-0.847898 1.243064 5.741452
-0.821472 1.211474 6.048647
-2.326157 2.705896 0.885364
-2.329526 2.709569 1.032756
-2.352393 2.734377 1.721314
-2.282972 2.659871 1.694231
-2.174397 2.543589 2.279991
-0.697103 0.959158 4.451513
-0.830711 1.102767 5.051572
-0.872773 1.148042 5.404978
-0.917694 1.196385 5.757625
-0.863198 1.137950 5.870379
-2.478199 2.553040 0.437882
-2.483079 2.557801 0.764986
-2.572716 2.643245 1.387812
-2.585751 2.655757 1.713301
-2.526164 2.599210 1.985813
-2.458410 2.534832 2.079319
-0.688180 0.852829 4.522238
-0.839282 0.996722 5.188351
-0.859420 1.015926 5.346797
-0.942882 1.095298 5.422199
-0.966346 1.117860 6.117212
-2.702296 2.461303 0.159160
-2.632279 2.402564 0.728306
-2.711887 2.469625 0.872413
-2.813458 2.555382 1.612532
-2.820205 2.561112 1.758438
-2.674896 2.438852 1.918003
-2.544727 2.329422 2.320791
-0.859813 0.912025 4.890908
-0.914229 0.957977 5.310187
-0.963690 0.999734 5.663488
-0.931389 0.972651 5.970737
-0.837142 0.893456 6.365154
-0.575162 0.673040 6.675014
-2.852231 2.298301 0.694134
-2.775165 2.241064 0.843986
-2.854621 2.300116 0.807993
-2.943776 2.366497 1.130697
-2.982489 2.395561 1.993042
-2.998800 2.407775 2.258223
-2.852990 2.299460 2.481448
-2.793246 2.255141 2.758033
-0.851975 0.812842 5.041929
-0.926335 0.868101 4.989517
-0.994157 0.918677 5.474615
-0.979237 0.907733 5.912798
-0.847486 0.809861 6.111851
-0.616412 0.638280 6.684303
-2.968090 2.133828 0.214467
-2.889128 2.081739 0.604148
-2.985219 2.145440 1.109437
-3.083467 2.210529 1.491298
-3.084703 2.211355 1.518811
-3.101106 2.222306 1.844654
-3.128716 2.240705 2.288941
-2.981969 2.143760 2.572569
-2.842887 2.051903 2.920153
-2.613014 1.899977 3.161839
-0.638601 0.594781 4.361649
-0.683357 0.624491 4.721706
-0.960530 0.807829 4.901103
-0.982626 0.822491 5.061082
-1.084770 0.890251 5.741105
-1.061458 0.874956 6.114726
-0.903067 0.770242 6.184415
-0.664116 0.612419 6.757819
-3.092218 1.949876 0.234387
-3.099528 1.954251 0.741694
-3.208851 2.017569 1.423440
-3.308148 2.074969 1.683384
-3.319615 2.081651 1.888854
-3.344626 2.096207 2.272337
-3.269098 2.052656 2.426908
-3.214519 2.021272 2.821322
-3.141705 1.979287 2.978626
-0.868171 0.667351 4.516601
-1.001765 0.744574 4.858282
-1.073206 0.785963 5.344255
-1.108646 0.806491 5.569079
-1.060529 0.778789 5.812622
-3.121711 1.715759 0.656823
-3.221523 1.765628 1.042459
-3.222462 1.766105 1.070562
-3.422576 1.866004 1.566792
-3.456191 1.882927 2.129478
-3.485133 1.897469 2.513385
-3.507874 1.908883 2.777386
-3.504957 1.907420 2.744978
-3.363735 1.837145 3.149846
-1.084400 0.701548 5.121165
-1.098978 0.708843 5.215829
-1.145325 0.732032 5.505601
-1.041379 0.680354 5.963523
-3.217551 1.516819 0.375557
-3.319797 1.560239 0.881314
-3.430548 1.607256 1.383095
-3.440654 1.611593 1.589220
-3.555232 1.660194 1.967068
-3.578235 1.670023 2.290886
-3.610037 1.683593 2.673668
-3.531818 1.650534 2.829277
-3.551955 1.659116 3.034532
-3.502015 1.638095 3.430018
-3.351085 1.574303 3.721648
-1.122794 0.631650 5.101818
-1.213608 0.670244 5.651817
-1.072668 0.610671 5.914565
-3.399693 1.379377 0.903801
-3.498460 1.415075 1.047165
-3.526994 1.425554 1.671273
-3.629487 1.462596 1.811089
-3.669503 1.477202 2.372487
-3.708635 1.491455 2.813493
-3.611861 1.456511 2.790251
-3.670766 1.477936 3.350898
-3.623975 1.461155 3.746059
-3.440959 1.395097 3.799305
-1.168142 0.574944 5.182245
-1.262114 0.609026 5.730961
-1.130940 0.561762 6.058336
-3.478770 1.169690 0.943153
-3.598269 1.204907 1.503889
-3.695468 1.233432 1.524979
-3.722241 1.241410 1.967532
-3.760955 1.252908 2.468898
-3.779294 1.258346 2.673205
-3.715894 1.239837 3.006679
-3.718683 1.240662 3.033139
-3.659532 1.223401 3.368615
-3.509255 1.179406 3.719308
-1.103205 0.473870 5.179347
-1.092981 0.471010 5.683841
-1.103889 0.474370 6.255410
-0.854647 0.401303 6.477784
-3.623015 0.998381 0.449142
-3.526103 0.975608 0.478101
-3.545413 0.980335 1.165168
-3.664144 1.008366 1.606238
-3.688427 1.014180 1.991412
-3.796112 1.039530 2.130174
-3.802751 1.041115 2.216685
-3.755423 1.030146 2.786998
-3.789200 1.038174 3.110647
-3.752474 1.029682 3.624812
-3.629513 1.000724 3.425589
-1.226657 0.436382 5.182245
-1.169389 0.422986 5.424282
-1.175643 0.424613 5.994115
-1.073147 0.400515 5.977362
-0.681399 0.308573 6.502951
-3.682079 0.775932 0.694741
-3.585767 0.759453 0.784097
-3.606894 0.763227 1.350594
-3.696088 0.778452 1.133730
-3.714098 0.781642 1.518811
-3.862193 0.807217 2.253092
-3.890164 0.812098 2.576397
-3.817772 0.799767 2.850414
-3.833022 0.802420 2.996001
-3.695971 0.779078 3.522904
-3.579380 0.759062 3.382612
-1.263245 0.362692 5.253477
-1.241787 0.359134 5.691511
-1.162805 0.345630 5.804860
-1.026279 0.322326 6.135072
-0.686643 0.264212 6.443835
-3.618590 0.540281 0.485365
-3.523438 0.529909 0.695622
-3.628599 0.541489 0.900991
-3.758114 0.555866 1.582459
-3.770577 0.557287 1.789199
-3.793391 0.559875 2.115064
-3.814896 0.562303 2.381081
-3.751549 0.555466 2.774456
-3.693853 0.549249 3.170084
-0.980661 0.252300 4.635203
-1.168065 0.272982 5.172708
-1.195730 0.276057 5.332217
-1.213154 0.278137 5.967093
-1.118577 0.267913 6.494096
-0.624766 0.213814 6.562260
-3.549543 0.312797 0.705263
-3.655228 0.317904 0.908720
-3.676083 0.319036 1.414261
-3.771282 0.323562 1.315690
-3.795757 0.324851 1.759371
-3.832221 0.326728 2.262179
-3.739811 0.322335 2.356050
-3.707072 0.320955 3.049709
-3.511391 0.311612 3.097755
-3.230423 0.298226 3.279133
-0.815247 0.182964 4.089650
-0.855918 0.184987 4.382816
-1.127707 0.198105 4.841745
-1.175629 0.200474 5.131850
-1.164077 0.200056 5.635560
-1.174392 0.200702 6.206381
-3.577325 0.113782 1.181765
-3.689703 0.112933 1.444220
-3.685063 0.112946 1.351296
-3.740469 0.112723 2.216378
-3.768441 0.112582 2.542107
-3.566261 0.114232 2.527256
-3.431668 0.115506 3.177561
-0.910263 0.136537 4.687173
-1.165005 0.134540 5.013053
-1.203289 0.134287 5.238061
-1.291840 0.133692 5.723579
-1.192446 0.134645 6.248261
-0.946745 0.136732 6.536231
-3.657801 -0.106412 0.522623
-3.464405 -0.093142 0.793620
-3.572787 -0.100467 1.057201
-3.686542 -0.108144 1.378683
-3.720088 -0.110282 1.943180
-3.631107 -0.104169 2.095833
-3.542975 -0.098114 2.249483
-3.372476 -0.086387 2.594563
-2.995313 -0.060582 2.841921
-0.593794 0.103757 4.552425
-1.075583 0.071012 5.047660
-1.091313 0.069963 5.141213
-1.177926 0.064183 5.627640
-1.183130 0.063835 5.655487
-1.082557 0.070839 6.180447
-0.641336 0.101036 6.508952
-3.642050 -0.309656 0.159160
-3.447128 -0.285294 0.490120
-3.566395 -0.299961 1.178240
-3.664220 -0.312152 1.141752
-3.590251 -0.302803 1.654635
-3.516786 -0.293549 2.050127
-3.325440 -0.269693 2.153415
-0.680648 0.060263 4.426358
-1.039146 0.015723 4.808046
-1.064974 0.012550 4.969191
-1.137000 0.003695 5.392407
-1.227535 -0.007448 5.879876
-0.993781 0.021755 6.230834
-0.638805 0.066024 6.474876
-3.421150 -0.514520 0.530716
-3.434932 -0.517040 1.041356
-3.435932 -0.517225 1.068721
-3.447171 -0.519321 1.337588
-3.394293 -0.508913 2.096181
-3.327818 -0.495980 2.495108
-0.916892 -0.030262 4.667069
-1.038684 -0.053719 4.813181
-1.141932 -0.073470 5.433341
-1.158916 -0.076721 5.528474
-1.084238 -0.062135 6.186086
-0.801717 -0.007605 6.276298
-3.389600 -0.701965 0.626067
-3.297812 -0.678909 0.838070
-3.408523 -0.706541 1.225338
-3.318277 -0.683888 1.378764
-3.347113 -0.690972 1.891055
-3.151422 -0.641946 1.871613
-0.794732 -0.050738 4.523389
-1.040252 -0.112164 4.852452
-1.120218 -0.132065 5.341225
-1.207878 -0.153895 5.828594
-1.118199 -0.131412 5.877056
-3.528090 -0.973207 0.550038
-3.240708 -0.881746 0.461236
-3.250962 -0.884883 0.912426
-3.258064 -0.887086 1.121015
-3.186674 -0.864214 1.638153
-3.096531 -0.835492 1.731826
-2.860636 -0.760193 2.454581
-0.701772 -0.072336 4.580616
-1.017583 -0.172822 4.762603
-1.083872 -0.193806 5.185538
-1.155818 -0.216591 5.607454
-1.233406 -0.241173 6.028267
-1.052118 -0.183442 6.096607
-0.712400 -0.075091 6.824086
-3.185412 -1.060367 0.371691
-3.206138 -1.068028 1.187060
-3.202608 -1.066710 1.093080
-3.120190 -1.035242 1.367480
-2.965151 -0.976026 1.955377
-2.793119 -0.910441 2.181506
-0.890837 -0.185238 4.617315
-1.046145 -0.244272 5.025610
-1.071443 -0.253861 5.185794
-1.153464 -0.284961 5.673113
-1.034870 -0.239680 6.067880
-0.842962 -0.166451 6.553425
-3.117118 -1.249066 0.430914
-3.121910 -1.251149 0.700235
-3.131024 -1.255162 1.030105
-3.047559 -1.217459 1.243021
-2.909260 -1.154845 2.074335
-2.742294 -1.079480 2.300762
-0.993987 -0.290500 4.094675
-0.859615 -0.229787 4.481137
-1.009442 -0.297237 4.890176
-1.085090 -0.331210 5.378333
-1.167952 -0.368437 5.865080
-1.060471 -0.319989 5.782064
-0.932821 -0.262184 6.594139
-3.048684 -1.418380 0.666128
-3.061238 -1.424748 1.117938
-3.064446 -1.426383 1.205996
-2.984381 -1.384842 1.420201
-2.838093 -1.308883 2.008650
-2.481693 -1.124257 2.002948
-0.976263 -0.343765 4.090567
-0.890084 -0.298906 4.806982
-1.050055 -0.381635 5.279786
-1.142012 -0.429268 5.291397
-1.112165 -0.413694 5.664939
-1.047199 -0.379842 6.322122
-0.842485 -0.273687 6.677336
-2.951618 -1.599015 0.342552
-2.959235 -1.603430 0.794021
-2.977951 -1.614446 1.366459
-2.904586 -1.570480 1.641477
-2.755299 -1.481061 2.047346
-2.414635 -1.277285 2.103730
-2.082288 -1.078444 2.286622
-1.615190 -0.798858 2.939044
-1.265132 -0.589499 2.877601
-0.966188 -0.410283 4.198887
-0.764656 -0.289596 4.667235
-0.955819 -0.403895 4.797778
-1.006337 -0.434000 5.155306
-1.050278 -0.460191 5.446642
-1.045105 -0.456940 5.952803
-0.855424 -0.343358 6.370611
-2.765988 -1.722306 0.446634
-2.774742 -1.728158 0.900404
-2.782881 -1.733648 1.171517
-2.713433 -1.685948 1.508603
-2.561800 -1.581945 1.792940
-2.244342 -1.364319 2.033224
-1.872815 -1.109515 2.666250
-1.459426 -0.826223 2.676186
-1.076866 -0.563933 3.077150
-0.944884 -0.473109 4.249692
-0.800627 -0.374192 4.439337
-0.944578 -0.472685 4.914808
-1.056978 -0.549642 5.124443
-1.067996 -0.556987 5.759936
-0.931780 -0.463577 5.958566
-0.726912 -0.323092 6.245243
-2.593844 -1.843619 1.255487
-2.592698 -1.842736 1.222112
-2.529523 -1.793277 1.621496
-2.300587 -1.614480 1.790251
-2.008073 -1.385957 2.219582
-0.521748 -0.224816 4.304029
-0.907788 -0.526021 4.870673
-0.928590 -0.542208 5.031764
-1.045707 -0.633553 5.306451
-1.049203 -0.636090 5.876815
-0.909343 -0.526850 6.010667
-0.592758 -0.279500 6.538339
-2.483656 -1.979275 1.099085
-2.499698 -1.993124 1.554828
-2.431048 -1.933112 1.711384
-2.212748 -1.742393 1.882034
-1.920098 -1.486736 2.062927
-1.489580 -1.110593 2.454092
-1.162642 -0.824799 3.174225
-0.624466 -0.354494 3.947549
-0.533909 -0.275195 4.537577
-0.850247 -0.551440 4.640598
-0.926854 -0.618127 5.261350
-1.058687 -0.733124 5.665292
-1.037031 -0.714078 6.039990
-2.363312 -2.127345 1.196364
-2.360582 -2.124691 1.101470
-2.314954 -2.079477 1.806034
-2.097422 -1.865212 1.728890
-1.764720 -1.537274 2.227198
-1.414718 -1.192431 2.357697
-1.094479 -0.876737 2.946079
-0.598811 -0.388083 3.911737
-0.485585 -0.276420 4.234124
-0.833526 -0.618972 4.801372
-0.961866 -0.745226 5.272770
-0.999170 -0.781866 5.562919
-0.959515 -0.742710 5.806392
-2.234430 -2.245096 0.852973
-2.239183 -2.250240 1.063318
-2.185911 -2.191465 1.522983
-1.987708 -1.973424 1.628377
-1.675496 -1.629807 2.187904
-1.433756 -1.363722 2.691357
-1.050501 -0.942052 3.033810
-0.856225 -0.728323 3.157945
-0.667120 -0.520255 3.350068
-0.317358 -0.135280 4.050944
-0.437323 -0.267008 4.602873
-0.713071 -0.570284 4.638455
-0.840010 -0.709687 5.177340
-0.940718 -0.820345 5.450030
-0.894280 -0.769199 5.627129
-0.826300 -0.694221 6.152506
-0.669821 -0.521973 6.505896
-2.088701 -2.374362 0.652839
-2.097481 -2.385109 1.107669
-2.106834 -2.396621 1.440211
-1.980752 -2.239524 1.416466
-1.800381 -2.014671 1.645415
-1.561316 -1.716649 1.948127
-1.330573 -1.428938 2.385858
-1.053690 -1.083643 3.037901
-0.819577 -0.791807 3.304328
-0.690188 -0.630245 4.086419
-0.672199 -0.607614 4.592046
-0.817913 -0.789100 4.788275
-0.876157 -0.861441 5.340890
-0.863437 -0.845404 5.780358
-0.854761 -0.834405 6.221449
-0.630900 -0.555353 6.464554
-1.894767 -2.431271 1.257963
-1.891043 -2.426076 1.102438
-1.792163 -2.285997 1.693524
-1.620231 -2.042878 1.739907
-1.342694 -1.650321 2.052476
-1.093480 -1.297569 2.888666
-0.880748 -0.996634 3.217294
-0.666492 -0.693201 4.284691
-0.571336 -0.558541 4.541505
-0.699707 -0.739985 4.673483
-0.796237 -0.876282 5.080764
-0.832261 -0.927052 5.437029
-0.836315 -0.932520 6.007369
-1.675824 -2.437409 0.394202
-1.680098 -2.444117 0.790412
-1.738560 -2.538451 1.121103
-1.692349 -2.463612 1.397983
-1.601124 -2.315912 1.868027
-1.396615 -1.985240 2.047013
-1.140235 -1.570715 2.237741
-0.909104 -1.196739 2.951732
-0.645432 -0.770517 2.964065
-0.573591 -0.653691 4.340222
-0.585942 -0.673574 4.501518
-0.735906 -0.915719 5.025319
-0.807970 -1.032103 5.233128
-0.822989 -1.056026 5.931097
-0.729714 -0.905183 6.064308
-0.614284 -0.718382 6.482677
-1.542632 -2.530565 0.704885
-1.604431 -2.643476 1.465589
-1.554349 -2.551678 1.375899
-1.431640 -2.326233 2.101308
-1.248703 -1.990600 2.347755
-1.016420 -1.564496 2.544969
-0.784738 -1.139492 2.746945
-0.610844 -0.820361 3.141860
-0.399451 -0.432373 3.690729
-0.274821 -0.203621 4.025976
-0.454806 -0.533412 4.549722
-0.613456 -0.824264 4.732559
-0.725349 -1.029361 4.926842
-0.759871 -1.092439 5.347051
-0.762415 -1.096787 5.915339
-1.430594 -2.715710 0.915286
-1.441026 -2.737606 1.493330
-1.364635 -2.574385 1.838918
-1.247750 -2.324747 2.196575
-1.039215 -1.879690 2.325503
-0.830906 -1.435115 2.457535
-0.632882 -1.012318 2.854283
-0.473510 -0.671536 3.983396
-0.510960 -0.751057 4.607259
-0.605357 -0.952399 4.737093
-0.709083 -1.173571 4.994716
-0.750165 -1.260887 5.542184
-0.712381 -1.179895 6.127924
-1.275931 -2.779905 0.458266
-1.241269 -2.693776 0.794977
-1.281185 -2.792535 1.003602
-1.250090 -2.715201 1.403504
-1.178296 -2.537187 1.564821
-1.082403 -2.299098 2.233915
-0.935882 -1.935950 2.356404
-0.725791 -1.415036 2.820734
-0.555659 -0.993135 3.289744
-0.441040 -0.708555 4.082672
-0.493381 -0.838052 4.361890
-0.587461 -1.070939 4.688942
-0.662761 -1.257097 5.286920
-0.636614 -1.192182 5.462930
-0.639408 -1.198699 6.030432
-0.557159 -0.994601 6.446261
-1.102263 -2.852886 0.437195
-1.071472 -2.760458 0.587395
-1.112304 -2.882171 1.407471
-1.080141 -2.785779 1.376619
-1.026475 -2.624456 1.906909
-0.930990 -2.338231 1.890409
-0.817355 -1.997110 2.449338
-0.642173 -1.471514 2.977932
-0.483539 -0.995963 2.989461
-0.340496 -0.566753 3.465992
-0.262622 -0.332918 3.930573
-0.277997 -0.378701 4.293800
-0.448018 -0.888191 4.515947
-0.576488 -1.272777 5.149504
-0.574428 -1.266632 5.111708
-0.590448 -1.314415 5.398393
-0.565488 -1.239045 6.047447
-0.500432 -1.043618 6.527596
-0.902343 -2.818342 0.485515
-0.903502 -2.822452 0.698398
-0.934624 -2.938115 1.275667
-0.910676 -2.848495 1.431348
-0.866071 -2.681382 1.902804
-0.797751 -2.425664 2.388490
-0.666836 -1.936677 2.331915
-0.221310 -0.270555 4.089048
-0.341876 -0.720485 4.531153
-0.450482 -1.126090 4.632802
-0.493624 -1.286833 5.037360
-0.532104 -1.430297 5.308901
-0.498193 -1.303221 5.698497
-0.469061 -1.193921 6.157161
-0.405424 -0.955901 6.444584
-0.731821 -2.874905 0.816117
-0.730993 -2.871050 0.659957
-0.757959 -3.002176 1.543548
-0.740530 -2.916372 1.761518
-0.700253 -2.718779 1.740486
-0.643287 -2.438962 1.974849
-0.217343 -0.346618 3.803431
-0.225053 -0.384048 4.102699
-0.310528 -0.803194 4.279027
-0.382406 -1.155357 4.659853
-0.433335 -1.404808 4.983325
-0.447986 -1.476137 5.401303
-0.436701 -1.420441 5.643367
-0.586613 -3.001881 0.453238
-0.572916 -2.908395 0.729151
-0.591501 -3.033277 1.428757
-0.578147 -2.942339 1.584942
-0.550948 -2.757293 1.810058
-0.526069 -2.587656 2.224765
-0.251709 -0.721454 4.296033
-0.320099 -1.184912 4.726954
-0.352615 -1.405400 4.854242
-0.368187 -1.509987 5.465146
-0.352882 -1.406126 5.447013
-0.359881 -1.452248 6.207234
-0.307797 -1.098252 6.448820
-0.391485 -2.933427 0.495607
-0.391768 -2.936307 0.645541
-0.402679 -3.062895 1.405318
-0.395902 -2.981695 1.744247
-0.387982 -2.887760 1.838918
-0.364845 -2.613086 2.196575
-0.205408 -0.721740 4.195485
-0.247527 -1.217722 4.823610
-0.268244 -1.461850 5.079444
-0.281852 -1.621676 5.413127
-0.281412 -1.614906 5.910818
-0.265377 -1.425109 5.978277
-0.241053 -1.135732 6.544471
-0.228629 -2.949012 0.388915
-0.229175 -2.962475 0.970332
-0.232194 -3.065498 1.056013
-0.233022 -3.089246 1.573677
-0.228189 -2.918691 2.043929
-0.220353 -2.645842 2.404549
-0.172807 -0.990399 4.587149
-0.185348 -1.420270 4.750149
-0.188671 -1.533853 4.827099
-0.190479 -1.592813 5.177798
-0.191057 -1.606935 5.804116
-0.185530 -1.416249 5.870633
-0.176759 -1.109962 6.369999
-0.032228 -3.059551 0.518126
-0.035739 -2.964107 0.730592
-0.031840 -3.074281 1.060560
-0.030779 -3.108766 1.760146
-0.037417 -2.927444 2.045132
-0.043784 -2.754127 2.395749
-0.109860 -0.941626 4.185835
-0.094106 -1.378630 4.419005
-0.084373 -1.650883 4.868435
-0.083093 -1.687874 5.088818
-0.087653 -1.565203 5.538042
-0.087960 -1.560383 6.036590
-0.096998 -1.312749 6.319517
0.135975 -3.053626 0.289692
0.137017 -3.066890 0.930126
0.138088 -3.079573 1.263944
0.138193 -3.080795 1.291456
0.124281 -2.931191 2.129319
0.105114 -2.721271 1.985987
-0.050040 -1.031546 4.073621
-0.016783 -1.396348 4.517444
0.005232 -1.637722 4.773866
0.012481 -1.718358 5.252477
0.010375 -1.696601 5.684524
-0.002451 -1.557362 6.009348
-0.032791 -1.226828 6.378930
0.326708 -3.066538 1.291456
0.343876 -3.178671 1.558164
0.328431 -3.078161 1.529679
0.301634 -2.904586 1.937586
0.011229 -1.019273 3.971405
0.055943 -1.311253 4.626756
0.111077 -1.670511 4.996125
0.125168 -1.762070 4.943940
0.119307 -1.724592 5.310422
0.116008 -1.703893 5.742762
0.528274 -3.121322 0.789526
0.533962 -3.148526 1.488348
0.513853 -3.055592 1.582285
0.475093 -2.876589 1.867559
0.091515 -1.104120 3.883141
0.120550 -1.238831 4.160219
0.198057 -1.598047 4.599189
0.230700 -1.749529 4.932918
0.258300 -1.878171 5.664758
0.246633 -1.824482 5.903702
0.725640 -3.177597 0.509634
0.703202 -3.096581 1.087640
0.701295 -3.089428 0.870146
0.709901 -3.121488 1.629161
0.684780 -3.030229 1.722858
0.637658 -2.859223 2.069909
0.080189 -0.834040 4.107484
0.195951 -1.255243 4.343701
0.291273 -1.602257 4.715994
0.350292 -1.817005 4.840543
0.365892 -1.874082 5.187861
0.362958 -1.863910 5.680717
0.315630 -1.691933 5.811013
0.885983 -3.038735 0.772828
0.918004 -3.132535 0.737600
0.923652 -3.149511 1.252523
0.892678 -3.058826 1.346307
0.833833 -2.886679 1.691471
0.807211 -2.808901 1.972475
0.181039 -0.975515 3.755782
0.187531 -0.994671 3.915912
0.328040 -1.406596 4.152343
0.453031 -1.773321 4.715620
0.489671 -1.880750 4.791224
0.512097 -1.946802 5.200786
0.480911 -1.855891 5.774691
0.444584 -1.749817 6.225856
0.365128 -1.517225 6.509750
1.106911 -3.066152 0.534358
1.111336 -3.077224 0.987142
1.113397 -3.082337 1.135644
1.082286 -3.006993 1.532669
1.048861 -2.925897 1.748673
0.978114 -2.754087 1.972957
0.304141 -1.116873 3.465975
0.336742 -1.196595 4.148491
0.447946 -1.466851 4.071443
0.545830 -1.705054 4.457512
0.604098 -1.846922 4.789730
0.639223 -1.932680 5.326910
0.621846 -1.890652 5.627693
0.578261 -1.785022 6.077486
0.463003 -1.505208 6.574812
1.317071 -3.090734 0.528747
1.279912 -3.013210 1.044170
1.278514 -3.010222 0.949359
1.284000 -3.021921 1.280314
1.256285 -2.964258 1.921611
1.171112 -2.785857 1.962242
0.457113 -1.291120 3.569911
0.429750 -1.233985 3.871931
0.539541 -1.464226 4.263485
0.681403 -1.761517 4.441594
0.770337 -1.948225 5.090703
0.772493 -1.952759 5.119430
0.719868 -1.842792 5.565291
0.695881 -1.792691 5.804342
1.503804 -3.004821 0.553382
1.459215 -2.924640 0.886145
1.509059 -3.014520 0.970202
1.471201 -2.946572 1.486688
1.433981 -2.879710 1.884471
1.390539 -2.801498 2.040180
1.250769 -2.549682 2.212288
1.033940 -2.159235 2.843528
0.809913 -1.755685 3.239163
0.615079 -1.404537 3.246521
0.614494 -1.403932 4.062607
0.664432 -1.493945 4.077289
0.808553 -1.754048 4.716768
0.906525 -1.930623 4.712781
0.939751 -1.990729 5.119933
0.868860 -1.863136 5.436566
0.799636 -1.738548 5.756499
1.772785 -3.082830 0.289946
1.613426 -2.829843 0.381730
1.623896 -2.846847 1.139920
1.688629 -2.949855 1.587909
1.644190 -2.879433 1.864549
1.543314 -2.719343 2.028237
1.448106 -2.568314 2.317109
1.301414 -2.335545 2.618707
1.043778 -1.926567 2.819582
0.797513 -1.535742 3.216633
0.651822 -1.304539 3.471549
0.731904 -1.431896 3.875159
0.893114 -1.688222 4.580229
1.006029 -1.867541 4.640294
1.059773 -1.953174 5.236856
1.062400 -1.957360 5.264224
0.998395 -1.855954 5.708140
0.864782 -1.643939 5.985376
0.702507 -1.386524 6.481244
1.796542 -2.743062 1.178882
1.862072 -2.834301 1.443599
1.812504 -2.765503 1.718378
1.696895 -2.604768 1.757277
1.590909 -2.457526 2.042967
1.444091 -2.253657 2.651231
1.169210 -1.871588 2.977522
0.967355 -1.591147 3.493876
0.795357 -1.352014 3.557383
0.811255 -1.374222 3.779191
0.969952 -1.595123 4.293875
1.121854 -1.806514 4.673202
1.212698 -1.932982 5.000273
1.184098 -1.893349 5.297504
1.107088 -1.786442 5.678429
1.025358 -1.672945 5.999537
0.847785 -1.426258 6.494638
1.945706 -2.635305 1.097155
2.007732 -2.712045 1.060173
1.952028 -2.643229 1.334705
1.844624 -2.510544 1.861477
1.740323 -2.381674 2.333454
1.567412 -2.167829 2.634727
1.338030 -1.884137 3.014584
1.165152 -1.670311 3.263726
0.945961 -1.399263 3.721899
0.912453 -1.357953 4.084585
1.112897 -1.606044 4.198838
1.307832 -1.847566 4.892704
1.324296 -1.868004 5.046036
1.301103 -1.839457 5.406169
1.211238 -1.728387 5.723983
1.107244 -1.599778 5.917657
1.003165 -1.471267 6.582921
2.106286 -2.487234 0.501551
2.116820 -2.498846 1.075296
2.186969 -2.574709 1.158181
2.123443 -2.506097 1.310004
2.089225 -2.469432 2.133439
1.884298 -2.247905 2.120901
1.695871 -2.044336 2.418636
1.598189 -1.938982 3.025222
1.348846 -1.669574 3.347384
1.148578 -1.453112 3.408977
1.115330 -1.417337 3.832568
1.233301 -1.545068 4.357060
1.403564 -1.729243 4.670710
1.434905 -1.763232 4.950066
1.416877 -1.743910 5.372912
1.353517 -1.675436 5.418288
1.206974 -1.517209 5.883547
2.243411 -2.371822 0.754951
2.332182 -2.458036 1.385863
2.263627 -2.391672 1.479090
2.128608 -2.260982 1.700866
2.004189 -2.140629 2.110318
1.804888 -1.947708 2.409407
1.616464 -1.765372 2.839606
1.432665 -1.587517 3.276913
1.265415 -1.425740 3.849625
1.196845 -1.359342 3.890848
1.295804 -1.455289 4.161005
1.525641 -1.678178 4.918803
1.607566 -1.757553 4.992616
1.564198 -1.715635 5.226260
1.548147 -1.700247 5.650077
1.358625 -1.516766 5.862651
1.189398 -1.353164 6.676020
2.530955 -2.353349 0.258797
2.381650 -2.225703 0.529841
2.387606 -2.230914 0.860003
2.394663 -2.237047 1.129229
2.330124 -2.181946 1.464280
2.271637 -2.132046 1.862671
2.153322 -2.031027 2.456023
1.954418 -1.861000 2.880984
1.744552 -1.681530 3.125762
1.595663 -1.554161 3.174085
1.429629 -1.412351 3.870450
1.397493 -1.385005 4.293140
1.475687 -1.451910 4.305697
1.650755 -1.601760 4.492379
1.716744 -1.658404 5.022039
1.763149 -1.698226 5.362232
1.663532 -1.613130 5.740549
1.473278 -1.450450 6.016435
1.168161 -1.189580 6.531336
2.577087 -2.149791 0.252055
2.510608 -2.099227 1.011379
2.589115 -2.159229 0.975411
2.524902 -2.110295 1.432787
2.460450 -2.061138 1.771123
2.410561 -2.023177 2.294953
2.183094 -1.849349 2.471360
2.044873 -1.743785 2.766009
1.814758 -1.567914 2.886665
1.679848 -1.464884 3.186904
1.474610 -1.308117 3.566206
1.480765 -1.313093 4.371732
1.626418 -1.424394 4.243704
1.812673 -1.567056 5.074744
1.877482 -1.616560 4.959967
1.894593 -1.629866 5.631115
1.742974 -1.513983 5.697287
1.476439 -1.310352 6.057497
1.146853 -1.058552 6.510506
2.625746 -1.934416 0.612330
2.625195 -1.934035 0.579525
2.731479 -2.005631 1.393436
2.660688 -1.958208 1.669485
2.579184 -1.903515 1.703482
2.518253 -1.862749 2.104666
2.374960 -1.766688 2.455542
2.138041 -1.607733 2.634242
1.907149 -1.452843 2.878823
1.796147 -1.378540 3.495616
1.640617 -1.274190 3.612163
1.550436 -1.213886 4.303836
1.766802 -1.359226 4.683036
1.934630 -1.471866 4.680139
2.120195 -1.596636 5.378403
2.023762 -1.531888 5.300797
1.853911 -1.418058 5.825070
2.812069 -1.837509 0.502217
2.732672 -1.790424 0.836474
2.828524 -1.847495 1.164809
2.748240 -1.799827 1.318792
2.694001 -1.767790 1.961606
2.613689 -1.720087 2.058094
2.451999 -1.624041 2.224308
2.224198 -1.488782 2.649532
2.013615 -1.363798 3.208025
1.969132 -1.337489 3.623764
1.716246 -1.187209 3.688975
1.616210 -1.127949 4.316024
1.822933 -1.250890 4.567626
2.058920 -1.391281 5.002732
2.280431 -1.523028 5.306201
2.284809 -1.525639 5.333561
2.003400 -1.358515 5.748543
1.608829 -1.124085 6.001776
1.288161 -0.933701 6.647654
3.004130 -1.707107 0.145490
2.832400 -1.618855 0.659159
2.835707 -1.620601 0.806765
2.857824 -1.632177 1.440860
2.779129 -1.591729 1.654889
2.713142 -1.557879 2.053795
2.558990 -1.478625 2.402194
2.325565 -1.358585 2.826655
2.079603 -1.232037 3.070905
2.018574 -1.200706 3.359746
1.901074 -1.140383 3.915341
1.767816 -1.071893 4.286609
1.788206 -1.082436 4.440498
2.072815 -1.228986 4.547652
2.404025 -1.399618 4.961344
2.608328 -1.504999 5.647437
2.308175 -1.350431 5.484268
1.966579 -1.174764 6.109986
1.461853 -0.914994 6.325306
3.103714 -1.522602 0.362659
2.930687 -1.446570 0.879491
2.928207 -1.445451 0.785374
2.956416 -1.458092 1.542722
2.887130 -1.427702 1.941609
2.786461 -1.383334 1.792651
2.642786 -1.320249 2.387294
2.376219 -1.202915 2.502661
2.246446 -1.145954 3.111133
2.067151 -1.067026 3.159828
2.026263 -1.049162 3.639368
1.885932 -0.987484 4.008578
1.840445 -0.967560 4.367162
2.151242 -1.104470 4.601051
2.724202 -1.356941 5.286854
2.850799 -1.412737 5.478161
3.190622 -1.329162 0.302231
3.007874 -1.261845 0.634200
3.114250 -1.301211 1.081954
3.046398 -1.276347 1.658567
2.968759 -1.247786 1.933991
2.872915 -1.212423 1.905443
2.717871 -1.155364 2.375757
2.460087 -1.060359 2.675501
2.317258 -1.007810 3.157981
2.246734 -0.981860 3.383235
2.070321 -0.916817 3.496109
1.839591 -0.831833 3.940488
1.949063 -0.872438 4.728611
2.372840 -1.028838 5.002919
3.169171 -1.125872 0.697393
3.077446 -1.097656 0.849070
3.189185 -1.132205 1.297830
3.106800 -1.106902 1.573110
3.019689 -1.080109 1.728253
2.945586 -1.057375 2.067887
2.801166 -1.013049 2.664042
2.512691 -0.924177 2.658027
2.373687 -0.881507 3.204822
2.309476 -0.861806 3.493779
2.177455 -0.821272 3.986064
1.949822 -0.751270 4.435544
2.039180 -0.778784 4.384994
2.538665 -0.932861 5.099272
3.138613 -0.906393 0.832909
3.137686 -0.906159 0.799159
3.148501 -0.908867 1.130417
3.079308 -0.892286 1.710628
3.109453 -0.899704 2.164370
2.932117 -0.856863 2.390925
2.638766 -0.785891 2.381711
2.480176 -0.747639 2.800176
2.404543 -0.729403 3.025222
2.300769 -0.704709 4.525358
2.190026 -0.677894 4.442943
2.763174 -0.816694 4.950955
3.372176 -0.764013 0.406563
3.185222 -0.729831 0.863330
3.288326 -0.748790 1.009506
3.215873 -0.735652 1.588303
3.115877 -0.717295 1.561023
3.054782 -0.706243 2.145262
2.870288 -0.672434 2.311820
2.697555 -0.640817 2.604322
2.423831 -0.590655 2.847947
2.419875 -0.590160 3.701032
2.429783 -0.592191 4.484258
2.525958 -0.609999 5.073024
3.313489 -0.545478 0.432572
3.220952 -0.534352 0.764458
3.239092 -0.536688 1.277226
3.249151 -0.537963 1.485739
3.154681 -0.526539 1.578177
3.075817 -0.517071 1.915956
2.922494 -0.498648 2.509842
2.768643 -0.480130 2.987220
2.495447 -0.447085 3.232629
2.399796 -0.435503 3.270684
2.341428 -0.428524 3.623028
2.018845 -0.389584 4.208503
2.079911 -0.397095 4.616290
2.594330 -0.459461 4.689480
2.971335 -0.505415 5.660628
3.241262 -0.337600 0.473498
3.256413 -0.338663 1.049635
3.276743 -0.340004 1.503784
3.296312 -0.341267 1.836078
3.198570 -0.335412 1.871137
3.123001 -0.330969 2.212117
2.926226 -0.319173 2.256527
2.674109 -0.304192 2.806522
2.531917 -0.295807 3.355043
2.362754 -0.285923 4.353770
2.338036 -0.284569 4.835847
2.855689 -0.315648 4.903239
3.260537 -0.140298 0.708601
3.261219 -0.140305 0.735936
3.390636 -0.140402 1.487842
3.310180 -0.140556 1.824214
3.224756 -0.140682 2.040868
3.118336 -0.140744 1.953227
2.954071 -0.141002 2.425505
2.680028 -0.141303 2.727431
2.550372 -0.141587 3.399165
2.264985 -0.142053 4.288895
2.338070 -0.142120 4.757777
2.867258 -0.141730 4.889741
3.456331 0.050113 0.329849
3.359570 0.044650 0.540117
3.378483 0.045538 1.173568
3.404315 0.046844 1.685354
3.313930 0.041752 1.840111
3.133691 0.031603 2.125204
3.036201 0.026146 2.160232
2.765135 0.010901 2.520619
2.637763 0.003588 3.251391
2.563678 -0.000613 3.477883
2.488014 -0.005088 4.400477
2.594969 0.000715 5.052580
3.551075 0.279037 0.651179
3.361895 0.256415 0.985356
3.367354 0.257025 1.133088
3.379294 0.258375 1.401954
3.310054 0.249989 1.919587
3.204712 0.237466 1.831134
3.039507 0.217663 2.300391
2.766006 0.185008 2.599484
2.620407 0.167520 3.143218
2.674368 0.173823 3.605722
2.538055 0.157458 4.087641
2.519077 0.155052 4.629501
3.531739 0.472585 0.701971
3.331498 0.437605 0.553382
3.341568 0.439260 0.945577
3.351709 0.440960 1.216411
3.291354 0.430214 1.917689
3.212624 0.416370 2.196726
3.018426 0.382394 2.240980
2.839459 0.351032 2.470877
2.680216 0.323068 2.889957
2.534247 0.297408 3.376495
2.456298 0.283526 4.298082
2.548985 0.299576 4.887958
3.060003 0.388931 4.953721
3.177761 0.409353 5.591830
3.391817 0.660055 0.177594
3.314900 0.641502 1.114150
3.323609 0.643516 1.322443
3.327701 0.644466 1.409526
3.345584 0.648629 1.738798
3.164744 0.605552 1.960653
2.985635 0.562885 2.185392
2.859215 0.532599 2.968165
2.662173 0.485732 2.953971
2.504630 0.448159 3.314082
2.440379 0.432796 3.603294
2.238172 0.384506 4.299235
2.136835 0.360406 4.278295
2.622005 0.475652 4.870223
2.989035 0.562846 5.276792
2.982786 0.561369 5.242287
3.259638 0.840330 0.811783
3.352909 0.868676 0.715746
3.362665 0.871546 1.045367
3.395361 0.881281 1.736879
3.313018 0.856219 1.952273
3.141438 0.804043 2.237643
2.988926 0.757604 2.710468
2.711567 0.673357 2.829191
2.460136 0.596912 3.199699
2.469933 0.599861 3.290673
2.358575 0.565861 3.968294
2.008828 0.459592 4.240741
2.247669 0.532023 4.554340
2.688471 0.665769 4.891205
2.923087 0.736939 5.129852
2.935553 0.740557 5.727763
2.529886 0.617408 5.647450
2.127304 0.495049 6.087900
3.383526 1.105315 0.527014
3.291421 1.071052 0.615682
3.298010 1.073425 0.883757
3.326204 1.083709 1.574278
3.234022 1.049434 1.606359
3.181110 1.029583 2.245863
3.005766 0.964357 2.410697
2.836619 0.901416 2.639067
2.594050 0.811125 3.066446
2.423300 0.747604 3.239946
2.406016 0.740990 3.904187
2.114991 0.632826 3.845780
2.083979 0.621160 4.329676
2.470172 0.764527 4.999997
2.669517 0.838612 5.054654
2.852798 0.906599 5.556505
2.685357 0.844321 5.683951
2.383389 0.731953 6.102699
2.036225 0.602722 6.741939
1.677048 0.469174 6.860162
3.221608 1.251429 0.272961
3.228696 1.254394 0.723770
3.236147 1.257570 0.993230
3.256877 1.266477 1.504037
3.173048 1.229814 1.658393
3.005990 1.156757 1.942085
2.846073 1.086801 2.290809
2.684986 1.016350 2.582260
2.459395 0.917646 3.136410
2.397403 0.890483 3.425732
2.254689 0.828036 3.792176
2.009056 0.720664 4.049145
2.290280 0.843306 4.739861
2.456688 0.916034 4.610467
2.628730 0.991038 5.117475
2.629226 0.991097 5.658106
2.353248 0.870538 5.681660
2.159780 0.785892 6.145897
3.314486 1.541357 0.189157
3.144856 1.454088 0.760111
3.147022 1.455174 0.846476
3.246314 1.506059 1.170250
3.180438 1.472081 1.683157
3.030212 1.394807 2.146303
2.943299 1.350171 2.180073
2.795486 1.274151 2.589631
2.537040 1.141415 2.705413
2.313791 1.026638 3.197991
2.377291 1.059066 3.786160
2.130997 0.932546 3.978202
2.112151 0.922706 4.523116
2.406199 1.073638 4.690452
2.507020 1.125383 4.762943
2.558746 1.151842 5.099115
2.471535 1.106895 5.658441
2.248365 0.992224 5.931604
1.865592 0.795570 6.314170
1.560955 0.639060 6.619271
3.055798 1.618503 0.428751
3.059141 1.620389 0.638339
3.070987 1.627166 1.089479
3.089181 1.637647 1.540337
3.027573 1.601541 1.997885
2.939461 1.550111 1.972721
2.711981 1.417165 2.451747
2.497225 1.291626 3.001714
2.351885 1.206687 3.300723
2.275321 1.161959 3.403796
2.076810 1.045897 3.972305
1.940367 0.966149 4.282248
2.139390 1.082276 4.469242
2.339416 1.198990 4.653017
2.417245 1.244263 5.177569
2.471831 1.276025 5.514785
2.254152 1.148865 5.786843
2.109063 1.063963 6.440447
3.198102 1.967443 0.064808
2.954394 1.804246 0.636687
3.048818 1.867262 1.083291
3.047789 1.866584 1.050620
2.993371 1.829961 1.745832
2.911858 1.775428 1.779705
2.777063 1.685094 2.307571
2.613298 1.575540 2.351888
2.404929 1.435988 2.900243
2.275840 1.349506 3.322348
2.062840 1.206911 3.699528
1.832401 1.052710 3.893268
1.932330 1.119507 4.035169
2.162188 1.273095 4.536998
2.317342 1.376713 5.047376
2.287079 1.356355 5.404390
2.250185 1.331582 5.700728
2.091894 1.225681 5.768378
1.825237 1.047180 6.193080
1.637602 0.921411 7.010069
2.997900 2.096372 0.452091
2.838990 1.975733 0.483983
2.936777 2.049712 1.233229
2.933688 2.047398 1.141578
2.871650 2.000152 1.596904
2.802320 1.947451 1.813042
2.690727 1.862482 2.585709
2.548345 1.754322 2.816907
2.308015 1.571887 2.814205
2.121577 1.430153 3.435481
1.918790 1.276089 3.815981
1.791680 1.179496 4.125557
1.888487 1.252935 4.267723
2.215591 1.501017 4.936738
2.280976 1.550688 4.823456
2.162334 1.460523 5.133856
2.104915 1.416705 5.822700
2.016486 1.349429 6.266991
1.821421 1.201260 6.548644
1.438055 0.910200 6.687067
2.786006 2.209744 0.261721
2.794200 2.216598 0.829409
2.882599 2.292535 1.271935
2.879471 2.289876 1.177813
2.820768 2.239186 1.628806
2.685471 2.122604 1.969053
2.542450 1.999436 2.131059
2.349085 1.832800 2.672206
2.129160 1.643450 2.789056
1.934754 1.475956 3.221243
1.658268 1.237844 3.546729
1.724793 1.294876 4.207625
1.802779 1.362000 4.220445
2.046507 1.571536 4.968342
2.066692 1.588857 5.119745
2.004287 1.535102 5.226638
2.045092 1.569946 6.021575
1.806964 1.364982 5.984224
2.661854 2.360163 0.401898
2.674977 2.372519 1.091987
2.746136 2.440923 1.056042
2.768363 2.462053 1.683125
2.697627 2.394057 1.717088
2.566660 2.268081 1.999539
2.437789 2.144120 2.285690
2.247517 1.961096 2.707501
2.148635 1.865838 3.311684
1.864619 1.592847 3.386905
1.692522 1.427258 3.893636
1.623913 1.361304 3.936331
1.829170 1.558363 4.504286
1.971106 1.694564 5.077648
1.990760 1.713397 5.229192
2.054384 1.774373 5.691167
1.935123 1.659683 5.882197
1.775318 1.505948 6.284533
2.584037 2.597409 0.729043
2.596033 2.610248 1.234475
2.607091 2.622139 1.559826
2.494386 2.499439 2.079319
2.354639 2.347585 1.998810
2.195777 2.174615 2.781989
2.003923 1.966026 2.961613
1.894360 1.846803 3.320161
1.648144 1.579073 3.645274
1.465721 1.380703 3.900753
1.559075 1.482061 4.168078
1.721009 1.657962 4.418011
1.942203 1.898077 5.160846
1.968796 1.926897 5.373502
1.831196 1.777344 5.374920
1.777344 1.718566 6.003001
1.637854 1.566776 6.470069
1.292348 1.191255 6.478231
2.495522 2.810315 0.470155
2.369528 2.657033 0.560879
2.374874 2.663398 0.889125
2.381079 2.670832 1.157089
2.336343 2.616179 1.731696
2.281688 2.549612 1.946837
2.164778 2.407323 2.171032
2.059300 2.278860 2.581972
1.419471 1.499940 4.270990
1.536201 1.641968 4.144581
1.694204 1.834014 4.457638
1.804952 1.968525 4.905183
1.787896 1.947606 5.323012
1.728565 1.875205 5.887073
1.607732 1.728210 5.954703
2.259670 2.874066 0.276101
2.204740 2.798109 0.665288
2.209201 2.804141 0.933087
2.213708 2.810265 1.140638
2.220876 2.820032 1.408267
2.126639 2.689732 2.050817
2.022021 2.545274 2.336347
1.922515 2.407840 2.686783
1.287915 1.531852 3.806851
1.384403 1.664755 4.265695
1.537067 1.875196 4.641456
1.634737 2.009764 5.027995
1.634196 2.008770 5.572731
1.565611 1.914187 5.494778
1.528521 1.862703 6.189109
2.133347 3.091756 0.317689
2.029104 2.927504 0.648358
2.030259 2.929278 0.736065
2.049814 2.959627 1.605794
2.045308 2.952610 1.452899
1.944490 2.793803 1.672583
1.851535 2.647282 2.077994
1.711299 2.426298 2.558848
1.209108 1.635063 4.048231
1.274004 1.737143 4.190077
1.413015 1.955772 4.567005
1.437327 1.993904 4.844569
1.481330 2.062937 5.309089
1.470079 2.045018 5.729502
1.395449 1.927385 6.046944
1.872077 3.050554 1.182940
1.875296 3.056222 1.329095
1.891371 3.084621 1.895945
1.796841 2.915746 1.995995
1.700297 2.743307 2.036346
1.537655 2.452410 2.832362
1.447973 2.292154 3.002942
1.258307 1.953358 3.134520
1.094867 1.661154 3.714401
1.096569 1.664178 3.741742
1.199485 1.847553 4.515816
1.259581 1.954804 4.653385
1.335567 2.090329 4.977563
1.348622 2.113561 5.129495
1.283235 1.996582 5.505902
1.274407 1.980585 5.929178
1.718318 3.227774 0.339844
1.636010 3.057125 0.852611
1.679069 3.146256 0.816478
1.690174 3.168853 1.445148
1.698439 3.185755 1.772724
1.617751 3.018637 1.994104
1.549039 2.876114 2.522733
1.376800 2.519630 2.586117
1.250456 2.258091 2.703515
1.098162 1.942609 3.211309
0.949814 1.635286 3.731185
0.911853 1.556662 3.836571
1.014787 1.769524 4.093646
1.084033 1.912587 4.487685
1.222136 2.197968 5.172704
1.186389 2.123924 5.279761
1.182506 2.115592 5.763971
1.110699 1.966870 5.956152
1.448477 3.160678 1.123918
1.447973 3.159471 1.090423
1.460038 3.188496 1.720857
1.422861 3.097662 1.753932
1.355898 2.933849 2.098222
1.213069 2.584745 2.402389
1.109214 2.330847 2.704732
0.971421 1.993991 3.086056
0.838450 1.668863 3.540308
0.770571 1.502927 3.721397
0.835887 1.662102 4.249437
0.960641 1.966716 4.424497
1.076249 2.248672 5.048906
1.040803 2.162055 5.094106
1.022906 2.117762 5.912978
1.002975 2.068909 6.150078
1.267063 3.227773 0.859454
1.273753 3.246708 1.370127
1.279703 3.263653 1.699415
1.247651 3.170905 1.733123
1.188395 2.999259 2.017067
1.064967 2.641962 2.320861
0.977046 2.387326 2.685494
0.858175 2.043148 3.067312
0.713557 1.624369 3.598049
0.633940 1.393681 4.052002
0.744238 1.712549 4.296620
0.858417 2.042597 4.598212
0.919872 2.219951 5.113710
0.900591 2.163984 5.348343
0.877979 2.098432 5.521157
0.844559 2.001340 6.030606
1.042326 3.192456 0.447260
1.044760 3.200760 0.837596
1.077929 3.318650 1.404551
1.080049 3.326073 1.551651
1.058634 3.249267 1.886327
1.012765 3.085065 2.291874
0.904500 2.698451 2.289499
0.838350 2.461619 2.901916
0.737212 2.100195 3.159045
0.687514 1.921790 4.102331
0.685342 1.913425 4.716808
0.745409 2.127807 4.838771
0.773931 2.229070 5.432787
0.742466 2.116788 5.352708
0.728146 2.064896 6.113576
0.673347 1.869200 6.118913
0.603907 1.620546 6.808007
0.864877 3.346421 0.299398
0.846463 3.259963 0.874775
0.870073 3.369467 1.202225
0.874242 3.388376 1.592898
0.855999 3.303174 1.808786
0.817167 3.122106 2.033252
0.761042 2.860282 2.453139
0.679072 2.478511 2.579296
0.602425 2.121195 2.960745
0.528449 1.775237 4.191755
0.512527 1.700891 4.364388
0.590393 2.062857 4.791667
0.630628 2.249516 5.306594
0.613509 2.169680 5.415036
0.586254 2.042308 5.796246
0.560050 1.919827 6.181296
0.514424 1.706894 6.591933
0.676917 3.388987 0.249355
0.663475 3.302328 0.883063
0.679445 3.403846 0.966807
0.682497 3.422501 1.415868
0.669367 3.338448 1.689611
0.643297 3.171692 2.154853
0.585783 2.804934 2.521028
0.508012 2.309844 2.529618
0.452266 1.954211 2.973957
0.424198 1.773793 3.986114
0.415081 1.715240 4.284246
0.463767 2.023967 4.982684
0.492214 2.204276 5.435478
0.487548 2.174855 5.273839
0.467154 2.044372 5.654657
0.453789 1.958307 6.230239
0.398392 1.605242 6.470501
0.459011 3.326618 0.435889
0.459745 3.333418 0.766549
0.470284 3.443613 1.093253
0.464006 3.375616 1.730285
0.454383 3.274239 1.703188
0.431126 3.027004 2.423972
0.393738 2.632639 2.486149
0.361065 2.286568 3.052930
0.321902 1.874009 2.932162
0.316720 1.815992 4.129059
0.314187 1.787892 4.620621
0.337200 2.029812 4.870877
0.345096 2.111731 5.341648
0.337416 2.030460 5.450206
0.333304 1.986251 5.750186
0.252372 3.352561 0.646943
0.256198 3.466140 1.093725
0.254003 3.394176 1.669036
0.251384 3.311641 1.944257
0.242711 3.042469 2.359552
0.229800 2.646302 2.419608
0.214878 2.185331 2.868207
0.205471 1.896041 2.989002
0.204263 1.848738 4.246192
0.203886 1.832638 4.800577
0.211191 2.055505 4.922946
0.212093 2.081897 5.077328
0.211407 2.057388 5.503265
0.210060 2.013655 5.803823
0.203355 1.804300 6.274626
0.188589 1.349651 6.537055
