20.400000 -4.054688 1.372597
20.300000 -3.424805 1.372597
20.300000 -2.794922 1.372597
20.300000 -2.165039 1.372597
20.400000 -4.979492 1.525744
20.200000 -4.348145 1.525744
20.300000 -3.716797 1.525744
20.300000 -3.085449 1.525744
20.400000 -4.704102 1.665117
20.300000 -4.074707 1.665117
20.300000 -3.445312 1.665117
20.300000 -3.565918 1.665117
20.300000 -2.186523 1.665117
20.200000 -4.419922 1.819831
20.300000 -3.790039 1.819831
20.300000 -3.160156 1.819831
20.400000 -4.826660 1.961924
20.200000 -4.198242 1.961924
20.300000 -3.569824 1.961924
20.300000 -2.941406 1.961924
20.300000 -2.312988 1.961924
20.100000 -4.890625 2.118972
20.300000 -4.512207 2.118972
20.200000 -3.883789 2.118972
20.300000 -3.255371 2.118972
20.400000 -4.710938 2.261249
20.200000 -4.080078 2.261249
20.300000 -3.449219 2.261249
20.300000 -2.818359 2.261249
20.300000 -2.187500 2.261249
20.300000 -4.479004 2.402376
20.200000 -3.847656 2.402376
20.200000 -3.216309 2.402376
20.400000 -4.978516 2.543557
20.200000 -4.347656 2.543557
20.300000 -3.716797 2.543557
20.300000 -3.960938 2.543557
20.400000 -4.945312 2.697917
20.200000 -4.064453 2.697917
20.300000 -3.683594 2.697917
20.300000 -3.052734 2.697917
20.400000 -4.899902 2.841159
20.300000 -4.269531 2.841159
20.300000 -3.639160 2.841159
20.300000 -3.008789 2.841159
20.400000 -4.943359 2.992380
20.200000 -4.313477 2.992380
20.300000 -3.683594 2.992380
20.300000 -3.053711 2.992380
20.300000 -3.508301 3.134774
20.200000 -2.875000 3.134774
20.300000 -2.246094 3.134774
20.400000 -5.000977 3.277858
20.300000 -3.619141 3.277858
20.300000 -3.737305 3.277858
20.200000 -5.094727 3.419849
20.200000 -4.464844 3.419849
20.200000 -3.834961 3.419849
20.200000 -3.205078 3.419849
20.200000 -4.419434 3.565440
20.300000 -3.789062 3.565440
20.300000 -3.158691 3.565440
20.200000 -3.946289 3.713844
20.200000 -4.191406 3.713844
20.300000 -2.686523 3.713844
20.300000 -2.056641 3.713844
20.200000 -5.105469 3.857975
20.200000 -4.475586 3.857975
20.200000 -3.845703 3.857975
20.200000 -3.965820 3.857975
20.400000 -4.843750 4.011847
20.200000 -4.216309 4.011847
20.300000 -4.088867 4.011847
20.200000 -2.961426 4.011847
20.400000 -4.650391 4.153921
20.200000 -4.019043 4.153921
20.300000 -4.387695 4.153921
20.300000 -2.756348 4.153921
20.300000 -2.125000 4.153921
20.400000 -4.292969 4.293067
20.300000 -3.662598 4.293067
20.300000 -3.032227 4.293067
20.400000 -4.142578 4.440142
20.300000 -3.512207 4.440142
20.200000 -2.881836 4.440142
20.300000 -2.251465 4.440142
20.300000 -4.840332 4.589099
20.200000 -4.210938 4.589099
20.300000 -4.206543 4.589099
20.200000 -2.952148 4.589099
20.300000 -2.322754 4.589099
20.300000 -5.128906 4.732800
20.200000 -5.125000 4.732800
20.300000 -3.746094 4.732800
20.300000 -3.117188 4.732800
20.100000 -4.714844 4.886276
20.200000 -3.960449 4.886276
20.200000 -3.331055 4.886276
20.300000 -2.701660 4.886276
20.400000 -2.072266 4.886276
20.400000 -4.045410 5.028666
20.300000 -3.416992 5.028666
20.300000 -2.788574 5.028666
20.300000 -2.160156 5.028666
20.100000 -5.131836 5.180860
20.200000 -4.500000 5.180860
20.200000 -3.869141 5.180860
20.200000 -3.238281 5.180860
20.400000 -4.641113 5.332049
20.200000 -4.009766 5.332049
20.300000 -3.378418 5.332049
20.300000 -2.747070 5.332049
20.400000 -2.115723 5.332049
20.400000 -4.755859 5.470818
20.300000 -4.124023 5.470818
20.200000 -3.492188 5.470818
20.200000 -2.860352 5.470818
20.300000 -2.228516 5.470818
20.300000 -4.883789 5.612455
20.200000 -4.251953 5.612455
20.300000 -3.620117 5.612455
20.300000 -2.988281 5.612455
20.300000 -4.931641 5.764922
20.200000 -4.302246 5.764922
20.300000 -3.672852 5.764922
20.200000 -3.043457 5.764922
20.100000 -5.215820 5.906364
20.200000 -5.585938 5.906364
20.200000 -3.956055 5.906364
20.200000 -3.326172 5.906364
20.200000 -2.696289 5.906364
20.400000 -2.066406 5.906364
20.300000 -5.500977 6.062289
20.200000 -4.246094 6.062289
20.300000 -3.616211 6.062289
20.200000 -2.986328 6.062289
20.200000 -4.367188 6.205299
20.300000 -3.734375 6.205299
20.200000 -3.979004 6.205299
20.100000 -4.660156 6.343040
20.200000 -4.029297 6.343040
20.200000 -4.398438 6.343040
20.200000 -2.767578 6.343040
20.400000 -2.136719 6.343040
20.300000 -4.392578 6.486071
20.300000 -4.262695 6.486071
20.200000 -4.007812 6.486071
20.100000 -5.109375 6.639124
20.200000 -4.478516 6.639124
20.200000 -3.847656 6.639124
20.200000 -3.216797 6.639124
20.100000 -5.982910 6.792222
20.200000 -4.478516 6.792222
20.200000 -3.849121 6.792222
20.300000 -3.219727 6.792222
20.400000 -4.911133 6.933250
20.300000 -4.281738 6.933250
20.300000 -3.652344 6.933250
20.200000 -3.022949 6.933250
20.100000 -5.074219 7.085441
20.200000 -4.445312 7.085441
20.200000 -4.816406 7.085441
20.200000 -3.187500 7.085441
20.100000 -5.226562 7.225159
20.300000 -4.595703 7.225159
20.200000 -3.964844 7.225159
20.200000 -4.333984 7.225159
20.200000 -2.703125 7.225159
20.400000 -2.071777 7.225159
20.400000 -6.179688 7.364120
20.300000 -4.671875 7.364120
20.200000 -4.039062 7.364120
20.200000 -3.406250 7.364120
20.200000 -2.773438 7.364120
20.400000 -3.140625 7.364120
20.400000 -4.879395 7.519009
20.300000 -4.248047 7.519009
20.300000 -3.616699 7.519009
20.200000 -2.985352 7.519009
20.400000 -4.684082 7.660936
20.200000 -4.054688 7.660936
20.200000 -3.425293 7.660936
20.200000 -3.545898 7.660936
20.400000 -2.166504 7.660936
20.200000 -4.446777 7.803952
20.200000 -3.818359 7.803952
20.200000 -3.189941 7.803952
20.200000 -3.436523 7.803952
20.400000 -2.933105 7.803952
20.400000 -5.536133 7.955351
20.300000 -4.156738 7.955351
20.200000 -3.527344 7.955351
20.200000 -2.897949 7.955351
20.300000 -2.268555 7.955351
20.200000 -4.475586 8.110681
20.200000 -3.846191 8.110681
20.200000 -3.216797 8.110681
20.200000 -2.587402 8.110681
20.400000 -1.958008 8.110681
20.400000 -4.928223 8.250227
20.200000 -4.295898 8.250227
20.300000 -3.663574 8.250227
20.200000 -3.031250 8.250227
20.100000 -5.246094 8.391159
20.200000 -4.988770 8.391159
20.300000 -4.606445 8.391159
20.300000 -3.349121 8.391159
20.200000 -3.591797 8.391159
20.300000 -2.084473 8.391159
20.200000 -4.262695 8.543536
20.300000 -3.630859 8.543536
20.200000 -2.999023 8.543536
20.400000 -4.942383 8.683863
20.200000 -4.312500 8.683863
20.300000 -3.682617 8.683863
20.200000 -3.052734 8.683863
20.400000 -4.851562 8.837489
20.200000 -4.222656 8.837489
20.200000 -3.593750 8.837489
20.200000 -2.964844 8.837489
20.400000 -4.874512 8.978036
20.200000 -4.243164 8.978036
20.200000 -3.611816 8.978036
20.200000 -2.980469 8.978036
20.400000 -4.859375 9.133245
20.200000 -4.228516 9.133245
20.200000 -3.597656 9.133245
20.200000 -2.966797 9.133245
20.400000 -4.898438 9.273469
20.200000 -4.265625 9.273469
20.200000 -4.132812 9.273469
20.300000 -3.000000 9.273469
20.400000 -4.942383 9.412673
20.200000 -4.309082 9.412673
20.200000 -4.675781 9.412673
20.300000 -3.042480 9.412673
20.400000 -4.711914 9.569307
20.200000 -4.080078 9.569307
20.200000 -3.448242 9.569307
20.200000 -2.816406 9.569307
20.300000 -2.184570 9.569307
20.400000 -5.046875 9.710189
20.200000 -4.042969 9.710189
20.200000 -3.414062 9.710189
20.200000 -2.785156 9.710189
20.300000 -2.156250 9.710189
20.400000 -4.707031 9.851262
20.200000 -4.078125 9.851262
20.200000 -3.449219 9.851262
20.200000 -2.820312 9.851262
20.300000 -2.191406 9.851262
20.100000 -5.150391 10.005224
20.200000 -4.519531 10.005224
20.200000 -3.888672 10.005224
20.300000 -3.257812 10.005224
20.300000 -4.690918 10.146044
20.200000 -4.059570 10.146044
20.200000 -3.428223 10.146044
20.200000 -3.046875 10.146044
20.300000 -2.165039 10.146044
20.400000 -5.289062 10.286381
20.200000 -4.030273 10.286381
20.200000 -3.396484 10.286381
20.200000 -3.262695 10.286381
20.300000 -2.128906 10.286381
