24.200000 -8.700195 0.043782
24.100000 -9.574219 0.043782
24.100000 -8.698242 0.043782
24.000000 -7.197266 0.043782
24.000000 -8.321289 0.043782
24.000000 -4.313477 0.043782
23.800000 -2.562500 0.043782
23.700000 -1.689941 0.043782
23.800000 -1.192383 0.043782
23.800000 -0.694824 0.043782
23.700000 -0.197266 0.043782
23.900000 0.300293 0.043782
24.100000 -10.115234 0.329235
24.100000 -9.616211 0.329235
24.000000 -9.242188 0.329235
24.000000 -8.368164 0.329235
23.900000 -4.375977 0.329235
23.800000 -4.001953 0.329235
23.700000 -3.002930 0.329235
23.800000 -2.503906 0.329235
23.800000 -2.379883 0.329235
24.200000 -10.483398 0.412233
24.100000 -9.854004 0.412233
24.100000 -9.224609 0.412233
24.000000 -8.470215 0.412233
24.000000 -8.590820 0.412233
24.000000 -2.680664 0.412233
23.700000 -3.426270 0.412233
23.700000 -1.421875 0.412233
23.800000 -2.668945 0.412233
23.800000 -2.666016 0.412233
24.100000 -9.344238 0.591230
24.000000 -7.338867 0.591230
24.000000 -8.833496 0.591230
23.800000 -3.421875 0.591230
23.700000 -1.792969 0.591230
23.700000 -2.789062 0.591230
23.800000 -2.160156 0.591230
23.700000 -2.031250 0.591230
23.900000 -1.652344 0.591230
24.300000 -10.431641 0.771233
24.100000 -8.301270 0.771233
24.100000 -9.170898 0.771233
24.000000 -9.040527 0.771233
24.000000 -8.785156 0.771233
23.800000 -3.236816 0.771233
23.700000 -3.106445 0.771233
23.800000 -2.851074 0.771233
23.800000 -0.720703 0.771233
23.700000 -0.215332 0.771233
23.900000 -1.459961 0.771233
24.100000 -9.625000 0.960204
24.100000 -8.245117 0.960204
24.000000 -8.865234 0.960204
24.000000 -7.860352 0.960204
24.000000 -2.821289 0.960204
23.800000 -2.066406 0.960204
23.700000 -1.561523 0.960204
23.800000 -1.056641 0.960204
23.800000 -1.801758 0.960204
24.100000 -9.063477 1.142233
24.000000 -8.437988 1.142233
24.000000 -8.187500 1.142233
23.900000 -4.187500 1.142233
23.700000 -3.812500 1.142233
23.700000 -1.312500 1.142233
23.700000 -0.812500 1.142233
23.700000 -0.312500 1.142233
23.900000 -1.812500 1.142233
24.300000 -10.562500 1.322233
24.100000 -9.806641 1.322233
24.100000 -9.800781 1.322233
24.000000 -8.419922 1.322233
24.000000 -8.039063 1.322233
24.000000 -2.742188 1.322233
23.800000 -2.236328 1.322233
23.700000 -2.855469 1.322233
23.700000 -1.224609 1.322233
23.700000 -0.718750 1.322233
23.700000 -1.712891 1.322233
23.900000 0.292969 1.322233
23.800000 -0.639648 1.510228
23.800000 -1.507324 1.510228
24.000000 -1.625000 1.510228
24.300000 -10.416992 1.689233
24.100000 -8.910156 1.689233
24.100000 -9.778320 1.689233
24.000000 -9.271484 1.689233
24.000000 -8.389648 1.689233
23.900000 -2.203125 1.689233
23.700000 -1.699219 1.689233
23.700000 -2.320312 1.689233
23.700000 -0.691406 1.689233
23.700000 -1.562500 1.689233
23.900000 -1.808594 1.689233
24.100000 -7.862305 1.869235
24.000000 -7.360840 1.869235
24.000000 -8.609375 1.869235
24.000000 -7.358887 1.869235
23.900000 -3.979980 1.869235
23.700000 -2.854492 1.869235
23.700000 -1.354004 1.869235
23.700000 -2.353516 1.869235
23.700000 -0.353027 1.869235
23.800000 0.147461 1.869235
24.100000 -8.331055 2.049204
24.000000 -8.951172 2.049204
24.000000 -8.321289 2.049204
23.900000 -3.402344 2.049204
23.700000 -3.522461 2.049204
23.700000 -2.392578 2.049204
23.700000 -2.387695 2.049204
23.700000 -2.132812 2.049204
23.900000 -1.377930 2.049204
24.100000 -7.963867 2.239233
24.000000 -8.957520 2.239233
24.000000 -8.326172 2.239233
24.000000 -6.444824 2.239233
23.900000 -3.650391 2.239233
23.800000 -2.394043 2.239233
23.800000 -2.012695 2.239233
23.700000 -2.256348 2.239233
23.800000 -2.875000 2.239233
23.700000 -1.123047 2.239233
23.800000 -0.496094 2.239233
24.100000 -8.632812 2.420236
24.000000 -9.255859 2.420236
24.000000 -8.503906 2.420236
24.000000 -8.376953 2.420236
24.000000 -3.111328 2.420236
23.800000 -2.734375 2.420236
23.700000 -2.732422 2.420236
23.700000 -2.980469 2.420236
23.700000 -1.853516 2.420236
24.200000 -10.722656 2.598233
24.100000 -9.218750 2.598233
24.100000 -9.714844 2.598233
24.000000 -7.710938 2.598233
24.000000 -8.582031 2.598233
23.900000 -4.929688 2.598233
23.800000 -3.796875 2.598233
23.700000 -3.542969 2.598233
23.700000 -2.914062 2.598233
23.700000 -2.410156 2.598233
23.700000 -0.156250 2.598233
23.900000 -1.652344 2.598233
24.200000 -9.826172 2.785202
24.100000 -9.320312 2.785202
24.100000 -9.564453 2.785202
24.000000 -9.058594 2.785202
24.000000 -7.802734 2.785202
24.000000 -2.630859 2.785202
23.800000 -4.125000 2.785202
23.700000 -1.622070 2.785202
23.700000 -2.744141 2.785202
23.700000 -2.491211 2.785202
23.700000 -0.113281 2.785202
23.900000 -1.485352 2.785202
24.200000 -8.694336 2.966204
24.100000 -9.190918 2.966204
24.100000 -9.187500 2.966204
24.000000 -9.185059 2.966204
24.000000 -7.182617 2.966204
23.900000 -5.040527 2.966204
23.900000 -3.288086 2.966204
23.700000 -3.285645 2.966204
23.700000 -2.533203 2.966204
23.700000 -2.655762 2.966204
23.700000 -1.778320 2.966204
23.700000 -1.150879 2.966204
23.900000 -1.398438 2.966204
24.100000 -9.937500 3.156233
24.000000 -8.937500 3.156233
24.000000 -8.562500 3.156233
24.000000 -8.312500 3.156233
23.900000 -4.687500 3.156233
23.800000 -3.562500 3.156233
23.800000 -3.437500 3.156233
23.700000 -1.437500 3.156233
23.700000 -1.312500 3.156233
23.700000 -1.437500 3.156233
23.800000 -1.187500 3.156233
24.100000 -9.264160 3.336232
24.100000 -8.014648 3.336232
24.000000 -7.640137 3.336232
24.000000 -7.765625 3.336232
24.000000 -2.664062 3.336232
23.700000 -4.041992 3.336232
23.700000 -1.669922 3.336232
23.700000 -2.797852 3.336232
23.700000 -1.550781 3.336232
24.100000 -9.264648 3.525234
24.000000 -7.640625 3.525234
24.000000 -8.641602 3.525234
24.000000 -6.392578 3.525234
23.900000 -2.400391 3.525234
23.800000 -3.151367 3.525234
23.700000 -1.402344 3.525234
23.700000 -2.153320 3.525234
23.700000 -0.404297 3.525234
23.800000 -1.155273 3.525234
24.100000 -8.126953 3.703204
24.100000 -7.500000 3.703204
24.000000 -7.000000 3.703204
24.000000 -7.375000 3.703204
23.900000 -4.125000 3.703204
23.800000 -2.875000 3.703204
23.700000 -1.500000 3.703204
23.700000 -1.875000 3.703204
23.700000 -0.500000 3.703204
24.100000 -7.872070 3.893233
24.000000 -7.368652 3.893233
24.000000 -7.990234 3.893233
24.000000 -6.361816 3.893233
23.900000 -3.584473 3.893233
23.800000 -1.831055 3.893233
23.700000 -1.327637 3.893233
23.700000 -2.574219 3.893233
23.700000 -1.945801 3.893233
23.800000 -1.692383 3.893233
24.100000 -9.589844 4.072234
24.100000 -9.210938 4.072234
24.000000 -8.582031 4.072234
24.000000 -6.828125 4.072234
23.900000 -2.546875 4.072234
23.800000 -3.924805 4.072234
23.700000 -2.302734 4.072234
23.700000 -2.680664 4.072234
23.700000 -1.558594 4.072234
24.200000 -10.125000 4.260233
24.100000 -10.250000 4.260233
24.100000 -9.625000 4.260233
24.000000 -8.375000 4.260233
24.000000 -8.125000 4.260233
23.800000 -2.250000 4.260233
23.700000 -1.750000 4.260233
23.700000 -1.250000 4.260233
23.700000 -2.500000 4.260233
24.200000 -10.073242 4.442204
24.100000 -9.201660 4.442204
24.100000 -9.080078 4.442204
24.000000 -8.708496 4.442204
24.000000 -7.211914 4.442204
23.900000 -3.648437 4.442204
23.700000 -2.281250 4.442204
23.700000 -3.164062 4.442204
23.700000 -1.296875 4.442204
23.700000 -0.304688 4.442204
23.900000 -0.812500 4.442204
24.100000 -9.615234 4.629237
24.100000 -8.617187 4.629237
24.100000 -8.119141 4.629237
24.000000 -8.121094 4.629237
23.900000 -2.511719 4.629237
23.800000 -3.013672 4.629237
23.700000 -3.265625 4.629237
23.700000 -2.020996 4.629237
23.700000 -0.526367 4.629237
24.200000 -10.730469 4.818234
24.100000 -8.984375 4.818234
24.100000 -8.238281 4.818234
24.000000 -7.242188 4.818234
24.000000 -6.746094 4.818234
23.900000 -2.281250 4.818234
23.700000 -3.160156 4.818234
23.700000 -2.789062 4.818234
23.700000 -1.417969 4.818234
23.700000 -0.671875 4.818234
23.900000 0.199219 4.818234
24.200000 -10.166504 4.997236
24.100000 -7.546875 4.997236
24.000000 -7.554199 4.997236
24.000000 -6.936523 4.997236
23.900000 -2.745117 4.997236
23.800000 -4.127441 4.997236
23.700000 -1.634766 4.997236
23.700000 -1.142090 4.997236
23.700000 -2.274414 4.997236
24.300000 -10.546875 5.187233
24.100000 -9.419922 5.187233
24.100000 -8.167969 5.187233
24.000000 -9.166016 5.187233
24.000000 -6.789062 5.187233
24.000000 -6.912109 5.187233
23.800000 -3.146484 5.187233
23.700000 -2.644531 5.187233
23.700000 -1.017578 5.187233
23.700000 -1.265625 5.187233
23.700000 -0.268066 5.187233
23.900000 -0.770508 5.187233
24.100000 -9.678711 5.366234
24.100000 -7.425293 5.366234
24.000000 -8.546875 5.366234
24.000000 -6.419922 5.366234
23.900000 -4.279297 5.366234
23.800000 -3.902344 5.366234
23.700000 -1.400391 5.366234
23.700000 -2.023438 5.366234
23.700000 -1.771484 5.366234
23.800000 -1.019531 5.366234
24.100000 -9.647461 5.555238
24.100000 -8.396484 5.555238
24.000000 -8.770508 5.555238
24.000000 -6.394531 5.555238
23.900000 -3.886719 5.555238
23.800000 -1.885742 5.555238
23.700000 -3.259766 5.555238
23.700000 -2.508789 5.555238
23.700000 -2.132812 5.555238
23.800000 0.118164 5.555238
24.100000 -8.719238 5.733233
24.000000 -7.348633 5.733233
24.000000 -6.853027 5.733233
23.900000 -2.398438 5.733233
23.800000 -3.904297 5.733233
23.800000 -3.160156 5.733233
23.800000 -0.916016 5.733233
23.700000 -1.546875 5.733233
23.800000 -0.302734 5.733233
24.100000 -9.511719 5.922204
24.100000 -9.138672 5.922204
24.000000 -8.765625 5.922204
24.000000 -7.017578 5.922204
23.900000 -4.158203 5.922204
23.800000 -3.535156 5.922204
23.700000 -2.662109 5.922204
23.700000 -2.789062 5.922204
23.700000 -0.416016 5.922204
23.800000 0.082031 5.922204
24.100000 -9.377930 6.103202
24.100000 -8.630859 6.103202
24.000000 -8.258789 6.103202
24.000000 -7.511719 6.103202
23.900000 -2.535156 6.103202
23.800000 -2.038086 6.103202
23.700000 -2.791016 6.103202
23.700000 -1.168945 6.103202
23.700000 -2.296875 6.103202
24.100000 -8.136719 6.292204
24.100000 -8.507812 6.292204
24.000000 -9.003906 6.292204
24.000000 -8.500000 6.292204
24.000000 -2.593750 6.292204
23.800000 -2.089844 6.292204
23.700000 -3.210938 6.292204
23.700000 -2.957031 6.292204
23.700000 -0.578125 6.292204
24.100000 -9.420898 6.471232
24.000000 -8.287109 6.471232
24.000000 -8.028320 6.471232
23.900000 -3.583984 6.471232
23.700000 -1.702637 6.471232
23.700000 -1.196289 6.471232
23.700000 -0.689941 6.471232
24.100000 -9.637207 6.650203
24.100000 -8.377930 6.650203
24.000000 -8.993652 6.650203
24.000000 -7.484375 6.650203
23.900000 -3.285156 6.650203
23.800000 -3.150879 6.650203
23.700000 -2.141602 6.650203
23.800000 -1.507324 6.650203
23.700000 -2.248047 6.650203
23.900000 -1.238770 6.650203
24.100000 -10.134766 6.830204
24.100000 -9.625000 6.830204
24.000000 -7.117676 6.830204
24.000000 -8.110352 6.830204
24.000000 -4.176758 6.830204
23.800000 -3.669434 6.830204
23.700000 -1.537109 6.830204
23.700000 -2.779785 6.830204
23.700000 -0.522461 6.830204
24.100000 -7.888672 7.011204
24.100000 -8.630371 7.011204
24.000000 -7.872070 7.011204
24.000000 -7.738770 7.011204
23.900000 -4.047363 7.011204
23.700000 -1.914063 7.011204
23.700000 -3.030762 7.011204
23.800000 -0.772461 7.011204
23.700000 -1.889160 7.011204
23.900000 -1.755859 7.011204
24.200000 -10.729980 7.192233
24.100000 -10.222656 7.192233
24.100000 -9.090332 7.192233
24.000000 -7.208008 7.192233
24.000000 -6.700684 7.192233
23.900000 -2.642090 7.192233
23.700000 -3.384766 7.192233
23.700000 -1.627441 7.192233
23.700000 -1.120117 7.192233
23.700000 -0.612793 7.192233
24.100000 -7.973633 7.380232
24.100000 -8.592285 7.380232
24.000000 -6.960938 7.380232
24.000000 -7.454590 7.380232
23.900000 -4.403809 7.380232
23.700000 -2.897461 7.380232
23.700000 -1.766113 7.380232
23.700000 -0.884766 7.380232
23.700000 -0.878418 7.380232
23.800000 -1.122070 7.380232
24.200000 -10.327637 7.560233
24.100000 -8.319336 7.560233
24.100000 -9.436035 7.560233
24.000000 -8.927734 7.560233
24.000000 -8.669434 7.560233
24.000000 -3.353027 7.560233
23.800000 -3.969727 7.560233
23.700000 -3.586426 7.560233
23.700000 -1.828125 7.560233
23.700000 -1.698730 7.560233
24.100000 -7.920898 7.739204
24.100000 -8.036621 7.739204
24.000000 -6.902344 7.739204
24.000000 -6.643066 7.739204
23.900000 -3.324707 7.739204
23.700000 -2.321289 7.739204
23.700000 -2.567871 7.739204
23.700000 -2.564453 7.739204
23.700000 -1.436035 7.739204
23.800000 0.192383 7.739204
24.100000 -9.380371 7.919204
24.100000 -8.123047 7.919204
24.000000 -8.490723 7.919204
23.800000 -3.418945 7.919204
23.700000 -2.285645 7.919204
23.700000 -1.527344 7.919204
23.700000 -0.769043 7.919204
23.700000 -0.885742 7.919204
23.900000 -0.877441 7.919204
24.200000 -10.341797 8.100202
24.100000 -9.832031 8.100202
24.100000 -7.697266 8.100202
24.000000 -7.187500 8.100202
24.000000 -8.431152 8.100202
23.900000 -2.630371 8.100202
23.700000 -2.124023 8.100202
23.700000 -3.367676 8.100202
23.700000 -2.486328 8.100202
23.700000 -0.604980 8.100202
24.100000 -8.740723 8.280203
24.100000 -9.357422 8.280203
24.000000 -7.099121 8.280203
24.000000 -6.590820 8.280203
23.900000 -2.524414 8.280203
23.800000 -3.516113 8.280203
23.700000 -3.382812 8.280203
23.700000 -2.749512 8.280203
23.700000 -2.366211 8.280203
24.200000 -10.476563 8.461235
24.100000 -8.218750 8.461235
24.100000 -9.460938 8.461235
24.000000 -9.203125 8.461235
24.000000 -7.945312 8.461235
23.900000 -4.890625 8.461235
23.800000 -4.507812 8.461235
23.700000 -3.125000 8.461235
23.700000 -1.617188 8.461235
23.700000 -2.109375 8.461235
23.700000 -0.601562 8.461235
24.100000 -9.607910 8.650233
24.000000 -7.351563 8.650233
24.000000 -8.720215 8.650233
23.800000 -2.288086 8.650233
23.700000 -3.156738 8.650233
23.700000 -3.150391 8.650233
23.700000 -2.519043 8.650233
23.700000 -1.887695 8.650233
23.900000 -0.631348 8.650233
24.100000 -8.512695 8.829232
24.100000 -7.505859 8.829232
24.000000 -8.624023 8.829232
24.000000 -6.492188 8.829232
23.900000 -3.187500 8.829232
23.800000 -3.310547 8.829232
23.700000 -1.433594 8.829232
23.700000 -2.806641 8.829232
23.700000 -1.679688 8.829232
23.800000 -1.552734 8.829232
24.100000 -8.610352 9.008204
24.100000 -9.109375 9.008204
24.000000 -8.985352 9.008204
24.000000 -7.236328 9.008204
23.900000 -2.994141 9.008204
23.700000 -1.995117 9.008204
23.700000 -1.496094 9.008204
23.700000 -2.622070 9.008204
23.700000 -0.873047 9.008204
24.100000 -9.242188 9.197233
24.100000 -7.615234 9.197233
24.000000 -9.113281 9.197233
24.000000 -8.111328 9.197233
24.000000 -4.470703 9.197233
23.800000 -3.093750 9.197233
23.700000 -1.591797 9.197233
23.700000 -3.089844 9.197233
23.700000 -0.587891 9.197233
24.100000 -7.876953 9.377240
24.000000 -9.000000 9.377240
24.000000 -8.873047 9.377240
23.900000 -3.353516 9.377240
23.700000 -1.850586 9.377240
23.700000 -1.347656 9.377240
23.700000 -0.844727 9.377240
23.700000 -0.341797 9.377240
23.900000 0.161133 9.377240
24.100000 -8.581055 9.557233
24.100000 -8.571777 9.557233
24.000000 -8.187500 9.557233
24.000000 -7.433105 9.557233
23.800000 -4.147949 9.557233
23.700000 -3.768555 9.557233
23.700000 -2.264160 9.557233
23.700000 -2.759766 9.557233
23.700000 -2.380371 9.557233
23.900000 -1.250977 9.557233
24.100000 -9.859375 9.737233
24.100000 -7.601562 9.737233
24.000000 -8.968750 9.737233
24.000000 -6.960938 9.737233
23.900000 -2.523438 9.737233
23.800000 -3.640625 9.737233
23.700000 -3.132812 9.737233
23.700000 -1.000000 9.737233
23.800000 -2.492188 9.737233
23.800000 -0.609375 9.737233
24.100000 -7.818848 9.917204
24.000000 -9.058594 9.917204
24.000000 -6.923340 9.917204
24.000000 -3.966309 9.917204
23.800000 -4.081055 9.917204
23.700000 -2.570801 9.917204
23.700000 -2.310547 9.917204
23.800000 -2.050293 9.917204
