19.150000 -2.859375 0.142118
19.175000 -1.937500 0.142118
10.075000 -22.250000 0.201140
19.675000 -10.296875 0.201140
19.325000 -4.500000 0.201140
19.175000 -3.343750 0.201140
19.175000 -2.171875 0.201140
10.200000 -22.781250 0.345447
19.225000 -4.109375 0.345447
19.150000 -2.953125 0.345447
19.250000 -1.796875 0.345447
19.175000 -3.796875 0.503999
10.175000 -22.171875 0.669306
19.150000 -2.890625 0.669306
19.175000 -1.984375 0.669306
17.425000 -12.796875 0.824628
19.575000 -10.500000 0.824628
19.325000 -4.734375 0.824628
19.175000 -3.578125 0.824628
19.225000 -2.421875 0.824628
10.175000 -22.359375 0.984314
19.150000 -3.156250 0.984314
19.175000 -2.000000 0.984314
10.050000 -22.125000 1.151671
17.425000 -12.843750 1.151671
19.600000 -10.562500 1.151671
19.375000 -4.781250 1.151671
19.175000 -3.625000 1.151671
19.200000 -2.468750 1.151671
10.300000 -21.859375 1.310234
19.200000 -4.062500 1.310234
19.150000 -2.906250 1.310234
19.250000 -1.750000 1.310234
19.150000 -3.031250 1.463794
19.175000 -1.875000 1.463794
19.700000 -10.390625 1.621835
19.325000 -4.593750 1.621835
19.150000 -3.437500 1.621835
19.175000 -2.265625 1.621835
19.175000 -3.953125 1.776594
19.350000 -4.343750 1.939891
19.150000 -3.187500 1.939891
19.175000 -2.031250 1.939891
19.175000 -3.796875 2.100805
19.325000 -4.312500 2.255302
19.150000 -3.156250 2.255302
19.175000 -2.000000 2.255302
17.425000 -12.781250 2.413865
19.625000 -10.812500 2.413865
19.325000 -4.718750 2.413865
19.150000 -3.546875 2.413865
19.175000 -2.406250 2.413865
10.025000 -22.406250 2.584028
17.400000 -12.890625 2.584028
19.175000 -3.671875 2.584028
19.200000 -2.515625 2.584028
19.575000 -11.109375 2.741802
19.375000 -4.828125 2.741802
19.175000 -3.656250 2.741802
19.200000 -2.515625 2.741802
19.150000 -3.859375 2.896736
10.300000 -22.531250 3.059053
19.275000 -4.015625 3.059053
19.150000 -3.000000 3.222535
19.250000 -1.843750 3.222535
17.175000 -12.421875 3.372358
19.550000 -10.609375 3.372358
19.375000 -4.812500 3.372358
19.175000 -3.656250 3.372358
19.150000 -2.484375 3.372358
19.400000 -4.359375 3.534647
19.200000 -3.203125 3.534647
19.175000 -2.031250 3.534647
19.225000 -3.812500 3.687670
19.250000 -4.156250 3.858789
19.150000 -3.000000 3.858789
19.250000 -1.859375 3.858789
19.750000 -10.375000 4.013899
19.325000 -4.468750 4.013899
19.225000 -3.312500 4.013899
19.225000 -2.156250 4.013899
17.350000 -12.875000 4.169281
19.550000 -10.578125 4.169281
19.375000 -4.812500 4.169281
19.175000 -3.656250 4.169281
19.150000 -2.500000 4.169281
19.150000 -4.281250 4.326984
10.275000 -22.390625 4.498467
19.275000 -4.250000 4.498467
19.150000 -3.921875 4.652121
19.250000 -3.937500 4.814404
19.275000 -4.390625 4.965157
19.150000 -2.890625 4.965157
19.250000 -1.734375 4.965157
19.275000 -4.250000 5.125200
19.200000 -3.093750 5.125200
19.250000 -1.921875 5.125200
19.725000 -10.296875 5.290557
19.325000 -4.515625 5.290557
19.200000 -3.343750 5.290557
19.225000 -2.187500 5.290557
19.550000 -11.125000 5.446951
19.350000 -5.250000 5.446951
19.225000 -3.671875 5.446951
19.275000 -2.515625 5.446951
10.025000 -22.000000 5.604405
19.200000 -3.750000 5.604405
17.375000 -12.890625 5.760385
19.550000 -10.593750 5.760385
19.350000 -4.812500 5.760385
19.200000 -3.656250 5.760385
19.250000 -2.500000 5.760385
17.425000 -12.796875 5.919887
19.525000 -10.500000 5.919887
19.325000 -4.734375 5.919887
19.175000 -3.578125 5.919887
19.225000 -2.421875 5.919887
17.400000 -12.890625 6.077157
19.550000 -10.578125 6.077157
19.350000 -4.796875 6.077157
19.175000 -3.640625 6.077157
17.425000 -12.812500 6.246663
19.525000 -10.515625 6.246663
19.325000 -4.734375 6.246663
19.150000 -3.578125 6.246663
19.200000 -2.421875 6.246663
19.750000 -10.234375 6.401429
19.325000 -4.437500 6.401429
19.175000 -3.265625 6.401429
19.175000 -2.109375 6.401429
19.725000 -10.343750 6.561459
19.325000 -4.546875 6.561459
19.200000 -3.390625 6.561459
19.225000 -2.234375 6.561459
17.125000 -12.421875 6.716129
19.550000 -10.609375 6.716129
19.350000 -4.546875 6.716129
19.175000 -3.890625 6.716129
19.250000 -3.953125 6.876057
10.225000 -22.281250 7.043383
19.250000 -4.031250 7.043383
19.150000 -2.875000 7.043383
19.300000 -2.046875 7.043383
10.200000 -21.671875 7.200020
19.150000 -3.046875 7.200020
19.225000 -1.906250 7.200020
19.375000 -4.328125 7.357410
19.175000 -3.171875 7.357410
19.150000 -2.015625 7.357410
19.225000 -3.156250 7.512644
19.250000 -2.000000 7.512644
19.225000 -4.156250 7.671469
19.150000 -3.000000 7.671469
19.225000 -1.843750 7.671469
19.200000 -3.109375 7.838344
19.200000 -1.953125 7.838344
10.100000 -22.359375 7.996686
19.400000 -4.359375 7.996686
19.200000 -3.203125 7.996686
19.200000 -2.046875 7.996686
17.450000 -12.781250 8.149031
19.600000 -10.468750 8.149031
19.300000 -4.671875 8.149031
19.125000 -3.500000 8.149031
19.175000 -2.343750 8.149031
19.250000 -3.843750 8.309784
19.300000 -4.390625 8.474368
19.150000 -3.234375 8.474368
19.175000 -2.078125 8.474368
19.500000 -10.656250 8.629312
19.350000 -4.890625 8.629312
19.150000 -3.734375 8.629312
19.175000 -3.859375 8.787662
19.175000 -3.890625 8.943705
19.175000 -3.859375 9.115668
19.175000 -3.843750 9.272240
17.150000 -12.406250 9.433987
19.525000 -10.609375 9.433987
19.400000 -4.812500 9.433987
19.200000 -3.656250 9.433987
19.200000 -2.500000 9.433987
19.775000 -10.218750 9.582101
19.300000 -4.421875 9.582101
19.150000 -3.265625 9.582101
19.175000 -2.093750 9.582101
19.775000 -10.203125 9.742105
19.300000 -4.406250 9.742105
19.150000 -3.234375 9.742105
19.175000 -2.078125 9.742105
17.350000 -12.890625 9.905804
19.575000 -10.578125 9.905804
19.375000 -4.781250 9.905804
19.200000 -3.625000 9.905804
19.200000 -2.468750 9.905804
