3.530692 -0.432708 -2.067758
1.929229 -0.434996 1.309059
2.209662 -0.428579 2.058619
1.906389 -0.428377 2.839693
2.059946 -0.265556 2.005799
1.909162 -0.275687 2.831142
3.296761 0.102408 -1.386278
1.798059 -0.145273 1.884660
1.934324 -0.118176 2.592205
3.236647 0.367788 -1.577460
1.645495 -0.036957 1.538022
3.055670 0.572350 -1.574621
1.512347 0.048572 1.835641
1.661013 0.103626 2.474752
3.005679 0.820771 -1.714471
1.405338 0.126748 1.651673
1.484682 0.165813 2.433149
2.827265 1.009497 -1.901252
2.731155 1.240930 -1.861171
2.566790 1.409139 -1.905460
1.028706 0.229382 2.026585
0.861653 0.105007 3.113950
2.402764 1.575242 -2.221468
2.224561 1.415166 -1.506053
1.578657 0.823576 -0.777891
0.964486 0.267428 0.959082
0.910461 0.223287 1.894739
0.913277 0.232053 2.904993
1.958566 1.438320 -2.230161
2.096306 1.593861 -1.435205
0.823461 0.228007 1.984236
0.876674 0.289918 2.565618
1.949738 1.748810 -1.659076
0.770227 0.253898 1.943990
0.788284 0.281706 2.561144
1.801539 1.894456 -1.557813
0.689228 0.223748 1.767101
0.735405 0.300590 2.542913
1.678320 2.112390 -1.756444
0.546219 0.053550 1.573207
1.555049 2.354832 -2.194488
0.603677 0.244179 1.824700
0.580641 0.202759 2.793864
1.292932 2.290734 -1.364351
1.052674 1.609868 -0.681303
0.833008 0.988380 0.018056
0.609441 0.357331 0.838076
0.523715 0.123459 1.746108
0.593205 0.335687 2.669621
1.221480 2.851317 -2.658413
1.155776 2.609183 -1.899608
0.551030 0.326034 2.061296
0.486697 0.093119 3.035124
0.909815 2.507315 -1.636400
0.798716 1.886390 -0.822499
0.628674 0.969770 1.704484
0.490524 0.421879 2.264661
0.465301 0.181637 3.175125
0.480476 2.748590 -1.630339
0.474883 2.243709 -0.846612
0.257159 2.814040 -1.840596
0.422972 0.382443 2.464565
0.444996 0.052938 3.147043
0.016014 2.900688 -1.856626
0.393624 0.402752 2.228398
0.432833 0.124936 3.296576
-0.238228 2.936091 -1.230569
0.358366 0.442584 1.883660
0.396694 0.264180 3.049534
-0.482588 2.933723 -1.299818
-0.455013 2.839254 -0.488618
-0.735249 2.916507 -1.529272
-0.736694 2.909232 -0.596627
-0.923823 2.769453 -1.744798
-0.968991 2.846803 -0.847102
0.255378 0.485558 2.229707
0.401656 0.198759 3.083934
-1.240469 2.833834 -1.214895
-1.244832 2.832421 -0.224804
0.319082 0.333929 3.042375
-1.383616 2.568225 -2.137901
-1.478728 2.684009 -1.095813
-1.516395 2.727741 -0.394317
-1.636412 2.525310 -1.559325
-1.719100 2.611564 -0.683910
-1.771646 2.342080 -2.762202
-1.804281 2.367772 -1.892628
-1.886179 2.439832 -0.935015
-1.913650 2.460478 -0.044764
-2.108293 2.295342 -1.174004
-2.055904 2.248776 -0.405467
-2.216531 2.063499 -1.438014
-2.238408 2.073995 -0.645623
-2.357641 1.876903 -1.649480
-2.379619 1.886002 -0.996575
-0.060766 0.552625 2.487504
0.419712 0.276455 3.187564
-2.403992 1.629703 -2.320332
-2.445518 1.643584 -1.250639
0.017536 0.491769 1.782449
-0.003308 0.497018 2.667221
-2.595951 1.440348 -1.742211
-0.197586 0.551147 2.452380
0.222883 0.395054 3.230486
-2.606036 1.196821 -1.122791
-0.091378 0.495120 1.867579
-0.044550 0.478026 2.789000
-2.733044 0.995395 -1.523830
0.029130 0.457432 1.560520
-0.251804 0.507175 2.335756
-2.820219 0.763242 -2.208199
-0.197182 0.475961 1.888025
-0.159817 0.467250 2.970496
-2.742641 0.526676 -1.680729
-2.105138 0.508644 -0.624465
-0.212596 0.457664 1.942957
-0.296940 0.456538 2.585686
-2.927748 0.294932 -1.713397
-2.759144 0.093163 -2.725639
-2.957913 0.062123 -2.004383
-2.975692 -0.185146 -1.972836
-0.536241 0.341776 2.448023
-2.905937 -0.417090 -2.035969
-0.644406 0.271827 2.175194
-2.916346 -0.674892 -1.740917
-0.730885 0.191981 2.107371
-0.838545 0.082518 2.219394
-0.604144 0.197731 2.867138
-0.952804 -0.050301 1.745246
-0.860395 0.001681 2.602125
-2.771057 -1.455343 -1.974118
-1.036049 -0.200634 2.058291
-2.362833 -1.424764 -2.705465
-2.657630 -1.685985 -1.842938
-1.179872 -0.427362 2.384892
-2.568008 -1.967814 -2.077809
-1.232475 -0.619235 2.041200
-0.979375 -0.365583 3.119992
-2.115973 -1.808784 -2.703532
-2.416566 -2.176529 -1.946930
-1.327609 -0.892467 2.165554
-2.313082 -2.473416 -1.680560
-1.352232 -1.136670 2.125302
-1.093676 -0.776051 3.032379
-1.304483 -1.363420 2.108529
-1.250352 -1.276121 2.883121
-1.925809 -2.945682 -1.337209
-1.213655 -1.487128 1.744853
-1.296606 -1.670525 2.683649
-1.729129 -3.251762 -1.655528
-1.159688 -1.781810 1.376351
-1.203584 -1.908059 2.160882
-1.025286 -1.446914 3.040336
-1.512861 -3.535575 -2.639971
-1.512973 -3.545368 -2.059075
-1.096577 -2.171636 2.253346
-1.013909 -1.894312 2.825572
-1.145609 -3.318747 -2.487482
-1.219756 -3.709516 -1.624647
-0.897723 -2.164329 1.267093
-0.940640 -2.400771 2.214552
-0.863114 -2.029334 2.934689
-0.884731 -3.625004 -2.767549
-0.904144 -3.835423 -1.828421
-0.878070 -3.630666 -1.151192
-0.802134 -2.989122 -0.304755
-0.714814 -2.242230 0.440381
-0.721132 -2.334796 1.345536
-0.752342 -2.649801 2.275526
-0.712557 -2.325352 3.009725
-0.561053 -4.077929 -2.599128
-0.555515 -3.938362 -2.031844
-0.547348 -3.723467 -1.238573
-0.534423 -3.277196 -0.490589
-0.516481 -2.596662 0.256051
-0.509598 -2.488152 1.271343
-0.510899 -2.756284 2.262602
-0.502169 -2.505618 3.010362
-0.280608 -3.826438 -1.206282
-0.299331 -3.382480 -0.538797
-0.332977 -2.626455 0.205465
-0.334509 -2.513118 1.098834
-0.313646 -2.866418 1.895156
-0.321422 -2.621591 2.830745
0.036841 -3.973643 -2.355300
0.030980 -3.896848 -1.458520
-0.019947 -3.469552 -0.517567
-0.072510 -3.041444 0.084915
-0.096912 -2.824646 0.879888
-0.085911 -2.877788 1.794633
0.422291 -4.122564 -2.636018
0.387921 -3.951344 -1.914817
0.361571 -3.812940 -1.020259
0.269602 -3.384591 -0.518975
0.174918 -2.938212 0.255305
0.166050 -2.878183 1.200618
0.214458 -3.080705 2.035716
0.165619 -2.840398 2.917037
0.564033 -3.507080 -2.702810
0.688009 -3.903546 -1.797768
0.630259 -3.698316 -0.895167
0.513505 -3.303121 -0.341262
0.357521 -2.773610 0.497508
0.381441 -2.838769 1.402482
0.508042 -3.242418 2.404690
0.390141 -2.843944 2.925232
0.999092 -3.830855 -1.709967
0.907532 -3.586485 -0.808193
0.850282 -3.410941 1.607875
1.311298 -3.729717 -1.602640
1.200801 -3.495525 -0.670603
1.200293 -3.469585 1.778944
1.579176 -3.557492 -1.351006
1.441597 -3.320449 -0.593546
1.486777 -3.376738 1.620563
1.431689 -3.278034 2.356703
1.892114 -3.472446 -1.622155
1.746664 -3.261541 -0.818021
2.182712 -3.304796 -1.739235
1.985305 -3.065801 -0.898108
1.977746 -3.037791 1.850117
2.132106 -2.795533 -2.199267
2.387894 -3.046001 -1.420529
2.157856 -2.810322 -0.476677
2.348393 -2.609655 -2.120235
2.648832 -2.860786 -1.497612
2.440997 -2.680540 -0.820063
2.423592 -2.651166 1.664028
2.557687 -2.419917 -2.278286
2.863191 -2.634182 -1.311907
2.583565 -2.429437 -0.634596
2.412590 -2.292674 1.874041
2.216950 -2.148766 2.466940
1.653113 -1.739262 3.227470
3.117175 -2.398578 -1.691748
2.785834 -2.196406 -0.683943
2.506648 -2.018466 1.619826
3.207062 -2.101127 -1.696924
2.886692 -1.939285 -0.853814
2.561779 -1.774629 0.105052
2.257110 -1.620445 0.961507
2.278604 -1.627443 1.677058
2.289010 -1.629080 2.373404
1.762883 -1.365775 3.262243
3.454719 -1.870092 -2.044673
3.371281 -1.833207 -1.225862
2.934082 -1.656982 -0.469855
2.209072 -1.367977 0.114342
2.102472 -1.321732 0.978143
2.408202 -1.438460 1.797947
3.591481 -1.591726 -2.044673
3.465529 -1.550313 -1.433639
2.916442 -1.378835 -0.701511
2.071137 -1.115929 0.195603
1.935158 -1.071094 0.881772
2.422723 -1.215562 1.893268
3.527763 -1.222449 -1.102102
2.859454 -1.071124 1.105656
2.458154 -0.981735 2.109256
2.254224 -0.935554 2.784043
3.168362 -0.900542 -2.573484
3.623368 -0.958403 -1.937686
2.147615 -0.746286 1.402183
2.379993 -0.773795 2.178057
1.982690 -0.717254 2.952315
3.591825 -0.651996 -1.499348
2.081717 -0.561438 1.549870
2.251813 -0.565987 2.464511
1.788525 -0.538545 3.324107
3.159991 -0.369367 -2.391572
3.462741 -0.355840 -1.586510
2.054514 -0.386935 1.758092
2.066746 -0.383302 2.478316
1.993464 -0.227301 2.060939
1.872632 -0.237176 2.937952
3.069403 0.126284 -2.590334
3.313760 0.178364 -1.803560
1.889114 -0.086020 2.191154
1.493686 -0.160974 2.956736
3.177526 0.424167 -1.530028
1.601869 -0.013107 1.654333
1.470944 0.070013 2.004980
1.392481 0.044010 2.744215
1.346913 0.137181 2.000501
1.202387 0.074126 3.096160
2.774773 1.058494 -1.762268
1.231098 0.185363 1.605894
0.988829 0.134968 1.732628
1.103758 0.219490 2.562299
2.492619 1.468886 -2.149510
0.979157 0.227777 1.933739
1.002597 0.250957 2.547340
2.362542 1.631546 -2.191301
0.851903 0.194188 1.929948
0.900083 0.245949 2.745935
2.160261 1.755938 -1.974360
0.800270 0.226948 1.942851
0.751410 0.177639 2.908403
0.784553 0.300006 2.155585
0.676373 0.159798 2.947461
1.790497 2.005524 -1.564447
0.590566 0.091973 1.742097
0.710866 0.292495 2.427199
1.697727 2.273996 -2.051999
0.519378 0.013332 1.327531
0.644947 0.265571 2.121778
0.516176 0.023197 2.966952
0.621926 0.318245 2.153828
0.523460 0.091411 3.018935
0.593066 0.368526 2.143145
0.515964 0.142494 3.126430
1.094536 2.642977 -2.020325
1.045457 2.442819 -1.413899
0.855117 1.637583 -0.517534
0.709183 1.024094 0.364787
0.590009 0.520902 0.974857
0.525630 0.262718 1.989837
0.515046 0.232209 2.755936
0.873843 2.672185 -2.407645
0.851339 2.547690 -1.513913
0.741567 1.829682 -0.772935
0.590458 0.886671 1.729599
0.499114 0.305303 2.872291
0.640259 2.609223 -1.524020
0.600816 2.058513 -0.758341
0.467676 0.247546 2.522708
0.416023 2.775507 -1.447821
0.421328 2.271423 -0.509001
0.190070 2.827452 -1.507130
0.225699 2.421501 -0.466047
-0.050248 2.907772 -1.513784
-0.017647 2.709108 -0.774552
-0.300896 2.936293 -1.883990
-0.308306 2.951015 -1.139363
0.353612 0.423641 2.347875
0.414609 0.182531 3.143295
-0.532983 2.890011 -2.086157
-0.573944 2.994712 -1.346870
0.199787 0.786783 1.965279
0.294944 0.507867 2.925918
-0.810860 2.916893 -1.417989
-0.813151 2.911284 -0.435896
-1.026635 2.811311 -1.730895
-1.075128 2.891407 -0.965005
0.271615 0.438670 2.502681
-1.279416 2.767765 -1.858420
-1.328994 2.833709 -0.813711
-1.451650 2.590246 -1.752239
-1.542108 2.698444 -0.914285
-1.551661 2.705885 -0.274475
-1.626974 2.429888 -2.248365
-1.700741 2.503087 -1.387951
-1.769770 2.570216 -0.374344
-1.811051 2.279151 -2.037460
-1.920236 2.374698 -1.456936
-1.974683 2.418024 -0.454237
-2.154799 2.239569 -1.554640
-2.111283 2.200619 -0.555568
0.046217 0.531181 2.662476
-2.246664 2.001884 -1.559325
-2.246733 1.998023 -0.827065
-2.403953 1.816389 -1.639463
-2.521849 1.607940 -1.690804
-0.091288 0.531509 2.403000
0.303525 0.356587 3.082234
-2.630899 1.386960 -1.842492
-0.150392 0.527897 2.240450
0.367151 0.348672 3.089539
-2.723815 1.166794 -1.631884
0.272661 0.400367 1.601063
-2.439170 0.875093 -2.769670
-2.775174 0.925301 -1.855257
0.092633 0.446011 1.508992
-0.282053 0.503565 2.184168
0.165354 0.427653 2.959198
-2.720493 0.698569 -1.498188
-0.069330 0.462130 1.591157
-0.258674 0.474222 2.435242
-2.911796 0.445321 -2.196557
-2.749006 0.443714 -1.509391
-2.021016 0.446677 -0.698511
-0.251649 0.450826 1.952592
-0.276534 0.446636 2.836147
-2.876714 0.229960 -1.565182
-0.426331 0.417454 2.300837
-2.867603 -0.012286 -1.697104
-0.518991 0.368852 2.469435
-2.591191 -0.164479 -2.137909
-2.852731 -0.232693 -1.586470
-2.117409 -0.052288 -0.676838
-1.097461 0.195886 1.030380
-0.661768 0.301469 1.852491
-0.610139 0.310354 2.733749
-2.960141 -0.516909 -1.951348
-0.764120 0.216637 2.051639
-0.524054 0.295018 2.870573
-2.962637 -0.773167 -1.627008
-0.831744 0.131970 2.208759
-0.868977 0.049315 1.834322
-0.795174 0.084679 2.649402
-0.981904 -0.096491 2.508053
-2.680982 -1.467172 -1.506961
-1.150255 -0.314997 2.526076
-2.369791 -1.506814 -2.701598
-2.682583 -1.794664 -1.948374
-1.203330 -0.480442 2.266556
-2.527745 -2.004267 -2.658772
-2.542238 -2.024662 -1.907126
-2.239496 -2.064468 -2.572191
-2.426450 -2.305512 -1.871687
-1.320418 -0.937984 2.081016
-1.013207 -0.557341 3.068337
-1.335463 -1.180550 1.947944
-1.225835 -1.024848 2.949458
-2.137539 -2.867416 -1.977472
-1.346712 -1.485931 2.040349
-1.190188 -1.214343 3.035618
-1.288835 -1.763425 2.195608
-1.180208 -1.529333 2.872407
-1.201325 -2.021820 2.114769
-1.120281 -1.803955 2.817075
-1.058429 -2.197648 1.885748
-1.021271 -2.072788 2.680499
-1.171134 -3.752964 -2.093495
-1.141972 -3.614518 -1.296416
-1.031404 -3.030024 -0.682174
-0.863081 -2.136021 0.083305
-0.842564 -2.049057 1.066050
-0.912022 -2.444866 1.837170
-0.886023 -2.327448 2.790700
-0.863767 -3.887972 -1.689160
-0.825290 -3.536377 -1.017004
-0.764111 -2.971206 -0.085054
-0.711171 -2.475397 0.570502
-0.709159 -2.499867 1.563684
-0.716978 -2.612105 2.338978
-0.663758 -2.121371 3.170141
-0.534375 -3.930823 -1.856295
-0.526362 -3.668507 -1.024378
-0.515585 -3.250335 -0.143166
-0.503175 -2.702100 0.629123
-0.497648 -2.597622 1.480862
-0.496987 -2.755476 2.202156
-0.487233 -2.349455 2.899598
-0.213649 -3.982197 -2.197592
-0.221094 -3.814878 -1.432529
-0.245200 -3.388710 -0.627994
-0.282601 -2.756204 0.205324
-0.287466 -2.618436 1.116564
-0.267980 -2.868329 1.834844
0.119451 -3.991086 -1.874380
0.080688 -3.704872 -1.014553
0.033713 -3.312999 1.506582
0.015320 -3.160826 2.452262
-0.047506 -2.723998 2.956626
0.416506 -3.810038 -1.098589
0.329745 -3.425468 -0.300282
0.270117 -3.155766 0.524042
0.253840 -3.072031 1.264975
0.273735 -3.144138 1.902206
0.228081 -2.931251 2.859419
0.753317 -3.893196 -1.318577
0.666493 -3.614340 -0.828536
0.619359 -3.432123 1.529791
0.972363 -3.600839 -2.747911
1.079187 -3.850798 -1.981588
0.998653 -3.643228 -0.933656
0.833990 -3.234610 -0.132819
0.703401 -2.910387 0.515745
0.701599 -2.897994 1.197806
0.766810 -3.045553 2.093052
0.662580 -2.781041 3.098121
1.377136 -3.704266 -2.023618
1.328698 -3.603019 -1.294386
1.138105 -3.225155 -0.518506
1.024527 -2.995856 0.364460
0.998585 -2.938106 1.114364
1.031524 -2.992516 2.091736
1.600301 -3.460152 -1.217032
1.433697 -3.185720 -0.467678
1.891463 -3.344424 -1.343329
1.670241 -3.037722 -0.339528
2.352631 -3.405181 -2.568074
2.222240 -3.250908 -1.779613
2.156833 -3.172177 -1.186703
1.897594 -2.869422 -0.201296
1.833385 -2.791711 0.442909
1.800260 -2.747377 1.398155
1.747041 -2.680667 2.269805
2.508274 -3.086722 -2.031844
2.409448 -2.985788 -1.206282
2.108590 -2.688741 -0.330317
1.983698 -2.562867 0.443676
1.925526 -2.501373 1.262723
1.958611 -2.527394 2.229946
2.789825 -2.890636 -2.606861
2.755845 -2.858923 -1.924570
2.615600 -2.740370 -1.237599
2.289382 -2.468211 -0.261565
2.038277 -2.259207 0.405178
2.015555 -2.235359 1.317313
2.160946 -2.349427 2.130288
2.972452 -2.638227 -1.983086
2.841237 -2.542991 -1.236625
2.516110 -2.312275 -0.350127
2.228880 -2.108222 0.475022
2.179223 -2.069944 1.167049
2.271890 -2.129474 2.054417
3.042845 -2.304531 -1.334583
2.697494 -2.099603 -0.419461
2.154334 -1.781261 0.255678
2.107840 -1.748708 1.336037
2.424602 -1.927757 2.215607
2.149602 -1.765742 2.719204
3.223788 -2.034188 -1.207236
2.824523 -1.843349 -0.628538
2.230112 -1.559671 0.144799
2.106336 -1.496774 1.077308
2.266007 -1.568361 1.800157
3.097716 -1.680955 -2.327668
3.411157 -1.796565 -1.627140
2.958912 -1.620259 -0.658290
2.413917 -1.409882 0.074302
2.211692 -1.329138 0.905009
2.351106 -1.378432 1.659937
3.948592 -1.629974 -2.674571
3.588508 -1.522955 -1.958262
3.410172 -1.468120 -1.211049
2.822359 -1.288160 1.084389
2.483979 -1.185361 2.235175
2.220178 -1.105857 2.995760
3.529627 -1.172090 -1.368218
2.867007 -1.037743 -0.525549
1.953675 -0.854951 0.113711
1.889190 -0.838350 0.966871
2.438332 -0.942053 1.938439
2.312316 -0.913618 2.729735
3.609988 -0.896096 -2.274654
3.542609 -0.884828 -1.519030
2.232772 -0.716362 1.971970
2.208350 -0.709715 2.813216
3.571087 -0.600798 -2.291258
3.567298 -0.596184 -1.293668
2.183127 -0.531746 1.976798
2.227444 -0.529943 2.733259
3.438140 -0.305033 -2.352608
3.415303 -0.302452 -1.529511
2.020275 -0.354844 1.976172
2.024057 -0.352297 2.501947
3.331897 -0.037066 -1.583814
1.838688 -0.216820 1.861719
1.976212 -0.195585 2.578700
3.230890 0.209396 -1.678206
1.599099 -0.123235 1.706378
1.826930 -0.071528 2.381402
2.750624 0.339456 -2.177508
3.088824 0.445966 -1.283866
1.510552 -0.017204 1.773031
1.658964 0.032456 2.788131
1.410313 0.064473 1.672601
1.474848 0.094078 2.570421
2.637475 0.767619 -2.179088
1.245703 0.105036 1.753055
1.327083 0.149006 2.569343
1.134988 0.150949 2.021784
1.170950 0.176412 2.780366
2.550410 1.242792 -1.577590
0.984127 0.143506 1.626763
1.141809 0.261091 2.559204
0.879339 0.150697 1.843870
0.972530 0.235080 2.762136
2.069148 1.390845 -2.440377
2.221207 1.548373 -1.442078
0.864293 0.219740 1.833251
0.878139 0.239161 2.726367
2.150993 1.789424 -2.206158
0.783226 0.219111 2.007857
0.811191 0.257467 2.826983
0.748575 0.263053 2.030338
0.730934 0.245198 2.887089
0.707873 0.294122 1.839676
0.689906 0.271929 2.707507
1.616361 2.202824 -1.440996
0.557288 0.101524 1.744103
0.636543 0.268238 2.443667
1.435801 2.333775 -1.612580
0.535412 0.113623 1.476503
1.179269 2.235016 -2.570619
1.267641 2.533032 -1.961406
0.568890 0.317062 2.382373
0.463478 -0.015174 3.171934
0.493037 0.117736 1.188288
0.528935 0.302823 2.181604
0.496631 0.168119 2.803884
0.822078 2.605617 -1.440996
0.726995 1.916363 -0.863636
0.578324 0.899615 1.845812
0.487368 0.249870 2.682382
0.616629 2.776900 -1.728554
0.475212 0.447133 2.414473
0.453361 0.099909 3.204319
0.384368 2.867639 -1.715944
0.438047 0.454988 2.330247
0.444984 0.104650 3.109012
0.155838 2.839238 -1.708427
0.412775 0.368560 2.401582
0.456550 -0.063456 3.375519
-0.094562 2.915878 -1.704627
-0.077357 2.806633 -0.772019
0.382890 0.386829 2.574941
0.462378 -0.033740 3.266915
-0.203212 2.432914 -2.740775
-0.343321 2.909099 -1.925540
-0.336874 2.874131 -1.162118
0.316919 0.531189 2.449476
0.401919 0.221194 3.249437
-0.431774 2.520073 -2.639794
-0.575336 2.896775 -1.914090
-0.591093 2.926970 -0.968083
0.282163 0.538755 2.138735
0.389902 0.237383 3.044188
-0.855320 2.914775 -1.036615
0.362927 0.282930 2.901985
-1.007373 2.705616 -2.049003
-1.092164 2.847353 -1.356876
-1.119199 2.884140 -0.204816
0.290598 0.395986 2.862766
-1.309863 2.732908 -1.488075
-1.368751 2.812690 -0.743820
-1.455717 2.543258 -2.681892
-1.477057 2.564847 -2.024446
-1.544973 2.640766 -0.945768
-1.569552 2.665390 -0.154845
-1.472899 2.224741 -2.804218
-1.688771 2.443554 -1.772297
-1.754448 2.506866 -0.955771
-1.798146 2.547511 -0.184589
-1.936122 2.336324 -1.568165
-2.012455 2.399669 -0.883599
-2.177004 2.214105 -1.494695
-2.199845 2.227547 -0.843664
0.027724 0.541952 2.521215
-2.363439 2.027136 -1.674516
-2.318162 1.994834 -0.905752
-0.005768 0.535880 2.274016
-2.365338 1.754754 -1.763576
-0.112192 0.567109 2.216359
0.275399 0.361362 3.187089
-2.506168 1.555589 -1.330915
-0.040911 0.507153 2.179813
0.045605 0.466667 3.062144
-2.591939 1.339024 -1.131091
-0.095396 0.507810 1.974114
-0.014062 0.476182 3.038750
-2.707226 1.114329 -2.298570
-0.165277 0.503373 2.005228
-0.135093 0.492816 2.773269
-2.685156 0.882497 -1.335989
-0.123719 0.477510 1.879432
-0.225623 0.488756 2.823709
-2.815374 0.666668 -2.149510
-2.608787 0.649797 -1.564447
-1.904426 0.597176 -0.659031
-0.240235 0.470777 1.940706
-0.279414 0.470238 2.660895
-2.891247 0.442651 -2.258407
-2.675026 0.441546 -1.522883
-1.944513 0.444856 -0.607535
-0.305057 0.449737 2.014808
-0.318385 0.446510 2.703867
-2.961942 0.195184 -2.164870
-0.361570 0.421305 1.906233
-0.366620 0.416412 2.886466
-0.578759 0.356561 2.155096
-0.393750 0.386444 2.800544
-3.008480 -0.300496 -2.251843
-0.615656 0.307607 1.833273
-0.441721 0.349157 2.702259
-2.948426 -0.543810 -2.243463
-0.718766 0.225628 2.043389
-0.588375 0.268619 2.715619
-0.748380 0.161166 1.807696
-0.720334 0.169499 2.675504
-0.881858 0.032406 2.153034
-0.706198 0.124332 2.999070
-1.009358 -0.123153 2.208865
-0.664984 0.099869 2.874395
-1.034414 -0.241774 2.216799
-0.798208 -0.059754 3.045086
-2.493844 -1.665420 -2.253484
-1.227327 -0.519339 2.054128
-1.194611 -0.492608 2.635456
-2.286348 -1.792110 -2.330379
-1.244764 -0.685671 1.913237
-1.311328 -0.764258 2.829736
-2.170584 -2.039149 -2.315286
-2.355522 -2.284309 -1.556383
-1.921322 -1.728115 -0.696639
-1.378302 -1.035378 0.766835
-1.299211 -0.939737 1.695969
-1.345358 -1.007222 2.744868
-2.240238 -2.575846 -1.728827
-1.344612 -1.230975 1.759375
-1.366421 -1.271470 2.617679
-2.070990 -2.825693 -1.535899
-1.293147 -1.428455 1.920271
-1.343467 -1.526999 2.565222
-1.879754 -3.105909 -1.598971
-1.206121 -1.611859 1.648042
-1.277324 -1.781296 2.339031
-1.674165 -3.392929 -1.679903
-1.130255 -1.871869 1.712883
-1.185288 -2.037363 2.216750
-0.998532 -1.513229 3.245477
-1.402128 -3.589251 -1.588000
-1.037556 -2.221448 1.589676
-1.119185 -3.766955 -1.623401
-1.056046 -3.417537 -0.860870
-0.916619 -2.617373 -0.248414
-0.824033 -2.105013 0.870591
-0.866289 -2.369933 1.525903
-0.881340 -2.477164 2.242164
-0.777397 -1.890835 3.081283
-0.811615 -3.843484 -1.594108
-0.785286 -3.572896 -1.075222
-0.739671 -3.105211 -0.153975
-0.689837 -2.584524 0.660396
-0.681356 -2.529052 1.451375
-0.689827 -2.663898 2.225087
-0.644663 -2.199615 3.113079
-0.495418 -3.928392 -1.719723
-0.489585 -3.642801 -0.838370
-0.483482 -3.229750 -0.083697
-0.476933 -2.706622 0.608945
-0.472637 -2.599895 1.410035
-0.469717 -2.738612 2.264020
-0.462764 -2.299675 3.170360
