30.525000 -8.281250 0.089161
30.400000 -7.031250 0.089161
30.350000 -5.906250 0.089161
30.225000 -3.296875 0.089161
30.100000 -1.734375 0.089161
30.475000 -7.890625 0.247206
30.350000 -7.093750 0.247206
30.200000 -2.984375 0.247206
30.125000 -2.203125 0.247206
30.500000 -8.390625 0.407136
30.400000 -7.968750 0.407136
30.325000 -6.671875 0.407136
30.200000 -2.359375 0.407136
30.175000 -1.796875 0.407136
30.500000 -8.984375 0.562457
30.400000 -7.859375 0.562457
30.325000 -5.937500 0.562457
30.225000 -2.343750 0.562457
30.200000 -1.828125 0.562457
30.475000 -8.812500 0.719240
30.375000 -7.203125 0.719240
30.300000 -6.250000 0.719240
30.275000 -4.062500 0.719240
30.175000 -2.828125 0.719240
30.475000 -1.828125 0.719240
30.500000 -8.390625 0.872599
30.400000 -7.468750 0.872599
30.375000 -6.515625 0.872599
30.350000 -4.171875 0.872599
30.250000 -2.375000 0.872599
30.400000 -1.390625 0.872599
30.525000 -7.812500 1.033740
30.425000 -6.953125 1.033740
30.350000 -5.765625 1.033740
30.200000 -3.406250 1.033740
30.100000 -1.953125 1.033740
30.525000 -8.421875 1.186541
30.400000 -6.781250 1.186541
30.200000 -3.359375 1.186541
30.100000 -2.125000 1.186541
30.525000 -8.500000 1.355498
30.425000 -6.937500 1.355498
30.325000 -6.218750 1.355498
30.175000 -3.078125 1.355498
30.075000 -1.953125 1.355498
30.500000 -9.062500 1.500130
30.400000 -7.593750 1.500130
30.325000 -5.984375 1.500130
30.175000 -3.031250 1.500130
30.175000 -2.140625 1.500130
30.650000 -8.953125 1.662472
30.450000 -8.109375 1.662472
30.350000 -6.750000 1.662472
30.200000 -2.843750 1.662472
30.125000 -2.156250 1.662472
30.500000 -8.718750 1.824975
30.400000 -7.421875 1.824975
30.325000 -6.171875 1.824975
30.175000 -2.609375 1.824975
30.175000 -2.125000 1.824975
30.500000 -8.640625 1.980763
30.400000 -7.609375 1.980763
30.325000 -6.625000 1.980763
30.175000 -2.671875 1.980763
30.150000 -1.750000 1.980763
30.525000 -9.078125 2.136569
30.425000 -8.093750 2.136569
30.325000 -6.906250 2.136569
30.250000 -2.921875 2.136569
30.225000 -1.562500 2.136569
30.500000 -8.484375 2.289052
30.400000 -7.046875 2.289052
30.325000 -6.031250 2.289052
30.200000 -2.296875 2.289052
30.275000 -1.890625 2.289052
30.475000 -8.140625 2.449462
30.450000 -7.468750 2.449462
30.425000 -6.359375 2.449462
30.350000 -4.093750 2.449462
30.225000 -2.968750 2.449462
30.375000 -1.703125 2.449462
30.500000 -8.640625 2.607111
30.400000 -7.328125 2.607111
30.350000 -6.015625 2.607111
30.325000 -3.937500 2.607111
30.225000 -2.328125 2.607111
30.400000 -1.203125 2.607111
30.500000 -8.343750 2.763402
30.400000 -7.921875 2.763402
30.325000 -6.718750 2.763402
30.225000 -2.406250 2.763402
30.275000 -1.984375 2.763402
30.525000 -8.156250 2.918665
30.400000 -6.750000 2.918665
30.200000 -3.390625 2.918665
30.100000 -2.453125 2.918665
30.525000 -7.781250 3.075336
30.400000 -7.250000 3.075336
30.300000 -5.890625 3.075336
30.150000 -3.453125 3.075336
30.075000 -2.078125 3.075336
30.475000 -8.625000 3.232258
30.400000 -7.140625 3.232258
30.325000 -5.609375 3.232258
30.150000 -3.703125 3.232258
30.075000 -1.968750 3.232258
30.775000 -8.718750 3.401836
30.475000 -8.156250 3.401836
30.350000 -6.609375 3.401836
30.200000 -3.515625 3.401836
30.125000 -2.312500 3.401836
30.500000 -8.734375 3.558216
30.400000 -7.765625 3.558216
30.325000 -6.578125 3.558216
30.200000 -2.984375 3.558216
30.250000 -1.593750 3.558216
30.450000 -8.468750 3.715424
30.375000 -7.453125 3.715424
30.325000 -5.671875 3.715424
30.250000 -3.375000 3.715424
30.775000 -9.171875 3.870625
30.475000 -8.109375 3.870625
30.350000 -6.421875 3.870625
30.200000 -3.234375 3.870625
30.125000 -2.093750 3.870625
30.725000 -8.953125 4.033660
30.450000 -7.437500 4.033660
30.350000 -6.859375 4.033660
30.200000 -2.578125 4.033660
30.175000 -2.046875 4.033660
30.600000 -8.640625 4.182963
30.450000 -8.140625 4.182963
30.350000 -6.968750 4.182963
30.200000 -3.015625 4.182963
30.175000 -1.843750 4.182963
30.500000 -8.406250 4.350385
30.375000 -6.468750 4.350385
30.250000 -2.921875 4.350385
30.150000 -1.750000 4.350385
30.525000 -8.453125 4.496410
30.400000 -7.250000 4.496410
30.175000 -3.437500 4.496410
30.075000 -2.609375 4.496410
30.525000 -8.140625 4.661012
30.400000 -6.484375 4.661012
30.250000 -3.031250 4.661012
30.150000 -2.578125 4.661012
30.600000 -8.843750 4.808900
30.450000 -7.890625 4.808900
30.350000 -6.968750 4.808900
30.275000 -2.859375 4.808900
30.250000 -2.109375 4.808900
30.525000 -8.484375 4.974148
30.425000 -7.765625 4.974148
30.325000 -6.031250 4.974148
30.225000 -3.218750 4.974148
30.200000 -1.500000 4.974148
30.625000 -9.265625 5.123670
30.450000 -7.687500 5.123670
30.350000 -6.796875 5.123670
30.275000 -3.312500 5.123670
30.225000 -2.046875 5.123670
30.500000 -7.843750 5.285916
30.375000 -6.531250 5.285916
30.225000 -2.937500 5.285916
30.150000 -1.640625 5.285916
30.500000 -9.078125 5.450440
30.400000 -7.296875 5.450440
30.325000 -6.750000 5.450440
30.225000 -3.140625 5.450440
30.250000 -2.078125 5.450440
30.500000 -8.453125 5.597789
30.375000 -7.750000 5.597789
30.325000 -5.812500 5.597789
30.200000 -3.078125 5.597789
30.275000 -1.578125 5.597789
30.450000 -8.734375 5.763610
30.425000 -7.562500 5.763610
30.400000 -6.250000 5.763610
30.275000 -3.859375 5.763610
30.175000 -2.390625 5.763610
30.425000 -1.906250 5.763610
30.450000 -8.562500 5.911809
30.425000 -7.140625 5.911809
30.375000 -5.703125 5.911809
30.175000 -4.000000 5.911809
30.100000 -2.312500 5.911809
30.525000 -7.843750 6.073783
30.425000 -7.343750 6.073783
30.325000 -6.203125 6.073783
30.150000 -3.468750 6.073783
30.075000 -2.000000 6.073783
30.500000 -8.046875 6.226734
30.375000 -7.062500 6.226734
30.225000 -2.968750 6.226734
30.125000 -1.796875 6.226734
30.525000 -8.140625 6.385001
30.425000 -7.390625 6.385001
30.325000 -5.390625 6.385001
30.150000 -3.671875 6.385001
30.075000 -2.062500 6.385001
30.700000 -8.718750 6.542427
30.450000 -7.875000 6.542427
30.350000 -6.484375 6.542427
30.250000 -2.968750 6.542427
30.200000 -2.109375 6.542427
30.475000 -8.234375 6.714858
30.400000 -7.656250 6.714858
30.350000 -6.375000 6.714858
30.275000 -3.578125 6.714858
30.175000 -2.390625 6.714858
30.300000 -2.000000 6.714858
30.500000 -8.250000 6.866799
30.425000 -7.390625 6.866799
30.325000 -5.859375 6.866799
30.150000 -3.343750 6.866799
30.050000 -2.000000 6.866799
30.525000 -8.156250 7.025725
30.400000 -6.953125 7.025725
30.225000 -3.593750 7.025725
30.125000 -2.109375 7.025725
30.525000 -8.484375 7.179639
30.425000 -7.750000 7.179639
30.325000 -6.171875 7.179639
30.225000 -2.671875 7.179639
30.175000 -1.968750 7.179639
30.475000 -8.343750 7.337189
30.400000 -7.265625 7.337189
30.350000 -5.906250 7.337189
30.200000 -2.234375 7.337189
30.300000 -1.937500 7.337189
30.450000 -8.218750 7.491498
30.425000 -7.281250 7.491498
30.350000 -6.281250 7.491498
30.225000 -3.921875 7.491498
30.150000 -2.390625 7.491498
30.475000 -8.968750 7.659457
30.400000 -7.390625 7.659457
30.350000 -6.296875 7.659457
30.200000 -2.546875 7.659457
30.300000 -1.562500 7.659457
30.500000 -8.687500 7.803080
30.400000 -7.218750 7.803080
30.375000 -6.218750 7.803080
30.375000 -4.187500 7.803080
30.300000 -2.531250 7.803080
30.400000 -1.203125 7.803080
30.500000 -8.734375 7.966656
30.400000 -7.593750 7.966656
30.350000 -5.656250 7.966656
30.375000 -3.859375 7.966656
30.300000 -2.578125 7.966656
30.400000 -1.437500 7.966656
30.525000 -8.468750 8.126770
30.425000 -6.953125 8.126770
30.325000 -5.359375 8.126770
30.200000 -3.046875 8.126770
30.175000 -2.562500 8.126770
30.600000 -8.562500 8.286367
30.450000 -8.078125 8.286367
30.350000 -6.968750 8.286367
30.250000 -3.359375 8.286367
30.200000 -1.812500 8.286367
30.475000 -8.843750 8.439923
30.400000 -7.343750 8.439923
30.350000 -5.875000 8.439923
30.225000 -2.968750 8.439923
30.250000 -1.093750 8.439923
30.525000 -7.875000 8.599327
30.400000 -7.218750 8.599327
30.225000 -3.453125 8.599327
30.125000 -2.203125 8.599327
30.600000 -9.312500 8.752102
30.450000 -7.812500 8.752102
30.350000 -6.390625 8.752102
30.250000 -2.718750 8.752102
30.200000 -2.031250 8.752102
30.475000 -8.187500 8.912690
30.400000 -7.593750 8.912690
30.350000 -6.578125 8.912690
30.225000 -2.437500 8.912690
30.350000 -1.203125 8.912690
30.475000 -8.937500 9.063964
30.400000 -7.156250 9.063964
30.350000 -6.406250 9.063964
30.225000 -2.937500 9.063964
30.325000 -1.328125 9.063964
30.475000 -8.390625 9.223255
30.400000 -7.031250 9.223255
30.350000 -6.296875 9.223255
30.225000 -3.015625 9.223255
30.325000 -1.718750 9.223255
30.475000 -8.062500 9.387035
30.375000 -7.390625 9.387035
30.325000 -6.078125 9.387035
30.275000 -3.531250 9.387035
30.200000 -2.828125 9.387035
30.425000 -1.109375 9.387035
30.475000 -8.000000 9.541646
30.400000 -7.390625 9.541646
30.325000 -5.937500 9.541646
30.125000 -3.437500 9.541646
30.100000 -2.718750 9.541646
30.475000 -8.593750 9.699698
30.375000 -7.015625 9.699698
30.325000 -6.500000 9.699698
30.300000 -3.421875 9.699698
30.200000 -2.281250 9.699698
30.425000 -1.406250 9.699698
30.500000 -8.562500 9.854781
30.425000 -7.359375 9.854781
30.325000 -6.187500 9.854781
30.225000 -3.953125 9.854781
30.100000 -2.453125 9.854781
