23.500000 -7.757812 1.481881
23.300000 -3.695312 1.481881
23.200000 -1.781250 1.481881
23.200000 -2.742188 1.481881
23.200000 -2.078125 1.481881
23.200000 0.210938 1.481881
23.500000 -7.854004 1.622925
23.300000 -2.528809 1.622925
23.200000 -3.363281 1.622925
23.200000 -2.447754 1.622925
23.200000 -2.032227 1.622925
23.500000 -9.486328 1.763073
23.300000 -2.781738 1.763073
23.200000 -1.865234 1.763073
23.200000 -2.698730 1.763073
23.200000 -1.407227 1.763073
23.500000 -7.812988 1.893377
23.300000 -3.590332 1.893377
23.200000 -1.796875 1.893377
23.200000 -1.007324 1.893377
23.200000 -0.467773 1.893377
23.200000 -0.678223 1.893377
23.500000 -9.283691 2.032354
23.300000 -4.061035 2.032354
23.200000 -1.767578 2.032354
23.200000 -1.099121 2.032354
23.200000 -0.430664 2.032354
23.200000 0.237793 2.032354
23.600000 -9.776367 2.172452
23.400000 -2.690430 2.172452
23.200000 -3.523438 2.172452
23.200000 -3.106445 2.172452
23.200000 -0.689453 2.172452
23.500000 -8.783203 2.313933
23.300000 -3.701172 2.313933
23.200000 -2.909668 2.313933
23.200000 -2.868164 2.313933
23.200000 -2.076660 2.313933
23.300000 -0.285156 2.313933
23.600000 -8.832031 2.459933
23.400000 -4.523438 2.459933
23.200000 -2.109863 2.459933
23.200000 -1.446289 2.459933
23.200000 -2.157715 2.459933
23.200000 -0.119141 2.459933
23.400000 -0.705566 2.459933
23.600000 -9.651855 2.584934
23.400000 -2.569824 2.584934
23.200000 -1.903320 2.584934
23.200000 -2.986816 2.584934
23.200000 -2.320312 2.584934
23.500000 -8.100098 2.724644
23.300000 -3.775879 2.724644
23.200000 -3.610352 2.724644
23.200000 -1.444824 2.724644
23.200000 -0.779297 2.724644
23.200000 -1.863770 2.724644
23.300000 -0.823242 2.724644
23.500000 -8.283691 2.864368
23.500000 -9.491211 2.864368
23.300000 -3.910156 2.864368
23.200000 -3.244141 2.864368
23.200000 -2.203125 2.864368
23.200000 -1.537109 2.864368
23.300000 -0.621094 2.864368
23.500000 -8.004883 3.006450
23.300000 -2.668945 3.006450
23.200000 -3.503418 3.006450
23.200000 -1.337891 3.006450
23.200000 -1.922363 3.006450
23.500000 -9.497070 3.147729
23.500000 -9.328613 3.147729
23.400000 -2.774414 3.147729
23.200000 -2.105957 3.147729
23.200000 -1.437500 3.147729
23.200000 -0.773438 3.147729
23.200000 -0.359375 3.147729
23.300000 -1.070312 3.147729
23.500000 -9.337891 3.276617
23.500000 -8.045898 3.276617
23.400000 -2.876953 3.276617
23.300000 -3.959961 3.276617
23.200000 -2.167969 3.276617
23.200000 -1.500977 3.276617
23.200000 -0.208984 3.276617
23.300000 -1.416992 3.276617
23.500000 -9.276367 3.415614
23.300000 -2.815430 3.415614
23.200000 -2.523438 3.415614
23.200000 -2.356445 3.415614
23.200000 -0.314453 3.415614
23.300000 -1.147461 3.415614
23.500000 -8.637207 3.557385
23.400000 -3.430176 3.557385
23.200000 -2.638672 3.557385
23.200000 -1.097168 3.557385
23.200000 -0.430664 3.557385
23.200000 -1.014160 3.557385
23.500000 -9.381348 3.698705
23.400000 -3.549316 3.698705
23.200000 -2.632812 3.698705
23.200000 -2.966309 3.698705
23.200000 -0.674805 3.698705
23.600000 -7.820312 3.825119
23.400000 -2.742188 3.825119
23.200000 -1.826172 3.825119
23.200000 -2.535156 3.825119
23.200000 -1.244141 3.825119
23.600000 -9.421875 3.966369
23.500000 -7.132324 3.966369
23.400000 -3.855469 3.966369
23.200000 -3.940918 3.966369
23.200000 -1.401367 3.966369
23.200000 -0.736816 3.966369
23.200000 -1.072266 3.966369
23.300000 -0.657715 3.966369
23.500000 -9.654297 4.104234
23.500000 -7.236816 4.104234
23.400000 -2.820312 4.104234
23.200000 -4.029297 4.104234
23.200000 -2.863281 4.104234
23.200000 -2.322266 4.104234
23.200000 -1.906250 4.104234
23.300000 -0.365234 4.104234
23.500000 -9.765625 4.244254
23.500000 -8.347656 4.244254
23.400000 -3.921875 4.244254
23.200000 -3.508789 4.244254
23.200000 -2.095703 4.244254
23.200000 -0.807617 4.244254
23.200000 -1.769531 4.244254
23.300000 0.518555 4.244254
23.500000 -9.218750 4.384897
23.500000 -9.425781 4.384897
23.400000 -4.625000 4.384897
23.300000 -2.957031 4.384897
23.200000 -1.539062 4.384897
23.200000 -2.746094 4.384897
23.200000 -1.078125 4.384897
23.300000 -0.039551 4.384897
23.500000 -8.498535 4.526861
23.400000 -3.299316 4.526861
23.200000 -2.758789 4.526861
23.200000 -1.093262 4.526861
23.300000 -2.177734 4.526861
23.300000 -1.012207 4.526861
23.500000 -8.613770 4.669964
23.400000 -4.289551 4.669964
23.200000 -1.999023 4.669964
23.200000 -2.333496 4.669964
23.200000 -0.667969 4.669964
23.500000 -7.672852 4.797967
23.300000 -3.723633 4.797967
23.200000 -2.933105 4.797967
23.200000 -1.017578 4.797967
23.200000 -0.477051 4.797967
23.200000 0.313477 4.797967
23.500000 -9.326172 4.939592
23.400000 -3.490234 4.939592
23.200000 -1.948242 4.939592
23.300000 -2.281250 4.939592
23.300000 -2.364258 4.939592
23.500000 -9.379883 5.083905
23.400000 -2.434570 5.083905
23.200000 -1.769531 5.083905
23.300000 -2.729492 5.083905
23.300000 -0.189453 5.083905
23.500000 -9.854004 5.208622
23.500000 -7.437500 5.208622
23.400000 -3.910645 5.208622
23.200000 -3.746094 5.208622
23.200000 -2.831543 5.208622
23.200000 -0.791992 5.208622
23.200000 -0.127441 5.208622
23.300000 -0.337891 5.208622
23.500000 -8.243652 5.346910
23.500000 -9.451172 5.346910
23.500000 -4.280273 5.346910
23.300000 -3.863281 5.346910
23.200000 -2.446289 5.346910
23.200000 -2.529297 5.346910
23.200000 -0.237305 5.346910
23.300000 0.179688 5.346910
23.500000 -8.933594 5.488790
23.300000 -3.343750 5.488790
23.200000 -1.678223 5.488790
23.200000 -1.637695 5.488790
23.200000 -0.347168 5.488790
23.200000 -1.306641 5.488790
23.500000 -9.568359 5.631789
23.400000 -3.970703 5.631789
23.200000 -2.677246 5.631789
23.200000 -1.133789 5.631789
23.300000 -0.465332 5.631789
23.500000 -9.609375 5.771446
23.400000 -3.257812 5.771446
23.200000 -2.463867 5.771446
23.200000 -2.669922 5.771446
23.200000 -0.500977 5.771446
23.600000 -8.107422 5.910952
23.500000 -8.941895 5.910952
23.500000 -4.533203 5.910952
23.400000 -2.117676 5.910952
23.300000 -2.202148 5.910952
23.100000 -2.411621 5.910952
23.400000 -3.618164 6.052460
23.200000 -1.705078 6.052460
23.200000 -2.541992 6.052460
23.200000 -1.628906 6.052460
23.200000 -0.840820 6.052460
23.200000 -1.445801 6.458454
23.300000 0.346680 6.458454
23.600000 -8.807617 6.598456
23.400000 -2.715820 6.598456
23.300000 -2.550293 6.598456
23.200000 -2.259766 6.598456
23.200000 -2.219238 6.598456
23.500000 -7.958008 6.742456
23.400000 -3.356445 6.742456
23.200000 -1.937500 6.742456
23.200000 -2.648926 6.742456
23.200000 -0.985352 6.742456
23.500000 -9.238281 6.871455
23.400000 -2.652344 6.871455
23.200000 -3.735352 6.871455
23.200000 -2.943359 6.871455
23.200000 -2.276367 6.871455
23.500000 -9.372559 7.011455
23.400000 -4.415527 7.011455
23.200000 -2.874023 7.011455
23.200000 -1.207520 7.011455
23.200000 -2.041016 7.011455
23.200000 -1.249512 7.011455
23.500000 -7.696289 7.152362
23.300000 -3.754883 7.152362
23.200000 -2.340332 7.152362
23.200000 -1.050781 7.152362
23.200000 -0.386230 7.152362
23.200000 -1.471680 7.152362
23.500000 -9.037109 7.293179
23.500000 -7.497070 7.293179
23.400000 -3.341797 7.293179
23.200000 -3.551758 7.293179
23.300000 -3.261719 7.293179
23.300000 -2.346680 7.293179
23.200000 -1.431641 7.293179
23.400000 0.483398 7.293179
23.500000 -7.766602 7.434176
23.400000 -3.446289 7.434176
23.200000 -3.656250 7.434176
23.300000 -2.616211 7.434176
23.200000 -1.701172 7.434176
23.200000 -1.536133 7.434176
23.500000 -9.162598 7.559176
23.400000 -2.471191 7.559176
23.200000 -1.931641 7.559176
23.300000 -2.642090 7.559176
23.200000 -0.602539 7.559176
23.200000 0.187012 7.559176
23.500000 -8.043945 7.704178
23.400000 -2.709473 7.704178
23.200000 -3.542969 7.704178
23.200000 -1.376465 7.704178
23.200000 -1.959961 7.704178
23.500000 -8.908203 7.844176
23.300000 -2.316406 7.844176
23.200000 -1.649414 7.844176
23.200000 -2.482422 7.844176
23.200000 -1.065430 7.844176
23.200000 0.351562 7.844176
23.600000 -8.058594 7.983578
23.300000 -2.718750 7.983578
23.200000 -3.556641 7.983578
23.300000 -1.394531 7.983578
23.300000 -1.732422 7.983578
23.200000 -1.695312 7.983578
23.300000 -0.908203 7.983578
23.500000 -9.743164 8.126869
23.400000 -2.657227 8.126869
23.200000 -1.990234 8.126869
23.200000 -1.323242 8.126869
23.200000 -0.656250 8.126869
23.500000 -7.958008 8.253233
23.300000 -2.633789 8.253233
23.200000 -3.343262 8.253233
23.200000 -1.302734 8.253233
23.200000 -0.637207 8.253233
23.500000 -8.188965 8.396229
23.300000 -2.989746 8.396229
23.200000 -1.699219 8.396229
23.200000 -1.408691 8.396229
23.200000 -1.118164 8.396229
23.200000 0.172363 8.396229
23.600000 -9.210938 8.536228
23.400000 -4.023438 8.536228
23.200000 -3.234375 8.536228
23.200000 -2.570312 8.536228
23.200000 -2.031250 8.536228
23.200000 0.132812 8.536228
23.300000 -1.203125 8.536228
23.500000 -8.238770 8.679828
23.500000 -9.324219 8.679828
23.300000 -3.507812 8.679828
23.200000 -1.593262 8.679828
23.200000 -0.928711 8.679828
23.200000 -1.264160 8.679828
23.300000 -1.349609 8.679828
23.500000 -9.824219 8.805094
23.300000 -2.503906 8.805094
23.200000 -1.838867 8.805094
23.200000 -2.548828 8.805094
23.300000 -1.633789 8.805094
23.300000 -1.343750 8.805094
23.600000 -9.468750 8.945474
23.500000 -9.305664 8.945474
23.400000 -4.664062 8.945474
23.200000 -2.125977 8.945474
23.200000 -1.462891 8.945474
23.200000 -1.424805 8.945474
23.200000 -1.136719 8.945474
23.300000 -0.848633 8.945474
23.500000 -7.816406 9.085799
23.300000 -3.604980 9.085799
23.200000 -3.688477 9.085799
23.200000 -3.021973 9.085799
23.300000 -2.355469 9.085799
23.300000 -0.188965 9.085799
23.500000 -8.306152 9.224730
23.500000 -7.639648 9.224730
23.300000 -2.304688 9.224730
23.200000 -1.636719 9.224730
23.200000 -0.968750 9.224730
23.200000 -0.300781 9.224730
23.300000 -1.257812 9.224730
23.500000 -8.850586 9.364580
23.500000 -8.306152 9.364580
23.400000 -2.870117 9.364580
23.300000 -3.825684 9.364580
23.200000 -2.906250 9.364580
23.200000 -0.866211 9.364580
23.200000 -0.201172 9.364580
23.300000 -1.161133 9.364580
23.500000 -10.089844 9.504076
23.500000 -9.171875 9.504076
23.400000 -4.746094 9.504076
23.300000 -2.703125 9.504076
23.200000 -3.285156 9.504076
23.200000 -1.617188 9.504076
23.200000 0.050781 9.504076
23.300000 0.468750 9.504076
23.500000 -7.843750 9.644791
23.300000 -2.507812 9.644791
23.200000 -3.715820 9.644791
23.200000 -1.173828 9.644791
23.200000 -1.631836 9.644791
23.500000 -9.785156 9.785055
23.500000 -8.870117 9.785055
23.400000 -2.839844 9.785055
23.300000 -3.049805 9.785055
23.200000 -1.509766 9.785055
23.200000 -2.469727 9.785055
23.200000 -0.179688 9.785055
23.300000 -0.889648 9.785055
23.500000 -7.858398 9.926773
23.400000 -2.788086 9.926773
23.200000 -2.248047 9.926773
23.200000 -1.208008 9.926773
23.200000 -0.542969 9.926773
23.500000 -8.381348 10.049793
23.300000 -3.541504 10.049793
23.200000 -3.249023 10.049793
23.200000 -1.331543 10.049793
23.200000 -0.414062 10.049793
23.500000 -8.053711 10.188708
23.400000 -4.233398 10.188708
23.300000 -2.068359 10.188708
23.200000 -3.028320 10.188708
23.200000 -0.738281 10.188708
