32.275000 -9.656250 0.201968
32.125000 -8.046875 0.201968
32.025000 -6.968750 0.201968
32.425000 -10.890625 0.281968
32.275000 -9.640625 0.281968
32.125000 -8.015625 0.281968
32.025000 -7.296875 0.281968
32.400000 -10.734375 0.392968
32.225000 -9.171875 0.392968
32.125000 -8.484375 0.392968
32.050000 -6.515625 0.392968
32.400000 -10.703125 0.532969
32.225000 -9.453125 0.532969
32.150000 -8.468750 0.532969
32.050000 -6.515625 0.532969
32.325000 -10.734375 0.672969
32.175000 -8.921875 0.672969
32.025000 -7.750000 0.672969
31.975000 -6.890625 0.672969
32.350000 -10.515625 0.814970
32.200000 -9.015625 0.814970
32.125000 -7.734375 0.814970
32.075000 -6.828125 0.814970
32.400000 -10.906250 0.953969
32.225000 -9.703125 0.953969
32.150000 -8.343750 0.953969
32.050000 -7.109375 0.953969
32.400000 -10.765625 1.099970
32.225000 -9.484375 1.099970
32.125000 -8.500000 1.099970
32.050000 -6.750000 1.099970
32.275000 -9.281250 1.240968
32.125000 -8.250000 1.240968
32.050000 -6.937500 1.240968
32.275000 -9.343750 1.382968
32.125000 -8.046875 1.382968
32.050000 -7.140625 1.382968
32.275000 -9.609375 1.523969
32.125000 -8.640625 1.523969
32.050000 -7.375000 1.523969
32.250000 -9.578125 1.667968
32.125000 -8.671875 1.667968
32.050000 -7.421875 1.667968
32.250000 -10.125000 1.808969
32.125000 -8.703125 1.808969
32.025000 -7.390625 1.808969
32.400000 -11.046875 1.951970
32.250000 -9.421875 1.951970
32.100000 -8.500000 1.951970
32.050000 -7.328125 1.951970
32.250000 -9.546875 2.088968
32.125000 -8.828125 2.088968
32.025000 -7.468750 2.088968
32.250000 -9.578125 2.234969
32.100000 -8.281250 2.234969
32.000000 -7.250000 2.234969
32.250000 -10.125000 2.372969
32.025000 -8.468750 2.372969
31.925000 -7.687500 2.372969
32.325000 -10.625000 2.661969
32.150000 -9.140625 2.661969
32.000000 -7.953125 2.661969
32.225000 -6.296875 2.661969
32.325000 -10.203125 2.798968
32.175000 -9.187500 2.798968
32.025000 -7.578125 2.798968
31.975000 -6.703125 2.798968
32.425000 -11.078125 2.942968
32.250000 -9.390625 2.942968
32.100000 -8.656250 2.942968
32.025000 -6.578125 2.942968
32.275000 -9.656250 3.081968
32.125000 -8.640625 3.081968
32.025000 -7.203125 3.081968
32.250000 -9.953125 3.222968
32.025000 -8.484375 3.222968
31.950000 -7.250000 3.222968
32.250000 -9.531250 3.363968
32.100000 -8.750000 3.363968
32.000000 -7.312500 3.363968
32.400000 -10.750000 3.507969
32.250000 -9.656250 3.507969
32.100000 -8.390625 3.507969
32.025000 -6.656250 3.507969
32.400000 -10.906250 3.649968
32.250000 -9.468750 3.649968
32.125000 -8.015625 3.649968
32.025000 -6.781250 3.649968
32.350000 -10.750000 3.793969
32.175000 -9.187500 3.793969
32.025000 -7.750000 3.793969
31.975000 -6.437500 3.793969
32.275000 -10.328125 3.935969
32.175000 -9.250000 3.935969
32.025000 -7.906250 3.935969
32.050000 -6.515625 3.935969
32.275000 -10.578125 4.076968
32.175000 -8.750000 4.076968
32.050000 -8.156250 4.076968
32.075000 -6.515625 4.076968
32.325000 -10.359375 4.215969
32.175000 -9.562500 4.215969
32.025000 -7.890625 4.215969
32.000000 -6.828125 4.215969
32.325000 -10.328125 4.362968
32.200000 -9.203125 4.362968
32.025000 -7.843750 4.362968
31.975000 -6.671875 4.362968
32.250000 -9.828125 4.500969
32.100000 -8.875000 4.500969
32.000000 -7.250000 4.500969
32.250000 -10.250000 4.643970
32.150000 -8.843750 4.643970
32.050000 -7.296875 4.643970
32.250000 -9.875000 4.784968
32.050000 -8.718750 4.784968
31.975000 -7.500000 4.784968
32.275000 -10.656250 4.925968
32.200000 -9.140625 4.925968
32.075000 -7.750000 4.925968
32.075000 -6.859375 4.925968
32.325000 -10.765625 5.070969
32.200000 -9.671875 5.070969
32.050000 -8.015625 5.070969
31.975000 -6.578125 5.070969
32.275000 -9.937500 5.207968
32.075000 -8.531250 5.207968
32.000000 -7.250000 5.207968
32.250000 -10.093750 5.348968
32.150000 -8.718750 5.348968
32.075000 -7.734375 5.348968
32.225000 -9.828125 5.497967
32.150000 -9.125000 5.497967
32.075000 -7.609375 5.497967
32.350000 -6.671875 5.497967
32.275000 -10.250000 5.634969
32.175000 -9.375000 5.634969
32.025000 -7.578125 5.634969
32.050000 -6.625000 5.634969
32.400000 -10.671875 5.922968
32.250000 -9.718750 5.922968
32.125000 -8.500000 5.922968
32.025000 -6.687500 5.922968
32.250000 -9.640625 6.062969
32.075000 -8.171875 6.062969
31.975000 -7.468750 6.062969
32.400000 -11.031250 6.203968
32.250000 -9.625000 6.203968
32.125000 -8.343750 6.203968
32.050000 -6.921875 6.203968
32.350000 -10.500000 6.346969
32.200000 -9.312500 6.346969
32.125000 -8.359375 6.346969
32.050000 -7.062500 6.346969
32.350000 -10.781250 6.487969
32.175000 -9.609375 6.487969
32.025000 -8.031250 6.487969
31.975000 -6.437500 6.487969
32.350000 -10.640625 6.630969
32.200000 -9.046875 6.630969
32.100000 -8.218750 6.630969
32.050000 -6.906250 6.630969
32.350000 -10.546875 6.774968
32.200000 -9.015625 6.774968
32.100000 -8.296875 6.774968
32.025000 -6.609375 6.774968
32.275000 -9.390625 6.908968
32.125000 -8.718750 6.908968
32.025000 -6.765625 6.908968
32.250000 -9.593750 7.052968
32.100000 -8.609375 7.052968
32.000000 -6.906250 7.052968
32.225000 -10.125000 7.198969
32.075000 -8.562500 7.198969
31.975000 -7.187500 7.198969
32.350000 -10.890625 7.335998
32.175000 -9.562500 7.335998
32.025000 -7.859375 7.335998
31.975000 -6.500000 7.335998
32.400000 -11.218750 7.477968
32.250000 -9.250000 7.477968
32.100000 -8.390625 7.477968
32.025000 -6.687500 7.477968
32.250000 -9.968750 7.619969
32.100000 -8.265625 7.619969
32.000000 -7.437500 7.619969
32.250000 -10.234375 7.762968
32.000000 -8.609375 7.762968
31.900000 -7.390625 7.762968
32.250000 -9.562500 7.901967
32.075000 -8.890625 7.901967
31.975000 -7.031250 7.901967
32.250000 -9.812500 8.049968
31.975000 -8.437500 8.049968
31.900000 -7.703125 8.049968
32.250000 -10.343750 8.186968
32.050000 -8.703125 8.186968
31.950000 -7.250000 8.186968
32.250000 -10.031250 8.328969
32.050000 -8.250000 8.328969
31.950000 -7.250000 8.328969
32.250000 -10.359375 8.470968
32.050000 -8.765625 8.470968
31.950000 -7.687500 8.470968
32.250000 -10.203125 8.614969
32.000000 -8.984375 8.614969
31.925000 -7.375000 8.614969
32.325000 -10.343750 8.753969
32.225000 -8.750000 8.753969
32.075000 -7.796875 8.753969
32.200000 -6.140625 8.753969
32.350000 -10.406250 8.896968
32.175000 -9.375000 8.896968
32.025000 -7.828125 8.896968
31.975000 -6.265625 8.896968
32.325000 -10.859375 9.182969
32.175000 -9.078125 9.182969
32.025000 -8.187500 9.182969
31.975000 -6.890625 9.182969
32.400000 -11.015625 9.319968
32.250000 -9.390625 9.319968
32.100000 -7.984375 9.319968
32.025000 -7.062500 9.319968
32.400000 -10.781250 9.465969
32.250000 -9.296875 9.465969
32.100000 -7.890625 9.465969
32.025000 -7.000000 9.465969
32.250000 -9.421875 9.607969
32.075000 -8.687500 9.607969
32.000000 -7.265625 9.607969
32.250000 -9.828125 9.746999
32.075000 -8.828125 9.746999
31.975000 -7.593750 9.746999
32.325000 -10.421875 9.889969
32.225000 -8.734375 9.889969
32.050000 -7.500000 9.889969
32.250000 -6.234375 9.889969
