-2.040707 0.507756 6.699337
-1.998583 0.490566 6.924828
-1.974271 0.473587 7.208342
-1.635676 0.407220 7.460406
-3.848953 0.714027 1.504142
-3.850753 0.712926 1.531395
-3.859976 0.707591 1.664333
-4.073857 0.670778 2.839729
-3.978207 0.661519 2.878580
-3.839653 0.665745 2.547757
-3.774058 0.646795 2.850903
-1.733912 0.357135 5.702107
-1.984304 0.347720 6.338985
-2.063426 0.339618 6.652753
-2.027321 0.343225 6.511540
-1.967383 0.330889 6.679266
-1.905390 0.301549 7.216636
-1.691268 0.269284 7.556792
-3.818353 0.407659 1.891196
-3.800971 0.418391 1.653567
-3.965236 0.384486 2.413015
-4.002094 0.369024 2.756322
-4.017646 0.363060 2.888851
-3.785904 0.374348 2.621872
-3.633836 0.354559 3.045360
-1.563162 0.223828 5.757923
-1.752625 0.227693 5.687952
-1.987572 0.202186 6.268192
-1.994706 0.200866 6.297806
-2.019713 0.177804 6.807460
-2.054684 0.154722 7.318357
-3.843265 0.087806 1.948143
-3.816218 0.108011 1.551794
-3.978885 0.058057 2.365047
-3.981516 0.056582 2.392841
-3.961003 0.025190 3.117387
-3.699871 0.070137 2.585302
-3.546101 0.062948 3.010542
-1.663541 0.090152 5.688268
-1.804355 0.070768 5.868693
-1.946379 0.051372 6.047284
-2.132717 0.001574 6.815924
-2.073368 -0.001366 6.983682
-1.903474 0.005821 7.121486
-3.817632 -0.176311 1.617711
-3.840533 -0.195783 1.964708
-3.846109 -0.247155 3.063749
-3.798237 -0.258681 3.474763
-3.417524 -0.168658 2.790468
-1.596598 -0.005746 5.341103
-1.478069 -0.006723 5.759102
-1.665622 -0.032311 5.688043
-1.989800 -0.107847 6.246366
-2.091430 -0.143099 6.673164
-2.045496 -0.146333 6.897277
-2.077884 -0.174741 7.406941
-3.592453 -0.438411 1.561170
-3.696834 -0.469325 1.688852
-3.793603 -0.548359 2.885703
-3.678100 -0.512631 2.711892
-3.451969 -0.668258 1.499097
-3.455762 -0.673410 1.581786
-3.595525 -0.752154 2.298974
-3.585902 -0.742822 2.167580
-3.574491 -0.784359 3.115044
-3.455184 -0.735521 2.888329
-3.184725 -0.657555 3.061170
-2.845590 -0.568966 3.470315
-2.418287 -0.453495 3.905068
-2.022668 -0.323581 3.825105
-1.772373 -0.316516 5.350170
-1.551211 -0.264190 5.731217
-1.824730 -0.370001 6.121936
-1.924267 -0.402114 6.130036
-1.967367 -0.425475 6.331863
-2.025710 -0.476526 7.012540
-2.026346 -0.495682 7.410047
-3.408595 -0.980357 1.971886
-3.459900 -1.037102 2.697417
-3.432937 -1.009015 2.351443
-3.359258 -0.991163 2.605061
-3.140731 -0.933603 3.263397
-2.840560 -0.800000 3.057405
-2.469927 -0.690421 3.930589
-2.059766 -0.506617 3.623766
-1.835748 -0.437674 4.096348
-1.360238 -0.329048 5.867265
-1.728607 -0.477847 5.811469
-1.846626 -0.532421 5.934098
-1.920782 -0.581209 6.306265
-2.025091 -0.647914 6.790668
-1.917838 -0.621741 7.156067
-3.213947 -1.185093 1.652657
-3.212957 -1.183277 1.626956
-3.240366 -1.226177 2.194036
-3.159787 -1.192481 2.339251
-3.095659 -1.178282 2.702252
-1.766844 -0.559435 3.858116
-1.647746 -0.587564 5.600966
-1.545914 -0.532329 5.536373
-1.772852 -0.686637 6.292388
-1.822320 -0.700565 6.070710
-1.916988 -0.773621 6.556412
-1.847935 -0.744074 6.667685
-1.741627 -0.708521 7.033847
-1.621170 -0.682005 7.718710
-3.132453 -1.450104 2.034583
-3.131261 -1.448014 2.008911
-3.162921 -1.497356 2.575245
-3.086964 -1.458993 2.721787
-3.057577 -1.477712 3.409861
-2.681848 -1.230500 3.053970
-1.573524 -0.683542 5.433116
-1.493968 -0.637882 5.483517
-1.751032 -0.820923 5.988584
-1.766130 -0.834723 6.075618
-1.833595 -0.895484 6.447532
-1.845422 -0.929765 6.957258
-1.685223 -0.836760 7.038767
-1.515809 -0.757984 7.493296
-2.913351 -1.628583 1.833986
-2.918189 -1.639783 1.970736
-2.921409 -1.646766 2.053350
-2.937689 -1.678422 2.406143
-2.884457 -1.666202 2.877798
-2.817292 -1.628764 3.080893
-2.599335 -1.489366 3.421142
-2.289417 -1.274909 3.615776
-1.910812 -1.017925 3.942600
-1.689808 -0.871075 4.189625
-1.329682 -0.672101 5.309951
-1.173994 -0.562727 5.378503
-1.529540 -0.831471 5.559587
-1.729925 -1.019418 6.311163
-1.715639 -1.004238 6.225872
-1.789575 -1.081998 6.652975
-1.736593 -1.052869 6.820360
-2.777012 -1.811874 1.474417
-2.706873 -1.770706 1.781066
-2.785383 -1.841735 1.856817
-2.793130 -1.862893 2.101935
-2.731278 -1.832001 2.463252
-2.664460 -1.787328 2.663772
-2.519565 -1.673999 2.822238
-1.410769 -0.872324 5.136034
-1.429020 -0.931968 5.878043
-1.591450 -1.072128 5.920696
-1.704222 -1.181625 6.154998
-1.678182 -1.179600 6.491542
-1.636191 -1.157361 6.715560
-1.625189 -1.196982 7.537560
-1.364951 -0.969443 7.419163
-2.562399 -2.015328 2.130735
-2.628331 -2.068462 1.933754
-2.577585 -2.058432 2.566375
-2.508000 -1.991473 2.604696
-2.453980 -1.961069 2.970707
-2.265987 -1.802385 3.420413
-1.904410 -1.437028 3.347927
-1.642179 -1.198910 3.713882
-1.416788 -1.024016 4.492389
-1.259147 -0.905584 5.097516
-1.334465 -1.023475 5.763808
-1.477800 -1.165631 5.750803
-1.572900 -1.271989 5.929839
-1.561048 -1.289104 6.380815
-1.537376 -1.287211 6.719344
-1.572879 -1.366351 7.400727
-2.386251 -2.212124 2.052687
-2.315936 -2.101323 1.653246
-2.388514 -2.222616 2.164238
-2.389148 -2.225370 2.192861
-2.404282 -2.279433 2.709446
-2.270176 -2.113610 2.596082
-2.104634 -1.969419 3.318417
-1.106928 -0.913800 5.012583
-1.112952 -0.973448 5.761601
-1.333288 -1.246636 5.958400
-1.407086 -1.338087 6.023629
-1.423873 -1.367974 6.167935
-1.484213 -1.472994 6.652309
-1.462994 -1.471749 6.990564
-2.157215 -2.271254 1.739164
-2.161843 -2.313405 2.204612
-2.217912 -2.370749 1.953402
-2.220211 -2.388668 2.145366
-2.194213 -2.443888 3.324829
-2.119975 -2.312074 2.931292
-1.100789 -1.081735 5.055364
-1.177960 -1.256306 5.952338
-1.286601 -1.394948 5.823261
-1.370084 -1.527228 6.058588
-1.447510 -1.687717 6.768073
-1.308518 -1.486222 6.619788
-1.287171 -1.483167 6.959394
-2.013544 -2.511166 1.517092
-1.961394 -2.485829 2.206528
-2.012833 -2.557655 2.063505
-2.013274 -2.565611 2.146427
-2.022367 -2.639742 2.825572
-1.925152 -2.508681 3.149581
-1.769455 -2.259326 3.216151
-1.007055 -1.170741 5.060577
-0.987615 -1.183741 5.574935
-1.097445 -1.367828 5.621875
-1.248106 -1.663420 6.180087
-1.255554 -1.683193 6.266852
-1.227071 -1.661032 6.547972
-1.189447 -1.661018 7.254808
-1.724320 -2.532693 2.171293
-1.771541 -2.588885 1.809503
-1.770742 -2.655378 2.492030
-1.770104 -2.635257 2.302722
-1.780040 -2.749657 3.255346
-1.681688 -2.513810 2.817315
-1.555057 -2.333325 3.488674
-0.898473 -1.164447 4.632263
-0.765281 -0.918249 4.773148
-0.838986 -1.121869 5.370951
-0.986138 -1.423759 5.515044
-1.102205 -1.689285 5.903582
-1.126724 -1.774189 6.274616
-1.083568 -1.695175 6.327857
-1.070127 -1.714072 6.780767
-1.050536 -1.709732 7.121128
-0.953512 -1.571135 7.632418
-1.547449 -2.786089 2.442058
-0.823815 -1.385872 5.421597
-0.831422 -1.428501 5.624418
-0.956428 -1.754977 5.819431
-0.960177 -1.774313 5.905362
-0.998681 -1.959118 6.672223
-0.952926 -1.834219 6.555523
-0.946430 -1.885863 7.121015
-1.331280 -2.817167 1.450422
-1.310192 -2.918325 2.568351
-1.318049 -2.865552 2.051102
-1.304415 -3.030352 3.437682
-1.274233 -2.909114 3.261083
-1.212690 -2.732056 3.369497
-0.755183 -1.455268 4.438924
-0.663986 -1.189413 4.576332
-0.639945 -1.199732 5.149515
-0.735074 -1.520332 5.295252
-0.806213 -1.810672 5.742128
-0.838817 -1.922661 5.806148
-0.818153 -1.916444 6.198067
-0.805113 -1.959907 6.761859
-0.795736 -2.015043 7.326753
-1.121047 -2.907231 1.450422
-1.081430 -2.855248 2.032331
-1.102918 -2.959624 2.106894
-1.117253 -3.097510 2.506243
-1.091985 -3.009956 2.598745
-1.065739 -2.929093 2.746476
-1.007934 -2.825974 3.455849
-0.959031 -2.654014 3.622054
-0.597676 -1.390574 4.887088
-0.573999 -1.357848 5.226353
-0.623549 -1.664514 5.736251
-0.669785 -1.810621 5.494737
-0.694969 -1.962041 5.731137
-0.699477 -2.075175 6.214073
-0.682535 -2.103124 6.719939
-0.635755 -1.923111 6.799453
-0.592013 -1.789445 7.051292
-0.535482 -1.698017 7.793275
-0.896134 -2.993453 1.611666
-0.897005 -2.991681 1.586503
-0.899549 -3.122140 1.989895
-0.890201 -3.149879 2.290581
-0.860587 -3.101632 2.764463
-0.833621 -3.055033 3.186613
-0.785012 -2.758166 3.199137
-0.704828 -2.460333 3.894408
-0.490692 -1.455695 5.015468
-0.500732 -1.652673 5.489841
-0.533476 -1.852252 5.479998
-0.545726 -2.044061 5.888205
-0.558309 -2.284031 6.458473
-0.525012 -2.100163 6.535579
-0.508060 -2.026638 6.645431
-0.473650 -2.014641 7.351003
-0.652629 -3.158239 1.626484
-0.617771 -3.236148 2.524454
-0.600812 -3.289012 2.986860
-0.613532 -3.126240 2.429935
-0.586148 -3.084960 2.960481
-0.551247 -2.956136 3.506613
-0.520889 -2.549722 3.479370
-0.480873 -2.183306 3.732336
-0.438863 -1.828263 4.048459
-0.387496 -1.527189 4.662042
-0.360298 -1.545378 5.289977
-0.361116 -1.697150 5.531018
-0.378945 -1.886341 5.462578
-0.378466 -2.052268 5.756220
-0.379924 -2.208131 5.990212
-0.348467 -2.146626 6.575618
-0.325132 -2.210172 7.196193
-0.309782 -1.994715 7.165412
-0.389020 -3.101051 1.622755
-0.389991 -3.199125 1.589528
-0.366313 -3.237366 2.106135
-0.360065 -3.249239 2.242255
-0.343918 -3.184067 2.605546
-0.325124 -3.031480 3.037670
-0.308573 -2.878900 3.420413
-0.283920 -2.658831 3.989643
-0.292396 -2.233545 3.854379
-0.277289 -1.886786 4.228754
-0.256373 -1.565716 4.727910
-0.236200 -1.646689 5.162207
-0.240524 -1.728245 5.057197
-0.215510 -1.936597 5.582686
-0.196510 -2.226439 5.965940
-0.176725 -2.327624 6.389256
-0.172182 -2.251791 6.498407
-0.141148 -2.326738 7.172519
-0.132387 -2.077766 7.395401
-0.129709 -3.250024 2.036142
-0.111163 -3.280198 2.390384
-0.100984 -3.298599 2.581618
-0.106872 -3.202300 2.620635
-0.067741 -3.203326 3.477515
-0.075312 -2.942003 3.767933
-0.110982 -2.611068 3.563358
-0.118919 -2.268672 3.987360
-0.112337 -1.971879 4.650287
-0.135024 -1.672525 4.675448
-0.105495 -1.762113 5.166912
-0.107148 -1.756908 5.139716
-0.059484 -1.989226 5.779783
-0.018918 -2.280010 6.161946
-0.013376 -2.300332 6.248042
0.011389 -2.322518 6.752715
0.014319 -2.263161 6.920711
0.015940 -2.058963 7.313026
0.089950 -3.139919 1.872157
0.103525 -3.236794 1.839016
0.133464 -3.276301 2.356273
0.143448 -3.216756 2.775294
0.120318 -3.104917 2.651345
0.106073 -2.933836 2.921479
0.114118 -2.806808 3.527101
0.106372 -2.588041 4.100274
0.030949 -2.160175 3.910277
-0.005359 -1.815953 4.287508
0.009342 -1.721467 4.927584
0.015796 -1.737114 5.014906
0.049493 -1.882450 5.255133
0.097561 -2.126774 5.472348
0.163115 -2.305308 6.292934
0.198517 -2.407837 6.715374
0.201712 -2.362563 6.938355
0.168063 -2.098287 7.102390
0.348378 -3.120323 1.850208
0.346872 -3.118832 1.825701
0.432579 -3.290904 2.768045
0.431167 -3.225210 3.078136
0.406376 -3.125671 3.063358
0.387417 -2.973746 3.444709
0.356959 -2.805344 3.665413
0.286384 -2.454075 3.975079
0.211843 -2.153716 3.936180
0.176163 -1.867281 4.656579
0.128905 -1.670891 4.662819
0.199429 -1.860180 5.191134
0.239977 -1.992805 5.371635
0.318904 -2.207812 5.946519
0.360398 -2.345464 6.121223
0.341373 -2.256943 6.172739
0.359098 -2.206317 6.814198
0.361938 -2.125977 7.291130
0.574639 -3.061717 1.436556
0.619412 -3.098208 2.120521
0.623040 -3.169164 1.706543
0.646788 -3.189640 2.061596
0.692074 -3.179478 3.078348
0.668383 -3.093846 3.174270
0.600613 -2.896641 3.119004
0.546445 -2.716752 3.228547
0.500824 -2.495890 3.799559
0.408024 -2.160969 4.171778
0.353030 -1.933430 4.592975
0.312962 -1.777659 4.830743
0.286009 -1.688963 4.879624
0.434230 -2.022921 5.672515
0.442305 -2.078906 5.454840
0.585881 -2.373654 6.421281
0.539756 -2.250573 6.306794
0.555381 -2.241032 6.699265
0.565953 -2.187607 7.289038
0.853673 -3.052327 2.242711
0.946851 -3.197865 2.913524
0.884275 -3.080458 2.628498
0.853692 -2.995264 2.723230
0.824576 -2.859966 3.269381
0.800209 -2.782877 3.422349
0.729016 -2.556087 3.882412
0.594939 -2.207743 4.086091
0.578423 -2.099762 4.658687
0.464887 -1.822103 4.685448
0.490632 -1.817168 5.250659
0.521949 -1.861985 5.510590
0.584959 -2.029030 5.386780
0.667369 -2.186755 5.736010
0.693996 -2.191216 6.240118
0.700429 -2.166983 6.574877
0.724944 -2.172895 7.023804
0.690088 -2.021778 7.586287
0.974877 -2.853137 1.419789
0.976794 -2.854020 1.448705
1.042450 -2.954263 1.744706
1.077899 -2.977618 2.209721
1.136989 -3.025963 2.891431
1.080328 -2.926142 2.768014
1.019977 -2.773710 3.093894
0.945041 -2.608760 3.257299
0.832215 -2.361551 3.491982
0.809377 -2.212616 4.520393
0.672784 -1.981344 4.129935
0.577530 -1.755973 4.493328
0.528388 -1.623133 4.845164
0.692762 -1.891920 5.409480
0.810874 -2.073666 5.927978
0.916224 -2.242090 6.327783
0.870382 -2.182339 6.019552
0.873641 -2.155179 6.352981
0.927993 -2.169742 7.276653
0.796559 -1.903912 7.330350
0.651887 -1.591758 7.583348
1.219040 -2.768619 1.606954
1.233269 -2.775167 1.798738
1.377911 -2.919545 2.853646
1.313192 -2.824774 2.728562
1.302789 -2.771131 3.150112
1.265974 -2.698014 3.299829
1.203304 -2.562210 3.685040
1.086148 -2.340513 4.035165
0.986264 -2.136657 4.504354
0.852148 -1.936932 4.283472
0.860600 -1.875975 5.143063
0.796842 -1.746128 5.439346
0.818233 -1.800168 5.219476
0.984322 -2.006456 5.965058
1.029885 -2.085232 5.914489
1.129805 -2.223498 6.200191
1.141553 -2.208956 6.587920
1.007421 -1.976135 6.747321
0.956551 -1.839435 7.364324
0.830989 -1.592476 7.847138
1.423563 -2.593279 2.093633
1.479863 -2.672812 2.058418
1.545557 -2.756769 2.132445
1.557689 -2.762822 2.269101
1.538257 -2.704075 2.688463
1.483336 -2.583100 3.287393
1.403700 -2.488232 3.107799
1.270273 -2.275460 3.507225
1.133781 -2.062236 3.858128
1.050669 -1.926926 4.143037
0.977379 -1.800377 4.488355
0.890413 -1.663649 4.723260
0.830652 -1.550561 5.133647
1.069045 -1.819686 5.864703
1.645343 -2.546059 1.713132
1.684994 -2.559849 2.179842
1.724655 -2.577525 2.591174
1.774856 -2.603779 3.056331
1.683653 -2.513261 2.823308
1.628622 -2.442163 2.918257
1.575718 -2.333980 3.578900
1.373941 -2.100491 3.538294
1.237530 -1.908115 4.004334
1.129746 -1.769779 4.177210
1.099339 -1.685980 4.865951
1.061495 -1.600993 5.447165
1.138991 -1.687189 5.512493
1.236449 -1.788888 5.690429
1.481491 -2.033781 6.292337
1.600624 -2.178574 6.217155
1.804480 -2.336606 2.012915
1.787993 -2.332511 1.821344
1.870331 -2.405821 1.951919
1.843721 -2.349004 2.427430
1.906443 -2.374331 3.003883
1.894190 -2.331506 3.483268
1.780290 -2.204358 3.704880
1.637057 -2.062168 3.706874
1.439290 -1.857804 3.835273
1.258106 -1.662487 4.079316
1.376151 -1.730530 4.845715
1.212011 -1.547699 5.158830
1.219575 -1.526454 5.608122
1.369585 -1.649265 6.014060
1.648524 -1.906918 6.311106
1.837599 -2.081507 6.513340
1.899853 -2.146551 6.461791
2.044968 -2.259706 1.956624
2.047527 -2.260179 1.985284
2.104237 -2.274212 2.560870
2.095861 -2.232019 3.147547
1.990927 -2.156389 2.913961
1.884936 -2.042955 3.298150
1.775840 -1.929899 3.631651
1.579128 -1.747597 3.872192
1.502466 -1.651562 4.384295
1.431310 -1.534832 5.321568
1.428230 -1.508826 5.712931
1.734879 -1.749241 6.070788
2.101928 -2.024743 1.471225
2.216035 -2.084225 1.878332
2.249354 -2.088217 2.236047
2.292894 -2.096545 2.647931
2.268663 -2.052299 3.125962
2.151594 -1.984014 2.837906
2.057784 -1.885545 3.388252
1.949000 -1.785240 3.778588
1.811404 -1.647279 4.470307
1.648098 -1.529071 4.478310
1.548787 -1.411187 5.304483
1.509162 -1.370217 5.525836
1.820334 -1.577606 5.829279
2.257331 -1.862579 1.619349
2.409870 -1.917041 2.354619
2.346120 -1.867026 2.558604
2.415750 -1.878976 3.136434
2.342377 -1.828862 3.231422
2.247275 -1.774190 3.161659
2.136057 -1.682374 3.603061
1.993547 -1.555315 4.345196
1.793775 -1.441374 4.181679
1.762017 -1.404440 4.508753
1.703263 -1.359890 4.667757
1.427119 -1.169724 5.054530
1.606829 -1.232822 5.940741
1.980571 -1.456551 6.048477
2.291749 -1.656895 5.874286
2.388658 -1.673400 1.431444
2.524546 -1.713122 2.001751
2.602132 -1.714768 2.740505
2.605452 -1.715026 2.768440
2.569121 -1.675144 3.190712
2.470018 -1.628519 3.121579
2.351037 -1.545912 3.561635
2.162902 -1.453521 3.506573
1.971180 -1.330048 4.026375
1.847144 -1.249841 4.369062
1.749555 -1.152849 5.304261
1.715742 -1.121641 5.581195
2.246597 -1.353240 6.308068
2.705926 -1.515694 2.593308
2.696917 -1.515921 2.512632
2.780923 -1.517196 3.195977
2.617802 -1.477050 2.634876
2.653422 -1.443982 3.607884
2.509752 -1.370638 3.885923
2.289149 -1.289772 3.667310
2.055097 -1.177951 3.964455
1.905643 -1.104574 4.194324
1.914732 -1.034375 5.698171
1.782044 -0.987943 5.521833
2.260886 -1.164670 5.971941
2.670006 -1.267824 2.059502
2.788620 -1.294703 2.298651
2.745718 -1.303010 1.834472
2.836827 -1.289296 2.737946
2.752354 -1.257530 2.832084
2.726674 -1.223738 3.366282
2.628806 -1.192772 3.353067
2.444569 -1.130658 3.408210
2.293207 -1.068482 3.686980
2.069321 -0.976611 4.097326
2.028799 -0.947901 4.424689
2.105084 -0.929797 5.319865
2.249136 -0.945420 5.966848
2.612330 -1.068282 5.849488
3.130334 -1.176513 7.085634
2.824206 -1.079096 1.575695
2.826288 -1.078234 1.604599
2.864451 -1.065362 2.071674
2.923226 -1.052243 2.647291
2.939251 -1.049550 2.785285
2.866285 -1.022970 2.989554
2.874409 -0.989695 3.743533
2.695355 -0.942548 3.857271
2.507820 -0.895952 3.916716
2.242699 -0.825249 4.104290
2.145515 -0.775957 4.674094
1.989972 -0.706373 5.386558
2.045724 -0.707423 5.643304
2.712233 -0.830584 6.341815
2.902876 -0.863817 1.667753
3.071416 -0.854136 2.452691
3.052376 -0.859868 2.263142
3.060514 -0.857337 2.345913
2.883971 -0.819930 2.557747
2.884323 -0.782817 3.366068
2.822410 -0.761066 3.628105
2.542117 -0.711290 3.755338
2.307799 -0.655709 4.165499
2.229959 -0.612136 4.847827
2.001981 -0.559319 5.219469
2.080606 -0.554625 5.589518
2.575252 -0.614184 5.980074
3.013746 -0.596970 2.272586
3.078189 -0.620620 1.856388
3.089260 -0.615138 1.994447
3.180256 -0.580774 2.894403
3.053322 -0.582115 2.662011
2.870675 -0.561506 2.822434
2.815658 -0.540577 3.193968
2.664192 -0.483408 4.206925
2.453800 -0.470341 4.157405
2.361858 -0.435205 4.781815
2.090507 -0.384748 5.455726
2.096605 -0.383890 5.484313
2.605746 -0.400594 5.931639
3.066833 -0.424589 6.142078
3.101154 -0.420865 6.278721
3.103172 -0.398341 1.677766
3.116887 -0.389535 1.871092
3.132098 -0.380733 2.064305
3.216224 -0.342256 2.908199
3.239191 -0.333573 3.098494
3.017622 -0.341515 2.931800
2.889544 -0.315614 3.506658
2.529600 -0.302284 3.813299
2.272047 -0.289160 4.111645
2.176549 -0.236811 5.267519
2.219531 -0.206225 5.939236
2.467871 -0.217734 5.676762
2.923412 -0.188589 6.301628
3.027347 -0.188263 6.304981
1.550534 -0.125783 7.734552
3.226868 -0.132858 1.702934
3.300701 -0.085830 2.598553
3.357787 -0.057596 3.112759
3.236510 -0.075875 2.935152
3.134413 -0.085157 2.919572
3.106752 -0.060773 3.505393
2.944145 -0.061880 3.780600
2.703629 -0.063587 4.186121
2.333054 -0.085323 4.391814
2.298317 -0.070753 4.775409
2.258314 -0.059114 5.104394
1.959305 -0.082876 5.133850
2.178585 -0.038174 5.710556
2.476846 -0.014793 5.674138
2.752440 0.022810 5.991423
2.935110 0.053414 6.326319
3.252984 0.126448 2.073050
3.213822 0.091526 1.449106
3.234165 0.111062 1.803568
3.255283 0.128208 2.103378
3.305415 0.162416 2.673898
3.244861 0.169584 3.038900
3.182710 0.174096 3.351683
3.004505 0.153362 3.516464
2.850526 0.144188 3.848868
2.514484 0.110343 4.273819
2.351452 0.095065 4.504793
2.307510 0.103194 4.833302
2.159993 0.093237 5.126385
1.960791 0.062105 5.137642
2.261279 0.132840 5.637519
2.732670 0.241926 6.380824
2.809041 0.249181 6.274765
2.787476 0.260881 6.603600
1.635754 0.143473 8.029320
3.207475 0.371275 1.691467
3.225847 0.389845 1.992229
3.357861 0.443403 2.445594
3.355734 0.441708 2.420489
3.261425 0.420407 2.459228
3.100882 0.398674 2.835812
3.054976 0.409797 3.314171
2.906913 0.391519 3.699215
2.614643 0.320675 3.716003
2.392927 0.290756 4.238085
2.240310 0.266817 4.525957
2.235804 0.291705 5.081680
2.060484 0.254579 5.206589
2.248820 0.322346 5.668596
2.598223 0.419356 5.911868
2.837886 0.506803 6.525704
2.698014 0.464684 6.358108
3.287302 0.693850 2.131505
3.269122 0.673643 1.836311
3.414874 0.756870 2.558025
3.327524 0.732188 2.651610
3.261033 0.724871 2.962347
3.064576 0.656609 2.906574
2.925055 0.633604 3.398857
2.746532 0.579367 3.510911
2.502184 0.514587 3.861707
2.270308 0.456987 4.275450
2.138250 0.432225 4.679038
2.012107 0.409662 5.087286
2.027245 0.418920 5.175052
2.380762 0.576945 6.010187
2.434038 0.584393 5.794315
2.614312 0.663607 6.191586
2.616172 0.685438 6.634438
2.505973 0.665873 6.994150
2.308910 0.618802 7.385055
3.204635 0.909684 1.737149
3.223624 0.935079 2.090951
3.299546 0.952019 1.788297
3.315914 0.973588 2.086762
3.351914 1.013975 2.600022
3.188897 0.958732 2.866804
3.166412 0.983375 3.558503
2.908146 0.883979 3.740111
2.709255 0.795303 3.633704
2.531942 0.760200 4.431055
2.287642 0.670047 4.681342
2.127522 0.611714 4.860737
1.950399 0.540738 4.928273
2.081754 0.633725 5.697286
2.412216 0.784445 5.942720
2.475844 0.803276 5.783160
2.536661 0.843963 6.091197
2.623249 0.921200 6.921711
2.310276 0.784253 6.806917
2.101098 0.712941 7.140574
3.118964 1.127868 1.489441
3.355379 1.303984 2.579082
3.346052 1.292497 2.447086
3.344364 1.290366 2.422184
3.285771 1.281639 2.836948
3.129551 1.215656 3.105157
3.029180 1.203279 3.866125
2.794622 1.098710 4.161006
2.493055 0.931959 3.906512
2.318395 0.881072 4.655167
2.154449 0.803616 4.775629
2.007872 0.740866 5.010798
2.038610 0.766665 5.209358
2.186789 0.859903 5.556061
2.392128 0.996313 6.177793
2.442009 1.010647 5.960094
2.395931 1.022236 6.648137
2.426565 1.066152 7.203014
2.196814 0.938914 7.005273
1.895847 0.800969 7.309694
1.724881 0.755941 8.136309
3.098598 1.428466 1.412852
3.115828 1.466526 1.925777
3.206836 1.529617 2.052783
3.222298 1.554970 2.348303
3.148896 1.520154 2.546685
3.167358 1.596848 3.768563
3.007346 1.503830 3.880553
2.722877 1.314257 3.626505
2.351885 1.150601 4.859734
1.905249 0.868678 4.755142
1.956159 0.919913 5.124614
2.187761 1.083668 5.507653
2.331285 1.190739 5.849707
2.416197 1.268526 6.322401
2.370463 1.251943 6.541670
2.221155 1.166738 6.675939
2.130180 1.132694 7.092305
1.988014 1.074717 7.653563
1.746415 0.951172 8.139023
3.062030 1.771744 1.845677
3.068886 1.787437 2.033714
3.090348 1.829060 2.489558
3.091834 1.831684 2.516544
3.032987 1.808489 2.876166
2.916020 1.755382 3.466989
2.683168 1.590198 3.590695
2.477098 1.460506 3.992086
2.240398 1.289718 4.066961
2.009591 1.126508 4.198852
1.881551 1.087537 5.184803
1.783507 1.008127 5.062390
1.968585 1.153998 5.222089
2.265977 1.423644 6.102694
2.261417 1.418716 6.075144
2.205932 1.386882 6.237840
2.170910 1.376531 6.512981
2.080927 1.333388 6.927017
1.873224 1.192225 7.146755
2.920386 1.985925 1.756757
2.865776 1.976584 2.385132
2.846042 1.925821 1.821567
2.861401 1.966595 2.281297
2.869670 1.985112 2.471488
2.803384 1.940094 2.672265
2.786899 1.980118 3.576767
2.581366 1.820610 3.866994
2.353066 1.625324 3.887216
1.754923 1.205536 5.472791
1.930949 1.366496 5.630519
1.994557 1.415046 5.527135
2.144472 1.574583 6.036084
2.228072 1.678147 6.563447
2.168102 1.633070 6.672560
2.024881 1.514567 6.752100
1.877793 1.417934 7.252058
2.830056 2.244972 1.439928
2.698504 2.150612 2.019432
2.769975 2.223415 2.039791
2.769316 2.221140 2.014643
2.782118 2.259891 2.418418
2.729031 2.233423 2.832963
2.610281 2.142228 3.262424
2.461261 1.986154 3.153412
2.275776 1.829630 3.605111
1.592725 1.226465 4.851925
1.777647 1.436395 5.240152
1.897084 1.581692 5.641997
1.977387 1.666087 5.705256
2.024990 1.737013 6.067984
2.023490 1.767453 6.565087
1.978341 1.763182 7.201494
1.883925 1.688465 7.508563
2.509890 2.339101 1.738597
2.575635 2.421792 1.812544
2.585741 2.469518 2.322555
2.589553 2.483448 2.456920
2.608351 2.541329 2.965631
2.540294 2.456325 2.897555
2.455159 2.416409 3.758240
2.256619 2.179830 3.721978
2.094978 2.025313 4.234937
1.880406 1.754378 3.978528
1.606762 1.483056 4.708232
1.471260 1.319857 4.658759
1.497856 1.373258 4.972771
1.666170 1.598786 5.359043
1.820212 1.795194 5.570211
1.854120 1.856714 5.877097
1.918331 1.969462 6.404833
1.851246 1.890180 6.401921
1.732582 1.792869 7.008092
1.651372 1.722596 7.370580
2.309054 2.537596 1.739018
2.368146 2.630249 1.868323
2.376083 2.685450 2.433484
2.312717 2.574749 2.149448
2.349261 2.724470 3.413534
2.337390 2.685048 3.120953
2.216266 2.507397 3.013060
2.059984 2.328307 3.516058
1.897528 2.124144 3.808357
1.399051 1.538041 5.222133
1.517074 1.702246 5.213276
1.611031 1.864984 5.616409
1.687003 1.984857 5.792297
1.717491 2.051494 6.100308
1.667137 2.030671 6.734879
1.668312 2.071427 7.236006
1.545803 1.935086 7.682152
2.117780 2.678125 1.456482
2.168458 2.791330 1.801639
2.169948 2.829045 2.205924
2.174923 2.872422 2.609612
2.187718 2.942538 3.172816
2.139694 2.876768 3.321499
2.028425 2.675619 3.107057
1.879223 2.455869 3.392306
1.735720 2.255577 3.793486
1.236594 1.571615 5.334225
1.349963 1.766366 5.435879
1.508035 2.082981 6.094193
1.552549 2.146694 5.987891
1.537841 2.161030 6.428627
1.504934 2.126245 6.648355
1.496072 2.150421 7.092012
1.883795 2.868922 1.757551
1.927730 2.969647 1.885516
1.931227 3.082701 2.930975
1.926732 3.011357 2.316275
1.893601 3.052447 3.373379
1.796802 2.820861 2.996157
1.720388 2.739804 3.701325
1.591098 2.505671 3.938534
1.425580 2.223860 4.418890
1.239389 1.838971 4.290222
1.088622 1.617227 5.072272
1.050738 1.558126 5.235444
1.138809 1.727249 5.168833
1.270163 2.062783 5.890418
1.371753 2.280971 6.041293
1.400755 2.381171 6.458020
1.388615 2.401694 6.899245
1.280309 2.165334 6.701478
1.255090 2.196989 7.509872
1.668810 2.978443 1.452899
1.660729 3.020137 1.965768
1.695129 3.157694 2.414232
1.733391 3.323240 3.017859
1.694576 3.175728 2.576154
1.618089 3.014424 2.786466
1.542389 2.861883 3.053959
1.432343 2.660429 3.612379
1.283349 2.334018 3.920189
0.926934 1.607545 5.110532
1.065047 2.015355 5.704290
1.197770 2.381262 6.057786
1.196464 2.374831 6.030658
1.192477 2.444492 6.693780
1.109026 2.230478 6.605618
1.106831 2.298540 7.218863
1.419392 3.109002 1.519075
1.447911 3.210123 1.595216
1.438381 3.248818 2.053202
1.466618 3.356663 2.180097
1.427535 3.343684 2.913436
1.395175 3.296177 3.275463
1.304417 2.980291 3.072623
1.181058 2.711296 3.866452
1.088843 2.399135 3.719045
0.763919 1.601202 5.213649
0.832092 1.865646 5.547182
0.928137 2.188111 5.682984
0.972984 2.405683 6.193243
0.972185 2.399188 6.166694
0.972320 2.532750 7.054639
0.938650 2.418524 6.999154
0.860552 2.231322 7.389002
1.207005 3.302652 1.503505
1.209831 3.466064 2.273952
1.196797 3.542494 2.941773
1.192416 3.581856 3.235762
1.151630 3.336389 2.861067
1.099200 3.189468 3.236890
0.999782 2.872810 3.755937
0.906602 2.475834 3.732955
0.831339 2.294670 4.423672
0.761502 1.982899 4.334027
0.690504 1.710746 4.470697
0.642205 1.599293 4.938390
0.666801 1.817825 5.522870
0.738812 2.159180 5.716406
0.763399 2.286355 5.836512
0.772380 2.472880 6.592660
0.747661 2.357436 6.535028
0.755753 2.485098 7.010902
0.687109 2.228457 7.176036
0.941183 3.505564 1.732932
0.930453 3.681399 2.550938
0.943636 3.788613 2.620464
0.921272 3.560622 2.349220
0.895593 3.500290 2.707450
0.655444 2.246769 3.766248
0.600620 2.012315 4.179873
0.547783 2.062315 5.495835
0.545326 2.106101 5.694853
0.573414 2.370137 5.961375
0.571130 2.431165 6.213952
0.569630 2.480364 6.410131
0.552317 2.450276 6.686854
0.519649 2.327926 6.991015
0.662074 3.550088 1.419857
0.633972 3.719213 2.294197
0.654742 3.787643 1.942138
0.633843 3.719536 2.297520
0.609903 3.545780 2.559005
0.579977 3.394335 2.985856
0.447303 2.254839 4.166486
0.384844 2.190514 5.440294
0.365053 2.026458 5.625419
0.369469 2.304583 5.951426
0.358885 2.560801 6.573508
0.355035 2.597884 6.714450
0.343150 2.368645 6.626816
0.323979 2.385637 7.073678
0.383935 3.806617 1.685067
0.380225 3.812354 1.766084
0.364478 3.740292 2.120746
0.348595 3.673426 2.477812
0.307859 3.580417 3.384882
0.271818 2.207471 4.331082
0.248228 1.899090 4.884691
0.232858 1.763452 5.238134
0.216863 2.133817 5.548997
0.179880 2.516564 6.320489
0.181174 2.509738 6.292774
0.176646 2.433487 6.400924
0.155674 2.348470 6.872048
0.137098 2.256082 7.291242
0.082432 3.809664 1.423245
0.089549 3.711657 1.455729
0.071657 3.822130 1.635536
0.014001 3.914988 2.721224
0.041223 3.865934 2.218645
0.015569 3.747145 3.009752
0.050437 3.428667 2.857864
0.069339 3.061310 3.150112
0.084431 2.704653 3.505336
0.108489 2.328885 3.700715
0.087126 2.382351 4.066325
0.046710 2.051113 5.589863
0.000489 2.280243 6.162607
-0.001403 2.357674 6.055137
-0.025652 2.444432 6.419968
-0.066183 2.529694 7.144734
-0.080597 2.520070 7.479331
-0.184557 3.707315 1.440321
-0.269226 3.969058 2.352900
-0.287069 3.996593 2.643042
-0.288742 3.999305 2.669774
-0.239755 3.774940 2.400081
-0.231829 3.543474 3.047632
-0.077339 2.291251 4.125963
-0.111810 2.184010 5.254695
-0.148116 2.162694 6.118979
-0.169813 2.278256 6.181109
-0.196218 2.407054 6.298643
-0.203238 2.371827 6.575926
-0.210795 2.339532 6.854476
-0.214712 2.245155 7.273827
-0.527627 3.890893 1.698592
-0.589392 4.030303 2.298101
-0.609179 4.055925 2.588744
-0.563164 3.929500 2.258992
-0.559508 3.792501 2.890260
-0.263595 2.357757 3.989489
-0.249449 2.062713 5.214806
-0.218263 1.898546 5.397787
-0.319983 2.163504 6.201914
-0.367674 2.315954 6.432769
-0.364851 2.309595 6.405301
-0.381414 2.302491 6.796466
-0.353374 2.149342 6.989664
-0.852077 3.918522 1.429266
-0.870664 3.932528 1.721606
-0.951265 4.075504 2.423776
-0.938007 4.061380 2.243668
-0.928880 3.990066 2.543265
-0.933805 3.938251 3.002612
-0.867114 3.687325 3.333725
-0.320074 1.704859 5.528543
-0.456830 2.067352 5.895299
-0.502786 2.189498 6.016243
-0.559948 2.293414 6.496907
-0.583608 2.300143 6.945378
-0.558607 2.179319 7.253543
-1.228640 3.937044 1.672741
-1.241671 3.946292 1.857512
-1.228789 3.875005 2.208256
-1.249787 3.840542 2.929722
-1.230890 3.722036 3.563847
-0.608414 1.960703 6.063922
-0.641899 2.045540 6.014503
-0.723384 2.168637 6.609677
-0.711673 2.150656 6.526621
-0.786676 2.236030 7.314192
-1.491808 3.760432 1.969138
-1.535111 3.848012 1.936666
-1.545538 3.855124 2.069360
-1.637028 3.931873 3.089437
-1.559663 3.813563 2.763810
-1.564015 3.727849 3.710752
-0.763108 1.957731 5.822342
-0.842882 2.059392 6.362516
-0.943313 2.221057 6.703980
-0.959713 2.214158 7.094496
-0.850449 2.010102 7.006247
-1.756376 3.604822 1.426387
-1.785784 3.617985 1.822697
-1.889658 3.733568 2.418469
-1.969264 3.837524 2.696105
-1.966872 3.835777 2.671741
-1.977658 3.800498 3.283854
-1.911619 3.704385 3.168443
-1.788323 3.519896 3.011670
-0.730099 1.595985 5.628619
-0.889620 1.823777 5.958314
-1.010034 1.982471 6.361413
-0.995931 1.967058 6.277275
-1.078502 2.058362 6.757553
-1.066011 1.992581 7.289699
-2.136816 3.538832 1.814346
-2.206953 3.623738 1.937795
-2.321335 3.732703 2.526710
-2.403570 3.786163 3.276960
-2.278415 3.662224 2.694481
-2.338275 3.664546 3.721288
-0.982927 1.668675 6.000862
-1.015959 1.725577 5.836801
-1.158175 1.881736 6.297377
-1.281182 1.997733 6.946255
-1.197010 1.893267 6.831848
-2.335663 3.299787 1.932791
-2.357031 3.363171 1.375841
-2.443998 3.444102 1.658462
-2.615326 3.565168 2.767748
-2.564312 3.540269 2.276904
-2.593243 3.553843 2.563125
-2.720365 3.627223 3.623048
-2.646011 3.545501 3.561850
-2.558308 3.455610 3.396014
-2.527368 3.338501 4.567204
-2.658923 3.491331 4.556883
-0.999517 1.512977 5.415685
-1.137962 1.644616 5.825221
-1.335604 1.825413 6.512515
-1.267639 1.747008 6.509910
-1.342703 1.808183 6.878825
-1.248198 1.685387 7.073559
-2.656296 3.169116 1.831122
-2.781788 3.256365 2.399082
-2.763526 3.249935 2.218083
-2.836893 3.320962 2.235987
-3.036229 3.483789 2.757813
-3.083074 3.505300 3.143381
-3.016278 3.437035 3.183552
-3.042895 3.417978 3.893501
-2.946682 3.333739 3.730271
-2.959954 3.311078 4.290779
-2.941673 3.246047 5.029133
-1.124326 1.458155 5.033019
-1.109754 1.422412 5.369020
-1.225710 1.521294 5.607229
-1.480262 1.713380 6.522213
-1.358992 1.608740 6.292358
-1.412288 1.644849 6.548411
-1.436929 1.640363 6.999172
-2.885693 2.963729 1.850761
-2.853743 2.959849 1.461249
-2.962148 3.028556 1.850008
-3.059655 3.097654 2.077120
-3.158736 3.168215 2.302066
-3.320774 3.261710 3.037760
-3.344435 3.271017 3.218157
-3.421367 3.304193 3.755775
-3.312490 3.224655 3.542186
-3.303989 3.190464 3.995443
-3.324864 3.200440 4.124969
-3.343489 3.182980 4.683250
-3.190522 3.052510 4.697624
-1.488459 1.533654 5.984825
-1.555597 1.550272 6.661174
-1.575145 1.561706 6.747321
-1.588522 1.549547 7.141898
-3.128188 2.713711 1.914374
-3.155971 2.717433 2.202809
-3.199896 2.771053 1.803355
-3.381109 2.847172 2.755622
-3.417521 2.895336 2.357921
-3.548641 2.965027 2.785065
-3.598562 2.979157 3.169976
-3.631005 2.989419 3.400760
-3.627405 2.988244 3.375799
-3.613319 2.953052 3.826426
-3.690681 2.957271 4.739740
-3.666883 2.923442 5.041778
-1.638803 1.396194 6.487334
-1.671844 1.411825 6.629569
-1.661573 1.368399 7.276523
-3.319495 2.475905 1.913351
-3.432485 2.529627 2.193872
-3.382092 2.528016 1.648271
-3.581976 2.590432 2.758249
-3.605488 2.634020 2.206862
-3.812429 2.706935 3.199966
-3.869230 2.720963 3.585151
-3.798751 2.703877 3.101180
-3.838934 2.713232 3.384386
-3.920422 2.708846 4.398160
-3.751675 2.631164 3.931236
-3.763520 2.608653 4.490124
-1.741879 1.273478 6.507033
-1.817671 1.302967 6.818390
-1.747918 1.238259 7.238667
-3.488299 2.198587 1.658004
-3.633544 2.241111 2.252259
-3.690164 2.244268 2.748073
-3.883805 2.335749 2.855561
-3.962754 2.379709 2.768234
-3.986151 2.382223 2.949295
-4.025298 2.387432 3.232549
-4.003498 2.353625 3.683172
-3.928120 2.311142 3.776620
-3.958344 2.317092 3.957324
-3.968673 2.293922 4.515210
-3.960183 2.247071 5.353754
-1.770575 1.107047 6.216932
-1.887794 1.141209 6.699618
-1.838015 1.107769 6.867304
-1.688515 1.025937 7.004867
-3.561027 1.865924 1.604863
-3.655670 1.902869 1.625253
-3.750324 1.939829 1.645417
-3.903605 1.969818 2.288246
-3.912084 1.969372 2.366816
-3.977541 1.968972 2.911185
-4.078647 1.975374 3.608567
-3.921179 1.933005 3.184385
-3.995682 1.938765 3.676978
-3.979227 1.909819 4.133618
-3.960875 1.882538 4.540696
-3.757064 1.781374 4.938223
-1.662485 0.921676 5.346378
-1.626561 0.893615 5.625465
-1.736109 0.913689 6.112643
-1.859947 0.957450 6.232909
-1.880683 0.961552 6.318967
-1.883368 0.943339 6.713086
-1.876308 0.923930 7.051818
-3.718067 1.586155 1.926219
-3.773284 1.627617 1.422132
-3.922826 1.644007 2.069934
-3.994281 1.635515 2.722091
-4.038919 1.671060 2.272043
-4.064680 1.668012 2.506881
-4.017905 1.634086 2.908764
-3.970119 1.602202 3.261088
-3.952570 1.572319 3.771938
-3.832777 1.514161 4.198170
-3.828355 1.513934 4.173613
-1.550914 0.734230 5.434917
-1.764407 0.776630 5.960898
-1.917864 0.813894 6.196513
-2.053613 0.831050 6.736722
-1.984561 0.803897 6.848704
-1.977995 0.785639 7.188389
-3.812711 1.311408 1.783250
-3.945427 1.324716 2.170526
-4.108902 1.335773 2.761875
-4.153193 1.330401 3.101337
-4.053540 1.307351 3.090251
-3.953884 1.284310 3.078962
-3.947063 1.253857 3.696771
-3.630228 1.185362 3.558916
-1.711132 0.620583 5.935083
-1.922219 0.648867 6.398610
-2.023683 0.672628 6.403627
-1.951074 0.650336 6.513318
-2.000150 0.635542 7.078882
-1.951302 0.598882 7.616726
-1.536756 0.502338 7.584723
-3.907724 0.990565 1.774210
-3.974626 0.968016 2.483842
-4.053725 0.988753 2.291056
-4.073237 0.946708 3.270129
-4.018072 0.924536 3.572409
-3.810630 0.895648 3.522984
-1.455442 0.430533 5.947057
-1.699576 0.479426 5.680986
-1.894262 0.489905 6.089448
-2.124187 0.500695 6.606356
-2.126803 0.483003 7.000056
-2.007839 0.450951 7.308805
-3.750120 0.668657 1.398774
-3.898678 0.648810 2.053554
-3.942248 0.631318 2.501925
-3.898714 0.648793 2.053966
-3.947962 0.629284 2.555009
-3.863534 0.617116 2.697896
-3.735630 0.582082 3.278939
-1.612006 0.334312 5.592368
-1.766307 0.333808 5.830771
-2.019511 0.321880 6.465760
-1.998312 0.324336 6.380593
-1.995984 0.306203 6.775427
-1.903490 0.280755 7.198105
-3.823626 0.368169 1.908385
-3.817637 0.371755 1.830303
-3.911641 0.375018 1.745021
-3.930005 0.364038 1.984079
-3.846351 0.355721 2.179132
-3.784421 0.300808 3.396792
-3.728238 0.287170 3.705034
-1.521086 0.217725 5.549776
-1.876913 0.184641 6.227101
-2.147599 0.170786 6.493310
-2.001637 0.179677 6.318508
-1.968004 0.167140 6.599285
-1.952453 0.151834 6.938434
-3.763973 0.046271 2.195541
-3.921396 0.058266 1.625118
-3.937644 0.045893 1.864676
-3.885358 0.024750 2.430386
-3.694862 0.037158 2.530313
-3.527723 0.037628 2.846386
-1.649788 0.101875 5.104890
-1.551691 0.086363 5.636565
-1.839800 0.042939 6.026083
-1.969441 0.025900 6.146535
-2.085618 -0.006522 6.630562
-1.981885 0.002893 6.626695
-2.104749 -0.046872 7.477924
-3.812073 -0.215513 1.558843
-3.858112 -0.253653 2.221955
-3.766578 -0.242637 2.311225
-3.740979 -0.271986 3.040512
-3.431822 -0.216421 2.943341
-1.418429 0.000336 5.462064
-1.821085 -0.088626 5.948984
-1.911418 -0.101243 5.898803
-2.020410 -0.141613 6.384374
-1.958350 -0.139045 6.551356
-1.940037 -0.151643 6.890699
-3.602333 -0.490493 1.820244
-3.583604 -0.469652 1.475050
-3.766162 -0.571130 2.668527
-3.796015 -0.592362 2.962738
-3.624210 -0.559454 3.176361
-3.405061 -0.494695 2.962285
-3.108095 -0.457412 3.750096
-2.727758 -0.366612 3.839675
-2.275259 -0.266463 4.114509
-1.895828 -0.176103 4.208632
-1.542648 -0.128748 5.081201
-1.388611 -0.101729 5.325826
-1.734976 -0.200468 5.587024
-1.992493 -0.300079 6.340765
-1.974010 -0.291585 6.257947
-2.019873 -0.332309 6.883054
-1.947046 -0.319343 6.994615
-3.540680 -0.736062 1.513514
-3.449608 -0.710237 1.602140
-3.494433 -0.759779 2.328417
-3.579460 -0.781102 2.187398
-3.574124 -0.827210 3.188039
-3.339507 -0.729177 2.757816
-3.102808 -0.674889 3.256403
-2.616404 -0.510857 3.184068
-2.321981 -0.449818 3.939856
-1.920348 -0.310619 3.801642
-1.648000 -0.288216 5.212735
-1.611766 -0.292472 5.551729
-1.835673 -0.397071 6.193101
-1.983842 -0.457220 6.427966
-1.990411 -0.460814 6.457758
-2.065350 -0.520802 7.194592
-1.947080 -0.496654 7.505963
-1.573329 -0.377234 7.588789
-3.313666 -0.990977 2.121683
-3.333547 -1.014063 2.418333
-3.396192 -1.017726 1.953440
-3.421575 -1.048388 2.356258
-3.236145 -0.969267 2.348959
-3.075117 -0.916608 2.667809
-1.816201 -0.446638 3.979736
-1.469252 -0.371491 5.442964
-1.445977 -0.381299 5.841993
-1.754747 -0.519234 5.979471
-1.954349 -0.629694 6.499764
-1.889920 -0.586896 6.187102
-1.864895 -0.592957 6.525265
-1.843867 -0.600784 6.864815
-3.202208 -1.224045 1.696261
-3.142121 -1.222061 2.271709
-3.200165 -1.220273 1.643599
-3.224308 -1.259220 2.156179
-3.140619 -1.219985 2.246587
-3.083425 -1.214134 2.717062
-2.852875 -1.116043 3.161011
-2.508072 -0.942158 3.294977
-2.210843 -0.816455 3.882080
-1.889355 -0.664180 4.199047
-1.960172 -0.729075 4.740494
-1.600537 -0.599629 5.892455
-1.662545 -0.623686 5.727716
-1.990306 -0.835662 6.510574
-1.909754 -0.796172 6.563962
-1.913167 -0.821152 7.016091
-1.811422 -0.786635 7.383031
-3.011787 -1.390228 1.499386
-3.030435 -1.429425 2.014898
-3.161042 -1.552113 2.788073
-3.056592 -1.471873 2.503811
-2.967040 -1.412373 2.433811
-2.855302 -1.386256 3.245766
-2.496946 -1.152643 3.049456
-2.239418 -1.041490 3.968517
-1.918116 -0.852394 4.172994
-1.597974 -0.664246 4.381689
-1.473296 -0.640722 5.392661
-1.402847 -0.602636 5.500576
-1.610644 -0.743754 5.720079
-1.766197 -0.862465 6.128698
-1.812401 -0.905009 6.386154
-1.822745 -0.938705 6.895499
-1.769229 -0.914434 7.064574
-2.888790 -1.639280 1.576823
-2.920401 -1.710362 2.417325
-2.937215 -1.739788 2.716309
-2.926275 -1.720986 2.527853
-2.844711 -1.659407 2.511325
-2.720837 -1.600907 3.104877
-2.558941 -1.480401 3.102479
-2.192050 -1.234860 3.583721
-1.875116 -1.003984 3.667892
-1.675568 -0.882357 4.140197
-1.271473 -0.625315 4.906943
-1.176538 -0.585011 5.441843
-1.554971 -0.886346 5.794633
-1.664598 -0.977999 5.973849
-1.822687 -1.121648 6.435080
-1.799517 -1.123496 6.772054
-1.679962 -1.048795 7.022694
-2.749300 -1.889768 1.811788
-2.745154 -1.874718 1.623363
-2.753803 -1.903681 1.976230
-2.773224 -1.951902 2.490735
-2.710316 -1.911972 2.745623
-2.553502 -1.767123 2.632143
-2.348162 -1.610125 3.023534
-1.231284 -0.749863 5.047855
-1.172553 -0.744761 5.817585
-1.504190 -1.047141 5.992246
-1.689231 -1.222831 6.204947
-1.702207 -1.239471 6.291250
-1.696188 -1.261471 6.742353
-1.696007 -1.288690 7.194814
-1.555978 -1.196345 7.704944
-1.270295 -0.953620 7.847918
-2.463022 -1.951792 1.892400
-2.528181 -1.998540 1.587829
-2.535534 -2.032631 1.997321
-2.549576 -2.077036 2.460499
-2.480709 -2.009259 2.499472
-2.361540 -1.919262 2.987201
-1.405689 -1.041760 4.501836
-1.244040 -0.912476 5.052418
-1.324239 -1.041442 5.777784
-1.487315 -1.218291 5.937448
-1.645072 -1.420445 6.570531
-1.564189 -1.333926 6.509763
-1.604050 -1.422357 7.245088
-1.521974 -1.334765 7.186546
-2.375461 -2.199369 1.821823
-2.308310 -2.099284 1.530626
-2.375504 -2.199659 1.825219
-2.381611 -2.231881 2.179928
-2.342502 -2.241842 2.979288
-2.268459 -2.137764 2.747329
-2.089716 -1.953652 3.140547
-1.112649 -0.934691 5.111777
-1.131366 -0.971278 5.316310
-1.333595 -1.258890 5.997401
-1.490657 -1.459969 6.209830
-1.543854 -1.553023 6.635979
-1.491836 -1.499189 6.746786
-1.432817 -1.466992 7.282588
-2.128423 -2.283403 1.556219
-2.138223 -2.371942 2.511166
-2.188394 -2.401301 1.986501
-2.204583 -2.489920 2.827898
-2.083344 -2.306566 2.660305
-1.989710 -2.230614 3.369283
-1.051978 -1.070407 5.367168
-1.026373 -1.065715 5.766372
-1.181506 -1.262868 5.502443
-1.362460 -1.569626 6.175203
-1.354049 -1.551208 6.090808
-1.334977 -1.555287 6.484875
-1.325957 -1.578048 6.937268
-1.200536 -1.437261 7.388252
-1.079287 -1.302858 7.845945
-1.933023 -2.466025 1.753446
-1.935098 -2.525223 2.380589
-1.933959 -2.511231 2.244627
-1.935102 -2.525268 2.381014
-1.894052 -2.512927 3.018635
-1.789774 -2.332515 2.960355
-1.640539 -2.102146 3.190147
-0.926659 -1.044056 4.783676
-0.853262 -0.968171 5.317879
-0.921244 -1.104015 5.561078
-1.126642 -1.444510 5.508516
-1.217460 -1.643463 6.030138
-1.258174 -1.754776 6.513008
-1.195142 -1.638395 6.395274
-1.183426 -1.658839 6.847043
-1.113588 -1.573974 7.212841
-0.939521 -1.314055 7.579753
-1.700167 -2.501733 1.600959
-1.740965 -2.635987 2.114134
-1.788445 -2.805230 2.838894
-1.790033 -2.822337 2.975449
-1.752068 -2.788903 3.395556
-1.703842 -2.674123 3.219809
-1.570172 -2.412480 3.286989
-0.929216 -1.257992 4.591162
-0.818318 -1.097203 5.199033
-0.840132 -1.185687 5.637278
-0.971980 -1.441359 5.547440
-1.059009 -1.687044 6.242802
-1.090602 -1.727940 6.021468
-1.091013 -1.797906 6.699781
-1.071022 -1.792277 7.038505
-1.029296 -1.714119 7.093968
-1.524152 -2.730991 1.659217
-1.518162 -2.766492 2.071120
-1.555096 -2.861628 2.091502
-1.551242 -2.921999 2.662471
-1.514700 -2.808474 2.484163
-1.439416 -2.645806 2.697418
-1.364826 -2.498779 3.023965
-0.822635 -1.332864 4.605431
-0.711691 -1.064667 4.687515
-0.726441 -1.170031 5.244884
-0.889595 -1.622852 5.600381
-0.929961 -1.732242 5.666782
-0.958168 -1.883476 6.322958
-0.954215 -1.863304 6.239343
-0.941616 -1.894059 6.747673
-0.885586 -1.798377 7.113337
-1.311619 -2.860159 1.948434
-1.319388 -2.831464 1.595460
-1.336042 -2.986219 2.269810
-1.331833 -3.018194 2.569763
-1.299923 -2.939311 2.717734
-1.234675 -2.863953 3.588989
-1.173944 -2.671651 3.591572
-0.722451 -1.403860 4.681737
-0.660953 -1.201010 4.630647
-0.673597 -1.377806 5.535040
-0.765122 -1.663589 5.504481
-0.804985 -1.851932 5.913819
-0.850432 -2.074346 6.431366
-0.819385 -1.975461 6.428879
-0.793771 -1.919571 6.596824
-0.748646 -1.848834 7.076155
-1.065977 -2.821158 1.434568
-1.071612 -2.962791 2.004245
-1.064009 -2.991273 2.306339
-1.084512 -3.096811 2.380851
-1.044144 -3.116554 3.343678
-1.048823 -3.076436 3.047596
-1.006160 -2.866020 2.937362
-0.931722 -2.631107 3.389764
-0.862100 -2.361931 3.571710
-0.742877 -1.974230 4.240443
-0.651472 -1.615073 4.451223
-0.583520 -1.332641 4.532670
-0.558408 -1.363558 5.222490
-0.604429 -1.671049 5.734005
-0.626407 -1.722798 5.514567
-0.650134 -1.887941 5.810523
-0.675656 -2.083052 6.214073
-0.655013 -2.037685 6.435966
-0.615246 -1.960140 6.911498
-0.574184 -1.842688 7.220208
-0.513530 -1.668877 7.674661
-0.845920 -3.041598 2.088795
-0.865449 -2.996988 1.517828
-0.859214 -3.145358 2.138581
-0.843397 -3.198212 2.655699
-0.835384 -3.073775 2.423342
-0.794410 -2.916472 2.801047
-0.773785 -2.841654 3.005450
-0.719895 -2.587427 3.347480
-0.638749 -2.330033 4.272503
-0.582571 -1.897757 4.082286
-0.512210 -1.581064 4.578671
-0.474548 -1.456533 4.991434
-0.474041 -1.462310 5.021362
-0.494281 -1.805714 5.703369
-0.524843 -2.005222 5.690282
-0.518481 -2.145250 6.286553
-0.516416 -2.209524 6.541607
-0.485624 -2.011047 6.563074
-0.466739 -2.075756 7.185731
-0.608298 -3.180323 1.832012
-0.606910 -3.070774 1.702923
-0.606104 -3.184538 1.886346
-0.598490 -3.200221 2.076443
-0.579711 -3.128494 2.384418
-0.561094 -3.060589 2.694436
-0.513447 -2.978914 3.622010
-0.498068 -2.785558 3.678138
-0.479469 -2.477179 3.637432
-0.358500 -1.596071 5.010965
-0.362975 -1.854497 5.289134
-0.351722 -2.081457 5.866920
-0.356606 -2.198227 5.929744
-0.345726 -2.285918 6.296454
-0.316998 -2.215592 6.825009
-0.297871 -2.235889 7.274709
-0.274321 -1.956084 7.384368
-0.237092 -1.647843 7.753092
-0.343158 -3.127503 1.944386
-0.345739 -3.221089 1.855784
-0.280747 -3.362050 3.238367
-0.298362 -3.219573 2.899072
-0.290317 -3.143167 3.102110
-0.285727 -2.962129 3.264664
-0.252874 -2.772623 4.052193
-0.273539 -2.322174 3.750416
-0.237394 -2.059546 4.635248
-0.244432 -1.650632 4.619284
-0.213003 -1.676576 5.302239
-0.210954 -1.780526 5.312012
-0.208304 -1.982471 5.301704
-0.162046 -2.287133 6.216342
-0.149544 -2.349450 6.470334
-0.162420 -2.190221 6.241038
-0.130701 -2.258207 6.916082
-0.124556 -2.007019 7.136707
-0.096500 -3.167881 2.241434
-0.083609 -3.274360 2.315588
-0.084969 -3.272115 2.290157
-0.074666 -3.289668 2.481678
-0.039193 -3.278571 3.281193
-0.063310 -3.064118 3.172336
-0.080132 -2.785012 3.350012
-0.087009 -2.530008 3.698547
-0.111263 -2.155949 3.899207
-0.104260 -1.866443 4.619644
-0.093512 -1.747946 5.087332
-0.105984 -1.710918 4.886380
-0.060245 -1.924707 5.470618
-0.021154 -2.125730 5.934087
-0.000414 -2.268043 6.110167
0.009010 -2.301242 6.251784
0.038137 -2.270696 6.950240
0.032726 -2.182067 7.005141
0.150943 -3.145913 1.989335
0.152600 -3.147933 2.017664
0.155234 -3.229893 1.766205
0.175817 -3.254402 2.120344
0.217702 -3.315393 2.799137
0.179557 -3.111177 2.740718
0.210802 -3.029934 3.724283
0.152434 -2.718537 3.630788
0.117978 -2.519684 3.632192
0.070665 -2.164168 3.944592
0.032687 -1.829959 4.379241
0.024109 -1.687141 4.730915
0.039547 -1.722160 4.933888
0.096068 -1.973733 5.212565
0.169683 -2.214459 5.902810
0.167410 -2.208582 5.875649
0.193793 -2.277794 6.187276
0.204825 -2.200749 6.716626
0.186810 -2.045568 6.910165
0.352980 -3.099236 1.514629
0.357891 -3.103329 1.597592
0.417534 -3.235722 2.162754
0.452515 -3.278844 2.678977
0.446394 -3.206499 2.935364
0.413015 -3.096400 2.811723
0.375678 -2.917332 2.972596
0.362164 -2.716553 3.758315
0.289810 -2.424642 3.775252
0.245011 -2.179276 4.131540
0.201692 -1.938593 4.494356
0.175380 -1.732262 5.036503
0.249182 -1.928422 5.562825
0.285868 -2.051915 5.685396
0.311540 -2.152847 5.693526
0.331138 -2.193841 5.892653
0.356826 -2.248662 6.147847
0.374089 -2.197513 6.790145
0.369936 -2.102243 7.211206
0.586701 -2.975961 1.742241
0.606371 -3.061564 1.546835
0.629668 -3.079711 1.904119
0.670611 -3.119125 2.478847
0.676969 -3.125961 2.563037
0.682346 -3.074410 3.039720
0.617552 -2.883552 3.038943
0.609124 -2.716031 4.048088
0.540380 -2.470797 4.349560
0.434090 -2.170038 4.261061
0.349599 -1.901634 4.398130
0.282581 -1.659961 4.710399
0.370306 -1.843519 5.240814
0.441864 -2.004446 5.594308
0.571739 -2.309163 6.146462
0.623336 -2.401726 6.567379
0.568918 -2.265591 6.395850
0.606131 -2.260611 7.206804
0.550387 -2.084642 7.289360
0.818439 -2.936240 1.963896
0.867164 -3.036108 2.094970
0.912575 -3.076474 2.669296
0.884184 -3.050327 2.318042
0.898122 -3.008673 2.957925
0.834174 -2.838497 3.121365
0.793687 -2.744400 3.107799
0.751265 -2.552027 3.898045
0.675882 -2.325836 4.310200
0.553768 -2.041198 4.276376
0.538146 -1.937056 4.853039
0.459972 -1.751199 4.862606
0.524491 -1.839982 5.408960
0.601092 -1.986662 5.703606
0.715862 -2.226539 5.972528
0.712381 -2.221388 5.946150
0.724957 -2.205552 6.336928
0.711384 -2.118227 6.810888
0.614200 -1.869482 6.974554
1.110409 -2.951174 2.038110
1.116878 -2.955492 2.120096
1.165522 -2.992309 2.692029
1.180211 -2.957917 3.329994
1.115503 -2.851928 3.152035
1.060903 -2.710319 3.535254
0.957744 -2.479572 3.883063
0.800335 -2.194219 3.731505
0.731587 -2.000514 4.371489
0.658446 -1.843800 4.547690
