-0.620707 -2.892229 0.782208
-0.606292 -2.789659 0.636643
-0.608310 -2.803510 1.095241
-0.583742 -2.627864 1.565045
-0.556146 -2.431140 1.594074
-0.303614 -0.628922 3.609600
-0.341154 -0.896783 3.352769
-0.378734 -1.164025 3.876971
-0.411362 -1.396313 4.100544
-0.429235 -1.523497 4.277847
-0.439046 -1.592931 4.701221
-0.425626 -1.496617 5.276928
-0.412488 -1.402932 5.314253
-0.412740 -2.831965 0.903041
-0.419669 -2.930477 0.861635
-0.419583 -2.929345 0.823425
-0.413860 -2.847002 1.284368
-0.408733 -2.773103 1.748539
-0.393801 -2.561441 1.555567
-0.262522 -0.692995 3.141027
-0.290526 -1.089069 3.894104
-0.305807 -1.305890 4.001150
-0.314173 -1.424460 4.121023
-0.335649 -1.728094 4.743488
-0.327521 -1.612817 4.662821
-0.326040 -1.590774 5.103235
-0.320781 -1.514618 5.739891
-0.219276 -2.740557 0.043127
-0.219907 -2.951235 0.829436
-0.219924 -2.953416 0.900702
-0.220074 -2.977888 1.466261
-0.219824 -2.875953 1.432952
-0.219559 -2.771275 1.343990
-0.215242 -0.872732 2.782676
-0.215611 -0.969839 3.631738
-0.216147 -1.186101 3.741030
-0.216654 -1.394644 3.789903
-0.217296 -1.611713 4.547562
-0.217605 -1.732898 4.663392
-0.217382 -1.637338 4.697608
-0.217330 -1.593984 5.021814
-0.217244 -1.515598 5.657779
-0.043503 -2.851284 0.459872
-0.036899 -2.963659 0.969600
-0.036639 -2.968363 1.096005
-0.041497 -2.887816 1.502491
-0.046814 -2.798969 1.690646
-0.052880 -2.696932 1.658108
-0.152990 -1.018309 3.103746
-0.144114 -1.168626 3.522920
-0.130399 -1.399738 3.748871
-0.114542 -1.667473 4.202045
-0.110524 -1.736143 4.623328
-0.105472 -1.822343 5.100912
-0.109151 -1.761088 5.309764
-0.122596 -1.534802 5.191894
-0.131377 -1.387999 5.480865
-0.147076 -1.126008 6.168619
0.149703 -2.846186 0.334828
0.149594 -2.845072 0.130434
0.162596 -2.947121 0.476464
0.164403 -2.961958 1.042356
0.150880 -2.856022 0.841836
0.139750 -2.769486 1.193494
0.131881 -2.708862 1.880806
0.105745 -2.504504 1.799550
0.062057 -2.164007 2.524044
0.014546 -1.793062 2.808513
-0.051969 -1.272965 2.584007
-0.071814 -1.118447 3.033275
-0.051984 -1.274020 3.509627
-0.032153 -1.429526 3.922968
0.002186 -1.698456 4.374161
0.011609 -1.771883 4.202681
0.030734 -1.922451 5.080666
0.010668 -1.765249 4.771376
-0.001594 -1.670142 5.344502
-0.017017 -1.550124 5.749414
-0.050615 -1.287812 5.946507
0.348877 -2.839944 0.884292
0.366923 -2.930247 0.566650
0.368595 -2.938921 0.911649
0.356331 -2.878023 1.702005
0.337714 -2.784660 1.778994
0.297516 -2.582864 1.696250
0.260862 -2.399078 1.892833
0.187278 -2.030079 2.221509
0.118881 -1.687300 2.790116
0.062044 -1.402156 2.895088
0.033908 -1.261376 3.402148
0.055109 -1.367826 3.464608
0.088765 -1.537159 3.991598
0.111917 -1.653441 4.108808
0.136933 -1.779120 4.282477
0.146650 -1.828135 4.585794
0.137821 -1.784094 4.906472
0.112771 -1.658708 5.305675
0.072178 -1.455397 5.788182
0.003892 -1.112937 6.065163
0.533984 -2.799249 0.288905
0.534300 -2.800501 0.415461
0.566614 -2.920933 1.254564
0.560870 -2.899185 0.556343
0.563551 -2.909382 0.957152
0.543389 -2.834882 1.472998
0.495066 -2.655715 1.722306
0.442488 -2.460582 1.695513
0.379524 -2.227404 2.465974
0.309404 -1.967395 2.795607
0.233776 -1.686808 2.901048
0.155025 -1.394561 2.891440
0.147216 -1.365964 3.504099
0.185762 -1.509224 3.857495
0.242221 -1.718803 3.961720
0.251909 -1.754907 4.208976
0.269747 -1.821361 4.628180
0.294987 -1.915356 5.160668
0.239005 -1.707573 5.100225
0.222198 -1.645629 5.791859
0.756134 -2.850179 0.035797
0.761112 -2.865111 0.986556
0.764160 -2.874080 1.222598
0.759721 -2.861003 0.854337
0.736709 -2.794489 1.535427
0.669096 -2.597997 1.396659
0.629304 -2.482935 2.485931
0.555426 -2.268161 2.183510
0.441333 -1.936988 2.747000
0.341013 -1.645512 2.678911
0.252147 -1.387486 2.958920
0.242918 -1.360978 3.571880
0.275927 -1.456873 3.576276
0.364984 -1.715848 4.086629
0.431574 -1.909609 4.718614
0.422869 -1.884245 4.564055
0.408182 -1.841737 4.884710
0.402097 -1.824276 5.321739
0.370612 -1.733063 5.839201
0.948453 -2.792026 0.124277
0.957467 -2.813804 1.184194
0.993270 -2.898477 0.976601
0.953861 -2.805168 0.940840
0.923614 -2.733774 1.456205
0.899097 -2.675970 2.030314
0.811495 -2.468436 1.671427
0.709543 -2.227300 2.213209
0.603444 -1.976258 2.538689
0.485732 -1.697584 2.525530
0.434739 -1.577143 3.197663
0.381058 -1.450267 3.703306
0.372945 -1.430996 3.545359
0.496546 -1.723935 4.343141
0.543283 -1.834629 4.458096
0.605770 -1.982699 4.799717
0.623295 -2.024287 5.043313
0.582068 -1.926680 5.021229
1.134658 -2.721657 0.098506
1.134790 -2.721965 0.223924
1.183896 -2.819514 0.786320
1.192452 -2.836656 1.294189
1.146634 -2.745813 1.259498
1.101966 -2.657271 1.279630
1.059768 -2.573664 1.410575
0.993901 -2.443377 2.216711
0.906861 -2.270859 2.305155
0.784581 -2.028568 2.630325
0.650810 -1.763397 2.675598
0.584204 -1.631534 3.172980
0.501812 -1.468256 3.328575
0.471247 -1.407757 3.589915
0.594571 -1.652418 4.099227
0.726671 -1.914490 4.655853
0.727931 -1.916994 4.671869
0.787271 -2.034691 4.840622
1.317916 -2.637910 0.165940
1.372238 -2.729617 0.673628
1.373102 -2.731095 0.743554
1.324772 -2.649703 0.926244
1.334472 -2.666194 1.380907
1.232944 -2.495100 1.406468
1.194237 -2.429998 1.815766
1.048159 -2.183881 2.020025
0.907778 -1.947403 2.341945
0.763865 -1.704939 2.555782
0.762432 -1.702804 3.442968
0.611609 -1.448644 3.496965
0.640829 -1.498020 3.918570
0.734678 -1.656140 3.791056
0.812159 -1.786826 4.136198
0.927591 -1.981591 4.874922
1.051101 -2.189804 5.078942
1.499136 -2.539749 0.250553
1.498880 -2.539336 0.100224
1.569758 -2.642053 1.209572
1.503422 -2.546077 0.734119
1.506357 -2.550368 0.913581
1.461811 -2.486155 1.427785
1.416697 -2.421073 1.779642
1.303683 -2.257800 1.807716
1.180788 -2.080523 2.799744
1.068485 -1.918278 2.835679
0.889561 -1.659736 2.710525
0.794484 -1.522462 3.034237
0.741047 -1.445496 3.883754
0.828117 -1.571392 4.230557
0.968354 -1.774081 4.500047
1.060841 -1.907637 4.255364
1.179380 -2.079075 4.874053
1.254992 -2.188365 5.038515
1.673810 -2.440369 0.822996
1.730410 -2.511222 0.342337
1.742716 -2.526856 1.123661
1.739193 -2.522399 0.974464
1.693107 -2.464752 1.542166
1.631404 -2.387380 1.562980
1.593666 -2.340204 2.136701
1.470140 -2.185308 2.168006
1.324417 -2.002752 2.882707
1.143398 -1.775778 2.987362
1.074738 -1.689654 2.899924
0.963736 -1.550509 3.109358
0.886378 -1.453659 3.725846
0.980513 -1.571796 4.072572
1.144868 -1.778000 4.456352
1.361303 -2.049478 4.702639
1.896484 -2.386717 0.094211
1.898585 -2.389107 0.493769
1.900943 -2.391726 0.674270
1.909279 -2.400926 1.073647
1.814418 -2.297544 2.089543
1.731635 -2.207041 1.782234
1.681561 -2.152425 2.138245
1.557379 -2.016818 2.338479
1.367038 -1.808945 2.550912
1.245051 -1.675737 2.757349
1.237579 -1.667758 3.525275
1.038256 -1.450034 3.581494
0.921879 -1.322957 3.798722
1.103427 -1.521385 4.247311
1.299289 -1.735320 4.160617
1.604875 -2.069205 4.449906
2.057197 -2.255197 0.547023
2.063381 -2.261168 0.891942
2.059334 -2.257266 0.689453
2.071759 -2.269224 1.198460
2.009916 -2.210332 1.493923
1.936122 -2.139974 1.460941
1.838579 -2.047186 2.376211
1.710807 -1.925435 2.634177
1.541712 -1.764150 2.276997
1.365964 -1.596739 2.888368
1.299826 -1.533706 2.973231
1.099642 -1.342913 3.196396
1.107312 -1.350411 4.033750
1.284452 -1.519346 4.307077
1.500814 -1.725605 4.276356
2.203075 -2.107075 0.137847
2.206786 -2.110254 0.591294
2.211176 -2.113950 0.825663
2.254836 -2.150459 1.934708
2.161932 -2.073202 1.628347
2.083330 -2.007886 1.594835
1.975433 -1.918404 2.398936
1.808406 -1.779584 2.209287
1.586867 -1.595543 2.362912
1.478051 -1.505255 2.965169
1.383365 -1.426716 3.607012
1.339692 -1.390495 3.922693
1.706869 -1.695674 4.387037
2.343917 -1.952672 0.431315
2.423775 -2.010233 0.281908
2.441897 -2.023478 1.169795
2.432624 -2.016729 0.858312
2.375475 -1.975649 1.533430
2.303406 -1.923713 1.719439
2.261195 -1.893396 2.346931
2.004547 -1.708276 2.166919
1.890834 -1.626399 2.815536
1.751208 -1.525758 3.078221
1.651654 -1.453924 2.879472
1.546722 -1.378372 3.486828
1.352321 -1.238268 3.944318
1.340796 -1.229937 3.845823
1.712247 -1.497883 4.201176
2.469338 -1.787621 0.128863
2.557352 -1.842481 0.526260
2.579031 -1.856122 1.305155
2.664477 -1.909311 1.315995
2.571962 -1.851687 1.118708
2.550545 -1.838577 2.286081
2.475557 -1.791926 2.420153
2.276079 -1.667683 2.012831
2.144444 -1.585846 2.544823
1.981406 -1.484380 2.636183
1.855316 -1.405987 3.123339
1.650233 -1.278423 3.606145
1.631260 -1.266716 4.148959
1.991696 -1.491095 4.271770
2.669008 -1.680752 0.638092
2.664768 -1.678409 0.326009
2.762811 -1.731370 0.883252
2.675257 -1.684169 0.901540
2.720996 -1.709011 1.896989
2.621006 -1.655066 1.700822
2.463185 -1.570033 2.004202
2.331216 -1.498989 2.588891
2.188409 -1.422062 2.958485
1.891052 -1.261680 2.612668
1.853125 -1.241330 3.147582
1.798265 -1.211809 3.458650
1.579546 -1.093960 3.856758
1.668676 -1.142014 3.858371
2.772857 -1.491226 0.192215
2.863818 -1.532475 0.152777
2.868454 -1.534657 0.602608
2.876905 -1.538550 0.943697
2.922112 -1.559219 1.881100
2.825314 -1.515302 1.794763
2.735412 -1.474530 1.816930
2.594913 -1.410909 2.396319
2.397157 -1.321183 2.208420
2.270421 -1.263816 2.854641
2.132508 -1.201341 3.284802
1.945178 -1.116502 3.992434
1.849563 -1.073131 3.966527
2.212650 -1.237914 4.554066
2.961711 -1.334332 0.237657
2.961799 -1.334367 0.253360
3.055972 -1.369585 0.322463
3.071893 -1.375660 1.041243
3.072456 -1.375874 1.056871
2.983663 -1.342701 1.184997
2.933383 -1.324039 1.967319
2.857475 -1.295702 2.208933
2.647776 -1.217257 1.911527
2.438196 -1.139057 2.783592
2.227086 -1.060094 2.540769
2.197783 -1.049250 3.184457
2.113047 -1.017586 3.268974
1.822943 -0.909252 3.962112
1.809595 -0.904246 3.864606
2.247243 -1.067927 4.272207
2.544207 -1.178958 4.350623
3.044773 -1.131208 0.171875
3.044664 -1.131160 0.081478
3.158854 -1.165424 1.070387
3.152055 -1.163360 0.869310
3.174663 -1.170204 1.425065
3.077005 -1.141037 1.391442
2.990855 -1.115343 1.575338
2.902587 -1.089007 1.705945
2.761701 -1.047053 2.394602
2.481760 -0.963477 2.493133
2.325004 -0.916730 2.863633
2.255685 -0.896073 3.114757
2.162306 -0.868194 3.142264
1.912516 -0.793661 3.478160
2.034445 -0.830216 4.345633
2.303200 -0.910444 4.200896
2.824237 -1.066160 4.978064
2.891077 -1.086091 4.810429
3.115428 -0.918788 0.160841
3.214675 -0.941150 0.394951
3.311330 -0.962875 0.303861
3.321948 -0.965355 0.857347
3.320800 -0.965090 0.818213
3.235240 -0.945902 1.160345
3.160555 -0.929178 1.613471
3.050172 -0.904525 2.677452
2.799153 -0.847961 2.053432
2.694779 -0.824645 3.025368
2.369845 -0.751511 2.739436
2.330335 -0.742712 3.270345
2.215455 -0.716849 3.129061
2.022146 -0.673499 3.919079
2.049437 -0.679668 4.104806
2.366960 -0.751110 4.242462
2.772277 -0.842287 4.303937
2.976523 -0.888327 4.904791
3.371141 -0.732230 0.420469
3.369126 -0.731880 0.168304
3.369183 -0.731892 0.185565
3.479213 -0.748872 0.846295
3.514189 -0.754361 1.612534
3.419879 -0.739910 1.688241
3.303447 -0.722006 1.386443
3.197780 -0.706001 2.609086
2.967091 -0.670568 2.262080
2.781249 -0.642092 2.405850
2.497825 -0.598653 2.561154
2.441588 -0.590097 2.979026
2.253344 -0.561245 3.074259
2.092941 -0.536700 3.397526
2.140181 -0.544002 3.754036
2.387608 -0.581998 4.079202
2.814214 -0.647540 4.823096
2.874534 -0.656754 4.601039
2.969952 -0.671470 5.110988
3.411492 -0.504393 0.314807
3.515682 -0.513325 0.617022
3.543915 -0.515857 1.385233
3.544831 -0.515938 1.402609
3.568667 -0.518033 1.793278
3.353642 -0.499661 1.552940
3.280525 -0.493491 1.954113
3.095866 -0.477779 2.148820
2.917683 -0.462627 2.401258
2.631965 -0.438292 2.556115
2.482520 -0.425628 3.039540
2.320408 -0.411858 3.360439
2.146936 -0.397102 3.572211
2.188674 -0.400709 3.871839
2.404874 -0.419158 3.971659
2.764406 -0.449870 4.330751
2.932761 -0.464286 4.715458
2.956272 -0.466394 5.354819
3.550756 -0.269172 0.910623
3.638386 -0.270469 0.335986
3.645355 -0.270643 0.726569
3.652380 -0.270791 0.956758
3.587848 -0.269883 1.671955
3.408235 -0.267083 1.969615
3.305597 -0.265451 1.938030
3.054605 -0.261565 2.523205
2.804556 -0.257679 3.010040
2.582871 -0.254135 2.825460
2.530207 -0.253367 3.243024
2.401227 -0.251410 3.789055
2.213756 -0.248454 3.889735
2.474654 -0.252651 4.268708
2.741000 -0.256934 4.640361
2.903804 -0.259568 4.968760
2.865053 -0.258921 4.763666
2.844338 -0.258660 5.184028
2.576166 -0.254438 5.370276
2.345545 -0.250839 5.728239
3.648637 -0.021369 0.362292
3.768703 -0.015184 1.122789
3.752426 -0.015956 0.607366
3.702953 -0.018739 1.747418
3.608166 -0.023731 1.824439
3.548765 -0.026933 2.330402
3.315491 -0.039124 1.931046
3.164117 -0.047170 2.507178
2.889843 -0.061622 2.772483
2.698914 -0.071667 2.865155
2.496068 -0.082321 2.847019
2.337928 -0.090690 3.222786
2.307665 -0.092366 3.759227
2.400913 -0.087458 3.705253
2.741959 -0.069682 4.582996
2.883189 -0.062298 4.802212
2.896512 -0.061610 4.873246
2.833423 -0.064956 5.073619
2.651649 -0.074524 5.183945
2.492291 -0.083007 5.876255
3.640187 0.226604 0.104022
3.741903 0.238869 0.440208
3.742991 0.238989 0.510275
3.756400 0.240533 1.006019
3.677695 0.230928 1.453789
3.595938 0.220979 1.744126
3.395332 0.196687 1.719582
3.141118 0.165804 2.301423
2.965148 0.144450 2.555162
2.711303 0.113635 2.989613
2.491451 0.087038 2.805041
2.445825 0.081435 3.281297
2.257911 0.058660 3.379180
2.403447 0.076231 3.720612
2.677736 0.109372 4.210117
2.796454 0.123733 4.321245
2.907524 0.137084 4.944673
2.924976 0.139103 5.531433
2.782994 0.121861 5.811596
2.521554 0.090165 6.006057
2.248253 0.057042 6.146804
1.839090 0.007488 6.140089
3.716492 0.493033 0.405486
3.835866 0.515703 1.162435
3.862107 0.520633 1.655193
3.765127 0.502111 1.678010
3.557235 0.462445 1.493247
3.500599 0.451531 2.106845
3.069850 0.369171 2.780436
2.750678 0.308264 2.551257
2.512003 0.262601 3.099601
2.312255 0.224463 3.082403
2.335412 0.228732 4.012744
2.379023 0.237124 3.620535
2.730706 0.304114 4.609841
2.765311 0.310785 4.220972
2.882872 0.333122 4.899068
2.799722 0.317230 4.988591
2.733682 0.304511 5.653263
2.497956 0.259527 5.488197
2.248615 0.211877 5.735459
3.483460 0.681192 0.410344
3.578568 0.705824 0.211132
3.771936 0.755852 0.119887
3.798529 0.762542 1.248493
3.875604 0.782572 0.679034
3.823629 0.768959 1.703341
3.735168 0.746058 1.831943
3.343759 0.644831 1.784531
3.074730 0.575198 2.093813
2.835383 0.513195 2.685504
2.609692 0.454722 3.289287
2.406100 0.402077 3.218203
2.229425 0.356356 3.371678
2.419213 0.405331 4.049421
2.580624 0.447117 3.812423
2.615400 0.456072 4.051154
2.717254 0.482312 4.677799
2.729834 0.485553 4.749184
2.688466 0.474802 5.060863
2.533849 0.434775 5.282893
2.309516 0.376694 5.640726
3.715547 1.027389 0.720371
3.730082 1.032212 1.159952
3.827697 1.065093 1.223966
3.718196 1.028264 0.820562
3.653283 1.006271 1.530656
3.587244 0.983943 1.978987
3.377662 0.913373 1.687821
3.134291 0.831270 2.267161
2.965936 0.774500 2.519143
2.705765 0.686789 2.785189
2.354118 0.568253 3.068059
2.180313 0.509663 3.220246
2.310064 0.553334 3.505687
2.466216 0.605874 3.956091
2.657029 0.670065 4.568055
2.708172 0.687345 4.290133
2.783990 0.712815 4.747727
2.840461 0.731706 5.554213
2.658476 0.670375 5.612347
2.372439 0.573990 5.635930
3.637439 1.252316 0.034774
3.650235 1.257377 0.913912
3.647558 1.256302 0.823460
3.643953 1.254858 0.680002
3.657478 1.260292 1.119400
3.570011 1.224633 1.245558
3.401925 1.156090 1.592236
3.234749 1.087926 1.890155
3.021456 1.000884 2.691494
2.196007 0.664405 3.649964
2.311857 0.711576 3.820635
2.595432 0.827000 4.474697
2.663129 0.854611 4.307418
2.718823 0.877242 4.654429
2.639632 0.844962 4.743128
2.599922 0.828728 5.054364
2.562248 0.813244 5.832719
2.330328 0.718709 6.082891
3.363306 1.412405 0.266252
3.460761 1.460109 0.760780
3.555389 1.506483 0.933159
3.543708 1.500856 0.366315
3.647894 1.551833 1.014620
3.556938 1.507234 0.981587
3.473563 1.466315 1.161014
3.315315 1.388629 1.614835
3.250388 1.356718 2.013682
3.007983 1.237778 2.379629
2.025509 0.755791 3.407493
2.260811 0.871103 3.847825
2.440583 0.959266 3.834832
2.561709 1.018626 4.057891
2.612675 1.043557 4.405692
2.561509 1.018420 4.660055
2.581436 1.028076 5.303903
2.408478 0.943248 5.360037
3.340402 1.697876 0.033074
3.428129 1.748867 0.368179
3.431309 1.750675 0.596980
3.518025 1.801137 0.611612
3.458407 1.766291 1.425114
3.367999 1.713693 1.341095
3.198581 1.615083 1.421868
3.140139 1.580978 1.928257
2.889962 1.435357 2.076502
2.644623 1.292541 2.282712
2.324002 1.105891 2.614125
2.007037 0.921366 2.953327
1.957359 0.892387 3.321760
2.133213 0.994590 4.059357
2.275832 1.077515 4.452745
2.424567 1.164108 4.269145
2.605143 1.269083 4.876689
2.560106 1.242825 5.132717
2.431621 1.168097 4.891352
2.351098 1.121132 5.447583
2.237305 1.054846 5.785699
3.305372 1.968067 0.073914
3.229328 1.916764 0.729600
3.305371 1.968060 0.107876
3.395949 2.028892 0.758202
3.411344 2.039157 1.249922
3.358448 2.003442 1.853738
3.294103 1.960083 2.143324
3.126244 1.847119 2.123769
2.962079 1.736633 2.157541
2.731330 1.581291 2.418165
2.434914 1.381722 2.860380
2.111837 1.164273 2.977924
1.876911 1.006139 3.141762
1.889863 1.014831 3.272120
2.029948 1.109007 3.784771
2.186028 1.213937 4.347858
2.425125 1.374752 4.830474
2.402305 1.359424 4.680828
2.430805 1.378468 5.380634
2.453057 1.393419 5.507620
2.264466 1.266521 5.398809
2.063472 1.131196 5.701860
3.087285 2.135465 0.670563
3.160807 2.192849 0.154678
3.171718 2.201195 0.913291
3.245979 2.259090 0.715320
3.177446 2.205618 1.105331
3.146064 2.180970 2.082399
2.976704 2.049062 1.901388
2.732551 1.858873 1.777798
2.520445 1.693540 2.198955
2.318428 1.536054 2.684465
2.035066 1.315212 3.079680
1.918854 1.224585 3.515942
1.860689 1.179229 3.715783
1.888394 1.200764 3.958870
2.066740 1.339678 4.114231
2.182558 1.429852 4.394196
2.272332 1.499665 5.022297
2.241559 1.475732 4.816716
2.321299 1.537751 5.332223
2.197282 1.441086 5.556383
2.930654 2.336018 0.278233
3.010676 2.407503 0.717473
3.086577 2.475383 0.783559
3.044538 2.437580 1.702515
2.985333 2.384559 1.990575
2.834563 2.249701 1.968704
2.686862 2.117576 2.000171
2.496994 1.947625 2.530597
2.232101 1.710584 2.973336
2.006641 1.508912 2.968101
1.767556 1.295089 2.792099
1.595869 1.141382 3.412476
1.625647 1.167953 3.713569
1.818263 1.340165 4.097500
1.987230 1.491272 4.250336
2.150325 1.637016 4.917378
2.160393 1.646007 4.988056
2.065744 1.561372 4.854992
2.034750 1.533581 5.168180
2.007013 1.508601 5.951882
2.770122 2.534231 0.694677
2.764908 2.529019 0.125191
2.841511 2.607375 0.777092
2.919484 2.687210 1.106733
2.850180 2.616179 1.126849
2.722281 2.485023 1.471717
2.583470 2.342756 1.499145
2.407301 2.162051 2.185434
2.209646 1.959437 2.392025
1.943678 1.686809 2.612599
1.775060 1.513873 3.166468
1.628465 1.363652 3.093634
1.478227 1.209524 3.776040
1.479810 1.211142 3.792142
1.768934 1.507288 4.500359
1.935946 1.678403 4.705917
1.985940 1.729678 4.536913
2.007083 1.751185 5.238689
1.998220 1.742003 5.664215
1.874634 1.615428 5.309776
1.783756 1.522105 6.119652
2.669777 2.791793 0.975379
2.663830 2.784919 0.672963
2.730924 2.863277 0.791599
2.613516 2.725985 1.291667
2.482425 2.572836 1.263582
2.449172 2.533794 2.036975
2.242393 2.292268 1.804540
2.064815 2.084712 2.171424
1.844527 1.827182 2.834607
1.640192 1.588484 2.713873
1.629066 1.575132 4.144273
1.597500 1.538332 3.821235
1.726468 1.688854 4.441877
1.798554 1.773060 4.497081
1.819524 1.797514 4.680620
1.826969 1.806066 5.273519
1.780317 1.751525 5.421319
1.680767 1.635046 6.119432
1.467616 1.386041 6.032961
2.335087 2.802461 0.260406
2.394163 2.882457 0.115834
2.454736 2.964365 0.396548
2.521874 3.055087 0.938776
2.487443 3.008267 1.752103
2.445790 2.951783 2.146225
2.277433 2.723862 2.348430
2.072208 2.446247 1.793912
1.874497 2.178429 2.610557
1.635658 1.855167 2.610801
1.459225 1.616358 2.656888
1.344708 1.461109 3.595417
1.379853 1.508564 4.011513
1.509066 1.683423 4.110518
1.643173 1.864736 4.840499
1.657391 1.883945 4.967953
1.600779 1.807312 5.002200
1.619161 1.832016 5.654990
1.483480 1.648405 5.543332
2.157504 2.941757 0.302372
2.211346 3.025015 0.052205
2.272405 3.119111 0.864237
2.268785 3.113591 0.616028
2.294460 3.152941 1.691976
2.233637 3.059025 1.502839
2.068132 2.803346 1.429578
1.912912 2.563459 1.680813
1.727362 2.276563 2.441847
1.530178 1.971803 2.832590
1.372484 1.728137 2.938956
1.189875 1.445845 3.496279
1.196043 1.455144 4.273954
1.400149 1.770358 4.697355
1.423605 1.806698 4.357669
1.550050 2.001838 5.085680
1.510459 1.940627 5.232731
1.411831 1.788215 5.344298
1.433413 1.821364 6.001712
1.954157 3.079641 0.158517
2.051242 3.254417 0.121337
2.066024 3.280636 1.303513
2.116253 3.371032 1.367534
2.061986 3.273426 1.124366
1.988538 3.140938 1.949634
1.829601 2.854964 1.557159
1.686284 2.596948 1.646385
1.527602 2.310996 2.575482
1.317696 1.933254 2.237846
1.208536 1.736495 3.019759
1.090588 1.524014 3.508149
1.109870 1.558410 4.457202
1.269052 1.844909 4.595149
1.318367 1.933680 4.595412
1.387040 2.057052 5.341062
1.352344 1.994548 5.489044
1.342059 1.975909 5.862899
1.224750 1.764796 5.695599
1.780434 3.297260 0.188197
1.823455 3.388977 0.363002
1.881157 3.511677 1.433227
1.836728 3.416922 1.349013
1.761893 3.257112 1.749084
1.628094 2.971745 1.515805
1.521304 2.743649 2.205097
1.345128 2.367849 2.033819
1.182200 2.020165 2.250384
1.071543 1.783912 2.691148
0.990426 1.610495 3.634643
0.959560 1.544567 3.837968
1.102548 1.849308 4.680298
1.154249 1.959568 4.793095
1.159981 1.971769 4.866731
1.174753 2.003215 5.051312
1.153278 1.957300 5.311661
1.096520 1.836080 5.650827
1.606015 3.509495 0.877070
1.646463 3.612434 1.153918
1.651581 3.625352 1.433845
1.621432 3.548408 1.720285
1.537785 3.335500 1.216489
1.433758 3.070307 1.517071
1.296059 2.719291 1.886136
1.156998 2.364848 2.154524
1.048273 2.087800 2.196050
0.956857 1.854632 2.750241
0.857547 1.601119 3.823380
0.851219 1.584753 4.373464
0.914368 1.745737 4.187748
1.022420 2.020808 4.740159
1.016207 2.005019 4.644605
1.040036 2.065580 5.000676
0.989694 1.937162 5.336959
0.936504 1.801509 5.620081
1.342623 3.617717 0.855337
1.375310 3.723164 1.133313
1.381195 3.741968 1.519705
1.314131 3.525610 0.964043
1.286005 3.434676 1.091958
1.208156 3.182807 1.770193
1.088351 2.795796 1.705509
0.990857 2.480352 2.584344
0.863013 2.067520 2.246344
0.828020 1.954016 3.077885
0.731970 1.643379 3.698320
0.694259 1.521271 4.207236
0.780149 1.798796 4.122806
0.835202 1.976371 4.637752
0.836168 1.979483 4.656367
0.882212 2.127792 5.466831
0.850929 2.026739 5.449146
0.797559 1.854257 5.563301
1.116297 3.682465 0.318273
1.140754 3.782679 0.544393
1.144173 3.796376 1.035228
1.105919 3.638902 1.750006
1.059837 3.449731 1.833222
0.968574 3.075060 2.041032
0.782583 2.311638 2.249289
0.690920 1.935354 2.413726
0.638937 1.720973 3.959122
0.620226 1.644084 4.106201
0.671372 1.853515 4.795387
0.685891 1.913253 4.567063
0.708733 2.006632 5.096106
0.683674 1.903810 5.075128
0.688679 1.923938 5.681952
0.861472 3.752933 0.514160
0.862617 3.759319 0.795309
0.878214 3.850332 0.439021
0.900417 3.978548 1.346889
0.881871 3.870913 1.157214
0.848986 3.679610 1.288552
0.797879 3.382528 1.265813
0.752115 3.115983 1.786685
0.686005 2.731510 1.941163
0.512892 1.723469 3.692031
0.517515 1.749551 4.529260
0.528302 1.812475 4.301040
0.564011 2.019471 4.929229
0.565044 2.024957 5.477345
0.557282 1.979583 5.742902
0.520598 1.766374 5.687936
0.610285 3.900946 0.375506
0.623082 4.025513 1.231606
0.613336 3.929488 1.305539
0.601457 3.813231 0.903356
0.583222 3.633085 1.353920
0.560754 3.410305 2.411431
0.394260 1.769744 3.800709
0.365340 1.484978 3.918772
0.396736 1.792844 4.598802
0.405031 1.874647 4.485375
0.419164 2.012507 5.245370
0.427874 2.097559 5.661024
0.407254 1.894650 5.663567
0.346402 3.933278 0.384580
0.349873 4.034967 0.504337
0.350402 4.048241 0.993165
0.346824 3.943475 0.854472
0.342179 3.801507 1.939779
0.335460 3.603420 1.971004
0.325831 3.318782 2.172629
0.274948 1.811450 3.934673
0.269238 1.642194 4.154417
0.274618 1.799044 4.501659
0.276100 1.841532 4.748547
0.278413 1.907954 5.109499
0.279242 1.929487 5.718513
0.271058 1.689211 5.547254
0.078365 3.848102 0.405245
0.078376 3.846151 0.049270
0.074843 3.949236 0.486862
0.071290 4.051411 0.605367
0.073652 3.988033 1.519293
0.077009 3.892373 1.593190
0.084443 3.678630 1.353920
0.089597 3.535047 2.185928
0.162051 1.472176 4.268168
0.152793 1.738802 4.657540
0.153367 1.721924 4.558708
0.147759 1.883893 4.902617
0.146462 1.924320 5.625359
0.150179 1.817912 5.604942
-0.149955 3.547409 0.489161
-0.170682 3.749764 0.661001
-0.173573 3.779143 1.421040
-0.165799 3.703971 1.815322
-0.145175 3.502859 1.791155
-0.123850 3.294737 1.657948
0.130463 0.820787 5.142195
0.113183 0.989819 5.497294
0.114028 0.981514 5.455149
0.136279 0.765265 5.889602
-0.442135 3.823540 0.414356
-0.458868 3.920633 0.269300
-0.480967 4.050050 1.334173
-0.483615 4.065699 1.611189
-0.462980 3.945418 1.210369
-0.447013 3.852758 1.335571
-0.415809 3.671721 1.627408
-0.041043 1.496725 4.371572
-0.058228 1.596577 4.371800
-0.097672 1.826477 5.120431
-0.094515 1.808042 5.021462
-0.087747 1.769022 5.343943
-0.073465 1.686579 5.919813
-0.725271 3.883827 0.545424
-0.752620 3.996684 1.083875
-0.755648 4.009329 1.361247
-0.757190 4.015751 1.481008
-0.763969 4.043929 1.915449
-0.745724 3.969080 2.200911
-0.716445 3.848453 1.907435
-0.141791 1.486511 4.346125
-0.186589 1.671123 4.867361
-0.208094 1.759534 4.808253
-0.187972 1.676835 4.899845
-0.229152 1.846811 5.779390
-0.180857 1.648167 5.780117
-0.095291 1.296377 5.997790
-0.961256 3.729329 0.552051
-0.990340 3.820710 0.195675
-1.021408 3.918669 0.473123
-1.032534 3.954236 1.486339
-1.035715 3.964343 1.658741
-1.029612 3.944940 1.306277
-1.037368 3.969590 1.741121
-1.005357 3.868765 1.657618
-0.130781 1.116444 3.871755
-0.245217 1.476998 4.371118
-0.281620 1.591669 4.487639
-0.291329 1.622339 4.677730
-0.338336 1.770772 5.501459
-0.324351 1.726882 5.768584
-0.266228 1.543921 5.827160
-0.198167 1.329838 6.199963
-1.215423 3.657695 0.695529
-1.255231 3.758634 0.972577
-1.296194 3.862500 1.247198
-1.292351 3.852660 1.000144
-1.333427 3.956809 1.273465
-1.338978 3.970990 1.550389
-1.316531 3.914379 2.096435
-1.318637 3.919742 2.164378
-1.289558 3.846198 2.398894
-0.242889 1.196005 3.850341
-0.366665 1.509863 4.712907
-0.353312 1.475951 4.497842
-0.396041 1.584454 5.152969
-0.431193 1.673690 5.632185
-0.383581 1.553260 5.980468
-1.466593 3.570325 0.886177
-1.504830 3.650324 0.370557
-1.563119 3.772967 1.435691
-1.602897 3.856337 1.288582
-1.622041 3.896746 1.983138
-1.617440 3.887043 1.841806
-1.624904 3.902781 2.065909
-1.580712 3.810089 2.037073
-1.566424 3.780388 2.743751
-0.361202 1.253124 3.734031
-0.419763 1.376275 4.627813
-0.459219 1.459002 4.570017
-0.542843 1.634575 5.090314
-0.501929 1.548782 5.125843
-0.458634 1.458178 5.645753
-1.704673 3.459787 0.792825
-1.750051 3.540226 0.435103
-1.813681 3.653478 1.341557
-1.802670 3.633749 0.778246
-1.808331 3.643906 1.108089
-1.813458 3.653081 1.332737
-1.821201 3.666917 1.609754
-1.857492 3.731637 2.515074
-1.874821 3.762508 2.843218
-1.875638 3.763962 2.857704
-0.621303 1.537670 4.116937
-0.562238 1.432986 4.628323
-0.558752 1.426783 4.586354
-0.563180 1.434846 5.200967
-0.568501 1.444474 5.759390
-0.528312 1.373161 5.854605
-1.937607 3.341077 0.958409
-1.994925 3.428468 1.075000
-2.042641 3.501071 0.665119
-2.051622 3.514902 1.152616
-2.059146 3.526449 1.429744
-2.068419 3.540664 1.706696
-2.111004 3.605833 2.611709
-2.084737 3.565650 2.102779
-2.125345 3.627759 2.849747
-2.122983 3.624148 2.811997
-2.076058 3.552669 2.942708
-0.642551 1.368335 4.461289
-0.628381 1.346867 4.901486
-0.653594 1.385368 5.150152
-0.632678 1.353585 5.476131
-2.131618 3.202384 0.141010
-2.192792 3.284176 0.419225
-2.213669 3.312336 1.436110
-2.287981 3.411703 1.812215
-2.348371 3.492374 1.819367
-2.276788 3.396675 1.526115
-2.331985 3.470706 2.640712
-2.300278 3.428202 2.079241
-2.286624 3.410173 2.866098
-0.695183 1.284830 4.756862
-0.682615 1.268160 5.198638
-0.660096 1.238166 5.525561
-2.293566 2.980229 0.907517
-2.366034 3.064175 1.184157
-2.421690 3.128491 0.772633
-2.451845 3.163631 1.736844
-2.434336 3.143253 1.277526
-2.444273 3.154823 1.556143
-2.546738 3.273602 2.298987
-2.530022 3.254181 1.999608
-2.500352 3.219987 2.600823
-2.512480 3.234067 2.773268
-0.791984 1.243209 4.832602
-0.814611 1.269446 5.023715
-0.883400 1.349197 5.562475
-0.790883 1.242067 5.366566
-2.411672 2.736107 0.125528
-2.482049 2.807124 0.087346
-2.553112 2.878893 0.314546
-2.648900 2.975820 1.436728
-2.660895 2.987988 1.715239
-2.652228 2.979197 1.519499
-2.691661 3.019165 2.271577
-2.663049 2.990173 1.760300
-2.686971 3.014415 2.196391
-2.621076 2.947930 2.272944
-2.655579 2.982863 2.762727
-2.534083 2.860305 3.012230
-0.781272 1.091726 4.650712
-0.842268 1.153395 5.134645
-0.829138 1.140121 5.034611
-0.757061 1.067499 5.557127
-0.683024 0.992887 6.026150
-0.419994 0.727472 6.188768
-2.515803 2.502164 0.297981
-2.676367 2.643893 0.949912
-2.670755 2.638890 0.698835
-2.747062 2.706194 0.764258
-2.769196 2.725864 1.467708
-2.757791 2.715742 1.164917
-2.791567 2.745688 1.920651
-2.795460 2.749136 1.988377
-2.861827 2.807856 2.900181
-2.779538 2.735274 2.820828
-2.631735 2.604945 2.858177
-0.679486 0.883598 3.802387
-0.619308 0.830562 3.951028
-0.859415 1.042457 4.701437
-0.869145 1.051053 4.776351
-0.910908 1.087947 5.084751
-0.890508 1.070040 5.470373
-0.864905 1.047534 5.799219
-2.522173 2.201446 0.110906
-2.760298 2.383991 0.143066
-2.844359 2.448530 0.636470
-2.927241 2.512098 0.807729
-2.944722 2.525609 1.351909
-2.957453 2.535425 1.631013
-2.806160 2.419479 1.779497
-2.713652 2.348759 2.735089
-0.686560 0.795124 4.053644
-0.802502 0.884061 4.349711
-0.945059 0.993436 4.818360
-0.939147 0.988895 4.775894
-0.987342 1.026013 5.628122
-0.824923 0.901507 5.625972
-2.844845 2.143427 0.940166
-2.925652 2.197036 0.845533
-3.023502 2.262058 1.283567
-3.018015 2.258389 1.139617
-3.037060 2.271113 1.580472
-2.954691 2.216454 1.602193
-2.904966 2.183561 2.159285
-2.764636 2.090501 2.515149
-0.560658 0.628125 3.969632
-0.749247 0.753313 4.136343
-0.896007 0.850801 4.609424
-1.077248 0.971205 5.252361
-0.979536 0.906343 5.171465
-0.988307 0.912272 5.734797
-2.988029 1.949942 1.101058
-3.061185 1.991585 0.578783
-3.080089 2.002493 1.235886
-2.987844 1.949836 1.095821
-3.035807 1.977373 2.022631
-2.965920 1.937543 2.261425
-0.750628 0.673989 4.436206
-0.890239 0.753711 4.791916
-0.987437 0.809179 4.851079
-0.990827 0.811218 5.414955
-0.878727 0.747232 5.275424
-0.783282 0.692863 5.745725
-0.575772 0.574525 6.063872
-2.921433 1.648334 0.665645
-3.026442 1.699176 1.165720
-3.100023 1.734635 0.586840
-3.109849 1.739454 0.977878
-3.073086 1.721872 2.019138
-2.980654 1.677193 1.988581
-0.079106 0.275163 3.840334
-0.573055 0.513951 4.150246
-0.786167 0.616991 4.375332
-0.885998 0.665252 4.435864
-0.932703 0.687881 4.747741
-0.982646 0.712075 5.058998
-0.989976 0.715718 5.624135
-3.021243 1.446035 0.382694
-3.114181 1.483465 0.398158
-3.121555 1.486502 0.791491
-3.044336 1.455484 1.243111
-2.950071 1.417518 1.209800
-0.780918 0.544484 4.055108
-0.934184 0.606278 4.472058
-0.945805 0.610971 4.548798
-1.097634 0.672269 5.448623
-1.054519 0.654953 5.720978
-0.864932 0.578606 5.720533
-3.015863 1.207177 0.251238
-3.023757 1.209837 0.757047
-3.129660 1.244426 1.095729
-3.128260 1.243964 1.058561
-3.137918 1.247152 1.291667
-3.038884 1.214845 1.204288
-2.878826 1.162750 1.776382
-0.878241 0.510860 4.482020
-0.983993 0.545353 4.542808
-1.108806 0.586082 4.720439
-1.067858 0.572786 5.049353
-1.087063 0.579154 5.673943
-0.904381 0.519595 5.732321
-0.727499 0.462011 6.288873
-3.093051 0.999014 0.439025
-3.090772 0.998388 0.129860
-3.189117 1.023214 0.362828
-3.194967 1.024745 0.704100
-3.140956 1.011297 1.700090
-3.021378 0.981090 1.287705
-2.842751 0.936118 1.587831
-2.556590 0.864007 1.677412
0.096248 0.195689 3.569724
-0.617148 0.375534 3.801285
-0.887097 0.443660 4.326247
-1.041504 0.482637 4.682145
-1.074134 0.490893 4.876091
-1.173492 0.516026 5.422056
-1.093102 0.495781 5.517571
-0.811314 0.424770 5.594155
-0.520556 0.351572 6.112383
-2.956193 0.746685 0.264906
-3.155694 0.782527 0.498010
-3.155129 0.782420 0.460880
-3.167513 0.784725 0.966813
-3.067888 0.766840 0.933055
-2.880074 0.733174 1.176899
-2.599251 0.682825 1.485200
-0.753454 0.351958 3.893466
-0.922656 0.382403 4.371396
-1.131206 0.419937 5.020872
-1.102954 0.414840 4.861145
-1.073093 0.409545 5.249413
-0.940431 0.385793 5.600284
-3.098789 0.556357 0.171122
-3.202530 0.567881 0.567389
-3.203963 0.568051 0.638037
-3.112525 0.557997 0.929222
-3.035218 0.549539 1.441379
-2.729921 0.515791 1.308099
-0.075181 0.222935 3.908112
-0.586561 0.279440 3.978246
-0.901230 0.314217 4.072269
-1.114865 0.337933 4.783174
-1.279016 0.356124 5.134656
-1.206773 0.348168 5.287538
-1.037885 0.329539 5.460715
-0.882135 0.312371 5.695138
-0.546745 0.275374 6.033940
-3.029495 0.339926 0.042660
-3.030114 0.339990 0.278168
-3.130644 0.344216 0.348378
-3.163470 0.345762 1.400482
-3.056412 0.341250 1.258079
-2.863004 0.333162 1.394195
-2.667261 0.324968 1.476737
-2.278972 0.308720 1.684623
-1.792699 0.288366 1.905037
-1.447385 0.273997 2.591033
-1.051076 0.257388 2.645379
-0.766926 0.245642 3.692077
-0.595496 0.238490 3.915834
-0.928920 0.252505 4.129306
-1.134883 0.261246 4.780874
-1.117592 0.260505 4.680073
-1.238610 0.265686 5.343928
-1.081094 0.259119 5.576488
-2.946638 0.137264 0.332588
-3.047371 0.134692 0.402440
-3.147532 0.132126 0.417190
-3.052991 0.134597 0.708271
-2.863997 0.139500 1.060338
-2.677150 0.144340 1.362150
-2.421278 0.151015 2.067601
-1.928684 0.163665 2.179809
-1.536152 0.173748 2.286600
-1.149101 0.183701 2.454527
-0.997335 0.187808 3.795612
-0.934160 0.189471 4.063457
-0.972410 0.188531 4.317447
-1.131377 0.184512 4.672706
-1.207491 0.182629 5.101245
-1.168884 0.183672 5.430696
-0.999832 0.188035 5.604680
-3.049559 -0.073737 0.410782
-2.948056 -0.064229 0.043743
-3.052810 -0.074012 0.607975
-3.070623 -0.075600 1.171747
-2.858566 -0.055670 0.810802
-2.784398 -0.048577 1.439325
-1.266033 0.094720 2.534743
-1.110145 0.109486 2.983955
-0.831753 0.135888 3.975687
-0.663219 0.151810 4.200977
-0.952342 0.124543 4.114237
-1.127324 0.108126 4.588883
-1.191218 0.102164 4.959070
-1.151087 0.105999 5.288542
-1.041770 0.116379 5.757973
-2.959569 -0.268552 1.172178
-3.045360 -0.282651 0.802998
-2.873139 -0.254367 1.433598
-2.659309 -0.219437 1.073622
-2.388662 -0.175063 1.609787
-2.010108 -0.113076 1.880403
-1.643509 -0.053026 2.274096
-1.288426 0.005152 2.737016
-0.989970 0.053987 2.726786
-0.795738 0.085920 3.652896
-0.748764 0.093670 4.042096
-1.027998 0.048064 4.564131
-1.188158 0.021915 4.918161
-1.255947 0.010883 5.287538
-1.173578 0.024376 5.382178
-0.983163 0.055543 5.437546
-2.818054 -0.421020 0.228104
-2.922008 -0.444522 0.685169
-2.831077 -0.423859 0.926099
-2.738060 -0.402740 1.058101
-2.577669 -0.366247 1.753075
-2.273393 -0.297265 1.565201
-1.797854 -0.189372 1.784711
-1.463012 -0.113303 2.528719
-1.195483 -0.052579 2.810462
-0.904198 0.013635 3.702508
-0.753830 0.047797 4.047470
-0.992998 -0.006402 4.333888
-1.129254 -0.037267 4.572758
-1.234163 -0.060961 5.179509
-1.221062 -0.057916 5.628267
-1.010124 -0.010083 5.568354
-2.786048 -0.614339 0.544380
-2.783357 -0.613566 0.341296
-2.788941 -0.615184 0.690101
-2.703421 -0.589447 1.042527
-2.434127 -0.508520 1.463743
-2.151137 -0.423537 1.554510
-1.802759 -0.318842 2.112598
-1.409735 -0.200857 1.986928
-1.002504 -0.078437 2.871941
-0.828820 -0.026120 3.875759
-0.872638 -0.039223 4.192832
-0.987491 -0.073687 4.315594
-1.189391 -0.134199 4.966653
-1.172303 -0.129084 4.866894
-1.187706 -0.133604 5.491836
-1.073983 -0.099390 5.904160
-0.740796 0.000698 6.185991
-2.734539 -0.799728 0.167519
-2.642224 -0.765024 0.368680
-2.737435 -0.800759 0.495228
-2.656425 -0.770247 1.012675
-2.585362 -0.743469 1.533803
-2.297374 -0.635337 1.399687
-1.939438 -0.500858 1.723103
-1.616291 -0.379372 2.460429
-1.128296 -0.196144 2.228747
-0.911855 -0.114729 2.985235
-0.697987 -0.034302 3.613347
-0.686082 -0.029723 4.245492
-0.958038 -0.131871 4.159904
-1.142394 -0.201005 4.753724
-1.164731 -0.209370 4.889886
-1.180076 -0.215026 5.513666
-1.058574 -0.169419 5.373013
-2.581963 -0.948511 0.361754
-2.596874 -0.955220 1.043824
-2.616358 -0.964062 1.503952
-2.532375 -0.925575 1.637935
-2.244283 -0.793683 1.336441
-2.011132 -0.686775 2.050626
-1.571567 -0.485416 2.279744
-1.206126 -0.318047 2.272248
-0.991253 -0.219514 2.967280
-0.666061 -0.070507 3.365945
-0.665068 -0.069919 4.118011
-0.987156 -0.217375 4.448933
-1.088327 -0.263700 4.510548
-1.127210 -0.281463 4.764768
-1.178095 -0.304713 5.077368
-1.097137 -0.267531 5.664058
-2.428180 -1.060327 0.062919
-2.428168 -1.060318 0.078783
-2.517658 -1.108238 0.371710
-2.527245 -1.113283 0.886117
-2.457996 -1.076066 1.405341
-2.296916 -0.989659 1.711470
-2.024885 -0.843856 1.576632
-1.689785 -0.664159 1.903241
-1.371218 -0.493292 2.413608
-1.021300 -0.305701 2.465085
-0.808087 -0.191145 3.884380
-0.810171 -0.192259 3.901386
-1.013364 -0.301033 4.734467
-1.085148 -0.339536 4.616522
-1.114341 -0.355150 4.810089
-1.077232 -0.335197 5.139334
-0.946897 -0.265275 5.430366
-0.823604 -0.199037 6.222534
-2.344550 -1.234238 0.086389
-2.345933 -1.235059 0.380626
-2.349161 -1.237060 0.619206
-2.289166 -1.198880 1.418762
-2.196417 -1.140130 1.216106
-1.964237 -0.992871 1.698726
-1.583582 -0.751464 2.380444
-1.220689 -0.521514 2.022345
-0.921975 -0.332064 2.602406
-0.693845 -0.187242 3.772040
-0.514893 -0.073828 3.695350
-0.824390 -0.269915 4.150959
-1.056775 -0.417124 4.610994
-1.142483 -0.471450 4.611489
-1.113908 -0.453264 4.998360
-1.047197 -0.410857 5.642401
-0.874427 -0.301347 5.640361
-0.726914 -0.207729 6.257038
-2.262188 -1.394042 0.719362
-2.343148 -1.453373 0.733139
-2.266781 -1.397369 0.918775
-2.214277 -1.358741 1.663588
-2.046078 -1.235501 1.523739
-1.805228 -1.058982 1.557018
-0.645140 -0.208411 3.437664
-0.610994 -0.183296 3.888377
-0.932011 -0.418435 4.517414
-1.037737 -0.495883 4.695496
-1.064980 -0.515811 4.889426
-1.147915 -0.576482 5.435340
-1.011692 -0.476613 5.609679
-2.078875 -1.476666 0.046870
-2.169472 -1.552936 1.064502
-2.161716 -1.546455 0.747169
-2.085656 -1.482240 0.766087
-2.025855 -1.431632 1.345408
-1.871748 -1.301537 1.315241
-1.689043 -1.147094 2.258671
-1.371506 -0.879059 2.077257
-1.026116 -0.587348 2.661980
-0.732086 -0.339083 2.836798
-0.647725 -0.267697 3.629970
-0.720725 -0.329182 4.305703
-0.925272 -0.501782 4.707207
-1.018440 -0.580412 4.825500
-1.005108 -0.569178 4.724958
-0.980544 -0.548359 5.113529
-0.885331 -0.467891 5.523454
-1.982824 -1.605580 0.367351
-2.057682 -1.677268 0.604431
-2.061953 -1.681308 0.842534
-2.078764 -1.697292 1.414022
-1.931082 -1.555778 1.328126
-1.724004 -1.357264 1.585038
-0.707700 -0.382997 2.814877
-0.583392 -0.263803 3.091997
-0.312560 -0.004191 3.335182
-0.519299 -0.202178 3.993159
-0.729415 -0.403564 3.908375
-0.833871 -0.503605 4.208108
-1.007032 -0.669373 5.035113
-1.009226 -0.671472 5.051649
-0.964460 -0.628522 5.263225
-0.893814 -0.560700 5.791474
-0.702813 -0.377606 5.989481
-1.861118 -1.743868 0.261327
-1.936159 -1.826831 0.889669
-1.931566 -1.821806 0.628765
-1.935717 -1.826347 0.868383
-1.869091 -1.752548 0.888646
-1.812869 -1.690179 1.301217
-1.640381 -1.498965 2.012196
-0.519300 -0.256947 3.403634
-0.585606 -0.330209 4.143561
-0.816848 -0.586262 4.414682
-0.990523 -0.778539 4.753912
-0.972479 -0.758592 4.595886
-1.009812 -0.799735 5.453661
-0.954469 -0.738415 5.550193
-1.814608 -1.937865 0.612253
-1.813520 -1.936523 0.518824
-1.815876 -1.939434 0.703502
-1.767963 -1.879081 1.337706
-1.709914 -1.806124 1.472491
-1.552613 -1.608335 2.185835
-0.598320 -0.409111 3.819765
-0.626444 -0.444358 4.138103
-0.859341 -0.736812 4.585658
-0.904749 -0.793900 4.411749
-0.983173 -0.892232 5.134656
-0.959706 -0.862666 5.465339
-0.893671 -0.779717 5.444949
-1.665866 -2.067864 0.639846
-1.675132 -2.081321 1.157438
-1.686553 -2.097974 1.563527
-1.621111 -2.001978 1.251843
-1.525042 -1.860773 1.784027
-0.485736 -0.334326 3.494414
-0.625136 -0.538900 3.846633
-0.804096 -0.801440 4.605927
-0.850370 -0.869415 4.490067
-0.830487 -0.840112 4.877930
-0.888376 -0.924950 5.424805
-0.862176 -0.886404 5.697577
-1.482129 -2.075299 0.217694
-1.482624 -2.076091 0.345318
-1.541953 -2.175606 1.027584
-1.592314 -2.260275 0.984337
-1.541508 -2.174866 1.003695
-1.491785 -2.091259 1.078990
-1.404392 -1.944171 1.664876
-0.399409 -0.254331 3.273614
-0.302482 -0.091368 3.374666
-0.449417 -0.338153 4.032472
-0.653109 -0.680563 3.992945
-0.812419 -0.948138 4.687418
-0.874668 -1.052740 4.804206
-0.791731 -0.913254 5.032127
-0.827694 -0.973591 5.401211
-0.741199 -0.828141 5.574874
-0.658040 -0.688143 6.246574
-1.336402 -2.173514 0.379132
-1.381301 -2.262404 0.338687
-1.430317 -2.359268 0.797190
-1.386998 -2.273472 0.927463
-1.350711 -2.201476 1.393488
-1.261028 -2.023942 1.420108
-0.386325 -0.291797 3.375402
-0.342502 -0.205042 3.404934
-0.509392 -0.535208 3.926403
-0.652082 -0.817625 4.020600
-0.770891 -1.052661 4.419735
-0.785243 -1.081003 4.612544
-0.789844 -1.089888 5.232486
-0.757365 -1.025543 5.385861
-0.720200 -0.951767 5.972385
-0.534042 -0.583279 5.955652
-1.224854 -2.351572 0.403008
-1.267629 -2.452592 0.860803
-1.240412 -2.387911 1.546604
-1.207323 -2.309520 1.791172
-1.168897 -2.218590 1.813754
-1.093156 -2.039345 1.899585
-0.319775 -0.208905 3.227633
-0.370332 -0.328425 3.475494
-0.563591 -0.785413 4.157354
-0.690603 -1.085872 4.305729
-0.756402 -1.241390 4.715223
-0.743838 -1.211504 5.099334
-0.672869 -1.043540 5.211628
-0.649257 -0.987582 5.423799
-1.063667 -2.434783 0.709368
-1.095178 -2.526347 0.559146
-1.097514 -2.532985 0.851499
-1.077954 -2.475775 1.703438
-1.040437 -2.366971 1.446431
-0.981111 -2.194571 1.753530
-0.340512 -0.333853 3.306210
-0.328675 -0.299230 3.819441
-0.428884 -0.590165 3.856019
-0.584249 -1.041016 4.348332
-0.652455 -1.239028 4.391747
-0.627412 -1.166244 4.540982
-0.648118 -1.226182 4.908047
-0.634812 -1.187387 5.234771
-0.619280 -1.141916 5.993899
-0.533651 -0.893196 6.193091
-0.891973 -2.496236 0.345423
-0.920717 -2.602748 0.860370
-0.920857 -2.603257 0.877679
-0.925686 -2.620919 1.336423
-0.872599 -2.423672 1.250536
-0.823850 -2.242336 1.500468
-0.371716 -0.560771 3.392432
-0.448769 -0.846707 4.099167
-0.540706 -1.188196 4.424083
-0.592701 -1.381452 4.408828
-0.594145 -1.386435 5.023942
-0.615442 -1.465326 5.446836
-0.550421 -1.223817 5.210778
-0.720499 -2.549981 0.204607
-0.741147 -2.654135 0.665190
-0.740982 -2.653333 0.627534
-0.741889 -2.657772 0.811471
-0.727004 -2.581933 1.387978
-0.713840 -2.514851 1.910010
-0.302496 -0.430702 3.746744
-0.378222 -0.814181 3.651156
-0.457911 -1.217030 4.391813
-0.475727 -1.307279 4.333590
-0.510552 -1.483213 4.798578
-0.494048 -1.399577 4.890121
-0.490500 -1.381247 5.331996
-0.459942 -1.226343 5.562390
-0.559752 -2.695364 0.522569
-0.575846 -2.820021 1.311504
-0.572847 -2.797421 0.667899
-0.561521 -2.708545 1.020895
-0.555236 -2.658323 1.931746
-0.541233 -2.549172 1.790302
-0.323821 -0.849256 3.738052
-0.351324 -1.063852 3.844564
-0.389232 -1.359020 4.474956
-0.404555 -1.478510 4.589757
-0.414084 -1.552375 5.010502
-0.403334 -1.468330 5.101588
-0.394053 -1.395679 5.251451
-0.386450 -1.335435 5.948267
-0.379192 -2.823657 0.055617
-0.379608 -2.829183 0.625003
-0.379633 -2.829555 0.642464
-0.380677 -2.845890 1.156423
-0.375166 -2.751854 1.288856
-0.365740 -2.589867 1.929160
-0.263353 -0.845002 3.549810
-0.278993 -1.109585 4.015019
-0.293966 -1.363177 4.355031
-0.308004 -1.601205 4.573107
-0.307029 -1.584887 4.475199
-0.310192 -1.636352 5.320801
-0.306729 -1.576904 5.531934
-0.288987 -1.275264 5.551635
-0.277170 -1.073039 6.043493
-0.188079 -2.842781 0.126337
-0.187244 -2.947533 0.584686
-0.187243 -2.949074 0.658331
-0.187231 -2.953854 0.841886
-0.188065 -2.862143 1.084253
-0.189731 -2.675659 1.388846
-0.191387 -2.489429 1.641954
-0.205671 -0.880449 3.701346
-0.203067 -1.180406 3.681297
-0.200889 -1.438996 4.082339
-0.199733 -1.576599 4.318604
-0.198780 -1.687660 4.379572
-0.198919 -1.681978 4.935027
-0.199993 -1.566621 5.396565
-0.200998 -1.449324 5.318803
0.007952 -2.852380 0.510104
0.016181 -2.959043 0.818058
0.018281 -2.987509 1.494566
0.018353 -2.988479 1.511934
0.012873 -2.918835 1.975606
-0.004180 -2.698489 1.675026
-0.141082 -0.937833 3.256300
-0.139847 -0.954029 3.393107
-0.121457 -1.191572 3.681297
-0.091844 -1.574294 4.240252
-0.081869 -1.703183 4.415641
-0.079435 -1.734934 4.606219
-0.077904 -1.756055 5.275576
-0.091061 -1.586894 5.447741
-0.101319 -1.455441 5.796601
-0.114221 -1.289576 5.973525
0.198980 -2.847263 0.609051
0.213581 -2.947759 0.679157
0.215631 -2.962368 1.135917
0.215732 -2.963077 1.153082
0.201456 -2.864929 1.174518
0.179846 -2.717270 2.033386
0.150152 -2.512974 1.954241
-0.055449 -1.100023 2.846085
-0.049686 -1.140075 3.218481
-0.028934 -1.283189 3.576287
0.010397 -1.554246 4.090693
0.027522 -1.672149 4.208364
0.038780 -1.750108 4.686795
0.052874 -1.847627 5.221123
0.026720 -1.667889 5.334119
-0.001035 -1.477079 5.389987
0.392406 -2.822126 0.217540
0.415078 -2.927398 0.728537
0.415800 -2.930832 0.855195
0.416656 -2.934888 0.981834
0.399756 -2.857060 1.443287
0.360454 -2.675441 1.693028
0.342751 -2.593735 1.939170
0.021022 -1.106143 2.894970
0.031111 -1.153141 3.325761
0.070493 -1.335820 3.976467
0.114592 -1.539855 4.021763
0.143409 -1.673342 4.254172
0.155906 -1.731427 4.616124
0.165018 -1.773765 4.862203
0.133096 -1.626311 5.145284
0.104273 -1.493238 5.489763
0.563242 -2.793437 0.279418
0.596212 -2.911409 1.174539
0.597744 -2.916941 1.300900
0.601067 -2.928919 1.537020
0.579021 -2.850567 1.834745
0.547613 -2.738540 1.581751
0.497716 -2.560953 1.833184
0.427820 -2.312301 2.377492
0.219130 -1.569132 2.714897
0.142098 -1.294833 2.879182
0.137997 -1.280661 3.611784
0.171778 -1.401099 3.791498
0.208174 -1.530886 4.027659
0.295084 -1.840904 4.761541
0.328000 -1.958219 4.873904
0.313769 -1.907683 5.136538
0.252662 -1.689943 5.017087
0.241225 -1.649683 5.823014
0.755417 -2.747034 0.053030
0.761494 -2.764531 1.062924
0.792797 -2.852061 0.855839
0.793548 -2.854196 0.927318
0.792067 -2.849979 0.778988
0.762369 -2.767011 1.129279
0.707545 -2.613866 1.820753
0.670719 -2.510707 1.677088
0.594504 -2.297798 2.613746
0.459280 -1.919251 2.612727
0.324037 -1.540650 2.610487
0.265414 -1.376670 2.880496
0.265571 -1.377516 3.727211
0.299706 -1.473074 3.731246
0.344832 -1.599512 3.966713
0.393678 -1.736391 4.257530
0.443513 -1.876038 4.544165
0.435253 -1.853122 4.978248
0.400372 -1.755721 5.491578
0.352938 -1.622842 5.296644
0.942054 -2.693337 0.564213
0.981748 -2.784368 0.524564
0.981506 -2.783800 0.486772
0.989254 -2.801843 1.163381
0.986172 -2.794691 0.960801
0.912009 -2.624722 1.317180
0.884084 -2.560879 1.839182
0.801839 -2.372193 1.758463
0.692394 -2.121303 2.135034
0.583091 -1.870717 2.462316
0.490433 -1.658454 3.142356
0.369497 -1.381052 3.136649
0.390191 -1.428689 3.562637
0.459990 -1.589005 4.088935
0.493740 -1.666374 3.976803
0.551858 -1.799802 4.267014
0.587825 -1.882516 4.799849
0.570907 -1.843840 5.120226
0.532909 -1.756695 5.155424
0.492907 -1.665146 5.671589
1.123393 -2.627378 0.750238
1.166077 -2.709499 0.325287
1.175992 -2.728903 1.167029
1.169399 -2.716048 0.744853
1.182895 -2.742316 1.476339
1.138783 -2.657321 1.554370
1.073600 -2.531967 2.360194
0.984914 -2.361064 2.451475
0.832640 -2.067445 2.101236
0.713772 -1.838510 2.599787
0.590549 -1.601125 2.935310
0.535156 -1.494596 3.613602
0.505328 -1.437197 3.877696
0.555951 -1.534790 3.939818
0.660117 -1.735619 4.101484
0.719238 -1.849631 4.275859
0.780156 -1.967311 5.034216
0.721766 -1.854721 4.899769
0.678750 -1.772010 5.468828
1.355032 -2.632881 0.885462
1.403562 -2.712447 0.625511
1.363626 -2.647116 1.303903
1.316531 -2.569883 1.491082
1.273872 -2.499965 1.790225
1.181187 -2.347949 2.099285
1.023991 -2.089959 2.083833
0.898232 -1.883774 2.750685
0.798719 -1.720488 2.845935
0.731059 -1.609636 3.461002
0.610522 -1.411738 3.214050
0.646270 -1.470573 3.753929
0.753623 -1.646973 4.449137
0.867784 -1.834359 4.548141
0.920635 -1.921097 4.548853
0.993530 -2.040963 5.302398
1.530638 -2.530318 0.751079
1.586440 -2.609096 0.600276
1.532993 -2.533683 0.893189
1.487572 -2.469671 1.408837
1.446004 -2.411086 1.872720
