47.000000 -40.750000 0.142998
46.800000 -39.531250 0.142998
47.025000 -38.578125 0.142998
47.350000 -37.531250 0.142998
45.575000 -35.078125 0.142998
47.200000 -42.250000 0.316999
47.500000 -40.921875 0.316999
47.050000 -40.015625 0.316999
47.200000 -38.859375 0.316999
47.800000 -37.734375 0.316999
45.700000 -35.671875 0.316999
45.675000 -34.453125 0.316999
46.100000 -33.328125 0.316999
47.425000 -40.312500 0.488000
47.350000 -39.187500 0.488000
47.450000 -38.156250 0.488000
48.100000 -37.203125 0.488000
45.800000 -35.078125 0.488000
45.950000 -34.031250 0.488000
47.550000 -40.515625 0.662000
47.300000 -39.390625 0.662000
47.475000 -38.468750 0.662000
47.775000 -37.203125 0.662000
45.875000 -35.062500 0.662000
47.450000 -39.671875 0.835000
47.500000 -38.687500 0.835000
47.825000 -37.734375 0.835000
46.050000 -35.140625 0.835000
46.050000 -34.312500 0.835000
46.575000 -33.281250 0.835000
47.000000 -41.265625 1.001029
47.475000 -39.875000 1.001029
47.525000 -38.796875 1.001029
47.800000 -37.906250 1.001029
48.350000 -36.968750 1.001029
46.150000 -34.390625 1.001029
46.300000 -33.578125 1.001029
47.925000 -40.421875 1.178000
47.725000 -39.468750 1.178000
47.750000 -38.312500 1.178000
48.025000 -37.125000 1.178000
46.200000 -34.796875 1.178000
46.225000 -33.937500 1.178000
46.850000 -33.078125 1.178000
47.100000 -41.109375 1.350000
47.600000 -39.953125 1.350000
47.700000 -38.953125 1.350000
47.975000 -37.968750 1.350000
48.475000 -36.625000 1.350000
46.300000 -34.421875 1.350000
46.575000 -33.296875 1.350000
46.550000 -49.781250 1.519999
47.850000 -40.343750 1.519999
47.675000 -39.218750 1.519999
47.900000 -38.125000 1.519999
48.125000 -37.171875 1.519999
47.475000 -35.937500 1.519999
46.575000 -35.000000 1.519999
46.400000 -34.046875 1.519999
46.875000 -33.000000 1.519999
47.075000 -40.859375 1.704001
47.700000 -39.843750 1.704001
47.825000 -38.953125 1.704001
48.000000 -37.734375 1.704001
48.450000 -36.656250 1.704001
46.400000 -34.312500 1.704001
47.725000 -39.500000 1.864999
47.875000 -38.500000 1.864999
47.300000 -35.390625 1.864999
46.550000 -34.046875 1.864999
46.800000 -33.125000 1.864999
47.925000 -40.609375 2.038999
47.725000 -39.437500 2.038999
47.875000 -38.328125 2.038999
47.300000 -35.312500 2.038999
46.575000 -34.000000 2.038999
46.800000 -33.062500 2.038999
47.675000 -39.734375 2.207000
47.825000 -38.593750 2.207000
48.125000 -37.640625 2.207000
48.250000 -36.437500 2.207000
47.475000 -35.578125 2.207000
46.675000 -34.359375 2.207000
46.775000 -33.312500 2.207000
47.450000 -32.375000 2.207000
46.550000 -49.703125 2.377999
47.900000 -40.546875 2.377999
47.875000 -39.375000 2.377999
47.925000 -38.390625 2.377999
47.350000 -35.062500 2.377999
46.900000 -33.921875 2.377999
47.150000 -32.890625 2.377999
47.650000 -39.859375 2.554999
47.800000 -38.609375 2.554999
48.100000 -37.625000 2.554999
47.975000 -36.671875 2.554999
47.425000 -35.328125 2.554999
46.900000 -34.421875 2.554999
46.775000 -33.437500 2.554999
47.350000 -32.375000 2.554999
47.675000 -39.593750 2.723000
47.800000 -38.765625 2.723000
48.075000 -37.640625 2.723000
48.150000 -36.515625 2.723000
47.600000 -35.515625 2.723000
46.900000 -34.218750 2.723000
46.800000 -33.281250 2.723000
47.375000 -32.281250 2.723000
47.800000 -49.718750 2.896000
48.150000 -41.046875 2.896000
47.750000 -40.125000 2.896000
47.625000 -39.093750 2.896000
47.825000 -37.953125 2.896000
47.400000 -34.640625 2.896000
46.925000 -33.468750 2.896000
47.225000 -32.437500 2.896000
47.600000 -39.453125 3.067000
47.650000 -38.343750 3.067000
48.050000 -37.562500 3.067000
48.550000 -36.234375 3.067000
47.025000 -34.234375 3.067000
46.975000 -33.093750 3.067000
47.500000 -31.953125 3.067000
47.450000 -39.437500 3.240000
47.500000 -38.390625 3.240000
48.025000 -37.421875 3.240000
48.550000 -36.484375 3.240000
47.025000 -34.140625 3.240000
46.975000 -33.156250 3.240000
47.500000 -31.953125 3.240000
47.400000 -39.437500 3.410000
47.325000 -38.656250 3.410000
47.875000 -37.406250 3.410000
48.125000 -36.328125 3.410000
47.575000 -35.484375 3.410000
47.050000 -34.343750 3.410000
47.000000 -33.218750 3.410000
47.500000 -32.031250 3.410000
47.625000 -49.984375 3.582000
47.975000 -41.328125 3.582000
47.525000 -39.984375 3.582000
47.050000 -39.046875 3.582000
47.325000 -38.125000 3.582000
47.300000 -34.609375 3.582000
46.925000 -33.718750 3.582000
47.125000 -41.078125 3.760001
47.225000 -39.953125 3.760001
46.725000 -38.796875 3.760001
47.250000 -37.812500 3.760001
47.700000 -36.625000 3.760001
48.050000 -35.718750 3.760001
47.150000 -33.375000 3.760001
47.425000 -32.531250 3.760001
47.625000 -40.250000 3.929999
46.725000 -39.125000 3.929999
47.150000 -33.812500 3.929999
47.225000 -32.875000 3.929999
47.625000 -40.515625 4.102000
46.825000 -39.281250 4.102000
47.975000 -35.265625 4.102000
47.225000 -33.921875 4.102000
47.225000 -32.875000 4.102000
47.625000 -40.421875 4.271998
46.700000 -39.031250 4.271998
47.375000 -34.046875 4.271998
47.450000 -32.984375 4.271998
46.925000 -39.562500 4.449999
48.250000 -35.359375 4.449999
47.500000 -34.078125 4.449999
47.425000 -33.281250 4.449999
47.100000 -41.125000 4.615000
47.200000 -39.718750 4.615000
46.700000 -38.671875 4.615000
47.225000 -37.921875 4.615000
48.350000 -36.609375 4.615000
48.975000 -35.578125 4.615000
47.175000 -33.312500 4.615000
47.825000 -32.484375 4.615000
46.700000 -49.890625 4.787999
47.600000 -40.203125 4.787999
46.950000 -39.296875 4.787999
47.025000 -38.296875 4.787999
47.900000 -37.328125 4.787999
49.025000 -36.250000 4.787999
47.375000 -34.046875 4.787999
47.550000 -32.843750 4.787999
46.400000 -49.984375 4.958001
47.650000 -40.531250 4.958001
47.100000 -39.312500 4.958001
47.150000 -38.343750 4.958001
47.900000 -37.187500 4.958001
49.050000 -36.312500 4.958001
47.375000 -34.171875 4.958001
47.525000 -32.859375 4.958001
47.650000 -40.609375 5.132000
47.325000 -39.453125 5.132000
47.375000 -38.312500 5.132000
47.900000 -37.421875 5.132000
49.075000 -36.171875 5.132000
47.375000 -33.953125 5.132000
47.625000 -32.843750 5.132000
47.050000 -41.171875 5.299001
47.550000 -40.109375 5.299001
47.525000 -38.796875 5.299001
47.725000 -37.750000 5.299001
47.500000 -34.500000 5.299001
47.275000 -33.531250 5.299001
47.050000 -41.031250 5.471999
47.575000 -40.078125 5.471999
47.550000 -38.921875 5.471999
47.725000 -37.828125 5.471999
47.525000 -34.500000 5.471999
47.300000 -33.625000 5.471999
47.650000 -40.593750 5.647000
47.575000 -39.578125 5.647000
47.675000 -38.328125 5.647000
47.475000 -35.078125 5.647000
47.250000 -33.921875 5.647000
47.625000 -49.953125 5.817999
47.850000 -41.156250 5.817999
47.675000 -40.109375 5.817999
47.750000 -38.921875 5.817999
47.900000 -37.875000 5.817999
48.550000 -36.875000 5.817999
47.425000 -33.656250 5.817999
47.025000 -40.953125 5.996000
47.675000 -40.171875 5.996000
47.775000 -38.812500 5.996000
47.900000 -38.015625 5.996000
48.550000 -36.843750 5.996000
47.050000 -49.968750 6.160999
47.725000 -40.296875 6.160999
47.825000 -39.375000 6.160999
47.925000 -38.312500 6.160999
48.400000 -37.328125 6.160999
47.075000 -40.937500 6.328999
47.675000 -39.890625 6.328999
47.775000 -38.718750 6.328999
48.025000 -37.625000 6.328999
48.925000 -36.906250 6.328999
47.725000 -40.375000 6.520999
47.575000 -39.515625 6.520999
47.700000 -38.218750 6.520999
48.125000 -37.468750 6.520999
47.900000 -40.906250 6.684001
47.625000 -39.953125 6.684001
47.775000 -38.625000 6.684001
48.050000 -37.843750 6.684001
48.900000 -36.593750 6.684001
47.500000 -49.859375 6.880002
47.675000 -40.171875 6.880002
47.775000 -39.140625 6.880002
47.900000 -38.296875 6.880002
48.400000 -36.968750 6.880002
47.400000 -39.750000 7.037000
47.650000 -38.890625 7.037000
48.025000 -37.843750 7.037000
48.925000 -36.875000 7.037000
46.625000 -34.468750 7.037000
47.675000 -40.843750 7.216002
47.450000 -39.578125 7.216002
47.575000 -38.437500 7.216002
46.575000 -34.296875 7.216002
47.300000 -40.468750 7.370000
47.225000 -39.562500 7.370000
47.550000 -38.500000 7.370000
48.100000 -37.406250 7.370000
47.850000 -36.203125 7.370000
46.675000 -35.093750 7.370000
46.450000 -33.921875 7.370000
47.250000 -49.937500 7.554002
46.925000 -40.328125 7.554002
47.125000 -39.140625 7.554002
47.550000 -38.281250 7.554002
48.275000 -37.187500 7.554002
45.900000 -34.625000 7.554002
47.050000 -40.656250 7.728001
46.950000 -39.875000 7.728001
47.300000 -38.718750 7.728001
47.775000 -37.828125 7.728001
45.775000 -35.468750 7.728001
45.950000 -34.484375 7.728001
46.750000 -40.578125 7.887002
46.875000 -39.437500 7.887002
47.275000 -38.281250 7.887002
47.700000 -37.390625 7.887002
45.600000 -35.093750 7.887002
45.975000 -34.078125 7.887002
46.400000 -49.906250 8.069002
46.700000 -40.234375 8.069002
46.750000 -39.390625 8.069002
47.100000 -38.359375 8.069002
45.625000 -36.093750 8.069002
45.425000 -34.828125 8.069002
45.900000 -33.859375 8.069002
46.625000 -40.703125 8.242000
46.650000 -39.531250 8.242000
47.075000 -38.578125 8.242000
45.525000 -36.062500 8.242000
45.575000 -35.031250 8.242000
45.725000 -34.250000 8.242000
47.350000 -49.968750 8.405000
46.850000 -41.296875 8.405000
46.600000 -40.046875 8.405000
46.575000 -39.140625 8.405000
47.150000 -38.093750 8.405000
45.300000 -35.734375 8.405000
45.300000 -34.859375 8.405000
45.950000 -33.734375 8.405000
46.600000 -40.578125 8.588001
46.625000 -39.718750 8.588001
46.750000 -38.609375 8.588001
46.100000 -37.421875 8.588001
45.350000 -36.453125 8.588001
45.275000 -35.062500 8.588001
45.425000 -34.218750 8.588001
46.600000 -40.546875 8.750001
46.500000 -39.687500 8.750001
46.225000 -38.562500 8.750001
45.350000 -37.265625 8.750001
45.025000 -36.312500 8.750001
45.100000 -35.125000 8.750001
45.225000 -34.078125 8.750001
46.775000 -42.078125 8.922000
46.775000 -41.093750 8.922000
46.450000 -40.046875 8.922000
46.050000 -38.765625 8.922000
45.825000 -37.734375 8.922000
44.650000 -35.609375 8.922000
45.225000 -34.359375 8.922000
46.600000 -40.437500 9.089001
46.575000 -39.703125 9.089001
46.325000 -38.468750 9.089001
44.450000 -36.125000 9.089001
45.025000 -35.203125 9.089001
45.250000 -34.015625 9.089001
46.825000 -42.265625 9.271999
46.900000 -41.046875 9.271999
46.650000 -40.062500 9.271999
46.450000 -38.890625 9.271999
45.700000 -33.437500 9.271999
47.550000 -49.937500 9.434000
47.575000 -42.296875 9.434000
46.900000 -41.328125 9.434000
46.550000 -40.093750 9.434000
46.500000 -38.875000 9.434000
45.650000 -33.671875 9.434000
46.725000 -40.625000 9.608000
46.550000 -39.671875 9.608000
46.450000 -38.343750 9.608000
45.700000 -37.171875 9.608000
45.125000 -33.906250 9.608000
46.825000 -41.796875 9.785999
46.775000 -40.671875 9.785999
46.500000 -39.625000 9.785999
46.000000 -38.421875 9.785999
45.000000 -37.656250 9.785999
44.900000 -34.484375 9.785999
47.200000 -49.781250 9.967002
46.850000 -41.109375 9.967002
46.600000 -40.046875 9.967002
44.975000 -35.781250 9.967002
45.400000 -34.609375 9.967002
45.475000 -33.781250 9.967002
46.775000 -40.843750 10.136001
46.500000 -39.578125 10.136001
46.150000 -38.375000 10.136001
45.425000 -37.406250 10.136001
45.200000 -36.406250 10.136001
45.325000 -35.375000 10.136001
45.450000 -34.062500 10.136001
46.825000 -42.125000 10.297999
46.900000 -41.078125 10.297999
46.650000 -40.109375 10.297999
46.600000 -38.875000 10.297999
47.175000 -37.968750 10.297999
44.925000 -35.734375 10.297999
45.200000 -34.625000 10.297999
45.600000 -33.578125 10.297999
46.825000 -41.859375 10.468001
46.775000 -40.703125 10.468001
46.625000 -39.687500 10.468001
46.475000 -38.531250 10.468001
46.425000 -37.828125 10.468001
46.000000 -36.546875 10.468001
45.275000 -35.593750 10.468001
45.250000 -34.203125 10.468001
45.925000 -33.234375 10.468001
46.850000 -40.937500 10.652000
46.725000 -39.625000 10.652000
46.600000 -38.671875 10.652000
46.450000 -37.468750 10.652000
45.875000 -36.500000 10.652000
45.325000 -35.281250 10.652000
46.825000 -40.625000 10.812999
46.775000 -39.640625 10.812999
47.050000 -38.468750 10.812999
45.650000 -36.062500 10.812999
45.600000 -35.234375 10.812999
45.675000 -33.906250 10.812999
46.900000 -40.562500 10.985999
46.750000 -39.390625 10.985999
47.100000 -38.375000 10.985999
45.650000 -36.093750 10.985999
45.600000 -35.109375 10.985999
45.850000 -33.984375 10.985999
47.300000 -41.265625 11.163000
47.050000 -40.203125 11.163000
47.125000 -39.031250 11.163000
47.500000 -38.078125 11.163000
45.675000 -35.687500 11.163000
45.550000 -34.718750 11.163000
45.950000 -33.625000 11.163000
47.525000 -40.875000 11.326001
47.200000 -39.656250 11.326001
47.350000 -38.562500 11.326001
47.825000 -37.781250 11.326001
45.775000 -35.437500 11.326001
45.825000 -34.343750 11.326001
46.425000 -33.109375 11.326001
47.425000 -40.484375 11.508999
47.300000 -39.375000 11.508999
47.500000 -38.265625 11.508999
47.825000 -37.375000 11.508999
45.875000 -35.093750 11.508999
47.375000 -39.812500 11.672000
47.375000 -38.531250 11.672000
47.750000 -37.734375 11.672000
45.975000 -35.109375 11.672000
45.950000 -34.093750 11.672000
46.525000 -33.281250 11.672000
46.800000 -49.781250 11.847999
47.700000 -40.187500 11.847999
47.600000 -39.125000 11.847999
47.650000 -38.156250 11.847999
47.925000 -37.109375 11.847999
46.100000 -35.000000 11.847999
47.550000 -39.718750 12.021000
47.725000 -38.765625 12.021000
48.000000 -37.375000 12.021000
47.575000 -36.328125 12.021000
46.575000 -35.156250 12.021000
46.225000 -34.062500 12.021000
46.650000 -33.281250 12.021000
48.075000 -40.468750 12.195000
47.825000 -39.328125 12.195000
47.800000 -38.468750 12.195000
48.200000 -37.437500 12.195000
46.425000 -34.875000 12.195000
46.325000 -33.828125 12.195000
46.900000 -33.046875 12.195000
47.275000 -49.953125 12.359999
47.600000 -41.453125 12.359999
47.700000 -40.375000 12.359999
47.700000 -39.296875 12.359999
47.975000 -38.203125 12.359999
47.925000 -36.984375 12.359999
47.125000 -35.843750 12.359999
46.350000 -34.703125 12.359999
46.350000 -33.578125 12.359999
47.075000 -32.859375 12.359999
47.075000 -40.796875 12.528999
47.650000 -39.812500 12.528999
47.850000 -38.890625 12.528999
48.050000 -37.703125 12.528999
48.450000 -36.625000 12.528999
46.475000 -34.281250 12.528999
46.475000 -49.750000 12.705999
47.900000 -40.218750 12.705999
47.700000 -39.250000 12.705999
47.950000 -38.296875 12.705999
48.350000 -37.171875 12.705999
48.150000 -36.234375 12.705999
47.100000 -34.812500 12.705999
46.550000 -33.703125 12.705999
46.975000 -32.984375 12.705999
47.650000 -39.718750 12.880001
47.900000 -38.781250 12.880001
48.150000 -37.750000 12.880001
48.675000 -36.515625 12.880001
46.600000 -34.328125 12.880001
47.150000 -40.968750 13.049001
47.700000 -39.984375 13.049001
47.825000 -38.984375 13.049001
48.175000 -37.843750 13.049001
48.100000 -36.750000 13.049001
47.300000 -35.640625 13.049001
46.625000 -34.625000 13.049001
46.625000 -33.531250 13.049001
47.275000 -32.234375 13.049001
47.100000 -41.000000 13.218000
47.950000 -40.140625 13.218000
48.025000 -39.046875 13.218000
48.075000 -38.078125 13.218000
47.700000 -36.765625 13.218000
47.200000 -35.593750 13.218000
46.875000 -34.484375 13.218000
46.700000 -33.500000 13.218000
47.175000 -32.406250 13.218000
47.725000 -40.234375 13.386999
47.775000 -38.984375 13.386999
47.950000 -37.953125 13.386999
47.825000 -36.843750 13.386999
48.225000 -35.937500 13.386999
46.850000 -33.546875 13.386999
47.175000 -32.484375 13.386999
47.650000 -39.390625 13.561999
47.725000 -38.406250 13.561999
48.025000 -37.437500 13.561999
48.875000 -36.468750 13.561999
46.975000 -33.968750 13.561999
47.100000 -33.125000 13.561999
47.750000 -32.062500 13.561999
47.700000 -49.921875 13.737999
47.725000 -40.140625 13.737999
47.725000 -39.046875 13.737999
47.925000 -37.937500 13.737999
47.425000 -34.531250 13.737999
46.850000 -33.718750 13.737999
47.175000 -32.578125 13.737999
47.625000 -39.609375 13.915000
47.700000 -38.546875 13.915000
48.100000 -37.609375 13.915000
48.650000 -36.484375 13.915000
46.975000 -33.953125 13.915000
47.075000 -32.921875 13.915000
47.600000 -32.000000 13.915000
47.500000 -39.375000 14.077999
47.575000 -38.484375 14.077999
48.075000 -37.468750 14.077999
48.650000 -36.375000 14.077999
46.975000 -34.093750 14.077999
47.075000 -33.203125 14.077999
47.600000 -32.062500 14.077999
48.300000 -40.390625 14.250000
47.875000 -39.390625 14.250000
47.450000 -38.343750 14.250000
47.850000 -34.968750 14.250000
48.425000 -34.125000 14.250000
48.550000 -33.000000 14.250000
48.275000 -31.984375 14.250000
47.275000 -39.859375 14.421000
47.050000 -38.500000 14.421000
47.675000 -37.593750 14.421000
47.625000 -36.359375 14.421000
47.250000 -35.406250 14.421000
47.200000 -34.156250 14.421000
47.050000 -33.390625 14.421000
47.450000 -32.312500 14.421000
47.125000 -49.890625 14.592999
47.650000 -41.171875 14.592999
47.625000 -40.218750 14.592999
46.900000 -39.062500 14.592999
46.925000 -34.703125 14.592999
47.125000 -33.750000 14.592999
47.700000 -40.453125 14.761000
46.850000 -39.484375 14.761000
47.225000 -33.843750 14.761000
46.975000 -39.453125 14.931999
47.250000 -36.312500 14.931999
47.725000 -35.390625 14.931999
47.300000 -34.218750 14.931999
47.200000 -33.156250 14.931999
48.025000 -32.125000 14.931999
47.325000 -49.796875 15.109000
47.650000 -41.281250 15.109000
47.400000 -40.265625 15.109000
46.650000 -38.875000 15.109000
47.275000 -33.609375 15.109000
47.475000 -32.765625 15.109000
47.675000 -40.609375 15.280998
46.825000 -39.218750 15.280998
47.375000 -34.046875 15.280998
47.425000 -32.984375 15.280998
46.950000 -49.953125 15.454999
47.500000 -40.140625 15.454999
46.800000 -39.343750 15.454999
47.375000 -34.031250 15.454999
47.425000 -32.671875 15.454999
47.075000 -41.109375 15.623999
47.275000 -39.937500 15.623999
46.800000 -38.765625 15.623999
47.225000 -37.906250 15.623999
48.300000 -36.968750 15.623999
49.400000 -35.765625 15.623999
47.300000 -33.625000 15.623999
47.825000 -32.406250 15.623999
47.650000 -40.328125 15.791999
47.150000 -39.328125 15.791999
47.225000 -38.359375 15.791999
48.000000 -37.328125 15.791999
49.175000 -36.312500 15.791999
47.375000 -33.781250 15.791999
47.575000 -32.937500 15.791999
47.900000 -40.718750 15.973000
47.375000 -39.437500 15.973000
47.400000 -38.296875 15.973000
47.900000 -37.468750 15.973000
49.000000 -36.468750 15.973000
47.400000 -34.015625 15.973000
47.525000 -33.171875 15.973000
47.025000 -49.843750 16.139999
47.400000 -41.296875 16.139999
47.675000 -40.328125 16.139999
47.500000 -39.031250 16.139999
47.575000 -37.984375 16.139999
47.550000 -34.781250 16.139999
47.375000 -34.000000 16.139999
47.900000 -49.921875 16.339002
48.175000 -41.031250 16.339002
47.650000 -40.109375 16.339002
47.500000 -39.125000 16.339002
47.725000 -38.015625 16.339002
47.625000 -34.734375 16.339002
47.325000 -33.843750 16.339002
47.150000 -41.000000 16.488999
47.725000 -40.218750 16.488999
47.775000 -39.109375 16.488999
47.875000 -37.812500 16.488999
47.625000 -34.906250 16.488999
47.325000 -33.515625 16.488999
47.075000 -40.828125 16.653999
47.650000 -39.765625 16.653999
47.800000 -38.812500 16.653999
48.025000 -37.671875 16.653999
48.850000 -36.609375 16.653999
47.800000 -40.859375 16.832000
47.675000 -39.718750 16.832000
47.775000 -38.625000 16.832000
47.525000 -34.140625 16.832000
46.750000 -49.984375 17.008999
47.750000 -40.312500 17.008999
47.850000 -39.406250 17.008999
47.925000 -38.078125 17.008999
48.375000 -37.125000 17.008999
47.700000 -49.984375 17.171999
47.675000 -39.953125 17.171999
47.750000 -38.968750 17.171999
47.900000 -37.953125 17.171999
48.475000 -37.078125 17.171999
47.875000 -40.453125 17.348000
47.725000 -39.578125 17.348000
47.875000 -38.500000 17.348000
48.200000 -37.406250 17.348000
46.950000 -34.171875 17.348000
47.925000 -40.671875 17.514999
47.625000 -39.562500 17.514999
47.750000 -38.468750 17.514999
47.225000 -35.218750 17.514999
46.900000 -34.062500 17.514999
47.675000 -49.734375 17.689000
47.825000 -41.312500 17.689000
47.550000 -39.984375 17.689000
47.725000 -38.921875 17.689000
47.900000 -38.046875 17.689000
48.475000 -37.171875 17.689000
46.525000 -49.953125 17.860999
47.525000 -40.296875 17.860999
47.450000 -39.406250 17.860999
47.750000 -38.171875 17.860999
48.300000 -37.312500 17.860999
47.700000 -49.750000 18.034000
47.825000 -41.218750 18.034000
47.400000 -39.937500 18.034000
47.550000 -39.203125 18.034000
47.875000 -37.812500 18.034000
48.475000 -37.093750 18.034000
46.450000 -34.765625 18.034000
47.850000 -49.718750 18.206000
47.850000 -41.140625 18.206000
47.275000 -39.890625 18.206000
47.425000 -39.109375 18.206000
47.725000 -38.109375 18.206000
48.475000 -36.953125 18.206000
46.275000 -34.718750 18.206000
47.025000 -49.875000 18.379999
47.075000 -41.421875 18.379999
47.050000 -40.109375 18.379999
47.150000 -39.031250 18.379999
47.625000 -38.031250 18.379999
48.350000 -37.281250 18.379999
45.950000 -34.906250 18.379999
47.350000 -49.703125 18.548999
47.350000 -41.406250 18.548999
46.950000 -40.187500 18.548999
47.100000 -39.187500 18.548999
47.575000 -38.015625 18.548999
47.725000 -36.828125 18.548999
45.925000 -34.609375 18.548999
46.850000 -40.593750 18.718001
46.750000 -39.640625 18.718001
47.100000 -38.640625 18.718001
47.675000 -37.625000 18.718001
45.575000 -35.156250 18.718001
45.800000 -34.234375 18.718001
46.650000 -40.421875 18.893999
46.900000 -39.328125 18.893999
47.275000 -38.265625 18.893999
45.500000 -35.796875 18.893999
45.475000 -34.796875 18.893999
46.100000 -33.890625 18.893999
47.875000 -49.796875 19.067000
47.825000 -42.343750 19.067000
46.850000 -40.937500 19.067000
46.600000 -39.921875 19.067000
46.675000 -39.015625 19.067000
47.100000 -37.843750 19.067000
45.375000 -35.640625 19.067000
45.475000 -34.718750 19.067000
46.750000 -42.156250 19.239998
46.800000 -40.859375 19.239998
46.725000 -39.875000 19.239998
46.750000 -38.796875 19.239998
46.300000 -37.546875 19.239998
45.625000 -36.718750 19.239998
45.250000 -35.531250 19.239998
45.400000 -34.218750 19.239998
46.750000 -42.046875 19.409001
46.800000 -41.125000 19.409001
46.600000 -40.015625 19.409001
46.600000 -38.890625 19.409001
46.500000 -37.609375 19.409001
45.100000 -35.515625 19.409001
45.300000 -34.375000 19.409001
46.600000 -40.531250 19.575999
46.500000 -39.750000 19.575999
46.375000 -38.562500 19.575999
45.200000 -36.421875 19.575999
45.375000 -35.031250 19.575999
45.325000 -34.281250 19.575999
46.800000 -42.062500 19.754999
46.700000 -40.718750 19.754999
46.475000 -40.000000 19.754999
46.075000 -38.671875 19.754999
45.250000 -37.562500 19.754999
44.850000 -36.625000 19.754999
44.975000 -35.312500 19.754999
45.350000 -34.515625 19.754999
46.700000 -42.000000 19.922000
46.700000 -40.984375 19.922000
46.575000 -39.812500 19.922000
46.050000 -38.781250 19.922000
45.225000 -37.375000 19.922000
46.825000 -40.781250 20.094998
46.525000 -39.453125 20.094998
46.225000 -38.343750 20.094998
45.550000 -37.406250 20.094998
45.300000 -34.156250 20.094998
46.875000 -41.171875 20.265999
46.550000 -40.421875 20.265999
46.525000 -39.140625 20.265999
44.900000 -34.765625 20.265999
45.425000 -33.937500 20.265999
46.825000 -49.828125 20.437999
46.900000 -41.140625 20.437999
46.550000 -40.343750 20.437999
46.425000 -39.171875 20.437999
45.900000 -38.125000 20.437999
45.300000 -34.640625 20.437999
45.425000 -33.671875 20.437999
46.775000 -41.968750 20.608001
46.825000 -40.875000 20.608001
46.550000 -39.687500 20.608001
46.050000 -38.890625 20.608001
44.950000 -37.640625 20.608001
15.125000 -41.437500 20.777999
15.050000 -40.375000 20.777999
46.850000 -41.015625 20.777999
46.575000 -39.953125 20.777999
44.850000 -35.546875 20.777999
45.350000 -34.500000 20.777999
45.525000 -33.546875 20.777999
46.575000 -49.859375 20.954000
47.050000 -41.531250 20.954000
46.550000 -40.375000 20.954000
46.550000 -39.375000 20.954000
46.900000 -38.328125 20.954000
45.125000 -35.875000 20.954000
45.275000 -34.906250 20.954000
45.350000 -33.828125 20.954000
46.600000 -40.453125 21.125000
46.500000 -39.406250 21.125000
46.575000 -38.562500 21.125000
45.950000 -37.250000 21.125000
45.475000 -36.187500 21.125000
45.400000 -35.000000 21.125000
45.350000 -34.187500 21.125000
46.825000 -42.265625 21.299999
46.850000 -41.171875 21.299999
46.600000 -39.812500 21.299999
46.550000 -38.953125 21.299999
46.975000 -37.812500 21.299999
45.250000 -35.625000 21.299999
45.325000 -34.671875 21.299999
45.775000 -33.375000 21.299999
46.825000 -40.562500 21.469000
46.625000 -39.609375 21.469000
46.825000 -38.515625 21.469000
45.525000 -36.156250 21.469000
45.300000 -35.078125 21.469000
45.375000 -34.265625 21.469000
46.825000 -40.687500 21.641999
46.700000 -39.500000 21.641999
46.700000 -38.734375 21.641999
46.550000 -37.578125 21.641999
46.075000 -36.531250 21.641999
45.575000 -35.218750 21.641999
46.825000 -40.515625 21.811000
46.825000 -39.343750 21.811000
47.175000 -38.437500 21.811000
46.725000 -37.250000 21.811000
45.775000 -36.015625 21.811000
45.550000 -34.921875 21.811000
45.750000 -34.015625 21.811000
47.125000 -41.906250 21.985999
47.225000 -40.734375 21.985999
46.875000 -39.781250 21.985999
47.125000 -38.859375 21.985999
47.850000 -37.796875 21.985999
45.575000 -35.453125 21.985999
45.625000 -34.296875 21.985999
46.275000 -33.421875 21.985999
47.250000 -42.171875 22.161000
47.500000 -40.750000 22.161000
46.975000 -39.750000 22.161000
47.150000 -38.921875 22.161000
47.850000 -37.734375 22.161000
45.675000 -35.390625 22.161000
45.800000 -34.328125 22.161000
46.325000 -33.437500 22.161000
47.350000 -40.640625 22.333999
47.250000 -39.437500 22.333999
47.500000 -38.468750 22.333999
47.800000 -37.234375 22.333999
45.750000 -35.062500 22.333999
47.550000 -40.312500 22.500998
47.475000 -39.187500 22.500998
47.575000 -38.171875 22.500998
47.950000 -37.015625 22.500998
45.925000 -34.953125 22.500998
46.150000 -33.984375 22.500998
47.800000 -40.578125 22.671000
47.600000 -39.281250 22.671000
47.625000 -38.171875 22.671000
47.950000 -37.375000 22.671000
46.050000 -34.859375 22.671000
47.850000 -40.500000 22.846000
47.600000 -39.437500 22.846000
47.825000 -38.546875 22.846000
48.150000 -37.421875 22.846000
46.250000 -35.015625 22.846000
46.200000 -34.109375 22.846000
46.775000 -33.109375 22.846000
47.025000 -41.078125 23.015999
47.550000 -39.953125 23.015999
47.650000 -38.937500 23.015999
47.925000 -37.984375 23.015999
48.350000 -36.750000 23.015999
46.225000 -34.375000 23.015999
46.475000 -33.343750 23.015999
48.250000 -40.343750 23.190030
48.450000 -39.390625 23.190030
49.100000 -38.328125 23.190030
49.025000 -36.921875 23.190030
46.400000 -34.750000 23.190030
46.500000 -33.843750 23.190030
47.200000 -32.640625 23.190030
47.025000 -49.718750 23.355999
47.425000 -41.453125 23.355999
47.825000 -40.390625 23.355999
47.725000 -39.359375 23.355999
48.000000 -38.171875 23.355999
47.925000 -36.921875 23.355999
47.275000 -35.812500 23.355999
46.575000 -34.656250 23.355999
46.475000 -33.718750 23.355999
47.150000 -32.734375 23.355999
46.475000 -49.890625 23.527999
47.850000 -39.546875 23.527999
47.825000 -38.531250 23.527999
47.250000 -35.218750 23.527999
46.550000 -34.265625 23.527999
46.875000 -33.015625 23.527999
47.100000 -41.000000 23.698999
47.575000 -40.078125 23.698999
47.800000 -38.843750 23.698999
48.075000 -37.796875 23.698999
48.025000 -36.765625 23.698999
47.300000 -35.500000 23.698999
46.575000 -34.609375 23.698999
46.600000 -33.500000 23.698999
47.325000 -32.421875 23.698999
47.700000 -39.640625 23.870000
47.825000 -38.531250 23.870000
48.150000 -37.453125 23.870000
49.075000 -36.375000 23.870000
46.675000 -34.234375 23.870000
46.975000 -33.218750 23.870000
47.050000 -40.890625 24.042001
47.725000 -40.140625 24.042001
47.900000 -39.015625 24.042001
48.150000 -38.000000 24.042001
47.875000 -36.828125 24.042001
47.300000 -35.609375 24.042001
46.825000 -34.359375 24.042001
46.625000 -33.453125 24.042001
47.225000 -32.437500 24.042001
47.075000 -41.062500 24.223999
47.725000 -39.890625 24.223999
47.900000 -38.718750 24.223999
48.125000 -37.968750 24.223999
47.750000 -36.546875 24.223999
47.200000 -35.671875 24.223999
46.850000 -34.343750 24.223999
46.625000 -33.250000 24.223999
47.200000 -32.500000 24.223999
47.700000 -39.750000 24.388000
47.800000 -38.640625 24.388000
48.175000 -37.562500 24.388000
48.250000 -36.437500 24.388000
47.625000 -35.265625 24.388000
46.925000 -34.406250 24.388000
46.900000 -33.234375 24.388000
47.475000 -32.328125 24.388000
47.225000 -41.093750 24.559999
47.725000 -39.890625 24.559999
47.775000 -38.750000 24.559999
48.100000 -37.875000 24.559999
47.550000 -36.515625 24.559999
47.150000 -35.750000 24.559999
47.100000 -34.640625 24.559999
46.775000 -33.281250 24.559999
47.200000 -32.328125 24.559999
47.675000 -39.453125 24.736999
47.700000 -38.421875 24.736999
48.050000 -37.359375 24.736999
48.575000 -36.468750 24.736999
47.000000 -34.234375 24.736999
47.100000 -33.250000 24.736999
47.625000 -32.031250 24.736999
47.175000 -41.125000 24.910999
47.625000 -39.921875 24.910999
47.450000 -39.031250 24.910999
47.750000 -37.828125 24.910999
47.400000 -34.734375 24.910999
47.000000 -33.515625 24.910999
47.400000 -32.390625 24.910999
46.875000 -49.921875 25.081000
47.425000 -41.484375 25.081000
47.800000 -40.140625 25.081000
47.325000 -39.359375 25.081000
47.475000 -38.015625 25.081000
47.350000 -34.750000 25.081000
46.975000 -33.843750 25.081000
47.150000 -32.875000 25.081000
47.950000 -31.718750 25.081000
47.750000 -40.468750 25.249000
47.150000 -39.484375 25.249000
47.200000 -38.343750 25.249000
47.900000 -37.218750 25.249000
48.900000 -36.281250 25.249000
47.100000 -33.890625 25.249000
47.125000 -33.125000 25.249000
47.675000 -32.109375 25.249000
47.125000 -41.015625 25.424000
47.350000 -39.937500 25.424000
46.900000 -39.046875 25.424000
47.325000 -37.843750 25.424000
47.500000 -34.546875 25.424000
47.150000 -33.609375 25.424000
47.150000 -49.859375 25.590000
47.650000 -41.250000 25.590000
47.600000 -40.171875 25.590000
46.750000 -39.156250 25.590000
46.725000 -34.796875 25.590000
46.975000 -33.890625 25.590000
47.100000 -41.187500 25.763999
47.350000 -39.937500 25.763999
46.625000 -38.765625 25.763999
46.700000 -34.734375 25.763999
47.125000 -33.734375 25.763999
47.425000 -32.500000 25.763999
47.325000 -49.843750 25.931999
47.750000 -41.468750 25.931999
47.475000 -40.171875 25.931999
46.675000 -38.984375 25.931999
46.850000 -34.671875 25.931999
47.275000 -33.734375 25.931999
47.450000 -32.734375 25.931999
46.975000 -39.734375 26.109999
47.325000 -36.531250 26.109999
47.850000 -35.515625 26.109999
47.450000 -34.296875 26.109999
47.875000 -40.546875 26.276999
46.950000 -39.625000 26.276999
48.250000 -35.046875 26.276999
47.425000 -34.078125 26.276999
47.375000 -33.234375 26.276999
46.575000 -49.890625 26.450999
47.575000 -40.250000 26.450999
46.825000 -39.125000 26.450999
47.375000 -34.062500 26.450999
47.550000 -32.718750 26.450999
47.050000 -41.078125 26.620999
47.400000 -40.140625 26.620999
47.025000 -39.015625 26.620999
47.325000 -37.796875 26.620999
48.325000 -36.828125 26.620999
49.550000 -35.796875 26.620999
47.250000 -33.546875 26.620999
47.900000 -32.578125 26.620999
47.250000 -39.687500 26.791999
47.300000 -38.500000 26.791999
47.825000 -37.593750 26.791999
48.850000 -36.312500 26.791999
48.725000 -35.218750 26.791999
47.650000 -34.234375 26.791999
47.475000 -33.109375 26.791999
47.100000 -41.062500 26.966999
47.500000 -39.921875 26.966999
47.450000 -38.921875 26.966999
47.750000 -37.796875 26.966999
47.675000 -34.609375 26.966999
47.400000 -33.609375 26.966999
46.775000 -49.796875 27.140000
47.675000 -40.187500 27.140000
47.450000 -39.234375 27.140000
47.550000 -38.250000 27.140000
47.500000 -35.156250 27.140000
47.375000 -34.093750 27.140000
47.475000 -41.328125 27.310999
47.825000 -40.250000 27.310999
47.725000 -39.062500 27.310999
47.700000 -38.296875 27.310999
47.500000 -34.859375 27.310999
47.300000 -33.890625 27.310999
47.675000 -39.640625 27.481000
47.725000 -38.609375 27.481000
47.500000 -34.296875 27.481000
47.750000 -40.687500 27.652999
47.700000 -39.593750 27.652999
47.800000 -38.687500 27.652999
47.550000 -34.093750 27.652999
47.625000 -39.671875 27.823999
47.700000 -38.796875 27.823999
47.500000 -34.328125 27.823999
47.850000 -49.859375 27.994999
48.050000 -41.187500 27.994999
47.650000 -40.203125 27.994999
47.725000 -38.968750 27.994999
47.925000 -37.984375 27.994999
48.475000 -37.015625 27.994999
47.125000 -40.828125 28.166999
47.650000 -39.765625 28.166999
47.725000 -38.812500 28.166999
48.075000 -37.578125 28.166999
48.925000 -36.640625 28.166999
47.700000 -49.640625 28.337999
47.875000 -41.312500 28.337999
47.625000 -40.156250 28.337999
47.825000 -38.937500 28.337999
48.025000 -38.125000 28.337999
48.500000 -36.859375 28.337999
47.800000 -49.890625 28.508999
48.000000 -41.296875 28.508999
47.575000 -39.890625 28.508999
47.775000 -39.015625 28.508999
48.025000 -37.859375 28.508999
48.525000 -36.859375 28.508999
46.925000 -41.031250 28.682999
47.400000 -39.843750 28.682999
47.600000 -39.000000 28.682999
47.950000 -38.078125 28.682999
48.550000 -36.906250 28.682999
46.550000 -34.671875 28.682999
47.575000 -49.953125 28.858999
47.725000 -41.078125 28.858999
47.525000 -39.984375 28.858999
47.600000 -39.203125 28.858999
47.875000 -37.937500 28.858999
48.525000 -37.187500 28.858999
46.400000 -34.750000 28.858999
47.475000 -40.812500 29.032000
47.175000 -39.796875 29.032000
47.500000 -38.781250 29.032000
48.025000 -37.687500 29.032000
48.950000 -36.500000 29.032000
46.450000 -34.218750 29.032000
47.600000 -41.015625 29.197999
47.300000 -40.062500 29.197999
47.475000 -38.796875 29.197999
47.775000 -37.734375 29.197999
48.400000 -36.812500 29.197999
46.150000 -34.500000 29.197999
47.100000 -41.984375 29.366999
47.250000 -40.890625 29.366999
46.875000 -39.921875 29.366999
47.200000 -38.953125 29.366999
47.750000 -37.984375 29.366999
47.525000 -36.781250 29.366999
46.425000 -35.531250 29.366999
46.000000 -34.593750 29.366999
46.950000 -42.203125 29.544999
47.075000 -40.750000 29.544999
46.850000 -39.687500 29.544999
47.150000 -38.671875 29.544999
47.725000 -37.734375 29.544999
45.725000 -35.562500 29.544999
45.875000 -34.343750 29.544999
47.575000 -49.828125 29.715999
47.550000 -42.437500 29.715999
46.875000 -40.984375 29.715999
46.675000 -40.218750 29.715999
46.950000 -38.968750 29.715999
47.400000 -37.890625 29.715999
45.550000 -35.578125 29.715999
45.625000 -34.562500 29.715999
46.675000 -40.734375 29.887999
46.700000 -39.515625 29.887999
47.000000 -38.593750 29.887999
46.850000 -37.281250 29.887999
45.950000 -36.234375 29.887999
45.525000 -35.187500 29.887999
45.700000 -34.187500 29.887999
