30.200000 -20.392578 12.884082
30.100000 -19.112305 12.884082
30.100000 -18.957031 12.884082
30.100000 -18.051758 12.884082
30.300000 -17.271484 12.884082
30.600000 -16.491211 12.884082
31.100000 -15.960938 12.884082
30.800000 -28.275391 13.028623
30.500000 -27.620117 13.028623
30.500000 -26.589844 13.028623
30.500000 -25.684570 13.028623
30.600000 -25.779297 13.028623
30.800000 -24.624023 13.028623
31.000000 -24.343750 13.028623
31.100000 -23.438477 13.028623
31.200000 -22.783203 13.028623
31.400000 -22.627930 13.028623
31.200000 -21.472656 13.028623
30.500000 -20.692383 13.028623
30.200000 -20.412109 13.028623
30.100000 -19.381836 13.028623
30.100000 -18.976562 13.028623
30.100000 -18.571289 13.028623
30.200000 -17.916016 13.028623
30.400000 -17.010742 13.028623
30.800000 -16.355469 13.028623
31.200000 -28.708984 13.176559
30.700000 -27.549805 13.176559
30.500000 -27.015625 13.176559
30.400000 -26.231445 13.176559
30.500000 -26.322266 13.176559
30.700000 -25.163086 13.176559
30.900000 -24.753906 13.176559
30.900000 -23.719727 13.176559
31.000000 -23.310547 13.176559
31.200000 -23.026367 13.176559
31.300000 -21.992188 13.176559
30.900000 -21.083008 13.176559
30.300000 -20.173828 13.176559
30.100000 -20.139648 13.176559
30.100000 -19.230469 13.176559
30.100000 -18.446289 13.176559
30.100000 -18.037109 13.176559
30.300000 -17.502930 13.176559
30.500000 -16.718750 13.176559
31.000000 -15.815430 13.176559
30.600000 -28.134766 13.318474
30.500000 -27.475098 13.318474
30.500000 -26.190430 13.318474
30.500000 -26.030762 13.318474
30.600000 -25.496094 13.318474
30.800000 -24.836426 13.318474
30.900000 -23.801758 13.318474
31.000000 -23.017090 13.318474
31.300000 -22.482422 13.318474
31.100000 -21.697754 13.318474
30.500000 -21.038086 13.318474
30.100000 -20.753418 13.318474
30.000000 -19.343750 13.318474
30.000000 -18.686523 13.318474
30.000000 -18.904297 13.318474
30.100000 -17.872070 13.318474
30.300000 -17.089844 13.318474
30.700000 -28.140625 13.443982
30.500000 -27.482422 13.443982
30.500000 -27.199219 13.443982
30.400000 -26.041016 13.443982
30.500000 -25.757812 13.443982
30.700000 -25.099609 13.443982
30.800000 -23.941406 13.443982
30.900000 -23.783203 13.443982
31.100000 -23.375000 13.443982
31.200000 -22.095215 13.443982
30.800000 -21.565430 13.443982
30.200000 -20.660645 13.443982
30.000000 -20.130859 13.443982
30.000000 -19.601074 13.443982
30.000000 -18.571289 13.443982
30.000000 -18.166504 13.443982
30.100000 -17.136719 13.443982
30.300000 -16.481934 13.443982
30.700000 -16.452148 13.443982
30.500000 -28.044434 13.586847
30.400000 -27.633789 13.586847
30.400000 -26.848145 13.586847
30.400000 -26.187500 13.586847
30.500000 -25.657715 13.586847
30.800000 -24.877930 13.586847
30.800000 -23.973145 13.586847
30.800000 -23.443359 13.586847
31.100000 -22.788574 13.586847
31.000000 -22.383789 13.586847
30.500000 -21.229004 13.586847
30.000000 -20.949219 13.586847
29.900000 -20.169434 13.586847
29.900000 -18.889648 13.586847
29.900000 -18.359863 13.586847
30.000000 -17.830078 13.586847
30.200000 -17.425293 13.586847
30.400000 -17.020508 13.586847
30.900000 -16.490723 13.586847
30.500000 -27.591797 13.738102
30.400000 -27.309570 13.738102
30.400000 -27.027344 13.738102
30.400000 -26.370117 13.738102
30.500000 -25.087891 13.738102
30.700000 -24.930664 13.738102
30.800000 -24.523438 13.738102
30.800000 -23.491211 13.738102
31.100000 -22.708984 13.738102
31.000000 -21.676758 13.738102
30.500000 -21.144531 13.738102
30.000000 -20.612305 13.738102
29.900000 -19.455078 13.738102
29.900000 -19.047852 13.738102
29.900000 -18.515625 13.738102
30.000000 -17.983398 13.738102
30.200000 -17.201172 13.738102
30.400000 -16.418945 13.738102
30.800000 -15.761719 13.738102
30.500000 -27.411621 13.864716
30.400000 -26.753906 13.864716
30.400000 -26.096191 13.864716
30.400000 -25.688477 13.864716
30.600000 -24.655762 13.864716
30.700000 -23.873047 13.864716
30.800000 -23.215332 13.864716
31.000000 -23.307617 13.864716
31.000000 -22.149902 13.864716
30.500000 -21.992188 13.864716
30.100000 -20.334473 13.864716
29.900000 -20.426758 13.864716
29.900000 -19.144043 13.864716
29.900000 -18.986328 13.864716
30.000000 -18.453613 13.864716
30.100000 -17.170898 13.864716
30.300000 -17.013184 13.864716
30.700000 -16.730469 13.864716
30.600000 -27.432617 14.020331
30.500000 -27.027344 14.020331
30.400000 -26.497070 14.020331
30.500000 -25.716797 14.020331
30.600000 -25.186523 14.020331
30.600000 -24.281250 14.020331
30.700000 -23.625977 14.020331
30.800000 -23.345703 14.020331
31.000000 -22.315430 14.020331
30.800000 -21.910156 14.020331
30.200000 -21.129883 14.020331
29.900000 -20.599609 14.020331
29.800000 -19.694336 14.020331
29.900000 -18.914062 14.020331
29.900000 -18.758789 14.020331
30.000000 -17.853516 14.020331
30.200000 -17.198242 14.020331
30.400000 -16.292969 14.020331
30.900000 -16.387695 14.020331
30.900000 -28.586914 14.151415
30.500000 -27.430176 14.151415
30.400000 -27.273438 14.151415
30.400000 -26.741699 14.151415
30.500000 -26.084961 14.151415
30.600000 -25.178223 14.151415
30.600000 -24.896484 14.151415
30.700000 -23.614746 14.151415
30.800000 -23.333008 14.151415
30.900000 -22.676270 14.151415
30.800000 -22.144531 14.151415
30.200000 -21.237793 14.151415
29.900000 -20.706055 14.151415
29.800000 -19.424316 14.151415
29.800000 -19.517578 14.151415
29.900000 -18.360840 14.151415
30.000000 -17.579102 14.151415
30.200000 -17.422363 14.151415
30.400000 -17.015625 14.151415
30.900000 -16.362793 14.151415
30.400000 -27.318359 14.299912
30.400000 -26.411621 14.299912
30.400000 -26.379883 14.299912
30.500000 -25.723145 14.299912
30.600000 -24.816406 14.299912
30.700000 -24.409668 14.299912
30.800000 -23.627930 14.299912
30.800000 -22.596191 14.299912
30.800000 -22.189453 14.299912
30.400000 -21.032715 14.299912
29.900000 -20.375977 14.299912
29.700000 -19.844238 14.299912
29.700000 -19.187500 14.299912
29.900000 -19.032715 14.299912
30.000000 -18.127930 14.299912
30.100000 -17.223145 14.299912
30.400000 -16.568359 14.299912
30.800000 -16.163574 14.299912
30.400000 -27.437500 14.440323
30.400000 -26.779297 14.440323
30.400000 -25.621094 14.440323
30.500000 -25.587891 14.440323
30.600000 -25.054688 14.440323
30.700000 -24.021484 14.440323
30.700000 -23.738281 14.440323
30.800000 -22.705078 14.440323
30.800000 -22.046875 14.440323
30.400000 -21.516113 14.440323
29.900000 -20.610352 14.440323
29.600000 -20.204590 14.440323
29.700000 -19.173828 14.440323
29.800000 -18.393066 14.440323
30.000000 -18.237305 14.440323
30.100000 -17.706543 14.440323
30.300000 -16.925781 14.440323
30.700000 -15.895020 14.440323
30.300000 -29.773438 14.566961
30.500000 -27.269531 14.566961
30.500000 -27.112305 14.566961
30.400000 -26.455078 14.566961
30.400000 -25.922852 14.566961
30.600000 -25.015625 14.566961
30.700000 -24.482910 14.566961
30.800000 -23.825195 14.566961
30.700000 -23.292480 14.566961
30.900000 -22.134766 14.566961
30.600000 -21.852051 14.566961
29.900000 -20.569336 14.566961
29.600000 -20.536621 14.566961
29.500000 -19.753906 14.566961
29.700000 -18.721191 14.566961
29.900000 -18.563477 14.566961
30.100000 -17.905762 14.566961
30.200000 -17.248047 14.566961
30.500000 -16.215332 14.566961
30.500000 -26.889648 14.709418
30.400000 -26.357422 14.709418
30.400000 -26.200195 14.709418
30.500000 -25.042969 14.709418
30.600000 -24.385742 14.709418
30.700000 -24.228516 14.709418
30.700000 -23.446289 14.709418
30.600000 -22.914062 14.709418
30.800000 -22.131836 14.709418
29.600000 -20.317383 14.709418
29.400000 -20.035156 14.709418
29.600000 -19.002930 14.709418
29.800000 -18.345703 14.709418
30.000000 -18.188477 14.709418
30.100000 -16.906250 14.709418
30.300000 -16.624023 14.709418
30.700000 -16.591797 14.709418
30.900000 -28.144531 14.846370
30.600000 -27.364258 14.846370
30.500000 -27.333984 14.846370
30.500000 -26.553711 14.846370
30.500000 -25.523438 14.846370
30.500000 -25.243164 14.846370
30.600000 -24.087891 14.846370
30.700000 -23.432617 14.846370
30.700000 -22.652344 14.846370
30.700000 -22.122070 14.846370
30.700000 -22.091797 14.846370
29.400000 -19.781250 14.846370
29.600000 -18.565430 14.846370
29.900000 -17.285156 14.846370
30.100000 -16.879883 14.846370
30.500000 -27.114258 14.999103
30.400000 -26.583496 14.999103
30.400000 -25.552734 14.999103
30.500000 -25.646973 14.999103
30.600000 -24.866211 14.999103
30.700000 -23.710449 14.999103
30.700000 -23.804688 14.999103
30.600000 -22.273926 14.999103
30.800000 -22.118164 14.999103
29.600000 -21.056641 14.999103
29.300000 -20.025879 14.999103
29.600000 -17.808594 14.999103
30.100000 -17.777832 14.999103
30.200000 -16.747070 14.999103
30.500000 -15.966309 14.999103
31.100000 -28.765137 15.138835
30.700000 -27.731445 15.138835
30.600000 -27.197754 15.138835
30.600000 -26.789062 15.138835
30.500000 -25.380371 15.138835
30.500000 -24.721680 15.138835
30.600000 -24.937988 15.138835
30.700000 -23.529297 15.138835
30.600000 -22.745605 15.138835
30.600000 -22.461914 15.138835
30.900000 -21.678223 15.138835
29.000000 -19.735840 15.138835
30.100000 -17.442383 15.138835
30.700000 -28.552734 15.277170
30.600000 -27.516602 15.277170
30.500000 -26.855469 15.277170
30.500000 -26.569336 15.277170
30.500000 -25.408203 15.277170
30.500000 -24.872070 15.277170
30.600000 -24.585938 15.277170
30.700000 -23.799805 15.277170
30.300000 -21.691406 15.277170
29.000000 -19.994141 15.277170
30.200000 -16.572266 15.277170
30.400000 -16.539062 15.277170
31.700000 -29.213379 15.416560
31.100000 -28.057617 15.416560
30.700000 -27.526855 15.416560
30.600000 -26.496094 15.416560
30.500000 -26.715332 15.416560
30.500000 -25.309570 15.416560
30.500000 -24.903809 15.416560
30.600000 -23.998047 15.416560
30.700000 -24.217285 15.416560
30.600000 -23.311523 15.416560
30.600000 -22.530762 15.416560
30.900000 -22.250000 15.416560
30.200000 -17.288086 15.416560
30.300000 -16.757812 15.416560
30.800000 -16.102539 15.416560
30.600000 -26.990234 15.556145
30.500000 -26.832520 15.556145
30.500000 -25.424805 15.556145
30.500000 -24.892090 15.556145
30.600000 -24.234375 15.556145
30.700000 -23.828125 15.556145
30.700000 -23.046875 15.556145
30.700000 -22.390625 15.556145
31.000000 -21.984375 15.556145
30.200000 -17.390625 15.556145
30.300000 -16.359375 15.556145
30.600000 -15.828125 15.556145
30.600000 -26.671875 15.694394
30.500000 -26.394531 15.694394
30.500000 -25.867188 15.694394
30.500000 -25.214844 15.694394
30.600000 -24.062500 15.694394
30.700000 -23.535156 15.694394
30.700000 -23.382812 15.694394
30.200000 -17.511719 15.694394
30.300000 -16.734375 15.694394
30.600000 -15.832031 15.694394
30.700000 -27.193359 15.834851
30.600000 -26.913574 15.834851
30.500000 -25.758789 15.834851
30.500000 -25.229004 15.834851
30.600000 -24.324219 15.834851
30.700000 -24.294434 15.834851
30.700000 -23.514648 15.834851
30.200000 -16.871582 15.834851
30.300000 -16.716797 15.834851
30.600000 -15.687012 15.834851
30.900000 -28.152344 15.975169
30.600000 -27.120605 15.975169
30.500000 -26.463867 15.975169
30.500000 -25.432129 15.975169
30.600000 -25.525391 15.975169
30.700000 -24.493652 15.975169
30.700000 -24.086914 15.975169
30.700000 -23.055176 15.975169
30.200000 -17.144531 15.975169
30.300000 -16.612793 15.975169
30.600000 -15.706055 15.975169
30.700000 -27.777832 16.115164
30.600000 -26.870117 16.115164
30.600000 -25.837402 16.115164
30.500000 -25.054688 16.115164
30.600000 -24.771973 16.115164
30.700000 -23.864258 16.115164
30.700000 -23.831543 16.115164
30.300000 -20.983398 16.115164
29.500000 -20.075684 16.115164
29.100000 -19.417969 16.115164
30.200000 -16.379395 16.115164
30.400000 -16.471680 16.115164
30.700000 -27.393555 16.254668
30.600000 -26.484863 16.254668
30.500000 -26.076172 16.254668
30.500000 -25.667480 16.254668
30.600000 -24.508789 16.254668
30.700000 -23.850098 16.254668
30.700000 -23.566406 16.254668
29.600000 -20.306641 16.254668
29.400000 -19.647949 16.254668
29.700000 -17.015625 16.254668
30.300000 -16.859375 16.254668
30.600000 -16.453125 16.254668
30.900000 -21.672363 16.396791
29.500000 -20.665527 16.533146
29.300000 -19.254883 16.533146
29.700000 -17.522949 16.533146
30.200000 -17.112305 16.533146
30.400000 -16.826660 16.533146
30.800000 -16.291016 16.533146
30.800000 -28.000000 16.675458
30.600000 -27.218750 16.675458
30.600000 -26.937500 16.675458
30.500000 -26.278809 16.675458
30.600000 -25.370117 16.675458
30.700000 -24.961426 16.675458
30.800000 -23.927734 16.675458
30.800000 -23.644043 16.675458
30.700000 -22.610352 16.675458
31.000000 -22.201660 16.675458
29.700000 -20.009277 16.675458
29.400000 -19.850586 16.675458
29.600000 -19.566895 16.675458
29.900000 -18.908203 16.675458
30.200000 -17.874512 16.675458
30.100000 -17.090820 16.675458
30.400000 -17.057129 16.675458
30.700000 -15.648438 16.675458
30.700000 -28.065430 16.816783
30.600000 -26.785156 16.816783
30.500000 -26.504883 16.816783
30.600000 -25.724609 16.816783
30.700000 -25.319336 16.816783
30.700000 -24.414062 16.816783
30.800000 -23.508789 16.816783
30.800000 -23.478516 16.816783
30.800000 -22.948242 16.816783
30.900000 -21.542969 16.816783
30.400000 -21.012695 16.816783
29.700000 -20.107422 16.816783
29.500000 -19.452148 16.816783
29.700000 -19.546875 16.816783
30.000000 -18.141602 16.816783
30.100000 -17.986328 16.816783
30.200000 -17.206055 16.816783
30.400000 -16.175781 16.816783
30.800000 -16.145508 16.816783
30.700000 -27.296875 16.957837
30.600000 -26.392578 16.957837
30.500000 -25.988281 16.957837
30.500000 -25.833984 16.957837
30.700000 -24.804688 16.957837
30.800000 -24.275391 16.957837
30.800000 -23.746094 16.957837
30.800000 -22.841797 16.957837
30.900000 -22.312500 16.957837
30.800000 -21.283203 16.957837
30.200000 -20.378906 16.957837
29.800000 -19.849609 16.957837
29.600000 -19.320312 16.957837
29.900000 -18.791016 16.957837
30.100000 -18.011719 16.957837
30.100000 -17.482422 16.957837
30.300000 -16.828125 16.957837
30.800000 -28.554688 17.096395
30.900000 -28.027344 17.096395
30.700000 -27.250000 17.096395
30.600000 -26.972656 17.096395
30.500000 -25.820312 17.096395
30.500000 -25.667969 17.096395
30.700000 -25.265625 17.096395
30.900000 -24.613281 17.096395
30.900000 -23.460938 17.096395
30.800000 -22.933594 17.096395
30.900000 -22.531250 17.096395
30.900000 -21.753906 17.096395
30.300000 -21.101562 17.096395
29.900000 -19.824219 17.096395
29.600000 -19.171875 17.096395
29.900000 -19.394531 17.096395
30.100000 -18.117188 17.096395
30.100000 -17.464844 17.096395
30.300000 -16.812500 17.096395
30.500000 -16.160156 17.096395
31.000000 -15.507812 17.096395
30.800000 -27.835938 17.249351
30.600000 -27.178223 17.249351
30.600000 -26.270508 17.249351
30.600000 -25.987793 17.249351
30.700000 -24.830078 17.249351
30.700000 -24.547363 17.249351
30.800000 -23.764648 17.249351
30.800000 -23.481934 17.249351
30.900000 -22.824219 17.249351
31.100000 -22.416504 17.249351
30.600000 -21.008789 17.249351
30.100000 -20.226074 17.249351
30.000000 -20.068359 17.249351
29.900000 -18.910645 17.249351
30.000000 -18.502930 17.249351
30.100000 -17.720215 17.249351
30.200000 -17.062500 17.249351
30.400000 -16.286621 17.249351
30.800000 -16.385742 17.249351
30.600000 -27.589355 17.387392
30.600000 -26.805664 17.387392
30.500000 -25.896973 17.387392
30.600000 -24.988281 17.387392
30.700000 -24.829590 17.387392
30.800000 -24.545898 17.387392
30.900000 -23.512207 17.387392
31.000000 -22.478516 17.387392
31.200000 -22.569824 17.387392
30.800000 -20.911133 17.387392
30.200000 -20.377441 17.387392
30.000000 -19.843750 17.387392
30.000000 -19.312012 17.387392
30.100000 -18.655273 17.387392
30.100000 -17.873535 17.387392
30.200000 -17.841797 17.387392
30.400000 -16.685059 17.387392
30.700000 -16.528320 17.387392
30.800000 -28.032715 17.525206
30.600000 -27.124023 17.525206
30.500000 -26.840332 17.525206
30.600000 -25.556641 17.525206
30.700000 -25.522949 17.525206
30.800000 -24.114258 17.525206
30.800000 -23.580566 17.525206
31.000000 -23.171875 17.525206
31.200000 -23.014160 17.525206
31.000000 -21.856445 17.525206
30.500000 -21.198730 17.525206
30.100000 -20.541016 17.525206
30.000000 -20.008301 17.525206
30.000000 -19.225586 17.525206
30.100000 -18.567871 17.525206
30.100000 -17.785156 17.525206
30.200000 -17.627441 17.525206
30.500000 -16.969727 17.525206
30.900000 -16.062012 17.525206
30.700000 -27.770508 17.663603
30.600000 -26.986816 17.663603
30.500000 -25.953125 17.663603
30.600000 -25.798340 17.663603
30.700000 -25.143555 17.663603
30.800000 -24.238770 17.663603
30.900000 -23.958984 17.663603
31.100000 -23.304199 17.663603
31.200000 -22.774414 17.663603
31.000000 -21.744629 17.663603
30.500000 -21.214844 17.663603
30.200000 -20.185059 17.663603
30.100000 -20.030273 17.663603
30.100000 -18.750488 17.663603
30.100000 -18.345703 17.663603
30.100000 -17.315918 17.663603
30.300000 -17.036133 17.663603
30.600000 -16.131348 17.663603
31.000000 -16.101562 17.663603
30.700000 -28.514648 17.803586
30.700000 -27.232910 17.803586
30.500000 -26.576172 17.803586
30.500000 -25.919434 17.803586
30.600000 -25.762695 17.803586
30.800000 -25.230957 17.803586
30.800000 -24.324219 17.803586
30.900000 -23.417480 17.803586
31.200000 -22.885742 17.803586
31.300000 -22.104004 17.803586
30.900000 -21.447266 17.803586
30.400000 -20.415527 17.803586
30.100000 -20.133789 17.803586
30.100000 -19.852051 17.803586
30.100000 -18.945312 17.803586
30.200000 -18.288574 17.803586
30.200000 -17.631836 17.803586
30.400000 -16.725098 17.803586
30.700000 -16.068359 17.803586
31.200000 -15.536621 17.803586
31.200000 -28.538086 17.942760
30.700000 -27.630371 17.942760
30.600000 -26.847656 17.942760
30.500000 -26.564941 17.942760
30.600000 -26.032227 17.942760
30.700000 -25.249512 17.942760
30.800000 -24.591797 17.942760
30.900000 -23.684082 17.942760
31.100000 -23.151367 17.942760
31.400000 -22.618652 17.942760
31.100000 -22.085938 17.942760
30.500000 -20.678223 17.942760
30.200000 -20.395508 17.942760
30.100000 -19.862793 17.942760
30.100000 -18.705078 17.942760
30.200000 -18.547363 17.942760
30.200000 -18.014648 17.942760
30.400000 -16.731934 17.942760
30.600000 -16.574219 17.942760
31.100000 -16.041504 17.942760
30.800000 -27.515137 18.084931
30.600000 -27.107422 18.084931
30.500000 -26.449707 18.084931
30.600000 -25.666992 18.084931
30.700000 -25.009277 18.084931
30.900000 -24.851562 18.084931
30.900000 -23.568848 18.084931
31.100000 -23.536133 18.084931
31.400000 -22.503418 18.084931
31.200000 -22.095703 18.084931
30.600000 -21.312988 18.084931
30.200000 -20.280273 18.084931
30.100000 -20.247559 18.084931
30.200000 -19.464844 18.084931
30.200000 -18.807129 18.084931
30.200000 -17.649414 18.084931
30.400000 -16.991699 18.084931
30.600000 -16.958984 18.084931
31.000000 -15.676270 18.084931
30.600000 -27.250000 18.222492
30.500000 -26.841797 18.222492
30.600000 -25.683594 18.222492
30.700000 -25.650391 18.222492
30.800000 -24.867188 18.222492
30.900000 -24.458984 18.222492
31.100000 -23.925781 18.222492
31.400000 -23.267578 18.222492
31.500000 -22.109375 18.222492
31.100000 -21.576172 18.222492
30.500000 -20.417969 18.222492
30.200000 -20.509766 18.222492
30.200000 -19.601562 18.222492
30.200000 -18.443359 18.222492
30.100000 -18.160156 18.222492
30.300000 -17.626953 18.222492
30.600000 -17.218750 18.222492
30.400000 -29.945312 18.363852
30.700000 -27.814453 18.363852
30.600000 -26.781738 18.363852
30.600000 -25.749023 18.363852
30.700000 -25.216309 18.363852
30.900000 -25.183594 18.363852
30.900000 -24.275879 18.363852
31.100000 -23.618164 18.363852
31.400000 -23.085449 18.363852
31.500000 -22.677734 18.363852
31.200000 -21.895020 18.363852
30.600000 -20.612305 18.363852
30.300000 -20.329590 18.363852
30.200000 -19.046875 18.363852
30.200000 -19.141602 18.363852
30.200000 -18.361328 18.363852
30.300000 -17.831055 18.363852
30.600000 -17.175781 18.363852
30.800000 -16.270508 18.363852
31.400000 -16.115234 18.363852
31.900000 -28.921875 18.504094
31.200000 -27.890625 18.504094
30.800000 -27.734375 18.504094
30.600000 -26.953125 18.504094
30.600000 -25.921875 18.504094
30.700000 -25.640625 18.504094
30.900000 -25.234375 18.504094
31.000000 -24.078125 18.504094
31.100000 -23.796875 18.504094
31.300000 -22.890625 18.504094
31.500000 -22.359375 18.504094
31.300000 -21.206055 18.504094
30.800000 -21.302734 18.504094
30.400000 -20.524414 18.504094
30.200000 -19.121094 18.504094
30.200000 -18.967773 18.504094
30.200000 -18.439453 18.504094
30.300000 -17.786133 18.504094
30.500000 -17.132812 18.504094
30.800000 -16.104492 18.504094
31.200000 -15.701172 18.504094
31.900000 -29.137695 18.641964
31.200000 -27.981934 18.641964
30.800000 -27.701172 18.641964
30.700000 -26.920410 18.641964
30.700000 -25.889648 18.641964
30.700000 -25.608887 18.641964
30.900000 -24.953125 18.641964
31.000000 -24.548340 18.641964
31.100000 -23.518555 18.641964
31.300000 -22.613770 18.641964
31.700000 -22.708984 18.641964
31.400000 -21.929199 18.641964
30.800000 -20.399414 18.641964
30.400000 -20.369629 18.641964
30.200000 -19.089844 18.641964
30.200000 -18.560059 18.641964
30.200000 -18.655273 18.641964
30.300000 -17.500488 18.641964
30.500000 -16.595703 18.641964
30.800000 -16.690918 18.641964
31.300000 -15.786133 18.641964
31.800000 -29.187500 18.782383
31.300000 -27.781250 18.782383
30.900000 -27.875000 18.782383
30.700000 -26.593750 18.782383
30.700000 -25.937500 18.782383
30.800000 -25.906250 18.782383
30.900000 -24.500000 18.782383
31.100000 -24.593750 18.782383
31.200000 -23.437500 18.782383
31.400000 -23.281250 18.782383
31.700000 -22.750000 18.782383
31.500000 -21.718750 18.782383
30.900000 -20.687500 18.782383
30.400000 -20.656250 18.782383
30.400000 -19.625000 18.782383
30.300000 -18.718750 18.782383
30.300000 -17.937500 18.782383
30.300000 -17.281250 18.782383
30.500000 -16.625000 18.782383
30.800000 -16.343750 18.782383
31.300000 -15.812500 18.782383
30.800000 -27.151367 18.921903
30.800000 -26.619141 18.921903
30.800000 -26.336914 18.921903
30.900000 -25.304688 18.921903
31.000000 -24.647461 18.921903
31.100000 -24.365234 18.921903
31.400000 -23.708008 18.921903
31.600000 -22.300781 18.921903
31.800000 -22.393555 18.921903
30.700000 -20.704102 18.921903
30.400000 -19.796875 18.921903
30.400000 -19.389648 18.921903
30.400000 -18.482422 18.921903
30.400000 -17.575195 18.921903
30.500000 -17.167969 18.921903
30.700000 -17.010742 18.921903
32.100000 -29.269043 19.061504
31.500000 -28.613281 19.061504
31.000000 -27.582520 19.061504
30.800000 -26.926758 19.061504
30.800000 -26.520996 19.061504
30.900000 -25.240234 19.061504
31.000000 -25.209473 19.061504
31.100000 -24.553711 19.061504
31.300000 -23.772949 19.061504
31.400000 -23.242188 19.061504
31.700000 -22.461426 19.061504
31.700000 -21.430664 19.061504
30.600000 -20.494141 19.061504
30.500000 -19.838379 19.061504
30.400000 -18.682617 19.061504
30.400000 -18.526855 19.061504
30.500000 -17.746094 19.061504
30.600000 -17.090332 19.061504
30.900000 -16.184570 19.061504
31.400000 -16.153809 19.061504
32.000000 -28.964844 19.201935
31.500000 -28.059570 19.201935
30.900000 -27.154297 19.201935
30.800000 -26.499023 19.201935
30.800000 -26.468750 19.201935
30.900000 -25.438477 19.201935
31.100000 -24.533203 19.201935
31.300000 -24.502930 19.201935
31.500000 -23.722656 19.201935
31.500000 -22.692383 19.201935
31.700000 -22.662109 19.201935
31.800000 -21.506836 19.201935
30.600000 -20.571289 19.201935
30.500000 -19.291016 19.201935
30.400000 -18.510742 19.201935
30.500000 -18.230469 19.201935
30.500000 -17.825195 19.201935
30.700000 -16.919922 19.201935
30.900000 -16.139648 19.201935
31.400000 -15.609375 19.201935
30.900000 -26.850586 19.340195
30.800000 -26.566406 19.340195
30.900000 -25.532227 19.340195
31.000000 -25.248047 19.340195
31.200000 -24.838867 19.340195
31.400000 -24.304688 19.340195
31.600000 -23.520508 19.340195
31.600000 -22.736328 19.340195
31.800000 -22.452148 19.340195
31.600000 -21.417969 19.340195
30.900000 -20.508789 19.340195
30.600000 -20.224609 19.340195
30.500000 -19.190430 19.340195
30.400000 -18.156250 19.340195
30.500000 -17.874512 19.340195
30.600000 -17.092773 19.340195
30.900000 -16.561035 19.340195
30.900000 -26.839844 19.478824
30.800000 -26.682129 19.478824
31.000000 -26.149414 19.478824
31.000000 -25.491699 19.478824
31.200000 -24.708984 19.478824
31.400000 -24.051270 19.478824
31.600000 -23.143555 19.478824
31.600000 -22.610840 19.478824
31.800000 -21.953125 19.478824
31.800000 -21.670410 19.478824
31.100000 -20.262695 19.478824
30.600000 -20.229980 19.478824
30.500000 -19.447266 19.478824
30.400000 -18.039551 19.478824
30.500000 -18.131836 19.478824
30.600000 -17.099121 19.478824
30.900000 -16.316406 19.478824
30.800000 -26.639648 19.619789
31.000000 -25.608887 19.619789
31.100000 -25.078125 19.619789
31.300000 -24.172363 19.619789
31.500000 -24.016602 19.619789
31.700000 -23.360840 19.619789
31.700000 -22.705078 19.619789
31.900000 -22.174316 19.619789
31.700000 -20.893555 19.619789
31.000000 -20.237793 19.619789
30.700000 -19.957031 19.619789
30.500000 -19.176270 19.619789
30.500000 -18.645508 19.619789
30.600000 -17.864746 19.619789
30.700000 -17.458984 19.619789
30.900000 -16.428223 19.619789
31.300000 -15.897461 19.619789
32.900000 -21.593750 19.771398
30.900000 -27.882324 19.897712
30.800000 -26.602539 19.897712
30.900000 -26.197754 19.897712
31.000000 -25.792969 19.897712
31.200000 -24.888184 19.897712
31.400000 -24.108398 19.897712
31.600000 -24.203613 19.897712
31.700000 -23.173828 19.897712
31.600000 -20.834473 19.897712
31.200000 -20.679688 19.897712
30.700000 -19.774902 19.897712
30.500000 -19.245117 19.897712
30.500000 -18.340332 19.897712
30.600000 -17.560547 19.897712
30.700000 -17.030762 19.897712
31.000000 -16.625977 19.897712
31.400000 -15.721191 19.897712
30.900000 -27.443848 20.051673
30.800000 -26.665039 20.051673
30.900000 -26.511230 20.051673
31.000000 -25.607422 20.051673
31.200000 -24.703613 20.051673
31.400000 -24.299805 20.051673
31.500000 -23.895996 20.051673
31.700000 -23.117188 20.051673
31.700000 -22.588379 20.051673
31.900000 -22.184570 20.051673
32.100000 -21.405762 20.051673
30.700000 -19.723145 20.051673
30.600000 -19.319336 20.051673
30.600000 -18.290527 20.051673
30.600000 -17.886719 20.051673
30.800000 -17.107910 20.051673
31.000000 -16.829102 20.051673
30.900000 -27.475586 20.190698
30.900000 -26.944824 20.190698
31.000000 -26.164062 20.190698
31.200000 -25.008301 20.190698
31.300000 -24.977539 20.190698
31.600000 -23.946777 20.190698
31.800000 -23.666016 20.190698
31.800000 -22.510254 20.190698
31.500000 -20.792969 20.190698
31.000000 -19.637207 20.190698
30.700000 -19.106445 20.190698
30.700000 -18.700684 20.190698
30.700000 -17.669922 20.190698
30.800000 -17.639160 20.190698
30.900000 -17.233398 20.190698
31.200000 -16.577637 20.190698
31.700000 -15.296875 20.190698
31.000000 -27.956055 20.331550
30.900000 -27.297363 20.331550
30.900000 -26.513672 20.331550
31.000000 -25.979980 20.331550
31.200000 -25.071289 20.331550
31.400000 -24.537598 20.331550
31.700000 -23.628906 20.331550
31.800000 -22.845215 20.331550
31.700000 -22.561523 20.331550
31.900000 -21.652832 20.331550
32.200000 -21.369141 20.331550
30.900000 -19.426758 20.331550
30.700000 -19.268066 20.331550
30.700000 -18.109375 20.331550
30.600000 -17.952637 20.331550
30.800000 -17.045898 20.331550
31.000000 -16.764160 20.331550
32.100000 -29.172852 20.462574
31.300000 -28.138672 20.462574
30.800000 -27.354492 20.462574
30.900000 -26.570312 20.462574
31.000000 -26.036133 20.462574
31.100000 -25.501953 20.462574
31.300000 -25.092773 20.462574
31.500000 -24.433594 20.462574
31.700000 -23.899414 20.462574
31.800000 -22.740234 20.462574
31.800000 -21.266113 20.462574
31.300000 -20.110352 20.462574
30.800000 -19.704590 20.462574
30.700000 -18.798828 20.462574
30.700000 -18.268066 20.462574
30.700000 -17.737305 20.462574
30.900000 -16.831543 20.462574
31.200000 -15.925781 20.462574
31.500000 -16.020020 20.462574
30.600000 -29.871094 20.611921
30.900000 -27.392090 20.611921
30.900000 -26.982422 20.611921
30.900000 -26.447754 20.611921
31.000000 -25.663086 20.611921
31.200000 -25.378418 20.611921
31.400000 -24.718750 20.611921
31.600000 -23.938965 20.611921
31.800000 -23.034180 20.611921
31.800000 -22.379395 20.611921
31.500000 -20.415039 20.611921
31.100000 -20.010254 20.611921
30.800000 -19.730469 20.611921
30.700000 -18.825684 20.611921
30.700000 -18.045898 20.611921
30.800000 -17.016113 20.611921
31.000000 -16.736328 20.611921
31.300000 -16.081543 20.611921
31.700000 -15.801758 20.611921
31.000000 -27.890625 20.751361
30.900000 -27.109375 20.751361
30.900000 -26.328125 20.751361
31.000000 -25.296875 20.751361
31.200000 -25.265625 20.751361
31.400000 -24.359375 20.751361
31.600000 -24.078125 20.751361
31.800000 -23.046875 20.751361
31.800000 -22.265625 20.751361
31.800000 -21.859375 20.751361
32.200000 -21.203125 20.751361
30.900000 -19.515625 20.751361
30.700000 -19.234375 20.751361
30.800000 -18.703125 20.751361
30.800000 -17.671875 20.751361
30.900000 -17.265625 20.751361
31.100000 -16.234375 20.751361
31.400000 -16.078125 20.751361
32.000000 -15.171875 20.751361
30.900000 -27.117676 20.889474
30.900000 -27.209961 20.889474
31.000000 -26.177246 20.889474
31.200000 -25.519531 20.889474
31.300000 -24.486816 20.889474
31.500000 -24.329102 20.889474
31.600000 -23.671387 20.889474
31.800000 -23.138672 20.889474
31.900000 -21.290527 20.889474
30.900000 -19.600098 20.889474
30.800000 -18.817383 20.889474
30.700000 -18.284668 20.889474
30.800000 -17.876953 20.889474
30.900000 -16.844238 20.889474
31.200000 -16.311523 20.889474
30.800000 -27.042480 21.029332
30.900000 -26.760742 21.029332
31.000000 -26.104004 21.029332
31.100000 -25.197266 21.029332
31.300000 -25.040527 21.029332
31.500000 -24.008789 21.029332
31.700000 -23.852051 21.029332
31.800000 -22.695312 21.029332
32.000000 -20.850098 21.029332
31.000000 -19.911621 21.029332
30.800000 -19.129883 21.029332
30.800000 -17.848145 21.029332
30.800000 -17.191406 21.029332
30.900000 -17.034668 21.029332
31.100000 -16.502930 21.029332
30.800000 -28.023438 21.168083
30.800000 -27.744141 21.168083
30.800000 -26.589844 21.168083
30.900000 -25.935547 21.168083
31.100000 -25.906250 21.168083
31.300000 -25.251953 21.168083
31.500000 -24.472656 21.168083
31.700000 -24.193359 21.168083
31.800000 -23.289062 21.168083
31.800000 -22.134766 21.168083
31.800000 -21.855469 21.168083
32.300000 -21.576172 21.168083
31.100000 -19.642578 21.168083
30.800000 -18.738281 21.168083
30.800000 -18.083984 21.168083
30.800000 -18.054688 21.168083
30.900000 -17.400391 21.168083
31.100000 -16.746094 21.168083
31.400000 -15.841797 21.168083
31.900000 -15.312500 21.168083
30.600000 -29.743652 21.307667
30.800000 -28.273438 21.307667
30.700000 -27.616699 21.307667
30.800000 -26.959961 21.307667
31.000000 -26.053223 21.307667
31.100000 -25.521484 21.307667
31.300000 -24.614746 21.307667
31.500000 -24.583008 21.307667
31.700000 -23.426270 21.307667
31.800000 -23.144531 21.307667
32.000000 -21.049316 21.307667
31.000000 -19.485840 21.307667
30.800000 -19.204102 21.307667
30.800000 -18.297363 21.307667
30.800000 -17.765625 21.307667
30.900000 -17.112793 21.307667
31.100000 -16.209961 21.307667
30.700000 -28.212891 21.446213
30.700000 -27.557129 21.446213
30.700000 -27.151367 21.446213
30.900000 -26.120605 21.446213
31.000000 -25.339844 21.446213
31.200000 -25.309082 21.446213
31.400000 -24.653320 21.446213
31.700000 -24.122559 21.446213
31.800000 -23.466797 21.446213
31.800000 -22.186035 21.446213
31.500000 -20.218750 21.446213
31.200000 -19.563965 21.446213
30.800000 -19.159180 21.446213
30.800000 -18.754395 21.446213
30.800000 -17.724609 21.446213
30.900000 -17.319824 21.446213
31.100000 -16.915039 21.446213
31.400000 -15.885254 21.446213
31.900000 -15.480469 21.446213
30.700000 -27.789062 21.585805
30.700000 -27.381836 21.585805
30.700000 -26.599609 21.585805
30.800000 -25.942383 21.585805
30.900000 -25.535156 21.585805
31.200000 -25.377930 21.585805
31.400000 -24.095703 21.585805
31.600000 -23.438477 21.585805
31.800000 -23.531250 21.585805
31.800000 -22.750488 21.585805
31.500000 -20.158203 21.585805
31.100000 -19.502441 21.585805
30.800000 -19.221680 21.585805
30.800000 -18.690918 21.585805
30.800000 -17.410156 21.585805
30.900000 -17.004395 21.585805
31.100000 -16.473633 21.585805
31.400000 -16.067871 21.585805
31.900000 -15.412109 21.585805
30.700000 -27.940430 21.725061
30.600000 -27.533203 21.725061
30.700000 -26.250977 21.725061
30.800000 -25.468750 21.725061
30.900000 -25.435547 21.725061
31.100000 -24.527344 21.725061
31.400000 -24.119141 21.725061
31.700000 -23.460938 21.725061
31.800000 -23.052734 21.725061
31.700000 -21.078125 21.725061
31.400000 -19.669922 21.725061
31.000000 -19.636719 21.725061
30.900000 -18.728516 21.725061
30.800000 -18.070312 21.725061
30.900000 -17.287109 21.725061
31.100000 -16.378906 21.725061
31.300000 -15.845703 21.725061
30.700000 -28.562988 21.864246
30.700000 -27.907227 21.864246
30.600000 -26.876465 21.864246
30.600000 -26.595703 21.864246
30.700000 -25.564941 21.864246
30.900000 -25.159180 21.864246
31.200000 -24.253418 21.864246
31.500000 -23.722656 21.864246
31.800000 -23.066895 21.864246
31.800000 -22.411133 21.864246
31.500000 -20.818848 21.864246
31.200000 -20.038086 21.864246
31.000000 -19.007324 21.864246
30.900000 -18.351562 21.864246
30.800000 -17.570801 21.864246
30.900000 -16.665039 21.864246
31.100000 -16.134277 21.864246
31.400000 -15.853516 21.864246
31.900000 -15.197754 21.864246
30.600000 -28.017090 22.004370
30.500000 -27.238281 22.004370
30.500000 -26.334473 22.004370
30.500000 -26.055664 22.004370
30.600000 -25.026855 22.004370
31.000000 -24.373047 22.004370
31.400000 -23.969238 22.004370
31.700000 -23.315430 22.004370
31.800000 -22.536621 22.004370
31.700000 -20.950195 22.004370
31.300000 -19.546387 22.004370
31.000000 -19.142578 22.004370
30.900000 -18.738770 22.004370
30.800000 -17.834961 22.004370
31.000000 -17.306152 22.004370
31.100000 -16.777344 22.004370
31.400000 -16.123535 22.004370
31.900000 -15.344727 22.004370
30.600000 -27.714844 22.158371
30.400000 -26.934570 22.158371
30.300000 -26.404297 22.158371
30.300000 -25.999023 22.158371
30.400000 -25.468750 22.158371
30.700000 -25.063477 22.158371
31.100000 -24.283203 22.158371
31.600000 -23.502930 22.158371
31.900000 -22.847656 22.158371
31.900000 -20.881836 22.158371
31.600000 -19.726562 22.158371
31.100000 -19.696289 22.158371
31.000000 -18.541016 22.158371
30.900000 -18.010742 22.158371
30.900000 -17.730469 22.158371
31.100000 -17.075195 22.158371
31.400000 -16.419922 22.158371
31.100000 -28.882812 22.298143
30.500000 -27.723145 22.298143
30.300000 -27.563477 22.298143
30.200000 -26.278809 22.298143
30.200000 -26.119141 22.298143
30.200000 -24.834473 22.298143
30.500000 -24.299805 22.298143
31.000000 -23.640137 22.298143
31.500000 -23.480469 22.298143
31.900000 -23.195801 22.298143
31.500000 -21.091797 22.298143
31.500000 -19.807129 22.298143
31.100000 -18.897461 22.298143
31.000000 -18.987793 22.298143
30.900000 -18.203125 22.298143
30.900000 -17.550293 22.298143
31.100000 -16.772461 22.298143
31.400000 -16.244629 22.298143
30.900000 -28.786621 22.437204
30.400000 -27.879883 22.437204
30.200000 -27.223145 22.437204
30.100000 -26.691406 22.437204
30.000000 -26.034668 22.437204
30.100000 -24.752930 22.437204
30.300000 -24.096191 22.437204
31.800000 -22.750977 22.437204
31.500000 -20.778320 22.437204
31.500000 -20.119141 22.437204
31.100000 -19.209961 22.437204
31.000000 -18.800781 22.437204
30.900000 -18.141602 22.437204
30.900000 -17.357422 22.437204
31.100000 -16.698242 22.437204
31.400000 -15.914062 22.437204
30.300000 -27.211426 22.576441
30.000000 -26.681641 22.576441
29.900000 -26.526855 22.576441
29.900000 -25.372070 22.576441
29.900000 -24.717285 22.576441
30.100000 -24.687500 22.576441
31.800000 -21.005859 22.576441
31.400000 -20.100586 22.576441
31.000000 -19.695312 22.576441
30.900000 -18.540039 22.576441
30.800000 -18.259766 22.576441
31.000000 -17.104492 22.576441
31.100000 -16.449219 22.576441
31.400000 -16.418945 22.576441
31.900000 -15.888672 22.576441
30.500000 -28.469238 22.713788
30.300000 -27.812500 22.713788
29.900000 -26.408691 22.713788
29.700000 -26.254883 22.713788
29.700000 -25.851074 22.713788
29.700000 -25.197266 22.713788
29.700000 -24.543457 22.713788
31.800000 -20.370605 22.713788
31.200000 -18.937988 22.713788
30.900000 -18.284180 22.713788
30.900000 -18.130371 22.713788
31.000000 -16.976562 22.713788
31.100000 -16.197754 22.713788
31.400000 -15.793945 22.713788
31.900000 -15.765137 22.713788
31.600000 -20.375000 22.852319
31.300000 -19.971680 22.852319
31.000000 -18.943359 22.852319
30.800000 -18.165039 22.852319
30.900000 -17.761719 22.852319
31.000000 -16.983398 22.852319
31.200000 -16.455078 22.852319
31.500000 -15.926758 22.852319
32.100000 -15.523438 22.852319
30.400000 -27.560059 22.994395
30.100000 -26.780273 22.994395
29.900000 -27.000488 22.994395
29.600000 -25.845703 22.994395
29.500000 -24.690918 22.994395
29.300000 -24.911133 22.994395
29.300000 -23.506348 22.994395
31.500000 -20.577637 22.994395
31.200000 -19.922852 22.994395
30.900000 -18.643066 22.994395
30.800000 -17.863281 22.994395
30.900000 -18.083496 22.994395
31.000000 -17.303711 22.994395
31.200000 -16.648926 22.994395
30.700000 -28.290039 23.133005
30.300000 -28.005859 23.133005
30.000000 -26.596680 23.133005
29.700000 -25.937500 23.133005
29.500000 -25.403320 23.133005
29.400000 -25.244141 23.133005
29.300000 -24.334961 23.133005
29.300000 -23.925781 23.133005
31.600000 -20.095703 23.133005
31.100000 -19.311523 23.133005
30.900000 -18.902344 23.133005
30.900000 -17.993164 23.133005
30.900000 -17.333984 23.133005
31.100000 -16.924805 23.133005
31.400000 -16.390625 23.133005
31.800000 -15.363281 23.133005
30.500000 -28.400391 23.274780
30.200000 -27.616211 23.274780
29.900000 -26.582031 23.274780
29.600000 -26.172852 23.274780
29.500000 -25.263672 23.274780
29.300000 -24.354492 23.274780
29.200000 -23.945312 23.274780
29.300000 -23.411133 23.274780
31.300000 -19.956055 23.274780
31.000000 -19.296875 23.274780
30.900000 -18.515137 23.274780
30.900000 -18.108398 23.274780
31.000000 -17.201660 23.274780
31.100000 -16.669922 23.274780
31.500000 -16.138184 23.274780
32.100000 -15.481445 23.274780
30.200000 -27.265625 23.414089
29.900000 -26.482422 23.414089
29.700000 -26.199219 23.414089
29.500000 -25.291016 23.414089
29.400000 -24.882812 23.414089
29.300000 -24.099609 23.414089
29.300000 -23.191406 23.414089
31.300000 -20.255859 23.414089
31.000000 -19.226074 23.414089
30.900000 -18.821289 23.414089
30.800000 -17.666504 23.414089
30.900000 -17.386719 23.414089
31.100000 -16.981934 23.414089
31.400000 -15.952148 23.414089
32.100000 -15.672363 23.414089
30.400000 -28.097656 23.553612
30.100000 -27.561523 23.553612
29.800000 -26.525391 23.553612
29.600000 -25.489258 23.553612
29.400000 -25.078125 23.553612
29.400000 -24.422363 23.553612
29.400000 -23.891602 23.553612
31.500000 -20.207031 23.553612
31.200000 -19.176270 23.553612
31.000000 -18.895508 23.553612
30.800000 -18.239746 23.553612
30.900000 -17.708984 23.553612
31.000000 -16.678223 23.553612
31.200000 -16.397461 23.553612
31.600000 -15.991699 23.553612
30.700000 -28.140625 23.693108
30.300000 -27.480957 23.693108
30.000000 -26.946289 23.693108
29.700000 -26.786621 23.693108
29.600000 -25.876953 23.693108
29.600000 -25.467285 23.693108
29.600000 -24.182617 23.693108
31.800000 -20.849609 23.693108
31.500000 -19.814941 23.693108
31.100000 -19.530273 23.693108
30.900000 -18.995605 23.693108
30.900000 -17.585938 23.693108
30.900000 -17.801270 23.693108
31.100000 -17.016602 23.693108
31.400000 -16.231934 23.693108
32.000000 -15.697266 23.693108
30.400000 -28.430176 23.837032
30.100000 -27.022461 23.837032
29.900000 -26.239746 23.837032
29.800000 -25.582031 23.837032
29.700000 -25.674316 23.837032
29.800000 -24.766602 23.837032
31.800000 -22.635742 23.837032
31.700000 -20.662598 23.837032
31.300000 -19.504883 23.837032
31.000000 -18.972168 23.837032
30.800000 -18.064453 23.837032
30.800000 -17.781738 23.837032
31.000000 -17.499023 23.837032
31.200000 -16.716309 23.837032
31.600000 -16.183594 23.837032
30.200000 -27.495605 23.975202
30.000000 -26.591797 23.975202
29.900000 -25.937988 23.975202
29.900000 -25.534180 23.975202
30.000000 -24.755371 23.975202
31.800000 -22.265137 23.975202
31.700000 -20.928711 23.975202
31.300000 -20.149902 23.975202
31.000000 -18.996094 23.975202
30.900000 -18.592285 23.975202
30.800000 -17.813477 23.975202
30.900000 -17.284668 23.975202
31.100000 -16.255859 23.975202
31.500000 -15.727051 23.975202
30.200000 -27.953125 24.115241
30.000000 -26.796875 24.115241
30.000000 -26.140625 24.115241
30.000000 -25.734375 24.115241
30.100000 -24.953125 24.115241
30.400000 -24.546875 24.115241
30.900000 -23.640625 24.115241
31.400000 -23.359375 24.115241
31.800000 -22.203125 24.115241
31.700000 -20.734375 24.115241
31.300000 -20.078125 24.115241
31.000000 -18.796875 24.115241
30.800000 -18.515625 24.115241
30.800000 -18.109375 24.115241
30.900000 -16.953125 24.115241
31.100000 -16.300781 24.115241
31.600000 -16.148438 24.115241
30.300000 -27.816895 24.253130
30.100000 -26.538086 24.253130
30.100000 -26.259277 24.253130
30.200000 -25.605469 24.253130
30.300000 -25.076660 24.253130
30.600000 -24.547852 24.253130
31.000000 -23.644043 24.253130
31.400000 -23.365234 24.253130
31.800000 -22.461426 24.253130
31.700000 -20.625000 24.253130
31.300000 -19.722656 24.253130
31.000000 -19.070312 24.253130
30.800000 -18.167969 24.253130
30.800000 -18.015625 24.253130
30.900000 -16.863281 24.253130
31.100000 -16.335938 24.253130
31.500000 -16.183594 24.253130
30.400000 -27.322266 24.394864
30.200000 -26.791992 24.394864
30.200000 -26.636719 24.394864
30.200000 -25.731445 24.394864
30.400000 -24.951172 24.394864
30.600000 -24.420898 24.394864
31.000000 -23.515625 24.394864
31.400000 -23.360840 24.394864
31.700000 -22.831055 24.394864
31.700000 -20.866699 24.394864
31.300000 -19.711914 24.394864
31.000000 -19.557129 24.394864
30.800000 -18.402344 24.394864
30.800000 -18.372559 24.394864
30.900000 -17.342773 24.394864
31.100000 -16.562988 24.394864
31.500000 -16.158203 24.394864
30.400000 -27.733398 24.531664
30.300000 -27.078125 24.531664
30.300000 -25.796875 24.531664
30.400000 -25.890625 24.531664
30.500000 -25.109375 24.531664
30.800000 -24.703125 24.531664
31.100000 -23.671875 24.531664
31.500000 -23.390625 24.531664
31.800000 -22.984375 24.531664
31.600000 -20.890625 24.531664
31.200000 -20.109375 24.531664
31.000000 -19.578125 24.531664
30.800000 -18.171875 24.531664
30.800000 -17.890625 24.531664
30.900000 -17.609375 24.531664
31.100000 -16.328125 24.531664
31.500000 -15.671875 24.531664
30.500000 -27.902344 24.673594
30.500000 -27.120117 24.673594
30.500000 -26.337891 24.673594
30.500000 -25.805664 24.673594
30.700000 -25.148438 24.673594
31.000000 -24.116211 24.673594
31.300000 -24.083984 24.673594
31.600000 -23.426758 24.673594
31.700000 -22.144531 24.673594
31.500000 -20.547852 24.673594
31.200000 -19.890625 24.673594
31.000000 -18.608398 24.673594
30.800000 -18.326172 24.673594
30.800000 -18.168945 24.673594
31.000000 -17.136719 24.673594
31.200000 -16.229492 24.673594
31.600000 -16.072266 24.673594
30.500000 -27.740723 24.828135
30.500000 -27.336914 24.828135
30.500000 -26.683105 24.828135
30.600000 -25.904297 24.828135
30.700000 -25.000488 24.828135
31.000000 -24.596680 24.828135
31.200000 -23.942871 24.828135
31.600000 -23.539062 24.828135
31.800000 -23.010254 24.828135
31.700000 -20.298828 24.828135
31.300000 -19.895020 24.828135
31.000000 -19.616211 24.828135
30.800000 -18.962402 24.828135
30.800000 -18.058594 24.828135
30.900000 -17.154785 24.828135
31.100000 -16.375977 24.828135
31.400000 -16.472168 24.828135
30.500000 -28.423828 24.957597
30.500000 -27.641602 24.957597
30.500000 -26.359375 24.957597
30.600000 -26.077148 24.957597
30.700000 -25.794922 24.957597
30.900000 -25.012695 24.957597
31.200000 -24.355469 24.957597
31.400000 -23.323242 24.957597
31.700000 -23.416016 24.957597
31.800000 -22.508789 24.957597
31.800000 -21.476562 24.957597
32.100000 -20.944336 24.957597
31.000000 -19.379883 24.957597
30.800000 -18.972656 24.957597
30.800000 -18.190430 24.957597
30.800000 -17.908203 24.957597
31.000000 -16.750977 24.957597
30.500000 -27.597656 25.109084
30.500000 -27.062500 25.109084
30.600000 -26.277344 25.109084
30.700000 -25.617188 25.109084
30.800000 -25.332031 25.109084
31.000000 -25.171875 25.109084
31.200000 -24.386719 25.109084
31.400000 -23.351562 25.109084
31.700000 -23.066406 25.109084
31.700000 -21.906250 25.109084
31.900000 -21.621094 25.109084
32.000000 -20.835938 25.109084
31.500000 -20.550781 25.109084
31.000000 -19.515625 25.109084
30.800000 -18.608887 25.109084
30.700000 -18.327148 25.109084
30.800000 -17.545410 25.109084
31.000000 -17.013672 25.109084
30.500000 -28.167480 25.234915
30.500000 -27.511719 25.234915
30.500000 -26.855957 25.234915
30.600000 -26.575195 25.234915
30.800000 -26.169434 25.234915
31.000000 -25.263672 25.234915
31.200000 -24.857910 25.234915
31.300000 -23.952148 25.234915
31.600000 -23.546387 25.234915
31.900000 -23.015625 25.234915
31.700000 -20.916016 25.234915
31.200000 -20.257812 25.234915
30.900000 -19.349609 25.234915
30.800000 -18.691406 25.234915
30.800000 -17.908203 25.234915
30.900000 -17.250000 25.234915
31.100000 -16.716797 25.234915
31.400000 -16.433594 25.234915
30.500000 -27.750000 25.388772
30.500000 -27.093750 25.388772
30.600000 -26.312500 25.388772
30.800000 -25.906250 25.388772
31.000000 -25.626465 25.388772
31.200000 -24.971680 25.388772
31.300000 -24.191895 25.388772
31.600000 -23.162109 25.388772
31.800000 -22.882324 25.388772
31.600000 -20.667969 25.388772
31.200000 -19.763184 25.388772
30.900000 -19.483398 25.388772
30.700000 -18.828613 25.388772
30.700000 -18.173828 25.388772
30.900000 -17.144043 25.388772
31.100000 -16.739258 25.388772
31.400000 -16.209473 25.388772
30.500000 -27.551758 25.515024
30.700000 -27.147949 25.515024
30.800000 -26.619141 25.515024
30.900000 -25.590332 25.515024
31.100000 -24.686523 25.515024
31.200000 -24.282715 25.515024
31.500000 -23.878906 25.515024
31.700000 -22.975098 25.515024
31.800000 -22.821289 25.515024
31.800000 -21.917480 25.515024
30.600000 -18.773438 25.515024
30.700000 -17.494629 25.515024
30.900000 -17.340820 25.515024
31.100000 -16.812012 25.515024
31.600000 -16.158203 25.515024
30.300000 -26.500000 25.656148
30.900000 -25.191406 25.656148
31.100000 -24.787109 25.656148
31.300000 -24.632812 25.656148
31.600000 -23.728516 25.656148
31.800000 -22.699219 25.656148
31.800000 -22.669922 25.656148
31.800000 -21.390625 25.656148
31.900000 -20.986328 25.656148
31.400000 -20.332031 25.656148
30.800000 -19.802734 25.656148
30.600000 -18.648438 25.656148
30.600000 -18.619141 25.656148
30.700000 -17.464844 25.656148
30.900000 -17.310547 25.656148
31.700000 -28.966309 25.808105
31.000000 -28.186523 25.808105
30.600000 -27.781738 25.808105
30.700000 -27.501953 25.808105
30.700000 -26.722168 25.808105
30.800000 -25.567383 25.808105
31.000000 -25.037598 25.808105
31.200000 -24.507812 25.808105
31.300000 -23.728027 25.808105
31.600000 -23.198242 25.808105
31.800000 -22.418457 25.808105
31.500000 -20.829102 25.808105
31.000000 -20.049316 25.808105
30.700000 -19.144531 25.808105
30.600000 -18.864746 25.808105
30.600000 -18.209961 25.808105
30.800000 -17.305176 25.808105
31.000000 -17.025391 25.808105
31.400000 -16.120605 25.808105
30.600000 -27.234375 25.949369
30.600000 -27.076172 25.949369
30.800000 -26.042969 25.949369
30.900000 -25.634766 25.949369
31.100000 -24.726562 25.949369
31.300000 -24.193359 25.949369
31.400000 -24.035156 25.949369
31.700000 -23.001953 25.949369
31.800000 -22.468750 25.949369
31.800000 -21.435547 25.949369
32.000000 -21.652344 25.949369
30.800000 -20.210938 25.949369
30.600000 -19.427734 25.949369
30.600000 -18.394531 25.949369
30.700000 -17.861328 25.949369
30.800000 -16.828125 25.949369
31.000000 -28.324219 26.089497
30.600000 -28.041992 26.089497
30.600000 -27.384766 26.089497
30.800000 -25.977539 26.089497
30.900000 -26.070312 26.089497
31.100000 -24.788086 26.089497
