30.900000 -18.008789 35.715250
30.900000 -17.480469 35.715250
31.000000 -17.202148 35.715250
31.200000 -16.798828 35.715250
31.500000 -15.895508 35.715250
32.000000 -15.492188 35.715250
30.500000 -28.247070 35.856188
30.200000 -27.716309 35.856188
30.100000 -26.935547 35.856188
30.000000 -26.279785 35.856188
30.000000 -24.874023 35.856188
30.000000 -24.218262 35.856188
30.300000 -24.062500 35.856188
30.800000 -23.411621 35.856188
31.400000 -22.885742 35.856188
31.700000 -22.234863 35.856188
31.600000 -20.282227 35.856188
31.300000 -19.881348 35.856188
31.000000 -19.105469 35.856188
30.900000 -17.829590 35.856188
30.900000 -17.928711 35.856188
31.000000 -17.152832 35.856188
31.200000 -16.626953 35.856188
31.600000 -15.851074 35.856188
32.100000 -15.075195 35.856188
30.300000 -27.548340 35.998653
30.100000 -26.268555 35.998653
30.000000 -26.238770 35.998653
30.100000 -25.583984 35.998653
30.200000 -25.054199 35.998653
30.500000 -24.149414 35.998653
30.900000 -23.244629 35.998653
31.500000 -22.714844 35.998653
31.800000 -22.560059 35.998653
31.700000 -20.095703 35.998653
31.300000 -19.815918 35.998653
31.100000 -19.286133 35.998653
30.900000 -18.631348 35.998653
30.900000 -17.976562 35.998653
31.100000 -17.071777 35.998653
31.300000 -16.541992 35.998653
31.600000 -16.137207 35.998653
32.200000 -15.482422 35.998653
30.400000 -27.229004 36.138128
30.300000 -26.449219 36.138128
30.200000 -25.794434 36.138128
30.200000 -25.764648 36.138128
30.400000 -24.859863 36.138128
30.700000 -24.205078 36.138128
31.100000 -23.800293 36.138128
31.600000 -22.895508 36.138128
31.800000 -22.615723 36.138128
31.600000 -20.276367 36.138128
31.300000 -19.496582 36.138128
31.100000 -18.716797 36.138128
30.900000 -18.187012 36.138128
30.900000 -17.532227 36.138128
31.000000 -16.877441 36.138128
31.300000 -16.347656 36.138128
31.600000 -16.192871 36.138128
32.200000 -15.163086 36.138128
30.700000 -28.494141 36.289938
30.400000 -27.466309 36.289938
30.300000 -27.063477 36.289938
30.300000 -26.035645 36.289938
30.400000 -25.507812 36.289938
30.500000 -24.604980 36.289938
30.800000 -24.452148 36.289938
31.200000 -24.049316 36.289938
31.600000 -23.021484 36.289938
31.800000 -22.618652 36.289938
31.600000 -20.410156 36.289938
31.300000 -20.007324 36.289938
31.000000 -19.354492 36.289938
30.900000 -18.826660 36.289938
30.900000 -17.548828 36.289938
31.000000 -16.645996 36.289938
31.200000 -16.368164 36.289938
30.500000 -27.258789 36.431703
30.500000 -27.105469 36.431703
30.500000 -26.327148 36.431703
30.600000 -25.298828 36.431703
30.700000 -25.020508 36.431703
31.000000 -23.992188 36.431703
31.400000 -24.088867 36.431703
31.700000 -23.060547 36.431703
31.800000 -22.157227 36.431703
31.600000 -20.197266 36.431703
31.300000 -19.543945 36.431703
31.000000 -19.140625 36.431703
30.900000 -18.488770 36.431703
30.900000 -17.336914 36.431703
31.000000 -17.185059 36.431703
31.300000 -16.658203 36.431703
30.600000 -27.196289 36.558422
30.500000 -26.666016 36.558422
30.600000 -26.010742 36.558422
30.700000 -25.355469 36.558422
30.800000 -25.075195 36.558422
31.100000 -24.044922 36.558422
31.400000 -23.764648 36.558422
31.700000 -22.984375 36.558422
31.800000 -22.209473 36.558422
31.600000 -20.509766 36.558422
31.300000 -19.609863 36.558422
31.000000 -18.709961 36.558422
30.900000 -18.560059 36.558422
30.900000 -17.410156 36.558422
31.000000 -16.760254 36.558422
31.300000 -16.610352 36.558422
31.600000 -15.585449 36.558422
30.600000 -27.595215 36.699637
30.600000 -26.437500 36.699637
30.700000 -26.407715 36.699637
30.800000 -25.377930 36.699637
30.900000 -24.848145 36.699637
31.200000 -24.568359 36.699637
31.500000 -23.413574 36.699637
31.700000 -23.008789 36.699637
31.800000 -22.354004 36.699637
31.600000 -20.139648 36.699637
31.300000 -19.734863 36.699637
31.000000 -19.080078 36.699637
30.900000 -18.550293 36.699637
30.900000 -17.520508 36.699637
31.000000 -16.990723 36.699637
31.300000 -16.335938 36.699637
31.700000 -16.056152 36.699637
30.700000 -27.921875 36.840154
30.700000 -27.515625 36.840154
30.700000 -27.234375 36.840154
30.800000 -25.953125 36.840154
30.900000 -25.796875 36.840154
31.000000 -24.890625 36.840154
31.200000 -24.734375 36.840154
31.500000 -23.953125 36.840154
31.800000 -23.046875 36.840154
31.900000 -22.140625 36.840154
31.700000 -20.421875 36.840154
31.400000 -19.765625 36.840154
31.000000 -19.109375 36.840154
30.900000 -18.578125 36.840154
30.900000 -17.421875 36.840154
31.000000 -17.015625 36.840154
31.300000 -16.484375 36.840154
31.600000 -16.203125 36.840154
30.800000 -28.052246 36.993833
30.700000 -27.271484 36.993833
30.800000 -26.240723 36.993833
30.900000 -25.834961 36.993833
31.000000 -25.179199 36.993833
31.200000 -24.398438 36.993833
31.500000 -24.242676 36.993833
31.700000 -23.461914 36.993833
31.900000 -22.681152 36.993833
32.000000 -20.463867 36.993833
31.700000 -19.683105 36.993833
31.100000 -19.152344 36.993833
31.000000 -18.496582 36.993833
30.900000 -18.090820 36.993833
30.900000 -17.060059 36.993833
31.100000 -16.529297 36.993833
31.400000 -16.248535 36.993833
31.900000 -15.592773 36.993833
30.800000 -27.547852 37.133536
30.700000 -27.267578 37.133536
30.800000 -26.237305 37.133536
30.900000 -25.832031 37.133536
31.000000 -25.051758 37.133536
31.200000 -24.396484 37.133536
31.500000 -24.116211 37.133536
31.700000 -23.335938 37.133536
32.000000 -22.930664 37.133536
32.100000 -20.589844 37.133536
31.700000 -19.809570 37.133536
31.100000 -19.654297 37.133536
31.000000 -18.749023 37.133536
30.900000 -18.093750 37.133536
30.900000 -17.315430 37.133536
31.100000 -16.662109 37.133536
31.400000 -15.883789 37.133536
32.000000 -15.730469 37.133536
30.800000 -27.700684 37.275045
30.800000 -27.292969 37.275045
30.900000 -26.510254 37.275045
31.000000 -26.102539 37.275045
31.200000 -25.194824 37.275045
31.400000 -24.537109 37.275045
31.500000 -24.004395 37.275045
31.800000 -23.221680 37.275045
32.000000 -22.688965 37.275045
31.900000 -20.603516 37.275045
31.400000 -19.702148 37.275045
31.000000 -18.925781 37.275045
30.900000 -18.399414 37.275045
30.900000 -17.998047 37.275045
31.000000 -16.971680 37.275045
31.200000 -16.695312 37.275045
30.800000 -27.537109 37.402446
30.800000 -26.628906 37.402446
31.000000 -26.095703 37.402446
31.100000 -25.062500 37.402446
31.300000 -25.158691 37.402446
31.500000 -24.504883 37.402446
31.700000 -23.351074 37.402446
31.900000 -22.572266 37.402446
31.800000 -22.418457 37.402446
31.500000 -20.207031 37.402446
31.200000 -19.553223 37.402446
31.000000 -19.149414 37.402446
30.900000 -17.745605 37.402446
30.900000 -17.841797 37.402446
31.100000 -16.562988 37.402446
31.400000 -16.284180 37.402446
31.800000 -16.005371 37.402446
30.800000 -27.421875 37.542948
30.900000 -26.390625 37.542948
31.000000 -25.859375 37.542948
31.200000 -25.078125 37.542948
31.400000 -24.546875 37.542948
31.600000 -24.140625 37.542948
31.800000 -23.359375 37.542948
32.000000 -23.203125 37.542948
32.000000 -20.984375 37.542948
31.600000 -20.203125 37.542948
31.100000 -19.046875 37.542948
31.000000 -18.515625 37.542948
30.900000 -17.734375 37.542948
30.900000 -17.203125 37.542948
31.100000 -16.421875 37.542948
30.800000 -26.995117 37.695788
30.900000 -26.591797 37.695788
31.000000 -26.063477 37.695788
31.200000 -25.160156 37.695788
31.400000 -24.381836 37.695788
31.600000 -23.728516 37.695788
31.800000 -23.450195 37.695788
32.000000 -22.921875 37.695788
32.000000 -20.836914 37.695788
31.600000 -20.058594 37.695788
31.100000 -19.405273 37.695788
30.900000 -18.751953 37.695788
30.900000 -17.723633 37.695788
30.900000 -17.320312 37.695788
31.100000 -16.416992 37.695788
31.100000 -27.547852 37.836055
30.900000 -27.145020 37.836055
30.900000 -26.742188 37.836055
31.000000 -26.089355 37.836055
31.200000 -25.186523 37.836055
31.400000 -24.908691 37.836055
31.600000 -23.880859 37.836055
31.800000 -23.978027 37.836055
32.000000 -22.825195 37.836055
31.900000 -22.547363 37.836055
31.900000 -21.894531 37.836055
32.300000 -20.991699 37.836055
31.100000 -19.436035 37.836055
30.900000 -18.533203 37.836055
30.900000 -17.880371 37.836055
30.900000 -17.352539 37.836055
31.100000 -17.199707 37.836055
31.400000 -16.546875 37.836055
31.800000 -16.020996 37.836055
29.900000 -29.424805 37.976826
32.000000 -28.868164 37.976826
30.900000 -27.811523 37.976826
30.900000 -27.158203 37.976826
31.000000 -26.629883 37.976826
31.200000 -25.726562 37.976826
31.300000 -25.073242 37.976826
31.500000 -24.544922 37.976826
31.800000 -23.391602 37.976826
32.000000 -22.988281 37.976826
32.000000 -22.584961 37.976826
31.700000 -20.250000 37.976826
31.200000 -19.722656 37.976826
31.000000 -19.195312 37.976826
30.900000 -18.792969 37.976826
30.900000 -17.390625 37.976826
31.000000 -16.988281 37.976826
31.300000 -16.460938 37.976826
31.800000 -16.058594 37.976826
32.200000 -29.003418 38.120360
31.400000 -28.346680 38.120360
30.900000 -27.689941 38.120360
30.800000 -26.408203 38.120360
31.000000 -25.751465 38.120360
31.100000 -25.094727 38.120360
31.400000 -24.937988 38.120360
31.600000 -24.531250 38.120360
31.800000 -24.002441 38.120360
32.000000 -23.098633 38.120360
31.900000 -21.944824 38.120360
31.900000 -21.541016 38.120360
32.200000 -21.137207 38.120360
31.000000 -19.079590 38.120360
30.900000 -18.675781 38.120360
30.900000 -18.021973 38.120360
30.900000 -17.868164 38.120360
31.100000 -16.714355 38.120360
31.300000 -16.060547 38.120360
31.800000 -15.906738 38.120360
32.100000 -28.968262 38.246036
31.500000 -28.187500 38.246036
31.000000 -27.530273 38.246036
30.900000 -26.873047 38.246036
31.000000 -26.090820 38.246036
31.200000 -25.308594 38.246036
31.400000 -24.901367 38.246036
31.600000 -24.619141 38.246036
31.800000 -23.711914 38.246036
32.000000 -23.179688 38.246036
32.000000 -22.522461 38.246036
32.000000 -21.615234 38.246036
32.200000 -21.458008 38.246036
31.000000 -19.518555 38.246036
30.900000 -18.986328 38.246036
30.900000 -18.204102 38.246036
30.900000 -17.671875 38.246036
31.100000 -17.389648 38.246036
32.000000 -28.888184 38.384574
31.500000 -28.606445 38.384574
31.000000 -27.699707 38.384574
31.000000 -26.667969 38.384574
31.000000 -26.011230 38.384574
31.100000 -25.479492 38.384574
31.300000 -24.947754 38.384574
31.600000 -24.041016 38.384574
31.800000 -23.759277 38.384574
32.000000 -23.227539 38.384574
32.000000 -22.445801 38.384574
32.000000 -21.914062 38.384574
32.300000 -21.257324 38.384574
31.000000 -19.943848 38.384574
30.900000 -19.162109 38.384574
30.900000 -18.755371 38.384574
30.900000 -17.598633 38.384574
31.000000 -17.066895 38.384574
30.900000 -27.186523 38.538319
31.000000 -26.284668 38.538319
31.000000 -25.882812 38.538319
31.300000 -24.980957 38.538319
31.500000 -24.204102 38.538319
31.700000 -23.552246 38.538319
31.900000 -23.400391 38.538319
32.100000 -22.498535 38.538319
31.600000 -20.792969 38.538319
31.100000 -19.891113 38.538319
30.900000 -19.239258 38.538319
30.800000 -18.212402 38.538319
30.800000 -17.810547 38.538319
31.000000 -17.658691 38.538319
31.200000 -16.881836 38.538319
31.700000 -15.854980 38.538319
30.900000 -27.056641 38.681011
30.900000 -26.775879 38.681011
31.000000 -25.495117 38.681011
31.200000 -25.589355 38.681011
31.400000 -24.933594 38.681011
31.600000 -24.277832 38.681011
31.800000 -23.497070 38.681011
32.000000 -22.966309 38.681011
31.600000 -20.874023 38.681011
31.000000 -20.093262 38.681011
30.900000 -18.937500 38.681011
30.800000 -18.658691 38.681011
30.800000 -17.754883 38.681011
31.000000 -17.101074 38.681011
31.100000 -16.447266 38.681011
31.500000 -16.293457 38.681011
31.000000 -26.978516 38.818326
31.000000 -26.448242 38.818326
31.100000 -25.917969 38.818326
31.200000 -25.262695 38.818326
31.500000 -24.607422 38.818326
31.700000 -23.952148 38.818326
31.900000 -23.046875 38.818326
32.000000 -22.393066 38.818326
31.900000 -21.614258 38.818326
32.200000 -21.460449 38.818326
31.000000 -19.902832 38.818326
30.800000 -18.624023 38.818326
30.800000 -18.720215 38.818326
30.800000 -17.691406 38.818326
31.000000 -16.912598 38.818326
31.200000 -27.920898 38.957042
31.000000 -27.015625 38.957042
31.000000 -26.484375 38.957042
31.000000 -25.453125 38.957042
31.200000 -24.921875 38.957042
31.400000 -24.390625 38.957042
31.700000 -23.984375 38.957042
31.900000 -23.078125 38.957042
32.000000 -22.671875 38.957042
32.000000 -22.265625 38.957042
32.100000 -21.484375 38.957042
30.900000 -19.796875 38.957042
30.700000 -19.140625 38.957042
30.700000 -18.109375 38.957042
30.800000 -17.703125 38.957042
30.900000 -17.046875 38.957042
32.100000 -28.602539 39.095465
31.400000 -27.949219 39.095465
31.000000 -27.045898 39.095465
30.900000 -27.017578 39.095465
31.000000 -25.989258 39.095465
31.100000 -25.210938 39.095465
31.200000 -24.682617 39.095465
31.500000 -23.904297 39.095465
31.700000 -23.750977 39.095465
31.900000 -23.222656 39.095465
31.900000 -21.944336 39.095465
32.100000 -21.916016 39.095465
31.000000 -19.734375 39.095465
30.700000 -19.456055 39.095465
30.700000 -18.427734 39.095465
30.700000 -18.274414 39.095465
30.800000 -17.371094 39.095465
31.000000 -16.842773 39.095465
31.300000 -16.689453 39.095465
30.900000 -26.782715 39.236996
30.900000 -26.505859 39.236996
31.000000 -26.104004 39.236996
31.100000 -24.827148 39.236996
31.300000 -24.800293 39.236996
31.500000 -24.273438 39.236996
31.800000 -23.621582 39.236996
32.000000 -22.594727 39.236996
32.000000 -22.317871 39.236996
32.200000 -21.666016 39.236996
30.800000 -19.862305 39.236996
30.600000 -19.210449 39.236996
30.600000 -18.183594 39.236996
30.600000 -17.656738 39.236996
30.800000 -17.379883 39.236996
31.100000 -16.478027 39.236996
31.500000 -15.826172 39.236996
31.400000 -28.083496 39.378925
31.000000 -27.554688 39.378925
30.900000 -27.025879 39.378925
31.000000 -25.872070 39.378925
31.000000 -25.718262 39.378925
31.200000 -24.689453 39.378925
31.400000 -24.160645 39.378925
31.700000 -23.506836 39.378925
31.900000 -22.853027 39.378925
31.900000 -22.449219 39.378925
32.200000 -21.420410 39.378925
30.900000 -20.362793 39.378925
30.700000 -19.083984 39.378925
30.600000 -18.930176 39.378925
30.600000 -18.026367 39.378925
30.700000 -17.872559 39.378925
31.000000 -16.718750 39.378925
31.300000 -16.691895 39.378925
31.200000 -27.885254 39.516869
30.900000 -27.229492 39.516869
30.900000 -26.323730 39.516869
31.000000 -26.042969 39.516869
31.100000 -25.387207 39.516869
31.200000 -24.856445 39.516869
31.500000 -24.325684 39.516869
31.700000 -23.294922 39.516869
31.900000 -22.389160 39.516869
32.100000 -22.233398 39.516869
32.000000 -21.452637 39.516869
30.700000 -19.892578 39.516869
30.600000 -19.113281 39.516869
30.500000 -18.708984 39.516869
30.600000 -17.679688 39.516869
30.800000 -17.400391 39.516869
31.000000 -27.406250 39.655710
30.900000 -27.250000 39.655710
30.900000 -26.593750 39.655710
31.000000 -25.437500 39.655710
31.100000 -25.406250 39.655710
31.300000 -24.625000 39.655710
31.500000 -23.717285 39.655710
31.700000 -23.309570 39.655710
31.900000 -22.651855 39.655710
32.100000 -21.619141 39.655710
30.800000 -20.428711 39.655710
30.600000 -19.895996 39.655710
30.500000 -19.363281 39.655710
30.500000 -18.580566 39.655710
30.600000 -17.547852 39.655710
30.800000 -17.265137 39.655710
31.100000 -16.482422 39.655710
31.200000 -28.967773 39.796071
31.300000 -28.437500 39.796071
30.900000 -27.656250 39.796071
30.800000 -26.500000 39.796071
30.900000 -26.343750 39.796071
31.000000 -25.562500 39.796071
31.000000 -24.656250 39.796071
31.300000 -24.250000 39.796071
31.500000 -23.718750 39.796071
31.700000 -23.187500 39.796071
31.900000 -22.281250 39.796071
32.100000 -22.000000 39.796071
30.700000 -20.437500 39.796071
30.500000 -19.906250 39.796071
30.500000 -18.875000 39.796071
30.500000 -17.718750 39.796071
30.500000 -17.437500 39.796071
30.800000 -17.281250 39.796071
31.100000 -16.250000 39.796071
31.000000 -27.438965 39.934614
30.800000 -26.910156 39.934614
30.800000 -26.256348 39.934614
30.900000 -25.727539 39.934614
31.000000 -25.198730 39.934614
31.200000 -24.669922 39.934614
31.500000 -24.141113 39.934614
31.700000 -23.487305 39.934614
31.800000 -22.833496 39.934614
32.100000 -22.054688 39.934614
30.700000 -20.247070 39.934614
30.500000 -19.718262 39.934614
30.500000 -18.689453 39.934614
30.500000 -18.410645 39.934614
30.500000 -18.131836 39.934614
30.600000 -17.228027 39.934614
31.000000 -16.949219 39.934614
30.900000 -27.216309 40.089577
30.800000 -26.813477 40.089577
30.700000 -25.785645 40.089577
30.800000 -25.132812 40.089577
31.000000 -24.479980 40.089577
31.200000 -23.952148 40.089577
31.500000 -23.174316 40.089577
31.700000 -22.771484 40.089577
31.800000 -22.493652 40.089577
31.800000 -21.715820 40.089577
30.500000 -19.785156 40.089577
30.400000 -19.132324 40.089577
30.400000 -18.729492 40.089577
30.400000 -17.826660 40.089577
30.500000 -17.923828 40.089577
30.700000 -17.145996 40.089577
31.100000 -16.118164 40.089577
30.900000 -27.442383 40.228935
30.800000 -27.284668 40.228935
30.800000 -26.626953 40.228935
30.700000 -25.844238 40.228935
30.900000 -25.561523 40.228935
31.000000 -24.903809 40.228935
31.200000 -23.621094 40.228935
31.400000 -23.213379 40.228935
31.600000 -22.555664 40.228935
31.800000 -21.772949 40.228935
30.700000 -20.457520 40.228935
30.400000 -19.924805 40.228935
30.300000 -19.142090 40.228935
30.300000 -18.984375 40.228935
30.400000 -17.829590 40.228935
30.500000 -17.674805 40.228935
30.800000 -16.270020 40.228935
31.300000 -15.990234 40.228935
31.700000 -28.912109 40.369910
31.200000 -28.006836 40.369910
30.800000 -27.601562 40.369910
30.700000 -27.071289 40.369910
30.700000 -26.541016 40.369910
30.700000 -25.260742 40.369910
30.900000 -24.980469 40.369910
31.100000 -24.450195 40.369910
31.200000 -23.669922 40.369910
31.400000 -23.014648 40.369910
31.700000 -22.484375 40.369910
31.600000 -22.077637 40.369910
30.900000 -21.045898 40.369910
30.400000 -20.014160 40.369910
30.300000 -19.982422 40.369910
30.300000 -18.950684 40.369910
30.300000 -18.168945 40.369910
30.400000 -18.137207 40.369910
30.600000 -16.980469 40.369910
30.900000 -16.448730 40.369910
30.700000 -27.808594 40.510501
30.600000 -26.404297 40.510501
30.700000 -26.375000 40.510501
30.700000 -25.595215 40.510501
30.900000 -24.815430 40.510501
31.100000 -24.410645 40.510501
31.200000 -23.755859 40.510501
31.400000 -23.101074 40.510501
31.500000 -22.321289 40.510501
31.200000 -21.791504 40.510501
30.600000 -21.011719 40.510501
30.300000 -19.981934 40.510501
30.300000 -19.827148 40.510501
30.300000 -18.547363 40.510501
30.200000 -18.142578 40.510501
30.400000 -17.362793 40.510501
30.600000 -16.583008 40.510501
31.000000 -16.553223 40.510501
30.800000 -28.106934 40.636857
30.600000 -27.080078 40.636857
30.600000 -26.428223 40.636857
30.700000 -26.026367 40.636857
30.800000 -25.374512 40.636857
31.000000 -24.347656 40.636857
31.000000 -24.070801 40.636857
31.100000 -23.543945 40.636857
31.500000 -22.767090 40.636857
31.400000 -22.115234 40.636857
30.800000 -21.088379 40.636857
30.400000 -20.686523 40.636857
30.200000 -20.034668 40.636857
30.200000 -19.507812 40.636857
30.200000 -18.480957 40.636857
30.300000 -18.079102 40.636857
30.500000 -17.677246 40.636857
31.700000 -29.322266 40.792189
31.100000 -28.171875 40.792189
30.700000 -27.146484 40.792189
30.600000 -26.871094 40.792189
30.700000 -26.595703 40.792189
30.700000 -25.195312 40.792189
30.900000 -24.794922 40.792189
31.000000 -24.644531 40.792189
31.100000 -23.869141 40.792189
31.200000 -22.718750 40.792189
31.500000 -22.568359 40.792189
31.200000 -21.917969 40.792189
30.600000 -21.267578 40.792189
30.300000 -20.492188 40.792189
30.200000 -19.466797 40.792189
30.100000 -18.941406 40.792189
30.200000 -17.916016 40.792189
30.300000 -17.890625 40.792189
30.500000 -17.240234 40.792189
30.800000 -16.964844 40.792189
31.700000 -29.259766 40.932683
31.100000 -27.980469 40.932683
30.700000 -27.201172 40.932683
30.600000 -26.546875 40.932683
30.600000 -26.267578 40.932683
30.700000 -25.613281 40.932683
30.800000 -24.958984 40.932683
31.000000 -24.304688 40.932683
31.000000 -23.525391 40.932683
31.200000 -22.996094 40.932683
31.300000 -22.466797 40.932683
31.000000 -21.437500 40.932683
30.500000 -20.658203 40.932683
30.200000 -19.878906 40.932683
30.200000 -19.224609 40.932683
30.200000 -19.195312 40.932683
30.200000 -18.416016 40.932683
30.300000 -17.386719 40.932683
30.500000 -16.982422 40.932683
30.800000 -16.578125 40.932683
31.300000 -28.630859 41.062159
30.800000 -27.599121 41.062159
30.600000 -26.817383 41.062159
30.600000 -26.285645 41.062159
30.700000 -25.253906 41.062159
30.800000 -24.847168 41.062159
30.900000 -23.940430 41.062159
31.000000 -23.908691 41.062159
31.100000 -23.376953 41.062159
31.200000 -22.345215 41.062159
31.000000 -22.063477 41.062159
30.500000 -21.281738 41.062159
30.200000 -20.750000 41.062159
30.100000 -19.594238 41.062159
30.100000 -18.938477 41.062159
30.200000 -18.157715 41.062159
30.300000 -17.376953 41.062159
30.500000 -17.221191 41.062159
30.800000 -16.565430 41.062159
30.800000 -27.408691 41.201002
30.600000 -26.876953 41.201002
30.600000 -26.220215 41.201002
30.700000 -25.438477 41.201002
30.800000 -25.156738 41.201002
30.900000 -24.500000 41.201002
31.000000 -23.968262 41.201002
31.000000 -22.811523 41.201002
31.200000 -22.779785 41.201002
31.000000 -21.998047 41.201002
30.500000 -20.591309 41.201002
30.200000 -20.684570 41.201002
30.100000 -19.402832 41.201002
30.100000 -18.871094 41.201002
30.100000 -18.589355 41.201002
30.200000 -17.432617 41.201002
30.400000 -17.525879 41.201002
30.800000 -16.244141 41.201002
31.700000 -29.124512 41.343491
31.200000 -28.343750 41.343491
30.700000 -27.190430 41.343491
30.600000 -26.912109 41.343491
30.600000 -26.258789 41.343491
30.700000 -25.980469 41.343491
30.800000 -24.577148 41.343491
30.900000 -24.423828 41.343491
30.900000 -23.645508 41.343491
30.900000 -23.242188 41.343491
31.100000 -22.838867 41.343491
31.000000 -21.435547 41.343491
30.400000 -20.782227 41.343491
30.100000 -19.878906 41.343491
29.900000 -19.725586 41.343491
29.900000 -18.697266 41.343491
30.100000 -18.168945 41.343491
30.200000 -17.640625 41.343491
30.400000 -16.987305 41.343491
30.700000 -16.208984 41.343491
31.000000 -28.532715 41.484609
31.000000 -28.004883 41.484609
30.700000 -27.477051 41.484609
30.600000 -26.171387 41.484609
30.600000 -25.393555 41.484609
30.700000 -25.115723 41.484609
30.900000 -24.337891 41.484609
30.900000 -23.310059 41.484609
30.900000 -23.157227 41.484609
31.100000 -22.629395 41.484609
30.900000 -21.351562 41.484609
30.300000 -20.698730 41.484609
29.900000 -20.045898 41.484609
29.700000 -19.268066 41.484609
29.900000 -18.490234 41.484609
30.200000 -18.462402 41.484609
30.200000 -17.434570 41.484609
30.400000 -17.031738 41.484609
30.700000 -16.128906 41.484609
30.800000 -27.857422 41.627470
30.700000 -27.578613 41.627470
30.600000 -26.549805 41.627470
30.600000 -26.020996 41.627470
30.600000 -25.492188 41.627470
30.700000 -25.213379 41.627470
30.900000 -24.309570 41.627470
30.900000 -23.280762 41.627470
30.900000 -22.751953 41.627470
31.000000 -22.598145 41.627470
30.800000 -21.444336 41.627470
30.100000 -20.665527 41.627470
29.900000 -20.511719 41.627470
29.700000 -18.982910 41.627470
29.900000 -19.204102 41.627470
30.100000 -18.425293 41.627470
30.200000 -17.771484 41.627470
30.400000 -16.867676 41.627470
30.800000 -16.213867 41.627470
30.700000 -27.050293 41.779762
30.600000 -26.767578 41.779762
30.600000 -25.859863 41.779762
30.600000 -25.827148 41.779762
30.700000 -25.169434 41.779762
30.900000 -24.511719 41.779762
30.900000 -23.354004 41.779762
30.900000 -23.196289 41.779762
31.000000 -22.288574 41.779762
30.800000 -21.755859 41.779762
30.000000 -20.848145 41.779762
29.600000 -20.190430 41.779762
29.600000 -19.782715 41.779762
29.900000 -19.250000 41.779762
30.100000 -17.720215 41.779762
30.100000 -17.065430 41.779762
30.400000 -16.785645 41.779762
30.700000 -15.880859 41.779762
30.700000 -27.508789 41.905423
30.600000 -26.853516 41.905423
30.600000 -25.948242 41.905423
30.600000 -25.667969 41.905423
30.700000 -24.637695 41.905423
30.800000 -24.232422 41.905423
30.900000 -23.577148 41.905423
30.800000 -23.171875 41.905423
31.000000 -22.517090 41.905423
30.800000 -20.987305 41.905423
29.500000 -19.802734 41.905423
29.800000 -17.963379 41.905423
30.100000 -17.558594 41.905423
30.400000 -16.528809 41.905423
30.700000 -15.999023 41.905423
31.300000 -28.623535 42.059245
30.800000 -27.717773 42.059245
30.600000 -27.187012 42.059245
30.600000 -26.531250 42.059245
30.600000 -25.879883 42.059245
30.700000 -24.728516 42.059245
30.700000 -24.077148 42.059245
30.900000 -23.675781 42.059245
30.800000 -22.649414 42.059245
30.900000 -22.748047 42.059245
30.900000 -21.346680 42.059245
29.300000 -19.793945 42.059245
29.700000 -18.464844 42.059245
30.100000 -17.313477 42.059245
30.200000 -17.162109 42.059245
30.500000 -16.510742 42.059245
30.700000 -26.974609 42.186155
30.600000 -26.573730 42.186155
30.700000 -25.547852 42.186155
30.600000 -25.021973 42.186155
30.700000 -24.871094 42.186155
30.800000 -23.970215 42.186155
30.800000 -22.944336 42.186155
29.600000 -20.840820 42.186155
29.500000 -19.814941 42.186155
29.800000 -17.987305 42.186155
30.200000 -17.461426 42.186155
30.300000 -16.935547 42.186155
30.700000 -16.534668 42.186155
31.200000 -28.503906 42.339390
30.800000 -27.602051 42.339390
30.600000 -26.700195 42.339390
30.600000 -26.048340 42.339390
30.600000 -25.896484 42.339390
30.700000 -25.369629 42.339390
30.800000 -24.342773 42.339390
30.800000 -24.065918 42.339390
30.800000 -23.289062 42.339390
30.800000 -22.387207 42.339390
30.900000 -21.610352 42.339390
30.200000 -17.297363 42.339390
30.400000 -16.145508 42.339390
31.000000 -29.118652 42.479595
31.000000 -28.586914 42.479595
30.800000 -27.430176 42.479595
30.600000 -26.648438 42.479595
30.500000 -25.741699 42.479595
30.600000 -25.584961 42.479595
30.700000 -24.678223 42.479595
30.700000 -24.396484 42.479595
30.800000 -23.739746 42.479595
30.700000 -23.083008 42.479595
30.900000 -22.551270 42.479595
30.300000 -17.047363 42.479595
30.400000 -16.515625 42.479595
30.800000 -28.142578 42.620145
30.800000 -27.109863 42.620145
30.600000 -26.952148 42.620145
30.500000 -26.044434 42.620145
30.600000 -25.261719 42.620145
30.700000 -24.854004 42.620145
30.700000 -24.321289 42.620145
30.800000 -23.913574 42.620145
29.400000 -18.969238 42.620145
30.200000 -16.846191 42.620145
30.400000 -16.440430 42.620145
31.600000 -28.777832 42.749209
31.100000 -28.622070 42.749209
30.700000 -27.966309 42.749209
30.600000 -27.185547 42.749209
30.600000 -26.654785 42.749209
30.600000 -25.374023 42.749209
30.600000 -24.468262 42.749209
30.700000 -24.312500 42.749209
30.800000 -23.534180 42.749209
30.700000 -23.130859 42.749209
30.800000 -22.477539 42.749209
30.500000 -21.199219 42.749209
30.200000 -16.875977 42.749209
30.400000 -16.097656 42.749209
30.800000 -27.645508 42.888520
30.600000 -26.994141 42.888520
30.600000 -26.342773 42.888520
30.600000 -25.941406 42.888520
30.600000 -25.040039 42.888520
30.700000 -24.763672 42.888520
30.800000 -23.862305 42.888520
30.700000 -23.585938 42.888520
30.200000 -17.348633 42.888520
30.300000 -16.947266 42.888520
30.600000 -15.670898 42.888520
30.900000 -28.142090 43.042651
30.700000 -26.988281 43.042651
30.600000 -26.209473 43.042651
30.600000 -26.180664 43.042651
30.600000 -25.026855 43.042651
30.600000 -24.123047 43.042651
30.700000 -23.594238 43.042651
30.700000 -22.940430 43.042651
30.200000 -17.181152 43.042651
30.300000 -17.152344 43.042651
30.600000 -16.248535 43.042651
30.800000 -27.771973 43.180503
30.600000 -26.741211 43.180503
30.600000 -26.210449 43.180503
30.500000 -25.679688 43.180503
30.600000 -25.523926 43.180503
30.600000 -24.743164 43.180503
30.700000 -24.087402 43.180503
30.700000 -23.306641 43.180503
30.100000 -16.904785 43.180503
30.300000 -16.499023 43.180503
30.700000 -16.343262 43.180503
30.700000 -28.288086 43.322186
30.700000 -27.506348 43.322186
30.600000 -26.724609 43.322186
30.500000 -26.692871 43.322186
30.600000 -25.911133 43.322186
30.600000 -24.754395 43.322186
30.700000 -24.722656 43.322186
30.700000 -23.440918 43.322186
30.700000 -23.284180 43.322186
30.700000 -22.252441 43.322186
30.800000 -21.845703 43.322186
29.000000 -20.282227 43.322186
30.100000 -17.257324 43.322186
30.700000 -27.311035 43.461451
30.600000 -26.657227 43.461451
30.500000 -25.878418 43.461451
30.500000 -25.224609 43.461451
30.500000 -24.820801 43.461451
30.700000 -24.541992 43.461451
30.700000 -23.888184 43.461451
30.600000 -23.359375 43.461451
30.700000 -21.957520 43.461451
30.800000 -21.680664 43.461451
29.200000 -20.126953 43.461451
29.100000 -19.350098 43.461451
29.300000 -18.823242 43.461451
29.800000 -18.671387 43.461451
30.100000 -18.019531 43.461451
30.100000 -16.992676 43.461451
31.000000 -28.698242 43.602449
30.700000 -27.919434 43.602449
30.500000 -26.890625 43.602449
30.500000 -26.115234 43.602449
30.500000 -25.839844 43.602449
30.600000 -25.189453 43.602449
30.700000 -24.164062 43.602449
30.800000 -23.888672 43.602449
30.600000 -23.238281 43.602449
30.600000 -22.587891 43.602449
30.700000 -21.687500 43.602449
29.200000 -20.261719 43.602449
29.200000 -20.111328 43.602449
29.300000 -19.210938 43.602449
29.800000 -18.810547 43.602449
30.000000 -17.535156 43.602449
30.100000 -17.009766 43.602449
30.200000 -16.609375 43.602449
30.700000 -16.208984 43.602449
30.800000 -28.180664 43.743996
30.500000 -26.779297 43.743996
30.400000 -27.002930 43.743996
30.500000 -25.601562 43.743996
30.500000 -24.950195 43.743996
30.600000 -24.298828 43.743996
30.700000 -24.397461 43.743996
30.700000 -23.621094 43.743996
30.500000 -22.469727 43.743996
30.800000 -22.443359 43.743996
29.500000 -20.765625 43.743996
29.300000 -20.114258 43.743996
29.500000 -19.212891 43.743996
29.800000 -18.561523 43.743996
30.000000 -17.785156 43.743996
30.000000 -17.133789 43.743996
30.200000 -16.607422 43.743996
30.500000 -16.456055 43.743996
30.600000 -28.151367 43.885272
30.600000 -27.996094 43.885272
30.500000 -27.215820 43.885272
30.400000 -26.435547 43.885272
30.400000 -25.780273 43.885272
30.500000 -25.125000 43.885272
30.600000 -24.094727 43.885272
30.700000 -23.939453 43.885272
30.600000 -23.284180 43.885272
30.700000 -22.253906 43.885272
30.600000 -22.098633 43.885272
29.900000 -20.943359 43.885272
29.500000 -19.913086 43.885272
29.400000 -19.382812 43.885272
29.700000 -19.227539 43.885272
29.900000 -18.197266 43.885272
30.000000 -17.791992 43.885272
30.100000 -17.136719 43.885272
30.800000 -29.562500 44.026743
30.800000 -28.654297 44.026743
30.500000 -27.996094 44.026743
30.500000 -26.712891 44.026743
30.400000 -26.429688 44.026743
30.400000 -25.646484 44.026743
30.500000 -25.238281 44.026743
30.600000 -24.080078 44.026743
30.700000 -24.046875 44.026743
30.700000 -23.263672 44.026743
30.700000 -22.480469 44.026743
30.600000 -22.072266 44.026743
30.100000 -20.664062 44.026743
29.600000 -20.630859 44.026743
29.400000 -19.972656 44.026743
29.700000 -19.064453 44.026743
29.900000 -18.281250 44.026743
29.900000 -17.500977 44.026743
30.100000 -17.345703 44.026743
30.200000 -16.440430 44.026743
30.700000 -16.160156 44.026743
30.600000 -28.136719 44.167740
30.500000 -26.980957 44.167740
30.400000 -26.575195 44.167740
30.400000 -26.294434 44.167740
30.500000 -25.638672 44.167740
30.600000 -24.982910 44.167740
30.700000 -24.452148 44.167740
30.700000 -22.921387 44.167740
30.600000 -22.265625 44.167740
30.600000 -21.861328 44.167740
30.300000 -21.082031 44.167740
29.700000 -20.302734 44.167740
29.600000 -19.523438 44.167740
29.700000 -19.244141 44.167740
29.800000 -18.964844 44.167740
29.900000 -17.810547 44.167740
30.000000 -17.031250 44.167740
30.200000 -16.501953 44.167740
30.600000 -16.097656 44.167740
30.600000 -28.002930 44.307306
30.400000 -27.345215 44.307306
30.400000 -26.562500 44.307306
30.400000 -25.661133 44.307306
30.500000 -25.634766 44.307306
30.600000 -24.858398 44.307306
30.700000 -24.332031 44.307306
30.700000 -23.555664 44.307306
30.700000 -22.404297 44.307306
30.700000 -21.627930 44.307306
30.300000 -20.976562 44.307306
29.800000 -20.950195 44.307306
29.600000 -19.298828 44.307306
29.600000 -18.897461 44.307306
29.800000 -18.371094 44.307306
29.900000 -18.344727 44.307306
30.000000 -16.943359 44.307306
30.200000 -17.166992 44.307306
30.600000 -16.140625 44.307306
30.600000 -28.095703 44.447211
30.400000 -27.443848 44.447211
30.400000 -26.916992 44.447211
30.400000 -26.265137 44.447211
30.500000 -25.488281 44.447211
30.600000 -24.336426 44.447211
30.700000 -24.434570 44.447211
30.700000 -23.782715 44.447211
30.800000 -22.505859 44.447211
30.800000 -21.854004 44.447211
30.300000 -21.577148 44.447211
29.900000 -20.925293 44.447211
29.700000 -19.523438 44.447211
29.600000 -19.746582 44.447211
29.800000 -18.844727 44.447211
29.900000 -18.067871 44.447211
30.000000 -17.791016 44.447211
30.200000 -17.139160 44.447211
30.400000 -15.862305 44.447211
30.400000 -27.802734 44.586765
30.300000 -27.148438 44.586765
30.300000 -26.119141 44.586765
30.400000 -25.464844 44.586765
30.500000 -24.935547 44.586765
30.600000 -24.531250 44.586765
30.700000 -23.501953 44.586765
30.700000 -22.972656 44.586765
30.700000 -22.068359 44.586765
30.500000 -22.164062 44.586765
30.000000 -21.009766 44.586765
29.800000 -20.605469 44.586765
29.800000 -19.326172 44.586765
29.800000 -19.171875 44.586765
29.800000 -18.017578 44.586765
29.900000 -18.113281 44.586765
30.100000 -17.458984 44.586765
30.300000 -16.429688 44.586765
30.800000 -16.025391 44.586765
30.500000 -28.109375 44.728147
30.400000 -27.328125 44.728147
30.300000 -27.046875 44.728147
30.300000 -26.640625 44.728147
30.400000 -25.859375 44.728147
30.500000 -24.953125 44.728147
30.600000 -24.296875 44.728147
30.700000 -23.515625 44.728147
30.800000 -22.984375 44.728147
31.000000 -22.453125 44.728147
30.600000 -21.671875 44.728147
30.000000 -21.015625 44.728147
29.900000 -19.984375 44.728147
29.800000 -19.828125 44.728147
29.800000 -18.921875 44.728147
29.800000 -18.265625 44.728147
29.900000 -17.734375 44.728147
30.100000 -17.207520 44.728147
30.300000 -16.805664 44.728147
30.800000 -15.778809 44.728147
30.400000 -27.390625 44.866421
30.500000 -23.953125 44.866421
31.000000 -23.171875 44.866421
31.200000 -23.015625 44.866421
30.800000 -21.609375 44.866421
30.200000 -21.456543 44.866421
29.900000 -17.692383 44.866421
30.100000 -17.164551 44.866421
30.300000 -16.386719 44.866421
30.800000 -16.108887 44.866421
30.500000 -27.888672 45.007356
30.400000 -27.732910 45.007356
30.300000 -26.452148 45.007356
30.300000 -26.171387 45.007356
30.400000 -25.890625 45.007356
30.500000 -24.489258 45.007356
30.600000 -23.837891 45.007356
30.800000 -23.436523 45.007356
31.000000 -23.035156 45.007356
31.000000 -22.633789 45.007356
30.500000 -21.232422 45.007356
30.100000 -20.581055 45.007356
29.800000 -20.554688 45.007356
29.800000 -19.528320 45.007356
29.800000 -18.626953 45.007356
29.900000 -18.350586 45.007356
30.000000 -17.824219 45.007356
30.200000 -17.047852 45.007356
30.700000 -29.000000 45.148436
30.700000 -28.598145 45.148436
30.400000 -27.821289 45.148436
30.300000 -27.169434 45.148436
30.300000 -26.517578 45.148436
30.400000 -25.990723 45.148436
30.500000 -24.838867 45.148436
30.600000 -24.812012 45.148436
30.700000 -24.035156 45.148436
31.000000 -23.508301 45.148436
31.200000 -22.481445 45.148436
30.900000 -21.954590 45.148436
30.300000 -21.302734 45.148436
29.900000 -20.275879 45.148436
29.800000 -19.874023 45.148436
29.800000 -19.597168 45.148436
29.800000 -18.695312 45.148436
29.900000 -17.668457 45.148436
30.000000 -17.641602 45.148436
30.300000 -16.739746 45.148436
30.700000 -15.712891 45.148436
30.400000 -27.785156 45.289970
30.400000 -26.629395 45.289970
30.400000 -26.598633 45.289970
30.500000 -25.942871 45.289970
30.600000 -25.287109 45.289970
30.700000 -24.631348 45.289970
30.800000 -23.475586 45.289970
31.100000 -23.319824 45.289970
31.200000 -22.789062 45.289970
30.700000 -22.008301 45.289970
30.100000 -20.727539 45.289970
29.900000 -19.821777 45.289970
29.800000 -19.166016 45.289970
29.800000 -18.885254 45.289970
29.900000 -18.104492 45.289970
30.000000 -17.698730 45.289970
30.200000 -17.292969 45.289970
31.500000 -29.541504 45.433282
31.100000 -28.759766 45.433282
30.600000 -28.228027 45.433282
30.400000 -27.071289 45.433282
30.400000 -26.664551 45.433282
30.400000 -26.257812 45.433282
30.600000 -25.726074 45.433282
30.700000 -24.444336 45.433282
30.800000 -24.037598 45.433282
31.000000 -23.505859 45.433282
31.300000 -22.974121 45.433282
31.100000 -22.442383 45.433282
30.500000 -20.910645 45.433282
30.100000 -20.878906 45.433282
29.900000 -20.222168 45.433282
29.900000 -19.690430 45.433282
29.900000 -18.658691 45.433282
30.000000 -17.626953 45.433282
30.200000 -17.720215 45.433282
30.400000 -16.813477 45.433282
30.700000 -16.656738 45.433282
31.500000 -28.943848 45.571563
31.000000 -28.536133 45.571563
30.600000 -27.378418 45.571563
30.500000 -27.345703 45.571563
30.400000 -26.187988 45.571563
30.400000 -25.780273 45.571563
30.600000 -25.372559 45.571563
30.700000 -24.464844 45.571563
30.800000 -23.557129 45.571563
31.000000 -23.774414 45.571563
31.300000 -23.116699 45.571563
31.100000 -21.958984 45.571563
30.600000 -21.676270 45.571563
30.100000 -20.768555 45.571563
29.900000 -19.860840 45.571563
29.900000 -19.578125 45.571563
30.000000 -18.422852 45.571563
30.000000 -18.017578 45.571563
30.100000 -16.987305 45.571563
30.300000 -16.457031 45.571563
30.700000 -16.051758 45.571563
31.600000 -29.616211 45.710733
31.100000 -28.085938 45.710733
30.600000 -27.930664 45.710733
30.500000 -27.150391 45.710733
30.500000 -26.120117 45.710733
30.500000 -25.464844 45.710733
30.600000 -25.559570 45.710733
30.800000 -24.904297 45.710733
30.900000 -23.624023 45.710733
31.100000 -23.718750 45.710733
31.300000 -22.692383 45.710733
31.300000 -22.041016 45.710733
30.700000 -21.514648 45.710733
30.100000 -20.738281 45.710733
29.900000 -20.086914 45.710733
29.900000 -18.810547 45.710733
30.000000 -18.409180 45.710733
30.000000 -18.007812 45.710733
30.100000 -17.106445 45.710733
30.300000 -16.830078 45.710733
30.700000 -16.303711 45.710733
30.500000 -26.812500 45.850618
30.500000 -26.534668 45.850618
30.500000 -26.131836 45.850618
30.600000 -25.729004 45.850618
30.800000 -24.451172 45.850618
30.900000 -23.798340 45.850618
31.100000 -23.645508 45.850618
31.300000 -23.117676 45.850618
31.400000 -22.339844 45.850618
30.100000 -20.784180 45.850618
30.000000 -20.131348 45.850618
30.000000 -19.228516 45.850618
30.000000 -18.700684 45.850618
30.000000 -18.047852 45.850618
30.100000 -17.770020 45.850618
30.400000 -16.617188 45.850618
30.800000 -16.464355 45.850618
30.600000 -27.416016 45.993873
30.500000 -26.761719 45.993873
30.500000 -26.732422 45.993873
30.600000 -25.953125 45.993873
30.700000 -25.548828 45.993873
30.800000 -24.769531 45.993873
31.000000 -24.115234 45.993873
31.100000 -22.960938 45.993873
31.300000 -22.556641 45.993873
31.500000 -21.902344 45.993873
30.300000 -20.968750 45.993873
30.100000 -19.939453 45.993873
30.100000 -19.535156 45.993873
30.100000 -19.005859 45.993873
30.100000 -17.976562 45.993873
30.300000 -17.447266 45.993873
30.500000 -16.667969 45.993873
30.900000 -16.388672 45.993873
31.000000 -28.655273 46.131651
30.600000 -27.625488 46.131651
30.500000 -26.845703 46.131651
30.500000 -26.315918 46.131651
30.700000 -26.036133 46.131651
30.800000 -25.006348 46.131651
31.000000 -24.476562 46.131651
31.100000 -23.946777 46.131651
31.200000 -23.041992 46.131651
31.400000 -22.762207 46.131651
31.500000 -21.607422 46.131651
30.300000 -20.672852 46.131651
30.200000 -20.018066 46.131651
30.100000 -18.988281 46.131651
30.100000 -17.958496 46.131651
30.200000 -17.303711 46.131651
30.400000 -17.023926 46.131651
30.600000 -16.119141 46.131651
31.100000 -16.089355 46.131651
30.500000 -26.938477 46.273736
30.500000 -26.908203 46.273736
30.600000 -26.002930 46.273736
30.700000 -25.597656 46.273736
30.900000 -25.067383 46.273736
31.100000 -24.162109 46.273736
31.200000 -23.756836 46.273736
31.300000 -23.226562 46.273736
31.400000 -22.321289 46.273736
31.400000 -21.541016 46.273736
30.800000 -20.510742 46.273736
30.300000 -20.105469 46.273736
30.100000 -19.200195 46.273736
30.100000 -18.544922 46.273736
30.100000 -18.014648 46.273736
30.300000 -17.359375 46.273736
30.500000 -16.831543 46.273736
30.700000 -27.444336 46.415012
30.500000 -27.290527 46.415012
30.500000 -26.386719 46.415012
30.600000 -25.607910 46.415012
30.800000 -25.579102 46.415012
31.000000 -24.675293 46.415012
31.200000 -24.146484 46.415012
31.400000 -23.617676 46.415012
31.300000 -22.463867 46.415012
31.600000 -21.810059 46.415012
30.600000 -20.129883 46.415012
30.300000 -19.853516 46.415012
30.100000 -19.077148 46.415012
30.000000 -18.300781 46.415012
30.200000 -18.274414 46.415012
30.400000 -17.748047 46.415012
30.600000 -16.971680 46.415012
30.900000 -16.195312 46.415012
31.000000 -28.396484 46.554851
30.600000 -27.742188 46.554851
30.500000 -27.212891 46.554851
30.600000 -26.183594 46.554851
30.700000 -26.029297 46.554851
30.800000 -25.375000 46.554851
31.100000 -24.473145 46.554851
31.300000 -24.071289 46.554851
31.400000 -23.544434 46.554851
31.200000 -20.713867 46.554851
30.600000 -20.062012 46.554851
30.300000 -19.285156 46.554851
30.200000 -18.633301 46.554851
30.100000 -18.606445 46.554851
30.300000 -17.579590 46.554851
30.400000 -17.052734 46.554851
30.600000 -16.150879 46.554851
31.100000 -16.124023 46.554851
30.500000 -27.642578 46.695171
30.500000 -26.487305 46.695171
30.600000 -26.457031 46.695171
30.800000 -25.926758 46.695171
31.000000 -24.521484 46.695171
31.200000 -24.366211 46.695171
31.400000 -23.585938 46.695171
31.500000 -22.805664 46.695171
31.400000 -22.150391 46.695171
31.600000 -21.870117 46.695171
30.400000 -19.934570 46.695171
30.300000 -19.529297 46.695171
30.300000 -18.874023 46.695171
30.300000 -18.468750 46.695171
30.300000 -17.813477 46.695171
30.500000 -17.158203 46.695171
30.900000 -16.502930 46.695171
31.400000 -15.847656 46.695171
30.500000 -27.750000 46.837815
30.600000 -27.093750 46.837815
30.700000 -26.062500 46.837815
30.800000 -25.156250 46.837815
31.000000 -24.500000 46.837815
31.200000 -23.968750 46.837815
31.400000 -23.687500 46.837815
31.500000 -22.781250 46.837815
31.400000 -21.875000 46.837815
31.600000 -21.968750 46.837815
30.500000 -20.406250 46.837815
30.300000 -19.625000 46.837815
30.300000 -18.843750 46.837815
30.300000 -18.437500 46.837815
30.300000 -17.531250 46.837815
30.600000 -17.125000 46.837815
30.700000 -28.315918 46.977698
30.600000 -27.411133 46.977698
30.700000 -27.006348 46.977698
30.800000 -26.226562 46.977698
30.900000 -25.821777 46.977698
31.100000 -24.666992 46.977698
31.300000 -24.512207 46.977698
31.500000 -23.857422 46.977698
31.600000 -23.202637 46.977698
31.500000 -22.172852 46.977698
31.800000 -22.018066 46.977698
30.500000 -20.333496 46.977698
30.300000 -19.428711 46.977698
30.300000 -18.648926 46.977698
30.300000 -18.494141 46.977698
30.400000 -17.339355 46.977698
30.700000 -17.184570 46.977698
31.900000 -29.187500 47.118174
31.100000 -28.156250 47.118174
30.600000 -28.125000 47.118174
30.500000 -26.843750 47.118174
30.600000 -26.312500 47.118174
30.800000 -25.781250 47.118174
31.000000 -25.625000 47.118174
31.200000 -24.593750 47.118174
31.300000 -24.062500 47.118174
31.600000 -23.531250 47.118174
31.500000 -22.250000 47.118174
31.600000 -22.093750 47.118174
31.800000 -21.312500 47.118174
30.600000 -19.500000 47.118174
30.400000 -19.468750 47.118174
30.400000 -18.189453 47.118174
30.400000 -18.160156 47.118174
30.500000 -17.005859 47.118174
30.800000 -16.976562 47.118174
31.200000 -16.197266 47.118174
30.300000 -29.625000 47.256928
30.600000 -27.125000 47.256928
30.700000 -27.093750 47.256928
30.800000 -26.312500 47.256928
30.900000 -25.781250 47.256928
31.100000 -24.625000 47.256928
31.200000 -24.468750 47.256928
31.400000 -23.437500 47.256928
31.600000 -23.406250 47.256928
31.400000 -21.197754 47.256928
30.900000 -20.794922 47.256928
30.600000 -19.892090 47.256928
30.400000 -18.739258 47.256928
30.400000 -17.961426 47.256928
30.500000 -17.433594 47.256928
30.600000 -17.030762 47.256928
30.900000 -16.627930 47.256928
31.300000 -15.975098 47.256928
30.600000 -27.543945 47.395952
30.600000 -27.264160 47.395952
30.700000 -26.484375 47.395952
30.800000 -26.328125 47.395952
30.900000 -25.296875 47.395952
31.200000 -24.765625 47.395952
31.400000 -24.359375 47.395952
31.500000 -23.703125 47.395952
31.600000 -23.046875 47.395952
31.300000 -20.578125 47.395952
30.800000 -20.171875 47.395952
30.600000 -19.640625 47.395952
30.500000 -18.859375 47.395952
30.500000 -18.203125 47.395952
30.600000 -17.421875 47.395952
30.700000 -17.140625 47.395952
31.000000 -28.751465 47.536736
30.600000 -27.595703 47.536736
30.600000 -27.189941 47.536736
30.700000 -26.659180 47.536736
30.800000 -25.753418 47.536736
31.000000 -25.222656 47.536736
31.200000 -24.691895 47.536736
31.400000 -24.036133 47.536736
31.500000 -23.630371 47.536736
31.600000 -22.849609 47.536736
31.300000 -20.632324 47.536736
30.800000 -20.351562 47.536736
30.600000 -19.570801 47.536736
30.500000 -18.540039 47.536736
30.400000 -18.009277 47.536736
30.600000 -17.478516 47.536736
30.800000 -16.822754 47.536736
31.000000 -28.660156 47.681081
30.600000 -28.257812 47.681081
30.500000 -27.230469 47.681081
30.700000 -26.453125 47.681081
30.800000 -25.925781 47.681081
31.000000 -25.023438 47.681081
31.200000 -24.496094 47.681081
31.400000 -23.718750 47.681081
31.500000 -23.316406 47.681081
31.600000 -23.039062 47.681081
31.300000 -20.832031 47.681081
30.900000 -20.429688 47.681081
30.600000 -19.652344 47.681081
30.500000 -18.750000 47.681081
30.500000 -17.972656 47.681081
30.600000 -17.445312 47.681081
30.800000 -16.667969 47.681081
31.100000 -16.515625 47.681081
31.700000 -15.988281 47.681081
31.000000 -28.318848 47.821152
30.600000 -27.789062 47.821152
30.500000 -27.634277 47.821152
30.600000 -26.354492 47.821152
30.800000 -25.824707 47.821152
30.900000 -25.169922 47.821152
31.100000 -24.515137 47.821152
31.300000 -23.860352 47.821152
31.500000 -23.580566 47.821152
31.600000 -23.050781 47.821152
31.400000 -20.836426 47.821152
30.900000 -20.431641 47.821152
30.600000 -19.651855 47.821152
30.600000 -18.747070 47.821152
30.500000 -18.342285 47.821152
30.600000 -17.437500 47.821152
30.800000 -17.035645 47.821152
31.100000 -16.133789 47.821152
31.600000 -16.106934 47.821152
30.500000 -27.412109 47.958347
30.500000 -26.631836 47.958347
30.600000 -26.726562 47.958347
30.800000 -25.571289 47.958347
31.000000 -25.291016 47.958347
31.200000 -24.385742 47.958347
31.300000 -24.105469 47.958347
31.600000 -23.075195 47.958347
31.600000 -23.044922 47.958347
31.400000 -20.583984 47.958347
30.900000 -20.183594 47.958347
30.700000 -19.408203 47.958347
30.600000 -18.132812 47.958347
30.600000 -18.232422 47.958347
30.700000 -17.582031 47.958347
31.000000 -16.931641 47.958347
31.200000 -16.406250 47.958347
31.800000 -15.630859 47.958347
30.600000 -28.294434 48.099828
30.500000 -27.513672 48.099828
30.500000 -26.482910 48.099828
30.600000 -25.952148 48.099828
30.800000 -25.796387 48.099828
31.000000 -24.640625 48.099828
31.200000 -24.485352 48.099828
31.500000 -23.955078 48.099828
31.600000 -23.174805 48.099828
31.700000 -20.958984 48.099828
31.300000 -20.053711 48.099828
30.800000 -19.273438 48.099828
30.600000 -18.993164 48.099828
30.600000 -18.212891 48.099828
30.700000 -17.557617 48.099828
30.900000 -17.152344 48.099828
31.100000 -16.247070 48.099828
31.500000 -15.466797 48.099828
30.500000 -26.410645 48.395107
30.500000 -26.379883 48.395107
30.600000 -25.474121 48.395107
30.800000 -24.568359 48.395107
31.100000 -24.162598 48.395107
31.500000 -23.381836 48.395107
31.600000 -23.101074 48.395107
31.800000 -21.258789 48.395107
30.900000 -19.697266 48.395107
30.800000 -18.791504 48.395107
30.700000 -18.635742 48.395107
30.700000 -17.604980 48.395107
30.900000 -17.074219 48.395107
31.100000 -16.168457 48.395107
30.600000 -28.434570 48.533345
30.400000 -27.154297 48.533345
30.300000 -26.874023 48.533345
30.300000 -26.718750 48.533345
30.400000 -25.313477 48.533345
