28.100000 -27.992188 12.942456
28.200000 -27.343750 12.942456
28.100000 -25.945312 12.942456
28.100000 -25.921875 12.942456
27.900000 -25.648438 12.942456
27.400000 -24.250000 12.942456
27.100000 -24.226562 12.942456
26.900000 -23.453125 12.942456
26.900000 -22.804688 12.942456
27.100000 -21.781250 12.942456
27.100000 -21.257812 12.942456
27.200000 -19.984375 12.942456
27.300000 -20.210938 12.942456
27.500000 -19.062500 12.942456
27.800000 -19.039062 12.942456
27.800000 -29.914062 13.081993
27.900000 -28.890625 13.081993
28.000000 -27.742188 13.081993
28.100000 -27.593750 13.081993
28.100000 -26.695312 13.081993
28.100000 -25.796875 13.081993
28.100000 -26.273438 13.081993
27.800000 -24.375000 13.081993
27.300000 -24.601562 13.081993
27.100000 -24.078125 13.081993
26.900000 -22.558105 13.081993
26.900000 -22.163086 13.081993
27.100000 -22.018066 13.081993
27.100000 -21.498047 13.081993
27.200000 -20.603027 13.081993
27.400000 -19.583008 13.081993
27.500000 -18.812988 13.081993
27.900000 -18.667969 13.081993
27.800000 -29.822754 13.223300
27.800000 -29.176758 13.223300
27.900000 -29.280762 13.223300
28.000000 -28.509766 13.223300
28.000000 -27.738770 13.223300
28.100000 -26.842773 13.223300
28.100000 -26.446777 13.223300
28.100000 -26.050781 13.223300
27.800000 -24.779785 13.223300
27.300000 -24.383789 13.223300
27.100000 -23.987793 13.223300
27.000000 -23.341797 13.223300
27.000000 -22.320801 13.223300
27.000000 -21.049805 13.223300
27.100000 -20.653809 13.223300
27.200000 -20.132812 13.223300
27.300000 -20.361816 13.223300
27.500000 -19.465820 13.223300
27.900000 -19.194824 13.223300
27.700000 -29.671875 13.362142
27.800000 -29.023438 13.362142
27.900000 -28.625000 13.362142
28.000000 -28.601562 13.362142
28.100000 -27.328125 13.362142
28.100000 -26.554688 13.362142
28.100000 -26.531250 13.362142
28.000000 -26.132812 13.362142
27.600000 -24.484375 13.362142
27.200000 -23.585938 13.362142
27.100000 -23.937500 13.362142
27.000000 -22.914062 13.362142
27.000000 -22.015625 13.362142
27.000000 -21.617188 13.362142
27.100000 -21.468750 13.362142
27.300000 -19.945312 13.362142
27.500000 -19.546875 13.362142
27.700000 -29.726562 13.504274
27.800000 -29.949219 13.504274
27.800000 -28.546875 13.504274
27.900000 -28.894531 13.504274
28.000000 -27.742188 13.504274
28.100000 -27.089844 13.504274
28.200000 -25.812500 13.504274
28.200000 -25.660156 13.504274
27.800000 -25.132812 13.504274
27.300000 -23.480469 13.504274
27.100000 -22.953125 13.504274
27.000000 -23.306641 13.504274
27.000000 -21.660156 13.504274
27.000000 -21.263672 13.504274
27.100000 -21.117188 13.504274
27.200000 -20.595703 13.504274
27.300000 -19.199219 13.504274
27.500000 -19.177734 13.504274
27.900000 -18.156250 13.504274
27.700000 -29.235352 13.658271
27.900000 -28.462402 13.658271
28.000000 -27.689453 13.658271
28.000000 -27.916504 13.658271
28.100000 -27.018555 13.658271
28.200000 -26.120605 13.658271
28.100000 -25.597656 13.658271
27.600000 -25.074707 13.658271
27.200000 -23.426758 13.658271
27.000000 -23.278809 13.658271
27.000000 -23.130859 13.658271
27.000000 -22.232910 13.658271
27.000000 -21.834961 13.658271
27.100000 -20.812012 13.658271
27.300000 -19.914062 13.658271
27.500000 -19.766113 13.658271
27.700000 -29.658203 13.799875
27.700000 -29.132324 13.799875
27.900000 -28.481445 13.799875
28.000000 -28.330566 13.799875
28.000000 -27.304688 13.799875
28.100000 -27.403809 13.799875
28.200000 -26.002930 13.799875
28.100000 -25.352051 13.799875
27.600000 -24.326172 13.799875
27.200000 -23.675293 13.799875
27.000000 -23.524414 13.799875
27.000000 -23.248535 13.799875
27.000000 -22.597656 13.799875
27.000000 -21.571777 13.799875
27.100000 -21.420898 13.799875
27.300000 -20.395020 13.799875
27.500000 -19.119141 13.799875
27.700000 -29.546875 13.926767
27.900000 -28.646484 13.926767
28.000000 -27.746094 13.926767
28.000000 -27.720703 13.926767
28.200000 -26.695312 13.926767
28.300000 -26.669922 13.926767
28.100000 -25.019531 13.926767
27.600000 -24.994141 13.926767
27.200000 -23.843750 13.926767
27.100000 -23.567871 13.926767
27.000000 -22.166992 13.926767
27.000000 -21.891113 13.926767
27.000000 -20.865234 13.926767
27.100000 -20.839355 13.926767
27.300000 -20.563477 13.926767
27.500000 -19.037598 13.926767
27.700000 -29.716797 14.080889
27.700000 -29.817383 14.080889
27.900000 -29.292969 14.080889
28.000000 -28.643555 14.080889
28.100000 -27.994141 14.080889
28.300000 -26.844727 14.080889
28.500000 -25.820312 14.080889
28.300000 -25.295898 14.080889
27.800000 -24.146484 14.080889
27.300000 -23.497070 14.080889
27.000000 -23.472656 14.080889
27.000000 -21.948242 14.080889
27.000000 -22.298828 14.080889
27.000000 -21.774414 14.080889
27.100000 -21.125000 14.080889
27.300000 -20.350586 14.080889
27.500000 -19.326172 14.080889
27.900000 -29.111328 14.222526
27.900000 -28.586914 14.222526
28.100000 -28.312500 14.222526
28.300000 -27.913086 14.222526
28.500000 -26.388672 14.222526
28.600000 -25.739258 14.222526
28.300000 -25.964844 14.222526
27.800000 -24.940430 14.222526
27.300000 -24.041016 14.222526
27.100000 -23.391602 14.222526
27.000000 -21.992188 14.222526
27.000000 -22.467773 14.222526
27.100000 -21.943359 14.222526
27.300000 -21.043945 14.222526
27.300000 -19.769531 14.222526
27.500000 -18.995117 14.222526
27.900000 -18.470703 14.222526
27.900000 -29.753906 14.364040
27.900000 -28.226562 14.364040
28.100000 -27.824219 14.364040
28.300000 -27.546875 14.364040
28.500000 -26.644531 14.364040
28.600000 -26.367188 14.364040
28.500000 -25.839844 14.364040
27.300000 -23.915527 14.364040
27.200000 -23.143555 14.364040
27.100000 -22.496582 14.364040
27.100000 -22.474609 14.364040
27.200000 -21.327637 14.364040
27.200000 -20.430664 14.364040
27.400000 -20.033691 14.364040
27.600000 -19.511719 14.364040
28.000000 -18.739746 14.364040
27.800000 -29.739258 14.503439
27.800000 -29.968262 14.503439
27.900000 -29.322266 14.503439
28.100000 -28.551270 14.503439
28.200000 -27.280273 14.503439
28.400000 -27.509277 14.503439
28.600000 -26.363281 14.503439
28.700000 -25.592285 14.503439
28.500000 -25.321289 14.503439
27.800000 -24.675293 14.503439
27.400000 -23.529297 14.503439
27.200000 -22.133301 14.503439
27.100000 -22.737305 14.503439
27.100000 -22.091309 14.503439
27.200000 -21.445312 14.503439
27.300000 -20.549316 14.503439
27.500000 -20.028320 14.503439
27.800000 -29.667480 14.643480
27.900000 -29.520508 14.643480
28.000000 -28.873535 14.643480
28.200000 -28.726562 14.643480
28.400000 -27.579590 14.643480
28.500000 -27.432617 14.643480
28.500000 -26.535645 14.643480
28.700000 -25.388672 14.643480
28.500000 -25.366699 14.643480
27.800000 -24.594727 14.643480
27.400000 -23.447754 14.643480
27.200000 -22.300781 14.643480
27.100000 -22.028809 14.643480
27.200000 -21.006836 14.643480
27.300000 -20.859863 14.643480
27.300000 -20.087891 14.643480
27.500000 -19.065918 14.643480
27.800000 -29.889160 14.784459
27.900000 -29.988281 14.784459
28.000000 -28.587402 14.784459
28.200000 -28.686523 14.784459
28.400000 -27.285645 14.784459
28.500000 -26.884766 14.784459
28.600000 -26.483887 14.784459
28.700000 -25.458008 14.784459
28.900000 -25.057129 14.784459
27.500000 -23.135254 14.784459
27.300000 -22.864258 14.784459
27.200000 -22.218262 14.784459
27.200000 -21.072266 14.784459
27.200000 -20.801270 14.784459
27.300000 -20.655273 14.784459
27.500000 -20.259277 14.784459
27.800000 -19.613281 14.784459
28.300000 -18.592285 14.784459
27.900000 -29.939453 14.926475
28.000000 -29.666992 14.926475
28.200000 -28.894531 14.926475
28.400000 -27.497070 14.926475
28.600000 -27.099609 14.926475
28.700000 -26.702148 14.926475
28.400000 -24.509766 14.926475
27.700000 -23.612305 14.926475
27.400000 -23.214844 14.926475
27.300000 -22.442383 14.926475
27.200000 -21.294922 14.926475
27.200000 -20.647461 14.926475
27.400000 -20.625000 14.926475
27.500000 -19.477539 14.926475
27.700000 -19.705078 14.926475
28.100000 -18.432617 14.926475
28.000000 -29.363770 15.066560
28.100000 -28.838867 15.066560
28.300000 -28.813965 15.066560
28.500000 -28.164062 15.066560
28.600000 -27.264160 15.066560
28.700000 -26.989258 15.066560
28.400000 -24.789551 15.066560
27.700000 -23.639648 15.066560
27.400000 -23.364746 15.066560
27.300000 -22.339844 15.066560
27.300000 -21.189941 15.066560
27.300000 -20.665039 15.066560
27.400000 -20.140137 15.066560
27.500000 -19.865234 15.066560
27.800000 -19.090332 15.066560
28.300000 -19.190430 15.066560
28.100000 -28.899902 15.206972
28.300000 -27.999023 15.206972
28.500000 -27.598145 15.206972
28.600000 -27.697266 15.206972
28.700000 -26.421387 15.206972
28.400000 -24.843750 15.206972
27.800000 -23.568848 15.206972
27.500000 -22.543945 15.206972
27.400000 -21.769043 15.206972
27.300000 -21.119141 15.206972
27.300000 -20.469238 15.206972
27.400000 -20.319336 15.206972
27.600000 -19.419434 15.206972
27.800000 -18.894531 15.206972
28.300000 -18.369629 15.206972
27.900000 -29.740723 15.353949
28.100000 -29.716797 15.353949
28.300000 -28.192871 15.353949
28.400000 -27.793945 15.353949
28.600000 -27.395020 15.353949
28.700000 -26.746094 15.353949
28.700000 -26.472168 15.353949
28.300000 -24.150391 15.353949
27.700000 -23.376465 15.353949
27.500000 -22.727539 15.353949
27.400000 -21.828613 15.353949
27.400000 -20.804688 15.353949
27.500000 -20.155762 15.353949
27.600000 -19.881836 15.353949
27.800000 -19.607910 15.353949
28.100000 -29.947266 15.505451
28.200000 -28.546875 15.505451
28.400000 -28.146484 15.505451
28.600000 -27.496094 15.505451
28.700000 -27.220703 15.505451
28.800000 -26.320312 15.505451
28.500000 -23.869141 15.505451
28.000000 -23.343750 15.505451
27.600000 -22.318359 15.505451
27.500000 -22.792969 15.505451
27.500000 -21.017578 15.505451
27.500000 -20.867188 15.505451
27.600000 -20.091797 15.505451
27.800000 -19.316406 15.505451
28.100000 -19.541016 15.505451
28.500000 -18.265625 15.505451
28.000000 -29.926758 15.631081
28.200000 -29.149902 15.631081
28.400000 -28.498047 15.631081
28.500000 -28.221191 15.631081
28.700000 -27.319336 15.631081
28.800000 -26.542480 15.631081
28.700000 -24.093750 15.631081
28.100000 -23.070312 15.631081
27.600000 -22.421875 15.631081
27.500000 -22.273438 15.631081
27.500000 -21.625000 15.631081
27.500000 -21.351562 15.631081
27.600000 -20.203125 15.631081
27.800000 -20.054688 15.631081
28.100000 -18.781250 15.631081
28.500000 -18.132812 15.631081
27.900000 -29.738281 15.785225
28.000000 -29.965820 15.785225
28.200000 -29.193359 15.785225
28.300000 -28.295898 15.785225
28.500000 -27.898438 15.785225
28.700000 -27.375977 15.785225
28.800000 -26.853516 15.785225
28.900000 -24.661133 15.785225
27.800000 -23.241211 15.785225
27.600000 -21.843750 15.785225
27.500000 -22.196289 15.785225
27.500000 -21.298828 15.785225
27.600000 -20.526367 15.785225
27.800000 -19.378906 15.785225
28.100000 -18.856445 15.785225
28.500000 -18.208984 15.785225
27.900000 -29.696289 15.926081
28.000000 -29.921875 15.926081
28.100000 -29.022461 15.926081
28.300000 -28.498047 15.926081
28.500000 -27.473633 15.926081
28.700000 -27.074219 15.926081
28.900000 -26.799805 15.926081
28.900000 -24.476562 15.926081
27.900000 -23.177734 15.926081
27.700000 -21.903320 15.926081
27.600000 -22.128906 15.926081
27.600000 -21.354492 15.926081
27.600000 -19.830078 15.926081
27.800000 -19.430664 15.926081
28.100000 -19.281250 15.926081
28.500000 -19.008789 15.926081
27.900000 -29.877930 16.065376
28.000000 -29.355469 16.065376
28.200000 -27.833008 16.065376
28.400000 -27.185547 16.065376
28.700000 -26.913086 16.065376
28.900000 -26.765625 16.065376
28.500000 -24.066406 16.065376
27.900000 -23.172852 16.065376
27.700000 -22.654297 16.065376
27.600000 -21.385742 16.065376
27.600000 -21.492188 16.065376
27.700000 -20.848633 16.065376
27.900000 -20.080078 16.065376
28.100000 -18.811523 16.065376
28.500000 -19.042969 16.065376
27.800000 -29.658203 16.208504
27.900000 -28.512695 16.208504
28.100000 -28.117188 16.208504
28.300000 -27.971680 16.208504
28.500000 -26.951172 16.208504
28.800000 -26.305664 16.208504
29.000000 -26.035156 16.208504
28.600000 -24.223633 16.208504
28.100000 -23.078125 16.208504
27.900000 -22.182617 16.208504
27.700000 -22.162109 16.208504
27.600000 -21.266602 16.208504
27.700000 -20.871094 16.208504
27.900000 -19.600586 16.208504
28.100000 -19.705078 16.208504
27.400000 -29.031738 16.350805
27.500000 -29.008789 16.350805
27.700000 -28.985840 16.350805
30.000000 -26.394043 16.350805
26.700000 -22.302246 16.350805
26.700000 -22.529297 16.350805
26.800000 -22.256348 16.350805
26.900000 -20.983398 16.350805
27.000000 -20.210449 16.350805
27.100000 -19.437500 16.350805
27.500000 -29.425781 16.486782
27.600000 -29.401367 16.486782
27.700000 -28.876953 16.486782
28.000000 -28.352539 16.486782
28.400000 -26.953125 16.486782
28.700000 -26.679688 16.486782
29.000000 -26.531250 16.486782
28.800000 -25.257812 16.486782
28.700000 -24.460938 16.486782
28.500000 -23.562500 16.486782
28.100000 -23.039062 16.486782
27.900000 -21.515625 16.486782
27.800000 -20.867188 16.486782
27.800000 -21.218750 16.486782
27.900000 -20.195312 16.486782
28.100000 -19.046875 16.486782
27.300000 -29.759766 16.641440
27.400000 -29.734375 16.641440
27.400000 -28.958984 16.641440
27.600000 -28.808594 16.641440
28.000000 -27.783203 16.641440
28.400000 -27.507812 16.641440
28.800000 -26.607422 16.641440
29.100000 -25.832031 16.641440
28.800000 -25.056641 16.641440
28.600000 -24.130859 16.641440
28.400000 -23.605469 16.641440
28.000000 -22.455078 16.641440
27.900000 -22.179688 16.641440
27.800000 -20.904297 16.641440
27.900000 -20.003906 16.641440
28.000000 -20.353516 16.641440
28.100000 -19.328125 16.641440
27.200000 -29.619141 16.769304
27.300000 -28.467285 16.769304
29.000000 -25.984863 16.769304
29.100000 -25.583008 16.769304
28.800000 -23.752441 16.769304
28.200000 -22.975586 16.769304
27.900000 -21.698730 16.769304
27.800000 -21.796875 16.769304
27.800000 -20.899414 16.769304
27.900000 -20.251953 16.769304
28.100000 -19.604492 16.769304
28.400000 -19.207031 16.769304
28.800000 -18.684570 16.769304
27.000000 -28.809082 16.914663
27.000000 -29.031250 16.914663
29.200000 -26.289062 16.914663
29.000000 -23.718750 16.914663
28.400000 -23.070312 16.914663
28.100000 -22.796875 16.914663
28.000000 -21.898438 16.914663
27.900000 -21.000000 16.914663
27.900000 -20.226562 16.914663
28.100000 -19.453125 16.914663
28.300000 -19.679688 16.914663
26.800000 -28.892578 17.065717
26.800000 -28.367188 17.065717
26.800000 -27.341797 17.065717
29.100000 -24.064453 17.065717
28.700000 -22.789062 17.065717
28.300000 -22.888672 17.065717
28.000000 -21.613281 17.065717
27.900000 -21.337891 17.065717
27.900000 -20.812500 17.065717
28.000000 -20.287109 17.065717
28.200000 -19.386719 17.065717
28.500000 -18.611328 17.065717
29.000000 -18.210938 17.065717
26.900000 -29.507812 17.205471
26.800000 -29.109375 17.205471
26.700000 -27.835938 17.205471
26.600000 -27.812500 17.205471
26.700000 -27.289062 17.205471
28.900000 -24.023438 17.205471
28.400000 -22.375000 17.205471
28.100000 -22.101074 17.205471
28.000000 -21.577148 17.205471
27.900000 -20.553223 17.205471
28.000000 -20.279297 17.205471
28.200000 -20.005371 17.205471
28.400000 -19.231445 17.205471
27.000000 -29.218750 17.347560
26.800000 -29.572266 17.347560
26.700000 -28.800781 17.347560
26.600000 -28.154297 17.347560
26.600000 -27.632812 17.347560
28.700000 -22.857422 17.347560
28.300000 -22.835938 17.347560
28.100000 -21.314453 17.347560
27.900000 -20.667969 17.347560
28.000000 -20.646484 17.347560
28.200000 -20.375000 17.347560
28.300000 -18.728516 17.347560
28.700000 -19.207031 17.347560
29.200000 -18.435547 17.347560
26.800000 -29.757812 17.486986
26.700000 -28.486328 17.486986
26.600000 -27.339844 17.486986
26.700000 -27.443359 17.486986
28.600000 -23.542969 17.486986
28.300000 -22.896484 17.486986
28.100000 -21.250000 17.486986
28.100000 -20.603516 17.486986
28.100000 -20.707031 17.486986
28.200000 -19.685547 17.486986
28.400000 -18.914062 17.486986
28.700000 -18.517578 17.486986
29.200000 -18.496094 17.486986
26.900000 -29.364746 17.628031
26.800000 -27.339844 17.628031
26.800000 -27.564941 17.628031
29.200000 -25.340332 17.628031
29.000000 -23.515625 17.628031
28.500000 -22.872070 17.628031
28.300000 -22.353516 17.628031
28.100000 -21.334961 17.628031
28.100000 -20.191406 17.628031
28.200000 -19.922852 17.628031
28.400000 -19.779297 17.628031
28.600000 -18.635742 17.628031
27.200000 -29.906250 17.769956
27.100000 -29.883789 17.769956
27.000000 -29.111328 17.769956
27.000000 -28.213867 17.769956
29.300000 -25.624023 17.769956
29.300000 -24.306641 17.769956
28.800000 -22.784180 17.769956
28.400000 -22.136719 17.769956
28.200000 -21.864258 17.769956
28.100000 -20.966797 17.769956
28.100000 -19.819336 17.769956
28.200000 -19.546875 17.769956
28.400000 -18.649414 17.769956
28.700000 -18.376953 17.769956
29.200000 -17.979492 17.769956
27.400000 -29.746094 17.913828
27.300000 -29.570312 17.913828
27.300000 -28.919922 17.913828
29.400000 -25.417969 17.913828
29.100000 -23.591797 17.913828
28.600000 -22.316406 17.913828
28.300000 -22.041016 17.913828
28.200000 -22.015625 17.913828
28.200000 -20.365234 17.913828
28.200000 -20.464844 17.913828
28.400000 -20.064453 17.913828
28.600000 -19.164062 17.913828
28.900000 -18.388672 17.913828
29.300000 -17.988281 17.913828
27.500000 -29.035156 18.050088
27.500000 -29.259766 18.050088
27.600000 -28.609375 18.050088
27.800000 -28.083984 18.050088
28.300000 -27.183594 18.050088
28.800000 -27.158203 18.050088
29.200000 -26.257812 18.050088
29.400000 -25.732422 18.050088
29.100000 -23.656250 18.050088
28.600000 -22.507324 18.050088
28.400000 -22.608398 18.050088
28.200000 -21.709473 18.050088
28.200000 -21.060547 18.050088
28.200000 -20.411621 18.050088
28.400000 -19.137695 18.050088
28.600000 -18.738770 18.050088
28.900000 -18.214844 18.050088
29.300000 -18.190918 18.050088
27.800000 -29.968750 18.204575
27.700000 -29.945801 18.204575
27.700000 -28.672852 18.204575
27.800000 -28.274902 18.204575
28.000000 -27.626953 18.204575
28.400000 -27.354004 18.204575
28.800000 -26.581055 18.204575
29.200000 -26.558105 18.204575
29.400000 -25.285156 18.204575
29.300000 -24.091309 18.204575
28.800000 -23.443359 18.204575
28.500000 -22.170410 18.204575
28.200000 -21.397461 18.204575
28.200000 -20.874512 18.204575
28.200000 -19.726562 18.204575
28.400000 -19.703613 18.204575
28.600000 -18.680664 18.204575
28.900000 -18.407715 18.204575
29.300000 -18.259766 18.204575
28.000000 -29.104492 18.342393
28.100000 -28.454590 18.342393
28.400000 -27.429688 18.342393
28.800000 -27.404785 18.342393
29.100000 -27.004883 18.342393
29.400000 -26.104980 18.342393
29.700000 -24.530273 18.342393
28.600000 -22.105469 18.342393
28.400000 -22.080566 18.342393
28.300000 -20.930664 18.342393
28.200000 -20.030762 18.342393
28.300000 -19.505859 18.342393
28.600000 -19.105957 18.342393
28.800000 -18.831055 18.342393
28.100000 -29.066406 18.483258
28.100000 -29.415527 18.483258
28.300000 -28.014648 18.483258
28.600000 -27.738770 18.483258
28.900000 -27.212891 18.483258
29.200000 -26.437012 18.483258
29.400000 -25.661133 18.483258
29.600000 -24.208984 18.483258
28.600000 -22.158203 18.483258
28.400000 -21.882812 18.483258
28.300000 -21.107422 18.483258
28.300000 -20.957031 18.483258
28.400000 -20.306641 18.483258
28.600000 -19.531250 18.483258
28.800000 -18.255859 18.483258
28.300000 -28.904297 18.623103
28.500000 -28.880371 18.623103
28.700000 -27.856445 18.623103
29.000000 -27.082520 18.623103
29.200000 -27.058594 18.623103
29.400000 -26.284668 18.623103
29.500000 -25.885742 18.623103
29.100000 -22.938965 18.623103
28.600000 -22.540039 18.623103
28.500000 -21.641113 18.623103
28.300000 -21.742188 18.623103
28.300000 -20.343262 18.623103
28.400000 -20.569336 18.623103
28.600000 -19.295410 18.623103
28.800000 -19.021484 18.623103
29.100000 -17.997559 18.623103
29.600000 -18.098633 18.623103
28.400000 -29.507812 18.762450
28.600000 -28.609375 18.762450
28.700000 -28.335938 18.762450
29.000000 -27.562500 18.762450
29.200000 -27.039062 18.762450
29.400000 -26.265625 18.762450
29.500000 -25.242188 18.762450
29.300000 -24.046875 18.762450
28.800000 -22.648438 18.762450
28.500000 -22.000000 18.762450
28.400000 -21.976562 18.762450
28.300000 -20.703125 18.762450
28.300000 -20.554688 18.762450
28.500000 -19.531250 18.762450
28.700000 -18.507812 18.762450
28.900000 -18.109375 18.762450
29.300000 -17.588379 18.762450
28.500000 -29.291016 18.902448
28.600000 -28.893555 18.902448
28.800000 -28.746094 18.902448
28.900000 -27.973633 18.902448
29.200000 -26.701172 18.902448
29.400000 -26.553711 18.902448
29.500000 -25.906250 18.902448
29.600000 -23.471191 18.902448
28.600000 -21.931152 18.902448
28.400000 -21.286133 18.902448
28.300000 -21.016113 18.902448
28.300000 -20.371094 18.902448
28.400000 -20.101074 18.902448
28.600000 -19.456055 18.902448
28.800000 -18.811035 18.902448
28.600000 -28.442383 19.045667
28.800000 -28.797363 19.045667
29.000000 -27.402344 19.045667
29.200000 -27.257324 19.045667
29.400000 -26.862305 19.045667
29.500000 -25.967285 19.045667
29.700000 -23.782227 19.045667
28.600000 -21.992188 19.045667
28.400000 -21.972168 19.045667
28.300000 -20.702148 19.045667
28.300000 -20.307129 19.045667
28.400000 -19.412109 19.045667
28.600000 -18.892090 19.045667
28.800000 -18.372070 19.045667
28.600000 -29.507812 19.197476
28.700000 -28.607910 19.197476
28.900000 -28.583008 19.197476
29.000000 -27.808105 19.197476
29.200000 -27.033203 19.197476
29.400000 -26.383301 19.197476
29.500000 -26.233398 19.197476
28.600000 -21.983887 19.197476
28.400000 -21.958984 19.197476
28.300000 -21.434082 19.197476
28.300000 -20.659180 19.197476
28.400000 -19.509277 19.197476
28.600000 -19.734375 19.197476
28.800000 -18.711914 19.197476
28.700000 -29.748047 19.322366
28.900000 -28.475098 19.322366
29.000000 -28.202148 19.322366
29.200000 -27.304199 19.322366
29.400000 -26.281250 19.322366
29.500000 -26.133301 19.322366
29.500000 -25.110352 19.322366
29.300000 -23.541504 19.322366
28.800000 -23.143555 19.322366
28.500000 -22.120605 19.322366
28.400000 -21.472656 19.322366
28.400000 -20.699707 19.322366
28.400000 -19.926758 19.322366
28.600000 -19.278809 19.322366
28.800000 -18.880859 19.322366
29.100000 -17.982910 19.322366
29.500000 -17.709961 19.322366
28.700000 -29.742188 19.475255
28.800000 -29.468750 19.475255
28.900000 -27.945312 19.475255
29.100000 -27.796875 19.475255
29.300000 -27.023438 19.475255
29.500000 -26.500000 19.475255
29.500000 -25.851562 19.475255
29.500000 -25.203125 19.475255
29.100000 -23.632812 19.475255
28.700000 -22.109375 19.475255
28.400000 -22.335938 19.475255
28.400000 -21.187500 19.475255
28.300000 -20.289062 19.475255
28.400000 -20.140625 19.475255
28.600000 -19.367188 19.475255
28.800000 -18.718750 19.475255
28.800000 -29.714844 19.615838
28.800000 -28.937500 19.615838
29.000000 -28.660156 19.615838
29.200000 -27.257812 19.615838
29.300000 -27.355469 19.615838
29.500000 -26.953125 19.615838
29.600000 -25.425781 19.615838
29.500000 -25.023438 19.615838
29.100000 -23.441406 19.615838
28.600000 -22.914062 19.615838
28.400000 -21.261719 19.615838
28.300000 -20.984375 19.615838
28.400000 -20.714355 19.615838
28.500000 -20.194336 19.615838
28.600000 -18.924316 19.615838
28.800000 -19.029297 19.615838
28.800000 -29.386230 19.755811
28.800000 -28.859375 19.755811
29.000000 -27.961426 19.755811
29.200000 -27.313477 19.755811
29.400000 -26.665527 19.755811
29.500000 -26.392578 19.755811
29.600000 -25.619629 19.755811
29.600000 -23.550781 19.755811
29.200000 -22.652832 19.755811
28.600000 -21.879883 19.755811
28.400000 -21.856934 19.755811
28.300000 -21.333984 19.755811
28.400000 -20.686035 19.755811
28.500000 -19.288086 19.755811
28.600000 -19.515137 19.755811
28.900000 -18.492188 19.755811
29.300000 -17.969238 19.755811
28.900000 -29.465332 19.897565
29.000000 -28.814453 19.897565
29.100000 -27.663574 19.897565
29.300000 -27.762695 19.897565
29.400000 -27.236816 19.897565
29.600000 -26.335938 19.897565
29.600000 -25.435059 19.897565
29.300000 -23.482422 19.897565
28.800000 -23.206543 19.897565
28.500000 -22.055664 19.897565
28.400000 -21.029785 19.897565
28.400000 -21.003906 19.897565
28.400000 -20.103027 19.897565
28.600000 -19.952148 19.897565
28.800000 -19.301270 19.897565
29.100000 -18.525391 19.897565
29.600000 -17.874512 19.897565
28.900000 -29.394043 20.037752
29.100000 -28.371094 20.037752
29.200000 -28.223145 20.037752
29.300000 -26.825195 20.037752
29.500000 -26.802246 20.037752
29.600000 -25.904297 20.037752
29.500000 -25.506348 20.037752
29.600000 -24.233398 20.037752
30.000000 -23.710449 20.037752
28.700000 -22.789062 20.037752
28.400000 -21.515625 20.037752
28.400000 -21.242188 20.037752
28.400000 -20.843750 20.037752
28.500000 -19.820312 20.037752
28.600000 -18.796875 20.037752
28.800000 -18.773438 20.037752
29.200000 -18.125000 20.037752
28.800000 -29.775391 20.192602
28.800000 -29.378906 20.192602
28.900000 -28.857422 20.192602
29.100000 -28.210938 20.192602
29.300000 -27.564453 20.192602
29.400000 -26.667969 20.192602
29.600000 -26.771484 20.192602
29.600000 -25.250000 20.192602
29.400000 -24.060547 20.192602
28.900000 -23.164062 20.192602
28.500000 -22.642578 20.192602
28.400000 -21.746094 20.192602
28.400000 -20.724609 20.192602
28.400000 -20.203125 20.192602
28.500000 -19.431641 20.192602
28.700000 -19.410156 20.192602
29.000000 -18.763672 20.192602
29.500000 -17.617188 20.192602
28.900000 -28.746094 20.333816
29.000000 -28.349609 20.333816
29.200000 -28.328125 20.333816
29.300000 -27.056641 20.333816
29.500000 -26.910156 20.333816
29.600000 -26.013672 20.333816
29.600000 -25.117188 20.333816
29.200000 -23.552734 20.333816
28.700000 -23.031250 20.333816
28.500000 -21.884766 20.333816
28.400000 -21.363281 20.333816
28.400000 -21.091797 20.333816
28.500000 -19.945312 20.333816
28.600000 -19.423828 20.333816
28.800000 -18.402344 20.333816
29.200000 -18.130859 20.333816
28.900000 -29.028809 20.474052
29.000000 -28.506836 20.474052
29.200000 -27.609863 20.474052
29.300000 -27.212891 20.474052
29.500000 -27.065918 20.474052
29.600000 -25.918945 20.474052
29.600000 -24.896973 20.474052
29.600000 -24.875000 20.474052
30.000000 -24.480469 20.474052
28.600000 -22.441406 20.474052
28.400000 -22.296875 20.474052
28.400000 -21.277344 20.474052
28.400000 -20.257812 20.474052
28.500000 -19.988281 20.474052
28.600000 -19.468750 20.474052
28.900000 -18.449219 20.474052
29.200000 -18.304688 20.474052
28.900000 -29.660156 20.613078
29.000000 -28.762695 20.613078
29.200000 -28.490234 20.613078
29.300000 -27.092773 20.613078
29.500000 -27.195312 20.613078
29.600000 -26.047852 20.613078
29.600000 -25.650391 20.613078
29.200000 -23.333008 20.613078
28.600000 -22.435547 20.613078
28.500000 -22.413086 20.613078
28.400000 -20.890625 20.613078
28.400000 -20.993164 20.613078
28.500000 -20.095703 20.613078
28.600000 -19.823242 20.613078
28.800000 -18.800781 20.613078
29.200000 -18.278320 20.613078
28.800000 -29.008789 20.754845
28.900000 -28.484375 20.754845
29.100000 -28.584961 20.754845
29.300000 -27.685547 20.754845
29.400000 -27.161133 20.754845
29.600000 -26.386719 20.754845
29.700000 -25.862305 20.754845
29.400000 -23.539062 20.754845
28.700000 -22.764648 20.754845
28.500000 -22.615234 20.754845
28.400000 -21.215820 20.754845
28.300000 -20.441406 20.754845
28.400000 -19.791992 20.754845
28.500000 -19.892578 20.754845
28.700000 -19.118164 20.754845
28.900000 -29.486328 20.893000
28.900000 -28.959961 20.893000
29.000000 -28.558594 20.893000
29.200000 -27.282227 20.893000
29.300000 -26.755859 20.893000
29.500000 -26.229492 20.893000
29.600000 -25.578125 20.893000
29.600000 -25.680664 20.893000
29.700000 -25.033203 20.893000
29.700000 -23.510742 20.893000
28.500000 -21.965820 20.893000
28.400000 -21.693359 20.893000
28.300000 -20.920898 20.893000
28.400000 -20.273438 20.893000
28.500000 -19.750977 20.893000
28.600000 -18.853516 20.893000
28.900000 -18.956055 20.893000
29.400000 -17.933594 20.893000
28.800000 -29.771484 21.035225
28.900000 -29.124023 21.035225
29.000000 -28.601562 21.035225
29.200000 -27.204102 21.035225
29.400000 -27.306641 21.035225
29.600000 -26.659180 21.035225
29.700000 -26.136719 21.035225
29.300000 -23.069336 21.035225
28.700000 -23.296875 21.035225
28.500000 -22.524414 21.035225
28.300000 -21.501953 21.035225
28.300000 -20.979492 21.035225
28.400000 -20.082031 21.035225
28.500000 -19.184570 21.035225
28.700000 -18.912109 21.035225
29.000000 -18.764648 21.035225
28.800000 -29.759766 21.187042
28.900000 -29.108398 21.187042
29.000000 -28.207031 21.187042
29.200000 -27.680664 21.187042
29.400000 -26.904297 21.187042
29.500000 -26.377930 21.187042
29.700000 -25.976562 21.187042
29.700000 -24.950195 21.187042
29.900000 -24.548828 21.187042
28.600000 -22.496094 21.187042
28.400000 -22.469727 21.187042
28.300000 -21.318359 21.187042
28.300000 -20.416992 21.187042
28.400000 -19.765625 21.187042
28.500000 -19.116211 21.187042
28.700000 -19.091797 21.187042
29.100000 -18.442383 21.187042
28.800000 -29.813477 21.313461
28.900000 -28.789551 21.313461
29.000000 -28.265625 21.313461
29.100000 -27.741211 21.313461
29.300000 -26.841797 21.313461
29.500000 -26.317383 21.313461
29.600000 -26.042969 21.313461
29.700000 -25.018555 21.313461
30.000000 -24.869141 21.313461
28.600000 -23.195312 21.313461
28.300000 -22.295898 21.313461
28.300000 -21.021484 21.313461
28.200000 -20.622070 21.313461
28.300000 -20.597656 21.313461
28.500000 -19.573242 21.313461
28.700000 -19.173828 21.313461
29.100000 -18.149414 21.313461
28.800000 -29.722168 21.466441
28.900000 -28.424316 21.466441
29.000000 -28.275391 21.466441
29.100000 -27.376465 21.466441
29.300000 -26.727539 21.466441
29.500000 -26.078613 21.466441
29.600000 -26.054688 21.466441
29.600000 -25.030762 21.466441
29.900000 -24.631836 21.466441
28.600000 -22.833984 21.466441
28.300000 -22.185059 21.466441
28.300000 -21.411133 21.466441
28.300000 -20.887207 21.466441
28.300000 -20.863281 21.466441
28.400000 -19.714355 21.466441
28.600000 -18.690430 21.466441
29.000000 -18.541504 21.466441
28.800000 -29.260742 21.607792
28.800000 -28.487793 21.607792
28.900000 -28.214844 21.607792
29.000000 -27.941895 21.607792
29.300000 -27.543945 21.607792
29.500000 -26.895996 21.607792
29.600000 -25.748047 21.607792
29.700000 -25.350098 21.607792
30.000000 -24.577148 21.607792
28.500000 -23.156250 21.607792
28.300000 -22.135742 21.607792
28.300000 -21.240234 21.607792
28.300000 -20.844727 21.607792
28.300000 -20.449219 21.607792
28.400000 -19.803711 21.607792
28.600000 -19.533203 21.607792
29.000000 -19.137695 21.607792
28.800000 -29.850586 21.750262
28.800000 -28.955566 21.750262
28.900000 -28.560547 21.750262
29.000000 -27.665527 21.750262
29.200000 -27.145508 21.750262
29.500000 -26.250488 21.750262
29.700000 -25.855469 21.750262
29.700000 -24.710449 21.750262
29.700000 -24.315430 21.750262
28.400000 -23.150391 21.750262
28.200000 -22.130371 21.750262
28.200000 -21.735352 21.750262
28.200000 -20.340332 21.750262
28.200000 -19.945312 21.750262
28.400000 -19.425293 21.750262
28.600000 -19.030273 21.750262
29.100000 -18.760254 21.750262
28.700000 -29.926758 21.890218
28.800000 -29.529297 21.890218
28.800000 -28.131836 21.890218
29.000000 -27.984375 21.890218
29.100000 -26.711914 21.890218
29.400000 -26.689453 21.890218
29.600000 -26.166992 21.890218
29.700000 -25.019531 21.890218
29.900000 -24.872070 21.890218
28.400000 -23.202148 21.890218
28.200000 -21.929688 21.890218
28.200000 -21.282227 21.890218
28.200000 -21.009766 21.890218
28.200000 -20.737305 21.890218
28.300000 -20.339844 21.890218
28.500000 -19.567383 21.890218
28.900000 -18.919922 21.890218
28.700000 -29.273438 22.029568
28.700000 -29.625977 22.029568
28.800000 -27.978516 22.029568
28.900000 -28.331055 22.029568
29.100000 -27.433594 22.029568
29.200000 -26.411133 22.029568
29.400000 -26.138672 22.029568
29.600000 -24.991211 22.029568
29.800000 -24.968750 22.029568
28.500000 -23.426758 22.029568
28.200000 -22.780762 22.029568
28.100000 -21.884766 22.029568
28.100000 -21.738770 22.029568
28.100000 -20.217773 22.029568
28.200000 -20.321777 22.029568
28.400000 -18.925781 22.029568
28.800000 -29.543457 22.185793
28.700000 -29.271484 22.185793
28.700000 -28.874512 22.185793
28.900000 -28.477539 22.185793
29.000000 -27.080566 22.185793
29.100000 -26.558594 22.185793
29.300000 -26.786621 22.185793
29.500000 -25.389648 22.185793
29.700000 -24.742676 22.185793
29.500000 -24.470703 22.185793
28.700000 -23.948730 22.185793
28.200000 -22.801758 22.185793
28.100000 -21.779785 22.185793
28.000000 -21.882812 22.185793
28.100000 -21.235840 22.185793
28.200000 -19.713867 22.185793
28.300000 -19.191895 22.185793
28.700000 -29.383789 22.323085
28.600000 -29.359375 22.323085
28.700000 -28.459961 22.323085
28.800000 -28.060547 22.323085
29.000000 -27.161133 22.323085
29.200000 -27.136719 22.323085
29.300000 -25.862305 22.323085
29.500000 -25.212891 22.323085
29.600000 -25.188477 22.323085
28.300000 -22.764648 22.323085
28.000000 -22.240234 22.323085
28.000000 -21.715820 22.323085
28.100000 -20.941406 22.323085
28.100000 -20.541992 22.323085
28.200000 -19.517578 22.323085
28.400000 -19.618164 22.323085
28.700000 -18.343750 22.323085
28.600000 -29.142578 22.451516
28.600000 -28.617188 22.451516
28.800000 -28.591797 22.451516
29.000000 -27.691406 22.451516
29.100000 -26.541016 22.451516
29.300000 -26.515625 22.451516
29.500000 -25.243164 22.451516
29.600000 -24.970703 22.451516
28.300000 -22.800781 22.451516
28.000000 -23.153320 22.451516
28.000000 -21.755859 22.451516
28.000000 -21.483398 22.451516
28.000000 -20.960938 22.451516
28.100000 -20.063477 22.451516
28.300000 -20.041016 22.451516
28.600000 -29.901367 22.603967
28.600000 -29.249512 22.603967
28.700000 -28.847656 22.603967
28.800000 -28.070801 22.603967
29.000000 -27.293945 22.603967
29.100000 -27.142090 22.603967
29.200000 -26.615234 22.603967
29.500000 -25.338379 22.603967
29.200000 -24.436523 22.603967
28.600000 -24.159668 22.603967
28.100000 -22.882812 22.603967
28.000000 -22.855957 22.603967
28.000000 -21.954102 22.603967
27.900000 -20.677246 22.603967
28.000000 -20.400391 22.603967
28.200000 -19.748535 22.603967
28.400000 -19.096680 22.603967
28.700000 -19.319824 22.603967
28.600000 -29.916016 22.743526
28.600000 -29.389648 22.743526
28.700000 -28.613281 22.743526
28.800000 -28.086914 22.743526
28.900000 -27.060547 22.743526
29.100000 -26.284180 22.743526
29.200000 -26.007812 22.743526
29.300000 -25.356445 22.743526
28.900000 -23.955078 22.743526
28.300000 -23.803711 22.743526
28.000000 -23.277344 22.743526
27.900000 -22.250977 22.743526
27.900000 -21.224609 22.743526
28.000000 -21.573242 22.743526
28.000000 -20.171875 22.743526
28.200000 -19.647949 22.743526
28.500000 -19.374023 22.743526
28.900000 -19.100098 22.743526
28.600000 -28.988281 22.882481
28.600000 -28.962891 22.882481
28.700000 -28.687500 22.882481
28.800000 -27.413574 22.882481
28.900000 -27.139648 22.882481
29.100000 -26.615723 22.882481
29.200000 -25.841797 22.882481
29.100000 -24.942871 22.882481
28.600000 -24.043945 22.882481
28.200000 -23.395020 22.882481
27.900000 -22.621094 22.882481
27.900000 -22.097168 22.882481
27.900000 -21.698242 22.882481
27.900000 -20.674316 22.882481
28.000000 -19.900391 22.882481
28.200000 -19.501465 22.882481
28.600000 -29.894531 23.023754
28.600000 -28.748047 23.023754
28.700000 -28.351562 23.023754
28.800000 -27.455078 23.023754
28.900000 -27.183594 23.023754
29.100000 -26.412109 23.023754
29.200000 -26.015625 23.023754
29.000000 -24.994141 23.023754
28.500000 -24.597656 23.023754
28.100000 -23.576172 23.023754
27.900000 -22.679688 23.023754
27.900000 -22.283203 23.023754
27.900000 -21.011719 23.023754
27.900000 -20.490234 23.023754
28.000000 -20.593750 23.023754
28.200000 -19.822266 23.023754
28.500000 -19.175781 23.023754
28.600000 -29.604492 23.165554
28.600000 -28.456543 23.165554
28.700000 -27.808594 23.165554
28.800000 -27.410645 23.165554
28.900000 -27.137695 23.165554
29.000000 -25.864746 23.165554
29.100000 -25.466797 23.165554
28.900000 -25.318848 23.165554
28.400000 -24.420898 23.165554
28.000000 -23.147949 23.165554
27.900000 -22.375000 23.165554
27.800000 -21.854004 23.165554
27.800000 -21.833008 23.165554
27.900000 -20.687012 23.165554
28.000000 -20.541016 23.165554
28.200000 -19.270020 23.165554
28.500000 -19.249023 23.165554
28.600000 -29.791016 23.319803
28.600000 -29.144531 23.319803
28.600000 -28.498047 23.319803
28.700000 -27.976562 23.319803
28.700000 -27.080078 23.319803
28.800000 -26.183594 23.319803
28.900000 -25.787109 23.319803
29.000000 -25.140625 23.319803
28.600000 -23.994141 23.319803
28.100000 -23.847656 23.319803
27.900000 -22.826172 23.319803
27.700000 -22.054688 23.319803
27.700000 -21.783203 23.319803
27.900000 -20.761719 23.319803
27.900000 -20.740234 23.319803
28.000000 -20.468750 23.319803
28.300000 -19.572266 23.319803
28.700000 -19.175781 23.319803
28.500000 -29.004883 23.458468
28.500000 -28.857422 23.458468
28.600000 -27.959961 23.458468
28.800000 -27.562500 23.458468
28.800000 -26.290039 23.458468
28.900000 -26.142578 23.458468
28.900000 -25.745117 23.458468
28.800000 -25.222656 23.458468
28.300000 -24.200195 23.458468
27.800000 -23.177734 23.458468
27.600000 -22.905273 23.458468
27.700000 -21.507812 23.458468
27.800000 -21.735352 23.458468
27.900000 -20.462891 23.458468
28.000000 -19.690430 23.458468
28.200000 -20.042969 23.458468
28.500000 -19.395508 23.458468
28.600000 -29.994141 23.600963
28.500000 -29.068359 23.600963
28.600000 -28.542969 23.600963
28.700000 -28.017578 23.600963
28.700000 -26.992188 23.600963
28.800000 -26.716797 23.600963
28.800000 -25.941406 23.600963
28.900000 -25.291016 23.600963
28.600000 -24.890625 23.600963
28.000000 -23.369629 23.600963
27.600000 -23.223633 23.600963
27.400000 -22.327637 23.600963
27.600000 -21.681641 23.600963
27.800000 -20.535645 23.600963
27.800000 -20.264648 23.600963
28.000000 -19.618652 23.600963
28.500000 -29.820312 23.739776
28.500000 -28.923828 23.739776
28.500000 -28.402344 23.739776
28.600000 -28.130859 23.739776
28.700000 -27.109375 23.739776
28.800000 -26.962891 23.739776
28.800000 -26.441406 23.739776
28.800000 -24.919922 23.739776
28.600000 -24.398438 23.739776
28.000000 -24.251953 23.739776
27.400000 -22.855469 23.739776
27.300000 -22.708984 23.739776
27.500000 -21.937500 23.739776
27.800000 -20.666016 23.739776
27.800000 -20.644531 23.739776
28.000000 -20.498047 23.739776
28.200000 -19.101562 23.739776
28.600000 -19.205078 23.739776
28.400000 -29.414062 23.882063
28.400000 -28.888184 23.882063
28.500000 -28.612305 23.882063
28.600000 -27.836426 23.882063
28.600000 -27.310547 23.882063
28.800000 -26.909668 23.882063
28.800000 -26.258789 23.882063
28.800000 -25.607910 23.882063
28.600000 -24.707031 23.882063
27.200000 -23.405273 23.882063
27.400000 -21.452637 23.882063
27.700000 -20.176758 23.882063
27.900000 -20.150879 23.882063
28.200000 -18.875000 23.882063
28.500000 -18.976074 23.882063
28.400000 -29.083008 24.024583
28.500000 -29.060547 24.024583
28.500000 -27.663086 24.024583
28.600000 -27.640625 24.024583
28.700000 -26.866211 24.024583
28.600000 -25.466797 24.024583
28.700000 -25.692383 24.024583
28.500000 -24.917969 24.024583
27.000000 -22.994141 24.024583
27.300000 -21.420898 24.024583
27.700000 -20.896484 24.024583
27.900000 -20.372070 24.024583
28.100000 -19.097656 24.024583
28.500000 -19.198242 24.024583
28.400000 -29.500000 24.165324
28.400000 -28.849609 24.165324
28.400000 -28.699219 24.165324
28.500000 -28.173828 24.165324
28.600000 -27.273438 24.165324
28.600000 -26.373047 24.165324
28.600000 -26.347656 24.165324
28.700000 -25.072266 24.165324
27.200000 -23.271484 24.165324
26.900000 -22.621094 24.165324
26.400000 -22.595703 24.165324
27.800000 -21.544922 24.165324
27.700000 -20.519531 24.165324
27.900000 -19.369141 24.165324
28.100000 -19.343750 24.165324
28.500000 -18.943359 24.165324
28.400000 -29.654297 24.302725
28.300000 -29.253418 24.302725
28.400000 -28.977539 24.302725
28.500000 -27.326660 24.302725
28.600000 -27.675781 24.302725
28.700000 -26.274902 24.302725
28.600000 -26.499023 24.302725
28.700000 -25.598145 24.302725
27.100000 -22.796387 24.302725
26.700000 -22.645508 24.302725
27.800000 -20.276367 24.302725
28.000000 -19.628906 24.302725
28.400000 -18.981445 24.302725
28.400000 -29.640625 24.458416
28.300000 -28.744141 24.458416
28.400000 -28.097656 24.458416
28.400000 -27.951172 24.458416
28.500000 -27.054688 24.458416
28.500000 -26.408203 24.458416
28.500000 -26.136719 24.458416
28.600000 -25.115234 24.458416
27.000000 -22.779297 24.458416
27.800000 -20.318359 24.458416
28.000000 -19.421875 24.458416
28.300000 -19.275391 24.458416
28.200000 -29.723633 24.599004
28.200000 -28.451172 24.599004
28.300000 -28.178711 24.599004
28.400000 -27.531250 24.599004
28.400000 -26.383789 24.599004
28.500000 -25.736328 24.599004
28.600000 -25.088867 24.599004
27.000000 -22.749023 24.599004
27.800000 -20.409180 24.599004
27.800000 -19.636719 24.599004
28.100000 -19.364258 24.599004
28.200000 -29.530762 24.730451
28.200000 -29.135742 24.730451
28.300000 -28.490723 24.730451
28.300000 -27.720703 24.730451
28.400000 -26.825684 24.730451
28.400000 -26.305664 24.730451
28.400000 -25.535645 24.730451
26.900000 -22.579102 24.730451
27.700000 -20.497070 24.730451
27.800000 -20.101562 24.730451
28.100000 -19.456055 24.730451
28.200000 -29.379395 24.877167
28.200000 -28.233398 24.877167
28.200000 -27.587402 24.877167
28.300000 -27.566406 24.877167
28.400000 -26.670410 24.877167
27.600000 -19.460449 24.877167
28.100000 -29.701660 25.019498
28.100000 -29.804688 25.019498
28.200000 -28.907715 25.019498
28.200000 -28.010742 25.019498
28.300000 -27.363770 25.019498
28.300000 -26.341797 25.019498
26.700000 -24.003906 25.019498
26.600000 -22.731934 25.019498
26.500000 -22.709961 25.019498
27.500000 -20.122070 25.019498
27.700000 -18.975098 25.019498
27.900000 -19.453125 25.019498
28.100000 -29.619629 25.165500
28.100000 -28.720703 25.165500
28.100000 -29.196777 25.165500
28.200000 -27.922852 25.165500
28.200000 -27.648926 25.165500
28.200000 -27.125000 25.165500
28.200000 -26.228027 25.165500
28.200000 -25.081055 25.165500
27.000000 -23.662109 25.165500
26.600000 -23.140137 25.165500
26.500000 -22.743164 25.165500
27.500000 -19.655273 25.165500
27.600000 -19.883301 25.165500
27.900000 -18.861328 25.165500
28.100000 -28.639648 25.301429
28.100000 -28.490234 25.301429
28.100000 -28.215820 25.301429
28.200000 -26.566406 25.301429
28.100000 -26.791992 25.301429
28.100000 -26.392578 25.301429
28.300000 -25.493164 25.301429
26.500000 -23.694336 25.301429
26.600000 -23.294922 25.301429
26.700000 -22.645508 25.301429
26.900000 -22.371094 25.301429
27.300000 -20.971680 25.301429
27.500000 -20.822266 25.301429
27.500000 -19.422852 25.301429
27.700000 -19.648438 25.301429
28.000000 -18.874023 25.301429
28.000000 -29.539551 25.441028
28.000000 -28.889648 25.441028
28.000000 -28.114746 25.441028
28.100000 -28.089844 25.441028
28.200000 -26.439941 25.441028
28.100000 -26.540039 25.441028
28.100000 -25.390137 25.441028
28.300000 -24.990234 25.441028
26.600000 -23.440430 25.441028
26.700000 -22.540527 25.441028
26.700000 -21.765625 25.441028
27.000000 -21.993652 25.441028
27.300000 -20.971680 25.441028
27.400000 -20.699707 25.441028
27.500000 -19.302734 25.441028
27.600000 -19.155762 25.441028
28.000000 -18.883789 25.441028
27.900000 -29.477539 25.596479
28.000000 -29.830078 25.596479
28.000000 -28.432617 25.596479
28.000000 -28.035156 25.596479
28.100000 -27.637695 25.596479
28.200000 -27.115234 25.596479
28.100000 -26.217773 25.596479
28.200000 -25.445312 25.596479
28.000000 -24.922852 25.596479
27.100000 -24.150391 25.596479
26.800000 -22.627930 25.596479
26.800000 -22.855469 25.596479
26.900000 -21.958008 25.596479
27.200000 -20.935547 25.596479
27.400000 -21.038086 25.596479
27.400000 -19.890625 25.596479
27.500000 -18.993164 25.596479
27.900000 -29.982422 25.735904
28.000000 -28.959961 25.735904
28.000000 -28.812500 25.735904
28.100000 -27.790039 25.735904
28.100000 -26.892578 25.735904
28.100000 -26.870117 25.735904
28.000000 -25.847656 25.735904
28.100000 -24.950195 25.735904
26.800000 -23.655273 25.735904
26.700000 -23.382812 25.735904
26.800000 -22.860352 25.735904
27.000000 -21.462891 25.735904
27.200000 -21.690430 25.735904
27.300000 -20.167969 25.735904
27.400000 -20.520508 25.735904
27.600000 -19.248047 25.735904
27.900000 -19.100586 25.735904
27.900000 -29.393555 25.874994
27.900000 -28.744629 25.874994
28.000000 -28.845703 25.874994
28.000000 -27.321777 25.874994
28.100000 -27.672852 25.874994
28.100000 -26.773926 25.874994
28.000000 -25.875000 25.874994
28.100000 -25.102051 25.874994
27.000000 -24.306152 25.874994
26.800000 -23.408203 25.874994
26.900000 -22.260254 25.874994
27.100000 -22.237305 25.874994
27.200000 -20.839355 25.874994
27.200000 -20.566406 25.874994
27.300000 -19.668457 25.874994
27.500000 -19.645508 25.874994
27.900000 -19.372559 25.874994
27.800000 -29.464844 26.017626
27.900000 -29.693359 26.017626
27.900000 -28.171875 26.017626
28.000000 -27.900391 26.017626
28.100000 -27.878906 26.017626
28.100000 -26.857422 26.017626
28.000000 -25.710938 26.017626
28.000000 -25.439453 26.017626
27.600000 -24.667969 26.017626
27.100000 -23.271484 26.017626
26.900000 -23.750000 26.017626
26.900000 -21.853516 26.017626
27.000000 -21.332031 26.017626
27.100000 -21.435547 26.017626
27.200000 -20.789062 26.017626
27.300000 -19.892578 26.017626
27.500000 -18.996094 26.017626
27.800000 -18.849609 26.017626
27.800000 -29.941895 26.157964
27.900000 -28.669922 26.157964
28.000000 -28.772949 26.157964
28.000000 -27.250977 26.157964
28.100000 -26.979004 26.157964
28.100000 -26.832031 26.157964
28.100000 -25.310059 26.157964
27.800000 -25.538086 26.157964
27.300000 -24.141113 26.157964
27.100000 -23.869141 26.157964
26.900000 -22.597168 26.157964
26.900000 -21.700195 26.157964
27.100000 -21.428223 26.157964
27.100000 -21.406250 26.157964
27.200000 -20.761230 26.157964
27.400000 -19.616211 26.157964
27.600000 -18.846191 26.157964
28.000000 -19.076172 26.157964
27.800000 -28.890625 26.298406
27.900000 -28.870117 26.298406
28.000000 -27.724609 26.298406
28.100000 -27.579102 26.298406
28.100000 -27.183594 26.298406
28.100000 -26.163086 26.298406
27.900000 -25.017578 26.298406
27.400000 -25.122070 26.298406
27.100000 -23.976562 26.298406
27.100000 -23.581055 26.298406
27.000000 -21.810547 26.298406
27.000000 -21.540039 26.298406
27.100000 -21.644531 26.298406
27.200000 -20.999023 26.298406
27.300000 -19.978516 26.298406
27.500000 -18.958008 26.298406
27.800000 -18.562500 26.298406
27.700000 -29.623047 26.440775
27.800000 -29.726562 26.440775
27.900000 -28.330078 26.440775
28.000000 -27.933594 26.440775
28.100000 -27.662109 26.440775
28.100000 -27.265625 26.440775
28.100000 -25.619141 26.440775
27.900000 -25.972656 26.440775
27.500000 -24.826172 26.440775
27.100000 -23.429688 26.440775
27.000000 -23.283203 26.440775
27.000000 -23.011719 26.440775
27.000000 -22.365234 26.440775
27.100000 -21.343750 26.440775
27.200000 -20.947266 26.440775
27.300000 -20.425781 26.440775
27.500000 -19.529297 26.440775
27.800000 -19.257812 26.440775
27.700000 -29.824219 26.582269
27.900000 -28.924316 26.582269
28.000000 -28.899414 26.582269
28.000000 -27.249512 26.582269
28.100000 -27.349609 26.582269
28.200000 -26.449707 26.582269
28.200000 -26.299805 26.582269
27.800000 -25.399902 26.582269
27.300000 -24.500000 26.582269
27.000000 -23.353027 26.582269
27.000000 -23.331055 26.582269
27.000000 -22.059082 26.582269
27.000000 -21.412109 26.582269
27.100000 -20.515137 26.582269
27.200000 -20.743164 26.582269
27.400000 -20.221191 26.582269
27.600000 -19.324219 26.582269
27.900000 -18.052246 26.582269
27.800000 -29.588379 26.725934
27.900000 -28.690430 26.725934
27.900000 -28.417480 26.725934
28.100000 -26.894531 26.725934
28.200000 -26.996582 26.725934
28.200000 -25.973633 26.725934
27.900000 -24.825684 26.725934
27.400000 -24.177734 26.725934
27.100000 -24.404785 26.725934
27.000000 -23.506836 26.725934
27.000000 -22.983887 26.725934
26.900000 -22.085938 26.725934
27.000000 -21.687988 26.725934
27.200000 -20.665039 26.725934
