28.000000 4.232422 10.971501
28.400000 4.663574 10.971501
28.900000 5.094727 10.971501
30.900000 7.569336 10.971501
30.800000 8.375488 10.971501
30.400000 8.681641 10.971501
30.200000 9.862793 10.971501
30.100000 10.543945 10.971501
30.200000 10.850098 10.971501
30.300000 11.156250 10.971501
30.600000 12.462402 10.971501
23.600000 -7.750000 11.112685
23.400000 -2.281250 11.112685
23.200000 -1.597656 11.112685
23.200000 -2.289062 11.112685
23.200000 -0.605469 11.112685
23.200000 0.453125 11.112685
27.700000 0.937500 11.112685
27.800000 1.490234 11.112685
27.700000 2.042969 11.112685
27.800000 2.345703 11.112685
28.000000 3.773438 11.112685
28.300000 3.951172 11.112685
28.800000 4.878906 11.112685
29.300000 5.681641 11.112685
29.800000 5.609375 11.112685
30.200000 6.787109 11.112685
30.600000 7.214844 11.112685
30.800000 8.017578 11.112685
30.500000 8.695312 11.112685
30.200000 9.498047 11.112685
30.100000 10.175781 11.112685
30.100000 10.603516 11.112685
30.300000 10.906250 11.112685
23.600000 -8.171875 11.250619
23.500000 -7.490234 11.250619
23.400000 -2.718750 11.250619
23.200000 -2.037109 11.250619
23.200000 -2.980469 11.250619
23.200000 -0.673828 11.250619
23.200000 0.007812 11.250619
27.700000 1.847656 11.250619
27.700000 2.654297 11.250619
27.900000 3.085938 11.250619
28.100000 3.517578 11.250619
28.500000 4.449219 11.250619
28.900000 4.630859 11.250619
29.500000 5.812500 11.250619
30.100000 6.244141 11.250619
30.600000 6.675781 11.250619
30.900000 7.482422 11.250619
30.700000 8.414062 11.250619
30.300000 8.345703 11.250619
30.200000 9.652344 11.250619
30.100000 9.958984 11.250619
30.100000 10.390625 11.250619
30.300000 11.569824 11.250619
30.600000 12.499023 11.250619
23.500000 -9.824707 11.390412
23.300000 -3.734863 11.390412
23.200000 -1.801758 11.390412
23.200000 -2.743652 11.390412
23.200000 -1.685547 11.390412
23.200000 0.247559 11.390412
27.600000 1.101562 11.390412
27.800000 1.281250 11.390412
27.700000 2.085938 11.390412
27.800000 2.640625 11.390412
28.000000 3.820312 11.390412
28.300000 3.750000 11.390412
28.700000 4.679688 11.390412
29.200000 4.609375 11.390412
29.700000 5.414062 11.390412
30.100000 6.093750 11.390412
30.500000 7.148438 11.390412
30.800000 7.703125 11.390412
30.500000 8.257812 11.390412
30.200000 8.812500 11.390412
30.000000 9.367188 11.390412
30.000000 10.421875 11.390412
30.100000 11.351562 11.390412
23.600000 -8.850586 11.514301
23.500000 -9.169922 11.514301
23.400000 -4.405273 11.514301
23.200000 -1.974609 11.514301
23.200000 -1.293945 11.514301
23.200000 -1.363281 11.514301
23.200000 -0.932617 11.514301
27.700000 2.026367 11.514301
27.700000 2.207031 11.514301
27.900000 2.637695 11.514301
28.100000 3.568359 11.514301
28.500000 4.374023 11.514301
28.900000 4.929688 11.514301
29.500000 5.110352 11.514301
30.100000 5.916016 11.514301
30.600000 7.096680 11.514301
30.900000 7.277344 11.514301
30.600000 8.208008 11.514301
30.200000 8.763672 11.514301
30.000000 9.319336 11.514301
30.000000 10.000000 11.514301
30.100000 11.053223 11.514301
30.300000 11.356445 11.514301
30.600000 11.784668 11.514301
23.600000 -9.179688 11.647109
23.400000 -2.335938 11.647109
23.200000 -1.652344 11.647109
23.200000 -1.843750 11.647109
23.200000 -0.285156 11.647109
23.200000 0.398438 11.647109
27.700000 0.497070 11.647109
27.800000 1.925293 11.647109
27.700000 2.603516 11.647109
27.800000 2.656738 11.647109
28.000000 3.709961 11.647109
28.300000 4.263184 11.647109
28.700000 5.066406 11.647109
29.200000 5.619629 11.647109
29.800000 5.547852 11.647109
30.200000 6.476074 11.647109
30.500000 7.154297 11.647109
30.700000 8.082520 11.647109
30.300000 8.760742 11.647109
30.000000 9.313965 11.647109
29.900000 10.367188 11.647109
30.000000 10.670410 11.647109
30.000000 10.973633 11.647109
23.600000 -8.233398 11.779616
23.500000 -7.553223 11.779616
23.400000 -2.791992 11.779616
23.200000 -2.111816 11.779616
23.200000 -2.056641 11.779616
23.200000 -2.001465 11.779616
23.200000 -0.071289 11.779616
27.800000 1.579590 11.779616
27.800000 1.384766 11.779616
27.800000 2.689941 11.779616
27.900000 2.620117 11.779616
28.000000 3.425293 11.779616
28.400000 4.605469 11.779616
28.800000 4.660645 11.779616
29.400000 5.215820 11.779616
29.900000 6.145996 11.779616
30.300000 6.201172 11.779616
30.700000 6.881348 11.779616
30.600000 8.311523 11.779616
30.200000 8.991699 11.779616
29.900000 9.421875 11.779616
29.800000 9.976074 11.779616
29.900000 11.030273 11.779616
30.100000 11.209473 11.779616
30.400000 11.888672 11.779616
23.600000 -8.820312 11.920639
23.500000 -9.261719 11.920639
23.400000 -2.601562 11.920639
23.200000 -3.167969 11.920639
23.200000 -2.734375 11.920639
23.200000 -1.175781 11.920639
23.200000 0.132812 11.920639
27.700000 1.962891 11.920639
27.800000 2.766113 11.920639
27.900000 3.319336 11.920639
28.100000 4.122559 11.920639
28.400000 4.675781 11.920639
28.900000 4.979004 11.920639
29.500000 5.907227 11.920639
30.100000 6.210449 11.920639
30.500000 6.888672 11.920639
30.700000 7.316895 11.920639
30.500000 8.370117 11.920639
30.000000 8.548340 11.920639
29.800000 9.601562 11.920639
29.800000 10.654785 11.920639
29.900000 10.833008 11.920639
30.100000 11.386230 11.920639
30.500000 12.439453 11.920639
23.600000 -9.541992 12.058931
23.400000 -3.334961 12.058931
23.200000 -2.902832 12.058931
23.200000 -2.095703 12.058931
23.200000 -0.288574 12.058931
23.300000 -0.856445 12.058931
27.700000 0.497070 12.058931
27.800000 2.054199 12.058931
27.800000 1.861328 12.058931
27.800000 2.918457 12.058931
28.000000 3.600586 12.058931
28.200000 4.032715 12.058931
30.200000 8.000488 12.058931
30.200000 8.807617 12.058931
29.900000 9.739746 12.058931
29.700000 9.921875 12.058931
29.800000 10.852539 12.058931
29.900000 11.658203 12.058931
23.600000 -9.165527 12.196733
23.400000 -2.427246 12.196733
23.200000 -2.366211 12.196733
23.200000 -0.930176 12.196733
23.200000 -0.244141 12.196733
23.300000 0.441895 12.196733
27.800000 1.431641 12.196733
27.800000 1.488281 12.196733
27.800000 2.169922 12.196733
27.800000 2.851562 12.196733
27.900000 3.533203 12.196733
28.200000 3.964844 12.196733
28.600000 4.521484 12.196733
29.100000 5.078125 12.196733
29.700000 5.634766 12.196733
30.100000 7.679688 12.196733
30.100000 8.236328 12.196733
29.800000 9.792969 12.196733
29.700000 9.724609 12.196733
29.700000 10.531250 12.196733
29.900000 11.587891 12.196733
23.500000 -9.953125 12.324688
23.300000 -2.476562 12.324688
23.200000 -2.541992 12.324688
23.200000 -2.982422 12.324688
23.200000 -2.172852 12.324688
23.200000 -0.738281 12.324688
27.700000 0.625000 12.324688
27.800000 0.809570 12.324688
27.800000 2.369141 12.324688
27.800000 2.678711 12.324688
27.900000 2.988281 12.324688
28.200000 3.672852 12.324688
30.100000 7.280273 12.324688
30.100000 8.214844 12.324688
29.800000 9.024414 12.324688
29.600000 9.583984 12.324688
29.600000 11.018555 12.324688
29.800000 11.453125 12.324688
23.600000 -10.138672 12.462949
27.700000 1.265625 12.462949
27.800000 1.570312 12.462949
27.800000 1.750000 12.462949
27.800000 3.054688 12.462949
27.900000 3.359375 12.462949
28.100000 4.039062 12.462949
30.100000 8.242188 12.462949
30.000000 8.296875 12.462949
29.700000 9.726562 12.462949
29.600000 10.031250 12.462949
29.600000 10.210938 12.462949
29.800000 10.890625 12.462949
23.600000 -9.359375 12.602363
23.500000 -9.303223 12.602363
23.400000 -4.410156 12.602363
23.200000 -1.979004 12.602363
23.200000 -1.297852 12.602363
23.200000 -1.616699 12.602363
23.200000 0.064453 12.602363
26.100000 1.664062 12.602363
26.000000 1.095215 12.602363
29.800000 7.100586 12.602363
27.700000 11.131348 12.602363
23.400000 -2.243164 12.727947
23.200000 -2.437012 12.727947
23.200000 -0.005859 12.727947
23.300000 -0.324707 12.727947
29.900000 9.054688 12.727947
29.600000 9.609375 12.727947
23.000000 1.121094 12.867003
27.700000 0.666016 12.867003
27.800000 1.472656 12.867003
27.800000 2.279297 12.867003
27.800000 3.335938 12.867003
27.900000 3.517578 12.867003
28.100000 3.699219 12.867003
29.700000 8.845703 12.867003
29.500000 9.402344 12.867003
29.400000 10.083984 12.867003
29.500000 10.515625 12.867003
29.600000 11.695801 12.867003
23.600000 -8.210938 13.007505
23.500000 -8.527832 13.007505
23.300000 -2.746094 13.007505
23.200000 -3.562988 13.007505
23.200000 -1.379883 13.007505
23.200000 -0.946777 13.007505
23.200000 -1.263672 13.007505
27.800000 2.454102 13.007505
27.700000 2.259277 13.007505
27.700000 3.439453 13.007505
27.900000 3.869629 13.007505
28.100000 4.174805 13.007505
30.000000 6.520508 13.007505
30.200000 7.075684 13.007505
30.000000 8.005859 13.007505
29.500000 8.436035 13.007505
29.300000 9.866211 13.007505
29.400000 10.671387 13.007505
29.500000 11.226562 13.007505
29.700000 11.406738 13.007505
23.500000 -7.765625 13.131702
23.400000 -2.289062 13.131702
23.200000 -1.604492 13.131702
23.200000 -1.794922 13.131702
23.200000 -0.235352 13.131702
23.300000 -1.050781 13.131702
23.200000 1.133789 13.131702
27.700000 0.687500 13.131702
27.800000 1.372070 13.131702
27.700000 2.931641 13.131702
27.800000 3.241211 13.131702
27.800000 3.925781 13.131702
28.000000 4.360352 13.131702
28.300000 4.544922 13.131702
29.900000 7.408203 13.131702
29.900000 8.092773 13.131702
29.500000 8.652344 13.131702
29.300000 8.961914 13.131702
29.300000 9.896484 13.131702
29.400000 10.956055 13.131702
29.600000 11.640625 13.131702
23.500000 -8.630371 13.271609
23.300000 -2.149902 13.271609
23.200000 -2.464844 13.271609
23.200000 -0.779785 13.271609
23.200000 -0.969727 13.271609
23.400000 0.590332 13.271609
23.300000 1.275391 13.271609
27.700000 1.330566 13.271609
27.700000 1.640625 13.271609
27.700000 2.195801 13.271609
27.700000 2.750977 13.271609
27.800000 4.306152 13.271609
28.000000 4.111328 13.271609
29.700000 6.332031 13.271609
29.900000 7.012207 13.271609
29.700000 7.817383 13.271609
29.400000 9.247559 13.271609
29.300000 9.052734 13.271609
29.300000 9.732910 13.271609
29.400000 11.038086 13.271609
29.500000 11.718262 13.271609
23.600000 -8.244141 13.398556
23.500000 -9.183594 13.398556
23.300000 -3.276855 13.398556
23.200000 -3.094727 13.398556
23.200000 -1.412598 13.398556
23.200000 -1.730469 13.398556
23.200000 -0.923340 13.398556
27.700000 1.612305 13.398556
27.600000 1.544434 13.398556
27.600000 2.351562 13.398556
27.700000 2.908691 13.398556
27.800000 3.590820 13.398556
27.900000 4.522949 13.398556
28.300000 4.705078 13.398556
28.800000 5.262207 13.398556
29.300000 5.694336 13.398556
29.600000 6.501465 13.398556
29.700000 7.558594 13.398556
29.500000 8.490723 13.398556
29.400000 9.047852 13.398556
29.200000 9.979980 13.398556
29.200000 10.037109 13.398556
29.300000 10.844238 13.398556
29.500000 12.026367 13.398556
23.600000 -8.195312 13.537254
23.500000 -7.509766 13.537254
23.300000 -4.210938 13.537254
23.200000 -2.025391 13.537254
23.200000 -1.339844 13.537254
23.200000 -0.654297 13.537254
23.200000 -0.468750 13.537254
27.600000 2.144531 13.537254
27.600000 2.580078 13.537254
27.700000 3.515625 13.537254
27.800000 3.697754 13.537254
28.000000 4.379883 13.537254
28.300000 5.562012 13.537254
28.700000 5.994141 13.537254
29.200000 6.176270 13.537254
29.500000 7.358398 13.537254
29.700000 7.290527 13.537254
29.500000 8.722656 13.537254
29.300000 9.279785 13.537254
29.100000 9.836914 13.537254
29.200000 10.269043 13.537254
29.300000 11.076172 13.537254
29.500000 11.258301 13.537254
23.600000 -9.378418 13.676149
23.500000 -9.068359 13.676149
23.400000 -2.658203 13.676149
23.200000 -2.851562 13.676149
23.200000 -2.169922 13.676149
23.200000 -2.363281 13.676149
23.200000 -0.431641 13.676149
27.600000 1.783203 13.676149
27.600000 2.964844 13.676149
27.600000 3.646484 13.676149
27.700000 3.828125 13.676149
27.900000 4.759766 13.676149
28.300000 4.691406 13.676149
28.600000 5.623047 13.676149
29.100000 6.554688 13.676149
29.500000 6.486328 13.676149
29.600000 7.667969 13.676149
29.300000 8.599609 13.676149
29.200000 9.406250 13.676149
29.100000 9.587891 13.676149
29.100000 10.144531 13.676149
29.300000 11.076172 13.676149
29.500000 11.757812 13.676149
23.500000 -9.189453 13.801158
23.300000 -2.611328 13.801158
23.200000 -1.804688 13.801158
23.200000 -1.123047 13.801158
23.200000 -1.566406 13.801158
23.200000 -0.884766 13.801158
27.500000 0.591797 13.801158
27.700000 1.148438 13.801158
27.600000 2.205078 13.801158
27.500000 3.011719 13.801158
27.600000 4.068359 13.801158
27.800000 4.000000 13.801158
28.000000 4.179688 13.801158
28.300000 5.234375 13.801158
28.700000 6.039062 13.801158
29.100000 6.218750 13.801158
29.500000 7.148438 13.801158
29.500000 7.953125 13.801158
29.200000 8.757812 13.801158
29.100000 9.437500 13.801158
29.100000 10.117188 13.801158
29.100000 11.046875 13.801158
29.300000 11.476562 13.801158
29.500000 11.406250 13.801158
29.900000 12.335938 13.801158
23.600000 -10.077637 13.943084
23.500000 -7.521484 13.943084
23.400000 -2.750488 13.943084
23.200000 -3.318359 13.943084
23.200000 -2.761230 13.943084
23.200000 -0.704102 13.943084
23.200000 -1.896973 13.943084
27.600000 1.695801 13.943084
27.600000 2.627930 13.943084
27.600000 2.935059 13.943084
27.700000 3.617188 13.943084
27.900000 4.924316 13.943084
28.200000 5.231445 13.943084
28.600000 5.788574 13.943084
28.900000 6.595703 13.943084
29.300000 6.527832 13.943084
29.400000 7.209961 13.943084
29.300000 8.517090 13.943084
29.100000 9.324219 13.943084
29.100000 9.381348 13.943084
29.100000 10.188477 13.943084
29.300000 10.495605 13.943084
29.500000 11.927734 13.943084
23.600000 -9.241211 14.082886
23.300000 -2.655273 14.082886
23.200000 -2.722656 14.082886
23.200000 -1.290039 14.082886
23.200000 -1.357422 14.082886
23.200000 -1.799805 14.082886
27.600000 1.545898 14.082886
27.600000 2.478516 14.082886
27.600000 3.536133 14.082886
27.700000 3.593750 14.082886
27.900000 5.024902 14.082886
28.200000 4.956055 14.082886
28.500000 5.762207 14.082886
28.900000 6.443359 14.082886
29.200000 7.124512 14.082886
29.400000 7.555664 14.082886
29.300000 8.111816 14.082886
29.100000 9.167969 14.082886
29.000000 9.599121 14.082886
29.100000 10.655273 14.082886
29.200000 11.461426 14.082886
29.400000 11.517578 14.082886
23.500000 -9.092285 14.214702
23.300000 -3.504883 14.214702
23.200000 -1.824219 14.214702
23.200000 -2.768555 14.214702
23.200000 -1.087891 14.214702
23.200000 0.467773 14.214702
27.500000 1.065430 14.214702
27.700000 1.871094 14.214702
27.600000 2.551758 14.214702
27.600000 3.357422 14.214702
27.600000 2.913086 14.214702
27.800000 3.718750 14.214702
28.000000 4.274414 14.214702
28.400000 5.580078 14.214702
28.700000 5.885742 14.214702
28.900000 6.816406 14.214702
29.200000 6.622070 14.214702
29.300000 8.052734 14.214702
29.200000 8.608398 14.214702
29.100000 9.289062 14.214702
29.000000 9.969727 14.214702
29.000000 10.525391 14.214702
29.300000 10.831055 14.214702
29.500000 12.261719 14.214702
23.500000 -9.788574 14.347605
23.400000 -3.964355 14.347605
23.200000 -3.408203 14.347605
23.200000 -2.852051 14.347605
23.200000 -1.795898 14.347605
23.300000 -0.989746 14.347605
27.700000 0.484863 14.347605
27.800000 1.291016 14.347605
27.700000 1.847168 14.347605
27.700000 2.903320 14.347605
27.800000 3.084473 14.347605
27.900000 3.890625 14.347605
28.100000 5.320312 14.347605
28.400000 5.500000 14.347605
28.700000 6.554688 14.347605
28.900000 6.234375 14.347605
29.200000 7.664062 14.347605
29.300000 7.968750 14.347605
29.200000 9.148438 14.347605
29.000000 9.203125 14.347605
29.000000 9.632812 14.347605
29.000000 10.687500 14.347605
29.200000 11.867188 14.347605
29.400000 12.046875 14.347605
23.500000 -8.863770 14.487760
23.300000 -3.416992 14.487760
23.200000 -1.863281 14.487760
23.200000 -1.184570 14.487760
23.200000 -0.880859 14.487760
23.200000 -1.077148 14.487760
27.500000 1.137695 14.487760
27.700000 1.441406 14.487760
27.600000 1.495117 14.487760
27.600000 2.548828 14.487760
27.700000 3.477539 14.487760
27.800000 4.031250 14.487760
28.000000 4.709961 14.487760
28.300000 4.888672 14.487760
28.600000 5.692383 14.487760
28.800000 5.996094 14.487760
29.100000 7.299805 14.487760
29.200000 7.353516 14.487760
29.200000 8.407227 14.487760
29.100000 9.585938 14.487760
28.900000 9.764648 14.487760
29.000000 10.193359 14.487760
29.100000 10.872070 14.487760
29.300000 12.175781 14.487760
23.600000 -9.169922 14.628671
23.300000 -3.345703 14.628671
23.200000 -2.789551 14.628671
23.200000 -1.608398 14.628671
23.200000 -0.552246 14.628671
23.200000 -1.371094 14.628671
27.600000 1.715820 14.628671
27.600000 2.396973 14.628671
27.700000 3.453125 14.628671
27.800000 3.878906 14.628671
27.900000 4.429688 14.628671
28.200000 5.230469 14.628671
28.500000 6.156250 14.628671
28.800000 6.207031 14.628671
28.900000 6.632812 14.628671
29.100000 7.308594 14.628671
29.300000 8.609375 14.628671
29.100000 9.160156 14.628671
28.900000 9.585938 14.628671
28.900000 10.261719 14.628671
29.400000 12.539062 14.628671
30.100000 12.964844 14.628671
23.600000 -10.193848 14.754860
23.500000 -7.514648 14.754860
23.400000 -4.507812 14.754860
23.200000 -3.453125 14.754860
23.200000 -1.398438 14.754860
23.200000 -0.718750 14.754860
23.200000 -1.664062 14.754860
27.700000 0.734375 14.754860
27.800000 1.539062 14.754860
27.700000 2.093750 14.754860
27.700000 2.773438 14.754860
27.800000 3.703125 14.754860
27.900000 4.632812 14.754860
28.200000 4.812500 14.754860
28.500000 5.367188 14.754860
28.700000 6.421875 14.754860
28.900000 6.976562 14.754860
29.100000 7.781250 14.754860
29.400000 8.335938 14.754860
29.200000 9.140625 14.754860
28.900000 9.195312 14.754860
28.800000 10.250000 14.754860
28.900000 10.679688 14.754860
29.200000 11.859375 14.754860
29.600000 11.789062 14.754860
30.000000 13.093750 14.754860
23.500000 -8.877441 14.897686
23.400000 -3.102539 14.897686
23.300000 -2.170410 14.897686
23.200000 -1.863281 14.897686
23.200000 -1.681152 14.897686
23.200000 -0.124023 14.897686
23.400000 0.558105 14.897686
23.300000 0.115234 14.897686
27.700000 0.661621 14.897686
27.800000 1.343750 14.897686
27.700000 2.022949 14.897686
27.700000 3.327148 14.897686
27.800000 4.006348 14.897686
28.000000 4.935547 14.897686
28.200000 4.614746 14.897686
28.500000 5.293945 14.897686
28.700000 5.723145 14.897686
28.800000 6.652344 14.897686
28.900000 7.831543 14.897686
29.300000 7.885742 14.897686
29.300000 8.689941 14.897686
28.900000 9.994141 14.897686
28.700000 9.923340 14.897686
28.700000 10.727539 14.897686
29.000000 11.656738 14.897686
29.500000 12.085938 14.897686
23.500000 -9.578125 15.021244
23.400000 -3.992188 15.021244
23.200000 -1.434570 15.021244
23.200000 -1.376953 15.021244
23.300000 -1.319336 15.021244
23.400000 -1.261719 15.021244
27.700000 0.843750 15.021244
27.800000 1.276367 15.021244
27.800000 2.708984 15.021244
27.700000 3.141602 15.021244
27.800000 3.574219 15.021244
28.000000 3.881836 15.021244
28.100000 5.064453 15.021244
28.400000 5.372070 15.021244
28.700000 5.554688 15.021244
28.800000 6.987305 15.021244
28.800000 7.794922 15.021244
29.200000 7.602539 15.021244
29.400000 8.785156 15.021244
29.100000 9.217773 15.021244
28.700000 9.900391 15.021244
28.500000 10.333008 15.021244
30.400000 12.928223 15.021244
23.600000 -9.816406 15.169278
23.500000 -8.257812 15.169278
23.400000 -4.347656 15.169278
23.200000 -3.789062 15.169278
23.200000 -1.355469 15.169278
23.200000 -2.296875 15.169278
23.200000 0.011719 15.169278
23.300000 0.695312 15.169278
23.500000 0.378906 15.169278
27.800000 1.541016 15.169278
27.800000 2.092773 15.169278
27.700000 2.394531 15.169278
27.800000 3.321289 15.169278
27.900000 3.498047 15.169278
28.100000 3.924805 15.169278
28.300000 5.226562 15.169278
28.500000 5.528320 15.169278
28.700000 5.955078 15.169278
28.700000 7.381836 15.169278
28.900000 7.183594 15.169278
29.300000 7.985352 15.169278
29.300000 8.912109 15.169278
28.800000 10.213867 15.169278
23.500000 -7.906250 15.293229
23.400000 -3.593750 15.293229
23.200000 -2.164062 15.293229
23.300000 -2.859375 15.293229
23.300000 -1.804688 15.293229
23.300000 -0.625000 15.293229
27.700000 1.093750 15.293229
27.800000 1.398438 15.293229
27.800000 2.328125 15.293229
27.700000 2.882812 15.293229
27.900000 2.937500 15.293229
28.000000 3.742188 15.293229
28.100000 5.171875 15.293229
28.400000 4.976562 15.293229
28.700000 5.531250 15.293229
28.800000 6.585938 15.293229
29.100000 8.250000 15.293229
29.100000 9.925293 15.293229
28.600000 10.600586 15.293229
28.400000 10.525879 15.293229
28.600000 11.326172 15.293229
23.600000 -10.036133 15.433060
23.500000 -7.480957 15.433060
23.400000 -3.594727 15.433060
23.200000 -2.664551 15.433060
23.300000 -3.109375 15.433060
23.300000 -1.559082 15.433060
23.200000 -0.008789 15.433060
23.300000 -0.833496 15.433060
23.500000 1.341797 15.433060
27.900000 0.867676 15.433060
27.900000 1.542969 15.433060
27.800000 2.593262 15.433060
27.800000 3.393555 15.433060
28.000000 3.693848 15.433060
28.100000 4.369141 15.433060
28.300000 4.544434 15.433060
28.500000 5.844727 15.433060
28.700000 5.895020 15.433060
28.700000 7.195312 15.433060
28.900000 8.846191 15.433060
28.900000 10.021484 15.433060
28.700000 11.172363 15.433060
23.600000 -9.329102 15.571387
23.300000 -4.274414 15.571387
23.200000 -3.595703 15.571387
23.200000 -1.166992 15.571387
23.200000 -1.238281 15.571387
23.300000 0.190430 15.571387
27.900000 2.137695 15.571387
27.900000 2.316406 15.571387
27.900000 3.620117 15.571387
28.000000 4.173828 15.571387
28.100000 4.477539 15.571387
28.300000 5.281250 15.571387
28.600000 5.958496 15.571387
28.700000 6.760742 15.571387
29.100000 8.292480 15.571387
29.200000 9.344727 15.571387
28.700000 10.146973 15.571387
23.600000 -9.383789 15.710291
23.300000 -2.687500 15.710291
23.200000 -3.757812 15.710291
23.200000 -1.328125 15.710291
23.300000 -0.648438 15.710291
23.200000 0.031250 15.710291
27.900000 0.679688 15.710291
27.900000 1.484375 15.710291
27.800000 2.789062 15.710291
27.900000 3.343750 15.710291
28.000000 3.773438 15.710291
28.100000 4.203125 15.710291
28.300000 4.882812 15.710291
28.500000 5.437500 15.710291
28.700000 6.367188 15.710291
29.200000 8.656250 15.710291
29.200000 9.085938 15.710291
28.700000 10.265625 15.710291
28.600000 11.429688 15.710291
23.500000 -9.177246 15.850132
23.400000 -4.517090 15.850132
23.200000 -3.715820 15.850132
23.200000 -1.289551 15.850132
23.200000 -0.863281 15.850132
23.200000 -1.562012 15.850132
23.300000 0.739258 15.850132
23.500000 -0.459473 15.850132
27.900000 1.444336 15.850132
27.900000 2.245605 15.850132
27.800000 2.171875 15.850132
27.900000 3.344727 15.850132
28.000000 4.142578 15.850132
28.100000 3.940430 15.850132
28.300000 4.738281 15.850132
28.500000 5.161133 15.850132
28.700000 6.208984 15.850132
29.000000 9.025391 15.850132
28.900000 9.448242 15.850132
28.800000 11.466797 15.850132
23.600000 -9.849609 15.976174
23.400000 -3.435547 15.976174
23.300000 -3.133789 15.976174
23.200000 -2.957031 15.976174
23.200000 -1.655273 15.976174
23.200000 0.146484 15.976174
27.900000 1.582031 15.976174
27.800000 2.633789 15.976174
27.900000 2.685547 15.976174
28.000000 3.737305 15.976174
28.100000 5.039062 15.976174
28.300000 5.465820 15.976174
28.600000 6.017578 15.976174
28.700000 6.444336 15.976174
29.200000 8.099609 15.976174
29.200000 8.651367 15.976174
28.700000 10.328125 15.976174
23.500000 -7.925781 16.114157
23.300000 -2.457031 16.114157
23.200000 -1.773438 16.114157
23.200000 -1.714844 16.114157
23.200000 -1.906250 16.114157
23.200000 0.270020 16.114157
27.800000 1.827637 16.114157
27.900000 3.253906 16.114157
27.900000 3.555176 16.114157
28.000000 4.231445 16.114157
28.100000 5.157715 16.114157
28.300000 4.958984 16.114157
28.600000 5.760254 16.114157
28.800000 6.186523 16.114157
29.100000 8.840332 16.114157
29.200000 9.516602 16.114157
28.700000 9.817871 16.114157
11.300000 -9.989258 16.252743
23.200000 -2.071289 16.252743
23.200000 -2.140625 16.252743
23.200000 -0.709961 16.252743
23.200000 -0.029297 16.252743
27.900000 0.499023 16.252743
27.900000 1.429688 16.252743
27.800000 2.610352 16.252743
27.900000 3.541016 16.252743
28.000000 3.971680 16.252743
28.100000 4.777344 16.252743
28.300000 5.083008 16.252743
28.500000 5.388672 16.252743
28.700000 6.194336 16.252743
28.700000 6.750000 16.252743
28.900000 9.153809 16.252743
28.900000 9.205078 16.252743
23.600000 -8.267578 16.394822
23.400000 -2.871094 16.394822
23.300000 -2.447266 16.394822
23.200000 -2.398438 16.394822
22.200000 -0.203125 16.394822
30.400000 12.746094 16.394822
23.500000 -7.565430 16.519699
23.400000 -2.845215 16.519699
23.300000 -1.920898 16.519699
23.200000 -1.496582 16.519699
23.200000 -2.447266 16.519699
23.300000 -1.147949 16.519699
23.400000 -0.223633 16.519699
28.700000 0.839844 16.519699
27.900000 1.804688 16.519699
27.900000 2.599609 16.519699
27.900000 3.144531 16.519699
28.000000 4.439453 16.519699
27.800000 1.568359 16.658827
27.900000 2.738770 16.658827
27.900000 3.284180 16.658827
28.900000 9.988281 16.658827
28.800000 10.658691 16.658827
28.900000 10.954102 16.658827
27.900000 1.620117 16.799661
27.800000 2.916016 16.799661
27.900000 2.836914 16.799661
28.000000 4.132812 16.799661
28.100000 4.053711 16.799661
28.300000 4.849609 16.799661
28.500000 5.145508 16.799661
28.800000 5.941406 16.799661
28.800000 7.237305 16.799661
29.000000 7.533203 16.799661
29.300000 8.454102 16.799661
29.300000 8.875000 16.799661
29.100000 9.166992 16.799661
28.900000 10.208984 16.799661
28.900000 10.625977 16.799661
29.100000 11.292969 16.799661
29.600000 12.084961 16.799661
30.000000 12.376953 16.799661
30.500000 13.168945 16.799661
23.300000 -0.692383 16.927426
27.900000 2.335938 16.927426
27.800000 2.632324 16.927426
27.900000 3.428711 16.927426
28.000000 4.350098 16.927426
28.100000 4.021484 16.927426
28.300000 5.317871 16.927426
28.600000 5.989258 16.927426
28.900000 6.035645 16.927426
29.100000 6.832031 16.927426
29.300000 8.003418 16.927426
29.500000 8.424805 16.927426
29.300000 8.596191 16.927426
29.000000 10.142578 16.927426
29.000000 10.563965 16.927426
29.100000 10.735352 16.927426
29.400000 11.531738 16.927426
29.800000 11.953125 16.927426
23.500000 -8.244629 17.080951
23.500000 -9.434570 17.080951
23.400000 -4.139160 17.080951
23.300000 -3.204102 17.080951
23.200000 -3.019043 17.080951
23.200000 -2.458984 17.080951
23.300000 -0.898926 17.080951
23.400000 0.661133 17.080951
23.300000 0.346191 17.080951
27.800000 1.513672 17.080951
27.900000 1.692383 17.080951
27.800000 1.996094 17.080951
27.900000 2.924805 17.080951
28.000000 3.853516 17.080951
28.100000 4.407227 17.080951
28.300000 4.960938 17.080951
28.600000 5.264648 17.080951
28.900000 5.818359 17.080951
29.000000 6.747070 17.080951
29.200000 7.800781 17.080951
29.500000 8.229492 17.080951
29.300000 8.658203 17.080951
29.100000 9.836914 17.080951
29.000000 10.015625 17.080951
29.100000 10.944336 17.080951
29.400000 11.248047 17.080951
29.800000 12.551758 17.080951
23.500000 -7.703125 17.204678
23.300000 -2.214844 17.204678
23.200000 -1.528809 17.204678
23.200000 -0.842773 17.204678
23.300000 -1.781738 17.204678
23.400000 -0.595703 17.204678
27.800000 0.523438 17.204678
27.900000 2.209473 17.204678
27.800000 1.895508 17.204678
27.900000 2.706543 17.204678
28.000000 3.517578 17.204678
28.100000 3.828613 17.204678
28.300000 5.514648 17.204678
28.600000 5.325684 17.204678
28.900000 6.136719 17.204678
29.000000 6.947754 17.204678
29.200000 7.383789 17.204678
29.500000 7.819824 17.204678
29.300000 8.505859 17.204678
29.100000 9.566895 17.204678
29.100000 9.877930 17.204678
29.200000 10.563965 17.204678
29.400000 11.375000 17.204678
29.800000 11.933594 17.204678
23.500000 -7.599609 17.340900
23.400000 -4.040527 17.340900
23.300000 -2.103516 17.340900
23.200000 -3.166504 17.340900
23.200000 -0.729492 17.340900
23.300000 -0.042480 17.340900
23.400000 0.644531 17.340900
23.300000 0.456543 17.340900
27.800000 1.267578 17.340900
27.900000 1.204590 17.340900
27.800000 1.891602 17.340900
27.900000 2.828613 17.340900
28.000000 3.515625 17.340900
28.100000 4.326172 17.340900
28.300000 5.386719 17.340900
28.600000 5.697266 17.340900
29.000000 6.132812 17.340900
29.200000 6.818359 17.340900
29.400000 7.253906 17.340900
29.500000 8.439453 17.340900
29.300000 9.500000 17.340900
29.100000 9.435547 17.340900
29.200000 10.746094 17.340900
29.300000 10.556641 17.340900
29.500000 11.617188 17.340900
29.900000 12.677734 17.340900
30.300000 12.488281 17.340900
23.500000 -8.388184 17.478745
23.400000 -2.815430 17.478745
23.300000 -2.501465 17.478745
23.200000 -3.062500 17.478745
23.200000 -0.751465 17.478745
23.300000 -0.065430 17.478745
23.400000 0.620605 17.478745
23.300000 1.306641 17.478745
27.800000 1.614746 17.478745
27.900000 1.300781 17.478745
27.800000 1.861816 17.478745
27.900000 2.672852 17.478745
28.000000 3.858887 17.478745
28.100000 4.669922 17.478745
28.300000 5.355957 17.478745
28.600000 5.166992 17.478745
28.900000 5.853027 17.478745
29.100000 7.039062 17.478745
29.400000 7.475098 17.478745
29.500000 8.411133 17.478745
29.300000 9.347168 17.478745
29.100000 9.283203 17.478745
29.200000 9.969238 17.478745
29.400000 10.780273 17.478745
29.500000 11.466309 17.478745
29.900000 12.652344 17.478745
30.300000 12.963379 17.478745
23.500000 -9.874023 17.602771
23.500000 -7.436035 17.602771
23.400000 -2.620117 17.602771
23.200000 -1.932129 17.602771
23.200000 -1.244141 17.602771
23.200000 -0.556152 17.602771
23.200000 -1.243164 17.602771
27.800000 1.759766 17.602771
27.800000 3.197754 17.602771
27.900000 2.885742 17.602771
28.000000 3.573730 17.602771
28.200000 4.636719 17.602771
28.500000 5.074707 17.602771
28.800000 5.512695 17.602771
29.000000 6.950684 17.602771
29.300000 6.888672 17.602771
29.500000 7.576660 17.602771
29.500000 8.264648 17.602771
29.300000 8.952637 17.602771
29.200000 10.265625 17.602771
29.300000 10.949707 17.602771
29.500000 11.383789 17.602771
29.700000 11.942871 17.602771
30.100000 12.751953 17.602771
30.600000 12.936035 17.602771
23.500000 -9.566406 17.740823
23.300000 -4.175781 17.740823
23.200000 -1.861328 17.740823
23.200000 -2.296875 17.740823
23.200000 -0.482422 17.740823
23.200000 0.207031 17.740823
27.800000 1.718750 17.740823
27.800000 2.406250 17.740823
27.900000 3.093750 17.740823
28.000000 4.031250 17.740823
28.200000 4.468750 17.740823
28.500000 5.156250 17.740823
28.800000 5.843750 17.740823
29.100000 6.406250 17.740823
29.400000 6.968750 17.740823
29.500000 7.781250 17.740823
29.400000 8.593750 17.740823
29.300000 8.906250 17.740823
29.300000 9.718750 17.740823
29.400000 10.406250 17.740823
29.600000 11.093750 17.740823
29.800000 11.906250 17.740823
23.500000 -8.795898 17.880668
23.400000 -3.906250 17.880668
23.200000 -3.468750 17.880668
23.300000 -2.406250 17.880668
23.300000 -1.718750 17.880668
23.400000 0.468750 17.880668
27.800000 1.218750 17.880668
27.800000 1.031250 17.880668
27.800000 2.468750 17.880668
27.800000 3.156250 17.880668
27.900000 3.343750 17.880668
28.100000 4.281250 17.880668
28.300000 4.718750 17.880668
28.600000 5.281250 17.880668
28.900000 6.218750 17.880668
29.300000 6.531250 17.880668
29.600000 7.343750 17.880668
29.600000 8.031250 17.880668
29.400000 8.718750 17.880668
29.300000 9.031250 17.880668
29.300000 10.343750 17.880668
29.400000 10.656250 17.880668
29.600000 11.968750 17.880668
29.900000 11.781250 17.880668
30.400000 12.343750 17.880668
23.600000 -9.237305 18.006665
23.400000 -2.241211 18.006665
23.200000 -3.179199 18.006665
23.200000 -1.117188 18.006665
23.300000 -1.930176 18.006665
23.400000 -0.993164 18.006665
27.800000 0.629883 18.006665
27.800000 1.191895 18.006665
27.800000 2.128906 18.006665
27.800000 2.815918 18.006665
27.900000 3.877930 18.006665
28.100000 4.189941 18.006665
28.300000 4.751953 18.006665
28.600000 5.188965 18.006665
28.900000 6.250977 18.006665
29.300000 6.437988 18.006665
29.600000 7.500000 18.006665
29.600000 8.183594 18.006665
29.400000 8.742188 18.006665
29.300000 9.175781 18.006665
29.300000 10.359375 18.006665
29.400000 10.542969 18.006665
29.600000 11.226562 18.006665
29.900000 12.410156 18.006665
30.400000 12.718750 18.006665
23.600000 -9.621582 18.147661
23.400000 -3.508301 18.147661
23.200000 -1.572266 18.147661
23.200000 -2.011230 18.147661
23.300000 -0.200195 18.147661
23.300000 0.485840 18.147661
27.800000 1.474121 18.147661
27.800000 1.283203 18.147661
27.800000 2.967285 18.147661
27.800000 2.901367 18.147661
27.900000 3.085449 18.147661
28.100000 4.644531 18.147661
28.300000 4.578613 18.147661
28.600000 5.512695 18.147661
28.900000 5.946777 18.147661
29.400000 7.130859 18.147661
29.700000 7.689941 18.147661
29.600000 8.499023 18.147661
29.400000 8.683105 18.147661
29.300000 9.492188 18.147661
29.300000 10.176270 18.147661
29.500000 10.485352 18.147661
29.600000 11.419434 18.147661
29.900000 11.978516 18.147661
30.400000 13.037598 18.147661
23.500000 -9.578125 18.274584
23.500000 -7.395508 18.274584
23.300000 -4.367188 18.274584
23.200000 -1.934570 18.274584
23.300000 -3.126953 18.274584
23.200000 -2.319336 18.274584
23.200000 0.113281 18.274584
27.800000 1.458984 18.274584
27.800000 2.141602 18.274584
27.900000 3.824219 18.274584
28.000000 3.756836 18.274584
28.200000 4.939453 18.274584
28.600000 4.747070 18.274584
29.800000 7.977539 18.274584
29.600000 8.535156 18.274584
29.400000 9.342773 18.274584
29.300000 9.775391 18.274584
29.400000 10.583008 18.274584
29.500000 10.890625 18.274584
29.800000 11.698730 18.274584
23.500000 -9.473633 18.424166
23.500000 -7.412598 18.424166
23.300000 -2.360352 18.424166
23.200000 -3.299316 18.424166
23.200000 -1.238281 18.424166
23.200000 -2.052246 18.424166
23.200000 -1.616211 18.424166
27.800000 1.875000 18.424166
27.800000 2.308594 18.424166
27.900000 3.117188 18.424166
28.000000 3.925781 18.424166
28.300000 4.109375 18.424166
28.600000 5.292969 18.424166
29.900000 7.277344 18.424166
29.700000 8.210938 18.424166
29.400000 9.269531 18.424166
29.300000 10.203125 18.424166
29.500000 10.136719 18.424166
29.700000 10.820312 18.424166
29.800000 11.878906 18.424166
23.500000 -8.234375 18.548445
23.300000 -3.863770 18.548445
23.200000 -1.802734 18.548445
23.200000 -2.741699 18.548445
23.200000 -1.680664 18.548445
23.200000 0.255371 18.548445
27.700000 1.249512 18.548445
28.000000 1.935547 18.548445
28.000000 2.371582 18.548445
28.000000 3.057617 18.548445
28.000000 3.743652 18.548445
28.200000 4.304688 18.548445
28.400000 4.240723 18.548445
28.700000 5.176758 18.548445
29.900000 8.295898 18.548445
29.600000 8.606934 18.548445
29.500000 8.917969 18.548445
29.500000 9.979004 18.548445
29.600000 10.415039 18.548445
29.700000 11.101074 18.548445
30.000000 11.787109 18.548445
30.400000 12.223145 18.548445
23.500000 -9.015625 18.674972
23.400000 -1.703125 18.674972
23.200000 -2.765625 18.674972
23.200000 -1.953125 18.674972
23.200000 0.359375 18.674972
27.800000 0.859375 18.674972
28.000000 1.796875 18.674972
28.000000 2.484375 18.674972
28.000000 2.296875 18.674972
28.100000 3.234375 18.674972
28.200000 3.796875 18.674972
28.400000 4.609375 18.674972
28.700000 5.546875 18.674972
29.900000 7.541016 18.674972
29.600000 8.850586 18.674972
29.500000 9.410156 18.674972
29.500000 10.219727 18.674972
29.600000 10.529297 18.674972
29.700000 11.338867 18.674972
30.000000 12.023438 18.674972
30.400000 12.208008 18.674972
23.500000 -7.728516 18.814425
23.300000 -2.212891 18.814425
23.200000 -1.523438 18.814425
23.200000 -1.208984 18.814425
23.200000 -0.144531 18.814425
23.300000 -0.830078 18.814425
28.000000 0.663086 18.814425
28.100000 1.472656 18.814425
28.000000 2.032227 18.814425
28.000000 3.466797 18.814425
28.100000 4.026367 18.814425
28.300000 3.960938 18.814425
28.600000 5.145508 18.814425
28.900000 5.080078 18.814425
30.000000 8.443359 18.814425
29.700000 9.252930 18.814425
29.600000 9.187500 18.814425
29.600000 10.247070 18.814425
29.700000 10.431641 18.814425
29.900000 11.366211 18.814425
30.100000 12.550781 18.814425
30.600000 12.985352 18.814425
23.500000 -9.468750 18.954407
23.400000 -2.794922 18.954407
23.300000 -3.984375 18.954407
23.200000 -1.423828 18.954407
23.300000 -0.738281 18.954407
23.200000 0.197266 18.954407
23.300000 0.632812 18.954407
23.400000 -0.431641 18.954407
28.000000 1.000000 18.954407
28.100000 1.810547 18.954407
28.000000 1.996094 18.954407
28.100000 2.556641 18.954407
28.200000 4.117188 18.954407
28.400000 4.677734 18.954407
28.700000 4.988281 18.954407
29.100000 5.173828 18.954407
29.400000 5.859375 18.954407
29.900000 6.919922 18.954407
30.200000 7.730469 18.954407
30.000000 7.916016 18.954407
29.700000 8.476562 18.954407
29.600000 9.287109 18.954407
29.600000 10.222656 18.954407
29.700000 10.908203 18.954407
29.900000 11.343750 18.954407
23.500000 -9.203125 19.076722
23.300000 -3.203125 19.076722
23.200000 -1.515625 19.076722
23.200000 -0.828125 19.076722
23.200000 -1.015625 19.076722
23.300000 0.546875 19.076722
23.100000 1.234375 19.076722
28.000000 0.421875 19.076722
28.100000 1.359375 19.076722
28.000000 1.796875 19.076722
28.000000 2.984375 19.076722
28.100000 3.296875 19.076722
28.300000 4.107910 19.076722
28.700000 4.543945 19.076722
29.100000 5.854980 19.076722
29.400000 6.291016 19.076722
29.900000 6.602051 19.076722
30.300000 7.413086 19.076722
30.100000 8.224121 19.076722
29.700000 8.910156 19.076722
29.600000 9.971191 19.076722
29.700000 9.782227 19.076722
29.800000 10.718262 19.076722
29.900000 11.654297 19.076722
23.500000 -9.390625 19.216976
23.400000 -3.939453 19.216976
23.300000 -2.000000 19.216976
23.300000 -3.188965 19.216976
23.200000 -2.502930 19.216976
23.200000 0.058105 19.216976
28.100000 1.613281 19.216976
28.100000 1.549316 19.216976
28.000000 2.735352 19.216976
28.100000 3.421387 19.216976
28.200000 3.607422 19.216976
28.500000 4.168457 19.216976
28.900000 5.479492 19.216976
29.300000 5.665527 19.216976
29.600000 5.851562 19.216976
30.100000 7.162598 19.216976
30.300000 7.473633 19.216976
30.100000 8.784668 19.216976
29.700000 9.220703 19.216976
29.700000 9.656738 19.216976
29.800000 10.592773 19.216976
29.900000 10.778809 19.216976
30.100000 11.339844 19.216976
23.500000 -9.153320 19.354658
23.400000 -2.270508 19.354658
23.200000 -2.207031 19.354658
23.200000 -2.643555 19.354658
23.300000 -0.205078 19.354658
23.300000 -1.016602 19.354658
28.000000 1.487305 19.354658
28.100000 1.050781 19.354658
28.100000 1.739258 19.354658
28.000000 3.302734 19.354658
28.200000 3.241211 19.354658
28.400000 4.679688 19.354658
28.700000 4.868164 19.354658
29.200000 5.181641 19.354658
29.600000 5.745117 19.354658
29.900000 6.183594 19.354658
30.300000 6.997070 19.354658
30.300000 8.185547 19.354658
30.000000 8.499023 19.354658
29.800000 9.187500 19.354658
29.800000 10.249023 19.354658
29.900000 10.685547 19.354658
30.000000 11.122070 19.354658
23.600000 -9.785156 19.479818
23.300000 -2.519531 19.479818
23.200000 -1.580078 19.479818
23.200000 -1.140625 19.479818
23.200000 -1.326172 19.479818
23.200000 0.238281 19.479818
28.100000 2.375000 19.479818
28.100000 2.686035 19.479818
28.200000 3.372070 19.479818
28.400000 4.058105 19.479818
28.700000 4.244141 19.479818
29.100000 5.180176 19.479818
29.500000 5.616211 19.479818
29.800000 6.677246 19.479818
30.200000 7.238281 19.479818
30.400000 7.924316 19.479818
30.100000 8.735352 19.479818
29.800000 9.296387 19.479818
29.800000 9.982422 19.479818
29.800000 10.918457 19.479818
30.000000 10.979492 19.479818
30.200000 11.915527 19.479818
30.600000 12.351562 19.479818
23.600000 -7.996094 19.618791
23.300000 -2.488281 19.618791
23.200000 -1.802734 19.618791
23.200000 -1.117188 19.618791
23.200000 -1.181641 19.618791
23.200000 0.253906 19.618791
28.200000 2.492188 19.618791
28.100000 2.552734 19.618791
28.100000 3.488281 19.618791
28.400000 4.173828 19.618791
28.700000 4.234375 19.618791
29.100000 5.169922 19.618791
29.700000 5.855469 19.618791
30.100000 7.412109 19.618791
30.200000 8.347656 19.618791
29.900000 9.533203 19.618791
29.800000 10.093750 19.618791
29.800000 10.279297 19.618791
30.000000 11.089844 19.618791
30.200000 11.775391 19.618791
30.600000 12.585938 19.618791
23.500000 -9.599609 19.755464
23.400000 -3.607422 19.755464
23.200000 -2.795898 19.755464
23.300000 -2.859375 19.755464
23.200000 -0.297852 19.755464
22.000000 1.075195 19.755464
23.900000 7.190430 19.755464
24.200000 12.177734 19.755464
23.200000 -0.738770 19.894743
23.200000 -1.049805 19.894743
23.400000 0.889160 19.894743
28.100000 1.071289 19.894743
28.100000 2.130371 19.894743
30.100000 8.780273 19.894743
30.000000 9.964355 19.894743
29.900000 10.023438 19.894743
30.000000 10.707520 19.894743
23.300000 -2.447754 20.020315
23.300000 -1.261719 20.020315
23.300000 0.424316 20.020315
28.000000 1.043457 20.020315
28.100000 1.729492 20.020315
28.000000 1.790527 20.020315
28.000000 2.726562 20.020315
28.200000 3.287598 20.020315
28.600000 3.598633 20.020315
28.900000 4.784668 20.020315
29.400000 5.720703 20.020315
29.800000 5.781738 20.020315
30.100000 7.714844 20.020315
30.300000 8.400879 20.020315
30.000000 9.461914 20.020315
29.900000 9.897949 20.020315
30.000000 10.958984 20.020315
30.100000 11.395020 20.020315
23.500000 -8.421875 20.145580
23.500000 -7.484375 20.145580
23.400000 -4.296875 20.145580
23.300000 -1.984375 20.145580
23.300000 -1.796875 20.145580
23.200000 -1.859375 20.145580
23.200000 0.078125 20.145580
28.100000 1.140625 20.145580
28.100000 2.203125 20.145580
28.000000 2.765625 20.145580
28.100000 3.453125 20.145580
28.400000 3.640625 20.145580
28.800000 4.203125 20.145580
29.200000 4.890625 20.145580
29.700000 5.953125 20.145580
30.700000 8.316406 20.145580
30.100000 9.375977 20.145580
30.000000 10.060547 20.145580
30.000000 10.120117 20.145580
30.200000 10.804688 20.145580
30.300000 11.614258 20.145580
23.500000 -8.416016 20.298485
23.500000 -9.354004 20.298485
23.400000 -3.669922 20.298485
23.300000 -3.232910 20.298485
23.300000 -1.420898 20.298485
23.200000 -0.608887 20.298485
23.200000 -1.171875 20.298485
28.100000 1.133301 20.298485
28.100000 1.569336 20.298485
28.000000 2.630371 20.298485
28.100000 3.191406 20.298485
28.400000 3.877441 20.298485
28.800000 4.438477 20.298485
29.200000 5.124512 20.298485
29.700000 5.935547 20.298485
30.700000 8.304688 20.298485
30.100000 8.490723 20.298485
30.000000 9.926758 20.298485
30.000000 9.987793 20.298485
30.200000 10.798828 20.298485
30.300000 11.359863 20.298485
23.500000 -9.875000 20.423304
23.500000 -7.437500 20.423304
23.400000 -2.875000 20.423304
23.300000 -1.937500 20.423304
23.200000 -1.625000 20.423304
23.200000 -2.187500 20.423304
23.200000 -1.125000 20.423304
28.100000 1.312500 20.423304
28.100000 1.625000 20.423304
28.100000 2.437500 20.423304
28.200000 3.500000 20.423304
28.400000 3.562500 20.423304
28.800000 4.000000 20.423304
29.300000 4.562500 20.423304
29.700000 5.750000 20.423304
30.700000 8.000000 20.423304
30.200000 9.062500 20.423304
30.100000 9.750000 20.423304
30.100000 10.312500 20.423304
30.200000 11.125000 20.423304
30.300000 12.060059 20.423304
30.700000 11.995117 20.423304
23.500000 -9.190430 20.550723
23.400000 -2.682617 20.550723
23.200000 -2.994141 20.550723
23.200000 -0.805664 20.550723
23.300000 -0.117188 20.550723
23.300000 0.571289 20.550723
23.100000 0.009766 20.550723
27.900000 0.825195 20.550723
28.000000 1.513672 20.550723
28.000000 2.202148 20.550723
28.100000 3.015625 20.550723
28.300000 3.824219 20.550723
28.700000 3.757812 20.550723
29.200000 4.941406 20.550723
29.600000 5.125000 20.550723
29.900000 6.058594 20.550723
30.200000 7.734375 20.550723
30.300000 8.292969 20.550723
30.100000 9.351562 20.550723
30.100000 10.160156 20.550723
30.100000 10.968750 20.550723
30.300000 11.777344 20.550723
23.500000 -9.509766 20.689954
23.400000 -2.398438 20.689954
23.200000 -1.714844 20.689954
23.300000 -1.031250 20.689954
23.200000 -1.597656 20.689954
23.200000 0.335938 20.689954
28.000000 1.687500 20.689954
28.100000 2.621094 20.689954
28.300000 3.179688 20.689954
28.600000 3.738281 20.689954
29.100000 4.921875 20.689954
29.500000 5.230469 20.689954
29.900000 5.789062 20.689954
30.400000 7.589844 20.689954
30.500000 8.023438 20.689954
30.300000 9.582031 20.689954
30.200000 9.515625 20.689954
30.200000 10.824219 20.689954
30.300000 11.257812 20.689954
30.500000 12.066406 20.689954
30.900000 12.625000 20.689954
23.500000 -9.248047 20.828642
23.400000 -2.388672 20.828642
23.200000 -1.703125 20.828642
23.300000 -1.142578 20.828642
23.300000 -0.332031 20.828642
23.200000 0.353516 20.828642
27.800000 0.845703 20.828642
28.000000 1.406250 20.828642
28.000000 2.591797 20.828642
28.100000 2.777344 20.828642
28.300000 3.087891 20.828642
28.600000 4.398438 20.828642
29.000000 4.458984 20.828642
29.500000 4.769531 20.828642
29.900000 6.205078 20.828642
31.200000 8.133789 20.828642
30.500000 8.192871 20.828642
30.300000 9.126953 20.828642
30.200000 9.686035 20.828642
30.200000 10.745117 20.828642
30.300000 11.054199 20.828642
30.500000 12.113281 20.828642
30.900000 12.297363 20.828642
23.500000 -7.802734 20.966317
23.300000 -2.548828 20.966317
23.200000 -3.360840 20.966317
23.200000 -2.047852 20.966317
23.200000 -1.734863 20.966317
23.200000 -0.796875 20.966317
23.100000 1.261230 20.966317
27.900000 1.310547 20.966317
28.000000 1.493652 20.966317
28.000000 2.926758 20.966317
28.100000 2.734863 20.966317
28.300000 3.167969 20.966317
28.700000 4.601074 20.966317
29.200000 4.409180 20.966317
29.600000 5.217285 20.966317
29.900000 6.275391 20.966317
30.200000 7.699707 20.966317
30.400000 8.882812 20.966317
30.200000 9.565918 20.966317
30.200000 9.874023 20.966317
30.300000 10.807129 20.966317
30.400000 11.615234 20.966317
23.500000 -8.361328 21.091218
23.400000 -3.687500 21.091218
23.300000 -3.876953 21.091218
23.200000 -2.566406 21.091218
23.200000 -1.630859 21.091218
23.200000 -1.570312 21.091218
23.200000 -0.759766 21.091218
23.200000 0.425781 21.091218
27.800000 1.357422 21.091218
28.000000 1.417969 21.091218
28.000000 2.603516 21.091218
28.100000 3.039062 21.091218
28.300000 3.599609 21.091218
28.700000 4.410156 21.091218
29.200000 4.845703 21.091218
29.700000 5.906250 21.091218
30.200000 7.773438 21.091218
30.400000 8.708984 21.091218
30.300000 9.269531 21.091218
30.300000 10.205078 21.091218
30.300000 10.765625 21.091218
30.400000 11.073730 21.091218
23.500000 -9.937500 21.229660
23.300000 -4.062500 21.229660
23.200000 -1.875000 21.229660
23.200000 -3.062500 21.229660
23.200000 -2.375000 21.229660
23.200000 -1.187500 21.229660
27.900000 2.562500 21.229660
27.900000 2.750000 21.229660
28.100000 2.809570 21.229660
28.400000 3.619141 21.229660
28.800000 4.178711 21.229660
29.400000 5.488281 21.229660
29.900000 5.797852 21.229660
30.200000 8.411133 21.229660
30.300000 9.220703 21.229660
30.300000 9.780273 21.229660
30.200000 10.714844 21.229660
30.400000 10.899414 21.229660
30.600000 11.583984 21.229660
30.900000 12.268555 21.229660
23.500000 -8.079590 21.367484
23.500000 -9.264648 21.367484
23.400000 -2.565918 21.367484
23.200000 -3.256836 21.367484
23.200000 -1.197754 21.367484
23.200000 -2.013672 21.367484
23.200000 -1.579590 21.367484
27.800000 1.899902 21.367484
27.900000 3.083984 21.367484
28.000000 3.643066 21.367484
28.300000 4.077148 21.367484
28.800000 4.636230 21.367484
29.300000 5.445312 21.367484
29.800000 5.379395 21.367484
30.300000 7.990723 21.367484
30.400000 8.674805 21.367484
30.300000 9.358887 21.367484
30.300000 10.042969 21.367484
30.400000 11.102051 21.367484
30.600000 11.286133 21.367484
23.500000 -9.502441 21.493592
23.500000 -8.940430 21.493592
23.400000 -3.756348 21.493592
23.200000 -3.194336 21.493592
23.200000 -2.632324 21.493592
23.200000 -0.570312 21.493592
23.200000 -0.383301 21.493592
27.800000 2.613770 21.493592
27.900000 2.425781 21.493592
28.000000 3.237793 21.493592
28.200000 3.674805 21.493592
28.700000 3.986816 21.493592
29.300000 4.673828 21.493592
29.800000 5.360840 21.493592
30.300000 8.229980 21.493592
30.400000 8.913086 21.493592
30.300000 10.096191 21.493592
30.300000 10.529297 21.493592
30.400000 10.587402 21.493592
30.600000 11.270508 21.493592
23.500000 -8.971680 21.632784
23.400000 -3.767090 21.632784
23.300000 -2.702148 21.632784
23.200000 -1.387207 21.632784
23.200000 -0.697266 21.632784
23.200000 -1.757324 21.632784
23.100000 0.557617 21.632784
23.300000 0.497559 21.632784
27.800000 1.177734 21.632784
27.800000 1.360352 21.632784
27.800000 2.167969 21.632784
