29.300000 0.257812 46.759988
29.800000 1.128906 46.759988
30.300000 1.500000 46.759988
30.700000 2.246094 46.759988
30.900000 3.859375 46.759988
30.700000 4.979492 46.759988
30.400000 5.724609 46.759988
30.300000 5.719727 46.759988
30.400000 6.339844 46.759988
30.500000 7.584961 46.759988
30.700000 7.580078 46.759988
31.100000 8.825195 46.759988
24.600000 -7.164062 46.907988
24.600000 -8.416016 46.907988
24.500000 -8.167969 46.907988
28.700000 -1.689453 46.907988
28.600000 -1.316406 46.907988
28.700000 -0.568359 46.907988
28.900000 0.554688 46.907988
29.100000 0.677734 46.907988
29.400000 0.800781 46.907988
29.900000 1.423828 46.907988
30.500000 2.171875 46.907988
30.800000 4.146973 46.907988
30.700000 4.638672 46.907988
30.400000 5.630371 46.907988
30.200000 6.122070 46.907988
30.200000 6.488770 46.907988
30.300000 6.730469 46.907988
30.500000 7.847168 46.907988
24.700000 -10.125977 47.055988
24.600000 -8.879395 47.055988
24.500000 -8.382812 47.055988
24.400000 -8.386230 47.055988
29.300000 -3.666992 47.055988
28.700000 -1.673828 47.055988
28.600000 -1.427246 47.055988
28.600000 -0.930664 47.055988
28.700000 -0.559082 47.055988
28.900000 0.812500 47.055988
29.200000 1.430176 47.055988
29.700000 1.172852 47.055988
30.200000 2.290527 47.055988
30.400000 2.658203 47.055988
30.500000 4.011230 47.055988
30.300000 5.503906 47.055988
30.100000 5.871582 47.055988
30.100000 6.739258 47.055988
30.200000 6.606934 47.055988
30.300000 7.474609 47.055988
30.500000 8.092285 47.055988
31.000000 8.584961 47.055988
24.600000 -8.798828 47.211988
24.600000 -8.679688 47.211988
24.500000 -6.185547 47.211988
28.700000 -1.500000 47.211988
28.600000 -0.884277 47.211988
28.600000 -0.268555 47.211988
28.700000 0.222168 47.211988
28.900000 0.462891 47.211988
29.200000 1.578613 47.211988
29.700000 1.694336 47.211988
30.200000 2.310059 47.211988
30.500000 3.532227 47.211988
30.500000 4.897949 47.211988
30.100000 5.138672 47.211988
30.000000 6.254395 47.211988
30.100000 6.370117 47.211988
30.100000 7.360840 47.211988
30.300000 7.726562 47.211988
24.500000 -7.081055 47.356987
24.400000 -8.210938 47.356987
29.200000 -2.884766 47.356987
28.700000 -1.654297 47.356987
28.500000 -1.664062 47.356987
28.500000 -0.548828 47.356987
28.600000 0.066406 47.356987
28.800000 0.556641 47.356987
29.000000 1.296875 47.356987
29.400000 1.537109 47.356987
29.800000 2.027344 47.356987
30.200000 2.767578 47.356987
30.400000 3.257812 47.356987
30.700000 3.748047 47.356987
30.500000 4.488281 47.356987
30.100000 4.728516 47.356987
30.000000 5.593750 47.356987
30.000000 6.583984 47.356987
30.000000 6.949219 47.356987
30.100000 7.689453 47.356987
30.300000 7.679687 47.356987
24.600000 -8.942383 47.504988
24.500000 -7.946777 47.504988
24.400000 -7.326172 47.504988
28.500000 -1.410156 47.504988
28.500000 -0.543457 47.504988
28.600000 0.073242 47.504988
28.900000 0.564941 47.504988
29.200000 1.431641 47.504988
29.600000 1.548340 47.504988
29.900000 2.165039 47.504988
30.200000 2.656738 47.504988
30.500000 3.148438 47.504988
30.400000 3.890137 47.504988
30.100000 4.381836 47.504988
29.900000 5.373535 47.504988
29.800000 5.865234 47.504988
29.900000 6.106934 47.504988
30.000000 7.348633 47.504988
30.200000 7.715332 47.504988
24.500000 -7.265137 47.653988
24.500000 -6.895508 47.653988
24.400000 -7.525879 47.653988
29.200000 -3.704102 47.653988
28.700000 -1.967773 47.653988
28.400000 -1.974609 47.653988
28.500000 -0.981445 47.653988
28.500000 -0.613281 47.653988
28.600000 0.504883 47.653988
28.800000 0.248047 47.653988
29.100000 1.366211 47.653988
29.500000 1.859375 47.653988
29.800000 2.602539 47.653988
30.200000 3.345703 47.653988
30.400000 3.713867 47.653988
30.200000 3.832031 47.653988
30.000000 4.575195 47.653988
29.900000 5.068359 47.653988
29.800000 6.186523 47.653988
29.800000 6.554688 47.653988
30.000000 6.922852 47.653988
30.200000 7.666016 47.653988
24.600000 -7.312500 47.799988
24.500000 -8.444824 47.799988
24.400000 -7.827148 47.799988
28.400000 -1.290039 47.799988
28.400000 -0.672363 47.799988
28.600000 0.445312 47.799988
28.800000 0.562988 47.799988
29.100000 0.805664 47.799988
29.400000 1.673340 47.799988
29.900000 3.776367 47.799988
30.100000 3.894043 47.799988
29.900000 4.761719 47.799988
29.700000 5.879395 47.799988
29.700000 6.372070 47.799988
29.800000 6.239746 47.799988
30.000000 6.857422 47.799988
30.100000 7.725098 47.799988
30.400000 8.592773 47.799988
30.900000 8.710449 47.799988
24.600000 -8.455078 47.950988
24.500000 -8.210937 47.950988
24.400000 -6.466797 47.950988
28.500000 -2.531250 47.950988
28.300000 -0.912109 47.950988
28.400000 -0.667969 47.950988
28.500000 -0.548828 47.950988
28.700000 0.820313 47.950988
28.900000 1.314453 47.950988
29.200000 1.808594 47.950988
30.100000 3.910156 47.950988
29.900000 4.404297 47.950988
29.800000 5.023438 47.950988
29.700000 5.767578 47.950988
29.700000 6.011719 47.950988
29.800000 6.755859 47.950988
30.000000 7.750000 47.950988
30.200000 8.617188 47.950988
24.600000 -9.423340 48.092988
24.500000 -6.800781 48.092988
24.400000 -6.928223 48.092988
28.400000 -0.832520 48.092988
28.500000 -0.084961 48.092988
28.600000 -0.337402 48.092988
28.800000 0.160156 48.092988
29.100000 1.532715 48.092988
29.300000 1.530273 48.092988
29.500000 2.527832 48.092988
29.900000 2.775391 48.092988
30.100000 3.647949 48.092988
30.100000 4.395508 48.092988
29.900000 5.018066 48.092988
29.700000 5.265625 48.092988
29.700000 6.511230 48.092988
29.800000 6.506836 48.092988
29.900000 7.627441 48.092988
30.100000 7.498047 48.092988
30.300000 8.493652 48.092988
30.800000 8.864258 48.092988
24.500000 -7.266602 48.242988
24.500000 -7.019531 48.242988
24.400000 -7.647461 48.242988
29.600000 -4.045898 48.242988
28.500000 -1.804687 48.242988
28.500000 -1.182617 48.242988
28.500000 -0.310547 48.242988
28.600000 0.186523 48.242988
28.800000 0.808594 48.242988
29.100000 1.680664 48.242988
29.400000 2.177734 48.242988
29.600000 2.299805 48.242988
29.700000 2.921875 48.242988
30.000000 3.166504 48.242988
30.100000 3.911133 48.242988
29.800000 4.780762 48.242988
29.700000 5.150391 48.242988
29.700000 5.895020 48.242988
29.700000 6.639648 48.242988
29.900000 7.384277 48.242988
30.100000 7.753906 48.242988
30.400000 8.873535 48.242988
30.800000 8.743164 48.242988
24.600000 -7.596680 48.389988
24.500000 -8.099121 48.389988
24.400000 -7.726562 48.389988
28.600000 -1.628418 48.389988
28.500000 -0.880859 48.389988
28.500000 -0.258301 48.389988
28.600000 -0.635742 48.389988
28.800000 0.111816 48.389988
29.000000 0.734375 48.389988
29.200000 1.351562 48.389988
29.400000 1.968750 48.389988
29.500000 2.460938 48.389988
29.700000 3.578125 48.389988
30.200000 3.695312 48.389988
30.100000 4.187500 48.389988
29.800000 5.304688 48.389988
29.600000 6.046875 48.389988
29.600000 6.664062 48.389988
29.600000 6.781250 48.389988
29.800000 7.273438 48.389988
30.200000 8.515625 48.389988
24.500000 -9.002930 48.539988
24.500000 -8.633301 48.539988
24.400000 -6.013672 48.539988
28.600000 -0.578125 48.539988
28.700000 -0.710938 48.539988
28.700000 -0.218750 48.539988
28.800000 0.273438 48.539988
29.100000 1.015625 48.539988
29.400000 1.882813 48.539988
29.600000 2.125000 48.539988
30.000000 3.851562 48.539988
30.100000 5.218750 48.539988
29.600000 5.335938 48.539988
29.500000 6.578125 48.539988
29.600000 6.945312 48.539988
29.800000 7.062500 48.539988
30.000000 7.804688 48.539988
30.400000 8.421875 48.539988
30.700000 8.664062 48.539988
24.700000 -9.673828 48.692988
24.600000 -7.680176 48.692988
24.500000 -8.811523 48.692988
24.400000 -8.442871 48.692988
29.300000 -3.125000 48.692988
28.800000 -2.384766 48.692988
28.600000 -1.764648 48.692988
28.600000 -0.644531 48.692988
28.600000 0.100586 48.692988
28.800000 -0.029297 48.692988
29.000000 0.965820 48.692988
29.300000 0.960938 48.692988
29.500000 1.831055 48.692988
29.600000 2.326172 48.692988
29.800000 4.686523 48.692988
29.800000 5.056641 48.692988
29.500000 6.176758 48.692988
29.300000 6.296875 48.692988
29.400000 6.791992 48.692988
29.800000 7.162109 48.692988
30.200000 7.657227 48.692988
30.500000 8.277344 48.692988
30.900000 8.897461 48.692988
24.600000 -8.078125 48.838987
24.500000 -8.582031 48.838987
24.500000 -6.335937 48.838987
29.400000 -3.254883 48.838987
28.800000 -1.768555 48.838987
28.700000 -1.650391 48.838987
28.700000 -0.532227 48.838987
28.700000 -0.164062 48.838987
28.900000 0.079102 48.838987
29.100000 1.072266 48.838987
29.300000 1.565430 48.838987
29.500000 1.808594 48.838987
29.600000 2.426758 48.838987
29.700000 4.156250 48.838987
29.800000 5.024414 48.838987
29.300000 5.642578 48.838987
29.100000 6.260742 48.838987
29.400000 7.128906 48.838987
29.700000 7.247070 48.838987
30.300000 7.865234 48.838987
30.600000 9.108398 48.838987
31.000000 9.101562 48.838987
24.600000 -8.223145 48.988988
24.500000 -8.853516 48.988988
24.500000 -6.108887 48.988988
28.800000 -1.550781 48.988988
28.800000 -0.932129 48.988988
28.900000 -0.563477 48.988988
29.000000 -0.444824 48.988988
29.000000 0.798828 48.988988
29.200000 0.917480 48.988988
29.400000 1.286133 48.988988
29.600000 1.904785 48.988988
29.800000 4.504395 48.988988
29.700000 4.998047 48.988988
24.500000 -9.258789 49.134987
24.400000 -7.887207 49.134987
29.600000 -3.203125 49.134987
29.200000 -2.718750 49.134987
28.800000 -1.851563 49.134987
28.800000 -0.984375 49.134987
28.900000 0.007813 49.134987
28.900000 0.000000 49.134987
29.100000 1.117188 49.134987
29.300000 1.609375 49.134987
29.500000 2.226562 49.134987
29.700000 2.843750 49.134987
29.800000 5.187500 49.134987
29.500000 5.554688 49.134987
24.700000 -10.403320 49.283988
24.600000 -9.656250 49.283988
24.500000 -7.039062 49.283988
24.400000 -7.921875 49.283988
29.600000 -3.242187 49.283988
29.100000 -1.640625 49.283988
28.900000 -0.648438 49.283988
29.000000 -0.781250 49.283988
29.100000 -0.039062 49.283988
29.200000 1.078125 49.283988
29.300000 1.945312 49.283988
29.500000 2.187500 49.283988
29.700000 2.429688 49.283988
29.500000 5.765625 49.283988
24.500000 -9.179688 49.428987
24.500000 -8.810547 49.428987
24.400000 -7.816406 49.428987
29.000000 -2.255859 49.428987
28.900000 -1.136719 49.428987
28.900000 -1.017578 49.428987
29.100000 -0.023438 49.428987
29.200000 0.845703 49.428987
29.300000 0.964844 49.428987
29.600000 2.208984 49.428987
29.800000 2.078125 49.428987
30.000000 4.554687 49.428987
29.700000 5.673828 49.428987
29.700000 7.656250 49.428987
24.600000 -8.339844 49.576988
24.500000 -8.968750 49.576988
24.500000 -8.472656 49.576988
29.600000 -3.757812 49.576988
29.100000 -1.269531 49.576988
29.000000 -0.773438 49.576988
29.000000 0.097656 49.576988
29.100000 0.593750 49.576988
29.300000 1.089844 49.576988
29.500000 1.085938 49.576988
29.700000 2.332031 49.576988
29.800000 3.203125 49.576988
30.100000 4.316406 49.576988
30.100000 5.687500 49.576988
29.400000 5.557129 49.576988
24.600000 -9.412109 49.725988
24.500000 -8.289062 49.725988
24.600000 -7.166016 49.725988
29.600000 -3.808594 49.725988
29.100000 -1.314453 49.725988
29.000000 -1.191406 49.725988
29.100000 -0.068359 49.725988
29.200000 0.679688 49.725988
29.300000 1.052734 49.725988
29.500000 2.050781 49.725988
29.700000 2.173828 49.725988
29.800000 3.296875 49.725988
30.000000 4.157227 49.725988
30.100000 5.027344 49.725988
30.300000 8.252930 49.725988
24.600000 -7.410645 49.871987
24.500000 -7.789063 49.871987
24.500000 -7.417480 49.871987
29.700000 -3.573242 49.871987
29.100000 -1.330078 49.871987
29.000000 -1.708496 49.871987
29.000000 -0.836914 49.871987
29.100000 -0.340332 49.871987
29.300000 0.281250 49.871987
29.400000 1.275879 49.871987
29.600000 1.895508 49.871987
29.900000 2.140137 49.871987
29.900000 2.759766 49.871987
30.000000 4.868652 49.871987
30.000000 4.988281 49.871987
29.600000 5.732910 49.871987
29.500000 6.602539 49.871987
31.100000 8.706055 49.871987
24.600000 -7.702637 50.026988
24.500000 -7.705078 50.026988
24.400000 -7.207520 50.026988
29.100000 -1.859375 50.026988
29.000000 -1.114746 50.026988
29.000000 -0.620117 50.026988
29.100000 -0.250488 50.026988
29.300000 0.369141 50.026988
29.600000 1.113770 50.026988
29.700000 1.358398 50.026988
29.900000 2.353027 50.026988
30.000000 3.347656 50.026988
30.300000 3.342285 50.026988
30.600000 3.961914 50.026988
30.300000 5.081543 50.026988
29.900000 5.701172 50.026988
29.700000 6.320801 50.026988
29.800000 6.565430 50.026988
30.000000 7.060059 50.026988
30.300000 7.804688 50.026988
30.800000 8.049316 50.026988
31.300000 8.543945 50.026988
24.500000 -7.243652 50.173988
24.400000 -6.496094 50.173988
29.800000 -3.898926 50.173988
29.500000 -3.157227 50.173988
29.100000 -1.548828 50.173988
29.100000 -1.307129 50.173988
29.100000 -0.190430 50.173988
29.200000 -0.198730 50.173988
29.400000 0.292969 50.173988
29.600000 1.159668 50.173988
29.900000 1.651367 50.173988
30.000000 2.143066 50.173988
30.200000 3.993164 50.173988
30.200000 4.859863 50.173988
30.000000 5.726562 50.173988
29.900000 6.093262 50.173988
30.000000 7.084961 50.173988
30.300000 7.076660 50.173988
30.600000 7.693359 50.173988
24.600000 -9.382812 50.323988
24.500000 -8.761719 50.323988
24.500000 -7.765625 50.323988
29.800000 -3.200195 50.323988
29.200000 -1.351562 50.323988
29.000000 -0.735352 50.323988
29.100000 -0.369141 50.323988
29.300000 0.122070 50.323988
29.500000 0.488281 50.323988
29.800000 1.479492 50.323988
29.900000 2.220703 50.323988
30.100000 2.336914 50.323988
30.300000 3.453125 50.323988
30.500000 4.069336 50.323988
30.500000 4.685547 50.323988
30.200000 4.926758 50.323988
30.100000 6.042969 50.323988
30.100000 6.159180 50.323988
30.100000 6.775391 50.323988
30.400000 7.516602 50.323988
30.800000 8.132812 50.323988
31.100000 8.499023 50.323988
24.700000 -10.322266 50.467988
24.600000 -9.702637 50.467988
24.500000 -8.708008 50.467988
24.400000 -7.463379 50.467988
29.900000 -4.027344 50.467988
29.500000 -3.159668 50.467988
29.100000 -2.049316 50.467988
29.000000 -0.556641 50.467988
29.100000 -0.063965 50.467988
29.200000 -0.196289 50.467988
29.400000 0.421387 50.467988
29.700000 1.414062 50.467988
29.900000 1.406738 50.467988
30.200000 2.024414 50.467988
30.400000 3.017090 50.467988
30.600000 3.759766 50.467988
30.500000 4.377441 50.467988
30.300000 5.370117 50.467988
30.100000 5.237793 50.467988
30.200000 6.355469 50.467988
30.300000 6.473145 50.467988
30.400000 7.090820 50.467988
30.700000 7.458496 50.467988
24.500000 -7.915527 50.615988
24.400000 -7.299805 50.615988
24.300000 -5.934082 50.615988
29.100000 -2.161133 50.615988
29.100000 -1.295410 50.615988
29.100000 -0.179688 50.615988
29.200000 -0.313965 50.615988
29.400000 0.301758 50.615988
29.700000 1.167480 50.615988
30.000000 2.158203 50.615988
30.200000 2.023926 50.615988
30.500000 2.514648 50.615988
30.700000 3.130371 50.615988
30.600000 4.371094 50.615988
30.300000 4.611816 50.615988
30.300000 5.227539 50.615988
30.300000 6.093262 50.615988
30.400000 6.583984 50.615988
30.500000 6.949707 50.615988
30.700000 7.690430 50.615988
24.500000 -8.939453 50.763988
24.400000 -8.318848 50.763988
24.300000 -6.823242 50.763988
29.100000 -1.746582 50.763988
29.100000 -1.375977 50.763988
29.100000 -0.755371 50.763988
29.200000 0.365234 50.763988
29.500000 0.485840 50.763988
29.700000 1.606445 50.763988
30.000000 1.602051 50.763988
30.200000 2.597656 50.763988
30.600000 3.218262 50.763988
30.800000 3.338867 50.763988
30.600000 4.084473 50.763988
30.400000 4.705078 50.763988
30.300000 5.200684 50.763988
30.300000 5.946289 50.763988
30.400000 6.941895 50.763988
30.600000 7.437500 50.763988
30.800000 7.929687 50.763988
31.100000 8.046875 50.763988
24.600000 -9.414551 50.914988
24.500000 -7.667969 50.914988
24.400000 -7.546387 50.914988
29.200000 -2.333984 50.914988
29.000000 -1.337402 50.914988
29.100000 -0.590820 50.914988
29.300000 -0.094238 50.914988
29.500000 0.027344 50.914988
29.700000 0.648926 50.914988
30.000000 1.520508 50.914988
30.500000 3.260254 50.914988
30.800000 3.756836 50.914988
30.500000 4.753418 50.914988
30.400000 5.500000 50.914988
30.300000 5.994141 50.914988
30.500000 6.863281 50.914988
30.600000 6.732422 50.914988
30.800000 7.601562 50.914988
24.600000 -8.362305 51.060988
24.500000 -6.990723 51.060988
24.500000 -7.494141 51.060988
30.000000 -3.899902 51.060988
29.400000 -2.531738 51.060988
29.100000 -1.160156 51.060988
29.100000 -1.288574 51.060988
29.200000 -0.166992 51.060988
29.400000 0.704590 51.060988
29.600000 0.701172 51.060988
30.000000 1.072754 51.060988
30.300000 2.069336 51.060988
30.600000 2.940918 51.060988
31.000000 3.437500 51.060988
30.900000 3.432617 51.060988
30.700000 4.677734 51.060988
30.500000 5.297852 51.060988
30.400000 5.417969 51.060988
30.500000 6.663086 51.060988
30.600000 7.283203 51.060988
30.800000 7.778320 51.060988
31.100000 7.773438 51.060988
31.600000 8.268555 51.060988
24.500000 -7.294922 51.206988
24.500000 -7.545898 51.206988
24.400000 -7.546875 51.206988
29.300000 -1.682617 51.206988
29.200000 -1.183594 51.206988
29.300000 -0.309570 51.206988
29.500000 -0.185547 51.206988
29.700000 0.313477 51.206988
30.000000 1.187500 51.206988
30.300000 1.681641 51.206988
30.600000 2.675781 51.206988
31.000000 3.169922 51.206988
31.100000 3.539063 51.206988
30.900000 3.783203 51.206988
30.700000 5.277344 51.206988
30.500000 6.021484 51.206988
30.500000 6.015625 51.206988
30.700000 6.509766 51.206988
30.800000 7.253906 51.206988
31.000000 7.623047 51.206988
31.400000 8.242188 51.206988
24.600000 -9.525879 51.352988
24.500000 -6.903320 51.352988
24.500000 -8.280762 51.352988
30.000000 -2.927734 51.352988
29.400000 -2.432617 51.352988
29.300000 -1.310059 51.352988
29.400000 -1.062500 51.352988
29.400000 -0.192383 51.352988
29.600000 0.552734 51.352988
29.900000 0.547852 51.352988
30.200000 1.042969 51.352988
30.600000 2.163086 51.352988
30.900000 2.783203 51.352988
31.300000 3.028320 51.352988
31.300000 4.023438 51.352988
30.900000 4.643555 51.352988
30.700000 4.888672 51.352988
30.600000 5.758789 51.352988
30.700000 6.003906 51.352988
30.800000 7.249023 51.352988
30.900000 7.619141 51.352988
24.500000 -9.044922 51.508987
24.400000 -8.675781 51.508987
29.500000 -1.994141 51.508987
29.400000 -1.124023 51.508987
29.400000 -0.128906 51.508987
29.600000 -0.008789 51.508987
29.800000 0.861328 51.508987
30.100000 0.856445 51.508987
30.600000 2.101562 51.508987
30.900000 2.096680 51.508987
31.100000 3.091797 51.508987
31.300000 3.211914 51.508987
31.200000 3.832031 51.508987
30.900000 5.202148 51.508987
30.700000 5.322266 51.508987
30.700000 6.317383 51.508987
30.800000 6.312500 51.508987
30.900000 7.682617 51.508987
31.100000 8.052734 51.508987
31.500000 8.547852 51.508987
24.700000 -9.400391 51.655988
24.600000 -9.656250 51.655988
24.500000 -9.037109 51.655988
24.400000 -6.417969 51.655988
29.500000 -1.880859 51.655988
29.400000 -1.139648 51.655988
29.500000 -0.398438 51.655988
29.600000 0.092773 51.655988
29.800000 0.708984 51.655988
30.200000 1.075195 51.655988
30.600000 2.066406 51.655988
30.900000 2.307617 51.655988
31.200000 2.548828 51.655988
31.600000 3.165039 51.655988
31.400000 3.906250 51.655988
30.900000 4.897461 51.655988
30.800000 5.263672 51.655988
30.700000 5.879883 51.655988
30.800000 6.371094 51.655988
30.900000 7.612305 51.655988
31.200000 8.103516 51.655988
31.600000 8.594727 51.655988
24.600000 -7.757813 51.803988
24.500000 -8.888672 51.803988
24.400000 -7.769531 51.803988
30.200000 -3.457520 51.803988
29.700000 -2.714844 51.803988
29.500000 -1.972168 51.803988
29.500000 -1.729492 51.803988
29.500000 -1.111816 51.803988
29.700000 -0.119141 51.803988
29.800000 0.248535 51.803988
30.100000 0.741211 51.803988
30.500000 1.483887 51.803988
30.900000 1.976562 51.803988
31.300000 3.454590 51.803988
31.300000 4.322266 51.803988
31.000000 5.564941 51.803988
30.800000 5.432617 51.803988
30.900000 6.175293 51.803988
31.000000 6.667969 51.803988
31.200000 7.160645 51.803988
24.500000 -8.968750 51.950988
24.500000 -7.851074 51.950988
29.600000 -1.563965 51.950988
29.500000 -0.946289 51.950988
29.600000 -0.953613 51.950988
29.800000 0.164062 51.950988
30.000000 0.656738 51.950988
30.400000 0.774414 51.950988
30.800000 1.892090 51.950988
31.100000 2.009766 51.950988
31.200000 4.237793 51.950988
31.200000 4.480469 51.950988
31.000000 5.348145 51.950988
31.000000 5.840820 51.950988
31.000000 6.583496 51.950988
31.100000 6.951172 51.950988
31.400000 7.568848 51.950988
31.800000 8.186523 51.950988
24.500000 -6.912598 52.098988
24.400000 -6.669922 52.098988
24.300000 -5.927246 52.098988
29.600000 -1.882813 52.098988
29.500000 -1.265137 52.098988
29.600000 -0.647461 52.098988
29.800000 0.095215 52.098988
30.000000 0.087891 52.098988
30.300000 0.955566 52.098988
30.800000 1.323242 52.098988
31.200000 2.190918 52.098988
31.400000 4.293945 52.098988
31.300000 4.411621 52.098988
31.100000 5.029297 52.098988
31.000000 6.146973 52.098988
31.100000 6.889648 52.098988
31.200000 7.132324 52.098988
31.400000 8.000000 52.098988
31.800000 8.241211 52.098988
24.600000 -7.357422 52.247988
24.500000 -7.487305 52.247988
24.400000 -8.242188 52.247988
29.700000 -2.045898 52.247988
29.600000 -1.050781 52.247988
29.600000 -0.680664 52.247988
29.800000 -0.435547 52.247988
30.000000 -0.065430 52.247988
30.300000 0.554688 52.247988
30.800000 1.424805 52.247988
31.200000 1.919922 52.247988
31.600000 3.530273 52.247988
31.500000 4.900391 52.247988
31.200000 5.270508 52.247988
31.100000 5.765625 52.247988
31.100000 6.634766 52.247988
31.200000 7.003906 52.247988
31.400000 7.498047 52.247988
24.500000 -7.762695 52.394988
24.400000 -7.767090 52.394988
24.300000 -7.896484 52.394988
29.600000 -1.819824 52.394988
29.600000 -1.324219 52.394988
29.600000 -0.578613 52.394988
29.800000 0.541992 52.394988
30.100000 0.662598 52.394988
30.600000 0.908203 52.394988
31.000000 1.528809 52.394988
31.200000 2.399414 52.394988
31.300000 3.884766 52.394988
31.400000 4.503906 52.394988
31.200000 5.123047 52.394988
31.100000 6.492188 52.394988
31.200000 6.861328 52.394988
31.300000 6.980469 52.394988
31.500000 8.099609 52.394988
31.800000 8.218750 52.394988
24.500000 -8.917969 52.540987
24.400000 -8.419922 52.540987
24.300000 -6.671875 52.540987
29.700000 -2.066406 52.540987
29.600000 -1.568359 52.540987
29.600000 -0.820313 52.540987
29.800000 -0.822266 52.540987
30.000000 0.300781 52.540987
30.200000 0.548828 52.540987
30.700000 1.296875 52.540987
31.100000 1.790039 52.540987
31.200000 2.658203 52.540987
31.300000 4.012695 52.540987
31.400000 5.130859 52.540987
31.200000 5.499023 52.540987
31.200000 5.867188 52.540987
31.300000 6.985352 52.540987
31.400000 7.353516 52.540987
31.600000 8.096680 52.540987
32.000000 8.589844 52.540987
24.600000 -9.048828 52.688988
24.500000 -8.050781 52.688988
24.400000 -6.552734 52.688988
29.700000 -2.322266 52.688988
29.600000 -1.824219 52.688988
29.600000 -1.451172 52.688988
29.700000 -0.703125 52.688988
29.800000 0.290039 52.688988
30.100000 0.283203 52.688988
30.600000 0.651367 52.688988
31.000000 1.269531 52.688988
31.300000 2.262695 52.688988
31.700000 3.742188 52.688988
31.800000 4.360352 52.688988
31.400000 5.478516 52.688988
31.200000 5.971680 52.688988
31.200000 6.714844 52.688988
31.400000 7.333008 52.688988
31.600000 7.951172 52.688988
24.700000 -8.883789 52.844988
24.600000 -8.261719 52.844988
24.500000 -6.764648 52.844988
24.400000 -8.517578 52.844988
24.400000 -7.145508 52.844988
29.700000 -2.554199 52.844988
29.600000 -1.686523 52.844988
29.600000 -1.068848 52.844988
29.800000 -0.201172 52.844988
30.000000 0.041504 52.844988
30.300000 0.659180 52.844988
30.800000 0.901855 52.844988
31.100000 1.769531 52.844988
31.500000 4.240234 52.844988
31.600000 5.232910 52.844988
31.300000 5.475586 52.844988
31.300000 5.968262 52.844988
31.300000 6.835937 52.844988
31.500000 7.078613 52.844988
31.700000 7.696289 52.844988
32.100000 8.313965 52.844988
24.500000 -8.621094 52.991988
24.500000 -7.000488 52.991988
24.400000 -5.754883 52.991988
29.700000 -2.421875 52.991988
29.500000 -1.550781 52.991988
29.600000 -0.804688 52.991988
29.700000 -0.808594 52.991988
29.900000 -0.312500 52.991988
30.200000 0.933594 52.991988
30.600000 0.679688 52.991988
31.100000 1.550781 52.991988
31.300000 1.796875 52.991988
31.000000 3.292969 52.991988
31.800000 4.781250 52.991988
31.400000 5.027344 52.991988
31.300000 5.898438 52.991988
31.300000 6.394531 52.991988
31.400000 7.265625 52.991988
31.600000 7.761719 52.991988
24.600000 -8.298828 53.138988
24.500000 -8.804688 53.138988
24.500000 -8.185547 53.138988
30.300000 -3.851562 53.138988
29.800000 -2.605469 53.138988
29.500000 -1.609375 53.138988
29.500000 -1.363281 53.138988
29.700000 -1.242188 53.138988
29.800000 -0.496094 53.138988
30.100000 -0.125000 53.138988
30.500000 0.746094 53.138988
31.000000 0.867187 53.138988
31.300000 1.613281 53.138988
31.600000 3.972656 53.138988
31.600000 4.718750 53.138988
31.400000 5.464844 53.138988
31.400000 6.460938 53.138988
31.400000 6.832031 53.138988
31.600000 7.453125 53.138988
31.900000 7.574219 53.138988
32.400000 8.195312 53.138988
24.500000 -9.166992 53.284987
24.500000 -8.046875 53.284987
24.400000 -7.178711 53.284987
29.600000 -2.997070 53.284987
29.500000 -1.753906 53.284987
29.500000 -1.760742 53.284987
29.700000 -0.642578 53.284987
29.900000 0.225586 53.284987
30.200000 0.718750 53.284987
30.600000 0.586914 53.284987
31.100000 1.205078 53.284987
31.200000 2.323242 53.284987
32.100000 4.795898 53.284987
31.500000 5.289063 53.284987
31.400000 5.657227 53.284987
31.400000 6.400391 53.284987
31.400000 7.143555 53.284987
31.600000 7.761719 53.284987
24.600000 -9.170898 53.432988
24.500000 -7.428223 53.432988
24.500000 -6.810547 53.432988
29.600000 -2.133789 53.432988
29.500000 -1.641113 53.432988
29.500000 -1.023438 53.432988
29.500000 -1.280762 53.432988
29.800000 -0.663086 53.432988
30.100000 -0.170410 53.432988
30.500000 0.947266 53.432988
31.000000 1.439941 53.432988
31.300000 1.932617 53.432988
31.600000 4.403320 53.432988
31.600000 4.895996 53.432988
31.400000 5.263672 53.432988
31.400000 6.506348 53.432988
31.400000 6.499023 53.432988
31.600000 7.491699 53.432988
31.900000 8.234375 53.432988
32.400000 8.851074 53.432988
24.600000 -8.482422 53.581988
24.500000 -6.988281 53.581988
24.400000 -7.869141 53.581988
30.600000 -4.046875 53.581988
29.400000 -2.433594 53.581988
29.400000 -1.439453 53.581988
29.500000 -0.570313 53.581988
29.600000 -0.826172 53.581988
29.900000 0.167969 53.581988
30.400000 0.412109 53.581988
30.800000 1.031250 53.581988
31.200000 2.025391 53.581988
31.500000 5.740234 53.581988
31.400000 5.734375 53.581988
31.500000 6.727051 53.581988
31.600000 7.469727 53.581988
31.800000 7.837402 53.581988
24.500000 -8.854004 53.727987
24.400000 -8.610352 53.727987
29.400000 -2.680176 53.727987
29.300000 -1.811523 53.727987
29.400000 -0.817871 53.727987
29.500000 -0.574219 53.727987
29.800000 -0.080566 53.727987
30.200000 0.788086 53.727987
30.600000 1.156738 53.727987
31.100000 1.275391 53.727987
31.900000 4.368164 53.727987
31.600000 5.111328 53.727987
31.400000 5.604492 53.727987
31.500000 6.472656 53.727987
31.600000 7.090820 53.727987
31.800000 7.583984 53.727987
24.600000 -9.070313 53.875988
24.500000 -7.947266 53.875988
24.500000 -5.824219 53.875988
29.400000 -2.095703 53.875988
29.300000 -1.597656 53.875988
29.400000 -0.599609 53.875988
29.600000 -0.351563 53.875988
29.900000 0.396484 53.875988
30.300000 0.894531 53.875988
30.800000 1.767578 53.875988
31.200000 2.140625 53.875988
31.700000 5.086914 53.875988
31.500000 5.701172 53.875988
31.500000 6.315430 53.875988
31.600000 7.054687 53.875988
31.700000 7.418945 53.875988
24.700000 -8.862305 54.021988
24.600000 -9.864746 54.021988
24.500000 -7.992188 54.021988
24.400000 -6.994629 54.021988
30.100000 -3.266602 54.021988
29.600000 -2.769043 54.021988
29.300000 -2.521484 54.021988
29.200000 -1.523926 54.021988
29.300000 -0.901367 54.021988
29.500000 -0.028809 54.021988
29.600000 0.468750 54.021988
30.000000 0.337891 54.021988
30.500000 1.207031 54.021988
31.100000 1.826172 54.021988
31.600000 4.552734 54.021988
31.800000 4.671875 54.021988
31.500000 5.666016 54.021988
31.400000 6.035156 54.021988
31.500000 6.279297 54.021988
31.600000 7.023438 54.021988
31.800000 7.642578 54.021988
24.500000 -7.264648 54.179988
24.500000 -6.644531 54.179988
24.400000 -8.024414 54.179988
29.200000 -1.828125 54.179988
29.100000 -1.207520 54.179988
29.200000 -0.211914 54.179988
29.300000 -0.341309 54.179988
29.600000 0.154297 54.179988
32.100000 4.123535 54.179988
31.700000 5.119141 54.179988
31.500000 5.989746 54.179988
31.500000 6.110352 54.179988
31.600000 6.730957 54.179988
31.800000 7.476563 54.179988
24.500000 -7.129883 54.325988
24.500000 -8.132812 54.325988
29.200000 -2.303223 54.325988
29.100000 -1.560547 54.325988
29.000000 -1.067871 54.325988
29.000000 -0.075195 54.325988
29.200000 -0.207520 54.325988
29.400000 0.910156 54.325988
31.700000 5.226562 54.325988
31.500000 5.719238 54.325988
31.500000 6.961914 54.325988
31.600000 7.204590 54.325988
31.800000 7.697266 54.325988
24.500000 -8.255859 54.473988
24.500000 -8.382812 54.473988
24.400000 -7.634766 54.473988
29.100000 -2.435059 54.473988
29.000000 -2.066406 54.473988
28.900000 -0.572754 54.473988
28.900000 -0.329102 54.473988
28.900000 -0.210449 54.473988
29.100000 0.908203 54.473988
32.000000 4.363770 54.473988
31.600000 5.482422 54.473988
31.500000 6.101074 54.473988
31.500000 6.344727 54.473988
31.600000 6.963379 54.473988
31.800000 7.457031 54.473988
24.500000 -9.151855 54.619987
24.400000 -6.531250 54.619987
29.900000 -3.463379 54.619987
29.500000 -2.351074 54.619987
28.900000 -1.357422 54.619987
28.800000 -1.238770 54.619987
28.800000 -0.745117 54.619987
28.700000 -0.251465 54.619987
28.800000 0.492188 54.619987
29.000000 1.485840 54.619987
31.900000 4.447754 54.619987
31.600000 5.691406 54.619987
31.500000 5.810059 54.619987
31.500000 6.303711 54.619987
31.600000 7.297363 54.619987
31.800000 7.541016 54.619987
32.200000 8.284668 54.619987
24.500000 -9.256348 54.766988
24.400000 -8.013672 54.766988
28.900000 -1.969238 54.766988
28.800000 -1.101562 54.766988
28.800000 -1.483887 54.766988
28.700000 -0.491211 54.766988
28.700000 -0.123535 54.766988
28.700000 0.744141 54.766988
28.700000 1.111816 54.766988
28.800000 1.854492 54.766988
31.800000 4.442871 54.766988
31.600000 4.935547 54.766988
31.500000 5.803223 54.766988
31.500000 6.545898 54.766988
31.600000 7.288574 54.766988
31.700000 7.781250 54.766988
32.100000 8.398438 54.766988
24.500000 -8.988281 54.916988
24.400000 -8.494141 54.916988
28.900000 -2.558594 54.916988
28.700000 -1.939453 54.916988
28.700000 -1.195313 54.916988
28.600000 -0.826172 54.916988
28.600000 0.667969 54.916988
28.500000 0.662109 54.916988
28.500000 1.531250 54.916988
28.600000 1.650391 54.916988
28.600000 2.269531 54.916988
31.600000 5.115234 54.916988
31.500000 5.984375 54.916988
31.500000 6.102051 54.916988
31.600000 6.969727 54.916988
31.700000 7.962402 54.916988
32.000000 7.955078 54.916988
24.700000 -8.291016 55.061988
24.600000 -7.671875 55.061988
24.500000 -9.052734 55.061988
24.400000 -6.683594 55.061988
29.600000 -3.736328 55.061988
29.000000 -1.998047 55.061988
28.700000 -2.003906 55.061988
28.600000 -0.634766 55.061988
28.600000 -0.015625 55.061988
28.500000 0.478516 55.061988
28.500000 0.972656 55.061988
28.500000 1.591797 55.061988
28.500000 1.835938 55.061988
28.600000 2.455078 55.061988
28.700000 3.699219 55.061988
31.500000 5.422852 55.061988
31.500000 5.915527 55.061988
31.500000 6.783203 55.061988
31.600000 6.900879 55.061988
31.800000 8.018555 55.061988
32.200000 8.386230 55.061988
24.700000 -8.559570 55.208988
24.600000 -9.813965 55.208988
24.500000 -7.068359 55.208988
24.400000 -8.072754 55.208988
29.500000 -3.612305 55.208988
29.000000 -2.371094 55.208988
28.700000 -1.625488 55.208988
28.600000 -1.004883 55.208988
28.500000 -0.009277 55.208988
28.500000 0.736328 55.208988
28.500000 0.981934 55.208988
28.400000 1.602539 55.208988
28.500000 2.723145 55.208988
28.500000 3.093750 55.208988
28.600000 3.086914 55.208988
31.500000 5.184570 55.208988
31.400000 6.052734 55.208988
31.400000 6.420898 55.208988
31.500000 7.289062 55.208988
31.700000 7.907227 55.208988
32.200000 8.275391 55.208988
24.500000 -9.051270 55.357987
24.400000 -7.929688 55.357987
29.800000 -3.835449 55.357987
28.700000 -1.970703 55.357987
28.600000 -1.349121 55.357987
28.500000 0.022461 55.357987
28.500000 0.394043 55.357987
28.400000 1.140625 55.357987
28.400000 1.008301 55.357987
28.400000 2.000977 55.357987
28.500000 2.368652 55.357987
28.600000 3.736328 55.357987
31.500000 5.457031 55.357987
31.400000 5.699707 55.357987
31.400000 6.442383 55.357987
31.500000 7.185059 55.357987
31.700000 7.677734 55.357987
32.000000 8.045410 55.357987
24.600000 -9.533203 55.512988
24.500000 -6.659180 55.512988
24.500000 -6.285156 55.512988
28.700000 -1.420898 55.512988
28.500000 -1.546875 55.512988
28.500000 -0.429199 55.512988
28.400000 -0.311523 55.512988
28.400000 1.181152 55.512988
28.400000 1.048828 55.512988
28.500000 1.416504 55.512988
28.600000 2.284180 55.512988
31.500000 4.997559 55.512988
31.400000 5.240234 55.512988
31.400000 5.857910 55.512988
31.400000 6.475586 55.512988
31.500000 7.093262 55.512988
24.500000 -9.194336 55.659987
24.400000 -8.321777 55.659987
29.800000 -3.718750 55.659987
28.600000 -1.606934 55.659987
28.500000 -0.736328 55.659987
28.400000 -0.240723 55.659987
28.400000 0.004883 55.659987
28.500000 0.875488 55.659987
28.500000 1.871094 55.659987
28.700000 2.241699 55.659987
31.700000 4.469727 55.659987
31.400000 5.590332 55.659987
31.400000 5.835938 55.659987
31.400000 6.831543 55.659987
31.400000 7.202148 55.659987
31.600000 7.822754 55.659987
32.000000 8.443359 55.659987
24.500000 -7.651367 55.808988
24.400000 -8.029785 55.808988
29.400000 -3.320312 55.808988
28.800000 -1.957031 55.808988
28.600000 -1.587891 55.808988
28.500000 -0.968750 55.808988
28.500000 0.150391 55.808988
28.500000 0.769531 55.808988
28.700000 0.888672 55.808988
28.800000 1.882813 55.808988
31.600000 4.472656 55.808988
31.400000 5.591797 55.808988
31.300000 5.960938 55.808988
31.300000 6.830078 55.808988
31.400000 7.699219 55.808988
24.600000 -7.408691 55.954987
24.500000 -7.788086 55.954987
24.400000 -6.167480 55.954987
28.700000 -2.110352 55.954987
28.500000 -0.991699 55.954987
28.600000 -0.373047 55.954987
28.600000 0.245605 55.954987
28.700000 0.239258 55.954987
28.900000 1.107910 55.954987
31.800000 4.194824 55.954987
31.500000 5.063477 55.954987
31.300000 5.432129 55.954987
31.200000 6.675781 55.954987
31.300000 6.669434 55.954987
31.400000 7.663086 55.954987
31.700000 8.406738 55.954987
24.600000 -9.055176 56.104988
24.500000 -8.063477 56.104988
24.400000 -7.446777 56.104988
28.600000 -1.546387 56.104988
28.600000 -0.679688 56.104988
28.700000 -0.437988 56.104988
28.900000 0.178711 56.104988
29.200000 0.920410 56.104988
31.700000 4.370605 56.104988
31.400000 4.737305 56.104988
31.200000 5.729004 56.104988
31.200000 6.720703 56.104988
31.200000 6.712402 56.104988
31.400000 7.454102 56.104988
31.700000 8.320801 56.104988
24.600000 -8.740723 56.249988
24.500000 -7.745117 56.249988
24.400000 -7.874512 56.249988
28.600000 -1.177246 56.249988
28.700000 -0.556641 56.249988
28.800000 -0.436035 56.249988
29.000000 0.184570 56.249988
32.000000 4.033203 56.249988
31.600000 4.528809 56.249988
31.300000 4.899414 56.249988
31.200000 5.895020 56.249988
31.200000 6.515625 56.249988
31.200000 6.883301 56.249988
31.300000 7.375977 56.249988
31.700000 7.868652 56.249988
24.500000 -7.267090 56.397987
24.400000 -7.647461 56.397987
29.400000 -3.695801 56.397987
28.900000 -2.206543 56.397987
28.600000 -1.461914 56.397987
28.600000 -1.092285 56.397987
28.800000 -0.222656 56.397987
29.000000 0.021973 56.397987
29.300000 0.891602 56.397987
31.900000 4.359375 56.397987
31.400000 4.352051 56.397987
31.200000 5.094727 56.397987
31.100000 6.337402 56.397987
31.000000 6.580078 56.397987
31.100000 7.447754 56.397987
31.300000 7.815430 56.397987
31.800000 7.933105 56.397987
24.600000 -8.162109 56.543987
24.500000 -8.791504 56.543987
24.500000 -7.420898 56.543987
28.600000 -1.719238 56.543987
28.500000 -0.848633 56.543987
28.600000 -0.228027 56.543987
28.900000 -0.232422 56.543987
29.200000 -0.111816 56.543987
29.500000 1.008789 56.543987
31.900000 2.606445 56.543987
32.100000 3.347168 56.543987
31.700000 4.212891 56.543987
31.300000 4.953613 56.543987
31.100000 5.944336 56.543987
31.000000 6.310059 56.543987
31.000000 7.175781 56.543987
31.100000 7.416504 56.543987
24.500000 -8.656250 56.690988
24.500000 -8.034180 56.690988
24.400000 -6.787109 56.690988
28.600000 -1.572266 56.690988
28.800000 -0.325195 56.690988
29.000000 0.171875 56.690988
29.400000 0.286133 56.690988
29.800000 0.900391 56.690988
30.200000 1.639648 56.690988
31.700000 3.971680 56.690988
31.400000 4.460938 56.690988
31.100000 5.450195 56.690988
30.900000 6.064453 56.690988
30.900000 6.303711 56.690988
31.000000 7.417969 56.690988
31.100000 7.657227 56.690988
31.400000 8.271484 56.690988
24.600000 -9.795898 56.846988
24.500000 -8.550781 56.846988
24.500000 -8.305664 56.846988
28.700000 -0.992188 56.846988
28.700000 -0.375000 56.846988
28.900000 -0.007813 56.846988
29.200000 0.109375 56.846988
29.600000 0.601562 56.846988
30.100000 1.718750 56.846988
30.600000 2.335938 56.846988
31.600000 4.429688 56.846988
31.100000 5.171875 56.846988
30.900000 5.914062 56.846988
30.800000 6.281250 56.846988
30.900000 6.523438 56.846988
31.000000 7.390625 56.846988
24.600000 -8.364258 56.994988
24.500000 -7.617187 56.994988
24.400000 -7.745117 56.994988
28.600000 -1.429688 56.994988
28.700000 -0.312500 56.994988
29.000000 -0.195312 56.994988
29.500000 0.921875 56.994988
29.800000 1.289062 56.994988
30.200000 1.406250 56.994988
30.800000 2.398438 56.994988
31.300000 3.875000 56.994988
31.300000 4.242188 56.994988
30.900000 5.484375 56.994988
30.800000 5.476562 56.994988
30.700000 6.343750 56.994988
30.800000 7.335938 56.994988
31.000000 7.453125 56.994988
31.300000 8.195312 56.994988
24.500000 -9.010742 57.142987
24.400000 -6.386719 57.142987
29.400000 -3.549805 57.142987
28.800000 -2.438477 57.142987
28.600000 -1.695312 57.142987
28.700000 -0.827148 57.142987
28.900000 -0.708984 57.142987
29.200000 0.159180 57.142987
29.600000 0.777344 57.142987
30.100000 1.270508 57.142987
30.500000 2.263672 57.142987
31.000000 2.381836 57.142987
31.200000 4.736328 57.142987
30.900000 5.104492 57.142987
30.700000 5.847656 57.142987
30.600000 5.965820 57.142987
30.700000 6.583984 57.142987
30.800000 7.202148 57.142987
24.600000 -9.618164 57.288989
24.500000 -7.746582 57.288989
24.400000 -7.750000 57.288989
28.700000 -2.309082 57.288989
28.600000 -1.189453 57.288989
28.700000 -0.569824 57.288989
28.900000 -0.075195 57.288989
29.300000 0.294434 57.288989
29.700000 1.289062 57.288989
30.200000 1.658691 57.288989
30.700000 1.903320 57.288989
31.100000 3.512207 57.288989
31.100000 4.381836 57.288989
30.800000 5.251465 57.288989
30.600000 5.496094 57.288989
30.600000 6.115723 57.288989
30.600000 6.860352 57.288989
30.800000 7.229980 57.288989
24.500000 -9.059570 57.437988
24.500000 -6.565918 57.437988
28.600000 -0.898438 57.437988
28.900000 -0.279785 57.437988
29.100000 -0.161133 57.437988
29.400000 0.582520 57.437988
29.900000 1.451172 57.437988
30.300000 1.569824 57.437988
30.800000 2.188477 57.437988
31.000000 4.544434 57.437988
30.900000 4.663086 57.437988
30.600000 5.656738 57.437988
30.500000 5.775391 57.437988
30.500000 6.894043 57.437988
30.600000 7.137695 57.437988
30.800000 7.631348 57.437988
31.200000 8.250000 57.437988
24.600000 -9.110840 57.585988
24.500000 -6.989258 57.585988
24.500000 -8.367676 57.585988
29.400000 -3.148438 57.585988
28.800000 -1.655273 57.585988
28.700000 -1.908691 57.585988
28.700000 -0.662109 57.585988
28.800000 -0.415527 57.585988
29.100000 0.081055 57.585988
29.500000 0.952637 57.585988
30.000000 1.449219 57.585988
30.500000 2.195801 57.585988
30.600000 2.317383 57.585988
30.900000 3.313965 57.585988
31.400000 3.310547 57.585988
31.200000 4.307129 57.585988
30.600000 4.803711 57.585988
30.300000 5.675293 57.585988
30.300000 6.296875 57.585988
30.400000 7.416016 57.585988
30.500000 7.535156 57.585988
24.600000 -7.572754 57.731989
24.500000 -8.829102 57.731989
24.500000 -7.960449 57.731989
29.300000 -3.017578 57.731989
28.800000 -1.655273 57.731989
28.600000 -1.036621 57.731989
28.700000 -1.292969 57.731989
28.800000 -0.174316 57.731989
29.100000 0.069336 57.731989
29.400000 1.062988 57.731989
29.900000 0.931641 57.731989
30.400000 1.550293 57.731989
30.600000 2.168945 57.731989
30.800000 3.037598 57.731989
31.300000 3.156250 57.731989
30.500000 5.516602 57.731989
30.300000 5.259277 57.731989
30.300000 6.251953 57.731989
30.300000 6.869629 57.731989
30.500000 7.862305 57.731989
30.700000 7.979980 57.731989
31.200000 8.222656 57.731989
24.600000 -8.591309 57.878988
24.500000 -7.344727 57.878988
24.400000 -7.848145 57.878988
28.700000 -1.635742 57.878988
28.600000 -1.639160 57.878988
28.700000 -0.517578 57.878988
28.800000 -0.145996 57.878988
29.000000 0.225586 57.878988
29.400000 1.097168 57.878988
29.900000 1.468750 57.878988
30.400000 2.583008 57.878988
30.700000 3.675781 57.878988
30.600000 4.665039 57.878988
30.300000 5.654297 57.878988
30.200000 5.643555 57.878988
30.100000 7.007813 57.878988
30.200000 6.872070 57.878988
30.400000 7.611328 57.878988
24.500000 -7.027832 58.025988
24.400000 -8.032227 58.025988
29.300000 -3.696777 58.025988
28.800000 -2.580566 58.025988
28.600000 -1.084961 58.025988
28.600000 -1.089355 58.025988
28.700000 0.156250 58.025988
28.800000 0.396973 58.025988
29.100000 1.137695 58.025988
29.600000 1.253418 58.025988
30.000000 2.244141 58.025988
30.400000 2.484863 58.025988
30.600000 2.725586 58.025988
31.000000 3.716309 58.025988
30.800000 4.457031 58.025988
30.200000 5.447754 58.025988
30.100000 5.938477 58.025988
30.000000 5.929199 58.025988
30.100000 6.919922 58.025988
30.200000 7.160645 58.025988
30.400000 7.651367 58.025988
30.800000 8.767090 58.025988
24.500000 -7.943359 58.181988
24.500000 -8.696777 58.181988
24.400000 -7.950195 58.181988
29.600000 -3.852539 58.181988
28.600000 -1.869629 58.181988
28.600000 -0.754883 58.181988
28.600000 0.109863 58.181988
28.800000 -0.150391 58.181988
29.000000 0.339355 58.181988
29.300000 1.704102 58.181988
29.800000 1.818848 58.181988
30.200000 2.433594 58.181988
30.400000 4.152832 58.181988
30.200000 4.517578 58.181988
30.000000 5.507324 58.181988
30.000000 5.872070 58.181988
30.000000 6.611816 58.181988
30.200000 7.101562 58.181988
30.300000 7.716309 58.181988
24.600000 -9.333008 58.329988
24.500000 -8.585938 58.329988
24.500000 -7.838867 58.329988
28.600000 -2.150391 58.329988
28.500000 -0.910645 58.329988
28.500000 -0.920898 58.329988
28.600000 0.443848 58.329988
28.800000 0.183594 58.329988
29.000000 1.423340 58.329988
29.500000 1.163086 58.329988
29.900000 2.277832 58.329988
30.200000 2.392578 58.329988
30.500000 3.507324 58.329988
30.600000 3.747070 58.329988
30.200000 4.611816 58.329988
30.000000 5.476562 58.329988
29.900000 6.091309 58.329988
29.900000 6.206055 58.329988
30.000000 7.320801 58.329988
30.100000 7.435547 58.329988
30.400000 8.675293 58.329988
30.800000 8.290039 58.329988
24.600000 -9.439453 58.475988
24.600000 -8.195312 58.475988
24.500000 -6.701172 58.475988
28.600000 -1.757812 58.475988
28.400000 -1.262695 58.475988
28.500000 -0.642578 58.475988
28.600000 0.102539 58.475988
28.800000 0.222656 58.475988
29.000000 1.592773 58.475988
29.400000 1.587891 58.475988
29.800000 2.708008 58.475988
30.100000 2.328125 58.475988
30.400000 3.073242 58.475988
30.300000 3.818359 58.475988
30.000000 4.813477 58.475988
29.900000 4.933594 58.475988
29.800000 5.553711 58.475988
29.800000 6.423828 58.475988
29.900000 7.293945 58.475988
30.100000 7.539062 58.475988
30.400000 8.534180 58.475988
30.800000 9.154297 58.475988
24.600000 -8.590332 58.623988
24.600000 -8.593750 58.623988
24.500000 -6.725098 58.623988
28.500000 -2.169922 58.623988
28.400000 -0.676270 58.623988
28.500000 -0.932617 58.623988
28.600000 0.186035 58.623988
28.700000 0.179688 58.623988
29.000000 0.673340 58.623988
29.300000 1.666992 58.623988
29.900000 3.022949 58.623988
30.200000 4.141602 58.623988
30.000000 4.885254 58.623988
29.800000 5.628906 58.623988
29.700000 6.122559 58.623988
29.800000 6.991211 58.623988
29.900000 7.234863 58.623988
30.100000 7.978516 58.623988
30.300000 7.972168 58.623988
30.800000 8.465820 58.623988
24.600000 -9.533203 58.771988
24.600000 -8.414062 58.771988
24.500000 -6.294922 58.771988
28.400000 -1.984375 58.771988
28.300000 -1.365234 58.771988
28.400000 -0.746094 58.771988
28.600000 -0.501953 58.771988
28.700000 0.617188 58.771988
29.000000 1.236328 58.771988
29.200000 1.605469 58.771988
30.200000 3.707031 58.771988
29.900000 4.576172 58.771988
29.700000 5.695312 58.771988
29.700000 5.814453 58.771988
29.800000 6.433594 58.771988
29.900000 6.802734 58.771988
30.000000 7.296875 58.771988
30.300000 8.415527 58.771988
30.700000 8.784180 58.771988
24.600000 -8.883301 58.917988
24.500000 -7.261719 58.917988
24.500000 -8.015137 58.917988
28.500000 -1.802734 58.917988
28.400000 -1.681152 58.917988
28.400000 -0.809570 58.917988
28.500000 0.187012 58.917988
28.700000 0.058594 58.917988
29.000000 1.430176 58.917988
29.200000 1.926758 58.917988
29.400000 2.298340 58.917988
29.700000 2.919922 58.917988
30.100000 3.166504 58.917988
30.100000 4.413086 58.917988
29.900000 4.659668 58.917988
29.700000 5.531250 58.917988
29.700000 5.650391 58.917988
29.800000 6.144531 58.917988
29.900000 7.138672 58.917988
30.000000 8.132812 58.917988
30.300000 8.501953 58.917988
30.700000 8.746094 58.917988
24.600000 -9.475098 59.066987
24.500000 -8.478516 59.066987
24.400000 -7.856934 59.066987
28.500000 -1.022949 59.066987
28.500000 -0.651367 59.066987
28.600000 0.095215 59.066987
28.700000 0.841797 59.066987
29.000000 0.963379 59.066987
29.400000 1.709961 59.066987
29.600000 2.331543 59.066987
29.700000 2.703125 59.066987
30.000000 3.821777 59.066987
30.100000 3.940430 59.066987
29.900000 4.434082 59.066987
29.700000 5.177734 59.066987
29.700000 5.671387 59.066987
29.700000 6.415039 59.066987
29.900000 7.158691 59.066987
30.100000 8.152344 59.066987
30.300000 8.145996 59.066987
30.700000 8.889648 59.066987
24.500000 -8.550293 59.213988
24.500000 -8.554687 59.213988
24.400000 -7.059082 59.213988
29.300000 -3.969238 59.213988
28.900000 -2.228027 59.213988
28.600000 -1.107422 59.213988
28.500000 -1.111816 59.213988
28.600000 0.008789 59.213988
28.700000 0.629395 59.213988
28.900000 1.125000 59.213988
29.200000 1.491211 59.213988
29.400000 1.607422 59.213988
29.500000 2.723633 59.213988
29.800000 4.572266 59.213988
29.800000 5.063477 59.213988
29.600000 5.304688 59.213988
29.600000 6.545898 59.213988
29.700000 6.787109 59.213988
29.800000 7.028320 59.213988
30.000000 8.269531 59.213988
30.300000 8.135742 59.213988
30.800000 9.126953 59.213988
24.600000 -9.364258 59.362988
24.500000 -8.495605 59.362988
24.500000 -7.751953 59.362988
29.200000 -3.434082 59.362988
28.700000 -1.946777 59.362988
28.600000 -0.828125 59.362988
28.600000 -0.337402 59.362988
28.700000 -0.346680 59.362988
28.800000 0.519043 59.362988
29.000000 1.509766 59.362988
29.200000 1.625488 59.362988
29.400000 2.241211 59.362988
29.500000 2.356934 59.362988
29.700000 4.579102 59.362988
29.700000 5.194824 59.362988
29.600000 5.935547 59.362988
29.500000 6.301270 59.362988
29.900000 8.023438 59.362988
24.700000 -9.257813 59.515988
24.600000 -8.388672 59.515988
24.500000 -7.644531 59.515988
24.400000 -8.275391 59.515988
29.300000 -3.703125 59.515988
28.800000 -2.092773 59.515988
28.600000 -1.475098 59.515988
28.600000 -0.482422 59.515988
28.700000 -0.114746 59.515988
28.800000 0.252930 59.515988
29.000000 0.870605 59.515988
29.200000 0.988281 59.515988
29.500000 2.480957 59.515988
29.600000 2.348633 59.515988
29.700000 4.701660 59.515988
29.800000 4.694336 59.515988
29.500000 5.812012 59.515988
29.300000 6.179688 59.515988
29.400000 6.797363 59.515988
29.800000 7.415039 59.515988
30.200000 8.407715 59.515988
30.500000 9.025391 59.515988
30.900000 9.268066 59.515988
24.500000 -8.269531 59.663988
24.500000 -8.523438 59.663988
24.400000 -7.527344 59.663988
