34.750000 -20.562500 1.165078
34.475000 -19.234375 1.165078
34.225000 -17.875000 1.165078
33.950000 -16.484375 1.165078
33.700000 -15.484375 1.165078
35.225000 -22.500000 1.307815
34.950000 -21.578125 1.307815
34.650000 -20.296875 1.307815
34.375000 -19.000000 1.307815
34.125000 -17.328125 1.307815
33.825000 -16.343750 1.307815
33.600000 -15.093750 1.307815
35.475000 -24.875000 1.448543
35.375000 -23.859375 1.448543
35.000000 -22.125000 1.448543
34.725000 -20.984375 1.448543
34.500000 -19.375000 1.448543
34.225000 -18.062500 1.448543
33.925000 -16.671875 1.448543
33.675000 -15.531250 1.448543
35.325000 -25.109375 1.589675
35.300000 -23.703125 1.589675
34.950000 -22.203125 1.589675
34.700000 -20.953125 1.589675
34.400000 -19.859375 1.589675
34.125000 -18.687500 1.589675
33.950000 -17.062500 1.589675
33.700000 -16.093750 1.589675
35.200000 -24.046875 1.729733
34.850000 -22.703125 1.729733
34.575000 -21.359375 1.729733
34.300000 -20.156250 1.729733
34.025000 -18.718750 1.729733
33.775000 -17.296875 1.729733
33.525000 -16.265625 1.729733
33.275000 -14.625000 1.729733
34.975000 -24.218750 1.874047
34.675000 -22.921875 1.874047
34.350000 -21.609375 1.874047
34.025000 -19.765625 1.874047
33.775000 -18.656250 1.874047
33.550000 -17.015625 1.874047
33.300000 -15.937500 1.874047
34.725000 -24.109375 2.006472
34.400000 -22.484375 2.006472
34.050000 -21.031250 2.006472
33.775000 -20.156250 2.006472
33.550000 -18.781250 2.006472
33.275000 -17.421875 2.006472
33.050000 -16.156250 2.006472
34.700000 -25.328125 2.152452
34.475000 -24.546875 2.152452
34.150000 -23.171875 2.152452
33.825000 -21.703125 2.152452
33.500000 -20.156250 2.152452
33.200000 -18.625000 2.152452
32.975000 -17.781250 2.152452
32.750000 -15.921875 2.152452
33.875000 -25.796875 2.282358
34.025000 -24.281250 2.282358
33.675000 -22.718750 2.282358
33.375000 -21.828125 2.282358
33.125000 -20.171875 2.282358
32.850000 -18.843750 2.282358
32.550000 -17.937500 2.282358
32.300000 -16.218750 2.282358
33.600000 -24.562500 2.439391
33.250000 -23.406250 2.439391
32.950000 -22.343750 2.439391
32.650000 -21.234375 2.439391
32.350000 -19.484375 2.439391
32.075000 -18.015625 2.439391
31.850000 -17.156250 2.439391
31.625000 -15.343750 2.439391
33.100000 -26.875000 2.580048
32.975000 -24.921875 2.580048
32.600000 -24.046875 2.580048
32.275000 -22.671875 2.580048
31.950000 -21.312500 2.580048
31.675000 -20.140625 2.580048
31.400000 -18.453125 2.580048
31.175000 -17.453125 2.580048
30.925000 -15.562500 2.580048
33.025000 -25.953125 2.708048
32.675000 -24.281250 2.708048
32.300000 -23.125000 2.708048
31.975000 -21.375000 2.708048
31.700000 -20.453125 2.708048
31.425000 -18.937500 2.708048
31.200000 -17.578125 2.708048
30.950000 -16.343750 2.708048
33.400000 -25.703125 2.848301
33.050000 -24.312500 2.848301
32.700000 -22.875000 2.848301
32.350000 -21.875000 2.848301
32.075000 -20.671875 2.848301
31.825000 -18.984375 2.848301
31.550000 -17.515625 2.848301
31.300000 -16.421875 2.848301
33.800000 -25.718750 3.000320
33.325000 -24.515625 3.000320
33.000000 -23.421875 3.000320
32.650000 -21.703125 3.000320
32.325000 -20.687500 3.000320
32.075000 -19.000000 3.000320
31.850000 -18.093750 3.000320
31.625000 -16.671875 3.000320
33.600000 -24.468750 3.130802
33.225000 -23.390625 3.130802
32.925000 -22.421875 3.130802
32.650000 -20.765625 3.130802
32.350000 -19.250000 3.130802
32.050000 -18.031250 3.130802
31.825000 -16.531250 3.130802
33.825000 -25.109375 3.273706
33.450000 -23.640625 3.273706
33.100000 -22.015625 3.273706
32.825000 -21.093750 3.273706
32.550000 -19.578125 3.273706
32.275000 -18.046875 3.273706
32.050000 -17.062500 3.273706
31.825000 -15.578125 3.273706
31.925000 -14.078125 3.273706
33.850000 -24.468750 3.414602
33.475000 -23.312500 3.414602
33.150000 -21.875000 3.414602
32.875000 -20.734375 3.414602
32.600000 -18.890625 3.414602
32.300000 -18.046875 3.414602
32.075000 -16.687500 3.414602
34.125000 -25.000000 3.558102
33.700000 -23.953125 3.558102
33.350000 -22.703125 3.558102
33.075000 -21.156250 3.558102
32.775000 -19.953125 3.558102
32.500000 -18.765625 3.558102
32.275000 -17.468750 3.558102
32.050000 -15.859375 3.558102
33.875000 -24.296875 3.695200
33.475000 -23.062500 3.695200
33.200000 -21.890625 3.695200
32.925000 -20.609375 3.695200
32.600000 -18.953125 3.695200
32.325000 -18.203125 3.695200
32.100000 -16.828125 3.695200
34.050000 -25.812500 3.833087
33.825000 -24.250000 3.833087
33.475000 -23.171875 3.833087
33.175000 -21.515625 3.833087
32.875000 -20.281250 3.833087
32.600000 -19.187500 3.833087
32.325000 -17.390625 3.833087
32.100000 -16.484375 3.833087
34.075000 -25.531250 3.972094
33.675000 -23.890625 3.972094
33.350000 -22.546875 3.972094
33.050000 -21.375000 3.972094
32.750000 -19.953125 3.972094
32.475000 -18.656250 3.972094
32.225000 -17.031250 3.972094
32.025000 -15.765625 3.972094
33.450000 -27.234375 4.115558
33.850000 -25.859375 4.115558
33.775000 -24.281250 4.115558
33.450000 -23.406250 4.115558
33.125000 -22.125000 4.115558
32.825000 -20.468750 4.115558
32.500000 -19.296875 4.115558
32.175000 -17.718750 4.115558
31.950000 -16.156250 4.115558
33.700000 -25.390625 4.253695
33.325000 -23.828125 4.253695
33.000000 -22.453125 4.253695
32.675000 -21.156250 4.253695
32.375000 -19.406250 4.253695
32.125000 -18.078125 4.253695
31.900000 -17.265625 4.253695
31.650000 -15.656250 4.253695
33.650000 -25.562500 4.395204
33.275000 -24.093750 4.395204
32.925000 -22.640625 4.395204
32.600000 -21.765625 4.395204
32.275000 -20.000000 4.395204
32.025000 -19.031250 4.395204
31.825000 -17.593750 4.395204
31.575000 -16.437500 4.395204
33.400000 -25.718750 4.535024
33.025000 -24.406250 4.535024
32.700000 -23.375000 4.535024
32.350000 -21.984375 4.535024
32.050000 -20.328125 4.535024
31.800000 -18.843750 4.535024
31.550000 -17.328125 4.535024
31.300000 -16.484375 4.535024
33.100000 -25.937500 4.678064
32.725000 -24.406250 4.678064
32.350000 -22.921875 4.678064
32.025000 -21.765625 4.678064
31.750000 -20.593750 4.678064
31.475000 -18.859375 4.678064
31.200000 -17.859375 4.678064
30.950000 -16.500000 4.678064
32.700000 -27.125000 4.809017
32.625000 -25.953125 4.809017
32.250000 -24.500000 4.809017
31.875000 -22.921875 4.809017
31.550000 -21.968750 4.809017
31.250000 -20.140625 4.809017
31.000000 -19.187500 4.809017
30.750000 -17.343750 4.809017
30.500000 -16.109375 4.809017
33.200000 -26.312500 4.958445
32.800000 -24.546875 4.958445
32.425000 -23.156250 4.958445
32.125000 -21.890625 4.958445
31.825000 -20.843750 4.958445
31.575000 -19.203125 4.958445
31.300000 -17.796875 4.958445
31.075000 -16.875000 4.958445
33.350000 -24.437500 5.097404
33.025000 -22.953125 5.097404
32.700000 -21.484375 5.097404
32.375000 -20.656250 5.097404
32.100000 -18.875000 5.097404
31.875000 -17.781250 5.097404
31.650000 -16.578125 5.097404
34.025000 -25.656250 5.225477
33.825000 -24.562500 5.225477
33.475000 -22.750000 5.225477
33.150000 -21.500000 5.225477
32.850000 -20.156250 5.225477
32.575000 -19.343750 5.225477
32.300000 -17.500000 5.225477
32.075000 -16.062500 5.225477
34.550000 -26.812500 5.371412
34.350000 -25.750000 5.371412
34.175000 -24.046875 5.371412
33.775000 -22.421875 5.371412
33.450000 -21.484375 5.371412
33.150000 -19.781250 5.371412
32.875000 -18.406250 5.371412
32.600000 -17.343750 5.371412
32.350000 -16.250000 5.371412
34.450000 -24.359375 5.503223
34.075000 -22.687500 5.503223
33.700000 -21.609375 5.503223
33.425000 -20.281250 5.503223
33.175000 -18.796875 5.503223
32.925000 -17.515625 5.503223
32.650000 -15.593750 5.503223
35.000000 -25.078125 5.643874
34.575000 -23.718750 5.643874
34.250000 -22.375000 5.643874
33.900000 -21.078125 5.643874
33.600000 -19.953125 5.643874
33.325000 -17.953125 5.643874
33.075000 -17.171875 5.643874
32.850000 -15.343750 5.643874
34.700000 -23.140625 5.794565
34.350000 -22.265625 5.794565
34.025000 -20.406250 5.794565
33.700000 -19.453125 5.794565
33.400000 -17.890625 5.794565
33.175000 -16.796875 5.794565
32.950000 -15.125000 5.794565
35.025000 -23.843750 5.929669
34.675000 -22.953125 5.929669
34.350000 -21.453125 5.929669
34.050000 -20.140625 5.929669
33.750000 -18.953125 5.929669
33.475000 -17.265625 5.929669
33.225000 -15.812500 5.929669
35.050000 -23.875000 6.061611
34.675000 -22.218750 6.061611
34.325000 -20.921875 6.061611
34.025000 -19.375000 6.061611
33.750000 -18.406250 6.061611
33.500000 -17.234375 6.061611
33.275000 -15.687500 6.061611
35.050000 -23.484375 6.204555
34.700000 -22.359375 6.204555
34.350000 -20.859375 6.204555
34.100000 -19.375000 6.204555
33.875000 -18.343750 6.204555
33.550000 -17.250000 6.204555
33.325000 -15.921875 6.204555
34.975000 -22.718750 6.344865
34.650000 -21.578125 6.344865
34.375000 -20.093750 6.344865
34.050000 -18.750000 6.344865
33.775000 -17.734375 6.344865
33.525000 -16.390625 6.344865
33.275000 -14.968750 6.344865
35.250000 -23.906250 6.490343
34.875000 -22.406250 6.490343
34.525000 -21.453125 6.490343
34.200000 -19.609375 6.490343
33.875000 -18.531250 6.490343
33.650000 -17.078125 6.490343
33.425000 -15.656250 6.490343
35.275000 -24.203125 6.625741
34.900000 -22.390625 6.625741
34.575000 -21.234375 6.625741
34.250000 -20.015625 6.625741
33.950000 -18.953125 6.625741
33.700000 -17.171875 6.625741
33.450000 -16.031250 6.625741
35.225000 -23.937500 6.766278
34.850000 -22.656250 6.766278
34.525000 -21.031250 6.766278
34.225000 -19.921875 6.766278
33.900000 -18.359375 6.766278
33.650000 -17.187500 6.766278
33.400000 -15.812500 6.766278
35.200000 -25.234375 6.908710
35.050000 -23.593750 6.908710
34.675000 -22.453125 6.908710
34.350000 -20.921875 6.908710
34.075000 -19.781250 6.908710
33.800000 -18.531250 6.908710
33.500000 -16.953125 6.908710
33.275000 -15.812500 6.908710
34.950000 -23.796875 7.051543
34.600000 -22.828125 7.051543
34.275000 -21.250000 7.051543
33.925000 -20.140625 7.051543
33.650000 -18.796875 7.051543
33.375000 -17.125000 7.051543
33.150000 -15.640625 7.051543
34.925000 -24.890625 7.183286
34.650000 -23.609375 7.183286
34.325000 -22.390625 7.183286
33.975000 -21.250000 7.183286
33.650000 -19.937500 7.183286
33.375000 -17.953125 7.183286
33.150000 -16.843750 7.183286
32.925000 -15.328125 7.183286
34.550000 -24.343750 7.330016
34.225000 -22.656250 7.330016
33.875000 -21.687500 7.330016
33.575000 -20.093750 7.330016
33.275000 -18.671875 7.330016
33.050000 -17.515625 7.330016
32.800000 -16.046875 7.330016
34.275000 -24.171875 7.469510
33.900000 -23.062500 7.469510
33.575000 -21.906250 7.469510
33.275000 -20.296875 7.469510
33.025000 -19.046875 7.469510
32.775000 -17.968750 7.469510
32.525000 -16.375000 7.469510
34.275000 -25.765625 7.612014
33.850000 -24.453125 7.612014
33.500000 -22.937500 7.612014
33.200000 -21.171875 7.612014
32.900000 -19.843750 7.612014
32.625000 -19.078125 7.612014
32.350000 -17.328125 7.612014
32.100000 -15.765625 7.612014
34.325000 -26.859375 7.748936
33.675000 -25.171875 7.748936
33.325000 -24.109375 7.748936
33.000000 -22.687500 7.748936
32.675000 -21.578125 7.748936
32.350000 -19.750000 7.748936
32.075000 -18.968750 7.748936
31.875000 -17.078125 7.748936
31.650000 -15.734375 7.748936
33.225000 -26.156250 7.890232
33.000000 -25.171875 7.890232
32.675000 -23.359375 7.890232
32.325000 -22.203125 7.890232
32.000000 -21.281250 7.890232
31.725000 -19.562500 7.890232
31.450000 -18.250000 7.890232
31.225000 -16.671875 7.890232
32.775000 -27.609375 8.030025
32.800000 -25.968750 8.030025
32.375000 -24.234375 8.030025
32.025000 -23.046875 8.030025
31.725000 -22.125000 8.030025
31.400000 -20.359375 8.030025
31.150000 -19.468750 8.030025
30.900000 -18.125000 8.030025
30.675000 -16.468750 8.030025
32.975000 -25.359375 8.172598
32.600000 -24.109375 8.172598
32.250000 -22.671875 8.172598
31.975000 -21.031250 8.172598
31.700000 -20.156250 8.172598
31.425000 -19.078125 8.172598
31.175000 -17.015625 8.172598
30.925000 -16.031250 8.172598
33.275000 -25.484375 8.307711
32.900000 -23.921875 8.307711
32.550000 -22.281250 8.307711
32.225000 -21.468750 8.307711
31.950000 -20.062500 8.307711
31.675000 -18.203125 8.307711
31.450000 -17.296875 8.307711
31.225000 -15.562500 8.307711
33.625000 -26.109375 8.454432
33.375000 -24.640625 8.454432
33.050000 -23.359375 8.454432
32.725000 -21.796875 8.454432
32.375000 -20.812500 8.454432
32.125000 -19.359375 8.454432
31.875000 -18.187500 8.454432
31.650000 -16.203125 8.454432
33.725000 -25.296875 8.583003
33.400000 -23.781250 8.583003
33.075000 -22.718750 8.583003
32.750000 -21.031250 8.583003
32.400000 -19.609375 8.583003
32.150000 -18.359375 8.583003
31.950000 -17.281250 8.583003
31.725000 -15.765625 8.583003
33.650000 -24.218750 8.722799
33.300000 -22.828125 8.722799
33.000000 -21.765625 8.722799
32.700000 -20.062500 8.722799
32.375000 -18.734375 8.722799
32.125000 -17.687500 8.722799
31.925000 -16.046875 8.722799
33.925000 -24.578125 8.865472
33.575000 -23.265625 8.865472
33.250000 -22.375000 8.865472
32.975000 -21.000000 8.865472
32.650000 -19.546875 8.865472
32.350000 -17.796875 8.865472
32.125000 -16.765625 8.865472
34.150000 -25.031250 9.002495
33.700000 -23.671875 9.002495
33.350000 -22.437500 9.002495
33.075000 -21.296875 9.002495
32.800000 -19.781250 9.002495
32.500000 -18.734375 9.002495
32.225000 -17.062500 9.002495
32.000000 -15.484375 9.002495
33.775000 -23.765625 9.146447
33.425000 -22.703125 9.146447
33.100000 -21.109375 9.146447
32.775000 -19.828125 9.146447
32.500000 -18.453125 9.146447
32.275000 -17.187500 9.146447
32.075000 -15.906250 9.146447
34.375000 -25.234375 9.285120
33.800000 -24.296875 9.285120
33.400000 -22.875000 9.285120
33.100000 -21.609375 9.285120
32.875000 -20.468750 9.285120
32.600000 -19.125000 9.285120
32.275000 -17.250000 9.285120
32.025000 -16.093750 9.285120
33.825000 -24.250000 9.427578
33.450000 -22.890625 9.427578
33.150000 -21.484375 9.427578
32.850000 -20.578125 9.427578
32.550000 -18.921875 9.427578
32.300000 -18.046875 9.427578
32.100000 -16.718750 9.427578
33.850000 -24.671875 9.560864
33.425000 -23.250000 9.560864
33.150000 -21.953125 9.560864
32.875000 -20.625000 9.560864
32.550000 -19.375000 9.560864
32.300000 -18.078125 9.560864
32.050000 -16.593750 9.560864
33.750000 -25.390625 9.706294
33.375000 -23.500000 9.706294
33.025000 -22.578125 9.706294
32.725000 -21.390625 9.706294
32.425000 -19.765625 9.706294
32.150000 -18.046875 9.706294
31.950000 -17.296875 9.706294
31.725000 -15.843750 9.706294
33.725000 -25.828125 9.845447
33.275000 -23.921875 9.845447
32.925000 -22.890625 9.845447
32.600000 -21.765625 9.845447
32.300000 -20.484375 9.845447
32.050000 -18.656250 9.845447
31.825000 -17.468750 9.845447
31.550000 -15.890625 9.845447
33.450000 -25.640625 9.989481
33.050000 -24.031250 9.989481
32.675000 -23.015625 9.989481
32.350000 -21.500000 9.989481
32.050000 -20.671875 9.989481
31.800000 -19.187500 9.989481
31.525000 -17.421875 9.989481
31.275000 -16.000000 9.989481
33.175000 -26.218750 10.123965
32.775000 -24.359375 10.123965
32.375000 -23.140625 10.123965
32.075000 -21.875000 10.123965
31.775000 -20.671875 10.123965
31.450000 -19.156250 10.123965
31.225000 -18.078125 10.123965
31.000000 -15.968750 10.123965
33.125000 -26.031250 10.265143
32.700000 -24.453125 10.265143
32.250000 -22.921875 10.265143
31.925000 -21.640625 10.265143
31.625000 -20.687500 10.265143
31.400000 -19.421875 10.265143
31.125000 -17.828125 10.265143
30.800000 -16.734375 10.265143
33.325000 -25.281250 10.407259
32.975000 -23.562500 10.407259
32.675000 -22.390625 10.407259
32.350000 -20.859375 10.407259
32.050000 -19.812500 10.407259
31.800000 -18.171875 10.407259
31.550000 -17.046875 10.407259
33.975000 -25.062500 10.549814
33.600000 -23.718750 10.549814
33.300000 -22.734375 10.549814
32.975000 -21.078125 10.549814
32.675000 -19.578125 10.549814
32.450000 -18.234375 10.549814
32.200000 -17.328125 10.549814
31.925000 -15.906250 10.549814
34.200000 -24.593750 10.682799
33.850000 -23.171875 10.682799
33.525000 -21.703125 10.682799
33.250000 -20.359375 10.682799
32.975000 -18.921875 10.682799
32.700000 -17.765625 10.682799
32.450000 -16.328125 10.682799
34.600000 -24.578125 10.829252
34.275000 -23.093750 10.829252
33.925000 -21.812500 10.829252
33.600000 -20.484375 10.829252
33.325000 -19.187500 10.829252
33.075000 -17.765625 10.829252
32.850000 -16.593750 10.829252
32.600000 -15.140625 10.829252
35.000000 -24.640625 10.958198
34.600000 -23.203125 10.958198
34.275000 -22.140625 10.958198
33.950000 -20.250000 10.958198
33.650000 -19.562500 10.958198
33.400000 -18.046875 10.958198
33.150000 -16.359375 10.958198
32.950000 -15.515625 10.958198
35.150000 -26.421875 11.111430
35.025000 -24.906250 11.111430
34.900000 -23.765625 11.111430
34.550000 -21.796875 11.111430
34.250000 -21.031250 11.111430
33.950000 -19.515625 11.111430
33.675000 -18.046875 11.111430
33.400000 -16.656250 11.111430
33.200000 -15.281250 11.111430
35.075000 -23.906250 11.246475
34.725000 -21.968750 11.246475
34.450000 -21.218750 11.246475
34.150000 -19.890625 11.246475
33.850000 -18.328125 11.246475
33.625000 -17.156250 11.246475
33.325000 -15.390625 11.246475
35.400000 -24.156250 11.376251
35.000000 -22.593750 11.376251
34.675000 -21.390625 11.376251
34.350000 -19.671875 11.376251
34.050000 -18.812500 11.376251
33.800000 -17.234375 11.376251
33.550000 -15.890625 11.376251
35.225000 -24.171875 11.515401
35.075000 -22.812500 11.515401
34.725000 -21.062500 11.515401
34.475000 -19.921875 11.515401
34.250000 -18.640625 11.515401
33.975000 -17.500000 11.515401
33.650000 -15.703125 11.515401
35.175000 -22.750000 11.655112
34.900000 -21.531250 11.655112
34.600000 -19.859375 11.655112
34.275000 -18.593750 11.655112
33.975000 -17.406250 11.655112
33.750000 -15.687500 11.655112
33.550000 -14.828125 11.655112
35.250000 -22.609375 11.812088
34.900000 -21.562500 11.812088
34.575000 -20.328125 11.812088
34.275000 -18.578125 11.812088
34.000000 -17.156250 11.812088
33.800000 -16.078125 11.812088
33.600000 -14.890625 11.812088
35.225000 -22.375000 11.950859
34.900000 -21.125000 11.950859
34.625000 -19.718750 11.950859
34.350000 -18.718750 11.950859
34.100000 -17.218750 11.950859
33.825000 -15.859375 11.950859
35.200000 -24.625000 12.077202
35.375000 -22.890625 12.077202
35.000000 -21.843750 12.077202
34.725000 -20.593750 12.077202
34.475000 -19.015625 12.077202
34.200000 -17.421875 12.077202
33.900000 -16.234375 12.077202
33.650000 -15.078125 12.077202
35.525000 -23.843750 12.215350
35.075000 -22.203125 12.215350
34.750000 -20.859375 12.215350
34.500000 -19.625000 12.215350
34.275000 -18.562500 12.215350
33.975000 -16.656250 12.215350
33.700000 -15.703125 12.215350
35.225000 -22.859375 12.362003
34.875000 -21.703125 12.362003
34.575000 -20.687500 12.362003
34.350000 -19.359375 12.362003
34.075000 -17.984375 12.362003
33.800000 -16.453125 12.362003
33.575000 -15.234375 12.362003
35.300000 -23.765625 12.502195
34.950000 -22.890625 12.502195
34.675000 -21.140625 12.502195
34.400000 -20.187500 12.502195
34.125000 -18.468750 12.502195
33.825000 -16.984375 12.502195
33.600000 -15.796875 12.502195
34.700000 -22.546875 12.636060
34.425000 -20.937500 12.636060
34.125000 -19.796875 12.636060
33.825000 -17.906250 12.636060
33.575000 -16.828125 12.636060
33.350000 -15.703125 12.636060
35.100000 -24.812500 12.776806
34.850000 -23.609375 12.776806
34.525000 -22.437500 12.776806
34.225000 -20.765625 12.776806
33.900000 -19.515625 12.776806
33.625000 -18.234375 12.776806
33.425000 -17.343750 12.776806
33.200000 -15.390625 12.776806
34.750000 -24.437500 12.923204
34.375000 -22.906250 12.923204
34.100000 -21.890625 12.923204
33.775000 -20.250000 12.923204
33.475000 -19.093750 12.923204
33.275000 -17.453125 12.923204
33.075000 -16.421875 12.923204
32.800000 -15.265625 12.923204
34.625000 -25.812500 13.057243
34.300000 -24.046875 13.057243
33.950000 -22.953125 13.057243
33.625000 -21.671875 13.057243
33.375000 -20.187500 13.057243
33.125000 -18.875000 13.057243
32.875000 -17.218750 13.057243
32.600000 -16.500000 13.057243
34.750000 -26.156250 13.197930
34.025000 -24.609375 13.197930
33.625000 -23.468750 13.197930
33.325000 -21.890625 13.197930
33.025000 -20.703125 13.197930
32.750000 -19.281250 13.197930
32.475000 -18.015625 13.197930
32.250000 -16.937500 13.197930
32.025000 -15.828125 13.197930
33.025000 -27.281250 13.338311
33.500000 -26.218750 13.338311
33.325000 -24.406250 13.338311
32.975000 -23.609375 13.338311
32.675000 -21.859375 13.338311
32.325000 -20.500000 13.338311
32.050000 -19.203125 13.338311
31.800000 -17.843750 13.338311
31.575000 -16.687500 13.338311
32.875000 -27.046875 13.477553
32.825000 -25.703125 13.477553
32.425000 -24.312500 13.477553
32.100000 -23.031250 13.477553
31.800000 -21.156250 13.477553
31.500000 -20.250000 13.477553
31.225000 -18.421875 13.477553
30.950000 -16.968750 13.477553
30.725000 -15.515625 13.477553
33.225000 -26.140625 13.617454
32.850000 -24.437500 13.617454
32.450000 -23.140625 13.617454
32.150000 -21.828125 13.617454
31.875000 -20.734375 13.617454
31.575000 -19.250000 13.617454
31.300000 -17.859375 13.617454
31.100000 -16.265625 13.617454
33.325000 -25.734375 13.758414
33.000000 -23.937500 13.758414
32.650000 -22.312500 13.758414
32.325000 -21.453125 13.758414
32.050000 -20.265625 13.758414
31.800000 -18.781250 13.758414
31.575000 -17.390625 13.758414
31.350000 -15.750000 13.758414
33.350000 -24.093750 13.898857
33.000000 -23.062500 13.898857
32.700000 -21.953125 13.898857
32.425000 -20.546875 13.898857
32.150000 -19.375000 13.898857
31.875000 -17.671875 13.898857
31.650000 -15.921875 13.898857
33.775000 -25.281250 14.040557
33.400000 -23.593750 14.040557
33.075000 -22.750000 14.040557
32.800000 -21.468750 14.040557
32.525000 -19.703125 14.040557
32.250000 -18.500000 14.040557
32.000000 -17.140625 14.040557
31.775000 -15.656250 14.040557
34.950000 -26.718750 14.182366
33.625000 -24.078125 14.182366
33.300000 -22.937500 14.182366
33.000000 -21.234375 14.182366
32.700000 -19.906250 14.182366
32.425000 -18.906250 14.182366
32.175000 -17.234375 14.182366
31.950000 -16.015625 14.182366
34.150000 -25.312500 14.319463
33.700000 -24.187500 14.319463
33.325000 -22.375000 14.319463
33.000000 -21.515625 14.319463
32.700000 -19.750000 14.319463
32.450000 -18.875000 14.319463
32.225000 -17.000000 14.319463
32.000000 -16.265625 14.319463
34.125000 -25.156250 14.460158
33.700000 -23.812500 14.460158
33.375000 -22.859375 14.460158
33.100000 -21.187500 14.460158
32.800000 -19.562500 14.460158
32.500000 -18.531250 14.460158
32.275000 -16.906250 14.460158
32.075000 -15.984375 14.460158
34.000000 -24.593750 14.600645
33.600000 -23.515625 14.600645
33.275000 -22.203125 14.600645
32.975000 -20.453125 14.600645
32.700000 -19.546875 14.600645
32.450000 -18.234375 14.600645
32.225000 -16.859375 14.600645
31.975000 -15.031250 14.600645
34.125000 -25.546875 14.742134
33.850000 -24.625000 14.742134
33.475000 -23.015625 14.742134
33.150000 -21.671875 14.742134
32.875000 -20.500000 14.742134
32.575000 -18.828125 14.742134
32.300000 -17.750000 14.742134
32.075000 -16.437500 14.742134
33.950000 -24.781250 14.874083
33.525000 -23.750000 14.874083
33.200000 -22.265625 14.874083
32.925000 -20.875000 14.874083
32.625000 -19.312500 14.874083
32.325000 -17.906250 14.874083
32.125000 -16.765625 14.874083
31.900000 -15.328125 14.874083
31.900000 -14.031250 14.874083
34.025000 -25.609375 15.022248
33.625000 -24.359375 15.022248
33.275000 -22.781250 15.022248
32.950000 -21.343750 15.022248
32.675000 -20.421875 15.022248
32.375000 -18.734375 15.022248
32.100000 -17.312500 15.022248
31.900000 -16.437500 15.022248
33.625000 -24.859375 15.161267
33.300000 -23.484375 15.161267
32.975000 -22.265625 15.161267
32.625000 -20.812500 15.161267
32.325000 -19.609375 15.161267
32.050000 -18.390625 15.161267
31.850000 -17.296875 15.161267
31.625000 -15.656250 15.161267
34.000000 -25.812500 15.302561
33.300000 -24.250000 15.302561
32.925000 -23.109375 15.302561
32.625000 -21.593750 15.302561
32.300000 -20.750000 15.302561
32.025000 -18.828125 15.302561
31.775000 -17.750000 15.302561
31.550000 -16.671875 15.302561
33.225000 -25.640625 15.435608
32.850000 -23.765625 15.435608
32.500000 -22.515625 15.435608
32.175000 -21.687500 15.435608
31.900000 -20.296875 15.435608
31.625000 -18.484375 15.435608
31.375000 -17.250000 15.435608
31.150000 -16.218750 15.435608
33.075000 -26.375000 15.582252
32.675000 -24.500000 15.582252
32.275000 -23.281250 15.582252
31.975000 -21.906250 15.582252
31.675000 -20.796875 15.582252
31.400000 -19.437500 15.582252
31.150000 -18.046875 15.582252
30.900000 -17.046875 15.582252
32.875000 -26.796875 15.720669
32.500000 -25.125000 15.720669
32.125000 -23.609375 15.720669
31.800000 -22.718750 15.720669
31.525000 -21.312500 15.720669
31.250000 -19.968750 15.720669
30.975000 -18.875000 15.720669
30.725000 -16.718750 15.720669
33.125000 -27.125000 15.864074
33.400000 -25.843750 15.864074
33.000000 -24.953125 15.864074
32.675000 -23.062500 15.864074
32.350000 -22.234375 15.864074
32.050000 -20.468750 15.864074
31.775000 -19.187500 15.864074
31.525000 -18.078125 15.864074
31.300000 -16.453125 15.864074
33.675000 -25.140625 15.999176
33.300000 -23.859375 15.999176
32.950000 -21.906250 15.999176
32.650000 -20.812500 15.999176
32.375000 -19.515625 15.999176
32.125000 -18.484375 15.999176
31.900000 -16.484375 15.999176
31.675000 -15.531250 15.999176
34.250000 -25.109375 16.139138
33.825000 -23.890625 16.139138
33.500000 -22.640625 16.139138
33.175000 -21.140625 16.139138
32.850000 -19.500000 16.139138
32.575000 -18.093750 16.139138
32.325000 -17.281250 16.139138
32.100000 -16.031250 16.139138
34.300000 -24.343750 16.279949
33.900000 -22.656250 16.279949
33.575000 -21.312500 16.279949
33.300000 -20.265625 16.279949
33.050000 -18.578125 16.279949
32.775000 -17.468750 16.279949
32.500000 -16.000000 16.279949
34.725000 -24.578125 16.422553
34.350000 -23.375000 16.422553
33.975000 -21.484375 16.422553
33.625000 -20.703125 16.422553
33.350000 -19.156250 16.422553
33.125000 -17.937500 16.422553
32.900000 -16.750000 16.422553
32.650000 -15.281250 16.422553
32.700000 -14.140625 16.422553
34.950000 -25.109375 16.561364
34.675000 -23.406250 16.561364
34.300000 -21.984375 16.561364
33.950000 -20.906250 16.561364
33.650000 -19.906250 16.561364
33.400000 -17.984375 16.561364
33.150000 -16.765625 16.561364
32.925000 -15.812500 16.561364
34.900000 -23.828125 16.698880
34.550000 -22.890625 16.698880
34.225000 -21.375000 16.698880
33.875000 -19.687500 16.698880
33.600000 -18.718750 16.698880
33.350000 -17.343750 16.698880
33.125000 -15.609375 16.698880
34.875000 -23.468750 16.839470
34.525000 -21.828125 16.839470
34.175000 -20.812500 16.839470
33.875000 -19.218750 16.839470
33.600000 -17.765625 16.839470
33.375000 -16.703125 16.839470
33.125000 -15.437500 16.839470
35.225000 -25.109375 16.983000
35.100000 -23.953125 16.983000
34.750000 -22.203125 16.983000
34.425000 -21.031250 16.983000
34.100000 -19.703125 16.983000
33.800000 -18.250000 16.983000
33.525000 -16.984375 16.983000
33.275000 -15.531250 16.983000
35.300000 -24.125000 17.120890
34.900000 -22.546875 17.120890
34.550000 -21.234375 17.120890
34.225000 -20.171875 17.120890
33.900000 -18.656250 17.120890
33.675000 -17.156250 17.120890
33.425000 -15.687500 17.120890
35.000000 -22.765625 17.261414
34.650000 -21.671875 17.261414
34.350000 -20.437500 17.261414
34.050000 -19.015625 17.261414
33.775000 -17.421875 17.261414
33.525000 -16.656250 17.261414
33.300000 -15.187500 17.261414
35.225000 -24.828125 17.401314
35.100000 -23.718750 17.401314
34.750000 -22.296875 17.401314
34.450000 -21.031250 17.401314
34.150000 -19.609375 17.401314
33.825000 -17.843750 17.401314
33.550000 -16.796875 17.401314
33.350000 -15.125000 17.401314
35.100000 -23.421875 17.540131
34.775000 -22.453125 17.540131
34.425000 -21.328125 17.540131
34.125000 -19.578125 17.540131
33.800000 -18.312500 17.540131
33.525000 -16.968750 17.540131
33.300000 -15.500000 17.540131
35.225000 -25.125000 17.680192
35.125000 -23.796875 17.680192
34.775000 -22.156250 17.680192
34.425000 -21.171875 17.680192
34.100000 -19.796875 17.680192
33.800000 -18.609375 17.680192
33.525000 -17.296875 17.680192
33.300000 -15.843750 17.680192
35.050000 -23.906250 17.809921
34.675000 -22.750000 17.809921
34.300000 -21.093750 17.809921
34.025000 -20.015625 17.809921
33.775000 -18.546875 17.809921
33.475000 -17.406250 17.809921
33.250000 -15.656250 17.809921
34.925000 -24.312500 17.963158
34.575000 -22.859375 17.963158
34.250000 -21.312500 17.963158
33.900000 -20.265625 17.963158
33.575000 -18.265625 17.963158
33.350000 -17.218750 17.963158
33.125000 -16.062500 17.963158
34.850000 -25.656250 18.091481
34.750000 -24.421875 18.091481
34.425000 -23.015625 18.091481
34.050000 -21.859375 18.091481
33.725000 -20.000000 18.091481
33.425000 -19.156250 18.091481
33.175000 -17.796875 18.091481
32.950000 -16.156250 18.091481
34.725000 -25.531250 18.244866
34.525000 -24.421875 18.244866
34.150000 -23.125000 18.244866
33.775000 -21.281250 18.244866
33.475000 -20.156250 18.244866
33.225000 -18.765625 18.244866
32.975000 -17.796875 18.244866
32.725000 -16.093750 18.244866
34.200000 -24.437500 18.372277
33.850000 -22.875000 18.372277
33.500000 -21.859375 18.372277
33.200000 -20.578125 18.372277
32.950000 -19.328125 18.372277
32.675000 -17.718750 18.372277
32.400000 -16.515625 18.372277
33.825000 -26.140625 18.508961
33.775000 -24.750000 18.508961
33.425000 -23.078125 18.508961
33.125000 -21.796875 18.508961
32.850000 -20.812500 18.508961
32.550000 -19.406250 18.508961
32.275000 -17.546875 18.508961
32.025000 -16.750000 18.508961
33.450000 -25.187500 18.648768
33.100000 -24.296875 18.648768
32.775000 -22.531250 18.648768
32.450000 -21.546875 18.648768
32.150000 -19.812500 18.648768
31.875000 -18.656250 18.648768
31.625000 -17.046875 18.648768
31.400000 -15.562500 18.648768
33.050000 -26.015625 18.788976
32.650000 -24.812500 18.788976
32.275000 -23.375000 18.788976
31.950000 -21.906250 18.788976
31.675000 -20.640625 18.788976
31.375000 -19.250000 18.788976
31.100000 -17.906250 18.788976
30.850000 -16.031250 18.788976
32.950000 -26.515625 18.944090
32.525000 -25.187500 18.944090
32.175000 -23.765625 18.944090
31.875000 -22.453125 18.944090
31.550000 -20.703125 18.944090
31.275000 -19.625000 18.944090
31.025000 -18.109375 18.944090
30.775000 -17.078125 18.944090
33.050000 -25.421875 19.082702
32.700000 -24.234375 19.082702
32.325000 -22.437500 19.082702
32.025000 -21.250000 19.082702
31.750000 -19.687500 19.082702
31.475000 -18.734375 19.082702
31.225000 -17.187500 19.082702
33.400000 -25.828125 19.209743
33.075000 -24.015625 19.209743
32.750000 -22.890625 19.209743
32.400000 -21.593750 19.209743
32.100000 -20.453125 19.209743
31.825000 -18.781250 19.209743
31.550000 -17.593750 19.209743
31.300000 -15.812500 19.209743
33.550000 -24.890625 19.349447
33.200000 -23.875000 19.349447
32.875000 -22.515625 19.349447
32.525000 -20.562500 19.349447
32.225000 -19.234375 19.349447
31.950000 -18.156250 19.349447
31.750000 -16.843750 19.349447
33.750000 -25.171875 19.492403
33.400000 -24.000000 19.492403
33.100000 -22.609375 19.492403
32.775000 -20.812500 19.492403
32.450000 -19.890625 19.492403
32.200000 -18.218750 19.492403
31.975000 -17.015625 19.492403
31.750000 -15.562500 19.492403
33.825000 -24.687500 19.630299
33.450000 -23.656250 19.630299
33.150000 -22.265625 19.630299
32.875000 -20.328125 19.630299
32.550000 -19.437500 19.630299
32.275000 -18.328125 19.630299
32.050000 -16.593750 19.630299
33.800000 -24.359375 19.769141
33.425000 -23.328125 19.769141
33.125000 -21.453125 19.769141
32.850000 -20.421875 19.769141
32.550000 -19.453125 19.769141
32.300000 -17.968750 19.769141
32.075000 -16.484375 19.769141
34.050000 -24.484375 19.908226
33.575000 -23.078125 19.908226
33.175000 -22.375000 19.908226
32.950000 -20.718750 19.908226
32.725000 -19.625000 19.908226
32.450000 -18.062500 19.908226
32.200000 -16.671875 19.908226
34.000000 -24.390625 20.053548
33.600000 -23.234375 20.053548
33.250000 -22.125000 20.053548
32.900000 -20.218750 20.053548
32.575000 -19.359375 20.053548
32.300000 -17.968750 20.053548
32.125000 -16.468750 20.053548
33.800000 -24.234375 20.189002
33.475000 -23.109375 20.189002
33.150000 -21.593750 20.189002
32.850000 -20.234375 20.189002
32.550000 -19.015625 20.189002
32.275000 -17.125000 20.189002
32.050000 -15.875000 20.189002
34.975000 -26.625000 20.330716
33.700000 -24.218750 20.330716
33.325000 -22.671875 20.330716
33.075000 -21.250000 20.330716
32.775000 -19.656250 20.330716
32.450000 -18.953125 20.330716
32.200000 -17.437500 20.330716
32.025000 -15.703125 20.330716
33.775000 -24.687500 20.485055
33.450000 -23.593750 20.485055
33.150000 -21.781250 20.485055
32.825000 -21.125000 20.485055
32.500000 -19.750000 20.485055
32.225000 -17.859375 20.485055
31.975000 -16.859375 20.485055
31.775000 -15.687500 20.485055
33.725000 -25.406250 20.613439
33.375000 -24.281250 20.613439
33.050000 -22.250000 20.613439
32.725000 -21.078125 20.613439
32.400000 -19.656250 20.613439
32.125000 -18.812500 20.613439
31.925000 -17.140625 20.613439
31.700000 -16.078125 20.613439
33.875000 -26.203125 20.754631
33.300000 -24.656250 20.754631
32.950000 -22.968750 20.754631
32.600000 -21.921875 20.754631
32.300000 -20.687500 20.754631
32.050000 -19.453125 20.754631
31.800000 -17.687500 20.754631
31.525000 -16.140625 20.754631
33.150000 -24.953125 20.889120
32.775000 -23.859375 20.889120
32.425000 -22.359375 20.889120
32.100000 -20.937500 20.889120
31.825000 -19.390625 20.889120
31.550000 -18.593750 20.889120
31.325000 -17.312500 20.889120
33.025000 -26.437500 21.031112
32.800000 -25.359375 21.031112
32.425000 -24.093750 21.031112
32.075000 -22.687500 21.031112
31.800000 -21.015625 21.031112
31.525000 -19.734375 21.031112
31.250000 -18.109375 21.031112
31.025000 -17.281250 21.031112
33.250000 -26.484375 21.174421
32.975000 -24.921875 21.174421
32.600000 -23.781250 21.174421
32.225000 -22.343750 21.174421
31.875000 -21.046875 21.174421
31.600000 -19.343750 21.174421
31.325000 -18.125000 21.174421
31.075000 -16.687500 21.174421
33.725000 -26.000000 21.314111
33.450000 -24.906250 21.314111
33.125000 -23.484375 21.314111
32.725000 -21.703125 21.314111
32.400000 -20.781250 21.314111
32.150000 -18.859375 21.314111
31.900000 -17.625000 21.314111
31.700000 -16.515625 21.314111
34.125000 -25.265625 21.451126
33.750000 -23.890625 21.451126
33.450000 -22.656250 21.451126
33.150000 -21.093750 21.451126
32.825000 -19.781250 21.451126
32.575000 -18.796875 21.451126
32.325000 -16.968750 21.451126
32.050000 -15.671875 21.451126
34.275000 -24.328125 21.591679
33.925000 -22.953125 21.591679
33.625000 -21.671875 21.591679
33.325000 -20.375000 21.591679
33.025000 -19.109375 21.591679
32.750000 -17.546875 21.591679
32.575000 -16.593750 21.591679
34.850000 -25.031250 21.735752
34.450000 -23.265625 21.735752
34.125000 -22.468750 21.735752
33.800000 -21.171875 21.735752
33.500000 -19.265625 21.735752
33.225000 -18.218750 21.735752
33.000000 -16.625000 21.735752
32.750000 -15.218750 21.735752
34.900000 -23.828125 21.872823
34.550000 -22.437500 21.872823
34.200000 -21.218750 21.872823
33.875000 -19.890625 21.872823
33.600000 -18.890625 21.872823
33.350000 -17.203125 21.872823
33.125000 -15.953125 21.872823
35.250000 -24.281250 22.013611
34.825000 -22.953125 22.013611
34.500000 -21.406250 22.013611
34.200000 -20.375000 22.013611
33.900000 -19.031250 22.013611
33.625000 -17.828125 22.013611
33.375000 -16.078125 22.013611
33.150000 -14.984375 22.013611
35.300000 -25.093750 22.155477
35.100000 -23.500000 22.155477
34.775000 -22.453125 22.155477
34.500000 -21.109375 22.155477
34.175000 -19.671875 22.155477
33.875000 -18.296875 22.155477
33.650000 -16.562500 22.155477
33.400000 -15.203125 22.155477
35.425000 -24.125000 22.297613
35.000000 -22.375000 22.297613
34.700000 -21.156250 22.297613
34.400000 -20.078125 22.297613
34.100000 -18.375000 22.297613
33.825000 -16.812500 22.297613
33.575000 -15.843750 22.297613
35.000000 -25.578125 22.432525
35.325000 -24.187500 22.432525
35.225000 -23.187500 22.432525
34.900000 -21.968750 22.432525
34.600000 -20.468750 22.432525
34.325000 -19.265625 22.432525
34.050000 -17.750000 22.432525
33.800000 -16.390625 22.432525
33.550000 -15.328125 22.432525
35.100000 -21.875000 22.572008
34.775000 -20.578125 22.572008
34.500000 -19.625000 22.572008
34.250000 -17.968750 22.572008
33.975000 -17.000000 22.572008
33.750000 -15.500000 22.572008
35.225000 -22.421875 22.712214
34.900000 -21.625000 22.712214
34.625000 -19.812500 22.712214
34.375000 -18.312500 22.712214
34.125000 -17.390625 22.712214
33.875000 -16.062500 22.712214
33.625000 -14.343750 22.712214
35.675000 -24.000000 22.851977
35.375000 -23.109375 22.851977
34.950000 -21.406250 22.851977
34.675000 -20.515625 22.851977
34.450000 -19.109375 22.851977
34.175000 -17.406250 22.851977
33.900000 -16.125000 22.851977
33.650000 -14.890625 22.851977
35.075000 -22.171875 22.993218
34.750000 -20.703125 22.993218
34.500000 -19.390625 22.993218
34.250000 -17.875000 22.993218
33.975000 -16.781250 22.993218
33.700000 -15.453125 22.993218
35.075000 -22.234375 23.131289
34.750000 -21.062500 23.131289
34.500000 -19.437500 23.131289
34.225000 -18.187500 23.131289
33.975000 -17.078125 23.131289
33.725000 -15.781250 23.131289
35.350000 -23.921875 23.273063
35.025000 -22.328125 23.273063
34.700000 -21.062500 23.273063
34.450000 -19.890625 23.273063
34.175000 -18.421875 23.273063
33.875000 -16.765625 23.273063
33.600000 -15.937500 23.273063
35.250000 -24.109375 23.413868
34.900000 -22.328125 23.413868
34.575000 -21.109375 23.413868
34.350000 -19.953125 23.413868
34.075000 -18.312500 23.413868
33.800000 -17.203125 23.413868
33.525000 -16.031250 23.413868
35.025000 -23.593750 23.555085
34.675000 -22.484375 23.555085
34.400000 -20.875000 23.555085
34.125000 -19.859375 23.555085
33.850000 -18.640625 23.555085
33.575000 -16.750000 23.555085
33.325000 -15.843750 23.555085
35.075000 -24.859375 23.685051
34.775000 -23.453125 23.685051
34.450000 -22.062500 23.685051
34.150000 -21.093750 23.685051
33.850000 -19.781250 23.685051
33.575000 -18.640625 23.685051
33.300000 -16.828125 23.685051
33.075000 -15.281250 23.685051
34.600000 -24.890625 23.823531
34.400000 -23.390625 23.823531
34.075000 -21.812500 23.823531
33.750000 -20.531250 23.823531
33.475000 -19.796875 23.823531
33.250000 -18.406250 23.823531
33.025000 -16.593750 23.823531
32.750000 -15.156250 23.823531
34.350000 -24.906250 23.964868
33.975000 -23.343750 23.964868
33.650000 -22.296875 23.964868
33.375000 -20.843750 23.964868
33.125000 -19.531250 23.964868
32.850000 -18.437500 23.964868
32.600000 -16.859375 23.964868
32.375000 -15.406250 23.964868
33.850000 -24.828125 24.117528
33.500000 -23.843750 24.117528
33.175000 -22.312500 24.117528
32.850000 -20.875000 24.117528
32.575000 -19.515625 24.117528
32.325000 -18.390625 24.117528
32.075000 -16.484375 24.117528
31.850000 -15.140625 24.117528
33.425000 -26.218750 24.245527
33.125000 -24.546875 24.245527
32.800000 -23.500000 24.245527
32.450000 -21.703125 24.245527
32.125000 -20.609375 24.245527
31.875000 -19.078125 24.245527
31.625000 -17.546875 24.245527
31.350000 -16.750000 24.245527
32.900000 -25.406250 24.395503
32.500000 -24.515625 24.395503
32.125000 -23.062500 24.395503
31.825000 -21.437500 24.395503
31.500000 -20.265625 24.395503
31.225000 -18.453125 24.395503
31.000000 -17.203125 24.395503
30.800000 -16.156250 24.395503
33.050000 -24.953125 24.523941
32.700000 -24.109375 24.523941
32.375000 -22.343750 24.523941
32.050000 -21.218750 24.523941
31.800000 -20.031250 24.523941
31.525000 -18.312500 24.523941
31.275000 -16.718750 24.523941
31.075000 -15.343750 24.523941
33.225000 -24.281250 24.660568
32.875000 -23.265625 24.660568
32.525000 -21.734375 24.660568
32.225000 -20.203125 24.660568
31.975000 -18.921875 24.660568
31.725000 -18.000000 24.660568
31.475000 -16.546875 24.660568
33.575000 -24.953125 24.807522
33.250000 -23.968750 24.807522
32.900000 -21.953125 24.807522
32.575000 -21.109375 24.807522
32.325000 -19.718750 24.807522
32.050000 -18.328125 24.807522
31.800000 -16.703125 24.807522
31.550000 -15.234375 24.807522
31.675000 -14.171875 24.807522
34.050000 -25.812500 24.955112
33.625000 -24.312500 24.955112
33.250000 -22.781250 24.955112
32.925000 -21.343750 24.955112
32.650000 -20.687500 24.955112
32.375000 -18.781250 24.955112
32.125000 -17.906250 24.955112
31.900000 -16.640625 24.955112
33.675000 -24.109375 25.084862
33.325000 -22.500000 25.084862
33.000000 -21.296875 25.084862
32.750000 -20.234375 25.084862
32.450000 -18.500000 25.084862
32.200000 -17.703125 25.084862
31.975000 -15.875000 25.084862
34.025000 -25.250000 25.222156
33.575000 -23.640625 25.222156
33.250000 -22.031250 25.222156
33.000000 -21.234375 25.222156
32.725000 -19.937500 25.222156
32.475000 -18.546875 25.222156
32.200000 -17.093750 25.222156
32.000000 -15.750000 25.222156
33.950000 -24.812500 25.368562
33.575000 -23.562500 25.368562
33.225000 -21.968750 25.368562
32.950000 -20.640625 25.368562
32.700000 -19.484375 25.368562
32.425000 -17.562500 25.368562
32.175000 -16.859375 25.368562
34.200000 -25.593750 25.501580
33.850000 -24.046875 25.501580
33.475000 -22.687500 25.501580
33.150000 -21.265625 25.501580
32.825000 -20.109375 25.501580
32.575000 -18.828125 25.501580
32.300000 -17.375000 25.501580
32.000000 -16.234375 25.501580
34.200000 -26.000000 25.644379
33.825000 -24.421875 25.644379
33.450000 -22.906250 25.644379
33.125000 -21.375000 25.644379
32.825000 -20.546875 25.644379
32.550000 -18.625000 25.644379
32.275000 -17.546875 25.644379
32.000000 -16.203125 25.644379
34.000000 -25.296875 25.783001
33.575000 -24.125000 25.783001
33.225000 -22.312500 25.783001
32.925000 -20.968750 25.783001
32.625000 -20.109375 25.783001
32.400000 -18.281250 25.783001
32.150000 -17.484375 25.783001
31.925000 -15.671875 25.783001
31.875000 -14.328125 25.783001
33.700000 -24.859375 25.926883
33.350000 -23.437500 25.926883
33.025000 -22.015625 25.926883
32.700000 -20.843750 25.926883
32.400000 -19.390625 25.926883
32.100000 -18.031250 25.926883
31.900000 -16.890625 25.926883
33.575000 -24.562500 26.063934
33.225000 -23.218750 26.063934
32.850000 -21.875000 26.063934
32.525000 -20.515625 26.063934
32.225000 -19.546875 26.063934
32.000000 -17.906250 26.063934
31.800000 -17.046875 26.063934
33.700000 -26.234375 26.203325
33.225000 -24.937500 26.203325
32.900000 -23.484375 26.203325
32.575000 -22.312500 26.203325
32.225000 -20.484375 26.203325
31.975000 -19.640625 26.203325
31.675000 -17.937500 26.203325
31.425000 -16.718750 26.203325
33.050000 -26.812500 26.343618
33.050000 -25.296875 26.343618
32.725000 -24.125000 26.343618
32.350000 -22.343750 26.343618
32.025000 -21.203125 26.343618
31.750000 -19.515625 26.343618
31.475000 -18.734375 26.343618
31.250000 -17.062500 26.343618
31.000000 -15.781250 26.343618
32.750000 -25.453125 26.489022
32.375000 -24.562500 26.489022
32.025000 -22.625000 26.489022
31.725000 -21.234375 26.489022
31.425000 -20.421875 26.489022
31.200000 -19.234375 26.489022
30.950000 -17.421875 26.489022
30.700000 -16.031250 26.489022
32.950000 -25.796875 26.624080
32.550000 -24.843750 26.624080
32.200000 -23.359375 26.624080
31.875000 -22.093750 26.624080
31.600000 -20.656250 26.624080
31.350000 -19.468750 26.624080
31.100000 -18.140625 26.624080
30.850000 -16.437500 26.624080
33.325000 -24.953125 26.767226
32.950000 -23.687500 26.767226
32.625000 -22.562500 26.767226
32.300000 -21.250000 26.767226
32.050000 -19.859375 26.767226
31.800000 -18.265625 26.767226
31.525000 -17.140625 26.767226
31.300000 -15.640625 26.767226
33.800000 -24.750000 26.908686
33.425000 -23.406250 26.908686
33.100000 -22.234375 26.908686
32.800000 -20.703125 26.908686
32.475000 -19.468750 26.908686
32.200000 -18.125000 26.908686
32.000000 -16.984375 26.908686
31.825000 -15.421875 26.908686
34.125000 -24.781250 27.051150
33.750000 -23.390625 27.051150
33.450000 -22.046875 27.051150
33.150000 -20.296875 27.051150
32.875000 -19.234375 27.051150
32.600000 -17.765625 27.051150
32.325000 -16.390625 27.051150
34.300000 -24.093750 27.199714
33.900000 -22.250000 27.199714
33.525000 -20.953125 27.199714
33.250000 -19.875000 27.199714
33.025000 -18.125000 27.199714
32.800000 -17.359375 27.199714
32.550000 -15.437500 27.199714
34.700000 -24.390625 27.325126
34.350000 -22.812500 27.325126
34.000000 -22.046875 27.325126
33.675000 -20.109375 27.325126
33.375000 -19.218750 27.325126
33.125000 -17.500000 27.325126
32.875000 -16.359375 27.325126
32.675000 -15.296875 27.325126
32.875000 -13.593750 27.325126
35.150000 -26.687500 27.477722
35.025000 -25.359375 27.477722
34.725000 -23.515625 27.477722
34.350000 -22.000000 27.477722
34.025000 -20.906250 27.477722
33.725000 -19.828125 27.477722
33.450000 -18.203125 27.477722
33.200000 -16.875000 27.477722
32.975000 -15.859375 27.477722
35.025000 -24.421875 27.617397
34.675000 -22.609375 27.617397
34.325000 -21.328125 27.617397
33.975000 -20.125000 27.617397
33.675000 -19.015625 27.617397
33.425000 -17.421875 27.617397
33.200000 -16.375000 27.617397
34.825000 -22.765625 27.744476
34.475000 -21.468750 27.744476
34.175000 -20.062500 27.744476
33.850000 -18.890625 27.744476
33.575000 -17.484375 27.744476
33.325000 -16.078125 27.744476
33.125000 -15.234375 27.744476
34.950000 -23.187500 27.895765
34.625000 -21.765625 27.895765
34.325000 -20.671875 27.895765
34.025000 -18.906250 27.895765
33.725000 -18.078125 27.895765
33.475000 -16.421875 27.895765
33.325000 -14.968750 27.895765
34.800000 -22.421875 28.021206
34.500000 -21.203125 28.021206
34.200000 -19.703125 28.021206
33.900000 -18.468750 28.021206
33.625000 -17.156250 28.021206
33.350000 -15.343750 28.021206
35.300000 -24.000000 28.161223
34.950000 -22.625000 28.161223
34.625000 -21.281250 28.161223
34.300000 -20.359375 28.161223
34.000000 -18.890625 28.161223
33.700000 -17.375000 28.161223
33.450000 -15.937500 28.161223
35.000000 -23.437500 28.307069
34.675000 -21.828125 28.307069
34.350000 -20.250000 28.307069
34.075000 -19.062500 28.307069
33.800000 -17.750000 28.307069
33.550000 -16.390625 28.307069
33.300000 -15.078125 28.307069
35.225000 -24.500000 28.453418
35.000000 -23.359375 28.453418
34.650000 -21.703125 28.453418
34.325000 -20.375000 28.453418
34.050000 -19.281250 28.453418
33.800000 -17.671875 28.453418
33.525000 -16.703125 28.453418
33.300000 -14.984375 28.453418
35.050000 -23.828125 28.579372
34.750000 -22.343750 28.579372
34.375000 -20.843750 28.579372
34.075000 -19.484375 28.579372
33.850000 -18.625000 28.579372
33.575000 -16.750000 28.579372
33.325000 -16.015625 28.579372
35.000000 -24.031250 28.722249
34.650000 -22.218750 28.722249
34.275000 -21.156250 28.722249
33.975000 -19.500000 28.722249
33.725000 -18.656250 28.722249
33.450000 -16.781250 28.722249
33.175000 -15.625000 28.722249
34.775000 -23.765625 28.866593
34.400000 -22.421875 28.866593
34.075000 -20.796875 28.866593
33.775000 -19.734375 28.866593
33.500000 -18.343750 28.866593
33.300000 -17.265625 28.866593
33.100000 -15.906250 28.866593
34.650000 -25.453125 29.001756
34.600000 -24.000000 29.001756
34.225000 -22.171875 29.001756
33.850000 -20.890625 29.001756
33.550000 -19.718750 29.001756
33.300000 -18.796875 29.001756
33.100000 -16.968750 29.001756
32.875000 -15.984375 29.001756
34.475000 -24.968750 29.141446
34.300000 -24.203125 29.141446
33.975000 -22.703125 29.141446
33.650000 -21.500000 29.141446
33.350000 -20.046875 29.141446
33.050000 -18.890625 29.141446
32.825000 -17.546875 29.141446
32.575000 -16.000000 29.141446
34.450000 -25.171875 29.280596
34.000000 -23.843750 29.280596
33.625000 -22.453125 29.280596
33.300000 -21.109375 29.280596
33.000000 -20.125000 29.280596
32.725000 -18.578125 29.280596
32.450000 -17.015625 29.280596
32.225000 -16.171875 29.280596
33.850000 -25.515625 29.426075
33.500000 -23.765625 29.426075
33.175000 -22.859375 29.426075
32.850000 -21.343750 29.426075
32.525000 -19.750000 29.426075
32.250000 -18.843750 29.426075
32.025000 -17.546875 29.426075
31.825000 -15.859375 29.426075
33.375000 -25.375000 29.561972
32.975000 -23.796875 29.561972
32.650000 -22.906250 29.561972
32.300000 -21.484375 29.561972
32.000000 -19.843750 29.561972
31.725000 -18.296875 29.561972
31.500000 -17.703125 29.561972
31.300000 -16.296875 29.561972
32.750000 -26.984375 29.699045
