44.600000 -48.083008 14.034731
45.000000 -47.404297 14.034731
45.400000 -47.100586 14.034731
45.700000 -46.421875 14.034731
46.000000 -45.993164 14.034731
46.400000 -45.439453 14.034731
46.700000 -44.760742 14.034731
47.000000 -44.207031 14.034731
46.700000 -43.778320 14.034731
47.100000 -35.341797 14.034731
47.000000 -34.661621 14.034731
46.900000 -34.231445 14.034731
47.100000 -33.676270 14.034731
47.200000 -32.871094 14.034731
47.300000 -32.315918 14.034731
47.400000 -31.760742 14.034731
47.500000 -31.330566 14.034731
45.900000 -29.234863 14.034731
45.800000 -28.804688 14.034731
45.900000 -27.999512 14.034731
46.000000 -27.444336 14.034731
46.200000 -27.014160 14.034731
46.700000 -26.458984 14.034731
44.800000 -49.079102 14.206606
44.500000 -48.775879 14.206606
44.700000 -48.097656 14.206606
45.100000 -47.669434 14.206606
45.400000 -46.991211 14.206606
45.700000 -46.312988 14.206606
46.100000 -45.759766 14.206606
46.400000 -44.956543 14.206606
46.800000 -44.653320 14.206606
47.100000 -44.100098 14.206606
47.100000 -43.296875 14.206606
47.000000 -35.138184 14.206606
47.000000 -34.585938 14.206606
46.900000 -34.033691 14.206606
47.000000 -33.606445 14.206606
47.200000 -33.054199 14.206606
47.300000 -32.376953 14.206606
47.400000 -31.699707 14.206606
47.600000 -31.397461 14.206606
46.100000 -29.063477 14.206606
45.800000 -28.511230 14.206606
45.900000 -28.083984 14.206606
46.100000 -27.656738 14.206606
46.300000 -26.854492 14.206606
46.700000 -26.427246 14.206606
43.900000 -49.390625 14.378482
44.200000 -48.961426 14.378482
44.500000 -48.282227 14.378482
44.900000 -47.978027 14.378482
45.300000 -47.173828 14.378482
45.600000 -46.744629 14.378482
45.900000 -45.940430 14.378482
46.200000 -45.511230 14.378482
46.500000 -44.832031 14.378482
46.900000 -44.277832 14.378482
47.000000 -34.856445 14.378482
46.900000 -34.177246 14.378482
46.700000 -33.873047 14.378482
46.800000 -33.193848 14.378482
47.100000 -32.514648 14.378482
47.300000 -31.960449 14.378482
47.500000 -31.656250 14.378482
47.400000 -29.752441 14.378482
46.700000 -29.451172 14.378482
46.000000 -28.899902 14.378482
45.900000 -28.473633 14.378482
46.000000 -27.672363 14.378482
46.200000 -27.121094 14.378482
46.500000 -26.569824 14.378482
47.100000 -25.893555 14.378482
44.000000 -49.492676 14.534733
44.300000 -48.814453 14.534733
44.600000 -48.261230 14.534733
45.000000 -47.583008 14.534733
45.300000 -47.154785 14.534733
45.600000 -46.601562 14.534733
46.000000 -45.798340 14.534733
46.300000 -45.370117 14.534733
46.600000 -44.941895 14.534733
47.000000 -44.263672 14.534733
47.000000 -34.726562 14.534733
46.800000 -34.171875 14.534733
46.700000 -33.617188 14.534733
46.800000 -33.062500 14.534733
47.000000 -32.632812 14.534733
47.300000 -31.953125 14.534733
47.600000 -31.273438 14.534733
47.200000 -29.859375 14.534733
46.400000 -29.304688 14.534733
46.100000 -28.750000 14.534733
46.000000 -28.070312 14.534733
46.100000 -27.515625 14.534733
46.300000 -26.960938 14.534733
46.700000 -26.656250 14.534733
47.600000 -25.851562 14.534733
43.900000 -49.689941 14.706865
44.200000 -48.885742 14.706865
44.500000 -48.206543 14.706865
44.900000 -47.902344 14.706865
45.200000 -47.098145 14.706865
45.500000 -46.543945 14.706865
45.800000 -46.114746 14.706865
46.100000 -45.685547 14.706865
46.500000 -45.131348 14.706865
46.900000 -44.327148 14.706865
47.200000 -43.772949 14.706865
47.700000 -43.093750 14.706865
47.000000 -35.067383 14.706865
46.700000 -34.640625 14.706865
46.500000 -33.963867 14.706865
46.400000 -33.412109 14.706865
46.600000 -32.735352 14.706865
46.900000 -32.308594 14.706865
47.300000 -31.631836 14.706865
47.800000 -31.205078 14.706865
46.200000 -28.998047 14.706865
45.900000 -28.321289 14.706865
46.000000 -28.019531 14.706865
46.200000 -27.342773 14.706865
46.500000 -26.666016 14.706865
46.900000 -26.114258 14.706865
43.800000 -49.709473 14.863105
44.100000 -49.281250 14.863105
44.400000 -48.474609 14.863105
44.700000 -47.792969 14.863105
45.100000 -47.486328 14.863105
45.500000 -46.804688 14.863105
45.800000 -46.123047 14.863105
46.100000 -45.566406 14.863105
46.400000 -44.884766 14.863105
46.800000 -44.578125 14.863105
47.100000 -43.896484 14.863105
47.500000 -43.339844 14.863105
47.100000 -34.865234 14.863105
46.700000 -34.558594 14.863105
46.300000 -34.126953 14.863105
46.100000 -33.445312 14.863105
46.200000 -32.888672 14.863105
46.600000 -32.332031 14.863105
47.200000 -31.650391 14.863105
47.800000 -31.218750 14.863105
47.300000 -29.309082 14.863105
46.400000 -29.130859 14.863105
46.200000 -28.577637 14.863105
46.200000 -27.774414 14.863105
46.300000 -27.221191 14.863105
46.500000 -26.667969 14.863105
46.900000 -26.239746 14.863105
43.700000 -49.942871 15.035491
44.100000 -49.389648 15.035491
44.400000 -48.586426 15.035491
44.700000 -48.033203 15.035491
45.100000 -47.479980 15.035491
45.400000 -47.051758 15.035491
45.700000 -46.373535 15.035491
46.000000 -45.945312 15.035491
46.300000 -45.267090 15.035491
46.700000 -44.713867 15.035491
47.000000 -44.035645 15.035491
46.900000 -43.607422 15.035491
47.100000 -35.054688 15.035491
46.700000 -34.625000 15.035491
46.300000 -34.070312 15.035491
46.000000 -33.640625 15.035491
45.900000 -32.960938 15.035491
46.100000 -32.531250 15.035491
46.700000 -31.726562 15.035491
47.500000 -31.421875 15.035491
47.300000 -29.757812 15.035491
46.600000 -29.078125 15.035491
46.200000 -28.523438 15.035491
46.200000 -27.968750 15.035491
46.200000 -27.664062 15.035491
46.300000 -26.734375 15.035491
46.700000 -26.179688 15.035491
47.300000 -25.875000 15.035491
43.900000 -49.603516 15.207414
44.200000 -48.799316 15.207414
44.500000 -48.495117 15.207414
44.900000 -47.815918 15.207414
45.200000 -47.261719 15.207414
45.500000 -46.707520 15.207414
45.800000 -46.278320 15.207414
46.100000 -45.474121 15.207414
46.500000 -44.919922 15.207414
46.900000 -44.490723 15.207414
47.000000 -35.173828 15.207414
46.500000 -34.493164 15.207414
46.100000 -33.937500 15.207414
45.700000 -33.381836 15.207414
45.500000 -32.951172 15.207414
47.500000 -30.478516 15.207414
46.400000 -29.061523 15.207414
46.100000 -28.380859 15.207414
46.100000 -27.700195 15.207414
46.300000 -27.394531 15.207414
46.500000 -26.463867 15.207414
46.900000 -25.908203 15.207414
43.700000 -49.815430 15.363665
44.000000 -49.384277 15.363665
44.300000 -48.703125 15.363665
44.600000 -48.148438 15.363665
45.000000 -47.718750 15.363665
45.300000 -46.914062 15.363665
45.600000 -46.609375 15.363665
45.900000 -45.804688 15.363665
46.300000 -45.375000 15.363665
46.600000 -44.945312 15.363665
47.000000 -44.140625 15.363665
46.900000 -34.960938 15.363665
46.500000 -34.281250 15.363665
46.000000 -33.601562 15.363665
45.700000 -33.171875 15.363665
45.600000 -32.617188 15.363665
46.300000 -30.828125 15.363665
46.700000 -29.172852 15.363665
46.400000 -28.746094 15.363665
46.200000 -28.319336 15.363665
46.200000 -27.517578 15.363665
46.400000 -26.965820 15.363665
46.700000 -26.539062 15.363665
43.900000 -49.717285 15.535537
44.200000 -48.915039 15.535537
44.500000 -48.362793 15.535537
44.900000 -47.810547 15.535537
45.200000 -47.383301 15.535537
45.500000 -46.706055 15.535537
45.800000 -46.278809 15.535537
46.100000 -45.351562 15.535537
46.500000 -45.049316 15.535537
46.900000 -44.497070 15.535537
47.200000 -43.819824 15.535537
47.700000 -43.392578 15.535537
47.300000 -34.978027 15.535537
46.700000 -34.423828 15.535537
46.100000 -33.994629 15.535537
45.800000 -33.440430 15.535537
45.500000 -32.886230 15.535537
46.600000 -29.131836 15.535537
46.300000 -28.327637 15.535537
46.200000 -27.773438 15.535537
46.300000 -27.344238 15.535537
46.500000 -26.790039 15.535537
46.900000 -26.110840 15.535537
47.500000 -25.431641 15.535537
43.700000 -49.973145 15.707410
44.100000 -49.294922 15.707410
44.400000 -48.866699 15.707410
44.700000 -47.938477 15.707410
45.100000 -47.635254 15.707410
45.400000 -46.957031 15.707410
45.700000 -46.528809 15.707410
46.000000 -45.850586 15.707410
46.300000 -45.172363 15.707410
46.700000 -44.744141 15.707410
47.000000 -44.190918 15.707410
46.800000 -43.637695 15.707410
47.000000 -34.640625 15.707410
46.400000 -34.335938 15.707410
46.100000 -33.531250 15.707410
45.900000 -32.976562 15.707410
46.100000 -32.421875 15.707410
46.700000 -31.867188 15.707410
47.500000 -31.187500 15.707410
48.200000 -29.773438 15.707410
46.300000 -28.664062 15.707410
46.200000 -28.234375 15.707410
46.400000 -27.554688 15.707410
46.500000 -27.000000 15.707410
46.800000 -26.195312 15.707410
47.200000 -25.765625 15.707410
43.900000 -49.461914 15.863662
44.200000 -48.910645 15.863662
44.500000 -48.484375 15.863662
44.900000 -47.931641 15.863662
45.200000 -47.128906 15.863662
45.500000 -46.826172 15.863662
45.800000 -46.148438 15.863662
46.100000 -45.470703 15.863662
46.400000 -45.042969 15.863662
46.800000 -44.365234 15.863662
47.100000 -43.687500 15.863662
47.700000 -43.009766 15.863662
47.400000 -34.843750 15.863662
47.000000 -34.541016 15.863662
46.700000 -33.988281 15.863662
46.300000 -33.435547 15.863662
46.300000 -32.632812 15.863662
46.600000 -32.205078 15.863662
47.100000 -31.777344 15.863662
47.700000 -30.974609 15.863662
46.800000 -28.766602 15.863662
46.400000 -28.589844 15.863662
46.400000 -28.038086 15.863662
46.500000 -27.236328 15.863662
46.500000 -26.809570 15.863662
46.900000 -26.007812 15.863662
47.400000 -25.706055 15.863662
43.900000 -49.822266 16.035536
44.200000 -49.144531 16.035536
44.500000 -48.341797 16.035536
44.900000 -48.039062 16.035536
45.200000 -47.361328 16.035536
45.500000 -46.683594 16.035536
45.900000 -46.005859 16.035536
46.200000 -45.453125 16.035536
46.500000 -45.150391 16.035536
46.900000 -44.222656 16.035536
47.300000 -43.919922 16.035536
48.000000 -42.992188 16.035536
47.000000 -34.515625 16.035536
46.800000 -33.835938 16.035536
46.700000 -33.406250 16.035536
46.700000 -32.851562 16.035536
47.000000 -32.171875 16.035536
47.300000 -31.742188 16.035536
47.700000 -30.937500 16.035536
47.500000 -29.273438 16.035536
46.800000 -28.968750 16.035536
46.400000 -28.414062 16.035536
46.400000 -27.734375 16.035536
46.500000 -27.179688 16.035536
46.600000 -26.625000 16.035536
46.900000 -26.070312 16.035536
47.600000 -25.515625 16.035536
43.900000 -49.529297 16.207884
44.200000 -49.226074 16.207884
44.500000 -48.547852 16.207884
44.900000 -47.744629 16.207884
45.200000 -47.316406 16.207884
45.500000 -46.888184 16.207884
45.800000 -46.084961 16.207884
46.100000 -45.656738 16.207884
46.400000 -45.228516 16.207884
46.800000 -44.425293 16.207884
47.100000 -43.997070 16.207884
47.700000 -43.193848 16.207884
47.300000 -34.298340 16.207884
47.000000 -33.992188 16.207884
46.900000 -33.436035 16.207884
47.100000 -32.879883 16.207884
47.100000 -32.198730 16.207884
47.300000 -31.642578 16.207884
47.700000 -31.211426 16.207884
47.500000 -29.292969 16.207884
46.800000 -28.986816 16.207884
46.400000 -28.555664 16.207884
46.400000 -27.999512 16.207884
46.500000 -27.318359 16.207884
46.600000 -26.637207 16.207884
46.900000 -26.206055 16.207884
47.700000 -25.524902 16.207884
43.700000 -49.856445 16.364135
44.000000 -49.428223 16.364135
44.300000 -48.750000 16.364135
44.700000 -47.944824 16.364135
45.100000 -47.764648 16.364135
45.400000 -47.084473 16.364135
45.700000 -46.279297 16.364135
46.000000 -45.974121 16.364135
46.300000 -45.168945 16.364135
46.700000 -44.738770 16.364135
47.000000 -44.183594 16.364135
46.700000 -43.628418 16.364135
47.500000 -34.745605 16.364135
47.300000 -34.190430 16.364135
47.200000 -33.510254 16.364135
47.200000 -32.955078 16.364135
47.300000 -32.274902 16.364135
47.500000 -31.844727 16.364135
47.700000 -31.164551 16.364135
48.000000 -30.859375 16.364135
47.500000 -29.204102 16.364135
46.600000 -28.652344 16.364135
46.400000 -27.850586 16.364135
46.400000 -27.423828 16.364135
46.600000 -26.872070 16.364135
46.800000 -26.445312 16.364135
47.200000 -25.893555 16.364135
43.900000 -49.625977 16.536011
44.200000 -48.822266 16.536011
44.600000 -48.518555 16.536011
45.000000 -47.839844 16.536011
45.300000 -47.161133 16.536011
45.600000 -46.482422 16.536011
45.900000 -46.053711 16.536011
46.200000 -45.625000 16.536011
46.500000 -44.821289 16.536011
46.900000 -44.517578 16.536011
47.400000 -34.417969 16.536011
47.400000 -33.862305 16.536011
47.400000 -33.306641 16.536011
47.400000 -32.750977 16.536011
47.500000 -32.195312 16.536011
47.700000 -31.639648 16.536011
47.900000 -30.958984 16.536011
47.500000 -29.291992 16.536011
46.800000 -28.861328 16.536011
46.400000 -28.305664 16.536011
46.400000 -27.750000 16.536011
46.500000 -27.194336 16.536011
46.700000 -26.388672 16.536011
47.100000 -26.208008 16.536011
43.800000 -49.566895 16.707887
44.100000 -49.013672 16.707887
44.400000 -48.585449 16.707887
44.900000 -48.032227 16.707887
45.200000 -47.479004 16.707887
45.500000 -46.925781 16.707887
45.800000 -46.122559 16.707887
46.100000 -45.819336 16.707887
46.400000 -45.141113 16.707887
46.800000 -44.587891 16.707887
47.100000 -44.034668 16.707887
47.300000 -43.481445 16.707887
47.600000 -34.518555 16.707887
47.400000 -33.966309 16.707887
47.400000 -33.414062 16.707887
47.500000 -32.736816 16.707887
47.600000 -32.309570 16.707887
47.600000 -31.632324 16.707887
47.800000 -31.330078 16.707887
48.100000 -30.527832 16.707887
47.500000 -28.996094 16.707887
46.700000 -28.568848 16.707887
46.400000 -28.016602 16.707887
46.400000 -27.464355 16.707887
46.600000 -27.037109 16.707887
46.900000 -26.359863 16.707887
47.700000 -25.432617 16.707887
43.800000 -49.905273 16.879726
44.100000 -49.351074 16.879726
44.400000 -48.546875 16.879726
44.700000 -47.994141 16.879726
45.100000 -47.441406 16.879726
45.400000 -46.888672 16.879726
45.700000 -46.460938 16.879726
46.000000 -45.908203 16.879726
46.300000 -45.105469 16.879726
46.700000 -44.677734 16.879726
47.000000 -44.000000 16.879726
46.800000 -43.572266 16.879726
47.500000 -33.925781 16.879726
47.500000 -33.623047 16.879726
47.500000 -32.945312 16.879726
47.600000 -32.267578 16.879726
47.800000 -31.839844 16.879726
48.000000 -31.287109 16.879726
48.100000 -30.859375 16.879726
47.500000 -29.205566 16.879726
46.700000 -28.779297 16.879726
46.500000 -27.978027 16.879726
46.400000 -27.676758 16.879726
46.600000 -26.750488 16.879726
46.900000 -26.449219 16.879726
47.500000 -25.647949 16.879726
43.900000 -49.462891 17.036015
44.200000 -48.909180 17.036015
44.500000 -48.605469 17.036015
44.900000 -47.801758 17.036015
45.200000 -47.373047 17.036015
45.500000 -46.694336 17.036015
45.800000 -46.015625 17.036015
46.100000 -45.461914 17.036015
46.500000 -44.908203 17.036015
46.800000 -44.354492 17.036015
47.800000 -34.257812 17.036015
47.600000 -33.828125 17.036015
47.600000 -33.273438 17.036015
47.700000 -32.843750 17.036015
47.800000 -32.289062 17.036015
47.900000 -31.484375 17.036015
48.100000 -31.179688 17.036015
48.200000 -30.500000 17.036015
48.400000 -29.820312 17.036015
48.000000 -29.515625 17.036015
46.900000 -29.085938 17.036015
46.400000 -28.531250 17.036015
46.400000 -27.726562 17.036015
46.600000 -27.171875 17.036015
46.800000 -26.867188 17.036015
47.200000 -26.062500 17.036015
43.800000 -49.607422 17.192262
44.100000 -49.054199 17.192262
44.400000 -48.375977 17.192262
44.800000 -47.822754 17.192262
45.200000 -47.644531 17.192262
45.500000 -46.966309 17.192262
45.800000 -46.163086 17.192262
46.100000 -45.859863 17.192262
46.500000 -45.056641 17.192262
46.800000 -44.753418 17.192262
47.100000 -43.950195 17.192262
47.400000 -43.396973 17.192262
47.900000 -34.383789 17.192262
47.500000 -34.078125 17.192262
47.600000 -33.397461 17.192262
47.700000 -32.841797 17.192262
47.800000 -32.286133 17.192262
47.900000 -31.605469 17.192262
48.000000 -31.049805 17.192262
48.200000 -30.744141 17.192262
47.900000 -29.938477 17.192262
48.200000 -29.507812 17.192262
46.600000 -28.521484 17.192262
46.400000 -27.840820 17.192262
46.500000 -27.410156 17.192262
46.800000 -26.604492 17.192262
47.100000 -26.298828 17.192262
44.100000 -49.336426 17.364098
44.400000 -48.656250 17.364098
44.800000 -48.101074 17.364098
45.200000 -47.545898 17.364098
45.400000 -47.115723 17.364098
45.700000 -46.185547 17.364098
46.000000 -45.880371 17.364098
46.400000 -45.325195 17.364098
46.700000 -44.520020 17.364098
47.100000 -43.839844 17.364098
47.100000 -43.534668 17.364098
47.900000 -34.526855 17.364098
47.500000 -34.096680 17.364098
47.500000 -33.416504 17.364098
47.600000 -32.986328 17.364098
47.800000 -32.056152 17.364098
47.900000 -31.875977 17.364098
48.000000 -31.320801 17.364098
48.100000 -30.640625 17.364098
47.500000 -29.108887 17.364098
46.700000 -28.431641 17.364098
46.400000 -28.129395 17.364098
46.500000 -27.577148 17.364098
46.800000 -27.024902 17.364098
47.100000 -26.222656 17.364098
43.900000 -49.400391 17.535975
44.200000 -48.847656 17.535975
44.500000 -48.419922 17.535975
44.900000 -47.617188 17.535975
45.200000 -47.189453 17.535975
45.600000 -46.636719 17.535975
45.900000 -46.083984 17.535975
46.200000 -45.406250 17.535975
46.500000 -45.103516 17.535975
46.900000 -44.425781 17.535975
48.100000 -34.345703 17.535975
47.600000 -33.666504 17.535975
47.600000 -33.112305 17.535975
47.700000 -32.558105 17.535975
47.800000 -32.003906 17.535975
47.900000 -31.699707 17.535975
48.000000 -31.020508 17.535975
48.200000 -30.341309 17.535975
48.300000 -29.912109 17.535975
47.800000 -29.232910 17.535975
46.900000 -28.803711 17.535975
46.500000 -28.249512 17.535975
46.400000 -27.820312 17.535975
46.600000 -27.266113 17.535975
46.800000 -26.711914 17.535975
47.300000 -26.032715 17.535975
44.000000 -49.535156 17.707884
44.300000 -48.731445 17.707884
44.600000 -48.302734 17.707884
45.000000 -47.749023 17.707884
45.300000 -47.195312 17.707884
45.600000 -46.641602 17.707884
45.900000 -45.962891 17.707884
46.200000 -45.534180 17.707884
46.600000 -44.730469 17.707884
47.000000 -44.426758 17.707884
48.100000 -34.224609 17.707884
47.700000 -33.671875 17.707884
47.700000 -33.119141 17.707884
47.800000 -32.566406 17.707884
47.900000 -32.013672 17.707884
48.000000 -31.335938 17.707884
48.100000 -30.783203 17.707884
48.200000 -30.355469 17.707884
48.400000 -29.927734 17.707884
46.800000 -28.822266 17.707884
46.500000 -28.394531 17.707884
46.500000 -27.716797 17.707884
46.600000 -27.164062 17.707884
46.900000 -26.611328 17.707884
47.600000 -25.808594 17.707884
44.100000 -49.296875 17.880083
44.300000 -48.867188 17.880083
44.700000 -48.312500 17.880083
45.100000 -47.632812 17.880083
45.400000 -47.078125 17.880083
45.700000 -46.398438 17.880083
46.000000 -45.843750 17.880083
46.300000 -45.414062 17.880083
46.700000 -44.734375 17.880083
47.000000 -43.929688 17.880083
46.700000 -43.500000 17.880083
47.900000 -34.195312 17.880083
48.000000 -33.640625 17.880083
47.900000 -33.085938 17.880083
47.800000 -32.281250 17.880083
47.900000 -31.976562 17.880083
48.000000 -31.421875 17.880083
48.100000 -30.745117 17.880083
48.200000 -29.943359 17.880083
48.300000 -29.641602 17.880083
46.600000 -28.663086 17.880083
46.500000 -28.236328 17.880083
46.600000 -27.434570 17.880083
46.800000 -27.132812 17.880083
47.100000 -26.456055 17.880083
43.900000 -49.633789 18.036331
44.200000 -49.206543 18.036331
44.500000 -48.529297 18.036331
44.900000 -47.852051 18.036331
45.200000 -47.424805 18.036331
45.500000 -46.622559 18.036331
45.800000 -46.195312 18.036331
46.100000 -45.643066 18.036331
46.400000 -45.090820 18.036331
46.800000 -44.538574 18.036331
47.100000 -43.986328 18.036331
47.600000 -43.309082 18.036331
48.500000 -34.465820 18.036331
47.800000 -34.037109 18.036331
47.700000 -33.483398 18.036331
47.700000 -32.929688 18.036331
47.800000 -32.125977 18.036331
47.900000 -31.572266 18.036331
48.000000 -31.143555 18.036331
48.200000 -30.714844 18.036331
48.300000 -30.036133 18.036331
48.000000 -29.482422 18.036331
47.100000 -29.053711 18.036331
46.500000 -28.625000 18.036331
46.400000 -27.946289 18.036331
46.500000 -27.392578 18.036331
46.800000 -26.713867 18.036331
47.400000 -26.160156 18.036331
43.800000 -49.835449 18.208207
44.100000 -49.407227 18.208207
44.300000 -48.729004 18.208207
44.600000 -48.175781 18.208207
45.000000 -47.622559 18.208207
45.300000 -47.194336 18.208207
45.600000 -46.641113 18.208207
45.900000 -46.087891 18.208207
46.200000 -45.284668 18.208207
46.500000 -44.731445 18.208207
46.900000 -44.303223 18.208207
48.100000 -34.270020 18.208207
47.700000 -33.844727 18.208207
47.700000 -33.169434 18.208207
47.700000 -32.619141 18.208207
47.800000 -32.193848 18.208207
48.000000 -31.643555 18.208207
48.100000 -31.093262 18.208207
48.200000 -30.417969 18.208207
48.400000 -29.867676 18.208207
46.700000 -28.767090 18.208207
46.400000 -28.216797 18.208207
46.400000 -27.666504 18.208207
46.600000 -27.116211 18.208207
47.000000 -26.440918 18.208207
43.800000 -49.768555 18.380076
44.000000 -49.465332 18.380076
44.300000 -48.662109 18.380076
44.600000 -48.358887 18.380076
45.000000 -47.430664 18.380076
45.300000 -47.252441 18.380076
45.600000 -46.324219 18.380076
46.000000 -45.895996 18.380076
46.300000 -45.092773 18.380076
46.700000 -44.664551 18.380076
47.000000 -44.111328 18.380076
46.500000 -43.683105 18.380076
48.000000 -34.278320 18.380076
47.700000 -33.725098 18.380076
47.700000 -33.171875 18.380076
47.700000 -32.370605 18.380076
47.800000 -31.819336 18.380076
48.000000 -31.518066 18.380076
48.100000 -30.716797 18.380076
48.200000 -30.165527 18.380076
48.500000 -29.614258 18.380076
46.600000 -28.511719 18.380076
46.500000 -28.335449 18.380076
46.500000 -27.659180 18.380076
46.600000 -27.107910 18.380076
47.100000 -26.556641 18.380076
43.700000 -49.896484 18.536333
44.000000 -49.218750 18.536333
44.300000 -48.666016 18.536333
44.600000 -48.363281 18.536333
45.000000 -47.435547 18.536333
45.400000 -47.007812 18.536333
45.700000 -46.580078 18.536333
46.000000 -45.902344 18.536333
46.300000 -45.224609 18.536333
46.700000 -44.671875 18.536333
47.000000 -44.244141 18.536333
46.500000 -43.691406 18.536333
48.000000 -34.278809 18.536333
47.700000 -33.724609 18.536333
47.600000 -32.920410 18.536333
47.700000 -32.366211 18.536333
47.800000 -31.812012 18.536333
48.000000 -31.382812 18.536333
48.100000 -30.703613 18.536333
48.300000 -30.024414 18.536333
48.500000 -29.720215 18.536333
46.600000 -28.861816 18.536333
46.500000 -28.057617 18.536333
46.500000 -27.753418 18.536333
46.700000 -27.074219 18.536333
47.100000 -26.520020 18.536333
44.100000 -49.117188 18.708206
44.400000 -48.687500 18.708206
44.700000 -48.007812 18.708206
45.100000 -47.453125 18.708206
45.400000 -47.023926 18.708206
45.700000 -46.344727 18.708206
46.000000 -45.665527 18.708206
46.400000 -45.111328 18.708206
46.700000 -44.682129 18.708206
47.000000 -44.002930 18.708206
47.000000 -43.573730 18.708206
47.900000 -33.902344 18.708206
47.600000 -33.348145 18.708206
47.600000 -32.793945 18.708206
47.600000 -32.364746 18.708206
47.800000 -31.810547 18.708206
48.000000 -31.381348 18.708206
48.100000 -30.577148 18.708206
48.300000 -30.022949 18.708206
48.100000 -29.468750 18.708206
47.100000 -29.041992 18.708206
46.400000 -28.490234 18.708206
46.400000 -28.063477 18.708206
46.500000 -27.386719 18.708206
46.800000 -26.959961 18.708206
43.900000 -49.467773 18.880082
44.300000 -48.789062 18.880082
44.600000 -48.360352 18.880082
45.000000 -47.806641 18.880082
45.300000 -47.127930 18.880082
45.600000 -46.699219 18.880082
45.900000 -46.145508 18.880082
46.200000 -45.216797 18.880082
46.500000 -44.788086 18.880082
46.900000 -44.109375 18.880082
48.000000 -34.266602 18.880082
47.600000 -33.587402 18.880082
47.600000 -33.158203 18.880082
47.600000 -32.479004 18.880082
47.700000 -32.174805 18.880082
47.900000 -31.370605 18.880082
48.100000 -30.816406 18.880082
48.300000 -30.262207 18.880082
48.400000 -29.833008 18.880082
46.400000 -28.724609 18.880082
46.300000 -28.295410 18.880082
46.400000 -27.866211 18.880082
46.600000 -27.062012 18.880082
47.100000 -26.382812 18.880082
43.900000 -49.427734 19.036332
44.200000 -49.125977 19.036332
44.500000 -48.574219 19.036332
44.900000 -47.772461 19.036332
45.200000 -47.095703 19.036332
45.500000 -46.543945 19.036332
45.800000 -46.242188 19.036332
46.200000 -45.690430 19.036332
46.500000 -44.888672 19.036332
46.900000 -44.336914 19.036332
47.300000 -43.910156 19.036332
48.000000 -43.358398 19.036332
48.000000 -34.267578 19.036332
47.600000 -33.839844 19.036332
47.500000 -33.287109 19.036332
47.500000 -32.859375 19.036332
47.600000 -32.181641 19.036332
47.800000 -31.503906 19.036332
48.000000 -31.076172 19.036332
48.200000 -30.523438 19.036332
48.300000 -30.095703 19.036332
46.400000 -28.990234 19.036332
46.200000 -28.562500 19.036332
46.300000 -27.884766 19.036332
46.600000 -27.457031 19.036332
46.900000 -26.779297 19.036332
43.800000 -49.772461 19.208567
44.100000 -49.347168 19.208567
44.400000 -48.671875 19.208567
44.700000 -48.120117 19.208567
45.100000 -47.443359 19.208567
45.400000 -46.891602 19.208567
45.700000 -46.339844 19.208567
46.000000 -45.788086 19.208567
46.400000 -45.361328 19.208567
46.700000 -44.684570 19.208567
47.100000 -44.007812 19.208567
46.900000 -43.581055 19.208567
47.900000 -34.627930 19.208567
47.600000 -34.076172 19.208567
47.500000 -33.774414 19.208567
47.600000 -32.847656 19.208567
47.500000 -32.545898 19.208567
47.600000 -31.869141 19.208567
47.900000 -31.317383 19.208567
48.100000 -30.640625 19.208567
48.500000 -29.964355 19.208567
46.300000 -29.111816 19.208567
46.200000 -28.685547 19.208567
46.300000 -27.884277 19.208567
46.400000 -27.458008 19.208567
46.600000 -27.031738 19.208567
43.900000 -49.727539 19.364818
44.200000 -49.050781 19.364818
44.500000 -48.499023 19.364818
44.900000 -47.947266 19.364818
45.200000 -47.270508 19.364818
45.500000 -46.718750 19.364818
45.800000 -46.041992 19.364818
46.100000 -45.740234 19.364818
46.400000 -45.063477 19.364818
46.800000 -44.386719 19.364818
47.100000 -43.959961 19.364818
47.700000 -43.158203 19.364818
47.800000 -34.574219 19.364818
47.600000 -34.021484 19.364818
47.500000 -33.468750 19.364818
47.400000 -32.791016 19.364818
47.500000 -32.113281 19.364818
47.700000 -31.685547 19.364818
48.000000 -31.132812 19.364818
48.200000 -30.705078 19.364818
47.900000 -30.027344 19.364818
46.900000 -29.724609 19.364818
46.200000 -29.171875 19.364818
46.100000 -28.369141 19.364818
46.200000 -27.816406 19.364818
46.400000 -27.138672 19.364818
46.900000 -26.585938 19.364818
43.700000 -49.999023 19.536695
44.000000 -49.445312 19.536695
44.300000 -48.766602 19.536695
44.600000 -48.087891 19.536695
45.000000 -47.409180 19.536695
45.400000 -46.855469 19.536695
45.700000 -46.301758 19.536695
46.000000 -45.998047 19.536695
46.400000 -45.194336 19.536695
46.700000 -44.765625 19.536695
47.100000 -44.210938 19.536695
46.700000 -43.656250 19.536695
47.700000 -34.781250 19.536695
47.500000 -34.101562 19.536695
47.500000 -33.671875 19.536695
47.400000 -33.117188 19.536695
47.400000 -32.312500 19.536695
47.500000 -31.882812 19.536695
47.700000 -31.453125 19.536695
48.000000 -30.898438 19.536695
47.900000 -30.343750 19.536695
46.900000 -29.664062 19.536695
46.100000 -29.359375 19.536695
46.000000 -28.804688 19.536695
46.000000 -28.000000 19.536695
46.200000 -27.570312 19.536695
46.600000 -27.140625 19.536695
43.900000 -49.453125 19.708567
44.200000 -48.898438 19.708567
44.500000 -48.593750 19.708567
44.900000 -47.789062 19.708567
45.200000 -47.359375 19.708567
45.500000 -46.679688 19.708567
45.800000 -46.250000 19.708567
46.100000 -45.570312 19.708567
46.500000 -45.140625 19.708567
46.800000 -44.335938 19.708567
47.500000 -34.476562 19.708567
47.300000 -33.796875 19.708567
47.400000 -33.367188 19.708567
47.400000 -32.687500 19.708567
47.500000 -32.134277 19.708567
47.600000 -31.581055 19.708567
47.800000 -30.902832 19.708567
47.900000 -30.349609 19.708567
46.100000 -29.368164 19.708567
46.000000 -28.814941 19.708567
46.000000 -28.386719 19.708567
46.100000 -27.708496 19.708567
46.400000 -27.030273 19.708567
43.700000 -49.949219 19.864779
44.000000 -49.398438 19.864779
44.300000 -48.722656 19.864779
44.600000 -48.421875 19.864779
45.000000 -47.746094 19.864779
45.300000 -47.195312 19.864779
45.600000 -46.519531 19.864779
46.000000 -45.843750 19.864779
46.300000 -45.292969 19.864779
46.700000 -44.867188 19.864779
47.000000 -44.066406 19.864779
47.400000 -34.509766 19.864779
47.300000 -33.832031 19.864779
47.300000 -33.279297 19.864779
47.300000 -32.601562 19.864779
47.400000 -32.048828 19.864779
47.500000 -31.371094 19.864779
47.700000 -31.068359 19.864779
47.300000 -30.390625 19.864779
46.400000 -29.962891 19.864779
46.000000 -29.410156 19.864779
46.000000 -28.982422 19.864779
46.000000 -28.304688 19.864779
46.100000 -27.751953 19.864779
46.300000 -27.199219 19.864779
43.900000 -49.591797 20.036716
44.200000 -49.039062 20.036716
44.600000 -48.236328 20.036716
45.000000 -47.683594 20.036716
45.300000 -47.005859 20.036716
45.600000 -46.453125 20.036716
45.900000 -46.150879 20.036716
46.200000 -45.598633 20.036716
46.500000 -44.796387 20.036716
46.900000 -44.369141 20.036716
47.500000 -34.428711 20.036716
47.300000 -33.876465 20.036716
47.300000 -33.199219 20.036716
47.400000 -32.521973 20.036716
47.400000 -31.969727 20.036716
47.500000 -31.542480 20.036716
47.800000 -30.865234 20.036716
46.200000 -30.010742 20.036716
46.000000 -29.333496 20.036716
45.900000 -29.031250 20.036716
45.900000 -28.230957 20.036716
46.100000 -27.680664 20.036716
46.400000 -27.130371 20.036716
44.000000 -49.587402 20.208569
44.300000 -48.785156 20.208569
44.600000 -48.357910 20.208569
45.000000 -47.805664 20.208569
45.300000 -47.253418 20.208569
45.600000 -46.576172 20.208569
45.900000 -46.148926 20.208569
46.200000 -45.346680 20.208569
46.500000 -45.044434 20.208569
46.900000 -44.117188 20.208569
47.500000 -34.549805 20.208569
47.300000 -33.746582 20.208569
47.300000 -33.193359 20.208569
47.300000 -32.640137 20.208569
47.400000 -32.086914 20.208569
47.500000 -31.533691 20.208569
47.800000 -30.855469 20.208569
46.000000 -29.874023 20.208569
45.900000 -29.570801 20.208569
45.800000 -28.892578 20.208569
45.900000 -28.464355 20.208569
46.000000 -27.911133 20.208569
46.300000 -26.982910 20.208569
43.900000 -49.385742 20.365214
44.200000 -49.082520 20.365214
44.500000 -48.404297 20.365214
45.000000 -47.851074 20.365214
45.300000 -47.172852 20.365214
45.600000 -46.494629 20.365214
45.900000 -46.066406 20.365214
46.200000 -45.388184 20.365214
46.500000 -44.709961 20.365214
46.900000 -44.281738 20.365214
47.400000 -34.535645 20.365214
47.300000 -33.854492 20.365214
47.200000 -33.173340 20.365214
47.300000 -32.742188 20.365214
47.300000 -32.061035 20.365214
47.300000 -31.629883 20.365214
47.700000 -30.948730 20.365214
45.800000 -30.086426 20.365214
45.600000 -29.405273 20.365214
45.700000 -28.849121 20.365214
45.800000 -28.292969 20.365214
46.000000 -27.736816 20.365214
46.300000 -27.055664 20.365214
43.800000 -49.898438 20.537560
44.100000 -49.343750 20.537560
44.400000 -48.789062 20.537560
44.700000 -48.109375 20.537560
45.100000 -47.429688 20.537560
45.400000 -47.000000 20.537560
45.700000 -46.318848 20.537560
46.000000 -45.887695 20.537560
46.400000 -45.206543 20.537560
46.700000 -44.525391 20.537560
47.100000 -43.969238 20.537560
47.100000 -43.538086 20.537560
47.500000 -34.639648 20.537560
47.300000 -33.833496 20.537560
47.100000 -33.277344 20.537560
47.200000 -32.721191 20.537560
47.200000 -32.165039 20.537560
47.200000 -31.858887 20.537560
47.100000 -31.302734 20.537560
46.800000 -30.746582 20.537560
45.200000 -29.634277 20.537560
45.500000 -28.953125 20.537560
45.700000 -28.649414 20.537560
45.700000 -27.845703 20.537560
43.800000 -49.781250 20.709466
44.100000 -49.226562 20.709466
44.500000 -48.546875 20.709466
44.900000 -47.867188 20.709466
45.200000 -47.437500 20.709466
45.500000 -46.757812 20.709466
45.800000 -46.078125 20.709466
46.100000 -45.523438 20.709466
46.500000 -44.843750 20.709466
46.800000 -44.664062 20.709466
47.100000 -43.734375 20.709466
47.600000 -43.429688 20.709466
47.500000 -34.430176 20.709466
47.300000 -33.875977 20.709466
47.200000 -33.321777 20.709466
47.100000 -32.642578 20.709466
47.100000 -32.088379 20.709466
46.900000 -31.909180 20.709466
47.000000 -31.354980 20.709466
45.200000 -29.996582 20.709466
45.200000 -29.567383 20.709466
45.500000 -29.138184 20.709466
45.800000 -28.583984 20.709466
45.800000 -27.779785 20.709466
46.000000 -27.475586 20.709466
44.000000 -49.302734 20.865685
44.300000 -48.875977 20.865685
44.600000 -48.199219 20.865685
45.000000 -47.772461 20.865685
45.300000 -47.345703 20.865685
45.600000 -46.668945 20.865685
45.900000 -45.742188 20.865685
46.200000 -45.440430 20.865685
46.500000 -44.888672 20.865685
46.900000 -44.086914 20.865685
47.600000 -34.927734 20.865685
47.400000 -34.373535 20.865685
47.200000 -33.694336 20.865685
47.200000 -33.140137 20.865685
47.000000 -32.710938 20.865685
47.100000 -32.031738 20.865685
46.900000 -31.352539 20.865685
46.100000 -30.923340 20.865685
45.500000 -30.494141 20.865685
44.900000 -30.189941 20.865685
45.200000 -29.510742 20.865685
45.900000 -28.831543 20.865685
45.900000 -28.277344 20.865685
45.800000 -27.848145 20.865685
46.100000 -27.043945 20.865685
43.800000 -49.749023 21.021927
44.100000 -49.197266 21.021927
44.400000 -48.770508 21.021927
44.700000 -48.093750 21.021927
45.100000 -47.541992 21.021927
45.400000 -46.865234 21.021927
45.700000 -46.313477 21.021927
46.000000 -45.761719 21.021927
46.400000 -45.334961 21.021927
46.800000 -44.533203 21.021927
47.100000 -43.856445 21.021927
47.000000 -43.554688 21.021927
47.500000 -34.601562 21.021927
47.300000 -34.049805 21.021927
47.000000 -33.498047 21.021927
47.000000 -32.821289 21.021927
47.200000 -32.394531 21.021927
46.900000 -31.967773 21.021927
46.800000 -31.541016 21.021927
44.400000 -30.437500 21.021927
44.800000 -29.761719 21.021927
45.200000 -29.210938 21.021927
45.900000 -28.535156 21.021927
45.900000 -28.234375 21.021927
45.900000 -27.558594 21.021927
46.300000 -26.882812 21.021927
43.900000 -49.556641 21.209466
44.200000 -49.128906 21.209466
44.500000 -48.451172 21.209466
44.900000 -47.648438 21.209466
45.200000 -47.095703 21.209466
45.600000 -46.667969 21.209466
45.900000 -46.115234 21.209466
46.200000 -45.437500 21.209466
46.500000 -45.009766 21.209466
46.900000 -44.332031 21.209466
47.600000 -34.929688 21.209466
47.300000 -34.250000 21.209466
47.200000 -33.945312 21.209466
46.900000 -33.265625 21.209466
46.800000 -32.710938 21.209466
46.900000 -32.031250 21.209466
46.700000 -31.601562 21.209466
45.100000 -28.273438 21.209466
45.700000 -28.093750 21.209466
45.900000 -27.289062 21.209466
43.900000 -49.745117 21.365714
44.200000 -48.816406 21.365714
44.500000 -48.387695 21.365714
44.900000 -47.833984 21.365714
45.200000 -47.280273 21.365714
45.500000 -46.726562 21.365714
45.800000 -46.047852 21.365714
46.100000 -45.619141 21.365714
46.400000 -45.190430 21.365714
46.800000 -44.386719 21.365714
47.400000 -35.073242 21.365714
47.300000 -34.517578 21.365714
47.000000 -33.961914 21.365714
46.800000 -33.406250 21.365714
46.800000 -32.725586 21.365714
46.800000 -32.169922 21.365714
46.600000 -31.614258 21.365714
45.000000 -30.627930 21.365714
44.900000 -30.197266 21.365714
45.100000 -28.405273 21.365714
45.700000 -27.849609 21.365714
45.900000 -27.293945 21.365714
43.700000 -49.984863 21.521970
44.000000 -49.432617 21.521970
44.300000 -48.755371 21.521970
44.600000 -48.328125 21.521970
45.000000 -47.774902 21.521970
45.300000 -47.096680 21.521970
45.200000 -46.543457 21.521970
47.400000 -44.205566 21.521970
47.300000 -34.925781 21.521970
47.000000 -34.247559 21.521970
46.900000 -33.694336 21.521970
46.800000 -33.141113 21.521970
46.900000 -32.837891 21.521970
46.900000 -32.159668 21.521970
46.800000 -31.731445 21.521970
45.200000 -29.517578 21.521970
46.100000 -28.713867 21.521970
46.000000 -28.410156 21.521970
45.600000 -27.731445 21.521970
45.800000 -27.052734 21.521970
43.900000 -49.762207 21.709430
44.200000 -48.958008 21.709430
44.500000 -48.403809 21.709430
44.900000 -47.849609 21.709430
45.300000 -47.170410 21.709430
45.600000 -46.491211 21.709430
45.900000 -45.937012 21.709430
46.200000 -45.382812 21.709430
46.500000 -45.078613 21.709430
47.000000 -44.274414 21.709430
47.300000 -34.850098 21.709430
47.000000 -34.169922 21.709430
46.900000 -33.739746 21.709430
46.800000 -33.184570 21.709430
46.800000 -32.629395 21.709430
46.700000 -32.199219 21.709430
46.400000 -31.519043 21.709430
46.100000 -31.088867 21.709430
45.300000 -30.658691 21.709430
44.800000 -30.103516 21.709430
45.000000 -29.548340 21.709430
45.500000 -28.743164 21.709430
45.700000 -28.312988 21.709430
45.500000 -27.882812 21.709430
45.600000 -27.327637 21.709430
43.800000 -49.910156 21.866208
44.200000 -49.106445 21.866208
44.500000 -48.552734 21.866208
44.900000 -47.874023 21.866208
45.200000 -47.320312 21.866208
45.500000 -46.891602 21.866208
45.800000 -46.337891 21.866208
46.100000 -45.659180 21.866208
46.400000 -45.105469 21.866208
46.800000 -44.301758 21.866208
47.100000 -43.998047 21.866208
47.600000 -43.194336 21.866208
47.300000 -35.006836 21.866208
47.000000 -34.702637 21.866208
46.800000 -34.148438 21.866208
46.800000 -33.344238 21.866208
46.800000 -32.915039 21.866208
46.800000 -32.360840 21.866208
44.800000 -30.394043 21.866208
45.100000 -29.464844 21.866208
45.400000 -29.285645 21.866208
45.400000 -28.606445 21.866208
45.400000 -27.802246 21.866208
45.500000 -27.248047 21.866208
46.200000 -26.693848 21.866208
43.700000 -49.931641 22.038082
44.000000 -49.500000 22.038082
44.300000 -48.696289 22.038082
44.600000 -48.392578 22.038082
45.000000 -47.588867 22.038082
45.300000 -47.035156 22.038082
45.600000 -46.606445 22.038082
45.900000 -46.052734 22.038082
46.300000 -45.249023 22.038082
46.700000 -44.695312 22.038082
47.000000 -44.141602 22.038082
47.100000 -34.853516 22.038082
46.900000 -34.174805 22.038082
46.700000 -33.746094 22.038082
46.700000 -33.317383 22.038082
46.800000 -32.388672 22.038082
46.700000 -31.959961 22.038082
46.800000 -31.531250 22.038082
46.300000 -30.979492 22.038082
45.400000 -30.427734 22.038082
45.200000 -29.875977 22.038082
45.200000 -29.324219 22.038082
45.300000 -28.772461 22.038082
45.400000 -28.095703 22.038082
45.500000 -27.793945 22.038082
45.700000 -26.992188 22.038082
43.900000 -49.628906 22.209954
44.200000 -49.201172 22.209954
44.500000 -48.273438 22.209954
44.900000 -47.970703 22.209954
45.200000 -47.167969 22.209954
45.500000 -46.615234 22.209954
45.800000 -46.062500 22.209954
46.100000 -45.509766 22.209954
46.400000 -44.957031 22.209954
46.800000 -44.404297 22.209954
47.100000 -43.726562 22.209954
47.700000 -43.173828 22.209954
47.200000 -35.001953 22.209954
46.900000 -34.572754 22.209954
46.800000 -34.018555 22.209954
46.700000 -33.589355 22.209954
46.800000 -32.785156 22.209954
46.800000 -32.230957 22.209954
46.600000 -31.926758 22.209954
46.900000 -31.247559 22.209954
45.100000 -30.014160 22.209954
45.100000 -29.584961 22.209954
45.200000 -29.030762 22.209954
45.400000 -28.351562 22.209954
45.500000 -27.797363 22.209954
45.600000 -27.493164 22.209954
46.200000 -26.813965 22.209954
43.700000 -49.972656 22.366210
44.000000 -49.418945 22.366210
44.400000 -48.865234 22.366210
44.700000 -48.311523 22.366210
45.100000 -47.507812 22.366210
45.400000 -46.829102 22.366210
45.700000 -46.400391 22.366210
46.000000 -45.596680 22.366210
46.300000 -45.167969 22.366210
46.700000 -44.614258 22.366210
47.000000 -44.310547 22.366210
46.700000 -43.631836 22.366210
47.100000 -35.187500 22.366210
46.800000 -34.507812 22.366210
46.700000 -34.328125 22.366210
46.600000 -33.773438 22.366210
46.600000 -33.093750 22.366210
46.600000 -32.539062 22.366210
46.600000 -31.859375 22.366210
47.200000 -31.304688 22.366210
45.300000 -30.320312 22.366210
45.200000 -29.890625 22.366210
45.200000 -29.460938 22.366210
45.200000 -28.906250 22.366210
45.200000 -28.351562 22.366210
45.500000 -27.671875 22.366210
45.900000 -26.867188 22.366210
43.700000 -49.839844 22.522455
44.000000 -49.287109 22.522455
44.300000 -48.859375 22.522455
44.600000 -48.180664 22.522455
45.000000 -47.626953 22.522455
45.300000 -47.198242 22.522455
45.600000 -46.644531 22.522455
45.900000 -46.090820 22.522455
46.200000 -45.287109 22.522455
46.500000 -44.733398 22.522455
47.000000 -44.179688 22.522455
46.800000 -34.641602 22.522455
46.700000 -34.212891 22.522455
46.700000 -33.659180 22.522455
46.700000 -33.355469 22.522455
46.500000 -32.676758 22.522455
46.400000 -32.123047 22.522455
47.200000 -31.444336 22.522455
45.500000 -30.461914 22.522455
45.300000 -29.908203 22.522455
45.200000 -29.354492 22.522455
45.200000 -28.925781 22.522455
45.200000 -28.247070 22.522455
45.400000 -27.818359 22.522455
45.700000 -27.139648 22.522455
43.900000 -49.536621 22.710179
44.200000 -48.858398 22.710179
44.500000 -48.430176 22.710179
44.900000 -47.626953 22.710179
45.200000 -47.073730 22.710179
45.600000 -46.645508 22.710179
45.900000 -45.967285 22.710179
46.200000 -45.414062 22.710179
46.500000 -44.860840 22.710179
47.000000 -44.307617 22.710179
47.400000 -43.629395 22.710179
48.300000 -43.076172 22.710179
46.800000 -35.146973 22.710179
46.600000 -34.341797 22.710179
46.500000 -33.911621 22.710179
46.600000 -33.481445 22.710179
46.400000 -32.801270 22.710179
46.200000 -31.010742 22.710179
45.800000 -30.580566 22.710179
45.300000 -30.150391 22.710179
45.200000 -29.595215 22.710179
45.200000 -29.165039 22.710179
45.200000 -28.484863 22.710179
45.400000 -28.054688 22.710179
44.000000 -49.269531 22.866431
44.300000 -48.715820 22.866431
44.600000 -48.037109 22.866431
45.000000 -47.733398 22.866431
45.300000 -46.929688 22.866431
45.600000 -46.500977 22.866431
45.900000 -45.822266 22.866431
46.200000 -45.518555 22.866431
46.600000 -44.839844 22.866431
47.000000 -44.036133 22.866431
47.100000 -35.420410 22.866431
46.800000 -34.741211 22.866431
46.700000 -34.437012 22.866431
46.700000 -33.632812 22.866431
46.700000 -33.078613 22.866431
46.400000 -32.774414 22.866431
45.900000 -30.986816 22.866431
45.600000 -30.432617 22.866431
45.400000 -30.003418 22.866431
45.200000 -29.449219 22.866431
45.300000 -28.770020 22.866431
45.300000 -28.215820 22.866431
45.400000 -27.786621 22.866431
45.700000 -27.232422 22.866431
44.000000 -49.398438 23.038306
44.300000 -48.718750 23.038306
44.600000 -48.414551 23.038306
45.000000 -47.735352 23.038306
45.300000 -47.056152 23.038306
45.600000 -46.376953 23.038306
45.900000 -45.697754 23.038306
46.200000 -45.268555 23.038306
46.600000 -44.839355 23.038306
47.000000 -44.160156 23.038306
47.700000 -35.417969 23.038306
46.900000 -34.863770 23.038306
46.600000 -34.434570 23.038306
46.700000 -33.755371 23.038306
46.700000 -32.951172 23.038306
46.600000 -32.646973 23.038306
46.200000 -30.859375 23.038306
45.700000 -30.432129 23.038306
45.400000 -29.879883 23.038306
45.200000 -29.327637 23.038306
45.300000 -28.650391 23.038306
45.300000 -28.473145 23.038306
45.400000 -27.545898 23.038306
43.800000 -49.766602 23.210583
44.100000 -49.337891 23.210583
44.400000 -48.534180 23.210583
44.700000 -48.105469 23.210583
45.100000 -47.301758 23.210583
45.400000 -46.998047 23.210583
45.700000 -46.319336 23.210583
46.100000 -45.765625 23.210583
46.400000 -44.961914 23.210583
46.800000 -44.533203 23.210583
47.100000 -43.854492 23.210583
47.100000 -43.425781 23.210583
47.400000 -35.115723 23.210583
46.900000 -34.685547 23.210583
46.700000 -34.130371 23.210583
46.600000 -33.700195 23.210583
46.700000 -33.020020 23.210583
46.600000 -32.464844 23.210583
46.200000 -30.924316 23.210583
45.600000 -30.494141 23.210583
45.400000 -29.688965 23.210583
45.300000 -29.383789 23.210583
45.300000 -28.578613 23.210583
45.400000 -28.023438 23.210583
45.500000 -27.468262 23.210583
45.900000 -27.038086 23.210583
43.900000 -49.466797 23.366880
44.200000 -49.038574 23.366880
44.500000 -48.485352 23.366880
44.900000 -47.932129 23.366880
45.200000 -47.128906 23.366880
45.500000 -46.575684 23.366880
45.800000 -46.022461 23.366880
46.100000 -45.594238 23.366880
46.500000 -44.916016 23.366880
46.900000 -44.487793 23.366880
47.400000 -43.934570 23.366880
48.100000 -43.131348 23.366880
47.300000 -34.805664 23.366880
46.800000 -34.250488 23.366880
46.700000 -33.820312 23.366880
46.800000 -33.390137 23.366880
46.900000 -32.709961 23.366880
46.900000 -32.154785 23.366880
46.200000 -30.739258 23.366880
45.600000 -30.309082 23.366880
45.500000 -29.378906 23.366880
45.400000 -28.948730 23.366880
45.300000 -28.268555 23.366880
45.400000 -27.838379 23.366880
45.700000 -27.283203 23.366880
46.200000 -26.728027 23.366880
43.800000 -49.624023 23.523130
44.100000 -49.319824 23.523130
44.400000 -48.765625 23.523130
44.700000 -48.212402 23.523130
45.100000 -47.409180 23.523130
45.400000 -46.980957 23.523130
45.700000 -46.302734 23.523130
46.000000 -45.749512 23.523130
46.400000 -45.196289 23.523130
46.800000 -44.643066 23.523130
47.100000 -43.839844 23.523130
47.000000 -43.411621 23.523130
46.900000 -34.435059 23.523130
46.900000 -34.131836 23.523130
46.900000 -33.578613 23.523130
47.000000 -33.025391 23.523130
47.200000 -32.347168 23.523130
47.300000 -31.793945 23.523130
47.300000 -31.240723 23.523130
47.600000 -30.687500 23.523130
45.500000 -29.830078 23.523130
45.300000 -29.151367 23.523130
45.400000 -28.722656 23.523130
45.500000 -28.043945 23.523130
45.500000 -27.365234 23.523130
45.900000 -26.811523 23.523130
43.900000 -49.489746 23.694972
44.200000 -48.811523 23.694972
44.500000 -48.383301 23.694972
44.900000 -48.080078 23.694972
45.200000 -47.526855 23.694972
45.500000 -46.598633 23.694972
45.800000 -46.295410 23.694972
46.100000 -45.492188 23.694972
46.400000 -45.063965 23.694972
46.800000 -44.385742 23.694972
47.100000 -43.832520 23.694972
47.700000 -43.154297 23.694972
47.300000 -34.976562 23.694972
46.900000 -34.296875 23.694972
46.800000 -33.992188 23.694972
47.000000 -33.187500 23.694972
47.100000 -32.882812 23.694972
47.200000 -32.203125 23.694972
47.400000 -31.523438 23.694972
47.400000 -30.968750 23.694972
47.200000 -30.664062 23.694972
45.500000 -29.679688 23.694972
45.500000 -29.125000 23.694972
45.600000 -28.320312 23.694972
45.600000 -28.015625 23.694972
45.700000 -27.335938 23.694972
46.200000 -26.781250 23.694972
43.700000 -49.873047 23.866849
44.000000 -49.445312 23.866849
44.300000 -48.892578 23.866849
44.700000 -48.339844 23.866849
45.100000 -47.662109 23.866849
45.400000 -46.984375 23.866849
45.700000 -46.306641 23.866849
46.000000 -45.628906 23.866849
46.300000 -45.326172 23.866849
46.600000 -44.898438 23.866849
47.000000 -44.095703 23.866849
46.700000 -43.792969 23.866849
47.100000 -34.783203 23.866849
47.000000 -34.102539 23.866849
47.100000 -33.671875 23.866849
47.100000 -32.991211 23.866849
47.300000 -32.310547 23.866849
47.400000 -32.004883 23.866849
45.600000 -29.782227 23.866849
45.600000 -29.226562 23.866849
45.500000 -28.670898 23.866849
45.600000 -28.115234 23.866849
45.800000 -27.684570 23.866849
43.700000 -49.773438 24.023094
44.000000 -49.468750 24.023094
44.300000 -48.789062 24.023094
44.600000 -48.234375 24.023094
45.000000 -47.552734 24.023094
45.400000 -46.871094 24.023094
45.700000 -46.314453 24.023094
46.000000 -45.882812 24.023094
46.300000 -45.451172 24.023094
46.600000 -44.519531 24.023094
47.000000 -44.212891 24.023094
46.700000 -43.531250 24.023094
47.000000 -34.625000 24.023094
47.000000 -34.193359 24.023094
47.100000 -33.636719 24.023094
47.100000 -32.955078 24.023094
47.300000 -32.398438 24.023094
47.400000 -31.716797 24.023094
46.700000 -30.421875 24.023094
45.900000 -29.868652 24.023094
45.600000 -29.065430 24.023094
45.500000 -28.762207 24.023094
45.600000 -28.208984 24.023094
45.800000 -27.530762 24.023094
46.000000 -26.977539 24.023094
46.800000 -26.424316 24.023094
44.000000 -49.476562 24.194967
44.300000 -48.797852 24.194967
44.600000 -48.119141 24.194967
45.000000 -47.440430 24.194967
45.300000 -47.136719 24.194967
45.600000 -46.333008 24.194967
46.000000 -46.029297 24.194967
46.300000 -45.225586 24.194967
46.600000 -44.921875 24.194967
47.000000 -43.993164 24.194967
47.400000 -35.383301 24.194967
47.100000 -34.954102 24.194967
47.100000 -34.024902 24.194967
47.100000 -33.720703 24.194967
47.200000 -33.041504 24.194967
47.400000 -32.487305 24.194967
