32.300000 -17.769531 1.663979
32.100000 -17.043945 1.663979
32.100000 -16.068359 1.663979
32.200000 -15.967773 1.663979
32.500000 -15.117188 1.663979
32.800000 -14.516602 1.663979
33.300000 -14.291016 1.663979
26.500000 -44.761719 1.817978
29.600000 -43.008301 1.817978
29.900000 -42.907227 1.817978
30.200000 -41.556152 1.817978
30.500000 -41.330078 1.817978
30.800000 -40.479004 1.817978
30.900000 -40.377930 1.817978
32.000000 -26.303223 1.817978
31.600000 -25.827148 1.817978
31.300000 -25.351074 1.817978
31.200000 -24.500000 1.817978
31.100000 -23.776855 1.817978
31.100000 -23.428711 1.817978
31.100000 -23.080566 1.817978
33.100000 -19.018555 1.817978
32.500000 -18.295410 1.817978
32.300000 -17.447266 1.817978
32.100000 -17.349121 1.817978
32.100000 -16.625977 1.817978
32.200000 -16.152832 1.817978
32.400000 -14.929688 1.817978
32.600000 -14.956543 1.817978
33.100000 -14.483398 1.817978
26.700000 -44.944824 1.974016
29.500000 -43.544434 1.974016
29.800000 -42.694336 1.974016
30.100000 -42.469238 1.974016
30.400000 -41.119141 1.974016
30.700000 -40.894043 1.974016
31.600000 -26.266602 1.974016
31.300000 -25.791504 1.974016
31.300000 -25.191406 1.974016
31.300000 -23.966309 1.974016
31.300000 -23.491211 1.974016
31.400000 -23.391113 1.974016
31.600000 -22.541016 1.974016
32.100000 -21.815918 1.974016
32.800000 -21.340820 1.974016
33.300000 -20.990723 1.974016
32.900000 -20.140625 1.974016
32.600000 -19.315430 1.974016
32.600000 -18.090332 1.974016
32.300000 -18.115234 1.974016
32.200000 -17.265137 1.974016
32.100000 -16.665039 1.974016
32.200000 -16.189941 1.974016
32.300000 -15.714844 1.974016
32.600000 -15.114746 1.974016
33.100000 -14.639648 1.974016
29.500000 -43.337891 2.128016
29.900000 -42.863281 2.128016
30.100000 -41.763672 2.128016
30.400000 -41.164062 2.128016
30.800000 -40.814453 2.128016
31.900000 -26.523438 2.128016
31.600000 -25.671875 2.128016
31.400000 -25.195312 2.128016
31.400000 -24.343750 2.128016
31.400000 -23.992188 2.128016
31.400000 -23.265625 2.128016
31.600000 -22.664063 2.128016
31.900000 -22.562500 2.128016
32.400000 -22.210938 2.128016
32.900000 -21.734375 2.128016
33.100000 -20.632812 2.128016
32.900000 -18.703125 2.128016
32.500000 -18.351563 2.128016
32.300000 -17.375000 2.128016
32.100000 -17.148438 2.128016
32.100000 -16.671875 2.128016
32.200000 -16.195312 2.128016
32.300000 -15.093750 2.128016
32.600000 -14.497070 2.128016
33.100000 -14.025391 2.128016
29.600000 -43.398438 2.276119
29.900000 -42.796875 2.276119
30.200000 -41.570313 2.276119
30.500000 -41.218750 2.276119
30.800000 -40.867188 2.276119
31.000000 -40.265625 2.276119
32.000000 -26.804688 2.276119
31.600000 -25.953125 2.276119
31.500000 -25.226562 2.276119
31.500000 -25.000000 2.276119
31.600000 -23.773438 2.276119
31.700000 -23.546875 2.276119
31.800000 -22.820312 2.276119
32.100000 -22.468750 2.276119
32.500000 -22.117188 2.276119
33.000000 -21.140625 2.276119
33.100000 -20.789062 2.276119
32.800000 -18.859375 2.276119
32.400000 -18.507813 2.276119
32.200000 -17.281250 2.276119
32.000000 -16.929688 2.276119
32.000000 -15.953125 2.276119
32.200000 -15.726563 2.276119
32.400000 -15.250000 2.276119
26.700000 -44.863281 2.433149
29.500000 -43.203125 2.433149
29.800000 -42.350586 2.433149
30.100000 -42.498047 2.433149
30.400000 -41.645508 2.433149
30.700000 -41.417969 2.433149
31.700000 -25.729492 2.433149
31.600000 -25.376953 2.433149
31.600000 -24.774414 2.433149
31.600000 -23.796875 2.433149
31.700000 -23.323730 2.433149
31.900000 -22.975586 2.433149
32.100000 -22.877441 2.433149
32.500000 -22.154297 2.433149
32.900000 -21.306152 2.433149
33.100000 -20.583008 2.433149
32.900000 -19.288574 2.433149
32.500000 -18.565430 2.433149
32.200000 -17.842285 2.433149
32.000000 -17.369141 2.433149
32.000000 -16.395996 2.433149
32.100000 -16.172852 2.433149
32.300000 -15.574707 2.433149
32.600000 -14.851562 2.433149
33.100000 -14.003418 2.433149
29.700000 -42.941406 2.588151
30.000000 -42.339355 2.588151
30.300000 -41.987305 2.588151
30.600000 -40.885254 2.588151
30.900000 -40.533203 2.588151
31.300000 -39.806152 2.588151
32.000000 -25.968750 2.588151
31.600000 -25.367188 2.588151
31.600000 -25.390625 2.588151
31.700000 -24.289062 2.588151
31.800000 -24.062500 2.588151
32.000000 -23.085938 2.588151
32.200000 -22.984375 2.588151
32.400000 -22.007812 2.588151
32.800000 -21.906250 2.588151
33.100000 -20.804688 2.588151
33.000000 -19.125000 2.588151
32.600000 -18.774902 2.588151
32.200000 -18.174805 2.588151
32.000000 -17.324707 2.588151
31.900000 -16.474609 2.588151
32.000000 -15.999512 2.588151
32.200000 -15.649414 2.588151
32.500000 -15.049316 2.588151
32.900000 -14.824219 2.588151
29.700000 -42.562500 2.735151
30.000000 -42.462891 2.735151
30.300000 -41.238281 2.735151
30.600000 -41.138672 2.735151
31.000000 -40.289062 2.735151
31.300000 -39.689453 2.735151
32.000000 -26.753418 2.735151
31.600000 -26.029297 2.735151
31.600000 -25.180176 2.735151
31.600000 -25.206055 2.735151
31.700000 -24.731934 2.735151
31.900000 -24.257812 2.735151
32.100000 -23.533691 2.735151
32.200000 -22.559570 2.735151
32.500000 -22.460449 2.735151
32.800000 -21.861328 2.735151
33.100000 -20.887207 2.735151
32.900000 -19.464844 2.735151
32.500000 -18.865723 2.735151
32.100000 -17.766602 2.735151
32.000000 -17.292480 2.735151
31.900000 -16.943359 2.735151
32.000000 -15.844238 2.735151
32.200000 -15.370117 2.735151
32.400000 -15.145996 2.735151
33.000000 -14.421875 2.735151
29.500000 -42.729980 2.891154
29.800000 -42.128906 2.891154
30.000000 -42.402832 2.891154
30.400000 -41.676758 2.891154
30.700000 -40.700684 2.891154
32.000000 -27.155762 2.891154
31.700000 -26.306641 2.891154
31.600000 -25.832520 2.891154
31.600000 -24.608398 2.891154
31.800000 -24.509277 2.891154
31.900000 -23.660156 2.891154
32.100000 -23.561035 2.891154
32.400000 -22.961914 2.891154
32.600000 -21.987793 2.891154
32.800000 -21.513672 2.891154
33.000000 -20.914551 2.891154
32.800000 -18.742188 2.891154
32.300000 -18.393066 2.891154
32.000000 -17.543945 2.891154
31.900000 -17.069824 2.891154
31.900000 -16.595703 2.891154
32.000000 -16.121582 2.891154
32.200000 -15.647461 2.891154
29.600000 -43.397461 3.047122
29.900000 -42.296875 3.047122
30.200000 -41.944824 3.047122
30.500000 -41.092773 3.047122
30.800000 -40.865723 3.047122
30.900000 -40.513672 3.047122
32.200000 -27.143555 3.047122
31.900000 -26.791504 3.047122
31.600000 -25.939453 3.047122
31.600000 -25.337402 3.047122
31.800000 -24.610352 3.047122
31.900000 -24.508301 3.047122
32.100000 -23.531250 3.047122
32.300000 -22.807129 3.047122
32.500000 -22.708008 3.047122
32.700000 -21.983887 3.047122
32.900000 -21.259766 3.047122
33.100000 -20.535645 3.047122
33.100000 -20.061523 3.047122
33.300000 -19.462402 3.047122
32.100000 -18.389160 3.047122
31.800000 -17.290039 3.047122
31.800000 -17.065918 3.047122
31.900000 -16.466797 3.047122
32.000000 -15.617676 3.047122
32.300000 -15.518555 3.047122
32.700000 -14.919434 3.047122
26.900000 -43.945312 3.201151
29.700000 -42.789062 3.201151
30.000000 -42.312500 3.201151
30.300000 -41.710938 3.201151
30.600000 -41.484375 3.201151
30.900000 -40.507812 3.201151
31.300000 -40.406250 3.201151
32.000000 -26.158203 3.201151
31.600000 -25.679688 3.201151
31.600000 -24.701172 3.201151
31.800000 -24.222656 3.201151
32.000000 -23.744141 3.201151
32.200000 -23.390625 3.201151
32.300000 -22.412109 3.201151
32.600000 -22.308594 3.201151
32.900000 -21.830078 3.201151
33.000000 -20.976562 3.201151
32.800000 -18.791016 3.201151
32.200000 -18.562500 3.201151
31.800000 -18.085938 3.201151
31.800000 -17.484375 3.201151
31.700000 -16.382813 3.201151
31.800000 -15.656250 3.201151
32.100000 -15.554688 3.201151
29.600000 -42.906250 3.350150
29.900000 -42.554688 3.350150
30.200000 -41.953125 3.350150
30.500000 -41.476563 3.350150
30.800000 -41.250000 3.350150
30.900000 -40.398437 3.350150
31.900000 -26.312500 3.350150
31.700000 -26.210938 3.350150
31.700000 -25.109375 3.350150
31.800000 -24.382813 3.350150
31.900000 -24.031250 3.350150
32.100000 -23.429688 3.350150
32.300000 -23.328125 3.350150
32.500000 -22.101562 3.350150
32.700000 -22.125000 3.350150
32.900000 -21.648438 3.350150
32.800000 -19.218750 3.350150
32.300000 -18.617188 3.350150
31.800000 -18.390625 3.350150
31.700000 -17.539062 3.350150
31.700000 -16.687500 3.350150
31.700000 -16.335938 3.350150
31.900000 -15.859375 3.350150
32.200000 -14.882813 3.350150
32.700000 -14.406250 3.350150
29.500000 -43.040039 3.504149
29.800000 -42.185547 3.504149
30.000000 -42.581055 3.504149
30.400000 -41.976562 3.504149
30.700000 -40.872070 3.504149
32.200000 -27.093750 3.504149
32.100000 -26.368164 3.504149
31.700000 -25.767578 3.504149
31.600000 -25.541992 3.504149
31.600000 -24.941406 3.504149
31.800000 -24.340820 3.504149
32.000000 -24.115234 3.504149
32.200000 -23.514648 3.504149
32.400000 -22.914062 3.504149
32.600000 -22.438477 3.504149
32.800000 -21.587891 3.504149
33.000000 -21.237305 3.504149
33.000000 -20.011719 3.504149
33.200000 -19.786133 3.504149
31.800000 -17.959961 3.504149
31.600000 -17.859375 3.504149
31.600000 -17.133789 3.504149
31.700000 -16.533203 3.504149
31.800000 -16.182617 3.504149
32.000000 -15.082031 3.504149
32.400000 -15.106445 3.504149
26.600000 -44.710938 3.660147
26.900000 -44.360352 3.660147
29.600000 -42.458008 3.660147
29.900000 -42.232422 3.660147
30.200000 -42.131836 3.660147
30.500000 -40.906250 3.660147
30.800000 -40.929688 3.660147
31.100000 -40.078125 3.660147
31.700000 -25.640625 3.660147
31.700000 -25.164062 3.660147
31.700000 -24.437500 3.660147
31.900000 -23.835938 3.660147
32.100000 -23.359375 3.660147
32.300000 -22.632812 3.660147
32.500000 -22.156250 3.660147
32.700000 -22.183594 3.660147
32.900000 -21.335937 3.660147
32.600000 -19.417969 3.660147
32.000000 -18.945312 3.660147
31.600000 -17.847656 3.660147
31.500000 -17.000000 3.660147
31.600000 -17.027344 3.660147
31.700000 -16.554688 3.660147
31.900000 -15.707031 3.660147
32.200000 -15.234375 3.660147
32.600000 -14.761719 3.660147
26.600000 -44.890625 3.817145
29.600000 -43.017578 3.817145
30.000000 -42.167969 3.817145
30.200000 -41.818359 3.817145
30.500000 -41.218750 3.817145
30.900000 -40.744141 3.817145
31.200000 -40.269531 3.817145
31.900000 -26.078613 3.817145
31.600000 -25.602539 3.817145
31.600000 -25.126465 3.817145
31.700000 -24.275391 3.817145
31.900000 -24.049316 3.817145
32.000000 -23.823242 3.817145
32.200000 -22.722168 3.817145
32.500000 -21.996094 3.817145
32.700000 -21.770020 3.817145
32.900000 -21.168945 3.817145
31.800000 -18.889648 3.817145
31.500000 -17.788574 3.817145
31.500000 -17.437500 3.817145
31.500000 -16.588379 3.817145
31.600000 -16.239258 3.817145
31.800000 -15.265137 3.817145
26.500000 -44.877441 3.963149
29.500000 -43.126953 3.963149
29.800000 -43.026855 3.963149
30.000000 -41.801758 3.963149
30.300000 -41.326660 3.963149
30.700000 -41.101562 3.963149
31.000000 -40.251465 3.963149
31.300000 -39.651367 3.963149
32.200000 -27.799316 3.963149
32.000000 -25.974121 3.963149
31.600000 -25.874023 3.963149
31.600000 -25.273926 3.963149
31.700000 -24.673828 3.963149
31.800000 -23.448730 3.963149
32.100000 -23.098633 3.963149
32.300000 -22.623535 3.963149
32.600000 -22.148438 3.963149
32.800000 -21.798340 3.963149
32.900000 -21.198242 3.963149
33.000000 -20.723145 3.963149
32.700000 -19.623047 3.963149
31.900000 -18.772949 3.963149
31.500000 -18.422852 3.963149
31.400000 -18.072754 3.963149
31.400000 -17.097656 3.963149
31.400000 -16.622559 3.963149
31.600000 -15.522461 3.963149
31.800000 -15.672363 3.963149
32.300000 -14.947266 3.963149
29.700000 -42.835938 4.120152
30.000000 -41.982422 4.120152
30.300000 -41.503906 4.120152
30.700000 -40.421875 4.120152
31.300000 -39.943359 4.120152
32.200000 -27.269531 4.120152
32.000000 -26.187500 4.120152
31.600000 -25.838379 4.120152
31.600000 -24.739258 4.120152
31.600000 -24.140137 4.120152
31.800000 -23.916016 4.120152
32.000000 -22.941895 4.120152
32.200000 -22.842773 4.120152
32.500000 -22.118652 4.120152
32.700000 -21.394531 4.120152
32.700000 -20.920410 4.120152
32.900000 -20.071289 4.120152
31.700000 -19.248047 4.120152
31.400000 -18.148926 4.120152
31.400000 -17.924805 4.120152
31.400000 -16.825684 4.120152
31.400000 -16.226562 4.120152
31.500000 -16.252441 4.120152
31.800000 -15.778320 4.120152
32.200000 -15.054199 4.120152
29.500000 -43.190430 4.274152
29.900000 -42.589844 4.274152
30.100000 -42.239258 4.274152
30.400000 -41.638672 4.274152
30.800000 -40.913086 4.274152
31.600000 -26.089844 4.274152
31.600000 -25.486816 4.274152
31.600000 -24.883789 4.274152
31.600000 -23.780762 4.274152
31.800000 -23.552734 4.274152
31.900000 -23.199707 4.274152
32.200000 -22.721680 4.274152
32.500000 -21.618652 4.274152
32.700000 -21.140625 4.274152
32.700000 -20.540039 4.274152
32.700000 -19.939453 4.274152
31.400000 -18.738281 4.274152
31.300000 -18.012695 4.274152
31.200000 -17.662109 4.274152
31.200000 -17.061523 4.274152
31.400000 -16.585937 4.274152
31.600000 -15.360352 4.274152
26.900000 -44.828613 4.430149
29.700000 -42.420410 4.430149
30.000000 -42.318359 4.430149
30.300000 -41.591309 4.430149
30.600000 -41.239258 4.430149
30.900000 -40.512207 4.430149
31.300000 -40.410156 4.430149
32.100000 -27.267090 4.430149
32.000000 -27.165039 4.430149
31.700000 -26.187988 4.430149
31.600000 -25.710938 4.430149
31.500000 -24.608887 4.430149
31.500000 -24.631836 4.430149
31.600000 -23.529785 4.430149
31.800000 -23.052734 4.430149
32.000000 -22.950684 4.430149
32.300000 -22.473633 4.430149
32.500000 -21.871582 4.430149
32.500000 -21.144531 4.430149
32.700000 -20.292480 4.430149
31.500000 -18.838379 4.430149
31.200000 -18.111328 4.430149
31.200000 -17.509277 4.430149
31.200000 -16.907227 4.430149
31.200000 -16.555176 4.430149
31.400000 -16.328125 4.430149
31.600000 -15.606934 4.430149
32.000000 -15.010742 4.430149
29.500000 -43.020508 4.577147
29.800000 -42.794434 4.577147
30.100000 -42.068359 4.577147
30.400000 -41.592285 4.577147
30.700000 -41.241211 4.577147
31.900000 -26.937500 4.577147
31.600000 -26.085938 4.577147
31.500000 -25.734375 4.577147
31.500000 -25.132813 4.577147
31.500000 -24.031250 4.577147
31.600000 -23.304688 4.577147
31.800000 -22.828125 4.577147
32.100000 -22.726562 4.577147
32.300000 -22.125000 4.577147
32.500000 -21.523438 4.577147
32.600000 -20.421875 4.577147
32.200000 -20.320312 4.577147
31.600000 -19.718750 4.577147
31.200000 -18.367188 4.577147
31.100000 -18.390625 4.577147
31.200000 -17.789062 4.577147
31.200000 -16.937500 4.577147
31.200000 -16.210938 4.577147
31.400000 -15.609375 4.577147
29.500000 -43.184570 4.733149
29.900000 -42.706543 4.733149
30.100000 -42.103516 4.733149
30.400000 -41.500488 4.733149
30.800000 -41.147461 4.733149
31.700000 -26.799805 4.733149
31.500000 -25.821777 4.733149
31.400000 -25.093750 4.733149
31.400000 -24.369141 4.733149
31.500000 -23.769531 4.733149
31.600000 -23.544922 4.733149
31.800000 -22.570312 4.733149
32.000000 -22.595703 4.733149
32.300000 -21.996094 4.733149
32.400000 -21.271484 4.733149
32.400000 -20.546875 4.733149
31.900000 -19.947266 4.733149
31.300000 -18.972656 4.733149
31.000000 -18.123047 4.733149
31.000000 -17.773438 4.733149
31.000000 -16.923828 4.733149
31.000000 -16.949219 4.733149
31.200000 -15.849609 4.733149
31.400000 -15.750000 4.733149
29.700000 -42.325195 4.888150
30.000000 -42.474121 4.888150
30.300000 -41.373047 4.888150
30.600000 -41.396973 4.888150
30.900000 -40.920898 4.888150
31.300000 -39.944824 4.888150
31.400000 -26.120117 4.888150
31.300000 -25.519043 4.888150
31.300000 -25.042969 4.888150
31.300000 -24.691895 4.888150
31.400000 -23.840820 4.888150
31.600000 -22.989746 4.888150
31.800000 -22.388672 4.888150
32.000000 -21.912598 4.888150
32.100000 -21.811523 4.888150
32.300000 -21.085449 4.888150
32.000000 -19.984375 4.888150
31.400000 -19.634277 4.888150
31.100000 -19.409180 4.888150
31.000000 -18.059082 4.888150
30.900000 -17.458984 4.888150
31.000000 -16.858887 4.888150
31.000000 -16.508789 4.888150
31.200000 -15.783691 4.888150
31.400000 -15.558594 4.888150
31.800000 -14.833496 4.888150
29.500000 -43.447266 5.044149
29.800000 -42.972656 5.044149
30.100000 -41.623047 5.044149
30.400000 -41.773438 5.044149
30.700000 -41.423828 5.044149
31.800000 -27.234375 5.044149
31.500000 -26.882812 5.044149
31.300000 -25.781250 5.044149
31.300000 -25.554687 5.044149
31.300000 -25.203125 5.044149
31.400000 -24.476562 5.044149
31.400000 -23.750000 5.044149
31.600000 -23.523438 5.044149
31.800000 -22.421875 5.044149
31.900000 -21.820312 5.044149
32.200000 -21.718750 5.044149
32.200000 -20.867188 5.044149
31.500000 -19.765625 5.044149
31.100000 -19.289062 5.044149
30.900000 -18.437500 5.044149
30.900000 -18.085937 5.044149
30.900000 -17.609375 5.044149
30.900000 -16.882813 5.044149
31.000000 -16.031250 5.044149
31.200000 -16.054688 5.044149
26.900000 -44.839844 5.192147
29.600000 -42.949219 5.192147
29.900000 -42.601562 5.192147
30.200000 -41.378906 5.192147
30.500000 -41.281250 5.192147
30.800000 -40.808594 5.192147
31.000000 -40.585938 5.192147
31.700000 -26.820312 5.192147
31.300000 -25.593750 5.192147
31.200000 -24.992188 5.192147
31.200000 -25.015625 5.192147
31.300000 -24.039062 5.192147
31.400000 -23.187500 5.192147
31.600000 -22.960938 5.192147
31.700000 -22.109375 5.192147
31.900000 -21.507812 5.192147
32.100000 -21.406250 5.192147
31.800000 -20.429688 5.192147
31.300000 -19.828125 5.192147
31.000000 -19.101562 5.192147
30.800000 -18.500000 5.192147
30.800000 -17.648437 5.192147
30.900000 -17.671875 5.192147
30.900000 -16.445313 5.192147
31.100000 -16.593750 5.192147
31.300000 -15.742187 5.192147
31.600000 -15.015625 5.192147
26.500000 -44.634766 5.347150
29.600000 -43.009277 5.347150
29.900000 -42.284180 5.347150
30.200000 -41.934082 5.347150
30.500000 -41.333984 5.347150
30.800000 -40.733887 5.347150
30.900000 -40.383789 5.347150
31.800000 -26.931641 5.347150
31.500000 -26.831543 5.347150
31.300000 -25.606445 5.347150
31.200000 -24.881348 5.347150
31.300000 -24.656250 5.347150
31.300000 -23.807617 5.347150
31.400000 -23.083984 5.347150
31.600000 -23.110352 5.347150
31.700000 -22.386719 5.347150
31.800000 -22.038086 5.347150
31.800000 -21.189453 5.347150
31.600000 -20.215820 5.347150
31.200000 -19.492188 5.347150
30.900000 -19.268555 5.347150
30.800000 -18.669922 5.347150
30.800000 -17.696289 5.347150
30.800000 -17.722656 5.347150
30.900000 -16.874023 5.347150
31.000000 -16.150391 5.347150
31.200000 -15.301758 5.347150
27.000000 -44.282227 5.502150
29.700000 -42.881836 5.502150
30.000000 -41.906738 5.502150
30.300000 -41.931641 5.502150
30.600000 -41.331543 5.502150
30.900000 -40.356445 5.502150
31.300000 -40.256348 5.502150
31.400000 -26.557617 5.502150
31.300000 -25.456543 5.502150
31.300000 -24.605469 5.502150
31.300000 -24.504395 5.502150
31.400000 -23.903320 5.502150
31.500000 -23.427246 5.502150
31.600000 -22.576172 5.502150
31.600000 -22.225098 5.502150
31.700000 -21.749023 5.502150
31.700000 -20.897949 5.502150
31.400000 -20.296875 5.502150
31.100000 -19.447266 5.502150
30.900000 -18.847656 5.502150
30.800000 -18.123047 5.502150
30.800000 -17.273438 5.502150
30.900000 -16.923828 5.502150
31.000000 -16.574219 5.502150
31.100000 -16.349609 5.502150
31.300000 -15.500000 5.502150
31.700000 -14.650391 5.502150
29.500000 -42.656250 5.660150
29.800000 -42.554688 5.660150
30.100000 -42.203125 5.660150
30.400000 -41.851562 5.660150
30.700000 -40.875000 5.660150
31.700000 -26.208008 5.660150
31.300000 -26.357910 5.660150
31.200000 -25.382812 5.660150
31.300000 -24.532715 5.660150
31.300000 -24.182617 5.660150
31.400000 -23.957520 5.660150
31.500000 -23.232422 5.660150
31.600000 -22.632324 5.660150
31.600000 -21.657227 5.660150
31.600000 -21.307129 5.660150
31.600000 -20.207031 5.660150
31.300000 -20.106934 5.660150
30.900000 -19.381836 5.660150
30.700000 -18.906738 5.660150
30.600000 -18.431641 5.660150
30.700000 -17.581543 5.660150
30.900000 -16.606445 5.660150
31.000000 -16.381348 5.660150
31.100000 -15.906250 5.660150
31.400000 -15.062012 5.660150
31.800000 -14.467773 5.660150
26.400000 -44.932129 5.805150
26.900000 -44.354980 5.805150
29.700000 -42.575684 5.805150
30.000000 -42.349609 5.805150
30.300000 -42.123535 5.805150
30.600000 -41.272461 5.805150
30.900000 -40.796387 5.805150
31.300000 -40.195312 5.805150
31.400000 -26.499023 5.805150
31.300000 -25.273438 5.805150
31.300000 -25.047852 5.805150
31.300000 -24.572266 5.805150
31.400000 -24.096680 5.805150
31.500000 -23.496094 5.805150
31.600000 -22.770508 5.805150
31.600000 -22.169922 5.805150
31.500000 -21.319336 5.805150
31.600000 -21.218750 5.805150
31.500000 -20.243164 5.805150
31.000000 -19.642578 5.805150
30.600000 -18.666992 5.805150
30.400000 -18.066406 5.805150
30.600000 -17.715820 5.805150
30.900000 -16.990234 5.805150
30.900000 -16.764648 5.805150
31.000000 -15.664062 5.805150
31.200000 -15.813477 5.805150
31.500000 -14.587891 5.805150
26.500000 -44.513672 5.964150
29.600000 -42.882812 5.964150
29.900000 -42.656250 5.964150
30.200000 -41.804688 5.964150
30.500000 -41.703125 5.964150
30.800000 -40.476562 5.964150
30.900000 -40.625000 5.964150
31.800000 -26.164063 5.964150
31.400000 -25.687500 5.964150
31.300000 -24.841309 5.964150
31.300000 -24.620117 5.964150
31.300000 -24.273926 5.964150
31.400000 -23.052734 5.964150
31.500000 -22.706543 5.964150
31.600000 -22.235352 5.964150
31.500000 -21.389160 5.964150
31.300000 -20.667969 5.964150
31.600000 -20.946777 5.964150
30.500000 -18.754395 5.964150
30.300000 -18.158203 5.964150
30.400000 -18.062012 5.964150
30.600000 -17.090820 5.964150
30.900000 -16.994629 5.964150
31.000000 -16.648438 5.964150
31.100000 -16.052246 5.964150
29.600000 -43.161621 6.116149
29.900000 -42.060547 6.116149
30.200000 -41.709473 6.116149
30.500000 -41.358398 6.116149
30.900000 -40.757324 6.116149
31.200000 -39.906250 6.116149
31.800000 -26.320312 6.116149
31.400000 -25.843750 6.116149
31.300000 -24.867188 6.116149
31.300000 -24.890625 6.116149
31.300000 -24.164062 6.116149
31.400000 -23.062500 6.116149
31.500000 -22.585937 6.116149
31.600000 -21.984375 6.116149
31.400000 -21.382812 6.116149
31.400000 -20.781250 6.116149
31.600000 -20.431641 6.116149
30.200000 -18.607422 6.116149
30.100000 -18.257813 6.116149
30.500000 -16.583984 6.116149
31.000000 -15.859375 6.116149
31.100000 -15.884766 6.116149
31.400000 -14.785156 6.116149
26.700000 -44.966797 6.271152
29.700000 -42.963867 6.271152
30.000000 -41.988281 6.271152
30.300000 -41.762695 6.271152
30.600000 -40.787109 6.271152
30.900000 -40.436523 6.271152
31.300000 -39.835938 6.271152
31.500000 -25.875488 6.271152
31.300000 -25.148438 6.271152
31.400000 -24.796387 6.271152
31.400000 -24.444336 6.271152
31.300000 -23.467285 6.271152
31.400000 -23.115234 6.271152
31.500000 -22.638184 6.271152
31.500000 -21.786133 6.271152
31.400000 -20.354980 6.271152
30.000000 -18.150879 6.271152
31.000000 -15.515625 6.271152
31.100000 -15.292969 6.271152
31.500000 -14.820312 6.271152
26.700000 -44.933594 6.421149
29.700000 -42.435547 6.421149
30.000000 -42.210938 6.421149
30.300000 -41.861328 6.421149
30.600000 -40.886719 6.421149
30.900000 -40.537109 6.421149
31.300000 -40.312500 6.421149
31.600000 -25.747559 6.421149
31.400000 -25.394531 6.421149
31.300000 -24.541504 6.421149
31.300000 -24.688477 6.421149
31.300000 -23.835449 6.421149
31.400000 -22.857422 6.421149
31.500000 -22.629395 6.421149
31.500000 -22.276367 6.421149
31.100000 -19.717285 6.421149
30.300000 -18.158203 6.421149
31.000000 -15.996094 6.421149
31.100000 -15.143066 6.421149
31.500000 -14.540039 6.421149
26.400000 -44.756348 6.574149
26.900000 -44.929199 6.574149
29.700000 -42.773438 6.574149
30.000000 -42.296875 6.574149
30.300000 -41.445312 6.574149
30.600000 -41.093750 6.574149
30.900000 -40.242188 6.574149
31.300000 -40.390625 6.574149
31.600000 -26.554688 6.574149
31.500000 -25.578125 6.574149
31.400000 -24.976562 6.574149
31.300000 -24.500000 6.574149
31.400000 -23.648438 6.574149
31.400000 -23.296875 6.574149
31.500000 -22.570312 6.574149
31.600000 -21.968750 6.574149
31.400000 -21.492188 6.574149
31.400000 -20.890625 6.574149
31.200000 -20.164062 6.574149
31.000000 -16.203125 6.574149
31.100000 -15.726562 6.574149
31.500000 -14.875000 6.574149
29.500000 -43.468750 6.730150
29.800000 -42.742188 6.730150
30.000000 -42.265625 6.730150
30.400000 -41.664062 6.730150
31.600000 -26.409668 6.730150
31.500000 -25.808594 6.730150
31.400000 -24.707520 6.730150
31.300000 -24.356445 6.730150
31.400000 -24.005371 6.730150
31.400000 -23.404297 6.730150
31.500000 -22.678223 6.730150
31.600000 -21.952148 6.730150
30.200000 -17.849609 6.730150
31.000000 -15.824219 6.730150
31.100000 -14.974121 6.730150
31.500000 -14.749023 6.730150
26.900000 -44.623047 6.886151
29.600000 -43.345703 6.886151
29.900000 -42.870117 6.886151
30.200000 -42.144531 6.886151
30.500000 -40.918945 6.886151
30.800000 -40.568359 6.886151
31.100000 -40.092773 6.886151
32.000000 -26.786133 6.886151
31.600000 -25.686035 6.886151
31.400000 -24.835937 6.886151
31.300000 -24.860840 6.886151
31.300000 -23.760742 6.886151
31.400000 -23.785645 6.886151
31.500000 -23.185547 6.886151
31.600000 -22.460449 6.886151
31.500000 -21.485352 6.886151
31.100000 -15.734375 6.886151
31.300000 -14.763184 6.886151
29.500000 -42.739746 7.035149
29.800000 -42.264648 7.035149
30.100000 -42.164551 7.035149
30.400000 -41.814453 7.035149
30.700000 -41.089355 7.035149
32.000000 -26.554688 7.035149
31.600000 -25.578125 7.035149
31.500000 -25.476562 7.035149
31.400000 -24.875000 7.035149
31.400000 -24.148438 7.035149
31.400000 -23.296875 7.035149
31.500000 -22.945312 7.035149
31.600000 -22.218750 7.035149
31.500000 -21.492187 7.035149
30.400000 -19.460938 7.035149
30.100000 -18.484375 7.035149
31.300000 -17.304688 7.035149
31.200000 -16.703125 7.035149
31.100000 -15.351562 7.035149
29.600000 -42.875000 7.190150
29.900000 -42.147461 7.190150
30.200000 -41.419922 7.190150
30.500000 -41.442383 7.190150
30.800000 -41.214844 7.190150
31.000000 -40.487305 7.190150
32.000000 -26.753906 7.190150
31.600000 -25.651367 7.190150
31.500000 -25.298828 7.190150
31.400000 -24.696289 7.190150
31.400000 -23.968750 7.190150
31.500000 -23.620605 7.190150
31.500000 -22.897461 7.190150
31.600000 -22.424316 7.190150
31.500000 -21.576172 7.190150
31.400000 -21.228027 7.190150
31.700000 -20.254883 7.190150
30.400000 -18.683594 7.190150
30.300000 -18.710449 7.190150
30.700000 -16.416016 7.190150
31.000000 -15.942871 7.190150
31.100000 -15.844727 7.190150
31.300000 -14.746582 7.190150
26.500000 -44.762695 7.345150
29.500000 -42.642090 7.345150
29.800000 -42.292969 7.345150
30.100000 -42.193848 7.345150
30.400000 -41.719727 7.345150
30.700000 -40.870605 7.345150
31.900000 -26.292480 7.345150
31.600000 -26.189453 7.345150
31.500000 -25.586426 7.345150
31.400000 -24.358398 7.345150
31.400000 -24.005371 7.345150
31.500000 -23.527344 7.345150
31.600000 -22.549316 7.345150
31.600000 -22.571289 7.345150
31.600000 -21.468262 7.345150
31.500000 -21.365234 7.345150
31.600000 -20.387207 7.345150
31.500000 -20.034180 7.345150
30.700000 -19.556152 7.345150
30.400000 -18.328125 7.345150
30.700000 -16.529297 7.345150
31.000000 -16.429687 7.345150
31.100000 -15.580078 7.345150
29.600000 -42.653809 7.491150
29.900000 -42.804688 7.491150
30.100000 -42.080566 7.491150
30.400000 -41.606445 7.491150
30.800000 -40.882324 7.491150
30.800000 -40.283203 7.491150
31.900000 -26.476562 7.491150
31.500000 -26.000000 7.491150
31.500000 -25.273438 7.491150
31.400000 -24.671875 7.491150
31.400000 -23.820312 7.491150
31.500000 -23.343750 7.491150
31.600000 -23.242188 7.491150
31.700000 -22.640625 7.491150
31.700000 -21.539063 7.491150
31.600000 -21.437500 7.491150
31.600000 -20.835938 7.491150
31.400000 -19.609375 7.491150
30.800000 -19.507812 7.491150
30.700000 -18.781250 7.491150
30.700000 -18.054688 7.491150
30.800000 -17.453125 7.491150
30.900000 -16.476562 7.491150
31.000000 -16.125000 7.491150
31.200000 -15.648438 7.491150
26.300000 -44.944824 7.647150
26.600000 -44.592773 7.647150
26.900000 -44.115723 7.647150
29.600000 -43.207520 7.647150
29.900000 -42.355469 7.647150
30.200000 -41.753418 7.647150
30.500000 -41.401367 7.647150
30.800000 -40.799316 7.647150
31.200000 -39.822266 7.647150
31.900000 -25.978027 7.647150
31.500000 -25.626953 7.647150
31.500000 -25.275879 7.647150
31.500000 -24.674805 7.647150
31.500000 -24.198730 7.647150
31.600000 -23.722656 7.647150
31.700000 -23.246582 7.647150
31.800000 -22.395508 7.647150
31.700000 -21.419434 7.647150
31.800000 -20.818359 7.647150
31.800000 -20.217285 7.647150
31.400000 -19.491211 7.647150
31.000000 -19.515137 7.647150
30.800000 -18.664062 7.647150
30.800000 -17.437988 7.647150
30.900000 -17.586914 7.647150
31.000000 -16.985840 7.647150
31.100000 -15.884766 7.647150
31.300000 -15.658691 7.647150
31.600000 -15.057617 7.647150
26.400000 -44.955566 7.803150
29.700000 -42.587402 7.803150
30.000000 -41.859375 7.803150
30.300000 -41.881348 7.803150
30.600000 -41.403320 7.803150
30.900000 -40.425293 7.803150
31.300000 -39.822266 7.803150
31.600000 -26.077637 7.803150
31.500000 -25.224609 7.803150
31.400000 -24.746582 7.803150
31.500000 -24.268555 7.803150
31.500000 -24.040527 7.803150
31.600000 -22.687500 7.803150
31.700000 -22.713379 7.803150
31.800000 -21.739258 7.803150
31.800000 -21.515137 7.803150
31.900000 -20.541016 7.803150
31.600000 -20.191895 7.803150
31.200000 -19.592773 7.803150
31.000000 -18.618652 7.803150
30.900000 -18.269531 7.803150
30.900000 -17.295410 7.803150
30.900000 -17.071289 7.803150
31.100000 -16.722168 7.803150
31.200000 -15.498047 7.803150
31.500000 -15.273926 7.803150
31.900000 -15.174805 7.803150
26.700000 -44.850586 7.959149
29.700000 -42.965332 7.959149
30.000000 -42.613281 7.959149
30.300000 -41.386230 7.959149
30.600000 -40.659180 7.959149
30.900000 -40.557129 7.959149
31.300000 -40.205078 7.959149
31.800000 -26.107910 7.959149
31.500000 -25.630859 7.959149
31.400000 -25.153809 7.959149
31.500000 -23.926758 7.959149
31.500000 -23.824707 7.959149
31.600000 -23.472656 7.959149
31.800000 -22.245605 7.959149
31.800000 -21.893555 7.959149
32.000000 -21.416504 7.959149
32.000000 -21.064453 7.959149
31.700000 -19.837402 7.959149
31.300000 -19.110352 7.959149
31.100000 -19.133301 7.959149
31.000000 -18.406250 7.959149
30.900000 -17.305664 7.959149
31.000000 -16.830078 7.959149
31.100000 -16.604492 7.959149
31.200000 -16.003906 7.959149
31.500000 -15.528320 7.959149
31.900000 -14.802734 7.959149
26.700000 -44.744141 8.105151
29.500000 -43.341797 8.105151
29.800000 -42.616211 8.105151
30.000000 -42.390625 8.105151
30.400000 -41.540039 8.105151
31.600000 -25.815918 8.105151
31.400000 -25.091797 8.105151
31.400000 -24.867676 8.105151
31.500000 -24.143555 8.105151
31.500000 -23.794434 8.105151
31.700000 -23.320312 8.105151
31.800000 -22.471191 8.105151
31.900000 -22.122070 8.105151
32.100000 -21.272949 8.105151
32.200000 -20.673828 8.105151
31.900000 -19.949707 8.105151
31.400000 -19.600586 8.105151
31.100000 -18.501465 8.105151
31.000000 -18.027344 8.105151
31.000000 -17.928223 8.105151
31.100000 -17.079102 8.105151
31.100000 -16.604980 8.105151
31.300000 -16.255859 8.105151
31.600000 -15.156738 8.105151
32.100000 -14.932617 8.105151
26.400000 -44.806641 8.264149
29.700000 -42.833984 8.264149
30.000000 -41.859375 8.264149
30.300000 -41.259766 8.264149
30.600000 -40.660156 8.264149
30.900000 -40.435547 8.264149
31.300000 -39.710938 8.264149
31.900000 -25.919922 8.264149
31.500000 -25.320313 8.264149
31.400000 -24.845703 8.264149
31.500000 -24.246094 8.264149
31.600000 -23.521484 8.264149
31.700000 -23.421875 8.264149
31.900000 -22.947266 8.264149
32.000000 -21.972656 8.264149
32.100000 -21.873047 8.264149
32.300000 -20.898438 8.264149
32.100000 -20.173828 8.264149
31.600000 -19.824219 8.264149
31.200000 -18.724609 8.264149
31.100000 -18.500000 8.264149
31.100000 -17.775391 8.264149
31.100000 -17.425781 8.264149
31.200000 -16.576172 8.264149
31.300000 -16.351562 8.264149
31.500000 -15.376953 8.264149
32.000000 -14.902344 8.264149
26.500000 -44.641602 8.418152
29.500000 -42.888672 8.418152
29.800000 -42.663086 8.418152
30.100000 -42.312500 8.418152
30.400000 -41.460938 8.418152
30.700000 -41.234375 8.418152
32.000000 -26.421875 8.418152
31.600000 -25.695312 8.418152
31.500000 -25.468750 8.418152
31.600000 -24.367188 8.418152
31.500000 -24.390625 8.418152
31.600000 -23.914062 8.418152
31.900000 -23.062500 8.418152
32.100000 -22.464844 8.418152
32.200000 -21.742188 8.418152
32.400000 -21.394531 8.418152
32.500000 -20.546875 8.418152
32.200000 -19.824219 8.418152
31.600000 -19.601562 8.418152
31.300000 -18.503906 8.418152
31.200000 -17.781250 8.418152
31.200000 -17.433594 8.418152
31.200000 -17.210938 8.418152
31.300000 -16.613281 8.418152
31.500000 -16.140625 8.418152
31.700000 -15.167969 8.418152
32.200000 -14.695313 8.418152
26.900000 -44.887695 8.573149
29.600000 -42.866211 8.573149
29.900000 -42.392090 8.573149
30.200000 -42.042969 8.573149
30.500000 -41.193848 8.573149
30.800000 -41.094727 8.573149
31.000000 -40.120605 8.573149
32.300000 -27.248535 8.573149
32.000000 -26.520508 8.573149
31.700000 -25.667480 8.573149
31.600000 -25.064453 8.573149
31.600000 -24.336426 8.573149
31.600000 -24.233398 8.573149
31.800000 -23.505371 8.573149
32.000000 -22.777344 8.573149
32.200000 -22.299316 8.573149
32.300000 -21.446289 8.573149
32.400000 -20.843262 8.573149
32.600000 -20.240234 8.573149
32.300000 -19.762207 8.573149
31.700000 -19.034180 8.573149
31.400000 -18.681152 8.573149
31.300000 -18.203125 8.573149
31.200000 -17.103516 8.573149
31.300000 -16.628906 8.573149
31.400000 -16.029297 8.573149
31.600000 -15.304688 8.573149
26.700000 -44.652832 8.720150
29.500000 -43.623535 8.720150
29.800000 -42.647461 8.720150
30.000000 -42.296387 8.720150
30.400000 -41.820312 8.720150
30.700000 -41.469238 8.720150
31.700000 -25.346680 8.720150
31.600000 -25.246094 8.720150
31.700000 -24.395508 8.720150
31.700000 -23.669922 8.720150
31.900000 -22.944336 8.720150
32.200000 -22.968750 8.720150
32.400000 -21.993164 8.720150
32.600000 -21.392578 8.720150
32.700000 -20.666992 8.720150
32.800000 -20.566406 8.720150
31.600000 -18.990234 8.720150
31.400000 -17.889648 8.720150
31.300000 -17.789062 8.720150
31.300000 -16.813477 8.720150
31.400000 -16.712891 8.720150
31.500000 -15.737305 8.720150
31.800000 -15.511719 8.720150
32.200000 -14.661133 8.720150
29.600000 -43.461914 8.878153
29.900000 -42.232422 8.878153
30.200000 -41.877930 8.878153
30.500000 -41.023438 8.878153
30.800000 -40.918945 8.878153
30.900000 -39.814453 8.878153
32.200000 -26.790039 8.878153
31.900000 -25.689453 8.878153
31.700000 -25.213867 8.878153
31.700000 -24.363281 8.878153
31.800000 -24.387695 8.878153
31.900000 -23.787109 8.878153
32.000000 -22.936523 8.878153
32.300000 -22.210938 8.878153
32.600000 -21.735352 8.878153
32.800000 -21.009766 8.878153
32.800000 -20.909180 8.878153
32.800000 -19.933594 8.878153
31.600000 -18.607422 8.878153
31.400000 -18.131836 8.878153
31.400000 -17.031250 8.878153
31.400000 -16.430664 8.878153
31.500000 -15.955078 8.878153
31.700000 -15.604492 8.878153
26.700000 -44.597656 9.032150
29.500000 -43.314453 9.032150
29.800000 -42.212402 9.032150
30.100000 -42.360352 9.032150
30.400000 -41.883301 9.032150
30.700000 -40.781250 9.032150
31.800000 -25.115234 9.032150
31.800000 -25.262695 9.032150
31.800000 -24.035156 9.032150
31.900000 -23.807617 9.032150
32.100000 -23.330078 9.032150
32.300000 -22.352539 9.032150
32.500000 -21.750000 9.032150
32.800000 -21.651855 9.032150
32.800000 -20.553711 9.032150
33.000000 -20.455566 9.032150
31.900000 -18.634277 9.032150
31.600000 -18.411133 9.032150
31.500000 -17.562988 9.032150
31.400000 -16.714844 9.032150
31.500000 -16.741699 9.032150
31.700000 -16.143555 9.032150
31.900000 -15.045410 9.032150
32.200000 -15.072266 9.032150
27.000000 -44.218750 9.188149
29.700000 -42.937500 9.188149
30.000000 -42.460938 9.188149
30.300000 -41.984375 9.188149
30.600000 -41.007812 9.188149
30.900000 -40.656250 9.188149
31.300000 -39.679688 9.188149
32.600000 -26.109375 9.188149
32.000000 -25.383789 9.188149
31.800000 -25.408203 9.188149
31.900000 -24.807617 9.188149
31.900000 -24.082031 9.188149
32.000000 -23.731445 9.188149
32.200000 -22.755859 9.188149
32.600000 -22.405273 9.188149
32.800000 -21.679688 9.188149
33.000000 -21.329102 9.188149
32.900000 -20.478516 9.188149
33.100000 -20.127930 9.188149
31.800000 -18.426758 9.188149
31.600000 -18.076172 9.188149
31.600000 -17.225586 9.188149
31.600000 -17.000000 9.188149
31.700000 -15.775391 9.188149
31.900000 -15.675781 9.188149
26.500000 -44.883789 9.336149
29.500000 -43.008301 9.336149
29.800000 -42.658203 9.336149
30.100000 -42.433105 9.336149
30.400000 -41.833008 9.336149
30.700000 -40.607910 9.336149
32.200000 -25.988281 9.336149
31.900000 -25.639160 9.336149
31.800000 -25.165039 9.336149
31.900000 -24.315918 9.336149
32.000000 -23.841797 9.336149
32.200000 -23.492676 9.336149
32.300000 -22.393555 9.336149
32.600000 -22.044434 9.336149
32.900000 -21.695313 9.336149
32.800000 -20.721191 9.336149
32.900000 -19.997070 9.336149
32.900000 -19.897949 9.336149
32.400000 -18.673828 9.336149
31.800000 -17.949707 9.336149
31.600000 -17.975586 9.336149
31.600000 -16.876465 9.336149
31.700000 -16.527344 9.336149
31.800000 -15.678223 9.336149
32.000000 -15.204102 9.336149
32.400000 -14.854980 9.336149
26.600000 -44.750000 9.489153
26.900000 -44.648438 9.489153
29.600000 -42.990723 9.489153
30.000000 -42.763672 9.489153
30.200000 -41.286621 9.489153
30.500000 -41.059570 9.489153
30.900000 -40.832520 9.489153
31.200000 -40.230469 9.489153
32.500000 -26.633301 9.489153
32.000000 -26.031250 9.489153
31.900000 -25.429199 9.489153
31.900000 -24.327148 9.489153
32.000000 -24.350098 9.489153
32.200000 -23.623047 9.489153
32.400000 -23.270996 9.489153
32.600000 -22.168945 9.489153
32.800000 -21.816895 9.489153
33.100000 -20.839844 9.489153
32.700000 -18.908691 9.489153
32.000000 -18.806641 9.489153
31.800000 -18.079590 9.489153
31.700000 -17.102539 9.489153
31.700000 -17.125488 9.489153
31.800000 -16.023438 9.489153
31.900000 -15.421387 9.489153
26.600000 -44.695312 9.645149
26.900000 -44.093750 9.645149
29.600000 -43.062500 9.645149
29.900000 -42.585938 9.645149
30.200000 -41.609375 9.645149
30.500000 -41.632812 9.645149
30.800000 -41.031250 9.645149
31.200000 -40.554688 9.645149
32.600000 -27.154297 9.645149
32.400000 -25.697266 9.645149
32.000000 -25.468750 9.645149
31.900000 -24.615234 9.645149
32.000000 -24.011719 9.645149
32.200000 -23.533203 9.645149
32.400000 -23.179688 9.645149
32.700000 -22.701172 9.645149
32.900000 -21.597656 9.645149
33.100000 -21.244141 9.645149
32.800000 -18.938477 9.645149
32.200000 -18.712402 9.645149
31.900000 -17.736328 9.645149
31.800000 -17.635254 9.645149
31.800000 -16.659180 9.645149
31.800000 -15.808105 9.645149
32.000000 -15.582031 9.645149
26.600000 -44.513672 9.793150
26.900000 -44.910645 9.793150
29.700000 -42.748535 9.793150
30.000000 -42.395508 9.793150
30.300000 -41.667480 9.793150
30.600000 -41.564453 9.793150
30.900000 -40.336426 9.793150
31.200000 -40.358398 9.793150
32.400000 -26.482422 9.793150
32.000000 -25.753906 9.793150
31.900000 -25.275391 9.793150
32.000000 -24.421875 9.793150
32.200000 -24.193359 9.793150
32.300000 -23.214844 9.793150
32.500000 -23.111328 9.793150
32.800000 -22.132812 9.793150
32.900000 -21.904297 9.793150
33.000000 -21.050781 9.793150
32.800000 -19.365234 9.793150
32.200000 -18.261719 9.793150
31.900000 -17.783203 9.793150
31.800000 -17.054687 9.793150
31.700000 -16.326172 9.793150
31.900000 -15.847656 9.793150
32.100000 -15.744141 9.793150
29.500000 -42.605469 9.950150
29.900000 -42.628418 9.950150
30.200000 -41.901367 9.950150
30.400000 -41.049316 9.950150
30.800000 -40.697266 9.950150
32.000000 -25.311523 9.950150
32.000000 -25.087402 9.950150
32.100000 -24.613281 9.950150
32.200000 -23.389160 9.950150
32.500000 -23.290039 9.950150
32.700000 -22.315918 9.950150
32.800000 -22.216797 9.950150
33.000000 -21.617676 9.950150
33.100000 -20.893555 9.950150
32.700000 -18.846191 9.950150
32.200000 -18.372070 9.950150
31.900000 -17.397949 9.950150
31.900000 -17.048828 9.950150
31.900000 -16.699707 9.950150
32.000000 -15.600586 9.950150
32.200000 -15.626465 9.950150
32.600000 -15.027344 9.950150
29.500000 -43.242676 10.106149
29.800000 -42.890625 10.106149
30.000000 -42.413086 10.106149
30.300000 -41.185547 10.106149
32.000000 -25.791992 10.106149
32.000000 -25.189453 10.106149
32.100000 -24.211914 10.106149
32.300000 -23.734375 10.106149
32.400000 -22.885254 10.106149
32.500000 -22.786133 10.106149
32.400000 -21.812012 10.106149
32.700000 -21.212891 10.106149
33.100000 -20.988770 10.106149
32.900000 -19.066406 10.106149
32.300000 -18.717285 10.106149
32.000000 -17.368164 10.106149
31.900000 -16.894043 10.106149
31.900000 -16.169922 10.106149
31.900000 -15.695801 10.106149
32.100000 -15.346680 10.106149
32.500000 -14.497559 10.106149
33.000000 -14.398438 10.106149
26.900000 -44.588867 10.261152
29.600000 -43.061523 10.261152
29.900000 -42.210938 10.261152
30.200000 -41.610352 10.261152
30.500000 -41.509766 10.261152
30.800000 -40.534180 10.261152
31.200000 -40.558594 10.261152
32.300000 -25.634766 10.261152
32.000000 -25.033691 10.261152
32.100000 -24.557617 10.261152
32.200000 -24.081543 10.261152
32.400000 -23.480469 10.261152
32.600000 -23.004395 10.261152
32.700000 -22.528320 10.261152
32.900000 -22.052246 10.261152
33.100000 -21.076172 10.261152
33.000000 -20.600098 10.261152
32.900000 -19.999023 10.261152
33.400000 -19.772949 10.261152
32.200000 -18.322266 10.261152
32.000000 -17.222656 10.261152
32.000000 -17.248047 10.261152
32.000000 -16.023438 10.261152
32.100000 -15.548828 10.261152
32.300000 -15.324219 10.261152
32.700000 -14.349609 10.261152
29.600000 -43.288086 10.409153
30.000000 -42.312012 10.409153
30.200000 -41.835938 10.409153
30.500000 -41.234863 10.409153
30.900000 -40.633789 10.409153
31.200000 -40.282715 10.409153
32.000000 -25.992676 10.409153
32.000000 -25.267578 10.409153
32.100000 -24.542480 10.409153
32.200000 -24.317383 10.409153
32.400000 -23.217285 10.409153
32.600000 -22.992188 10.409153
32.800000 -22.267090 10.409153
32.900000 -21.541992 10.409153
33.100000 -21.066895 10.409153
32.900000 -20.591797 10.409153
32.900000 -20.241699 10.409153
33.400000 -19.641602 10.409153
32.200000 -17.941406 10.409153
32.000000 -17.466309 10.409153
32.000000 -16.866211 10.409153
32.000000 -16.141113 10.409153
32.100000 -16.041016 10.409153
32.300000 -15.440918 10.409153
32.700000 -14.340820 10.409153
26.600000 -44.578125 10.563152
29.600000 -42.705078 10.563152
29.900000 -42.230469 10.563152
30.200000 -41.380859 10.563152
30.500000 -41.406250 10.563152
30.800000 -41.056641 10.563152
30.900000 -39.832031 10.563152
32.400000 -26.163574 10.563152
32.100000 -25.811523 10.563152
32.000000 -25.584473 10.563152
32.000000 -24.982422 10.563152
32.200000 -23.880371 10.563152
32.300000 -23.278320 10.563152
32.500000 -22.676270 10.563152
32.700000 -22.324219 10.563152
32.900000 -21.847168 10.563152
33.100000 -21.245117 10.563152
33.000000 -20.643066 10.563152
32.700000 -19.211914 10.563152
32.400000 -18.359863 10.563152
32.100000 -17.757812 10.563152
32.100000 -17.280762 10.563152
32.100000 -16.053711 10.563152
32.100000 -15.576660 10.563152
32.300000 -15.224609 10.563152
26.600000 -44.309082 10.717150
26.900000 -44.207031 10.717150
29.700000 -43.173828 10.717150
30.000000 -42.321777 10.717150
30.300000 -41.969727 10.717150
30.600000 -41.242676 10.717150
30.900000 -40.515625 10.717150
31.300000 -40.288086 10.717150
32.500000 -26.907227 10.717150
32.100000 -26.554687 10.717150
31.900000 -25.577148 10.717150
31.900000 -24.974609 10.717150
32.100000 -24.872070 10.717150
32.200000 -24.269531 10.717150
32.400000 -23.541992 10.717150
32.600000 -22.814453 10.717150
32.800000 -22.086914 10.717150
33.000000 -21.609375 10.717150
33.200000 -21.134277 10.717150
33.200000 -19.208984 10.717150
32.800000 -18.733887 10.717150
32.400000 -18.133789 10.717150
32.200000 -17.658691 10.717150
32.100000 -16.433594 10.717150
32.100000 -15.958496 10.717150
32.300000 -15.608398 10.717150
32.500000 -15.258301 10.717150
32.900000 -14.158203 10.717150
26.600000 -44.915039 10.875150
26.900000 -44.312988 10.875150
29.600000 -43.279785 10.875150
30.000000 -42.302734 10.875150
30.200000 -41.950684 10.875150
30.500000 -41.473633 10.875150
30.900000 -40.621582 10.875150
31.200000 -39.894531 10.875150
32.100000 -26.782715 10.875150
31.900000 -26.054688 10.875150
31.800000 -25.076660 10.875150
32.000000 -24.848633 10.875150
32.200000 -24.245605 10.875150
32.300000 -23.392578 10.875150
32.500000 -23.164551 10.875150
32.700000 -22.561523 10.875150
32.900000 -21.583496 10.875150
33.100000 -21.355469 10.875150
33.400000 -19.671387 10.875150
32.400000 -17.840332 10.875150
32.200000 -17.237305 10.875150
32.100000 -16.634277 10.875150
32.100000 -16.531250 10.875150
32.300000 -15.808594 10.875150
32.500000 -15.085938 10.875150
26.600000 -44.488281 11.020145
27.000000 -44.757813 11.020145
29.700000 -43.085938 11.020145
30.000000 -42.230469 11.020145
30.300000 -42.000000 11.020145
30.600000 -40.894531 11.020145
30.900000 -40.664062 11.020145
31.300000 -39.683594 11.020145
32.300000 -25.903320 11.020145
31.900000 -25.426270 11.020145
31.900000 -25.449219 11.020145
32.000000 -24.097168 11.020145
32.000000 -23.870117 11.020145
32.200000 -23.268066 11.020145
32.500000 -23.041016 11.020145
32.700000 -22.313965 11.020145
33.000000 -21.586914 11.020145
33.200000 -21.234863 11.020145
33.200000 -18.928711 11.020145
32.800000 -18.201660 11.020145
32.400000 -17.974609 11.020145
32.200000 -17.622559 11.020145
32.200000 -16.770508 11.020145
32.200000 -15.918457 11.020145
32.300000 -15.816406 11.020145
32.500000 -15.089355 11.020145
29.700000 -42.584473 11.176147
30.000000 -41.981445 11.176147
30.300000 -42.003418 11.176147
30.600000 -41.275391 11.176147
30.900000 -40.422363 11.176147
31.300000 -39.694336 11.176147
32.200000 -25.949707 11.176147
31.900000 -25.846680 11.176147
31.800000 -25.368652 11.176147
31.900000 -24.390625 11.176147
31.900000 -23.541504 11.176147
32.100000 -23.067383 11.176147
32.300000 -22.593262 11.176147
32.600000 -22.119141 11.176147
32.900000 -21.770020 11.176147
33.100000 -20.920898 11.176147
33.200000 -18.998535 11.176147
32.900000 -18.274414 11.176147
32.400000 -17.675293 11.176147
32.200000 -17.201172 11.176147
32.200000 -16.852051 11.176147
32.200000 -16.002930 11.176147
32.300000 -15.403809 11.176147
32.500000 -15.179687 11.176147
29.500000 -42.718750 11.332144
29.900000 -42.744141 11.332144
30.100000 -41.894531 11.332144
30.400000 -41.169922 11.332144
30.800000 -40.820312 11.332144
32.300000 -26.535156 11.332144
31.900000 -26.184570 11.332144
31.700000 -25.708984 11.332144
31.700000 -24.733398 11.332144
31.700000 -24.382813 11.332144
31.800000 -23.282227 11.332144
32.000000 -23.181641 11.332144
32.300000 -22.456055 11.332144
32.600000 -21.980469 11.332144
33.000000 -21.504883 11.332144
33.200000 -21.154297 11.332144
33.000000 -19.354004 11.332144
32.700000 -18.504883 11.332144
32.400000 -17.780762 11.332144
32.300000 -17.306641 11.332144
32.200000 -16.582520 11.332144
32.200000 -16.233398 11.332144
32.400000 -15.259277 11.332144
32.700000 -14.660156 11.332144
26.600000 -44.899414 11.481156
29.600000 -43.281250 11.481156
29.900000 -42.182617 11.481156
30.200000 -41.708984 11.481156
30.500000 -41.360352 11.481156
30.900000 -40.636719 11.481156
31.200000 -40.288086 11.481156
32.100000 -26.359375 11.481156
31.800000 -25.507812 11.481156
31.600000 -25.031250 11.481156
31.600000 -24.304688 11.481156
31.600000 -24.203125 11.481156
31.700000 -23.601562 11.481156
31.900000 -22.625000 11.481156
32.200000 -22.523437 11.481156
32.700000 -21.671875 11.481156
33.100000 -21.195312 11.481156
32.900000 -18.914063 11.481156
32.500000 -18.312500 11.481156
32.200000 -17.460938 11.481156
32.200000 -16.609375 11.481156
32.200000 -16.632813 11.481156
32.300000 -16.031250 11.481156
32.400000 -15.179687 11.481156
32.700000 -14.828125 11.481156
33.200000 -14.104980 11.481156
29.500000 -42.936523 11.638120
29.900000 -42.835938 11.638120
30.100000 -42.235352 11.638120
30.400000 -41.634766 11.638120
