31.000000 -36.660156 7.476988
33.200000 -28.216797 7.476988
33.000000 -27.836914 7.476988
33.000000 -27.582031 7.476988
33.000000 -26.327148 7.476988
33.000000 -26.197266 7.476988
33.200000 -25.442383 7.476988
33.400000 -25.062500 7.476988
33.700000 -24.184570 7.476988
34.000000 -23.806641 7.476988
34.300000 -23.178711 7.476988
34.100000 -22.550781 7.476988
32.600000 -20.669922 7.476988
32.500000 -19.916992 7.476988
32.500000 -19.664062 7.476988
32.600000 -18.661133 7.476988
32.700000 -18.658203 7.476988
33.100000 -18.155273 7.476988
26.900000 -44.485840 7.617988
29.600000 -42.597168 7.617988
29.900000 -42.468750 7.617988
30.300000 -41.464355 7.617988
30.700000 -40.584961 7.617988
33.600000 -28.622070 7.617988
33.300000 -28.492676 7.617988
33.100000 -27.863281 7.617988
33.000000 -26.608887 7.617988
33.100000 -26.354492 7.617988
33.200000 -25.725098 7.617988
33.300000 -24.970703 7.617988
33.600000 -24.591309 7.617988
33.900000 -20.211914 7.617988
34.200000 -23.457520 7.617988
34.600000 -22.578125 7.617988
32.900000 -21.324219 7.617988
32.600000 -20.447266 7.617988
32.600000 -20.195313 7.617988
32.600000 -19.568359 7.617988
32.700000 -18.566406 7.617988
32.900000 -18.064453 7.617988
33.400000 -17.312500 7.617988
29.800000 -42.689453 7.763987
30.100000 -41.563965 7.763987
30.500000 -41.188477 7.763987
30.800000 -40.812988 7.763987
31.200000 -40.062500 7.763987
33.600000 -28.229004 7.763987
33.300000 -27.974609 7.763987
33.100000 -27.220215 7.763987
33.100000 -26.840820 7.763987
33.100000 -26.086426 7.763987
33.300000 -25.457031 7.763987
33.500000 -24.577637 7.763987
33.800000 -23.948242 7.763987
34.100000 -23.818848 7.763987
34.400000 -23.189453 7.763987
34.800000 -22.310059 7.763987
32.800000 -21.176270 7.763987
32.700000 -20.171875 7.763987
32.700000 -19.419434 7.763987
32.700000 -18.791992 7.763987
32.800000 -18.539551 7.763987
26.600000 -44.828613 7.911988
29.600000 -42.691406 7.911988
30.000000 -42.063965 7.911988
30.400000 -41.311523 7.911988
30.700000 -41.059082 7.911988
31.000000 -40.431641 7.911988
33.900000 -29.083984 7.911988
33.400000 -27.953125 7.911988
33.200000 -27.197266 7.911988
33.100000 -26.691406 7.911988
33.200000 -26.435547 7.911988
33.300000 -25.679688 7.911988
33.500000 -24.798828 7.911988
33.800000 -24.292969 7.911988
34.100000 -23.537109 7.911988
34.300000 -23.156250 7.911988
34.600000 -22.400391 7.911988
32.900000 -21.138672 7.911988
32.800000 -20.882812 7.911988
32.800000 -20.126953 7.911988
32.700000 -19.496094 7.911988
32.800000 -18.365234 7.911988
33.000000 -18.109375 7.911988
33.500000 -17.604980 7.911988
29.600000 -42.205078 8.060988
30.000000 -41.828613 8.060988
30.300000 -41.702148 8.060988
30.700000 -40.950684 8.060988
33.500000 -28.498047 8.060988
33.300000 -27.867676 8.060988
33.200000 -26.612305 8.060988
33.200000 -25.981934 8.060988
33.300000 -25.351562 8.060988
33.500000 -25.221191 8.060988
33.800000 -20.840820 8.060988
34.100000 -23.835449 8.060988
34.300000 -23.455078 8.060988
34.600000 -22.574707 8.060988
33.100000 -20.938965 8.060988
32.900000 -20.558594 8.060988
32.800000 -19.928223 8.060988
32.700000 -19.047852 8.060988
32.900000 -18.917480 8.060988
33.100000 -17.912109 8.060988
33.500000 -17.781738 8.060988
26.600000 -44.790039 8.206988
29.600000 -42.140625 8.206988
30.000000 -42.260742 8.206988
30.400000 -41.630859 8.206988
30.700000 -41.000977 8.206988
31.000000 -40.246094 8.206988
33.500000 -28.148437 8.206988
33.300000 -27.393555 8.206988
33.200000 -27.013672 8.206988
33.300000 -25.883789 8.206988
33.400000 -25.503906 8.206988
33.600000 -24.999023 8.206988
33.900000 -24.244141 8.206988
34.100000 -23.614258 8.206988
34.400000 -23.109375 8.206988
34.700000 -18.729492 8.206988
33.200000 -21.219727 8.206988
32.900000 -20.339844 8.206988
32.800000 -19.709961 8.206988
32.800000 -19.330078 8.206988
32.900000 -18.450195 8.206988
33.100000 -18.070312 8.206988
33.500000 -17.690430 8.206988
26.400000 -44.955078 8.355988
26.600000 -44.575195 8.355988
29.700000 -42.175781 8.355988
30.000000 -42.295898 8.355988
30.400000 -41.791016 8.355988
30.700000 -40.661133 8.355988
31.100000 -39.906250 8.355988
33.600000 -28.310547 8.355988
33.300000 -27.431152 8.355988
33.300000 -26.926758 8.355988
33.300000 -26.297363 8.355988
33.400000 -25.417969 8.355988
33.700000 -24.663574 8.355988
34.000000 -24.159180 8.355988
34.200000 -23.904785 8.355988
34.400000 -23.025391 8.355988
34.700000 -22.270996 8.355988
33.300000 -21.137207 8.355988
32.900000 -20.382813 8.355988
32.900000 -19.503418 8.355988
32.900000 -19.249023 8.355988
33.000000 -18.744629 8.355988
33.100000 -17.615234 8.355988
33.600000 -17.360840 8.355988
26.300000 -44.708984 8.501988
26.600000 -44.329102 8.501988
29.700000 -42.804687 8.501988
30.000000 -41.549805 8.501988
30.400000 -41.669922 8.501988
30.700000 -41.040039 8.501988
31.100000 -40.035156 8.501988
33.300000 -27.311035 8.501988
33.300000 -26.559570 8.501988
33.400000 -25.933105 8.501988
33.500000 -25.806641 8.501988
33.700000 -25.180176 8.501988
33.900000 -24.053711 8.501988
34.200000 -23.677246 8.501988
34.400000 -19.425781 8.501988
34.700000 -22.549316 8.501988
34.900000 -18.172852 8.501988
33.100000 -20.419922 8.501988
33.000000 -19.793457 8.501988
32.900000 -19.541992 8.501988
33.000000 -18.790527 8.501988
33.100000 -18.164062 8.501988
33.500000 -17.162598 8.501988
26.900000 -44.640625 8.651988
29.600000 -43.113281 8.651988
30.000000 -42.606445 8.651988
30.400000 -41.599609 8.651988
30.700000 -41.217773 8.651988
34.000000 -28.831055 8.651988
33.500000 -28.324219 8.651988
33.200000 -27.567383 8.651988
33.300000 -26.685547 8.651988
33.300000 -25.928711 8.651988
33.500000 -25.296875 8.651988
33.700000 -25.295898 8.651988
33.900000 -24.544922 8.651988
34.000000 -23.793945 8.651988
34.100000 -23.417969 8.651988
34.500000 -22.541992 8.651988
34.900000 -22.166016 8.651988
33.200000 -20.914062 8.651988
33.000000 -19.663086 8.651988
33.000000 -19.287109 8.651988
33.000000 -18.661133 8.651988
33.100000 -18.035156 8.651988
29.700000 -42.839355 8.787987
30.000000 -41.959961 8.787987
30.400000 -41.705566 8.787987
30.700000 -41.201172 8.787987
31.100000 -40.696777 8.787987
33.600000 -28.233887 8.787987
33.500000 -27.604492 8.787987
33.400000 -26.975098 8.787987
33.400000 -26.095703 8.787987
33.600000 -25.716309 8.787987
33.800000 -24.961914 8.787987
34.000000 -24.207520 8.787987
34.200000 -23.953125 8.787987
34.500000 -19.452148 8.787987
34.500000 -22.326172 8.787987
34.800000 -18.075195 8.787987
33.200000 -20.198242 8.787987
33.000000 -20.197266 8.787987
33.000000 -19.071289 8.787987
33.000000 -18.820312 8.787987
33.100000 -18.069336 8.787987
29.700000 -42.883789 8.934988
30.100000 -42.254395 8.934988
30.400000 -41.125000 8.934988
30.800000 -40.996582 8.934988
31.100000 -40.368164 8.934988
33.400000 -27.546387 8.934988
33.500000 -26.542969 8.934988
33.500000 -26.164551 8.934988
33.700000 -25.661133 8.934988
33.900000 -25.157715 8.934988
34.200000 -24.404297 8.934988
34.400000 -23.775879 8.934988
34.500000 -19.397461 8.934988
34.500000 -22.394043 8.934988
34.600000 -21.640625 8.934988
33.200000 -20.502930 8.934988
33.100000 -20.121582 8.934988
33.100000 -19.490234 8.934988
33.100000 -18.733887 8.934988
33.300000 -17.852539 8.934988
33.700000 -17.346191 8.934988
26.500000 -44.459473 9.083989
26.800000 -44.706055 9.083989
29.600000 -42.692383 9.083989
29.900000 -42.188965 9.083989
30.200000 -41.810547 9.083989
30.600000 -41.182129 9.083989
34.100000 -28.947266 9.083989
33.700000 -28.566406 9.083989
33.400000 -27.560547 9.083989
33.400000 -27.054688 9.083989
33.500000 -26.548828 9.083989
33.600000 -25.917969 9.083989
33.800000 -24.912109 9.083989
34.100000 -20.906250 9.083989
34.300000 -23.775391 9.083989
34.400000 -23.269531 9.083989
34.300000 -22.638672 9.083989
34.500000 -22.257812 9.083989
33.500000 -20.496094 9.083989
33.200000 -19.990234 9.083989
33.100000 -19.109375 9.083989
33.100000 -18.854980 9.083989
33.200000 -18.475586 9.083989
33.400000 -17.346191 9.083989
34.000000 -17.216797 9.083989
29.700000 -42.818848 9.231988
30.100000 -41.816406 9.231988
30.500000 -41.438965 9.231988
30.800000 -40.811523 9.231988
31.200000 -40.309082 9.231988
33.900000 -28.728516 9.231988
33.500000 -27.973633 9.231988
33.400000 -27.218750 9.231988
33.500000 -26.588867 9.231988
33.600000 -25.708984 9.231988
33.800000 -25.579102 9.231988
34.000000 -25.074219 9.231988
34.100000 -24.444336 9.231988
34.300000 -19.939453 9.231988
34.400000 -22.934570 9.231988
33.800000 -20.794922 9.231988
33.200000 -20.415039 9.231988
33.100000 -19.910156 9.231988
33.100000 -19.155273 9.231988
33.100000 -18.400391 9.231988
33.300000 -18.145508 9.231988
33.700000 -17.515625 9.231988
29.700000 -42.729004 9.377987
30.000000 -42.099609 9.377987
30.400000 -41.095215 9.377987
30.700000 -41.090820 9.377987
31.100000 -40.461426 9.377987
33.500000 -28.389648 9.377987
33.400000 -27.636719 9.377987
33.400000 -27.133789 9.377987
33.600000 -26.255859 9.377987
33.700000 -25.877930 9.377987
33.900000 -24.750000 9.377987
34.100000 -24.122070 9.377987
34.300000 -23.869141 9.377987
34.500000 -23.116211 9.377987
34.100000 -21.232422 9.377987
33.500000 -20.479492 9.377987
33.200000 -20.226562 9.377987
33.100000 -19.223633 9.377987
33.100000 -18.470703 9.377987
33.200000 -17.842773 9.377987
33.500000 -17.464844 9.377987
34.100000 -16.711914 9.377987
26.900000 -44.957520 9.524989
29.600000 -43.072754 9.524989
30.000000 -41.820312 9.524989
30.300000 -41.817871 9.524989
30.700000 -41.065430 9.524989
34.100000 -29.132813 9.524989
33.600000 -28.128906 9.524989
33.400000 -27.875000 9.524989
33.400000 -26.996094 9.524989
33.500000 -26.617188 9.524989
33.700000 -25.613281 9.524989
33.800000 -24.859375 9.524989
34.000000 -24.480469 9.524989
34.200000 -20.226562 9.524989
34.400000 -23.472656 9.524989
34.100000 -21.335938 9.524989
33.500000 -20.457031 9.524989
33.200000 -20.203125 9.524989
33.200000 -19.449219 9.524989
33.200000 -18.820312 9.524989
33.200000 -18.066406 9.524989
33.500000 -17.437500 9.524989
34.000000 -16.808594 9.524989
29.600000 -42.113281 9.672988
30.000000 -41.734375 9.672988
30.400000 -41.355469 9.672988
30.700000 -41.226562 9.672988
31.000000 -40.097656 9.672988
34.000000 -28.653320 9.672988
33.500000 -27.901855 9.672988
33.300000 -27.150391 9.672988
33.400000 -27.023926 9.672988
33.500000 -26.397461 9.672988
33.700000 -25.520996 9.672988
33.900000 -25.269531 9.672988
34.100000 -24.643066 9.672988
34.300000 -23.766602 9.672988
34.500000 -23.015137 9.672988
34.200000 -21.510742 9.672988
33.500000 -20.259277 9.672988
33.200000 -20.007812 9.672988
33.100000 -19.131348 9.672988
33.200000 -19.004883 9.672988
33.200000 -18.003418 9.672988
33.500000 -17.376953 9.672988
34.000000 -16.875488 9.672988
29.600000 -42.800781 9.819988
29.900000 -42.296875 9.819988
30.200000 -41.292969 9.819988
30.600000 -40.664062 9.819988
33.700000 -28.710938 9.819988
33.500000 -28.457031 9.819988
33.300000 -27.453125 9.819988
33.300000 -27.325684 9.819988
33.400000 -26.323242 9.819988
33.600000 -26.070801 9.819988
33.800000 -25.068359 9.819988
34.000000 -24.815918 9.819988
34.200000 -23.938477 9.819988
34.400000 -23.186035 9.819988
34.200000 -21.303711 9.819988
33.700000 -20.676270 9.819988
33.300000 -19.798828 9.819988
33.100000 -19.296387 9.819988
33.100000 -19.168945 9.819988
33.200000 -17.916504 9.819988
33.400000 -17.539062 9.819988
26.600000 -44.551270 9.967988
29.700000 -42.539062 9.967988
30.000000 -42.162109 9.967988
30.400000 -41.035156 9.967988
30.700000 -41.158203 9.967988
31.100000 -40.656250 9.967988
33.600000 -28.744141 9.967988
33.300000 -28.367188 9.967988
33.200000 -27.490234 9.967988
33.200000 -26.988281 9.967988
33.400000 -25.861328 9.967988
33.600000 -25.484375 9.967988
33.800000 -25.105957 9.967988
34.100000 -24.602539 9.967988
34.300000 -23.599121 9.967988
34.300000 -22.970703 9.967988
34.000000 -21.210449 9.967988
33.500000 -20.457031 9.967988
33.200000 -19.578613 9.967988
33.100000 -19.325195 9.967988
33.100000 -18.571777 9.967988
33.200000 -17.818359 9.967988
33.500000 -17.439941 9.967988
34.000000 -16.686523 9.967988
26.400000 -44.798340 10.105988
29.700000 -42.277344 10.105988
30.000000 -42.398438 10.105988
30.400000 -41.644531 10.105988
30.700000 -40.640625 10.105988
31.100000 -40.636719 10.105988
33.500000 -28.937500 10.105988
33.200000 -27.933594 10.105988
33.100000 -27.179688 10.105988
33.200000 -26.925781 10.105988
33.300000 -26.171875 10.105988
33.500000 -25.292969 10.105988
33.700000 -25.164062 10.105988
34.000000 -20.660156 10.105988
34.300000 -23.781250 10.105988
34.200000 -23.026367 10.105988
33.800000 -21.011719 10.105988
33.400000 -20.506836 10.105988
33.200000 -19.876953 10.105988
33.100000 -19.122070 10.105988
33.200000 -18.617188 10.105988
33.200000 -17.987305 10.105988
33.500000 -17.232422 10.105988
34.000000 -16.977539 10.105988
26.300000 -44.887695 10.252987
29.600000 -42.608398 10.252987
30.000000 -41.853516 10.252987
30.300000 -41.598633 10.252987
30.700000 -41.093750 10.252987
33.600000 -29.130859 10.252987
33.200000 -28.126465 10.252987
33.100000 -27.497070 10.252987
33.200000 -26.742676 10.252987
33.200000 -26.613281 10.252987
33.300000 -25.358887 10.252987
33.500000 -24.979492 10.252987
33.800000 -24.225098 10.252987
34.100000 -23.970703 10.252987
34.400000 -22.966309 10.252987
34.100000 -21.328125 10.252987
33.600000 -20.949219 10.252987
33.300000 -20.195312 10.252987
33.100000 -19.441406 10.252987
33.100000 -18.812500 10.252987
33.200000 -17.808594 10.252987
33.400000 -17.554688 10.252987
26.900000 -44.209961 10.402988
29.600000 -42.565430 10.402988
29.900000 -42.560547 10.402988
30.300000 -41.930664 10.402988
30.600000 -40.800781 10.402988
33.500000 -29.054687 10.402988
33.200000 -28.173340 10.402988
33.100000 -27.791992 10.402988
33.100000 -26.785645 10.402988
33.100000 -26.279297 10.402988
33.200000 -25.647949 10.402988
33.400000 -25.016602 10.402988
33.700000 -24.260254 10.402988
34.100000 -23.753906 10.402988
34.300000 -19.622559 10.402988
34.100000 -21.353516 10.402988
33.600000 -20.597168 10.402988
33.300000 -19.965820 10.402988
33.100000 -19.334473 10.402988
33.100000 -18.828125 10.402988
33.200000 -18.323730 10.402988
33.400000 -17.319336 10.402988
33.700000 -16.814941 10.402988
34.300000 -16.310547 10.402988
26.900000 -44.503418 10.548988
29.600000 -42.485840 10.548988
29.900000 -42.231445 10.548988
30.300000 -41.227051 10.548988
30.600000 -40.972656 10.548988
33.400000 -28.521484 10.548988
33.100000 -28.143066 10.548988
32.900000 -27.514648 10.548988
32.900000 -26.761230 10.548988
32.900000 -26.257812 10.548988
33.000000 -25.629395 10.548988
33.300000 -25.375977 10.548988
33.600000 -24.497559 10.548988
34.000000 -23.869141 10.548988
34.300000 -23.365723 10.548988
34.100000 -21.355469 10.548988
33.600000 -20.852051 10.548988
33.200000 -20.348633 10.548988
33.100000 -19.595215 10.548988
33.100000 -19.091797 10.548988
33.200000 -18.088379 10.548988
33.400000 -17.709961 10.548988
33.700000 -17.206543 10.548988
34.300000 -16.203125 10.548988
26.600000 -44.820312 10.694988
26.900000 -44.568359 10.694988
29.600000 -42.685547 10.694988
29.900000 -41.933594 10.694988
30.200000 -41.681641 10.694988
30.600000 -41.429687 10.694988
33.400000 -29.003906 10.694988
33.000000 -28.500488 10.694988
32.800000 -27.747070 10.694988
32.700000 -27.368652 10.694988
32.700000 -26.490234 10.694988
32.800000 -25.986816 10.694988
33.000000 -25.233398 10.694988
33.500000 -24.354980 10.694988
33.900000 -24.226563 10.694988
34.200000 -23.473145 10.694988
33.500000 -21.462891 10.694988
33.700000 -20.834473 10.694988
33.200000 -19.956055 10.694988
33.100000 -19.577637 10.694988
33.100000 -18.699219 10.694988
33.200000 -18.320801 10.694988
33.400000 -17.567383 10.694988
33.700000 -17.188965 10.694988
34.100000 -16.435547 10.694988
26.500000 -44.777344 10.844988
29.600000 -43.015137 10.844988
29.900000 -42.762695 10.844988
30.200000 -41.635254 10.844988
30.500000 -41.257812 10.844988
33.300000 -28.835937 10.844988
33.000000 -28.583984 10.844988
32.700000 -27.707031 10.844988
32.600000 -27.080078 10.844988
32.500000 -26.328125 10.844988
32.500000 -26.076172 10.844988
32.700000 -24.949219 10.844988
33.200000 -24.947266 10.844988
33.800000 -24.320312 10.844988
34.200000 -23.693359 10.844988
33.500000 -21.562500 10.844988
33.700000 -21.185547 10.844988
33.300000 -20.308594 10.844988
33.100000 -19.681641 10.844988
33.100000 -18.804688 10.844988
33.100000 -18.177734 10.844988
33.300000 -17.425781 10.844988
33.600000 -17.173828 10.844988
34.100000 -16.671875 10.844988
29.500000 -43.049316 10.991988
29.800000 -42.797852 10.991988
30.100000 -42.171387 10.991988
30.500000 -41.419922 10.991988
30.900000 -40.918457 10.991988
31.300000 -40.166992 10.991988
33.200000 -29.265625 10.991988
32.900000 -28.136230 10.991988
32.600000 -27.506836 10.991988
32.400000 -26.752441 10.991988
32.300000 -26.498047 10.991988
32.300000 -26.118652 10.991988
32.400000 -25.489258 10.991988
32.800000 -24.609863 10.991988
33.500000 -24.355469 10.991988
34.100000 -23.351074 10.991988
34.200000 -21.712891 10.991988
33.700000 -20.958496 10.991988
33.300000 -19.954102 10.991988
33.100000 -19.824707 10.991988
33.000000 -18.570312 10.991988
33.100000 -18.065918 10.991988
33.300000 -17.686523 10.991988
33.500000 -17.182129 10.991988
34.000000 -16.552734 10.991988
29.500000 -42.945801 11.139988
29.800000 -42.319336 11.139988
30.100000 -41.442871 11.139988
30.500000 -41.441406 11.139988
30.800000 -40.439941 11.139988
31.300000 -40.438477 11.139988
31.100000 -37.056152 11.139988
33.200000 -29.162109 11.139988
32.800000 -28.285645 11.139988
32.500000 -27.784180 11.139988
32.300000 -26.782715 11.139988
32.100000 -26.031250 11.139988
31.900000 -25.651855 11.139988
32.000000 -24.772461 11.139988
33.700000 -20.991699 11.139988
33.300000 -19.987305 11.139988
33.100000 -19.482910 11.139988
33.000000 -18.728516 11.139988
33.100000 -18.224121 11.139988
33.200000 -17.594727 11.139988
33.500000 -17.215332 11.139988
26.700000 -44.342773 11.276988
29.700000 -42.068359 11.276988
30.100000 -41.563477 11.276988
30.500000 -40.933594 11.276988
30.800000 -40.803711 11.276988
31.100000 -39.798828 11.276988
33.300000 -28.960938 11.276988
32.800000 -28.706055 11.276988
32.400000 -27.576172 11.276988
32.100000 -27.196289 11.276988
31.900000 -26.566406 11.276988
31.800000 -26.061523 11.276988
31.700000 -24.806641 11.276988
31.700000 -24.301758 11.276988
31.500000 -22.789063 11.276988
34.400000 -21.656250 11.276988
33.700000 -20.902344 11.276988
33.200000 -20.523438 11.276988
33.100000 -19.519531 11.276988
33.000000 -19.390625 11.276988
33.100000 -18.761719 11.276988
33.200000 -17.632813 11.276988
33.500000 -17.503906 11.276988
29.700000 -42.838867 11.425988
30.100000 -42.333496 11.425988
30.400000 -41.453125 11.425988
30.800000 -41.073242 11.425988
31.100000 -40.443359 11.425988
31.000000 -37.043945 11.425988
33.200000 -29.480469 11.425988
32.800000 -28.600586 11.425988
32.400000 -27.970703 11.425988
32.100000 -27.090820 11.425988
31.900000 -26.460938 11.425988
31.800000 -25.956055 11.425988
31.600000 -24.701172 11.425988
31.500000 -24.821289 11.425988
33.700000 -21.042969 11.425988
33.200000 -20.664062 11.425988
33.000000 -19.410156 11.425988
33.000000 -19.156250 11.425988
33.100000 -18.152344 11.425988
33.200000 -17.648438 11.425988
33.500000 -17.144531 11.425988
29.700000 -42.495117 11.572988
30.100000 -42.240723 11.572988
30.400000 -41.611328 11.572988
30.800000 -40.856934 11.572988
31.100000 -39.852539 11.572988
31.000000 -36.951172 11.572988
33.200000 -29.000000 11.572988
32.700000 -28.244141 11.572988
32.400000 -27.488281 11.572988
32.100000 -27.107422 11.572988
31.800000 -26.726562 11.572988
31.700000 -25.720703 11.572988
31.600000 -24.714844 11.572988
31.500000 -24.208984 11.572988
33.600000 -21.048828 11.572988
33.200000 -20.417969 11.572988
33.000000 -19.912109 11.572988
33.000000 -19.031250 11.572988
33.000000 -18.276855 11.572988
33.200000 -18.147461 11.572988
33.400000 -17.518066 11.572988
33.900000 -16.888672 11.572988
26.500000 -44.632812 11.719988
29.500000 -42.615723 11.719988
29.800000 -42.112305 11.719988
30.100000 -41.483887 11.719988
30.500000 -40.980469 11.719988
30.800000 -40.352051 11.719988
31.300000 -40.223633 11.719988
33.000000 -29.037109 11.719988
32.600000 -28.658691 11.719988
32.300000 -27.655273 11.719988
32.100000 -26.776855 11.719988
31.800000 -26.273438 11.719988
31.600000 -25.520020 11.719988
31.500000 -25.266602 11.719988
33.800000 -21.246094 11.719988
33.400000 -20.742676 11.719988
33.100000 -19.989258 11.719988
33.000000 -19.485840 11.719988
32.900000 -19.232422 11.719988
33.000000 -18.104004 11.719988
33.100000 -17.600586 11.719988
33.400000 -17.222168 11.719988
33.900000 -16.843750 11.719988
29.600000 -42.159668 11.866988
30.000000 -41.655273 11.866988
30.300000 -41.400879 11.866988
30.700000 -40.646484 11.866988
31.000000 -40.017090 11.866988
33.100000 -28.937988 11.866988
32.700000 -28.558594 11.866988
32.400000 -27.554199 11.866988
32.100000 -27.049805 11.866988
31.900000 -26.920410 11.866988
31.800000 -25.666016 11.866988
31.800000 -25.036621 11.866988
33.700000 -23.394043 11.866988
33.400000 -21.380859 11.866988
33.100000 -20.251465 11.866988
32.900000 -19.872070 11.866988
32.900000 -19.242676 11.866988
32.900000 -18.488281 11.866988
33.000000 -17.983887 11.866988
33.300000 -17.229492 11.866988
29.800000 -42.665039 12.012989
30.100000 -41.662109 12.012989
30.500000 -41.159180 12.012989
30.800000 -40.906250 12.012989
31.200000 -40.028320 12.012989
31.000000 -36.513672 12.012989
32.900000 -29.341797 12.012989
32.500000 -28.585938 12.012989
32.300000 -27.705078 12.012989
32.000000 -26.699219 12.012989
31.900000 -26.318359 12.012989
32.000000 -25.812500 12.012989
33.900000 -23.539062 12.012989
33.800000 -21.771484 12.012989
33.300000 -21.015625 12.012989
33.000000 -20.509766 12.012989
32.900000 -19.878906 12.012989
32.900000 -18.873047 12.012989
32.900000 -18.617187 12.012989
33.100000 -17.986328 12.012989
33.400000 -17.230469 12.012989
34.000000 -16.849609 12.012989
29.600000 -43.062500 12.161988
29.900000 -42.308594 12.161988
30.200000 -42.054688 12.161988
30.600000 -41.425781 12.161988
33.000000 -29.101562 12.161988
32.700000 -29.097656 12.161988
32.400000 -28.218750 12.161988
32.300000 -27.337891 12.161988
32.200000 -26.707031 12.161988
32.200000 -26.201172 12.161988
32.300000 -25.695312 12.161988
32.600000 -24.939453 12.161988
33.100000 -24.308594 12.161988
33.700000 -20.302734 12.161988
33.900000 -23.171875 12.161988
33.500000 -21.404297 12.161988
33.100000 -21.023437 12.161988
32.900000 -20.142578 12.161988
32.800000 -19.136719 12.161988
32.800000 -18.755859 12.161988
32.900000 -18.000000 12.161988
33.200000 -17.369141 12.161988
26.900000 -44.312500 12.308988
29.600000 -43.164062 12.308988
29.900000 -42.033203 12.308988
30.300000 -41.402344 12.308988
30.600000 -40.896484 12.308988
33.100000 -29.160156 12.308988
32.700000 -29.029297 12.308988
32.400000 -28.148437 12.308988
32.300000 -27.392578 12.308988
32.300000 -27.136719 12.308988
32.400000 -26.130859 12.308988
32.500000 -25.250000 12.308988
32.800000 -25.246094 12.308988
33.200000 -24.492188 12.308988
33.600000 -23.988281 12.308988
33.700000 -23.359375 12.308988
33.400000 -21.097656 12.308988
33.100000 -20.718750 12.308988
32.800000 -20.089844 12.308988
32.700000 -19.460938 12.308988
32.800000 -18.707031 12.308988
33.000000 -18.328125 12.308988
33.200000 -17.574219 12.308988
33.700000 -17.070312 12.308988
29.600000 -42.781250 12.447988
30.000000 -42.150879 12.447988
30.300000 -41.270508 12.447988
30.700000 -41.265137 12.447988
31.000000 -40.384766 12.447988
33.100000 -29.538086 12.447988
32.700000 -28.657715 12.447988
32.500000 -27.652344 12.447988
32.400000 -27.146973 12.447988
32.400000 -26.766602 12.447988
32.600000 -26.261230 12.447988
32.800000 -25.630859 12.447988
33.000000 -25.000488 12.447988
33.400000 -20.745117 12.447988
33.800000 -23.739746 12.447988
34.000000 -21.604492 12.447988
33.500000 -21.227051 12.447988
32.900000 -20.599609 12.447988
32.800000 -19.722168 12.447988
32.700000 -18.969727 12.447988
32.800000 -18.592285 12.447988
33.000000 -17.964844 12.447988
33.300000 -17.212402 12.447988
33.700000 -17.084961 12.447988
29.600000 -42.673828 12.595988
30.000000 -42.169434 12.595988
30.300000 -41.790039 12.595988
30.700000 -41.160645 12.595988
33.000000 -29.210937 12.595988
32.700000 -28.457031 12.595988
32.500000 -28.078125 12.595988
32.500000 -27.699219 12.595988
32.600000 -26.820312 12.595988
32.600000 -26.191406 12.595988
32.800000 -25.312500 12.595988
33.000000 -25.183594 12.595988
33.400000 -24.429688 12.595988
33.800000 -23.675781 12.595988
33.800000 -21.539062 12.595988
33.400000 -21.285156 12.595988
32.900000 -20.656250 12.595988
32.700000 -19.528320 12.595988
32.700000 -19.400391 12.595988
32.800000 -18.897461 12.595988
32.900000 -17.769531 12.595988
33.200000 -17.391602 12.595988
33.600000 -16.888672 12.595988
26.900000 -44.238281 12.742987
29.600000 -42.976563 12.742987
30.000000 -42.098633 12.742987
30.300000 -41.345703 12.742987
30.600000 -41.342773 12.742987
33.000000 -29.266602 12.742987
32.700000 -28.762207 12.742987
32.500000 -27.882812 12.742987
32.600000 -27.503418 12.742987
32.700000 -27.124023 12.742987
32.800000 -26.119629 12.742987
33.000000 -25.740234 12.742987
33.100000 -25.360840 12.742987
33.400000 -24.731445 12.742987
33.800000 -23.727051 12.742987
33.700000 -18.338867 12.742987
33.300000 -21.584473 12.742987
32.900000 -20.705078 12.742987
32.700000 -19.825684 12.742987
32.700000 -19.571289 12.742987
32.700000 -18.691895 12.742987
32.900000 -17.937500 12.742987
33.100000 -17.184082 12.742987
33.600000 -16.680664 12.742987
26.500000 -44.744629 12.892988
29.500000 -42.607422 12.892988
29.800000 -42.729980 12.892988
30.100000 -41.477539 12.892988
30.500000 -40.850098 12.892988
30.800000 -40.847656 12.892988
31.300000 -40.345215 12.892988
32.800000 -29.040527 12.892988
32.700000 -28.412109 12.892988
32.600000 -27.908691 12.892988
32.700000 -27.030273 12.892988
32.800000 -26.276855 12.892988
33.000000 -26.148438 12.892988
33.200000 -25.145020 12.892988
33.400000 -24.891602 12.892988
33.600000 -24.263184 12.892988
33.800000 -23.759766 12.892988
33.400000 -21.749512 12.892988
32.800000 -20.996094 12.892988
32.600000 -19.867676 12.892988
32.500000 -19.614258 12.892988
32.600000 -19.110840 12.892988
32.700000 -18.482422 12.892988
32.900000 -17.479004 12.892988
33.300000 -17.225586 12.892988
29.700000 -42.482422 13.036988
30.100000 -41.730469 13.036988
30.400000 -41.228516 13.036988
30.800000 -40.351562 13.036988
31.100000 -40.349609 13.036988
31.000000 -36.964844 13.036988
32.900000 -29.168945 13.036988
32.600000 -28.664062 13.036988
32.600000 -27.909180 13.036988
32.700000 -27.154297 13.036988
32.800000 -26.899414 13.036988
33.000000 -26.019531 13.036988
33.200000 -25.764648 13.036988
33.400000 -24.634766 13.036988
33.600000 -24.129883 13.036988
33.800000 -23.375000 13.036988
33.400000 -21.860352 13.036988
32.800000 -20.730469 13.036988
32.600000 -20.225586 13.036988
32.500000 -19.595703 13.036988
32.500000 -18.965820 13.036988
32.700000 -18.335938 13.036988
32.900000 -17.831055 13.036988
33.200000 -17.326172 13.036988
29.700000 -42.684082 13.186988
30.000000 -42.057617 13.186988
30.400000 -41.806152 13.186988
30.700000 -40.929688 13.186988
31.100000 -40.178223 13.186988
33.000000 -29.262207 13.186988
32.700000 -28.755859 13.186988
32.600000 -27.749512 13.186988
32.700000 -27.243164 13.186988
32.900000 -26.611816 13.186988
33.000000 -26.355469 13.186988
33.200000 -25.849121 13.186988
33.300000 -24.842773 13.186988
33.500000 -24.086426 13.186988
33.700000 -23.580078 13.186988
33.400000 -21.686035 13.186988
32.700000 -20.804688 13.186988
32.500000 -20.423340 13.186988
32.400000 -19.791992 13.186988
32.500000 -19.035645 13.186988
32.600000 -18.279297 13.186988
32.800000 -18.022949 13.186988
33.200000 -17.266602 13.186988
26.400000 -44.887207 13.332988
29.500000 -43.230469 13.332988
29.800000 -42.599121 13.332988
30.200000 -41.592773 13.332988
30.500000 -41.461426 13.332988
30.800000 -40.955078 13.332988
31.300000 -40.448730 13.332988
33.100000 -29.715820 13.332988
32.900000 -29.209473 13.332988
32.700000 -28.203125 13.332988
32.600000 -27.450195 13.332988
32.700000 -27.197266 13.332988
32.900000 -26.444336 13.332988
33.000000 -25.816406 13.332988
33.200000 -25.188477 13.332988
33.400000 -24.685547 13.332988
33.600000 -23.932617 13.332988
33.600000 -23.054688 13.332988
33.700000 -22.926758 13.332988
33.800000 -21.923828 13.332988
33.100000 -21.670898 13.332988
32.500000 -20.792969 13.332988
32.400000 -20.415039 13.332988
32.300000 -19.162109 13.332988
32.400000 -18.659180 13.332988
32.600000 -18.031250 13.332988
32.900000 -17.778320 13.332988
33.300000 -17.400391 13.332988
26.500000 -44.738281 13.478988
29.500000 -42.582031 13.478988
29.800000 -42.200195 13.478988
30.200000 -41.943359 13.478988
30.500000 -41.436523 13.478988
30.800000 -40.679687 13.478988
31.300000 -40.172852 13.478988
33.400000 -29.806641 13.478988
32.900000 -28.924805 13.478988
32.600000 -28.292969 13.478988
32.600000 -27.411133 13.478988
32.700000 -27.154297 13.478988
32.900000 -26.647461 13.478988
33.000000 -26.140625 13.478988
33.200000 -25.387207 13.478988
33.400000 -24.383789 13.478988
33.600000 -24.005371 13.478988
33.300000 -22.245117 13.478988
32.700000 -21.366699 13.478988
32.400000 -20.363281 13.478988
32.300000 -19.734863 13.478988
32.300000 -19.356445 13.478988
32.400000 -18.853027 13.478988
32.600000 -18.349609 13.478988
29.700000 -42.057129 13.618988
30.100000 -42.051758 13.618988
30.500000 -41.546387 13.618988
30.800000 -40.791016 13.618988
31.200000 -40.160645 13.618988
33.200000 -29.444336 13.618988
33.000000 -29.313965 13.618988
32.600000 -28.183594 13.618988
32.600000 -28.053223 13.618988
32.700000 -27.047852 13.618988
32.800000 -26.667480 13.618988
33.000000 -26.162109 13.618988
33.200000 -25.281738 13.618988
33.300000 -24.901367 13.618988
33.500000 -24.145996 13.618988
33.500000 -23.640625 13.618988
33.600000 -22.889160 13.618988
33.500000 -22.512695 13.618988
32.800000 -21.386230 13.618988
32.300000 -21.009766 13.618988
32.300000 -20.008301 13.618988
32.200000 -19.256836 13.618988
32.200000 -19.255371 13.618988
32.400000 -18.628906 13.618988
32.700000 -17.877441 13.618988
33.100000 -17.500977 13.618988
29.600000 -43.058594 13.765988
30.000000 -41.804688 13.765988
30.300000 -41.925781 13.765988
30.700000 -41.296875 13.765988
32.700000 -28.623047 13.765988
32.500000 -27.995605 13.765988
32.600000 -27.743164 13.765988
32.700000 -27.115723 13.765988
32.800000 -26.613281 13.765988
33.000000 -25.360840 13.765988
33.200000 -24.858398 13.765988
33.400000 -24.355957 13.765988
33.600000 -23.728516 13.765988
32.300000 -21.218750 13.765988
32.200000 -20.466797 13.765988
32.200000 -19.714844 13.765988
32.200000 -19.337891 13.765988
32.300000 -18.335938 13.765988
32.500000 -18.208984 13.765988
32.900000 -17.582031 13.765988
29.500000 -42.513672 13.912988
29.800000 -42.011719 13.912988
30.100000 -42.259766 13.912988
30.500000 -41.507812 13.912988
30.800000 -41.005859 13.912988
31.300000 -39.753906 13.912988
33.200000 -30.066406 13.912988
33.000000 -29.187500 13.912988
32.600000 -28.183594 13.912988
32.600000 -27.804688 13.912988
32.600000 -26.925781 13.912988
32.800000 -26.921875 13.912988
32.900000 -25.917969 13.912988
33.100000 -25.039062 13.912988
33.300000 -24.785156 13.912988
33.500000 -24.031250 13.912988
32.300000 -21.515625 13.912988
32.100000 -20.761719 13.912988
32.100000 -20.507812 13.912988
32.100000 -19.378906 13.912988
32.100000 -18.750000 13.912988
32.300000 -18.497559 13.912988
32.700000 -17.495117 13.912988
33.100000 -17.117676 13.912988
26.600000 -44.560547 14.061988
29.600000 -42.800781 14.061988
30.000000 -42.423828 14.061988
30.300000 -41.546875 14.061988
30.700000 -41.294922 14.061988
31.000000 -40.667969 14.061988
32.700000 -28.618164 14.061988
32.600000 -28.365234 14.061988
32.600000 -27.112305 14.061988
32.600000 -27.109375 14.061988
32.800000 -26.231445 14.061988
32.900000 -25.478516 14.061988
33.100000 -25.225586 14.061988
33.400000 -24.347656 14.061988
33.300000 -23.969727 14.061988
33.400000 -22.966797 14.061988
33.300000 -22.463867 14.061988
32.500000 -21.460938 14.061988
32.100000 -21.333008 14.061988
32.000000 -20.080078 14.061988
31.900000 -19.827148 14.061988
32.100000 -19.324219 14.061988
32.300000 -18.321289 14.061988
32.500000 -17.818359 14.061988
32.900000 -17.565430 14.061988
26.400000 -44.762207 14.207988
29.700000 -42.628418 14.207988
30.100000 -42.001953 14.207988
30.400000 -41.000488 14.207988
30.800000 -40.874023 14.207988
31.100000 -39.997559 14.207988
32.700000 -28.575195 14.207988
32.600000 -28.071777 14.207988
32.600000 -26.943359 14.207988
32.600000 -26.689941 14.207988
32.800000 -26.311523 14.207988
33.000000 -25.683105 14.207988
33.100000 -24.679688 14.207988
33.300000 -24.051270 14.207988
33.300000 -23.297852 14.207988
33.500000 -19.419434 14.207988
32.200000 -21.662598 14.207988
32.000000 -20.659180 14.207988
31.900000 -20.530762 14.207988
31.900000 -19.402344 14.207988
32.000000 -18.898926 14.207988
32.100000 -18.270508 14.207988
32.400000 -17.517090 14.207988
33.000000 -17.638672 14.207988
29.500000 -43.299805 14.357988
29.800000 -42.671875 14.357988
30.100000 -41.918945 14.357988
30.500000 -40.916016 14.357988
30.800000 -41.038086 14.357988
31.200000 -40.410156 14.357988
33.300000 -29.598145 14.357988
33.000000 -29.217773 14.357988
32.600000 -28.712402 14.357988
32.500000 -28.082031 14.357988
32.500000 -27.201660 14.357988
32.600000 -26.696289 14.357988
32.700000 -25.565918 14.357988
32.900000 -25.435547 14.357988
33.100000 -24.930176 14.357988
33.200000 -24.424805 14.357988
33.400000 -23.669434 14.357988
33.100000 -23.039062 14.357988
32.500000 -21.908691 14.357988
32.000000 -21.403320 14.357988
31.900000 -21.022949 14.357988
31.800000 -19.892578 14.357988
31.900000 -19.387207 14.357988
32.000000 -18.756836 14.357988
32.200000 -18.501465 14.357988
29.600000 -42.849609 14.503987
30.000000 -42.467285 14.503987
30.300000 -41.584961 14.503987
30.700000 -40.827637 14.503987
33.000000 -29.322266 14.503987
32.700000 -28.694336 14.503987
32.500000 -28.066406 14.503987
32.500000 -27.313477 14.503987
32.600000 -26.810547 14.503987
32.700000 -26.307617 14.503987
32.800000 -25.429688 14.503987
33.000000 -24.801758 14.503987
33.100000 -24.673828 14.503987
33.300000 -24.045898 14.503987
33.300000 -23.292969 14.503987
32.000000 -22.037109 14.503987
31.800000 -20.909180 14.503987
31.800000 -20.531250 14.503987
31.800000 -19.403320 14.503987
31.900000 -19.525391 14.503987
32.000000 -18.897461 14.503987
32.300000 -17.894531 14.503987
32.800000 -17.391602 14.503987
29.600000 -42.925781 14.651987
30.000000 -41.670410 14.651987
30.300000 -41.540039 14.651987
30.700000 -40.534668 14.651987
32.600000 -28.427246 14.651987
32.500000 -27.671875 14.651987
32.500000 -27.542969 14.651987
32.500000 -26.789062 14.651987
32.600000 -26.160156 14.651987
32.800000 -25.156250 14.651987
32.900000 -24.652344 14.651987
33.000000 -24.148438 14.651987
33.200000 -23.894531 14.651987
33.000000 -23.140625 14.651987
32.400000 -22.386719 14.651987
32.000000 -21.257812 14.651987
31.800000 -20.753906 14.651987
31.700000 -20.375000 14.651987
31.800000 -19.496094 14.651987
31.800000 -19.367188 14.651987
32.000000 -18.238281 14.651987
32.300000 -18.234375 14.651987
32.700000 -17.355469 14.651987
29.700000 -42.835938 14.796988
30.000000 -42.080078 14.796988
30.400000 -41.199219 14.796988
30.700000 -41.068359 14.796988
31.100000 -40.687500 14.796988
32.800000 -29.457031 14.796988
32.500000 -28.326172 14.796988
32.400000 -27.945312 14.796988
32.400000 -27.064453 14.796988
32.400000 -26.808594 14.796988
32.600000 -26.302734 14.796988
32.700000 -25.171875 14.796988
32.800000 -24.793945 14.796988
32.900000 -24.041016 14.796988
33.200000 -23.788086 14.796988
32.800000 -22.785156 14.796988
32.100000 -22.157227 14.796988
31.800000 -21.779297 14.796988
31.700000 -20.651367 14.796988
31.700000 -20.273438 14.796988
31.700000 -19.395508 14.796988
31.800000 -18.767578 14.796988
32.000000 -18.264648 14.796988
32.200000 -18.136719 14.796988
32.700000 -17.383789 14.796988
29.500000 -43.004395 14.936988
29.800000 -42.125000 14.936988
30.100000 -42.119629 14.936988
30.500000 -41.614258 14.936988
30.800000 -40.358887 14.936988
31.200000 -40.103516 14.936988
32.800000 -29.512207 14.936988
32.600000 -29.131836 14.936988
32.400000 -28.501465 14.936988
32.300000 -27.871094 14.936988
32.300000 -27.365723 14.936988
32.400000 -26.110352 14.936988
32.500000 -25.979980 14.936988
32.700000 -25.474609 14.936988
32.700000 -24.844238 14.936988
33.000000 -24.213867 14.936988
33.000000 -23.208496 14.936988
32.300000 -22.328125 14.936988
31.900000 -22.200195 14.936988
31.700000 -21.447266 14.936988
31.600000 -20.444336 14.936988
31.700000 -19.941406 14.936988
31.700000 -19.063477 14.936988
31.800000 -18.435547 14.936988
32.000000 -18.307617 14.936988
29.700000 -42.822266 15.086988
30.000000 -42.319824 15.086988
30.400000 -41.567383 15.086988
30.700000 -40.814941 15.086988
31.100000 -40.562500 15.086988
32.600000 -29.349609 15.086988
32.400000 -28.719727 15.086988
32.300000 -27.964844 15.086988
32.300000 -27.459961 15.086988
32.400000 -26.580078 15.086988
32.500000 -26.075195 15.086988
32.700000 -25.820313 15.086988
32.700000 -25.190430 15.086988
32.800000 -24.310547 15.086988
32.800000 -23.930664 15.086988
32.400000 -23.050781 15.086988
32.000000 -22.420898 15.086988
31.800000 -21.666016 15.086988
31.700000 -20.911133 15.086988
31.700000 -20.531250 15.086988
31.700000 -19.528320 15.086988
31.800000 -18.775391 15.086988
32.000000 -18.522461 15.086988
32.200000 -18.019531 15.086988
32.700000 -17.391602 15.086988
29.500000 -42.703125 15.232988
29.800000 -42.328125 15.232988
30.200000 -42.078125 15.232988
30.500000 -41.578125 15.232988
30.800000 -40.703125 15.232988
31.300000 -40.328125 15.232988
32.800000 -29.884766 15.232988
32.600000 -28.879883 15.232988
32.400000 -28.500000 15.232988
32.300000 -27.870117 15.232988
32.300000 -26.865234 15.232988
32.400000 -26.485352 15.232988
32.500000 -25.855469 15.232988
32.700000 -25.350586 15.232988
32.600000 -24.345703 15.232988
32.600000 -24.215820 15.232988
32.700000 -23.585938 15.232988
32.300000 -22.456055 15.232988
31.900000 -21.826172 15.232988
31.700000 -21.446289 15.232988
31.600000 -20.316406 15.232988
31.600000 -19.811523 15.232988
31.700000 -19.181641 15.232988
31.800000 -19.051758 15.232988
32.000000 -18.546875 15.232988
32.300000 -17.668945 15.232988
26.900000 -44.935547 15.379988
29.600000 -43.177734 15.379988
29.900000 -41.925781 15.379988
30.300000 -41.548828 15.379988
30.600000 -40.796875 15.379988
32.900000 -29.357910 15.379988
32.600000 -28.853516 15.379988
32.400000 -27.849121 15.379988
32.300000 -27.719727 15.379988
32.400000 -27.215332 15.379988
32.400000 -26.460938 15.379988
32.500000 -25.956543 15.379988
32.600000 -25.327148 15.379988
32.600000 -24.322754 15.379988
32.600000 -23.818359 15.379988
32.500000 -22.938965 15.379988
32.100000 -22.059570 15.379988
31.700000 -22.055176 15.379988
31.600000 -21.300781 15.379988
31.600000 -20.796387 15.379988
31.700000 -20.041992 15.379988
31.700000 -18.912598 15.379988
31.800000 -18.283203 15.379988
32.000000 -18.153809 15.379988
32.400000 -17.774414 15.379988
29.500000 -42.590820 15.526988
29.800000 -42.712891 15.526988
30.200000 -41.834961 15.526988
30.500000 -40.957031 15.526988
30.800000 -40.579102 15.526988
31.300000 -40.451172 15.526988
32.700000 -28.757812 15.526988
32.400000 -28.127930 15.526988
32.300000 -27.748047 15.526988
32.300000 -27.243164 15.526988
32.400000 -26.488281 15.526988
32.500000 -26.108398 15.526988
32.600000 -25.228516 15.526988
32.700000 -24.973633 15.526988
32.500000 -23.968750 15.526988
32.500000 -22.963867 15.526988
32.200000 -22.333984 15.526988
31.700000 -21.954102 15.526988
31.500000 -21.074219 15.526988
31.500000 -20.319336 15.526988
31.600000 -20.064453 15.526988
31.700000 -19.184570 15.526988
31.800000 -19.054688 15.526988
32.000000 -18.299805 15.526988
32.300000 -17.669922 15.526988
29.800000 -42.813477 15.674988
30.100000 -41.809082 15.674988
30.500000 -41.179688 15.674988
30.800000 -40.800293 15.674988
31.200000 -40.045898 15.674988
32.800000 -29.214844 15.674988
32.500000 -28.334961 15.674988
32.300000 -27.705078 15.674988
32.300000 -27.075195 15.674988
32.400000 -26.195313 15.674988
32.500000 -25.690430 15.674988
32.600000 -25.060547 15.674988
32.700000 -25.055664 15.674988
32.500000 -24.175781 15.674988
32.500000 -23.420898 15.674988
32.300000 -22.791016 15.674988
31.600000 -22.036133 15.674988
31.400000 -21.281250 15.674988
31.400000 -20.401367 15.674988
31.500000 -20.021484 15.674988
31.700000 -19.641602 15.674988
31.800000 -18.511719 15.674988
32.000000 -18.006836 15.674988
32.200000 -18.001953 15.674988
29.500000 -43.424805 15.821988
29.800000 -42.919922 15.821988
30.100000 -42.165039 15.821988
30.500000 -41.410156 15.821988
30.800000 -40.780273 15.821988
31.200000 -39.900391 15.821988
32.900000 -29.062500 15.821988
32.600000 -28.559082 15.821988
32.500000 -27.805664 15.821988
32.400000 -26.802246 15.821988
32.400000 -26.173828 15.821988
32.500000 -26.045410 15.821988
32.600000 -25.541992 15.821988
32.700000 -24.788574 15.821988
32.500000 -24.285156 15.821988
32.500000 -23.156738 15.821988
32.400000 -22.278320 15.821988
31.600000 -22.149902 15.821988
31.300000 -21.146484 15.821988
31.300000 -20.268066 15.821988
31.500000 -20.139648 15.821988
31.700000 -19.511230 15.821988
31.800000 -19.257812 15.821988
32.000000 -18.004395 15.821988
32.200000 -17.625977 15.821988
26.700000 -44.759277 15.968987
29.700000 -42.477539 15.968987
30.100000 -42.221191 15.968987
30.400000 -41.339844 15.968987
30.800000 -40.583496 15.968987
31.200000 -40.327148 15.968987
33.000000 -29.087891 15.968987
32.700000 -28.456543 15.968987
32.600000 -27.575195 15.968987
32.500000 -27.318848 15.968987
32.500000 -26.312500 15.968987
32.500000 -25.936035 15.968987
32.600000 -25.434570 15.968987
32.700000 -24.808105 15.968987
32.500000 -23.806641 15.968987
32.400000 -23.180176 15.968987
32.500000 -22.553711 15.968987
31.200000 -21.300781 15.968987
31.300000 -20.924316 15.968987
31.400000 -19.922852 15.968987
31.700000 -19.796387 15.968987
31.900000 -19.169922 15.968987
32.000000 -17.918457 15.968987
29.500000 -42.807129 16.107987
29.800000 -42.676758 16.107987
30.200000 -42.046387 16.107987
30.500000 -41.416016 16.107987
30.800000 -40.535645 16.107987
31.300000 -39.905273 16.107987
33.000000 -28.808594 16.107987
32.700000 -28.053223 16.107987
32.600000 -27.297852 16.107987
32.600000 -27.167480 16.107987
32.500000 -26.037109 16.107987
32.500000 -25.531738 16.107987
32.600000 -25.151367 16.107987
32.700000 -24.270996 16.107987
32.500000 -24.140625 16.107987
32.500000 -23.262695 16.107987
31.300000 -21.381836 16.107987
31.200000 -21.378906 16.107987
31.200000 -20.750977 16.107987
31.400000 -19.873047 16.107987
31.800000 -19.370117 16.107987
31.900000 -18.867188 16.107987
32.000000 -18.364258 16.107987
32.300000 -17.736328 16.107987
29.500000 -42.889648 16.253988
29.800000 -42.634766 16.253988
30.200000 -41.504883 16.253988
30.500000 -41.250000 16.253988
30.900000 -40.744629 16.253988
31.400000 -40.364258 16.253988
33.100000 -28.892578 16.253988
32.700000 -28.387207 16.253988
32.600000 -27.881836 16.253988
32.600000 -27.251465 16.253988
32.500000 -26.621094 16.253988
32.500000 -25.740723 16.253988
32.600000 -25.235352 16.253988
32.700000 -24.604980 16.253988
32.400000 -23.599609 16.253988
32.500000 -22.969238 16.253988
31.200000 -22.083496 16.253988
31.200000 -20.703125 16.253988
30.900000 -20.699219 16.253988
31.200000 -19.820312 16.253988
31.700000 -19.441406 16.253988
31.900000 -18.562500 16.253988
32.000000 -18.308594 16.253988
32.300000 -17.679688 16.253988
29.500000 -42.583008 16.404988
29.800000 -42.705078 16.404988
30.200000 -42.077148 16.404988
30.500000 -41.324219 16.404988
30.900000 -40.571289 16.404988
31.400000 -40.318359 16.404988
33.100000 -29.203125 16.404988
32.800000 -28.321289 16.404988
32.700000 -27.439453 16.404988
32.600000 -27.057617 16.404988
32.500000 -26.425781 16.404988
32.600000 -26.043945 16.404988
32.600000 -25.037109 16.404988
32.800000 -24.280273 16.404988
32.500000 -24.023438 16.404988
32.500000 -23.391602 16.404988
31.100000 -21.502930 16.404988
30.900000 -20.746094 16.404988
31.000000 -20.489258 16.404988
31.600000 -18.843750 16.404988
32.100000 -18.213867 16.404988
32.400000 -17.333984 16.404988
29.800000 -42.668945 16.549987
30.100000 -42.039551 16.549987
30.500000 -40.910156 16.549987
30.800000 -40.780762 16.549987
31.200000 -40.026367 16.549987
33.300000 -29.447266 16.549987
32.900000 -28.567871 16.549987
32.700000 -27.938477 16.549987
32.600000 -27.434082 16.549987
32.600000 -26.804688 16.549987
32.600000 -25.675293 16.549987
32.700000 -25.670898 16.549987
32.800000 -24.541504 16.549987
32.700000 -23.662109 16.549987
32.500000 -23.532715 16.549987
32.100000 -22.403320 16.549987
31.400000 -20.515137 16.549987
31.600000 -18.626953 16.549987
32.100000 -18.122559 16.549987
32.400000 -17.493164 16.549987
26.600000 -44.586914 16.698988
29.600000 -43.072266 16.698988
30.000000 -42.444336 16.698988
30.300000 -41.316406 16.698988
30.700000 -41.313477 16.698988
31.000000 -40.560547 16.698988
33.100000 -29.000488 16.698988
32.900000 -28.247070 16.698988
32.800000 -27.743652 16.698988
32.700000 -26.865234 16.698988
32.700000 -25.986816 16.698988
32.700000 -25.358398 16.698988
32.800000 -24.979980 16.698988
32.900000 -24.226562 16.698988
32.100000 -18.195801 16.698988
32.300000 -17.817383 16.698988
32.800000 -17.188965 16.698988
29.700000 -42.112305 16.845987
30.100000 -41.859375 16.845987
30.400000 -41.231445 16.845987
30.800000 -40.478516 16.845987
31.100000 -40.100586 16.845987
31.000000 -36.960938 16.845987
33.300000 -29.302734 16.845987
33.000000 -28.175781 16.845987
32.900000 -28.048828 16.845987
32.800000 -27.171875 16.845987
32.700000 -26.794922 16.845987
32.700000 -25.917969 16.845987
32.800000 -25.666016 16.845987
32.900000 -24.789062 16.845987
32.900000 -24.412109 16.845987
31.700000 -18.896484 16.845987
32.200000 -18.269531 16.845987
29.500000 -42.863770 16.992988
29.800000 -42.361328 16.992988
30.200000 -41.608887 16.992988
30.500000 -41.231445 16.992988
30.900000 -40.729004 16.992988
31.400000 -39.976562 16.992988
33.300000 -29.186523 16.992988
33.000000 -28.061035 16.992988
32.800000 -27.435547 16.992988
32.800000 -27.310059 16.992988
32.800000 -26.184570 16.992988
32.800000 -26.184082 16.992988
32.900000 -25.558594 16.992988
33.000000 -24.808105 16.992988
33.000000 -23.807617 16.992988
33.000000 -23.682129 16.992988
32.800000 -22.681641 16.992988
31.400000 -21.055664 16.992988
31.600000 -19.304199 16.992988
32.000000 -19.053711 16.992988
32.300000 -18.178223 16.992988
32.700000 -17.802734 16.992988
29.800000 -42.640625 17.140988
30.100000 -41.886719 17.140988
30.500000 -41.257812 17.140988
30.800000 -40.878906 17.140988
31.200000 -40.500000 17.140988
31.000000 -37.230469 17.140988
33.300000 -28.929688 17.140988
33.000000 -28.175781 17.140988
32.800000 -27.671875 17.140988
32.800000 -27.295410 17.140988
32.700000 -26.543945 17.140988
32.700000 -25.792480 17.140988
32.800000 -25.041016 17.140988
32.900000 -24.914551 17.140988
33.000000 -23.913086 17.140988
32.900000 -23.536621 17.140988
32.900000 -22.910156 17.140988
32.400000 -21.908691 17.140988
31.700000 -21.157227 17.140988
31.800000 -19.652832 17.140988
32.100000 -19.151367 17.140988
32.200000 -18.149902 17.140988
32.600000 -18.023437 17.140988
29.500000 -42.593262 17.286988
29.800000 -42.212891 17.286988
30.200000 -41.582520 17.286988
30.500000 -41.327148 17.286988
30.800000 -40.321777 17.286988
31.300000 -39.941406 17.286988
33.300000 -28.969727 17.286988
33.000000 -28.214355 17.286988
32.800000 -27.458984 17.286988
32.700000 -27.328613 17.286988
32.700000 -26.573242 17.286988
32.800000 -25.817871 17.286988
32.900000 -25.312500 17.286988
33.000000 -24.683105 17.286988
33.100000 -24.178711 17.286988
33.100000 -23.549316 17.286988
32.900000 -23.044922 17.286988
