24.500000 3.792969 15.220949
24.800000 3.206055 15.220949
25.100000 4.744141 15.220949
25.500000 4.282227 15.220949
25.900000 4.695312 15.220949
26.200000 5.608398 15.220949
26.500000 7.597656 15.220949
26.600000 8.010742 15.220949
26.400000 9.923828 15.220949
26.300000 10.211914 15.220949
26.300000 10.375000 15.220949
26.300000 10.784180 15.220949
26.400000 11.318359 15.220949
26.600000 11.977539 15.220949
20.000000 -4.869629 15.352982
20.200000 -4.206055 15.352982
20.300000 -3.542480 15.352982
20.200000 -2.878906 15.352982
20.100000 -2.215332 15.352982
24.400000 -0.522461 15.352982
24.300000 1.766113 15.352982
24.200000 2.429688 15.352982
24.200000 3.093262 15.352982
24.300000 3.756836 15.352982
24.500000 2.545410 15.352982
24.800000 3.208984 15.352982
25.200000 3.997559 15.352982
25.600000 4.536133 15.352982
25.900000 4.574707 15.352982
26.200000 5.738281 15.352982
26.600000 7.979004 15.352982
26.700000 9.142578 15.352982
26.500000 8.806152 15.352982
26.300000 10.094727 15.352982
26.300000 9.883301 15.352982
26.300000 10.671875 15.352982
26.500000 11.330566 15.352982
26.700000 11.864258 15.352982
20.400000 -4.904297 15.504513
20.200000 -3.613281 15.504513
20.200000 -2.947266 15.504513
20.200000 -2.281250 15.504513
24.400000 -0.576172 15.504513
24.300000 1.714844 15.504513
24.200000 2.380859 15.504513
24.200000 3.296875 15.504513
24.400000 1.962891 15.504513
24.500000 2.253906 15.504513
24.800000 3.794922 15.504513
25.200000 3.585938 15.504513
25.600000 5.501953 15.504513
26.000000 4.667969 15.504513
26.200000 6.458984 15.504513
26.600000 7.707031 15.504513
26.800000 8.748047 15.504513
26.500000 8.664062 15.504513
26.400000 9.830078 15.504513
26.400000 9.871094 15.504513
26.400000 11.662109 15.504513
26.500000 11.578125 15.504513
26.700000 11.739746 15.504513
20.400000 -5.215332 15.630086
20.200000 -4.552734 15.630086
20.200000 -4.390137 15.630086
20.200000 -3.227539 15.630086
20.300000 -2.564941 15.630086
24.300000 -1.126953 15.630086
24.300000 -0.589355 15.630086
24.300000 0.448242 15.630086
24.200000 0.985840 15.630086
24.200000 2.148438 15.630086
24.400000 3.811035 15.630086
24.600000 3.973633 15.630086
25.000000 4.386230 15.630086
25.400000 3.673828 15.630086
25.800000 4.711426 15.630086
26.200000 4.999023 15.630086
26.600000 8.274414 15.630086
26.700000 8.562012 15.630086
26.600000 10.099609 15.630086
26.500000 9.637207 15.630086
26.500000 10.799805 15.630086
26.600000 10.712402 15.630086
26.700000 12.000000 15.630086
20.400000 -5.057617 15.771053
20.200000 -4.394531 15.771053
20.200000 -3.731445 15.771053
20.200000 -3.068359 15.771053
20.200000 -2.405273 15.771053
24.300000 0.910156 15.771053
24.300000 1.573242 15.771053
24.200000 0.736328 15.771053
24.100000 2.899414 15.771053
24.200000 2.437500 15.771053
24.400000 2.725586 15.771053
24.700000 2.638672 15.771053
25.000000 3.801758 15.771053
25.400000 4.089844 15.771053
25.900000 4.502930 15.771053
26.300000 5.166016 15.771053
26.600000 7.693359 15.771053
26.700000 9.481445 15.771053
26.600000 9.019531 15.771053
26.500000 10.432617 15.771053
26.600000 11.595703 15.771053
26.700000 12.133789 15.771053
26.900000 11.921875 15.771053
20.400000 -4.015625 15.912853
20.200000 -3.351562 15.912853
20.200000 -2.687500 15.912853
24.200000 -0.617188 15.912853
24.300000 -0.578125 15.912853
24.200000 0.585938 15.912853
24.100000 2.625000 15.912853
24.200000 2.789062 15.912853
24.300000 1.828125 15.912853
24.500000 2.867188 15.912853
24.800000 5.281250 15.912853
26.600000 7.929688 15.912853
26.900000 8.093750 15.912853
26.700000 9.632812 15.912853
26.600000 9.421875 15.912853
26.600000 11.085938 15.912853
26.600000 12.000000 15.912853
26.800000 11.914062 15.912853
20.200000 -4.355957 16.051103
20.200000 -3.693359 16.051103
20.200000 -3.030762 16.051103
20.200000 -2.368164 16.051103
24.300000 -0.305176 16.051103
24.200000 0.607422 16.051103
24.100000 0.895020 16.051103
24.100000 2.057617 16.051103
24.200000 1.720215 16.051103
24.400000 4.257812 16.051103
24.600000 4.295410 16.051103
24.900000 4.708008 16.051103
26.600000 8.221191 16.051103
26.800000 8.633789 16.051103
26.700000 9.421387 16.051103
26.700000 9.958984 16.051103
26.700000 10.746582 16.051103
26.800000 12.034180 16.051103
27.000000 11.571777 16.051103
20.400000 -3.971191 16.192504
20.200000 -3.935547 16.192504
20.200000 -2.649902 16.192504
24.300000 0.653320 16.192504
24.300000 -0.186035 16.192504
24.200000 0.849609 16.192504
24.100000 1.135254 16.192504
24.200000 3.295898 16.192504
24.300000 3.456543 16.192504
24.500000 2.867188 16.192504
24.700000 4.777832 16.192504
27.000000 8.812988 16.192504
26.800000 9.723633 16.192504
26.800000 9.509277 16.192504
26.700000 10.294922 16.192504
26.800000 11.830566 16.192504
26.900000 11.741211 16.192504
20.200000 -3.485352 16.330591
20.200000 -3.324219 16.330591
19.200000 -1.501953 16.330591
24.600000 0.839844 16.330591
24.400000 1.250977 16.330591
24.400000 3.037109 16.330591
24.500000 3.948242 16.330591
24.700000 3.859375 16.330591
24.900000 3.520508 16.330591
28.200000 9.220703 16.330591
27.800000 10.381836 16.330591
27.700000 11.167969 16.330591
27.700000 11.079102 16.330591
28.000000 11.865234 16.330591
28.500000 12.651367 16.330591
20.400000 -4.796875 16.470640
20.200000 -4.387207 16.470640
20.200000 -3.727539 16.470640
20.200000 -3.067871 16.470640
20.200000 -3.283203 16.470640
24.300000 -0.609863 16.470640
24.300000 0.674805 16.470640
24.200000 0.334473 16.470640
24.100000 2.869141 16.470640
24.100000 3.528809 16.470640
24.200000 2.563477 16.470640
24.300000 2.848145 16.470640
24.500000 3.507812 16.470640
27.000000 9.035156 16.470640
26.900000 9.069824 16.470640
26.800000 10.729492 16.470640
26.800000 10.514160 16.470640
26.900000 11.173828 16.470640
27.100000 12.333496 16.470640
20.300000 -5.368164 16.610377
20.200000 -4.328125 16.610377
20.200000 -4.167969 16.610377
20.200000 -3.007812 16.610377
20.200000 -2.347656 16.610377
24.300000 -1.171875 16.610377
24.200000 0.988281 16.610377
24.100000 2.273438 16.610377
24.100000 2.933594 16.610377
24.100000 3.218750 16.610377
24.100000 4.253906 16.610377
24.200000 4.914062 16.610377
24.300000 4.199219 16.610377
24.500000 5.859375 16.610377
27.000000 8.980469 16.610377
26.900000 10.140625 16.610377
26.800000 10.050781 16.610377
26.900000 10.210938 16.610377
26.900000 12.121094 16.610377
27.100000 12.031250 16.610377
27.500000 12.316406 16.610377
20.200000 -4.290039 16.752124
20.300000 -3.375000 16.752124
20.200000 -2.964355 16.752124
20.200000 -2.303711 16.752124
24.300000 0.999512 16.752124
24.200000 0.160156 16.752124
24.100000 0.820801 16.752124
24.100000 3.231445 16.752124
24.100000 3.642090 16.752124
24.100000 2.802734 16.752124
24.100000 3.838379 16.752124
24.200000 3.624023 16.752124
24.300000 6.284668 16.752124
24.500000 6.820312 16.752124
27.300000 7.873535 16.752124
27.000000 9.034180 16.752124
26.900000 9.319824 16.752124
26.900000 9.730469 16.752124
26.900000 11.516113 16.752124
27.000000 12.051758 16.752124
27.200000 12.087402 16.752124
27.500000 12.748047 16.752124
20.400000 -5.254883 16.892768
20.200000 -3.963379 16.892768
20.200000 -3.296875 16.892768
20.200000 -3.134766 16.892768
24.200000 -0.699219 16.892768
24.300000 1.337891 16.892768
24.200000 2.000000 16.892768
24.100000 2.662109 16.892768
24.100000 2.074219 16.892768
24.000000 2.736328 16.892768
24.000000 3.398438 16.892768
24.100000 4.685547 16.892768
24.100000 4.847656 16.892768
24.200000 5.384766 16.892768
24.400000 6.046875 16.892768
27.200000 7.857422 16.892768
27.000000 9.769531 16.892768
27.000000 9.306641 16.892768
27.000000 10.718750 16.892768
27.000000 11.755859 16.892768
27.200000 12.417969 16.892768
20.000000 -4.179688 17.034162
20.200000 -3.761719 17.034162
20.200000 -3.843750 17.034162
20.100000 -2.182129 17.034162
24.400000 -0.499023 17.034162
24.300000 1.787598 17.034162
24.200000 0.574219 17.034162
24.100000 3.110840 17.034162
24.000000 2.772461 17.034162
24.000000 4.434082 17.034162
24.000000 4.095703 17.034162
24.000000 4.632324 17.034162
24.100000 4.543945 17.034162
24.200000 6.205566 17.034162
24.300000 6.617188 17.034162
27.100000 7.638672 17.034162
27.100000 9.550293 17.034162
27.000000 9.461914 17.034162
26.900000 10.623535 17.034162
27.000000 10.660156 17.034162
27.200000 11.696777 17.034162
20.400000 -6.056641 17.173918
20.200000 -4.390137 17.173918
20.200000 -3.723633 17.173918
20.200000 -3.057129 17.173918
20.200000 -2.390625 17.173918
24.400000 -0.967285 17.173918
24.300000 1.567383 17.173918
24.200000 0.727051 17.173918
24.100000 2.886719 17.173918
24.100000 1.546387 17.173918
24.100000 2.331055 17.173918
24.100000 2.865723 17.173918
24.100000 3.525391 17.173918
24.100000 5.685059 17.173918
24.100000 6.469727 17.173918
24.100000 6.504395 17.173918
24.200000 8.164062 17.173918
26.800000 8.552734 17.173918
27.000000 9.587402 17.173918
27.000000 9.497070 17.173918
27.100000 10.781738 17.173918
27.200000 11.941406 17.173918
27.300000 12.101074 17.173918
20.400000 -5.160156 17.312832
20.200000 -3.995117 17.312832
20.200000 -3.330078 17.312832
20.200000 -2.665039 17.312832
24.500000 -0.861328 17.312832
24.400000 -0.576660 17.312832
24.300000 1.958008 17.312832
24.200000 2.242676 17.312832
24.100000 1.277344 17.312832
24.100000 2.437012 17.312832
24.100000 3.096680 17.312832
24.100000 3.756348 17.312832
24.100000 5.916016 17.312832
24.100000 4.700684 17.312832
24.100000 6.485352 17.312832
24.100000 6.395020 17.312832
24.200000 6.679688 17.312832
27.000000 9.228027 17.312832
27.100000 10.137695 17.312832
27.100000 10.672363 17.312832
27.200000 11.332031 17.312832
20.400000 -4.590820 17.439985
20.200000 -3.925781 17.439985
20.200000 -3.260742 17.439985
20.200000 -2.595703 17.439985
24.400000 -1.413086 17.439985
24.400000 -0.503906 17.439985
24.300000 0.030273 17.439985
24.200000 0.689453 17.439985
24.200000 3.098633 17.439985
24.100000 4.007812 17.439985
24.000000 4.041992 17.439985
24.100000 3.326172 17.439985
24.100000 5.985352 17.439985
24.100000 4.644531 17.439985
24.100000 7.303711 17.439985
24.100000 7.962891 17.439985
24.200000 6.497070 17.439985
27.100000 9.827148 17.439985
27.200000 10.736328 17.439985
27.300000 11.395508 17.439985
20.100000 -4.791016 17.583566
20.200000 -4.502930 17.583566
20.200000 -3.464844 17.583566
20.200000 -2.801758 17.583566
20.000000 -2.138672 17.583566
19.500000 -1.475586 17.583566
24.500000 -0.955566 17.583566
24.400000 1.830078 17.583566
24.300000 2.490723 17.583566
24.200000 1.526367 17.583566
24.200000 3.812012 17.583566
24.200000 2.722656 17.583566
24.200000 3.383301 17.583566
24.100000 5.168945 17.583566
24.100000 4.454590 17.583566
24.200000 5.865234 17.583566
24.200000 6.275879 17.583566
24.300000 8.061523 17.583566
27.100000 9.989746 17.583566
27.100000 10.400391 17.583566
27.100000 11.561035 17.583566
27.200000 11.096680 17.583566
20.000000 -4.851562 17.723699
20.200000 -4.187500 17.723699
20.200000 -3.523438 17.723699
20.200000 -3.109375 17.723699
20.100000 -2.195312 17.723699
24.500000 -0.006836 17.723699
24.400000 -0.096191 17.723699
24.300000 0.439453 17.723699
24.200000 3.100098 17.723699
24.200000 3.760742 17.723699
24.200000 3.296387 17.723699
24.200000 5.082031 17.723699
24.200000 3.867676 17.723699
24.200000 4.903320 17.723699
24.300000 5.063965 17.723699
24.300000 6.224609 17.723699
24.500000 6.760254 17.723699
24.700000 8.420898 17.723699
27.200000 9.563477 17.723699
27.200000 10.599121 17.723699
27.200000 10.384766 17.723699
27.400000 11.420410 17.723699
27.600000 12.331055 17.723699
28.000000 12.491699 17.723699
20.100000 -4.066406 17.861854
20.200000 -3.398438 17.861854
20.200000 -2.730469 17.861854
19.500000 -1.394531 17.861854
24.600000 0.394531 17.861854
24.400000 1.929688 17.861854
24.400000 1.339844 17.861854
24.300000 1.500000 17.861854
24.300000 3.160156 17.861854
24.300000 2.445312 17.861854
24.300000 4.230469 17.861854
24.300000 4.390625 17.861854
24.300000 6.550781 17.861854
24.400000 6.335938 17.861854
24.600000 6.371094 17.861854
24.900000 6.531250 17.861854
27.300000 7.726562 17.861854
27.400000 8.011719 17.861854
27.200000 9.671875 17.861854
27.200000 9.832031 17.861854
27.200000 10.492188 17.861854
27.300000 11.277344 17.861854
27.400000 11.937500 17.861854
20.300000 -5.498535 18.002816
20.300000 -3.957031 18.002816
20.300000 -3.290527 18.002816
20.200000 -2.624023 18.002816
24.800000 -0.041504 18.002816
24.600000 -0.750000 18.002816
24.500000 0.034180 18.002816
24.400000 1.193359 18.002816
24.300000 1.602539 18.002816
24.300000 2.886719 18.002816
24.300000 3.545898 18.002816
24.300000 5.330078 18.002816
24.500000 3.864258 18.002816
24.600000 6.898438 18.002816
24.700000 6.057617 18.002816
24.800000 6.466797 18.002816
27.400000 8.228516 18.002816
27.300000 8.887695 18.002816
27.200000 9.921875 18.002816
27.200000 9.831055 18.002816
27.300000 11.615234 18.002816
27.500000 11.524414 18.002816
20.200000 -3.433594 18.142645
20.200000 -3.393066 18.142645
20.000000 -2.102539 18.142645
19.600000 -1.437012 18.142645
24.700000 -0.149902 18.142645
24.600000 1.890625 18.142645
24.500000 1.677246 18.142645
24.400000 2.713867 18.142645
24.400000 2.375488 18.142645
24.400000 3.412109 18.142645
24.500000 3.448730 18.142645
24.600000 4.735352 18.142645
24.800000 5.521973 18.142645
25.100000 5.683594 18.142645
27.600000 7.991699 18.142645
27.400000 8.403320 18.142645
27.300000 9.439941 18.142645
27.200000 10.851562 18.142645
27.300000 10.638184 18.142645
27.400000 11.799805 18.142645
20.200000 -4.409180 18.281044
20.200000 -4.241699 18.281044
20.200000 -3.074219 18.281044
20.200000 -2.406738 18.281044
24.700000 -0.069336 18.281044
24.700000 -0.276855 18.281044
24.600000 2.265625 18.281044
24.500000 1.053223 18.281044
24.500000 2.590820 18.281044
24.600000 2.253418 18.281044
24.600000 4.416016 18.281044
24.700000 4.953613 18.281044
27.500000 9.004395 18.281044
27.400000 9.791992 18.281044
27.300000 9.954590 18.281044
27.400000 11.117188 18.281044
27.500000 10.779785 18.281044
27.700000 11.692383 18.281044
28.000000 12.229980 18.281044
20.200000 -4.253906 18.421217
20.200000 -3.587891 18.421217
20.200000 -2.921875 18.421217
20.200000 -2.255859 18.421217
24.800000 -1.050781 18.421217
24.800000 1.240234 18.421217
24.700000 2.406250 18.421217
24.600000 1.067383 18.421217
24.600000 1.978516 18.421217
24.700000 4.389648 18.421217
24.800000 4.300781 18.421217
25.000000 5.586914 18.421217
28.200000 7.553711 18.421217
27.700000 8.339844 18.421217
27.500000 8.875977 18.421217
27.400000 9.037109 18.421217
27.400000 9.698242 18.421217
27.400000 10.359375 18.421217
27.500000 11.520508 18.421217
20.200000 -4.549316 18.559533
20.200000 -3.885742 18.559533
20.200000 -3.222168 18.559533
20.200000 -3.308594 18.559533
24.800000 0.586426 18.559533
24.700000 0.625000 18.559533
24.700000 1.537598 18.559533
24.800000 2.575195 18.559533
24.900000 2.487793 18.559533
25.100000 4.775391 18.559533
27.500000 8.201172 18.559533
27.400000 9.113770 18.559533
27.400000 9.276367 18.559533
27.400000 11.188965 18.559533
27.500000 11.726562 18.559533
27.700000 11.639160 18.559533
20.200000 -4.531250 18.698366
20.300000 -3.742188 18.698366
20.300000 -3.078125 18.698366
20.200000 -2.414062 18.698366
24.900000 0.281250 18.698366
24.900000 1.445312 18.698366
24.800000 2.234375 18.698366
24.800000 2.148438 18.698366
24.800000 2.687500 18.698366
24.900000 2.475098 18.698366
25.100000 3.762695 18.698366
25.300000 4.300293 18.698366
27.500000 9.101074 18.698366
27.400000 9.263672 18.698366
27.300000 9.676270 18.698366
27.400000 10.338867 18.698366
27.500000 11.626465 18.698366
27.700000 11.664062 18.698366
28.000000 12.701660 18.698366
20.200000 -4.345215 18.838591
20.200000 -3.681641 18.838591
20.200000 -3.018066 18.838591
20.200000 -2.854492 18.838591
24.900000 0.713379 18.838591
24.900000 0.001953 18.838591
24.800000 0.540527 18.838591
24.800000 1.329102 18.838591
24.900000 3.617676 18.838591
25.000000 2.656250 18.838591
25.200000 3.317871 18.838591
25.500000 3.479492 18.838591
26.800000 6.000977 18.838591
28.400000 6.949219 18.838591
27.700000 7.610840 18.838591
27.500000 8.772461 18.838591
27.400000 9.559082 18.838591
27.400000 9.970703 18.838591
27.400000 11.132324 18.838591
27.500000 11.293945 18.838591
27.800000 11.330566 18.838591
28.200000 12.242188 18.838591
20.400000 -4.006836 18.980908
20.300000 -3.342285 18.980908
20.200000 -2.677734 18.980908
20.000000 -2.013184 18.980908
19.600000 -1.348633 18.980908
25.100000 0.309570 18.980908
24.900000 0.849121 18.980908
24.900000 0.763672 18.980908
24.900000 1.928223 18.980908
25.000000 1.842773 18.980908
25.200000 2.382324 18.980908
25.500000 3.046875 18.980908
27.600000 7.832031 18.980908
27.500000 8.867676 18.980908
27.400000 10.278320 18.980908
27.400000 9.938965 18.980908
27.500000 10.724609 18.980908
27.700000 11.385254 18.980908
20.300000 -5.029785 19.119583
20.200000 -4.367188 19.119583
20.200000 -3.704590 19.119583
20.200000 -3.041992 19.119583
20.200000 -2.379395 19.119583
25.100000 -1.316406 19.119583
25.000000 0.096191 19.119583
24.900000 1.008789 19.119583
24.900000 1.171387 19.119583
25.000000 1.833984 19.119583
25.100000 2.996582 19.119583
25.400000 2.659180 19.119583
26.800000 6.092773 19.119583
28.300000 7.665039 19.119583
27.800000 7.951172 19.119583
27.500000 8.237305 19.119583
27.400000 9.773438 19.119583
27.300000 10.559570 19.119583
27.400000 10.845703 19.119583
27.600000 11.131836 19.119583
27.800000 11.542969 19.119583
28.200000 12.079102 19.119583
20.300000 -3.585938 19.259428
20.300000 -2.923340 19.259428
20.200000 -2.635742 19.259428
25.100000 -0.197754 19.259428
25.100000 0.339844 19.259428
25.000000 0.502441 19.259428
25.000000 2.915039 19.259428
25.100000 2.577637 19.259428
25.300000 2.865234 19.259428
25.500000 3.027832 19.259428
25.900000 3.440430 19.259428
26.400000 3.853027 19.259428
26.800000 5.265625 19.259428
27.200000 5.301758 19.259428
27.600000 7.410156 19.259428
27.800000 7.821289 19.259428
27.500000 8.357422 19.259428
27.400000 9.768555 19.259428
27.400000 9.554688 19.259428
27.400000 10.965820 19.259428
27.600000 11.376953 19.259428
20.400000 -5.367676 19.398089
20.300000 -3.831055 19.398089
20.300000 -4.169434 19.398089
20.300000 -2.507812 19.398089
25.200000 0.461914 19.398089
25.100000 0.623535 19.398089
25.000000 0.660156 19.398089
25.100000 1.321777 19.398089
25.300000 2.108398 19.398089
25.500000 2.770020 19.398089
25.800000 4.306641 19.398089
26.300000 4.468262 19.398089
26.700000 4.629883 19.398089
27.100000 4.916504 19.398089
27.400000 7.683594 19.398089
27.500000 8.218750 19.398089
27.500000 8.753906 19.398089
27.400000 9.539062 19.398089
27.400000 10.449219 19.398089
27.500000 11.109375 19.398089
27.700000 11.394531 19.398089
20.100000 -4.283203 19.538393
20.200000 -3.495605 19.538393
20.200000 -2.833008 19.538393
20.300000 -2.170410 19.538393
25.100000 0.642578 19.538393
25.200000 -0.194824 19.538393
25.100000 1.092773 19.538393
25.100000 2.380371 19.538393
25.300000 1.542969 19.538393
25.400000 2.955566 19.538393
27.000000 5.105957 19.538393
27.200000 6.018555 19.538393
27.600000 8.004395 19.538393
27.800000 8.415039 19.538393
27.500000 8.325684 19.538393
27.400000 9.361328 19.538393
27.400000 10.146973 19.538393
27.500000 10.807617 19.538393
27.700000 11.718262 19.538393
20.100000 -4.168457 19.678424
20.200000 -3.501953 19.678424
20.200000 -2.835449 19.678424
20.100000 -2.168945 19.678424
25.200000 -0.836426 19.678424
25.200000 -0.294922 19.678424
25.200000 2.371582 19.678424
25.100000 1.538086 19.678424
25.300000 2.954590 19.678424
25.500000 2.121094 19.678424
25.800000 3.287598 19.678424
26.200000 3.829102 19.678424
26.600000 4.620605 19.678424
27.000000 5.537109 19.678424
27.300000 5.453613 19.678424
27.600000 7.328125 19.678424
27.700000 8.113770 19.678424
27.500000 9.274414 19.678424
27.400000 10.060059 19.678424
27.400000 10.845703 19.678424
27.500000 11.006348 19.678424
27.700000 11.041992 19.678424
20.300000 -4.682129 19.803330
20.200000 -4.016602 19.803330
20.300000 -3.726074 19.803330
20.200000 -2.685547 19.803330
19.500000 -1.354492 19.803330
25.400000 -0.317383 19.803330
25.300000 0.223145 19.803330
25.200000 1.263672 19.803330
25.300000 1.804199 19.803330
25.400000 2.094727 19.803330
25.600000 3.635254 19.803330
25.900000 3.175781 19.803330
26.400000 3.591309 19.803330
26.800000 5.131836 19.803330
27.100000 5.672363 19.803330
27.500000 7.459473 19.803330
27.700000 8.125000 19.803330
27.500000 8.788574 19.803330
27.400000 9.327148 19.803330
27.400000 10.615723 19.803330
27.500000 11.529297 19.803330
27.700000 11.317871 19.803330
20.400000 -6.125977 19.944263
20.200000 -5.585938 19.944263
20.200000 -3.920898 19.944263
20.200000 -3.255859 19.944263
20.200000 -2.590820 19.944263
25.400000 -0.725586 19.944263
25.300000 0.939453 19.944263
25.300000 0.479492 19.944263
25.300000 1.269531 19.944263
25.400000 2.059570 19.944263
25.700000 2.974609 19.944263
26.000000 3.139648 19.944263
26.400000 4.304688 19.944263
26.800000 3.969727 19.944263
27.300000 5.759766 19.944263
27.600000 7.794922 19.944263
27.600000 8.459961 19.944263
27.500000 8.750000 19.944263
27.400000 10.163086 19.944263
27.400000 9.951172 19.944263
27.500000 11.239258 19.944263
27.700000 12.027344 19.944263
28.100000 12.440430 19.944263
20.200000 -4.226562 20.082975
20.200000 -3.562500 20.082975
20.200000 -2.898438 20.082975
20.300000 -2.609375 20.082975
25.300000 0.085938 20.082975
25.500000 -0.375000 20.082975
25.400000 0.539062 20.082975
25.300000 0.828125 20.082975
25.400000 1.992188 20.082975
25.500000 3.156250 20.082975
25.800000 2.820312 20.082975
26.200000 3.484375 20.082975
26.600000 5.023438 20.082975
27.100000 4.437500 20.082975
27.400000 5.976562 20.082975
27.700000 7.218750 20.082975
27.800000 8.507812 20.082975
27.500000 8.421875 20.082975
27.400000 9.710938 20.082975
27.400000 10.000000 20.082975
27.500000 11.285645 20.082975
27.600000 10.946289 20.082975
20.200000 -4.367188 20.227144
20.300000 -3.703125 20.227144
20.200000 -2.789062 20.227144
20.200000 -2.375000 20.227144
25.400000 0.523438 20.227144
25.400000 2.062500 20.227144
25.400000 3.101562 20.227144
25.500000 3.390625 20.227144
25.800000 2.679688 20.227144
26.100000 4.218750 20.227144
26.600000 4.632812 20.227144
27.000000 4.546875 20.227144
27.300000 5.960938 20.227144
27.700000 6.703125 20.227144
27.800000 8.242188 20.227144
27.500000 9.031250 20.227144
27.400000 9.195312 20.227144
27.400000 9.734375 20.227144
27.400000 10.398438 20.227144
27.600000 11.562500 20.227144
20.400000 -5.256836 20.355663
20.300000 -5.471191 20.355663
20.300000 -4.310547 20.355663
20.200000 -3.899902 20.355663
20.200000 -2.614258 20.355663
25.500000 -0.150391 20.355663
25.500000 -0.114746 20.355663
25.400000 0.545898 20.355663
25.400000 1.706543 20.355663
25.500000 2.867188 20.355663
25.700000 3.527832 20.355663
26.000000 3.188477 20.355663
26.400000 3.849121 20.355663
26.800000 4.884766 20.355663
27.200000 4.920410 20.355663
27.600000 7.812988 20.355663
27.600000 7.848633 20.355663
27.500000 9.634277 20.355663
27.400000 9.419922 20.355663
27.400000 9.830566 20.355663
27.500000 10.491211 20.355663
27.700000 11.026855 20.355663
28.000000 12.562500 20.355663
20.400000 -4.870117 20.505217
20.200000 -4.458984 20.505217
20.200000 -3.797852 20.505217
20.300000 -3.136719 20.505217
20.300000 -2.475586 20.505217
25.600000 -0.258789 20.505217
25.500000 -0.097656 20.505217
25.500000 0.563477 20.505217
25.500000 1.099609 20.505217
25.600000 2.885742 20.505217
25.700000 2.421875 20.505217
26.000000 3.458008 20.505217
26.500000 4.869141 20.505217
26.900000 4.030273 20.505217
27.300000 5.191406 20.505217
27.700000 7.549805 20.505217
27.900000 7.335938 20.505217
27.600000 8.372070 20.505217
27.400000 9.408203 20.505217
27.300000 9.444336 20.505217
27.400000 10.230469 20.505217
27.600000 11.516602 20.505217
27.800000 11.427734 20.505217
28.100000 12.588867 20.505217
20.200000 -5.166504 20.643815
20.200000 -3.629883 20.643815
20.200000 -2.968262 20.643815
20.300000 -2.306641 20.643815
25.700000 -0.873535 20.643815
25.600000 -0.336914 20.643815
25.500000 1.324707 20.643815
25.400000 1.361328 20.643815
25.500000 1.772949 20.643815
25.600000 3.434570 20.643815
25.800000 3.096191 20.643815
26.100000 3.132812 20.643815
27.700000 6.852539 20.643815
27.800000 7.764160 20.643815
27.500000 9.175781 20.643815
27.400000 9.587402 20.643815
27.400000 9.999023 20.643815
27.400000 11.160645 20.643815
27.600000 11.447266 20.643815
20.100000 -4.803711 20.784816
20.200000 -4.140625 20.784816
20.200000 -3.479004 20.784816
20.200000 -2.817383 20.784816
20.300000 -2.905762 20.784816
25.500000 -0.847656 20.784816
25.600000 -0.186035 20.784816
25.500000 2.100586 20.784816
25.500000 1.387207 20.784816
25.600000 1.423828 20.784816
25.700000 2.710449 20.784816
25.900000 2.622070 20.784816
26.200000 4.658691 20.784816
26.600000 4.195312 20.784816
27.100000 5.356934 20.784816
27.500000 5.643555 20.784816
27.700000 7.253418 20.784816
27.700000 8.665039 20.784816
27.500000 9.576660 20.784816
27.400000 9.863281 20.784816
27.400000 9.649902 20.784816
27.500000 10.436523 20.784816
27.700000 11.223145 20.784816
20.400000 -4.584961 20.914169
20.300000 -3.917480 20.914169
20.300000 -3.500000 20.914169
20.200000 -2.589844 20.914169
19.500000 -1.894531 20.914169
25.600000 -0.378906 20.914169
25.600000 0.531250 20.914169
25.500000 1.066406 20.914169
25.500000 1.601562 20.914169
25.500000 2.886719 20.914169
25.700000 2.671875 20.914169
26.000000 3.207031 20.914169
27.500000 5.597656 20.914169
27.700000 6.132812 20.914169
28.100000 6.542969 20.914169
27.900000 7.953125 20.914169
27.600000 7.863281 20.914169
27.500000 8.523438 20.914169
27.400000 10.308594 20.914169
27.400000 10.343750 20.914169
27.500000 10.753906 20.914169
27.700000 11.789062 20.914169
28.000000 12.074219 20.914169
20.400000 -5.111328 21.062500
20.300000 -4.442871 21.062500
20.200000 -3.774414 21.062500
20.200000 -3.105957 21.062500
20.200000 -2.437500 21.062500
25.600000 0.293945 21.062500
25.500000 1.707520 21.062500
25.500000 1.121094 21.062500
25.500000 1.659668 21.062500
25.600000 1.698242 21.062500
25.700000 2.611816 21.062500
26.000000 4.150391 21.062500
27.800000 6.756836 21.062500
27.800000 8.295410 21.062500
27.500000 8.958984 21.062500
27.300000 9.747559 21.062500
27.300000 9.411133 21.062500
27.400000 11.199707 21.062500
27.500000 11.363281 21.062500
20.400000 -5.111328 21.189942
20.300000 -4.445312 21.189942
20.200000 -3.779297 21.189942
20.200000 -3.113281 21.189942
20.200000 -2.447266 21.189942
25.600000 -0.831055 21.189942
25.500000 1.083984 21.189942
25.500000 0.874023 21.189942
25.500000 1.289062 21.189942
25.600000 2.704102 21.189942
25.700000 2.994141 21.189942
26.000000 4.534180 21.189942
27.700000 7.649414 21.189942
27.700000 8.314453 21.189942
27.400000 9.354492 21.189942
27.300000 9.019531 21.189942
27.300000 10.559570 21.189942
27.400000 11.224609 21.189942
27.500000 11.139648 21.189942
20.200000 -4.249512 21.342684
20.200000 -3.583984 21.342684
20.200000 -3.168457 21.342684
20.300000 -2.252930 21.342684
25.600000 -0.556152 21.342684
25.600000 -0.642578 21.342684
25.500000 1.145996 21.342684
25.500000 2.309570 21.342684
25.500000 3.223145 21.342684
25.600000 2.511719 21.342684
25.800000 3.675293 21.342684
27.800000 6.945312 21.342684
27.600000 7.733887 21.342684
27.400000 9.397461 21.342684
27.300000 9.186035 21.342684
27.400000 9.974609 21.342684
27.400000 11.138184 21.342684
27.500000 11.676758 21.342684
20.300000 -4.655273 21.468440
20.200000 -3.990234 21.468440
20.200000 -3.325195 21.468440
20.300000 -2.660156 21.468440
20.000000 -2.495117 21.468440
19.500000 -1.330078 21.468440
25.600000 0.196289 21.468440
25.600000 0.481934 21.468440
25.500000 2.017578 21.468440
25.400000 1.928223 21.468440
25.500000 1.963867 21.468440
25.600000 2.124512 21.468440
25.800000 3.410156 21.468440
27.900000 6.463379 21.468440
28.100000 6.624023 21.468440
27.900000 8.034668 21.468440
27.500000 8.070312 21.468440
27.300000 9.605957 21.468440
27.200000 9.891602 21.468440
27.400000 10.302246 21.468440
27.400000 11.087891 21.468440
27.600000 11.373535 21.468440
27.900000 12.659180 21.468440
20.400000 -5.242188 21.609828
20.200000 -4.578125 21.609828
20.200000 -3.914062 21.609828
20.200000 -4.125000 21.609828
20.200000 -2.585938 21.609828
25.600000 -0.354004 21.609828
25.600000 0.557617 21.609828
25.500000 0.469238 21.609828
25.400000 1.505859 21.609828
25.500000 1.792480 21.609828
25.600000 2.829102 21.609828
25.800000 2.865723 21.609828
27.900000 6.673828 21.609828
28.000000 6.710449 21.609828
27.700000 7.872070 21.609828
27.400000 8.158691 21.609828
27.200000 9.070312 21.609828
27.200000 9.481934 21.609828
27.300000 10.768555 21.609828
27.400000 11.055176 21.609828
27.600000 12.216797 21.609828
28.000000 12.003418 21.609828
20.200000 -4.286621 21.749261
20.200000 -3.621094 21.749261
20.200000 -2.955566 21.749261
20.300000 -2.290039 21.749261
25.500000 0.613770 21.749261
25.400000 1.649414 21.749261
25.500000 3.185059 21.749261
25.600000 3.720703 21.749261
25.700000 3.756348 21.749261
25.900000 3.916992 21.749261
28.000000 6.345215 21.749261
27.900000 6.880859 21.749261
27.500000 8.416504 21.749261
27.200000 8.827148 21.749261
27.100000 9.737793 21.749261
27.200000 10.523438 21.749261
27.400000 10.684082 21.749261
27.500000 11.094727 21.749261
20.200000 -3.946289 21.889219
20.200000 -3.279785 21.889219
20.200000 -2.613281 21.889219
19.500000 -1.280273 21.889219
25.500000 -0.864258 21.889219
25.500000 1.302246 21.889219
25.400000 0.968750 21.889219
25.400000 1.628418 21.889219
25.500000 3.538086 21.889219
25.600000 2.947754 21.889219
25.800000 3.607422 21.889219
27.900000 6.530762 21.889219
28.000000 7.565430 21.889219
27.700000 7.725098 21.889219
27.300000 8.884766 21.889219
27.100000 9.044434 21.889219
27.200000 9.329102 21.889219
27.200000 10.113770 21.889219
27.300000 10.773438 21.889219
27.500000 12.308105 21.889219
27.800000 12.592773 21.889219
20.400000 -5.070312 22.030568
20.200000 -4.406250 22.030568
20.200000 -3.742188 22.030568
20.200000 -3.078125 22.030568
20.300000 -2.414062 22.030568
25.500000 -0.429688 22.030568
25.500000 0.484375 22.030568
25.400000 1.648438 22.030568
25.400000 1.687500 22.030568
25.400000 2.723145 22.030568
25.600000 2.508789 22.030568
25.800000 3.044434 22.030568
27.700000 6.758301 22.030568
27.500000 8.293945 22.030568
27.200000 9.079590 22.030568
27.000000 9.115234 22.030568
27.100000 10.400879 22.030568
27.100000 11.311523 22.030568
27.300000 10.722168 22.030568
20.100000 -4.732422 22.169830
20.200000 -4.067383 22.169830
20.200000 -3.402344 22.169830
20.300000 -2.737305 22.169830
20.100000 -2.072266 22.169830
25.400000 -0.997070 22.169830
25.500000 0.167969 22.169830
25.400000 1.208008 22.169830
25.400000 1.123047 22.169830
25.400000 1.538086 22.169830
25.500000 2.828125 22.169830
25.600000 3.987305 22.169830
27.900000 7.442383 22.169830
27.500000 7.351562 22.169830
27.200000 9.010742 22.169830
27.100000 8.919922 22.169830
27.000000 9.954102 22.169830
27.100000 10.113281 22.169830
27.200000 11.022461 22.169830
27.400000 11.431641 22.169830
20.400000 -5.070312 22.308637
20.200000 -4.403809 22.308637
20.200000 -3.737305 22.308637
20.200000 -3.070801 22.308637
20.300000 -2.404297 22.308637
25.400000 -0.405273 22.308637
25.400000 0.886230 22.308637
25.300000 2.677734 22.308637
25.300000 1.219238 22.308637
25.400000 2.010742 22.308637
25.500000 4.052246 22.308637
25.600000 3.718750 22.308637
27.500000 7.534180 22.308637
27.300000 7.815918 22.308637
27.100000 9.222656 22.308637
27.000000 9.504395 22.308637
27.000000 10.411133 22.308637
27.100000 10.567871 22.308637
27.200000 10.849609 22.308637
27.400000 12.256348 22.308637
27.900000 12.538086 22.308637
20.200000 -4.023438 22.449522
20.200000 -3.358887 22.449522
20.200000 -2.694336 22.449522
20.000000 -2.029785 22.449522
19.500000 -1.365234 22.449522
25.300000 -0.167480 22.449522
25.300000 1.122070 22.449522
25.300000 1.161621 22.449522
25.300000 2.326172 22.449522
25.400000 2.615723 22.449522
25.600000 4.030273 22.449522
27.500000 7.138672 22.449522
27.300000 8.177246 22.449522
27.100000 8.965820 22.449522
26.900000 9.504395 22.449522
26.900000 9.292969 22.449522
27.000000 11.081543 22.449522
27.100000 11.495117 22.449522
27.400000 11.408691 22.449522
27.700000 12.322266 22.449522
20.200000 -4.264648 22.587955
20.200000 -4.097168 22.587955
20.200000 -2.929688 22.587955
20.300000 -3.262207 22.587955
25.400000 -0.674805 22.587955
25.300000 -0.007324 22.587955
25.200000 1.035156 22.587955
25.200000 1.202637 22.587955
25.200000 1.620117 22.587955
25.300000 2.162598 22.587955
25.500000 2.830078 22.587955
25.700000 3.372559 22.587955
27.500000 7.457031 22.587955
27.200000 7.498047 22.587955
27.000000 8.414062 22.587955
26.900000 8.955078 22.587955
26.800000 9.121094 22.587955
26.900000 10.287109 22.587955
27.100000 11.203125 22.587955
27.200000 10.994141 22.587955
21.300000 -10.060547 22.729162
20.200000 -4.829590 22.729162
20.200000 -3.415039 22.729162
20.200000 -2.750488 22.729162
20.100000 -2.085938 22.729162
25.300000 0.861816 22.729162
25.300000 -0.473633 22.729162
25.200000 1.565918 22.729162
25.200000 3.105469 22.729162
25.200000 3.145020 22.729162
25.300000 4.184570 22.729162
25.500000 3.474121 22.729162
27.400000 6.546875 22.729162
27.400000 6.834961 22.729162
27.200000 7.498047 22.729162
26.900000 8.786133 22.729162
26.800000 9.199219 22.729162
26.800000 9.612305 22.729162
26.900000 11.025391 22.729162
27.100000 11.313477 22.729162
27.300000 11.976562 22.729162
27.500000 12.264648 22.729162
20.100000 -4.804688 22.866586
20.200000 -4.140625 22.866586
20.200000 -3.476562 22.866586
20.200000 -2.812500 22.866586
20.300000 -2.773438 22.866586
25.300000 -0.578125 22.866586
25.300000 1.085938 22.866586
25.200000 1.250000 22.866586
25.200000 2.289062 22.866586
25.200000 2.328125 22.866586
25.300000 2.367188 22.866586
25.500000 4.281250 22.866586
25.700000 4.070312 22.866586
27.200000 5.726562 22.866586
27.200000 6.515625 22.866586
27.100000 7.302246 22.866586
26.900000 8.463867 22.866586
26.800000 8.750488 22.866586
26.800000 9.787109 22.866586
26.800000 10.948730 22.866586
27.000000 11.110352 22.866586
27.200000 11.146973 22.866586
20.100000 -4.806641 23.007203
20.200000 -4.143555 23.007203
20.200000 -3.480469 23.007203
20.200000 -2.817383 23.007203
20.200000 -2.154297 23.007203
25.300000 -1.088867 23.007203
25.300000 0.199219 23.007203
25.200000 1.362305 23.007203
25.200000 1.650391 23.007203
25.200000 1.938477 23.007203
25.300000 2.976562 23.007203
25.500000 3.514648 23.007203
25.600000 4.052734 23.007203
27.200000 5.830078 23.007203
27.200000 6.743164 23.007203
27.100000 8.156250 23.007203
26.900000 8.315430 23.007203
26.800000 8.849609 23.007203
26.800000 9.633789 23.007203
26.800000 10.167969 23.007203
27.000000 10.702148 23.007203
27.200000 11.361328 23.007203
20.100000 -4.786621 23.132012
20.200000 -4.124023 23.132012
20.300000 -3.461426 23.132012
20.200000 -3.423828 23.132012
20.200000 -2.136230 23.132012
25.300000 -1.073242 23.132012
25.300000 0.339355 23.132012
25.200000 2.376953 23.132012
25.200000 2.664551 23.132012
25.200000 3.202148 23.132012
25.300000 3.864746 23.132012
25.400000 3.277344 23.132012
25.600000 3.814941 23.132012
25.900000 4.977539 23.132012
26.300000 4.515137 23.132012
26.700000 5.552734 23.132012
27.000000 5.840332 23.132012
27.100000 7.377930 23.132012
27.000000 7.790527 23.132012
26.900000 8.328125 23.132012
26.700000 9.987305 23.132012
26.600000 10.271484 23.132012
26.700000 10.805664 23.132012
26.900000 10.464844 23.132012
27.100000 12.124023 23.132012
20.800000 -10.062500 23.274486
20.400000 -4.761719 23.274486
20.200000 -4.099121 23.274486
20.200000 -3.436523 23.274486
20.200000 -2.773926 23.274486
20.200000 -2.111328 23.274486
25.300000 -0.173340 23.274486
25.300000 2.114258 23.274486
25.200000 1.651855 23.274486
25.200000 1.814453 23.274486
25.200000 1.477051 23.274486
25.300000 2.264648 23.274486
25.500000 3.802246 23.274486
25.600000 3.464844 23.274486
25.900000 5.502441 23.274486
26.300000 5.415039 23.274486
26.700000 5.327637 23.274486
26.900000 5.865234 23.274486
27.000000 7.652832 23.274486
26.900000 7.690430 23.274486
26.800000 8.228027 23.274486
26.700000 8.890625 23.274486
26.600000 9.550293 23.274486
26.700000 10.459961 23.274486
26.900000 11.494629 23.274486
27.000000 11.029297 23.274486
20.400000 -5.281250 23.414139
20.200000 -5.242188 23.414139
20.200000 -3.953125 23.414139
20.200000 -3.289062 23.414139
20.200000 -2.625000 23.414139
19.500000 -1.296875 23.414139
25.300000 0.984375 23.414139
25.200000 0.898438 23.414139
25.200000 0.812500 23.414139
25.200000 2.351562 23.414139
25.200000 1.890625 23.414139
25.400000 2.679688 23.414139
25.500000 3.843750 23.414139
25.700000 3.632812 23.414139
26.000000 4.421875 23.414139
26.300000 5.085938 23.414139
26.600000 6.500000 23.414139
26.900000 6.414062 23.414139
26.900000 7.328125 23.414139
26.800000 8.492188 23.414139
26.700000 8.281250 23.414139
26.600000 8.945312 23.414139
26.600000 10.109375 23.414139
26.700000 10.770020 23.414139
26.800000 10.805664 23.414139
27.000000 11.841309 23.414139
27.500000 12.626953 23.414139
20.400000 -5.114746 23.552664
20.200000 -5.450195 23.552664
20.200000 -3.785645 23.552664
20.200000 -3.121094 23.552664
20.300000 -2.456543 23.552664
25.300000 1.405762 23.552664
25.200000 0.445312 23.552664
25.200000 2.359863 23.552664
25.200000 1.399414 23.552664
25.200000 3.063965 23.552664
25.300000 3.228516 23.552664
25.500000 5.018066 23.552664
25.700000 5.182617 23.552664
26.000000 4.347168 23.552664
26.300000 5.386719 23.552664
26.600000 6.051270 23.552664
26.800000 7.465820 23.552664
26.900000 8.005371 23.552664
26.800000 8.169922 23.552664
26.600000 8.584473 23.552664
26.500000 8.999023 23.552664
26.500000 10.663574 23.552664
26.600000 10.328125 23.552664
26.800000 11.488770 23.552664
20.400000 -4.705078 23.693598
20.300000 -4.041504 23.693598
20.200000 -3.377930 23.693598
20.200000 -2.714355 23.693598
20.000000 -2.050781 23.693598
19.600000 -1.387207 23.693598
25.200000 -0.732910 23.693598
25.200000 -0.444336 23.693598
25.200000 1.719238 23.693598
25.100000 1.132812 23.693598
25.200000 2.671387 23.693598
25.300000 3.084961 23.693598
25.400000 3.748535 23.693598
25.600000 4.412109 23.693598
25.900000 4.325684 23.693598
26.200000 5.739258 23.693598
26.400000 5.902832 23.693598
26.600000 7.191406 23.693598
26.800000 6.604980 23.693598
26.800000 7.768555 23.693598
26.700000 9.307129 23.693598
26.500000 9.595703 23.693598
26.400000 9.634277 23.693598
26.400000 11.297852 23.693598
20.200000 -4.202637 23.834860
20.300000 -3.541016 23.834860
20.200000 -2.879395 23.834860
20.300000 -2.217773 23.834860
25.200000 0.090332 23.834860
25.300000 -0.248047 23.834860
25.200000 1.413574 23.834860
25.100000 1.075195 23.834860
25.200000 1.736816 23.834860
25.300000 2.898438 23.834860
25.400000 3.935059 23.834860
25.500000 3.721680 23.834860
25.700000 4.133301 23.834860
26.000000 4.669922 23.834860
26.300000 6.331543 23.834860
26.500000 7.118164 23.834860
26.700000 6.779785 23.834860
26.800000 7.191406 23.834860
26.700000 9.103027 23.834860
26.500000 9.514648 23.834860
26.300000 9.301270 23.834860
26.200000 10.462891 23.834860
20.000000 -4.834961 23.976659
20.200000 -4.169922 23.976659
20.200000 -3.504883 23.976659
20.200000 -2.839844 23.976659
20.300000 -2.174805 23.976659
25.200000 -0.849609 23.976659
25.200000 0.440430 23.976659
25.100000 0.980469 23.976659
25.100000 2.145508 23.976659
25.200000 1.935547 23.976659
25.200000 3.100586 23.976659
25.300000 3.765625 23.976659
25.500000 5.180664 23.976659
25.700000 4.345703 23.976659
26.000000 4.885742 23.976659
26.300000 6.175781 23.976659
26.500000 6.465820 23.976659
26.700000 7.755859 23.976659
26.800000 7.420898 23.976659
26.700000 8.085938 23.976659
26.500000 8.625977 23.976659
26.200000 9.416016 23.976659
26.000000 10.456055 23.976659
20.400000 -5.260742 24.117063
20.200000 -4.593750 24.117063
20.200000 -3.928711 24.117063
20.200000 -3.263672 24.117063
20.200000 -2.598633 24.117063
25.200000 -0.858398 24.117063
25.200000 -0.193359 24.117063
25.100000 2.721680 24.117063
25.100000 2.136719 24.117063
25.200000 1.801758 24.117063
25.300000 2.341797 24.117063
25.400000 3.131836 24.117063
25.600000 3.921875 24.117063
25.800000 4.211914 24.117063
26.100000 5.376953 24.117063
26.300000 6.916992 24.117063
26.400000 6.582031 24.117063
26.700000 7.372070 24.117063
26.800000 7.787109 24.117063
26.600000 9.077148 24.117063
26.200000 10.367188 24.117063
25.900000 10.657227 24.117063
25.800000 11.947266 24.117063
20.000000 -4.861328 24.254918
20.200000 -4.196289 24.254918
20.200000 -3.531250 24.254918
20.200000 -2.869629 24.254918
20.200000 -2.583008 24.254918
25.200000 -1.149902 24.254918
25.200000 -0.488281 24.254918
25.100000 0.798340 24.254918
25.100000 2.209961 24.254918
25.100000 1.996582 24.254918
25.200000 2.283203 24.254918
25.300000 2.944824 24.254918
25.400000 4.731445 24.254918
25.600000 4.393066 24.254918
25.900000 4.929688 24.254918
26.200000 5.466309 24.254918
26.400000 7.127930 24.254918
26.600000 6.914551 24.254918
26.800000 7.951172 24.254918
26.600000 7.987793 24.254918
26.400000 8.899414 24.254918
26.000000 9.936035 24.254918
25.600000 11.472656 24.254918
25.800000 10.634277 24.254918
20.400000 -5.222656 24.383833
20.200000 -4.557617 24.383833
20.200000 -3.892578 24.383833
20.200000 -3.227539 24.383833
20.200000 -3.312500 24.383833
25.200000 0.270508 24.383833
25.100000 2.305176 24.383833
25.100000 1.214844 24.383833
25.100000 1.249512 24.383833
25.100000 1.784180 24.383833
25.200000 2.818848 24.383833
25.300000 2.978516 24.383833
25.500000 4.388184 24.383833
25.700000 4.922852 24.383833
26.000000 6.332520 24.383833
26.200000 6.117188 24.383833
26.300000 7.526855 24.383833
26.500000 7.811523 24.383833
26.700000 7.971191 24.383833
26.500000 8.505859 24.383833
26.100000 9.540527 24.383833
25.700000 10.075195 24.383833
20.100000 -4.791504 24.535468
20.200000 -4.126953 24.535468
20.200000 -3.462402 24.535468
20.200000 -3.297852 24.535468
20.100000 -2.133301 24.535468
25.100000 -0.570312 24.535468
25.100000 0.841797 24.535468
25.000000 0.378906 24.535468
25.000000 1.416016 24.535468
25.000000 2.203125 24.535468
25.100000 2.240234 24.535468
25.300000 3.027344 24.535468
25.400000 5.439453 24.535468
25.600000 4.726562 24.535468
25.800000 4.888672 24.535468
26.100000 6.300781 24.535468
26.200000 6.212891 24.535468
26.400000 7.000000 24.535468
26.700000 7.537109 24.535468
26.500000 7.949219 24.535468
26.200000 9.236328 24.535468
25.800000 11.148438 24.535468
20.400000 -5.145020 24.666177
20.200000 -4.481445 24.666177
20.200000 -3.817871 24.666177
20.200000 -3.154297 24.666177
20.300000 -2.490723 24.666177
25.000000 1.648438 24.666177
25.000000 0.560547 24.666177
25.000000 1.347656 24.666177
25.000000 3.759766 24.666177
25.100000 4.171875 24.666177
25.300000 5.333984 24.666177
25.400000 4.121094 24.666177
25.700000 4.783203 24.666177
25.900000 5.695312 24.666177
26.200000 5.732422 24.666177
26.300000 6.269531 24.666177
26.400000 7.056641 24.666177
26.500000 8.093750 24.666177
26.300000 8.380859 24.666177
26.000000 9.917969 24.666177
25.400000 10.205078 24.666177
20.400000 -4.691406 24.814458
20.200000 -4.024902 24.814458
20.200000 -3.358398 24.814458
20.200000 -2.691895 24.814458
19.500000 -1.358887 24.814458
25.100000 -0.073242 24.814458
25.000000 -0.037109 24.814458
25.000000 2.374023 24.814458
24.900000 2.785156 24.814458
25.000000 3.571289 24.814458
25.000000 2.357422 24.814458
25.200000 3.393555 24.814458
25.300000 4.554688 24.814458
25.500000 5.465820 24.814458
25.800000 4.876953 24.814458
26.000000 5.663086 24.814458
26.100000 6.074219 24.814458
26.300000 6.735352 24.814458
26.600000 7.646484 24.814458
26.500000 8.182617 24.814458
26.100000 9.343750 24.814458
25.700000 10.254883 24.814458
20.200000 -4.078613 24.954526
20.200000 -3.410156 24.954526
20.200000 -2.741699 24.954526
20.000000 -2.073242 24.954526
19.600000 -1.404785 24.954526
25.000000 -0.105957 24.954526
25.000000 0.437500 24.954526
24.900000 0.348633 24.954526
24.900000 1.259766 24.954526
24.900000 1.920898 24.954526
25.000000 3.207031 24.954526
25.100000 3.993164 24.954526
25.300000 3.779297 24.954526
25.500000 4.190430 24.954526
25.700000 5.226562 24.954526
25.900000 5.762695 24.954526
26.100000 7.548828 24.954526
26.200000 8.084961 24.954526
26.500000 7.621094 24.954526
26.500000 8.782227 24.954526
26.100000 9.068359 24.954526
25.700000 9.979492 24.954526
20.200000 -4.278809 25.082530
20.300000 -3.614258 25.082530
20.300000 -2.949707 25.082530
20.300000 -2.285156 25.082530
24.900000 -0.462402 25.082530
25.000000 0.202148 25.082530
24.900000 0.116699 25.082530
24.900000 0.906250 25.082530
24.900000 1.690430 25.082530
24.900000 3.974609 25.082530
25.000000 3.133789 25.082530
25.100000 5.292969 25.082530
25.300000 4.952148 25.082530
25.600000 5.361328 25.082530
25.800000 6.145508 25.082530
26.000000 5.929688 25.082530
26.200000 7.907227 25.082530
26.200000 8.566406 25.082530
25.800000 10.850586 25.082530
25.500000 12.828125 25.082530
20.200000 -4.248047 25.228500
20.200000 -3.581543 25.228500
20.300000 -2.915039 25.228500
20.300000 -2.248535 25.228500
24.900000 -0.791016 25.228500
24.900000 0.125488 25.228500
24.900000 0.791992 25.228500
24.800000 2.708496 25.228500
24.900000 2.000000 25.228500
24.900000 3.159180 25.228500
25.000000 3.068359 25.228500
25.100000 3.852539 25.228500
25.300000 4.011719 25.228500
25.500000 6.170898 25.228500
25.800000 5.330078 25.228500
25.900000 5.989258 25.228500
26.000000 6.898438 25.228500
26.400000 7.182617 25.228500
26.400000 8.216797 25.228500
26.100000 9.250977 25.228500
25.700000 10.410156 25.228500
20.400000 -5.056641 25.361748
20.200000 -4.389648 25.361748
20.200000 -3.722656 25.361748
20.200000 -3.055664 25.361748
20.200000 -2.388672 25.361748
24.900000 -0.678711 25.361748
24.900000 -0.386719 25.361748
24.800000 1.655273 25.361748
24.800000 1.447266 25.361748
24.700000 2.114258 25.361748
24.800000 2.656250 25.361748
24.900000 4.941406 25.361748
25.000000 3.601562 25.361748
25.200000 5.261719 25.361748
25.500000 4.546875 25.361748
25.700000 5.707031 25.361748
25.800000 7.367188 25.361748
26.000000 7.527344 25.361748
26.300000 7.937500 25.361748
26.400000 8.347656 25.361748
26.100000 8.882812 25.361748
25.800000 9.417969 25.361748
25.500000 10.703125 25.361748
25.400000 10.863281 25.361748
20.100000 -4.748047 25.503293
20.200000 -4.083008 25.503293
20.200000 -3.917969 25.503293
20.200000 -2.752930 25.503293
20.000000 -1.837891 25.503293
19.600000 -1.422852 25.503293
24.900000 -0.762695 25.503293
24.800000 1.902344 25.503293
24.700000 1.942383 25.503293
24.700000 1.357422 25.503293
24.700000 2.397461 25.503293
24.800000 3.687500 25.503293
24.900000 4.852051 25.503293
25.100000 4.266602 25.503293
25.300000 4.181152 25.503293
25.500000 6.470703 25.503293
25.800000 5.635254 25.503293
25.900000 6.174805 25.503293
26.100000 7.464355 25.503293
26.300000 7.878906 25.503293
26.200000 8.043457 25.503293
25.900000 9.333008 25.503293
25.600000 9.747559 25.503293
25.500000 10.162109 25.503293
25.700000 11.701660 25.503293
20.100000 -4.859863 25.642839
20.200000 -4.196289 25.642839
20.200000 -3.532715 25.642839
20.200000 -2.869141 25.642839
20.100000 -2.205566 25.642839
24.800000 -0.762695 25.642839
24.700000 0.025879 25.642839
24.600000 1.689453 25.642839
24.600000 1.353027 25.642839
24.700000 3.516602 25.642839
24.700000 2.180176 25.642839
24.800000 5.343750 25.642839
25.000000 4.007812 25.642839
25.200000 4.296875 25.642839
25.500000 4.710938 25.642839
25.800000 6.000000 25.642839
25.900000 7.414062 25.642839
26.000000 6.703125 25.642839
26.300000 7.617188 25.642839
26.200000 8.031250 25.642839
25.900000 9.445312 25.642839
25.700000 10.609375 25.642839
25.600000 10.273438 25.642839
25.700000 10.812500 25.642839
27.300000 13.093750 25.642839
20.400000 -5.226562 25.783231
20.200000 -4.937500 25.783231
20.200000 -3.898438 25.783231
20.200000 -4.234375 25.783231
20.200000 -2.570312 25.783231
24.700000 -1.000000 25.783231
24.700000 -0.835938 25.783231
24.600000 0.203125 25.783231
24.600000 0.992188 25.783231
24.600000 1.406250 25.783231
24.600000 2.695312 25.783231
24.700000 3.734375 25.783231
