23.200000 -1.123047 56.475938
23.200000 -0.442383 56.475938
23.200000 -1.011719 56.475938
27.900000 2.072266 56.475938
27.900000 2.627930 56.475938
27.900000 3.683594 56.475938
28.100000 4.489258 56.475938
28.200000 4.919922 56.475938
28.500000 5.225586 56.475938
28.800000 6.156250 56.475938
29.000000 6.958984 56.475938
29.100000 7.011719 56.475938
29.400000 7.814453 56.475938
29.400000 8.492188 56.475938
29.200000 9.044922 56.475938
29.000000 9.972656 56.475938
28.800000 10.150391 56.475938
23.500000 -7.476074 56.614428
23.400000 -2.260742 56.614428
23.200000 -3.208984 56.614428
23.200000 -2.657227 56.614428
23.200000 -1.855469 56.614428
23.200000 0.446289 56.614428
27.700000 0.903320 56.614428
27.900000 1.580078 56.614428
27.800000 2.506836 56.614428
27.900000 2.683594 56.614428
27.900000 3.610352 56.614428
28.100000 4.037109 56.614428
28.300000 5.088867 56.614428
28.500000 5.390625 56.614428
28.800000 6.192383 56.614428
29.000000 6.619141 56.614428
29.200000 7.045898 56.614428
29.400000 7.722656 56.614428
29.400000 8.274414 56.614428
29.100000 9.076172 56.614428
28.800000 10.252930 56.614428
28.600000 10.304688 56.614428
23.500000 -8.443359 56.744603
23.300000 -2.498047 56.744603
23.200000 -1.567383 56.744603
23.200000 -2.261719 56.744603
23.200000 -0.206055 56.744603
23.200000 -1.275391 56.744603
23.000000 -0.219727 56.744603
27.800000 0.697266 56.744603
27.900000 1.752930 56.744603
27.900000 2.808594 56.744603
27.900000 2.614258 56.744603
28.000000 3.794922 56.744603
28.100000 3.975586 56.744603
28.300000 4.906250 56.744603
28.600000 4.960449 56.744603
28.800000 5.764648 56.744603
28.900000 6.443848 56.744603
29.100000 7.248047 56.744603
29.400000 7.802246 56.744603
29.300000 8.356445 56.744603
29.100000 9.160645 56.744603
28.600000 10.214844 56.744603
28.500000 10.894043 56.744603
23.500000 -7.673828 56.878758
23.400000 -3.774414 56.878758
23.300000 -2.216309 56.878758
23.200000 -2.908203 56.878758
23.200000 -2.350098 56.878758
23.200000 -2.041992 56.878758
23.300000 -0.108887 56.878758
23.200000 1.199219 56.878758
27.800000 0.873535 56.878758
27.900000 2.181641 56.878758
27.900000 2.489746 56.878758
27.900000 2.672852 56.878758
28.000000 3.230957 56.878758
28.100000 3.789062 56.878758
28.300000 4.597168 56.878758
28.600000 5.280273 56.878758
28.800000 6.088379 56.878758
28.900000 7.146484 56.878758
29.100000 6.954590 56.878758
29.400000 7.762695 56.878758
29.300000 8.695801 56.878758
28.900000 9.128906 56.878758
23.400000 -7.517578 57.006015
23.400000 -4.117676 57.006015
23.300000 -3.185547 57.006015
23.200000 -2.003418 57.006015
23.200000 -1.446289 57.006015
23.200000 -1.514160 57.006015
23.300000 -0.957031 57.006015
23.300000 1.350098 57.006015
27.900000 0.521484 57.006015
27.900000 2.328613 57.006015
27.900000 2.010742 57.006015
27.900000 2.567871 57.006015
28.000000 4.125000 57.006015
28.100000 4.556152 57.006015
28.300000 5.612305 57.006015
28.600000 5.168457 57.006015
28.800000 5.974609 57.006015
29.100000 8.018066 57.006015
29.300000 9.074219 57.006015
28.900000 9.505371 57.006015
23.500000 -9.310547 57.144980
23.500000 -7.877441 57.144980
23.400000 -4.359375 57.144980
23.300000 -3.179688 57.144980
23.200000 -1.375000 57.144980
23.200000 -0.695312 57.144980
23.200000 -1.265625 57.144980
27.900000 1.632812 57.144980
27.900000 2.312500 57.144980
27.900000 2.492188 57.144980
27.900000 2.921875 57.144980
28.000000 3.226562 57.144980
28.200000 4.281250 57.144980
28.300000 4.585938 57.144980
28.600000 6.140625 57.144980
28.800000 6.695312 57.144980
29.100000 8.359375 57.144980
29.300000 8.789062 57.144980
28.900000 9.468750 57.144980
23.500000 -9.297852 57.283696
23.300000 -2.586914 57.283696
23.200000 -1.904297 57.283696
23.200000 -1.221680 57.283696
23.200000 -0.539062 57.283696
23.200000 -1.231445 57.283696
27.900000 1.806641 57.283696
27.900000 1.614258 57.283696
27.900000 2.296875 57.283696
27.900000 3.600586 57.283696
28.000000 3.404297 57.283696
28.200000 4.583008 57.283696
28.400000 5.386719 57.283696
28.600000 6.315430 57.283696
28.800000 6.494141 57.283696
29.100000 7.905273 57.283696
29.200000 8.708984 57.283696
28.700000 9.887695 57.283696
23.500000 -8.863281 57.422078
23.400000 -3.416016 57.422078
23.200000 -1.610352 57.422078
23.200000 -2.429688 57.422078
23.200000 -1.749023 57.422078
23.300000 -0.693359 57.422078
27.800000 0.529297 57.422078
27.900000 1.334961 57.422078
27.900000 2.140625 57.422078
27.900000 2.946289 57.422078
27.900000 3.751953 57.422078
28.100000 4.557617 57.422078
28.300000 5.363281 57.422078
28.500000 5.418945 57.422078
28.700000 6.599609 57.422078
28.900000 7.155273 57.422078
29.000000 8.822266 57.422078
29.000000 9.377930 57.422078
28.300000 10.433594 57.422078
23.600000 -8.882324 57.561874
23.500000 -8.200195 57.561874
23.400000 -7.518066 57.561874
23.400000 -4.368164 57.561874
23.300000 -3.061035 57.561874
23.200000 -3.003906 57.561874
23.200000 -1.821777 57.561874
23.200000 -0.014648 57.561874
23.200000 -0.707520 57.561874
23.300000 1.349609 57.561874
27.900000 1.395996 57.561874
27.900000 1.828125 57.561874
27.800000 2.129883 57.561874
27.900000 2.931641 57.561874
28.000000 4.233398 57.561874
28.100000 4.410156 57.561874
28.300000 4.961914 57.561874
28.500000 5.638672 57.561874
28.700000 6.065430 57.561874
28.800000 7.117188 57.561874
28.900000 7.793945 57.561874
29.300000 8.095703 57.561874
29.300000 9.022461 57.561874
28.900000 10.199219 57.561874
28.600000 11.354492 57.561874
23.600000 -8.181152 57.688914
23.400000 -2.606934 57.688914
23.200000 -1.925781 57.688914
23.200000 -1.994629 57.688914
23.200000 -0.563477 57.688914
23.200000 -1.257324 57.688914
27.900000 1.829590 57.688914
27.900000 2.010742 57.688914
27.900000 3.316895 57.688914
28.000000 3.748047 57.688914
28.100000 4.804199 57.688914
28.300000 5.610352 57.688914
28.600000 6.041504 57.688914
28.800000 6.097656 57.688914
29.100000 8.141113 57.688914
29.200000 8.822266 57.688914
28.700000 10.128418 57.688914
23.500000 -9.750000 57.827527
23.400000 -3.921875 57.827527
23.200000 -2.365234 57.827527
23.200000 -2.433594 57.827527
23.200000 -0.251953 57.827527
23.300000 -1.320312 57.827527
27.700000 1.406250 57.827527
27.900000 1.085938 57.827527
27.800000 2.265625 57.827527
27.800000 3.195312 57.827527
27.900000 3.375000 57.827527
28.100000 3.929688 57.827527
28.200000 4.484375 57.827527
28.400000 5.789062 57.827527
28.700000 6.343750 57.827527
28.800000 6.273438 57.827527
29.000000 8.437500 57.827527
29.000000 9.992188 57.827527
23.500000 -8.187500 57.955673
23.400000 -8.882324 57.955673
23.400000 -4.496094 57.955673
23.200000 -2.065918 57.955673
23.200000 -2.635742 57.955673
23.200000 -0.705566 57.955673
23.200000 -0.025391 57.955673
23.200000 0.654785 57.955673
23.300000 0.709961 57.955673
27.800000 0.875488 57.955673
27.800000 2.055664 57.955673
27.800000 2.485840 57.955673
27.800000 2.541016 57.955673
28.000000 3.596191 57.955673
28.100000 4.026367 57.955673
28.300000 4.706543 57.955673
28.500000 5.386719 57.955673
28.700000 6.066895 57.955673
28.700000 6.497070 57.955673
28.800000 7.302246 57.955673
29.200000 8.607422 57.955673
29.300000 8.662598 57.955673
28.800000 9.967773 57.955673
28.400000 10.397949 57.955673
28.500000 10.703125 57.955673
23.500000 -8.797852 58.094412
23.400000 -2.305664 58.094412
23.300000 -1.994141 58.094412
23.300000 -1.557617 58.094412
23.200000 -1.496094 58.094412
23.300000 0.065430 58.094412
27.700000 0.554688 58.094412
27.800000 1.234375 58.094412
27.800000 2.664062 58.094412
27.800000 2.593750 58.094412
27.900000 4.148438 58.094412
28.000000 4.578125 58.094412
28.200000 4.382812 58.094412
28.400000 5.187500 58.094412
28.700000 6.117188 58.094412
28.800000 7.171875 58.094412
28.900000 8.710938 58.094412
29.000000 9.015625 58.094412
28.500000 10.570312 58.094412
28.500000 10.500000 58.094412
30.300000 13.218750 58.094412
23.500000 -8.052246 58.232043
23.300000 -4.345215 58.232043
23.200000 -2.788086 58.232043
23.200000 -1.230957 58.232043
23.200000 -0.548828 58.232043
23.200000 -0.866699 58.232043
27.800000 1.726074 58.232043
27.700000 2.783203 58.232043
27.800000 3.465332 58.232043
27.900000 4.397461 58.232043
28.100000 4.454590 58.232043
28.300000 4.886719 58.232043
28.500000 5.818848 58.232043
28.800000 6.500977 58.232043
29.100000 8.172363 58.232043
29.100000 9.104492 58.232043
28.700000 10.286621 58.232043
28.600000 10.468750 58.232043
28.800000 10.896973 58.232043
29.200000 12.325195 58.232043
29.700000 12.128418 58.232043
30.100000 12.806641 58.232043
23.500000 -7.931641 58.372816
23.300000 -2.470703 58.372816
23.200000 -1.788086 58.372816
23.200000 -1.105469 58.372816
23.200000 -0.422852 58.372816
23.200000 -1.365234 58.372816
27.500000 0.606445 58.372816
27.800000 0.909668 58.372816
27.800000 2.212891 58.372816
27.700000 2.391113 58.372816
27.800000 3.569336 58.372816
27.900000 4.247559 58.372816
28.100000 4.800781 58.372816
28.300000 5.479004 58.372816
28.500000 6.282227 58.372816
28.800000 6.460449 58.372816
29.000000 8.120117 58.372816
29.100000 9.173340 58.372816
28.700000 9.976562 58.372816
28.600000 10.154785 58.372816
30.100000 12.992676 58.372816
11.200000 -10.291016 58.498496
11.000000 -9.609375 58.498496
23.300000 -2.991699 58.498496
23.200000 -3.435547 58.498496
23.200000 -1.004395 58.498496
23.200000 -1.017090 58.498496
27.700000 1.694824 58.498496
27.700000 2.750977 58.498496
27.800000 3.932129 58.498496
27.900000 4.113281 58.498496
28.100000 5.169434 58.498496
28.400000 5.100586 58.498496
28.600000 5.906738 58.498496
28.700000 6.337891 58.498496
28.800000 7.519043 58.498496
29.300000 7.700195 58.498496
29.300000 8.256348 58.498496
28.900000 9.687500 58.498496
28.700000 9.992188 58.498496
28.700000 11.171875 58.498496
29.000000 11.476562 58.498496
29.300000 12.281250 58.498496
29.700000 12.585938 58.498496
30.300000 13.015625 58.498496
23.300000 -8.728516 58.636780
23.300000 -2.138672 58.636780
23.200000 -2.330566 58.636780
23.200000 -2.397461 58.636780
23.200000 -1.339355 58.636780
27.900000 4.715332 58.636780
28.100000 4.645508 58.636780
28.700000 6.561035 58.636780
28.700000 8.116211 58.636780
28.400000 11.017090 58.636780
28.800000 11.447266 58.636780
29.300000 11.877441 58.636780
27.400000 0.144531 58.775434
27.700000 1.075195 58.775434
27.700000 1.880859 58.775434
27.700000 2.686523 58.775434
27.700000 3.242188 58.775434
27.800000 4.422852 58.775434
28.100000 4.228516 58.775434
28.500000 9.115723 58.775434
28.800000 9.793945 58.775434
28.900000 10.097168 58.775434
29.000000 11.025391 58.775434
29.200000 12.078613 58.775434
29.700000 12.006836 58.775434
30.100000 13.435059 58.775434
23.300000 -2.294434 58.917306
23.300000 -1.181152 58.917306
23.000000 -0.502930 58.917306
27.700000 0.781738 58.917306
27.700000 1.334961 58.917306
27.600000 2.013184 58.917306
27.700000 2.691406 58.917306
27.700000 3.369629 58.917306
27.900000 4.797852 58.917306
28.100000 5.351074 58.917306
28.400000 5.029297 58.917306
28.600000 6.457520 58.917306
28.800000 6.385742 58.917306
29.000000 7.063965 58.917306
29.300000 7.867188 58.917306
29.200000 8.545410 58.917306
29.000000 9.098633 58.917306
28.900000 10.526855 58.917306
29.000000 10.955078 58.917306
29.100000 11.383301 58.917306
29.300000 11.936523 58.917306
23.600000 -8.104980 59.042758
23.300000 -3.272949 59.042758
23.200000 -2.090820 59.042758
23.200000 -1.283691 59.042758
23.200000 -1.601562 59.042758
23.200000 0.080566 59.042758
27.700000 1.923340 59.042758
27.600000 2.980469 59.042758
27.600000 3.662598 59.042758
27.800000 3.594727 59.042758
27.900000 4.776855 59.042758
28.200000 5.458984 59.042758
28.500000 6.016113 59.042758
28.700000 6.073242 59.042758
28.900000 7.380371 59.042758
29.200000 7.937500 59.042758
29.200000 7.990234 59.042758
29.000000 8.917969 59.042758
28.800000 10.345703 59.042758
28.900000 10.273438 59.042758
29.100000 11.451172 59.042758
29.300000 11.503906 59.042758
29.600000 12.681641 59.042758
23.500000 -9.002930 59.181780
23.400000 -2.163086 59.181780
23.200000 -1.479980 59.181780
23.200000 -2.296875 59.181780
23.200000 -1.118652 59.181780
23.300000 0.559570 59.181780
23.300000 0.362793 59.181780
27.700000 1.647461 59.181780
27.700000 1.325684 59.181780
27.600000 2.753906 59.181780
27.600000 2.432129 59.181780
27.700000 4.235352 59.181780
27.900000 4.913574 59.181780
28.100000 4.841797 59.181780
28.300000 6.020020 59.181780
28.600000 5.698242 59.181780
28.800000 7.001465 59.181780
29.100000 7.054688 59.181780
29.300000 8.607910 59.181780
29.100000 9.411133 59.181780
28.900000 9.214355 59.181780
28.900000 10.142578 59.181780
29.000000 10.695801 59.181780
29.300000 11.249023 59.181780
29.500000 11.802246 59.181780
23.500000 -9.785156 59.321018
23.400000 -2.332031 59.321018
23.200000 -3.150391 59.321018
23.200000 -0.968750 59.321018
23.200000 -1.787109 59.321018
23.300000 -0.980469 59.321018
27.600000 0.996094 59.321018
27.600000 1.052734 59.321018
27.500000 1.984375 59.321018
27.500000 3.416016 59.321018
27.700000 3.222656 59.321018
27.800000 4.029297 59.321018
28.100000 4.585938 59.321018
28.400000 6.017578 59.321018
28.600000 5.699219 59.321018
28.900000 6.880859 59.321018
29.300000 7.812500 59.321018
29.400000 8.366211 59.321018
29.200000 9.044922 59.321018
28.900000 9.848633 59.321018
29.000000 9.652344 59.321018
29.000000 10.706055 59.321018
29.200000 11.259766 59.321018
29.500000 11.813477 59.321018
23.500000 -7.803711 59.445031
23.400000 -2.448242 59.445031
23.200000 -1.638184 59.445031
23.200000 -0.953125 59.445031
23.200000 -1.275391 59.445031
23.300000 -1.222656 59.445031
27.600000 0.613281 59.445031
27.600000 1.291016 59.445031
27.500000 1.843750 59.445031
27.500000 3.271484 59.445031
27.600000 3.074219 59.445031
27.800000 3.751953 59.445031
28.000000 4.554688 59.445031
28.300000 5.232422 59.445031
29.300000 8.068359 59.445031
29.100000 8.371094 59.445031
28.900000 9.798828 59.445031
29.000000 9.851562 59.445031
29.000000 10.654297 59.445031
29.200000 10.957031 59.445031
29.500000 12.134766 59.445031
23.500000 -9.708008 59.586106
23.300000 -2.610352 59.586106
23.200000 -1.926270 59.586106
23.200000 -1.242188 59.586106
23.200000 -2.308105 59.586106
23.200000 -0.374023 59.586106
27.400000 0.487305 59.586106
27.700000 0.921387 59.586106
27.600000 1.605469 59.586106
27.500000 3.289551 59.586106
27.600000 2.848633 59.586106
27.700000 3.782715 59.586106
27.900000 4.716797 59.586106
28.200000 4.900879 59.586106
29.400000 7.883301 59.586106
29.200000 8.188477 59.586106
29.000000 9.243652 59.586106
28.900000 9.673828 59.586106
29.000000 10.354004 59.586106
29.200000 11.284180 59.586106
29.400000 11.839355 59.586106
29.700000 12.144531 59.586106
30.200000 12.949707 59.586106
23.500000 -7.766113 59.726437
23.400000 -4.168457 59.726437
23.200000 -3.109375 59.726437
23.200000 -2.178223 59.726437
23.200000 -0.247070 59.726437
23.300000 -0.190918 59.726437
23.000000 1.115234 59.726437
27.600000 0.533691 59.726437
27.600000 1.964844 59.726437
27.500000 2.395996 59.726437
27.500000 3.077148 59.726437
27.600000 4.008301 59.726437
27.800000 4.314453 59.726437
28.100000 4.745605 59.726437
28.300000 4.926758 59.726437
28.600000 6.357910 59.726437
29.100000 6.789062 59.726437
29.400000 7.470215 59.726437
29.300000 8.401367 59.726437
29.100000 9.082520 59.726437
28.900000 9.888672 59.726437
29.000000 9.944824 59.726437
29.100000 10.500977 59.726437
29.300000 11.682129 59.726437
29.600000 11.863281 59.726437
23.500000 -8.100098 59.853592
23.500000 -9.417969 59.853592
23.300000 -4.143066 59.853592
23.200000 -3.335938 59.853592
23.200000 -1.278809 59.853592
23.200000 -0.596680 59.853592
23.200000 -1.414551 59.853592
27.600000 1.928223 59.853592
27.500000 2.735352 59.853592
27.600000 3.292480 59.853592
27.700000 4.099609 59.853592
27.900000 5.031738 59.853592
28.200000 5.213867 59.853592
29.400000 7.434570 59.853592
29.300000 8.237793 59.853592
29.100000 9.666016 59.853592
29.000000 9.469238 59.853592
29.100000 10.147461 59.853592
29.200000 11.075684 59.853592
29.400000 12.253906 59.853592
29.700000 12.057129 59.853592
30.200000 12.860352 59.853592
23.500000 -7.847656 59.994399
23.400000 -3.125000 59.994399
23.200000 -3.446777 59.994399
23.200000 -1.018555 59.994399
23.200000 -1.715332 59.994399
23.300000 -0.412109 59.994399
27.500000 0.425781 59.994399
27.600000 1.354004 59.994399
27.500000 1.657227 59.994399
27.500000 2.960449 59.994399
27.700000 3.013672 59.994399
27.800000 4.191895 59.994399
28.000000 4.495117 59.994399
28.400000 5.673340 59.994399
29.400000 7.636230 59.994399
29.300000 8.064453 59.994399
29.200000 9.117676 59.994399
29.100000 10.170898 59.994399
29.100000 10.849121 59.994399
29.300000 11.027344 59.994399
29.400000 11.955566 59.994399
23.500000 -8.191406 60.122532
23.500000 -7.510254 60.122532
23.400000 -2.742188 60.122532
23.200000 -2.811035 60.122532
23.200000 -1.379883 60.122532
23.200000 -0.698730 60.122532
23.200000 -0.017578 60.122532
27.700000 1.319336 60.122532
27.600000 2.000488 60.122532
27.600000 3.306641 60.122532
27.700000 4.237793 60.122532
27.900000 4.168945 60.122532
28.200000 5.350098 60.122532
28.600000 5.781250 60.122532
28.900000 5.960938 60.122532
29.400000 7.140625 60.122532
29.500000 7.070312 60.122532
29.400000 8.000000 60.122532
29.300000 8.554688 60.122532
29.200000 9.734375 60.122532
29.200000 10.039062 60.122532
29.300000 11.093750 60.122532
29.500000 11.148438 60.122532
29.700000 11.953125 60.122532
30.100000 12.757812 60.122532
23.500000 -9.422363 60.260594
23.400000 -2.765625 60.260594
23.200000 -2.087402 60.260594
23.200000 -3.034180 60.260594
23.200000 -0.730957 60.260594
23.200000 -1.677734 60.260594
27.700000 0.463379 60.260594
27.700000 2.016602 60.260594
27.600000 1.944824 60.260594
27.600000 2.998047 60.260594
27.700000 3.926270 60.260594
27.900000 4.104492 60.260594
28.300000 5.157715 60.260594
28.600000 5.960938 60.260594
28.900000 6.014160 60.260594
29.400000 7.192383 60.260594
29.600000 7.620605 60.260594
29.600000 8.048828 60.260594
29.300000 8.977051 60.260594
29.200000 9.905273 60.260594
29.200000 9.833496 60.260594
29.300000 10.761719 60.260594
29.500000 11.939941 60.260594
29.700000 12.243164 60.260594
30.100000 12.796387 60.260594
23.500000 -9.278320 60.399139
23.300000 -3.817383 60.399139
23.200000 -2.884766 60.399139
23.200000 -0.827148 60.399139
23.200000 -0.144531 60.399139
23.300000 0.538086 60.399139
23.300000 0.220703 60.399139
27.700000 0.643555 60.399139
27.800000 1.701172 60.399139
27.700000 2.008789 60.399139
27.700000 2.566406 60.399139
27.800000 3.874023 60.399139
28.000000 4.556641 60.399139
28.300000 5.114258 60.399139
28.600000 5.921875 60.399139
28.900000 5.726562 60.399139
29.400000 7.031250 60.399139
29.700000 7.585938 60.399139
29.700000 8.140625 60.399139
29.300000 9.320312 60.399139
29.200000 9.250000 60.399139
29.200000 10.429688 60.399139
29.300000 10.359375 60.399139
29.500000 11.664062 60.399139
29.700000 12.218750 60.399139
30.200000 12.273438 60.399139
23.500000 -7.715820 60.525943
23.400000 -2.256836 60.525943
23.200000 -2.076172 60.525943
23.200000 -2.770508 60.525943
23.200000 -1.839844 60.525943
23.300000 -1.409180 60.525943
27.700000 0.438477 60.525943
27.800000 1.619141 60.525943
27.700000 2.924805 60.525943
27.700000 2.605469 60.525943
27.800000 3.286133 60.525943
28.000000 3.841797 60.525943
28.300000 5.022461 60.525943
28.600000 5.328125 60.525943
29.000000 6.383789 60.525943
29.300000 6.939453 60.525943
29.800000 6.870117 60.525943
29.800000 7.675781 60.525943
29.500000 8.856445 60.525943
29.300000 9.662109 60.525943
29.300000 9.967773 60.525943
29.300000 10.398438 60.525943
29.500000 11.704102 60.525943
29.800000 12.384766 60.525943
30.200000 12.690430 60.525943
23.500000 -8.771484 60.664397
23.400000 -2.318359 60.664397
23.200000 -2.761719 60.664397
23.200000 -0.955078 60.664397
23.200000 -0.523438 60.664397
23.300000 -1.216797 60.664397
27.700000 0.384766 60.664397
27.800000 1.191406 60.664397
27.700000 2.623047 60.664397
27.700000 2.929688 60.664397
27.800000 3.986328 60.664397
28.000000 4.042969 60.664397
28.300000 4.724609 60.664397
28.700000 4.906250 60.664397
29.100000 5.586426 60.664397
29.500000 8.001953 60.664397
29.600000 8.932129 60.664397
29.300000 9.737305 60.664397
29.300000 9.792480 60.664397
29.400000 10.972656 60.664397
29.600000 11.152832 60.664397
29.800000 11.583008 60.664397
30.200000 12.138184 60.664397
23.500000 -7.904785 60.805449
23.400000 -3.931152 60.805449
23.200000 -1.752930 60.805449
23.200000 -2.449707 60.805449
23.200000 -0.396484 60.805449
23.300000 -1.218262 60.805449
27.600000 1.244629 60.805449
27.800000 1.047852 60.805449
27.800000 2.351074 60.805449
27.700000 3.279297 60.805449
27.800000 3.707520 60.805449
28.000000 3.760742 60.805449
28.300000 5.188965 60.805449
28.700000 5.367188 60.805449
29.100000 6.045410 60.805449
29.700000 7.580078 60.805449
29.800000 8.008301 60.805449
29.500000 9.436523 60.805449
29.400000 9.989746 60.805449
29.400000 10.792969 60.805449
29.600000 10.721191 60.805449
29.800000 11.899414 60.805449
23.500000 -9.392578 60.933980
23.400000 -4.114258 60.933980
23.300000 -2.681641 60.933980
23.200000 -1.749023 60.933980
23.200000 -2.191406 60.933980
23.200000 -0.133789 60.933980
23.300000 0.548828 60.933980
23.300000 -0.268555 60.933980
27.700000 0.904297 60.933980
27.800000 1.086914 60.933980
27.700000 2.019531 60.933980
27.700000 2.827148 60.933980
27.900000 3.884766 60.933980
28.200000 3.942383 60.933980
28.500000 4.875000 60.933980
29.000000 5.056641 60.933980
29.300000 5.863281 60.933980
29.600000 7.908203 60.933980
29.700000 8.839844 60.933980
29.500000 9.896484 60.933980
29.500000 10.078125 60.933980
29.500000 11.134766 60.933980
29.600000 11.816406 60.933980
29.900000 11.873047 60.933980
30.300000 12.304688 60.933980
23.600000 -8.108398 61.069997
23.300000 -2.655273 61.069997
23.200000 -1.975098 61.069997
23.200000 -1.294922 61.069997
23.200000 -1.489746 61.069997
23.200000 -1.809570 61.069997
27.800000 1.771484 61.069997
27.700000 2.201660 61.069997
27.800000 3.756836 61.069997
28.000000 3.687012 61.069997
28.200000 4.117188 61.069997
28.700000 4.672363 61.069997
29.100000 5.227539 61.069997
29.400000 6.532715 61.069997
29.700000 6.712891 61.069997
30.200000 7.768066 61.069997
30.000000 8.698242 61.069997
29.600000 8.753418 61.069997
29.500000 9.308594 61.069997
29.500000 10.363770 61.069997
29.600000 11.293945 61.069997
29.800000 11.474121 61.069997
23.500000 -9.330566 61.208223
23.300000 -3.639160 61.208223
23.200000 -2.333984 61.208223
23.200000 -2.778809 61.208223
23.200000 -0.473633 61.208223
23.300000 0.206543 61.208223
27.600000 0.302246 61.208223
27.800000 1.107422 61.208223
27.800000 1.787598 61.208223
27.700000 2.092773 61.208223
27.800000 3.397949 61.208223
28.000000 4.578125 61.208223
28.300000 4.632812 61.208223
28.800000 4.687500 61.208223
29.300000 5.992188 61.208223
29.900000 7.156250 61.208223
30.100000 8.085938 61.208223
29.700000 8.640625 61.208223
29.600000 9.570312 61.208223
29.600000 10.375000 61.208223
29.600000 11.554688 61.208223
29.800000 11.984375 61.208223
23.500000 -7.974609 61.350249
23.300000 -2.525391 61.350249
23.200000 -1.594238 61.350249
23.200000 -2.038086 61.350249
23.200000 -1.981934 61.350249
23.200000 0.199219 61.350249
27.600000 0.298828 61.350249
27.800000 0.979980 61.350249
27.800000 2.161133 61.350249
27.700000 2.467285 61.350249
27.800000 3.023438 61.350249
28.000000 3.454590 61.350249
28.300000 5.010742 61.350249
28.800000 5.316895 61.350249
29.300000 5.248047 61.350249
29.900000 7.541504 61.350249
30.100000 8.222656 61.350249
29.700000 9.528809 61.350249
29.600000 9.459961 61.350249
29.600000 10.141113 61.350249
29.700000 10.947266 61.350249
29.900000 11.378418 61.350249
23.500000 -7.632324 61.476603
23.300000 -2.925293 61.476603
23.200000 -3.118164 61.476603
23.200000 -2.686035 61.476603
23.200000 -0.503906 61.476603
23.300000 0.553223 61.476603
23.300000 0.735352 61.476603
27.700000 0.781738 61.476603
27.800000 1.338867 61.476603
27.700000 2.395996 61.476603
27.700000 2.703125 61.476603
27.900000 3.133301 61.476603
28.300000 4.313477 61.476603
28.700000 5.118652 61.476603
29.200000 5.173828 61.476603
29.400000 6.354004 61.476603
29.800000 8.269531 61.476603
29.900000 8.699707 61.476603
29.700000 9.004883 61.476603
29.600000 9.685059 61.476603
29.700000 10.615234 61.476603
29.900000 11.795410 61.476603
30.100000 11.850586 61.476603
30.600000 12.655762 61.476603
23.500000 -7.924316 61.614932
23.300000 -2.476562 61.614932
23.200000 -1.796875 61.614932
23.200000 -2.492188 61.614932
23.200000 -1.687500 61.614932
23.300000 0.242188 61.614932
27.600000 0.335938 61.614932
27.800000 1.515625 61.614932
27.700000 1.945312 61.614932
27.700000 2.250000 61.614932
27.800000 2.929688 61.614932
28.100000 3.859375 61.614932
28.500000 4.664062 61.614932
29.000000 4.593750 61.614932
29.500000 5.523438 61.614932
30.100000 7.687500 61.614932
30.200000 8.742188 61.614932
29.800000 8.796875 61.614932
29.700000 9.601562 61.614932
29.700000 10.281250 61.614932
29.800000 10.960938 61.614932
29.900000 11.890625 61.614932
23.500000 -7.865234 61.755104
23.400000 -4.336914 61.755104
23.300000 -3.529297 61.755104
23.200000 -3.221680 61.755104
23.200000 -2.039062 61.755104
23.200000 -0.731445 61.755104
23.300000 0.576172 61.755104
23.300000 0.258789 61.755104
27.700000 1.181641 61.755104
27.700000 2.239258 61.755104
27.700000 3.046875 61.755104
27.700000 3.475098 61.755104
27.900000 4.278320 61.755104
28.300000 4.081543 61.755104
28.800000 4.759766 61.755104
29.200000 5.687988 61.755104
29.400000 5.866211 61.755104
29.900000 7.900879 61.755104
30.100000 8.454102 61.755104
29.800000 9.882324 61.755104
29.700000 9.810547 61.755104
29.700000 10.738770 61.755104
29.900000 11.166992 61.755104
23.500000 -9.740234 61.879879
23.400000 -3.796875 61.879879
23.200000 -1.742188 61.879879
23.200000 -2.187500 61.879879
23.200000 -2.007812 61.879879
23.300000 -1.578125 61.879879
27.600000 0.390625 61.879879
27.800000 1.695312 61.879879
27.700000 2.375000 61.879879
27.800000 2.429688 61.879879
27.900000 3.609375 61.879879
28.100000 3.914062 61.879879
28.600000 4.843750 61.879879
29.100000 5.023438 61.879879
29.600000 5.828125 61.879879
30.200000 7.242188 61.879879
30.200000 8.546875 61.879879
29.800000 9.476562 61.879879
29.800000 9.781250 61.879879
29.800000 10.335938 61.879879
29.900000 11.015625 61.879879
30.100000 11.445312 61.879879
30.500000 12.125000 61.879879
27.700000 2.520508 62.018846
27.800000 3.822266 62.018846
28.100000 3.624023 62.018846
28.500000 4.175781 62.018846
29.000000 4.977539 62.018846
29.600000 5.279297 62.018846
30.000000 8.361328 62.018846
30.000000 8.663086 62.018846
29.900000 10.089844 62.018846
29.900000 10.391602 62.018846
30.000000 10.818359 62.018846
30.100000 11.745117 62.018846
23.700000 -9.712891 62.157609
23.500000 -1.578125 62.157609
23.200000 -2.146484 62.157609
23.200000 -1.714844 62.157609
23.300000 -0.908203 62.157609
30.100000 2.613281 62.157609
29.600000 3.544922 62.157609
29.700000 5.896484 62.157609
29.400000 6.703125 62.157609
30.300000 8.373047 62.157609
30.200000 10.667969 62.157609
30.200000 11.224609 62.157609
27.600000 1.300293 62.287103
27.700000 1.734375 62.287103
27.700000 2.414551 62.287103
27.700000 2.969727 62.287103
27.800000 3.024902 62.287103
28.100000 3.955078 62.287103
28.600000 4.635254 62.287103
29.100000 5.190430 62.287103
29.600000 5.620605 62.287103
29.400000 6.300781 62.287103
30.100000 10.812012 62.287103
30.300000 11.867188 62.287103
30.600000 12.297363 62.287103
23.400000 0.171875 62.426068
23.300000 0.855469 62.426068
27.700000 1.531250 62.426068
27.700000 1.214844 62.426068
27.600000 2.148438 62.426068
27.700000 2.707031 62.426068
27.900000 3.265625 62.426068
28.300000 3.699219 62.426068
28.800000 4.382812 62.426068
29.300000 5.066406 62.426068
29.400000 6.625000 62.426068
29.200000 6.933594 62.426068
30.300000 8.859375 62.426068
30.100000 9.667969 62.426068
30.000000 9.726562 62.426068
30.100000 10.785156 62.426068
30.200000 11.468750 62.426068
23.600000 -9.914062 62.566136
23.300000 -4.308594 62.566136
23.200000 -1.873535 62.566136
23.200000 -2.063477 62.566136
23.200000 -1.003418 62.566136
23.200000 -0.943359 62.566136
27.600000 1.779297 62.566136
27.600000 2.208008 62.566136
27.800000 2.761719 62.566136
28.000000 3.690430 62.566136
28.400000 4.119141 62.566136
29.000000 4.672852 62.566136
29.500000 5.351562 62.566136
30.000000 8.441406 62.566136
30.300000 8.745117 62.566136
30.100000 9.423828 62.566136
30.000000 10.477539 62.566136
30.200000 10.781250 62.566136
30.300000 11.709961 62.566136
23.500000 -9.459961 62.690629
23.400000 -3.945312 62.690629
23.200000 -2.139648 62.690629
23.200000 -1.583984 62.690629
23.200000 -2.528320 62.690629
23.200000 -0.722656 62.690629
23.400000 0.833008 62.690629
23.300000 0.513672 62.690629
27.700000 0.555664 62.690629
27.700000 1.486328 62.690629
27.600000 2.541992 62.690629
27.700000 2.597656 62.690629
27.900000 3.528320 62.690629
28.200000 3.958984 62.690629
29.500000 6.806641 62.690629
30.300000 9.098633 62.690629
30.100000 9.154297 62.690629
30.000000 10.084961 62.690629
30.100000 10.265625 62.690629
30.200000 11.194336 62.690629
23.500000 -8.496582 62.830721
23.400000 -2.781738 62.830721
23.200000 -3.473633 62.830721
23.200000 -0.915527 62.830721
23.200000 -1.982422 62.830721
23.300000 -0.924316 62.830721
27.600000 1.428223 62.830721
27.600000 1.481445 62.830721
27.600000 2.784668 62.830721
27.600000 2.712891 62.830721
27.800000 3.891113 62.830721
28.000000 4.194336 62.830721
28.600000 7.282227 62.830721
31.100000 8.138672 62.830721
30.600000 8.566895 62.830721
30.300000 8.745117 62.830721
30.200000 9.923340 62.830721
30.200000 10.851562 62.830721
30.200000 11.529785 62.830721
30.400000 11.833008 62.830721
30.800000 12.261230 62.830721
23.500000 -7.562500 62.970829
23.400000 -4.179688 62.970829
23.300000 -3.875000 62.970829
23.300000 -1.445312 62.970829
23.200000 -1.890625 62.970829
23.200000 -1.835938 62.970829
23.300000 -1.031250 62.970829
23.300000 1.273438 62.970829
27.700000 0.562500 62.970829
27.600000 1.742188 62.970829
27.600000 2.796875 62.970829
27.700000 2.601562 62.970829
27.800000 4.156250 62.970829
28.000000 4.585938 62.970829
29.400000 6.929688 62.970829
30.400000 8.343750 62.970829
30.200000 9.523438 62.970829
30.200000 9.828125 62.970829
30.200000 11.131836 62.970829
30.200000 11.060547 62.970829
23.600000 -9.784180 63.110745
23.300000 -4.452148 63.110745
23.200000 -2.770020 63.110745
23.200000 -1.212891 63.110745
23.200000 -0.530762 63.110745
23.200000 0.151367 63.110745
27.600000 2.234375 63.110745
27.500000 2.539062 63.110745
27.600000 3.843750 63.110745
27.800000 3.898438 63.110745
28.000000 4.078125 63.110745
30.300000 8.585938 63.110745
30.200000 9.515625 63.110745
30.200000 9.945312 63.110745
30.200000 10.625000 63.110745
30.400000 11.804688 63.110745
23.500000 -8.673828 63.235390
23.400000 -3.970703 63.235390
23.200000 -1.539062 63.235390
23.200000 -2.357422 63.235390
23.200000 -0.175781 63.235390
23.300000 -1.369141 63.235390
23.200000 1.187500 63.235390
27.600000 1.107422 63.235390
27.600000 1.664062 63.235390
27.500000 2.095703 63.235390
27.500000 2.652344 63.235390
27.600000 4.333984 63.235390
27.700000 4.015625 63.235390
30.500000 8.662109 63.235390
30.300000 9.593750 63.235390
30.200000 9.897949 63.235390
30.200000 10.702148 63.235390
30.300000 11.131348 63.235390
23.600000 -9.458984 63.376193
23.300000 -3.849609 63.376193
23.200000 -1.789062 63.376193
23.200000 -1.103516 63.376193
23.200000 -0.417969 63.376193
23.300000 -1.357422 63.376193
27.400000 0.487793 63.376193
27.600000 0.916016 63.376193
27.500000 2.719238 63.376193
27.500000 2.647461 63.376193
27.500000 3.950684 63.376193
27.500000 4.753906 63.376193
27.700000 4.682129 63.376193
30.400000 9.179688 63.376193
30.300000 9.357910 63.376193
30.300000 10.786133 63.376193
30.300000 10.839355 63.376193
30.500000 11.392578 63.376193
30.800000 12.445801 63.376193
23.600000 -8.034668 63.502517
23.300000 -4.335449 63.502517
23.200000 -1.904297 63.502517
23.200000 -1.973145 63.502517
23.300000 -2.416992 63.502517
23.300000 -0.860840 63.502517
27.500000 1.726074 63.502517
27.400000 3.282227 63.502517
27.400000 2.963379 63.502517
27.500000 4.019531 63.502517
27.600000 4.325684 63.502517
27.800000 5.381836 63.502517
28.100000 5.562988 63.502517
30.400000 8.718750 63.502517
30.300000 9.521973 63.502517
30.300000 10.075195 63.502517
30.300000 11.378418 63.502517
30.400000 11.931641 63.502517
23.500000 -9.470703 63.641044
23.400000 -2.800293 63.641044
23.300000 -2.115234 63.641044
23.200000 -1.430176 63.641044
23.200000 -0.745117 63.641044
23.200000 -1.185059 63.641044
23.300000 -1.000000 63.641044
23.300000 0.179688 63.641044
27.600000 1.593750 63.641044
27.600000 1.898438 63.641044
27.500000 2.203125 63.641044
27.400000 3.632812 63.641044
27.400000 3.312500 63.641044
27.400000 4.617188 63.641044
27.500000 5.046875 63.641044
27.700000 6.351562 63.641044
30.500000 8.625000 63.641044
30.400000 9.179688 63.641044
30.300000 10.234375 63.641044
30.400000 10.539062 63.641044
30.400000 11.593750 63.641044
23.600000 -8.646484 63.780419
23.300000 -3.064453 63.780419
23.200000 -1.882324 63.780419
23.300000 -1.950195 63.780419
23.300000 -0.768066 63.780419
23.200000 -1.210938 63.780419
27.400000 1.017578 63.780419
27.600000 1.574707 63.780419
27.500000 1.631836 63.780419
27.400000 2.313965 63.780419
27.400000 3.996094 63.780419
27.400000 4.553223 63.780419
27.400000 4.360352 63.780419
27.500000 5.917480 63.780419
27.600000 5.724609 63.780419
30.400000 9.133301 63.780419
30.300000 9.438477 63.780419
30.300000 10.368652 63.780419
30.400000 11.298828 63.780419
30.500000 11.604004 63.780419
23.500000 -7.899414 63.919379
23.300000 -2.188477 63.919379
23.200000 -1.880859 63.919379
23.200000 -1.573242 63.919379
23.200000 -1.765625 63.919379
23.300000 0.538574 63.919379
23.000000 1.217773 63.919379
27.600000 1.130371 63.919379
27.500000 1.809570 63.919379
27.500000 2.363770 63.919379
27.400000 3.542969 63.919379
27.300000 4.347168 63.919379
27.300000 3.901367 63.919379
27.400000 5.330566 63.919379
27.400000 5.759766 63.919379
27.500000 6.563965 63.919379
27.700000 6.618164 63.919379
30.400000 8.959961 63.919379
30.400000 10.264160 63.919379
30.400000 10.443359 63.919379
30.400000 11.122559 63.919379
23.600000 -7.928223 64.045025
23.400000 -3.963379 64.045025
23.200000 -3.280273 64.045025
23.200000 -1.097168 64.045025
23.200000 -0.414062 64.045025
23.200000 -0.980957 64.045025
27.400000 1.001465 64.045025
27.600000 1.684570 64.045025
27.500000 2.242676 64.045025
27.400000 2.675781 64.045025
27.300000 3.108887 64.045025
27.300000 4.041992 64.045025
27.300000 5.100098 64.045025
27.300000 6.283203 64.045025
27.400000 6.841309 64.045025
27.500000 7.149414 64.045025
30.300000 9.928223 64.045025
30.400000 9.982422 64.045025
30.400000 10.911621 64.045025
30.600000 11.715820 64.045025
31.000000 12.145020 64.045025
23.500000 -7.590820 64.186065
23.400000 -2.927246 64.186065
23.200000 -2.368164 64.186065
23.200000 -1.434082 64.186065
23.200000 -1.625000 64.186065
23.200000 -0.320801 64.186065
23.300000 -0.641602 64.186065
23.300000 0.287598 64.186065
27.600000 0.575195 64.186065
27.500000 2.379395 64.186065
27.400000 2.808594 64.186065
27.400000 3.237793 64.186065
27.400000 4.041992 64.186065
27.300000 4.721191 64.186065
27.300000 5.525391 64.186065
27.400000 5.454590 64.186065
27.400000 6.883789 64.186065
27.500000 6.687988 64.186065
30.300000 10.458984 64.186065
30.400000 10.638184 64.186065
30.400000 11.067383 64.186065
23.500000 -7.735352 64.310782
23.400000 -3.153320 64.310782
23.200000 -1.596191 64.310782
23.200000 -2.539062 64.310782
23.200000 -1.856934 64.310782
23.300000 -0.799805 64.310782
27.500000 1.428711 64.310782
27.500000 1.610840 64.310782
27.400000 2.292969 64.310782
27.400000 2.600098 64.310782
27.300000 3.782227 64.310782
27.300000 4.839355 64.310782
27.300000 4.521484 64.310782
27.300000 6.078613 64.310782
27.400000 6.260742 64.310782
27.400000 7.067871 64.310782
27.600000 7.750000 64.310782
30.300000 9.964844 64.310782
30.400000 10.893555 64.310782
30.400000 11.572266 64.310782
30.700000 11.500977 64.310782
31.200000 12.429688 64.310782
23.500000 -7.741211 64.451769
23.400000 -2.760742 64.451769
23.200000 -3.200684 64.451769
23.200000 -1.515625 64.451769
23.200000 -2.087891 64.451769
23.300000 0.464844 64.451769
27.500000 1.550781 64.451769
27.500000 1.353516 64.451769
27.400000 2.406250 64.451769
27.400000 2.833984 64.451769
27.300000 3.886719 64.451769
27.300000 4.314453 64.451769
27.300000 4.992188 64.451769
27.300000 6.044922 64.451769
27.400000 6.597656 64.451769
27.400000 6.525391 64.451769
27.600000 7.328125 64.451769
30.300000 10.039062 64.451769
30.400000 10.091797 64.451769
30.400000 11.269531 64.451769
30.700000 11.822266 64.451769
31.200000 12.000000 64.451769
23.600000 -9.069336 64.590472
23.400000 -3.995117 64.590472
23.200000 -3.188965 64.590472
23.200000 -2.132812 64.590472
23.200000 -2.076660 64.590472
23.200000 -1.145508 64.590472
27.400000 0.204102 64.590472
27.600000 0.885254 64.590472
27.500000 2.316406 64.590472
27.400000 2.997559 64.590472
27.300000 3.928711 64.590472
27.300000 3.984863 64.590472
27.400000 5.541016 64.590472
27.400000 5.472168 64.590472
27.400000 6.278320 64.590472
27.500000 6.709473 64.590472
27.600000 7.640625 64.590472
30.300000 9.357422 64.590472
30.300000 9.911621 64.590472
30.500000 10.590820 64.590472
30.600000 11.645020 64.590472
31.000000 12.324219 64.590472
23.600000 -8.710938 64.731738
23.400000 -2.492188 64.731738
23.200000 -1.808594 64.731738
23.200000 -2.750000 64.731738
23.200000 -1.821777 64.731738
23.200000 -0.643555 64.731738
27.500000 1.550781 64.731738
27.400000 2.854004 64.731738
27.300000 4.157227 64.731738
27.300000 3.960449 64.731738
27.400000 5.263672 64.731738
27.400000 5.816895 64.731738
27.400000 6.745117 64.731738
27.600000 7.298340 64.731738
27.800000 7.601562 64.731738
30.400000 9.314453 64.731738
30.300000 10.117676 64.731738
30.400000 10.795898 64.731738
30.600000 11.599121 64.731738
31.000000 12.027344 64.731738
23.500000 -9.307617 64.855577
23.400000 -2.467773 64.855577
23.200000 -1.784668 64.855577
23.200000 -1.101562 64.855577
23.200000 -1.543457 64.855577
23.200000 0.514648 64.855577
27.400000 0.497070 64.855577
27.600000 1.805176 64.855577
27.500000 2.613281 64.855577
27.500000 2.421387 64.855577
27.500000 2.979492 64.855577
27.500000 3.662598 64.855577
27.500000 5.095703 64.855577
27.500000 5.403809 64.855577
27.600000 6.711914 64.855577
30.500000 9.239258 64.855577
30.400000 9.917969 64.855577
30.400000 10.721680 64.855577
30.500000 11.150391 64.855577
30.600000 11.454102 64.855577
31.100000 12.132812 64.855577
23.600000 -8.023438 64.997045
23.300000 -3.929688 64.997045
23.200000 -3.746094 64.997045
23.300000 -2.812500 64.997045
23.300000 -2.007324 64.997045
23.300000 -1.202148 64.997045
27.500000 2.003906 64.997045
27.500000 2.559082 64.997045
27.500000 2.864258 64.997045
27.500000 4.544434 64.997045
27.500000 5.349609 64.997045
27.600000 5.404785 64.997045
27.700000 5.709961 64.997045
30.500000 8.735840 64.997045
30.500000 9.541016 64.997045
30.400000 10.096191 64.997045
30.500000 10.901367 64.997045
30.600000 11.206543 64.997045
31.000000 12.386719 64.997045
23.500000 -9.265137 65.124428
23.400000 -4.733398 65.124428
23.300000 -2.175293 65.124428
23.200000 -3.242188 65.124428
23.200000 -2.059082 65.124428
23.200000 -1.750977 65.124428
23.300000 -0.817871 65.124428
27.600000 0.539551 65.124428
27.600000 2.347656 65.124428
27.500000 1.905762 65.124428
27.500000 2.713867 65.124428
27.500000 4.396973 65.124428
27.600000 4.955078 65.124428
27.700000 4.763184 65.124428
27.900000 5.946289 65.124428
30.600000 8.603027 65.124428
30.500000 9.033203 65.124428
30.500000 9.588379 65.124428
30.500000 10.393555 65.124428
30.600000 11.073730 65.124428
23.600000 -8.721191 65.262564
23.300000 -3.857910 65.262564
23.200000 -1.796875 65.262564
23.200000 -1.117188 65.262564
23.300000 -1.312500 65.262564
23.200000 -1.007812 65.262564
27.400000 0.210938 65.262564
27.700000 1.015625 65.262564
27.700000 1.820312 65.262564
27.500000 3.375000 65.262564
27.500000 3.429688 65.262564
27.600000 4.234375 65.262564
27.800000 5.039062 65.262564
30.500000 8.671875 65.262564
30.500000 9.601562 65.262564
30.400000 10.781250 65.262564
30.500000 10.960938 65.262564
30.700000 11.265625 65.262564
31.100000 12.195312 65.262564
23.500000 -9.382812 65.401423
23.300000 -3.937500 65.401423
23.200000 -3.256836 65.401423
23.200000 -1.576172 65.401423
23.200000 -1.770508 65.401423
23.200000 -0.464844 65.401423
27.600000 0.757812 65.401423
27.700000 1.313477 65.401423
27.600000 2.994141 65.401423
27.600000 2.549805 65.401423
27.700000 4.230469 65.401423
27.800000 4.661133 65.401423
28.000000 4.841797 65.401423
30.700000 8.287109 65.401423
30.500000 9.339355 65.401423
30.500000 10.141602 65.401423
30.500000 10.818848 65.401423
30.600000 11.246094 65.401423
27.700000 2.796875 65.541493
27.800000 3.851562 65.541493
28.000000 4.531250 65.541493
30.600000 8.914062 65.541493
30.500000 9.343750 65.541493
30.400000 10.523438 65.541493
30.500000 10.703125 65.541493
30.700000 11.757812 65.541493
31.000000 11.812500 65.541493
23.500000 -8.406250 65.664508
23.500000 -9.349609 65.664508
23.400000 -2.703125 65.664508
23.200000 -2.021484 65.664508
23.000000 -3.089844 65.664508
23.100000 -0.669922 65.664508
23.200000 0.511719 65.664508
27.800000 2.669922 65.664508
27.800000 3.226562 65.664508
27.800000 0.786621 65.804223
27.800000 2.217773 65.804223
27.800000 2.273926 65.804223
27.900000 3.205078 65.804223
28.000000 3.761230 65.804223
28.200000 4.817383 65.804223
30.400000 7.654297 65.804223
30.600000 8.585449 65.804223
30.500000 9.766602 65.804223
30.500000 9.822754 65.804223
30.500000 10.753906 65.804223
30.700000 11.435059 65.804223
31.000000 12.366211 65.804223
23.500000 -7.485840 65.931007
23.400000 -2.528809 65.931007
23.300000 -1.346680 65.931007
23.200000 -2.039551 65.931007
23.200000 0.017578 65.931007
23.200000 -0.800293 65.931007
23.200000 0.256836 65.931007
27.800000 0.803223 65.931007
27.800000 1.485352 65.931007
27.800000 3.042480 65.931007
27.900000 2.724609 65.931007
28.000000 4.031738 65.931007
28.300000 4.963867 65.931007
30.400000 7.917969 65.931007
30.600000 9.096680 65.931007
30.500000 9.525391 65.931007
30.500000 10.579102 65.931007
30.500000 10.757812 65.931007
30.700000 11.311523 65.931007
31.000000 12.115234 65.931007
23.500000 -9.808594 66.082700
23.300000 -2.578125 66.082700
23.200000 -1.897949 66.082700
23.200000 -1.217773 66.082700
23.300000 -0.537598 66.082700
23.200000 -0.857422 66.082700
27.800000 1.598633 66.082700
27.800000 2.528809 66.082700
27.900000 3.208984 66.082700
28.100000 4.389160 66.082700
28.500000 4.569336 66.082700
30.500000 9.205566 66.082700
30.500000 9.135742 66.082700
30.400000 10.315918 66.082700
30.500000 11.121094 66.082700
30.600000 11.301270 66.082700
31.000000 11.981445 66.082700
23.600000 -9.042969 66.207893
23.300000 -4.335938 66.207893
23.200000 -1.778809 66.207893
23.200000 -1.096680 66.207893
23.200000 -0.414551 66.207893
23.200000 0.267578 66.207893
27.900000 2.110352 66.207893
27.800000 2.542480 66.207893
28.000000 3.599609 66.207893
28.200000 3.781738 66.207893
28.600000 4.713867 66.207893
30.900000 8.416016 66.207893
30.500000 8.844238 66.207893
30.400000 9.397461 66.207893
30.400000 10.450684 66.207893
30.500000 10.628906 66.207893
30.700000 11.557129 66.207893
31.200000 12.110352 66.207893
23.500000 -9.605469 66.347928
23.300000 -2.375000 66.347928
23.200000 -2.696289 66.347928
23.200000 -2.642578 66.347928
23.200000 -2.213867 66.347928
23.200000 0.339844 66.347928
27.700000 0.929688 66.347928
27.900000 0.983398 66.347928
27.900000 2.162109 66.347928
27.900000 2.715820 66.347928
28.100000 3.269531 66.347928
28.300000 3.823242 66.347928
28.700000 4.626953 66.347928
29.300000 5.180664 66.347928
29.900000 5.734375 66.347928
30.700000 7.395508 66.347928
30.900000 7.949219 66.347928
30.500000 8.752930 66.347928
30.400000 9.556641 66.347928
30.400000 10.235352 66.347928
30.500000 11.414062 66.347928
23.500000 -7.894531 66.473959
23.300000 -2.429688 66.473959
23.200000 -2.121582 66.473959
23.200000 -1.063477 66.473959
23.200000 -1.505371 66.473959
23.200000 0.302734 66.473959
27.900000 2.526367 66.473959
27.900000 3.334473 66.473959
28.100000 3.392578 66.473959
28.400000 3.575684 66.473959
28.700000 4.883789 66.473959
30.900000 8.218750 66.473959
30.500000 8.898438 66.473959
30.400000 9.828125 66.473959
30.400000 10.132812 66.473959
30.500000 11.187500 66.473959
23.500000 -8.191406 66.612603
23.400000 -8.384277 66.612603
23.300000 -3.734375 66.612603
23.200000 -3.804688 66.612603
23.200000 -3.000000 66.612603
23.200000 -1.695312 66.612603
23.200000 -0.640625 66.612603
23.300000 0.664062 66.612603
23.200000 1.218750 66.612603
27.900000 0.632812 66.612603
28.000000 2.312500 66.612603
28.000000 2.367188 66.612603
28.100000 2.671875 66.612603
28.300000 3.226562 66.612603
28.700000 4.031250 66.612603
29.200000 4.960938 66.612603
29.700000 4.890625 66.612603
30.200000 6.070312 66.612603
30.500000 8.359375 66.612603
30.600000 9.039062 66.612603
30.500000 9.718750 66.612603
30.400000 9.648438 66.612603
30.500000 10.953125 66.612603
30.600000 11.632812 66.612603
31.000000 11.812500 66.612603
23.500000 -9.336426 66.751081
23.400000 -3.746582 66.751081
23.200000 -2.813477 66.751081
23.200000 -1.880371 66.751081
23.200000 -1.947266 66.751081
23.200000 0.485840 66.751081
27.900000 1.468262 66.751081
28.000000 1.901367 66.751081
28.000000 1.709473 66.751081
28.100000 3.017578 66.751081
28.300000 3.825684 66.751081
28.600000 4.508789 66.751081
29.100000 4.566895 66.751081
29.600000 5.375000 66.751081
30.200000 5.930176 66.751081
30.600000 7.970703 66.751081
30.700000 8.650879 66.751081
30.500000 9.206055 66.751081
30.500000 9.761230 66.751081
30.500000 10.941406 66.751081
30.600000 10.871582 66.751081
23.500000 -8.904785 66.891502
23.400000 -3.984375 66.891502
23.300000 -3.679199 66.891502
23.200000 -1.499023 66.891502
23.200000 -0.818848 66.891502
23.200000 -0.138672 66.891502
23.200000 -0.583496 66.891502
23.000000 1.221680 66.891502
27.900000 0.887207 66.891502
28.000000 2.067383 66.891502
28.000000 1.997559 66.891502
28.100000 3.177734 66.891502
28.300000 3.357910 66.891502
28.600000 3.788086 66.891502
29.100000 5.093262 66.891502
29.600000 5.648438 66.891502
30.200000 5.703613 66.891502
30.700000 7.994141 66.891502
30.700000 8.424316 66.891502
30.500000 9.229492 66.891502
30.400000 9.784668 66.891502
30.500000 10.339844 66.891502
30.600000 11.645020 66.891502
30.900000 11.575195 66.891502
23.500000 -8.302734 67.017223
23.300000 -2.724609 67.017223
23.200000 -3.417969 67.017223
23.200000 -0.861328 67.017223
23.200000 -1.304688 67.017223
23.200000 -1.123047 67.017223
27.900000 0.978516 67.017223
28.000000 1.285156 67.017223
28.000000 2.341797 67.017223
28.100000 3.398438 67.017223
28.400000 3.330078 67.017223
28.600000 3.636719 67.017223
29.100000 4.568359 67.017223
29.600000 5.000000 67.017223
30.200000 5.680176 67.017223
30.600000 7.470703 67.017223
30.700000 8.775879 67.017223
30.400000 9.581055 67.017223
30.400000 10.386230 67.017223
30.400000 10.691406 67.017223
30.500000 10.996582 67.017223
30.800000 12.051758 67.017223
23.600000 -9.972656 67.157356
23.500000 -9.538574 67.157356
23.300000 -2.750000 67.157356
23.200000 -2.071289 67.157356
23.300000 -3.142578 67.157356
23.300000 -0.713867 67.157356
23.200000 -0.035156 67.157356
23.300000 -1.231445 67.157356
23.200000 0.322266 67.157356
28.000000 1.358398 67.157356
28.000000 1.787109 67.157356
28.000000 1.965820 67.157356
28.200000 3.269531 67.157356
28.400000 3.198242 67.157356
28.700000 4.126953 67.157356
29.200000 4.430664 67.157356
29.700000 5.359375 67.157356
30.200000 6.288086 67.157356
30.600000 7.699219 67.157356
30.600000 8.752930 67.157356
30.500000 9.431641 67.157356
30.400000 10.110352 67.157356
30.400000 10.914062 67.157356
30.500000 11.592773 67.157356
30.900000 11.771484 67.157356
23.400000 -8.150879 67.283422
23.300000 -4.257812 67.283422
23.200000 -3.951660 67.283422
23.300000 -3.020508 67.283422
23.200000 -2.589355 67.283422
23.200000 -0.033203 67.283422
