37.000000 3.347656 9.424717
37.400000 4.270508 9.424717
37.600000 4.943359 9.424717
38.100000 5.366211 9.424717
38.300000 6.289062 9.424717
37.900000 6.711914 9.424717
37.600000 3.509766 9.424717
37.700000 4.182617 9.424717
37.900000 8.855469 9.424717
32.300000 -10.484375 9.549717
32.300000 -10.304688 9.549717
32.200000 -9.125000 9.549717
32.200000 -8.820312 9.549717
32.100000 -7.515625 9.549717
32.000000 -6.960938 9.549717
32.000000 -6.156250 9.549717
32.000000 -5.601562 9.549717
36.700000 -2.828125 9.549717
36.700000 1.601562 9.549717
36.700000 2.531250 9.549717
36.900000 2.960938 9.549717
37.200000 3.640625 9.549717
37.500000 4.570312 9.549717
37.700000 5.375000 9.549717
38.100000 5.804688 9.549717
38.100000 6.609375 9.549717
37.600000 7.039062 9.549717
37.600000 7.843750 9.549717
37.700000 8.648438 9.549717
38.000000 9.203125 9.549717
38.600000 10.005371 9.549717
32.400000 -10.942871 9.690344
32.300000 -10.138672 9.690344
32.200000 -9.459473 9.690344
32.200000 -8.780273 9.690344
32.100000 -8.226074 9.690344
32.100000 -7.546875 9.690344
32.100000 -6.493164 9.690344
32.000000 -5.939453 9.690344
36.700000 0.954102 9.690344
36.600000 1.632812 9.690344
36.600000 2.186523 9.690344
36.800000 2.990234 9.690344
37.000000 3.668945 9.690344
37.400000 4.222656 9.690344
37.400000 4.776367 9.690344
37.800000 5.705078 9.690344
38.200000 6.508789 9.690344
37.800000 6.812500 9.690344
37.400000 7.491211 9.690344
37.300000 4.294922 9.690344
37.700000 8.973633 9.690344
38.300000 9.777344 9.690344
32.300000 -11.194336 9.830934
32.300000 -10.390137 9.830934
32.200000 -9.460938 9.830934
32.200000 -8.781738 9.830934
32.100000 -7.852539 9.830934
32.100000 -7.423340 9.830934
32.100000 -6.869141 9.830934
32.000000 -6.189941 9.830934
37.300000 -0.098145 9.830934
36.700000 0.706055 9.830934
36.600000 1.260254 9.830934
36.600000 2.064453 9.830934
36.700000 2.743652 9.830934
37.000000 3.297852 9.830934
37.300000 4.352051 9.830934
37.300000 4.656250 9.830934
37.500000 5.707520 9.830934
38.100000 6.258789 9.830934
38.000000 6.935059 9.830934
37.300000 3.486328 9.830934
37.300000 8.287598 9.830934
37.700000 8.963867 9.830934
38.200000 9.765137 9.830934
38.900000 10.566406 9.830934
32.400000 -10.510254 9.955968
32.300000 -9.833008 9.955968
32.200000 -9.530762 9.955968
32.200000 -8.603516 9.955968
32.100000 -8.176270 9.955968
32.000000 -6.999023 9.955968
32.000000 -6.821777 9.955968
32.000000 -6.269531 9.955968
36.600000 -3.133301 9.955968
36.600000 1.543945 9.955968
36.700000 2.096191 9.955968
36.800000 -1.101562 9.955968
37.000000 3.575684 9.955968
37.300000 4.377930 9.955968
37.900000 6.534668 9.955968
37.800000 6.836914 9.955968
37.100000 7.639160 9.955968
37.000000 8.191406 9.955968
37.600000 8.993652 9.955968
38.200000 9.670898 9.955968
32.400000 -11.010742 10.096553
32.300000 -10.582031 10.096553
32.300000 -9.778320 10.096553
32.200000 -9.349609 10.096553
32.200000 -8.795898 10.096553
32.100000 -7.992188 10.096553
32.000000 -7.063477 10.096553
32.000000 -6.134766 10.096553
32.000000 -6.206055 10.096553
36.600000 1.187500 10.096553
36.600000 -2.136719 10.096553
36.600000 2.539062 10.096553
36.800000 -0.785156 10.096553
37.000000 3.890625 10.096553
37.300000 4.566406 10.096553
37.700000 6.593750 10.096553
37.400000 7.269531 10.096553
36.800000 7.695312 10.096553
36.900000 4.496094 10.096553
37.500000 9.171875 10.096553
38.200000 9.722656 10.096553
32.400000 -11.091797 10.221554
32.300000 -10.916992 10.221554
32.300000 -10.117188 10.221554
32.200000 -9.317383 10.221554
32.200000 -8.392578 10.221554
32.100000 -7.467773 10.221554
31.900000 -7.167969 10.221554
31.900000 -6.618164 10.221554
32.000000 -5.943359 10.221554
36.600000 -2.819336 10.221554
36.500000 -2.269531 10.221554
36.600000 2.405273 10.221554
36.700000 -0.919922 10.221554
37.000000 3.754883 10.221554
37.300000 0.429688 10.221554
37.800000 6.329102 10.221554
37.200000 9.153320 10.221554
38.000000 9.828125 10.221554
32.400000 -10.929688 10.362215
32.300000 -10.250000 10.362215
32.200000 -9.820312 10.362215
32.200000 -9.140625 10.362215
32.100000 -8.585938 10.362215
32.100000 -7.531250 10.362215
32.000000 -6.851562 10.362215
32.000000 -5.921875 10.362215
37.200000 0.027344 10.362215
37.000000 0.452148 10.362215
36.500000 1.251953 10.362215
36.500000 1.926758 10.362215
36.600000 2.476562 10.362215
36.800000 3.151367 10.362215
37.000000 3.826172 10.362215
37.200000 0.625977 10.362215
37.600000 6.775391 10.362215
36.500000 4.000000 10.362215
36.900000 8.799805 10.362215
37.500000 9.599609 10.362215
38.100000 10.399414 10.362215
32.100000 -7.245117 10.502860
32.000000 -6.441895 10.502860
37.100000 -3.979004 10.502860
36.500000 0.574219 10.502860
36.400000 1.252441 10.502860
36.400000 2.055664 10.502860
36.500000 -1.141113 10.502860
36.700000 3.287109 10.502860
37.000000 3.965332 10.502860
37.100000 0.768555 10.502860
37.200000 6.801270 10.502860
32.300000 -10.864258 10.643430
32.300000 -10.062500 10.643430
32.200000 -9.511719 10.643430
32.200000 -9.210938 10.643430
32.100000 -8.285156 10.643430
32.000000 -7.609375 10.643430
32.000000 -7.058594 10.643430
32.000000 -6.132812 10.643430
36.500000 -3.128906 10.643430
36.400000 1.546875 10.643430
36.400000 1.972656 10.643430
36.500000 2.648438 10.643430
36.700000 3.574219 10.643430
37.000000 4.000000 10.643430
37.100000 4.675781 10.643430
37.100000 6.953125 10.643430
32.300000 -10.730469 10.784055
32.300000 -9.798828 10.784055
32.200000 -9.492188 10.784055
32.200000 -8.935547 10.784055
32.100000 -7.628906 10.784055
31.900000 -7.072266 10.784055
31.900000 -6.640625 10.784055
32.000000 -5.708984 10.784055
36.300000 -2.800781 10.784055
36.300000 1.755859 10.784055
36.400000 2.562500 10.784055
36.600000 3.238281 10.784055
36.800000 3.789062 10.784055
37.100000 4.464844 10.784055
37.600000 6.617188 10.784055
36.600000 3.968750 10.784055
36.600000 8.644531 10.784055
37.100000 9.070312 10.784055
37.800000 9.871094 10.784055
38.600000 10.796875 10.784055
32.400000 -10.988281 10.909095
32.300000 -10.559570 10.909095
32.300000 -9.755859 10.909095
32.200000 -8.952148 10.909095
32.200000 -8.273438 10.909095
32.100000 -7.469727 10.909095
31.900000 -7.166016 10.909095
31.900000 -6.237305 10.909095
32.000000 -6.058594 10.909095
36.300000 0.959961 10.909095
36.300000 -2.111328 10.909095
36.400000 2.317383 10.909095
36.500000 -0.878906 10.909095
36.700000 -0.200195 10.909095
37.100000 4.478516 10.909095
37.500000 6.389648 10.909095
37.200000 7.068359 10.909095
36.700000 7.872070 10.909095
36.800000 8.425781 10.909095
37.300000 9.229492 10.909095
32.400000 -11.246582 11.049719
32.300000 -10.191406 11.049719
32.300000 -9.886230 11.049719
32.200000 -9.456055 11.049719
32.100000 -8.650879 11.049719
32.100000 -7.595703 11.049719
32.000000 -6.915527 11.049719
31.900000 -6.110352 11.049719
37.100000 0.107422 11.049719
36.700000 -3.338867 11.049719
36.200000 -2.785156 11.049719
36.200000 1.768555 11.049719
36.300000 -1.427734 11.049719
36.500000 3.250977 11.049719
36.700000 4.054688 11.049719
37.100000 0.608398 11.049719
37.200000 6.644531 11.049719
36.900000 7.323242 11.049719
36.700000 4.001953 11.049719
36.900000 8.680664 11.049719
37.400000 9.484375 11.049719
32.400000 -11.264648 11.174718
32.300000 -10.211426 11.174718
32.300000 -9.658203 11.174718
32.200000 -9.354980 11.174718
32.100000 -8.301758 11.174718
32.100000 -7.498535 11.174718
32.000000 -7.195312 11.174718
31.900000 -6.017090 11.174718
36.900000 -0.054199 11.174718
36.700000 0.374023 11.174718
36.200000 -2.697754 11.174718
36.200000 1.855469 11.174718
36.300000 2.658691 11.174718
36.500000 3.336914 11.174718
36.700000 3.890137 11.174718
37.000000 4.443359 11.174718
37.100000 6.478027 11.174718
37.000000 7.156250 11.174718
36.800000 7.958496 11.174718
36.900000 8.760742 11.174718
37.400000 9.437988 11.174718
32.300000 -11.034668 11.315305
32.300000 -10.606445 11.315305
32.200000 -10.053223 11.315305
32.200000 -8.875000 11.315305
32.100000 -8.449219 11.315305
32.100000 -7.398438 11.315305
32.000000 -7.097656 11.315305
32.000000 -6.421875 11.315305
36.700000 -0.218750 11.315305
36.200000 -3.417969 11.315305
36.200000 1.132812 11.315305
36.200000 -1.941406 11.315305
36.300000 2.609375 11.315305
36.500000 3.160156 11.315305
36.700000 3.960938 11.315305
37.000000 4.636719 11.315305
37.100000 2.664062 11.315305
37.000000 7.339844 11.315305
36.900000 4.140625 11.315305
37.200000 8.816406 11.315305
37.500000 9.242188 11.315305
32.400000 -11.554688 11.440341
32.300000 -10.253418 11.440341
32.300000 -10.077148 11.440341
32.200000 -9.525879 11.440341
32.100000 -8.474609 11.440341
32.100000 -8.173340 11.440341
32.000000 -7.122070 11.440341
31.900000 -6.445801 11.440341
32.000000 -6.144531 11.440341
36.100000 0.986816 11.440341
36.000000 1.913086 11.440341
36.100000 -1.410645 11.440341
36.400000 3.015625 11.440341
36.700000 3.816895 11.440341
36.900000 4.618164 11.440341
37.000000 6.396973 11.440341
37.000000 3.198242 11.440341
37.000000 7.999512 11.440341
37.100000 8.425781 11.440341
37.300000 9.227051 11.440341
32.400000 -10.814453 11.596556
32.300000 -10.139160 11.596556
32.200000 -9.213867 11.596556
32.200000 -8.663574 11.596556
32.100000 -8.238281 11.596556
32.000000 -7.187988 11.596556
32.000000 -6.387695 11.596556
32.000000 -6.087402 11.596556
36.000000 -2.835938 11.596556
36.000000 1.589355 11.596556
36.100000 2.264648 11.596556
36.200000 -0.935059 11.596556
36.500000 3.740234 11.596556
36.800000 4.165527 11.596556
37.000000 2.316406 11.596556
37.100000 7.116699 11.596556
37.000000 7.541992 11.596556
37.200000 8.592285 11.596556
37.400000 9.267578 11.596556
37.700000 9.817871 11.596556
38.300000 10.368164 11.596556
32.300000 -11.141602 11.721557
32.300000 -10.210938 11.721557
32.200000 -9.280273 11.721557
32.200000 -8.599609 11.721557
32.100000 -8.543945 11.721557
32.000000 -7.863281 11.721557
32.000000 -7.182617 11.721557
32.000000 -6.376953 11.721557
36.000000 -3.241211 11.721557
35.900000 1.308594 11.721557
36.000000 -1.766602 11.721557
36.100000 -1.216797 11.721557
36.400000 3.333008 11.721557
36.600000 0.132812 11.721557
36.900000 6.157227 11.721557
37.200000 2.832031 11.721557
37.100000 3.506836 11.721557
37.100000 8.306641 11.721557
37.200000 4.856445 11.721557
37.600000 9.781250 11.721557
38.100000 10.081055 11.721557
32.400000 -11.362305 11.862217
32.300000 -10.811035 11.862217
32.300000 -10.009766 11.862217
32.200000 -9.208496 11.862217
32.200000 -8.657227 11.862217
32.100000 -7.855957 11.862217
32.000000 -7.429688 11.862217
31.900000 -6.253418 11.862217
32.000000 -5.952148 11.862217
36.000000 1.054199 11.862217
36.000000 1.605469 11.862217
36.100000 2.406738 11.862217
36.300000 2.958008 11.862217
36.500000 3.634277 11.862217
37.300000 5.913086 11.862217
37.500000 2.464355 11.862217
37.000000 7.140625 11.862217
37.000000 8.065918 11.862217
37.200000 4.491211 11.862217
37.400000 9.166504 11.862217
37.800000 9.966797 11.862217
38.600000 10.892090 11.862217
32.400000 -11.137695 12.002841
32.300000 -10.084473 12.002841
32.200000 -9.781250 12.002841
32.200000 -8.856445 12.002841
32.100000 -8.181641 12.002841
32.000000 -7.506836 12.002841
32.000000 -7.082031 12.002841
32.000000 -6.032227 12.002841
36.000000 0.841797 12.002841
36.000000 -2.483398 12.002841
36.000000 -1.808594 12.002841
36.200000 2.866211 12.002841
36.500000 -0.458984 12.002841
37.700000 6.115234 12.002841
37.200000 7.040039 12.002841
37.000000 7.589844 12.002841
37.100000 8.389648 12.002841
37.300000 9.189453 12.002841
37.700000 9.489258 12.002841
38.300000 10.539062 12.002841
32.400000 -10.959961 12.143749
32.300000 -9.904297 12.143749
32.200000 -9.223633 12.143749
32.200000 -8.417969 12.143749
32.100000 -7.987305 12.143749
32.000000 -7.556641 12.143749
32.000000 -6.625977 12.143749
32.000000 -5.695312 12.143749
36.000000 -3.041992 12.143749
35.900000 1.638672 12.143749
36.000000 2.194336 12.143749
36.200000 -0.875000 12.143749
36.500000 3.548340 12.143749
37.700000 6.616699 12.143749
37.200000 3.040039 12.143749
37.000000 7.838379 12.143749
37.200000 8.261719 12.143749
37.400000 9.185059 12.143749
37.700000 9.733398 12.143749
38.400000 10.531738 12.143749
32.400000 -11.107422 12.268790
32.300000 -10.056152 12.268790
32.200000 -9.754883 12.268790
32.200000 -9.078613 12.268790
32.100000 -8.152344 12.268790
32.000000 -7.726074 12.268790
32.000000 -6.674805 12.268790
32.000000 -5.748535 12.268790
36.000000 0.757812 12.268790
36.000000 1.434082 12.268790
36.000000 -1.764648 12.268790
36.200000 2.911621 12.268790
36.600000 3.587891 12.268790
36.800000 0.264160 12.268790
37.300000 4.940430 12.268790
37.900000 5.741699 12.268790
37.800000 6.167969 12.268790
37.400000 7.094238 12.268790
37.300000 3.645508 12.268790
37.300000 8.321777 12.268790
37.400000 8.998047 12.268790
32.300000 -11.039062 12.409372
32.300000 -10.234375 12.409372
32.200000 -9.429688 12.409372
32.200000 -9.125000 12.409372
32.100000 -8.445312 12.409372
32.100000 -7.265625 12.409372
32.100000 -6.585938 12.409372
32.000000 -6.031250 12.409372
36.800000 0.188477 12.409372
36.100000 0.743652 12.409372
35.900000 -2.451172 12.409372
36.000000 -1.770996 12.409372
36.200000 -1.090820 12.409372
36.600000 -0.535645 12.409372
36.900000 4.144531 12.409372
37.200000 4.699707 12.409372
38.000000 5.504883 12.409372
38.000000 6.185059 12.409372
37.400000 6.990234 12.409372
37.300000 7.670410 12.409372
37.300000 8.100586 12.409372
37.400000 8.905762 12.409372
37.700000 9.585938 12.409372
38.400000 10.266113 12.409372
32.300000 -11.203125 12.534372
32.300000 -10.273438 12.534372
32.200000 -9.843750 12.534372
32.200000 -8.664062 12.534372
32.100000 -8.109375 12.534372
32.000000 -7.179688 12.534372
32.000000 -7.000000 12.534372
32.000000 -5.820312 12.534372
36.200000 0.828125 12.534372
36.100000 1.632812 12.534372
36.200000 2.187500 12.534372
36.300000 2.742188 12.534372
36.700000 3.671875 12.534372
37.100000 4.351562 12.534372
37.500000 6.265625 12.534372
37.500000 2.945312 12.534372
37.300000 7.750000 12.534372
37.300000 8.428711 12.534372
37.500000 9.107422 12.534372
32.400000 -11.287109 12.675448
32.300000 -10.480957 12.675448
32.300000 -9.424805 12.675448
32.200000 -8.993652 12.675448
32.100000 -8.687500 12.675448
32.100000 -8.009766 12.675448
32.000000 -6.832031 12.675448
32.000000 -6.529297 12.675448
32.100000 -5.601562 12.675448
36.900000 -0.318359 12.675448
36.700000 0.484375 12.675448
36.100000 1.287109 12.675448
36.100000 -2.160156 12.675448
36.300000 2.642578 12.675448
36.600000 3.320312 12.675448
37.100000 3.748047 12.675448
37.400000 4.550781 12.675448
37.600000 5.228516 12.675448
38.100000 6.031250 12.675448
38.100000 6.833984 12.675448
37.500000 7.386719 12.675448
37.400000 7.814453 12.675448
37.500000 8.492188 12.675448
37.700000 9.294922 12.675448
38.100000 9.972656 12.675448
32.300000 -10.983887 12.816074
32.300000 -9.929688 12.816074
32.200000 -9.375488 12.816074
32.200000 -8.696289 12.816074
32.100000 -8.517090 12.816074
32.100000 -7.587891 12.816074
32.100000 -7.158691 12.816074
32.000000 -6.479492 12.816074
36.200000 -3.208496 12.816074
36.100000 -2.279297 12.816074
36.200000 2.024902 12.816074
36.300000 2.954102 12.816074
36.800000 3.633301 12.816074
37.300000 4.187500 12.816074
37.900000 6.086914 12.816074
37.900000 6.761719 12.816074
37.500000 7.436523 12.816074
37.500000 8.111328 12.816074
37.700000 9.036133 12.816074
37.900000 9.710938 12.816074
38.600000 10.635742 12.816074
32.400000 -11.605957 12.956992
32.300000 -10.430664 12.956992
32.300000 -9.630371 12.956992
32.200000 -9.580078 12.956992
32.200000 -8.654785 12.956992
32.100000 -7.604492 12.956992
32.000000 -7.054199 12.956992
32.000000 -6.753906 12.956992
32.000000 -5.578613 12.956992
36.100000 0.922852 12.956992
36.100000 -2.151855 12.956992
36.300000 2.523438 12.956992
36.600000 -0.801270 12.956992
37.100000 3.874023 12.956992
37.700000 4.424316 12.956992
37.900000 6.700195 12.956992
37.700000 7.000488 12.956992
37.500000 7.925781 12.956992
37.600000 8.726074 12.956992
37.800000 9.401367 12.956992
38.200000 10.076660 12.956992
32.300000 -11.250000 13.093939
32.300000 -10.445312 13.093939
32.200000 -9.890625 13.093939
32.200000 -8.710938 13.093939
32.100000 -8.281250 13.093939
32.100000 -7.476562 13.093939
32.100000 -6.671875 13.093939
32.000000 -6.242188 13.093939
36.200000 -3.218750 13.093939
36.100000 1.455078 13.093939
36.200000 -1.746094 13.093939
36.400000 2.927734 13.093939
36.900000 3.476562 13.093939
37.400000 4.275391 13.093939
38.300000 6.296875 13.093939
38.300000 6.970703 13.093939
37.600000 7.519531 13.093939
37.600000 8.318359 13.093939
37.700000 9.117188 13.093939
37.900000 9.666016 13.093939
38.700000 10.464844 13.093939
32.400000 -10.559570 13.223321
32.300000 -10.257812 13.223321
32.200000 -9.706055 13.223321
32.200000 -8.654297 13.223321
32.100000 -8.102539 13.223321
32.000000 -7.550781 13.223321
32.000000 -6.499023 13.223321
32.000000 -6.322266 13.223321
36.200000 0.686523 13.223321
36.100000 1.363281 13.223321
36.200000 2.040039 13.223321
36.600000 2.966797 13.223321
37.100000 3.393555 13.223321
37.600000 4.445312 13.223321
38.200000 6.475586 13.223321
38.200000 6.902344 13.223321
37.800000 7.704102 13.223321
37.800000 8.505859 13.223321
37.900000 9.057617 13.223321
32.400000 -11.296387 13.364187
32.300000 -10.495117 13.364187
32.300000 -9.943848 13.364187
32.200000 -9.017578 13.364187
32.100000 -8.466309 13.364187
32.100000 -8.040039 13.364187
32.000000 -7.113770 13.364187
32.000000 -6.312500 13.364187
32.100000 -6.135742 13.364187
36.900000 -4.230469 13.364187
36.100000 -2.876953 13.364187
36.100000 -2.075195 13.364187
36.400000 2.351562 13.364187
36.800000 3.153320 13.364187
37.400000 3.830078 13.364187
37.900000 4.506836 13.364187
38.100000 6.662109 13.364187
38.000000 3.213867 13.364187
37.800000 8.140625 13.364187
37.900000 8.817383 13.364187
38.100000 9.244141 13.364187
38.500000 10.045898 13.364187
32.300000 -11.292969 13.489189
32.300000 -10.239258 13.489189
32.200000 -9.435547 13.489189
32.200000 -8.881836 13.489189
32.100000 -8.578125 13.489189
32.100000 -7.899414 13.489189
32.000000 -6.595703 13.489189
32.000000 -5.916992 13.489189
36.700000 -0.202148 13.489189
36.100000 -3.398438 13.489189
36.000000 -2.594727 13.489189
36.200000 1.958984 13.489189
36.500000 2.637695 13.489189
36.900000 -0.683594 13.489189
37.400000 4.120117 13.489189
37.800000 0.673828 13.489189
38.000000 6.957031 13.489189
38.000000 7.632812 13.489189
37.900000 7.933594 13.489189
37.900000 8.609375 13.489189
38.200000 9.535156 13.489189
38.800000 10.460938 13.489189
32.300000 -10.963379 13.644071
32.300000 -10.281250 13.644071
32.200000 -9.854980 13.644071
32.200000 -8.803711 13.644071
32.100000 -8.252441 13.644071
32.100000 -7.576172 13.644071
32.000000 -7.399902 13.644071
32.000000 -6.098633 13.644071
32.100000 -5.672363 13.644071
36.500000 -0.143555 13.644071
36.100000 -3.342285 13.644071
36.000000 -2.541016 13.644071
36.200000 1.760254 13.644071
36.500000 -1.313477 13.644071
36.900000 3.362793 13.644071
37.400000 4.039062 13.644071
37.800000 4.465332 13.644071
38.000000 6.744141 13.644071
38.100000 7.545410 13.644071
38.000000 7.971680 13.644071
38.100000 8.522949 13.644071
38.300000 9.449219 13.644071
38.800000 10.000488 13.644071
32.400000 -10.423828 13.769102
32.300000 -10.117188 13.769102
32.200000 -9.560547 13.769102
32.200000 -8.628906 13.769102
32.100000 -7.947266 13.769102
32.000000 -7.390625 13.769102
32.000000 -6.333984 13.769102
32.000000 -5.777344 13.769102
36.100000 -2.869141 13.769102
36.100000 1.687500 13.769102
36.400000 -1.632812 13.769102
36.800000 2.921875 13.769102
37.300000 3.976562 13.769102
37.800000 4.531250 13.769102
38.300000 6.445312 13.769102
38.300000 7.250000 13.769102
38.100000 7.679688 13.769102
38.100000 8.609375 13.769102
38.300000 9.414062 13.769102
38.700000 9.968750 13.769102
32.400000 -11.231445 13.894104
32.300000 -10.927734 13.894104
32.300000 -9.749023 13.894104
32.200000 -9.320312 13.894104
32.200000 -8.516602 13.894104
32.100000 -7.962891 13.894104
32.000000 -7.034180 13.894104
32.000000 -6.730469 13.894104
32.000000 -5.551758 13.894104
36.700000 -0.140625 13.894104
36.600000 -3.461914 13.894104
36.000000 -2.783203 13.894104
36.100000 1.895508 13.894104
36.400000 2.449219 13.894104
36.800000 3.002930 13.894104
37.300000 3.681641 13.894104
37.800000 4.735352 13.894104
38.300000 6.646484 13.894104
38.300000 7.075195 13.894104
38.100000 7.753906 13.894104
38.100000 8.557617 13.894104
38.400000 9.236328 13.894104
38.900000 9.915039 13.894104
32.300000 -11.269531 14.034731
32.300000 -10.464355 14.034731
32.300000 -9.909180 14.034731
32.200000 -8.979004 14.034731
32.100000 -8.298828 14.034731
32.100000 -7.493652 14.034731
32.000000 -6.688477 14.034731
32.000000 -6.508301 14.034731
32.100000 -5.453125 14.034731
36.700000 -4.178711 14.034731
36.000000 -2.829102 14.034731
36.100000 -2.154297 14.034731
36.400000 2.645508 14.034731
36.700000 3.320312 14.034731
37.200000 4.120117 14.034731
37.800000 4.794922 14.034731
38.300000 6.694336 14.034731
38.400000 7.369141 14.034731
38.200000 8.043945 14.034731
38.200000 8.718750 14.034731
38.400000 9.643555 14.034731
38.900000 10.068359 14.034731
32.300000 -10.883301 14.159692
32.300000 -10.455078 14.159692
32.200000 -9.901855 14.159692
32.200000 -8.598633 14.159692
32.100000 -8.295410 14.159692
32.000000 -7.617188 14.159692
32.000000 -6.438965 14.159692
32.000000 -5.760742 14.159692
36.100000 -3.119629 14.159692
36.100000 1.558594 14.159692
36.200000 2.236816 14.159692
36.400000 -1.209961 14.159692
36.800000 3.468262 14.159692
37.400000 0.146484 14.159692
39.000000 7.109375 14.159692
38.400000 7.411133 14.159692
38.300000 8.462891 14.159692
38.400000 9.139648 14.159692
32.300000 -11.300293 14.300317
32.300000 -10.372070 14.300317
32.300000 -9.693848 14.300317
32.200000 -8.890625 14.300317
32.100000 -8.838379 14.300317
32.100000 -8.161133 14.300317
32.000000 -7.483887 14.300317
32.000000 -6.306641 14.300317
32.100000 -6.004395 14.300317
36.700000 -0.347656 14.300317
36.500000 0.329590 14.300317
36.000000 1.131836 14.300317
36.100000 1.934082 14.300317
36.200000 2.486328 14.300317
36.400000 3.163574 14.300317
36.900000 3.840820 14.300317
37.700000 4.518066 14.300317
38.400000 6.674805 14.300317
38.500000 7.602051 14.300317
38.500000 8.029297 14.300317
38.400000 8.956543 14.300317
38.600000 9.133789 14.300317
39.100000 9.936035 14.300317
32.300000 -11.187500 14.440981
32.300000 -10.258789 14.440981
32.200000 -9.955078 14.440981
32.200000 -8.901367 14.440981
32.100000 -7.972656 14.440981
32.000000 -7.793945 14.440981
32.000000 -6.615234 14.440981
32.000000 -6.561523 14.440981
36.700000 -3.846680 14.440981
36.100000 0.582031 14.440981
36.100000 1.510742 14.440981
36.100000 2.064453 14.440981
36.100000 -1.256836 14.440981
36.400000 3.421875 14.440981
36.800000 0.096680 14.440981
37.400000 4.771484 14.440981
38.100000 6.670898 14.440981
38.500000 7.720703 14.440981
38.500000 8.270508 14.440981
38.500000 8.820312 14.440981
38.800000 9.495117 14.440981
39.500000 10.294922 14.440981
32.300000 -10.768066 14.581818
32.300000 -10.216797 14.581818
32.200000 -9.915527 14.581818
32.200000 -8.739258 14.581818
32.100000 -8.437988 14.581818
32.000000 -7.636719 14.581818
32.000000 -6.835449 14.581818
32.000000 -6.284180 14.581818
36.700000 -3.954102 14.581818
36.100000 0.847168 14.581818
36.000000 1.398438 14.581818
36.000000 2.199707 14.581818
36.100000 2.750977 14.581818
36.200000 3.552246 14.581818
36.600000 0.103516 14.581818
38.500000 7.609863 14.581818
38.400000 8.036133 14.581818
38.500000 8.712402 14.581818
32.300000 -10.791016 14.722490
32.300000 -9.735352 14.722490
32.200000 -9.179688 14.722490
32.200000 -8.999023 14.722490
32.100000 -7.693359 14.722490
32.000000 -7.512695 14.722490
32.000000 -6.707031 14.722490
32.000000 -5.901367 14.722490
36.000000 -2.884766 14.722490
36.000000 1.665039 14.722490
35.900000 -1.660156 14.722490
35.900000 -0.860352 14.722490
36.000000 -0.185547 14.722490
36.400000 4.239258 14.722490
38.800000 6.938477 14.722490
38.600000 7.988281 14.722490
38.500000 8.663086 14.722490
38.700000 9.212891 14.722490
39.000000 10.137695 14.722490
32.400000 -11.402344 14.847491
32.300000 -10.101074 14.847491
32.200000 -9.424805 14.847491
32.200000 -8.998535 14.847491
32.100000 -8.072266 14.847491
32.100000 -7.645996 14.847491
32.000000 -7.094727 14.847491
32.000000 -6.293457 14.847491
36.700000 -0.213379 14.847491
36.100000 0.462891 14.847491
36.000000 -2.610840 14.847491
35.900000 1.940430 14.847491
35.900000 -1.383301 14.847491
35.900000 3.417969 14.847491
36.000000 0.094238 14.847491
36.200000 0.645508 14.847491
38.700000 7.725586 14.847491
38.500000 8.026855 14.847491
38.600000 9.078125 14.847491
38.800000 9.379395 14.847491
39.400000 10.430664 14.847491
32.400000 -10.645020 14.988076
32.300000 -10.087891 14.988076
32.200000 -9.030762 14.988076
32.200000 -8.848633 14.988076
32.100000 -8.291504 14.988076
32.000000 -7.484375 14.988076
32.000000 -6.934570 14.988076
32.000000 -5.884766 14.988076
36.100000 0.864258 14.988076
36.000000 -2.460938 14.988076
35.900000 -1.786133 14.988076
35.900000 -1.111328 14.988076
35.800000 -0.311523 14.988076
35.900000 0.363281 14.988076
36.000000 1.038086 14.988076
38.600000 7.862305 14.988076
38.600000 8.412109 14.988076
38.800000 9.211914 14.988076
32.300000 -10.979492 15.129249
32.300000 -10.798828 15.129249
32.200000 -9.993164 15.129249
32.200000 -8.812500 15.129249
32.100000 -8.506836 15.129249
32.100000 -7.576172 15.129249
32.000000 -7.270508 15.129249
32.000000 -6.589844 15.129249
31.900000 -5.784180 15.129249
36.700000 -4.117188 15.129249
36.300000 -3.436523 15.129249
36.100000 -2.630859 15.129249
35.900000 -1.825195 15.129249
35.900000 2.605469 15.129249
35.800000 -0.588867 15.129249
35.800000 0.091797 15.129249
35.900000 0.772461 15.129249
38.600000 8.048828 15.129249
38.500000 8.729004 15.129249
38.800000 9.784180 15.129249
39.500000 10.339355 15.129249
32.400000 -10.671875 15.254290
32.300000 -10.117188 15.254290
32.200000 -9.187500 15.254290
32.200000 -8.757812 15.254290
32.100000 -7.953125 15.254290
32.000000 -7.523438 15.254290
32.000000 -6.343750 15.254290
32.000000 -5.789062 15.254290
36.100000 0.859375 15.254290
36.000000 -2.335938 15.254290
36.000000 -1.656250 15.254290
35.900000 -0.976562 15.254290
35.900000 -0.421875 15.254290
35.900000 0.257812 15.254290
36.000000 1.062500 15.254290
38.600000 7.781250 15.254290
38.600000 8.210938 15.254290
38.800000 9.390625 15.254290
32.400000 -11.379883 15.394913
32.300000 -10.073730 15.394913
32.200000 -9.392578 15.394913
32.200000 -8.836426 15.394913
32.100000 -8.655273 15.394913
32.100000 -7.224121 15.394913
32.000000 -7.042969 15.394913
32.000000 -6.486816 15.394913
36.900000 -0.012207 15.394913
36.300000 -3.206055 15.394913
36.100000 1.350098 15.394913
36.000000 -1.843750 15.394913
35.900000 2.709961 15.394913
35.900000 -0.611328 15.394913
36.000000 0.067383 15.394913
36.000000 4.746094 15.394913
38.700000 7.460938 15.394913
38.700000 8.389648 15.394913
38.800000 8.943359 15.394913
39.100000 9.872070 15.394913
39.700000 10.425781 15.394913
32.300000 -10.724609 15.535537
32.300000 -10.296387 15.535537
32.300000 -9.993164 15.535537
32.200000 -9.189941 15.535537
32.100000 -8.136719 15.535537
32.100000 -7.583496 15.535537
32.000000 -7.030273 15.535537
32.000000 -6.477051 15.535537
36.900000 -4.014160 15.535537
36.300000 0.664062 15.535537
36.100000 1.217285 15.535537
36.000000 -1.854492 15.535537
36.000000 -1.301270 15.535537
35.900000 3.501953 15.535537
36.000000 0.055176 15.535537
36.200000 0.733398 15.535537
38.700000 7.446289 15.535537
38.700000 8.124512 15.535537
38.800000 8.927734 15.535537
39.100000 9.730957 15.535537
39.700000 10.534180 15.535537
32.300000 -11.198242 15.660541
32.300000 -10.269043 15.660541
32.200000 -9.464844 15.660541
32.200000 -9.285645 15.660541
32.100000 -8.106445 15.660541
32.100000 -7.802246 15.660541
32.000000 -6.998047 15.660541
32.000000 -6.318848 15.660541
36.900000 0.145508 15.660541
36.300000 0.697266 15.660541
36.200000 -2.625977 15.660541
36.100000 2.050781 15.660541
36.100000 2.727539 15.660541
36.200000 -0.595703 15.660541
36.300000 4.081055 15.660541
38.800000 7.589844 15.660541
38.700000 8.516602 15.660541
38.800000 9.068359 15.660541
39.100000 9.870117 15.660541
39.700000 10.421875 15.660541
32.400000 -10.902344 15.801162
32.300000 -9.851562 15.801162
32.200000 -9.425781 15.801162
32.200000 -9.000000 15.801162
32.100000 -8.074219 15.801162
32.000000 -7.523438 15.801162
32.000000 -6.722656 15.801162
32.000000 -6.421875 15.801162
36.400000 -3.042969 15.801162
36.300000 -2.367188 15.801162
36.200000 2.183594 15.801162
36.300000 2.984375 15.801162
36.400000 3.660156 15.801162
36.800000 4.210938 15.801162
39.500000 7.039062 15.801162
38.900000 7.839844 15.801162
38.800000 8.515625 15.801162
38.900000 8.815918 15.801162
39.100000 9.741211 15.801162
39.900000 10.666504 15.801162
32.400000 -10.685547 15.941750
32.300000 -9.881348 15.941750
32.200000 -9.452148 15.941750
32.200000 -8.522949 15.941750
32.100000 -7.718750 15.941750
32.000000 -6.917969 15.941750
32.000000 -6.367188 15.941750
32.000000 -6.191406 15.941750
36.400000 0.937500 15.941750
36.300000 1.738281 15.941750
36.300000 2.289062 15.941750
36.500000 2.964844 15.941750
36.700000 -0.359375 15.941750
37.500000 4.191406 15.941750
39.300000 7.144531 15.941750
38.900000 7.695312 15.941750
38.900000 8.371094 15.941750
38.900000 9.296875 15.941750
32.400000 -10.528809 16.082375
32.300000 -9.851562 16.082375
32.200000 -9.049316 16.082375
32.200000 -8.497070 16.082375
32.100000 -7.819824 16.082375
32.000000 -7.392578 16.082375
32.000000 -6.840332 16.082375
32.000000 -5.788086 16.082375
36.500000 0.848145 16.082375
36.500000 -2.349609 16.082375
36.500000 2.202637 16.082375
36.700000 3.129883 16.082375
39.300000 7.312500 16.082375
38.900000 7.988281 16.082375
38.900000 8.414062 16.082375
39.000000 9.214844 16.082375
32.300000 -10.632812 16.207884
32.300000 -10.207031 16.207884
32.200000 -9.281250 16.207884
32.200000 -8.480469 16.207884
32.100000 -8.179688 16.207884
32.000000 -7.503906 16.207884
32.000000 -6.703125 16.207884
32.000000 -6.152344 16.207884
36.600000 -2.898438 16.207884
36.600000 1.652344 16.207884
36.700000 2.203125 16.207884
36.900000 -0.996094 16.207884
37.400000 3.554688 16.207884
38.200000 4.355469 16.207884
39.100000 6.507812 16.207884
39.300000 7.183594 16.207884
38.900000 7.984375 16.207884
38.900000 8.785156 16.207884
39.000000 9.335938 16.207884
32.300000 -10.992188 16.348511
32.300000 -10.185547 16.348511
32.200000 -9.753906 16.348511
32.200000 -9.322266 16.348511
32.100000 -8.390625 16.348511
32.100000 -7.583984 16.348511
32.000000 -6.652344 16.348511
32.000000 -6.095703 16.348511
32.100000 -5.664062 16.348511
36.600000 1.239258 16.348511
36.700000 2.041016 16.348511
36.900000 2.467773 16.348511
37.300000 3.519531 16.348511
37.800000 3.946289 16.348511
38.100000 4.873047 16.348511
38.600000 7.028320 16.348511
39.100000 7.705078 16.348511
39.000000 8.256836 16.348511
39.000000 8.683594 16.348511
39.200000 9.485352 16.348511
39.600000 10.287109 16.348511
32.300000 -11.176270 16.473512
32.300000 -10.621094 16.473512
32.200000 -9.315918 16.473512
32.200000 -8.885742 16.473512
32.100000 -8.455566 16.473512
32.000000 -7.775391 16.473512
32.000000 -6.470215 16.473512
32.000000 -6.040039 16.473512
37.300000 -0.069336 16.473512
36.700000 0.860840 16.473512
36.700000 1.291016 16.473512
36.800000 2.221191 16.473512
37.100000 -1.223633 16.473512
37.500000 -0.543457 16.473512
38.200000 4.136719 16.473512
38.800000 6.982422 16.473512
38.900000 7.662598 16.473512
38.900000 8.217773 16.473512
39.000000 8.897949 16.473512
39.200000 9.578125 16.473512
40.000000 10.380859 16.473512
32.300000 -10.399414 16.614134
32.300000 -9.843262 16.614134
32.200000 -9.537109 16.614134
32.200000 -8.730957 16.614134
32.100000 -8.174805 16.614134
32.000000 -7.243652 16.614134
32.000000 -6.437500 16.614134
32.000000 -5.757812 16.614134
36.700000 -2.984375 16.614134
36.700000 1.570312 16.614134
37.000000 2.250000 16.614134
37.400000 3.179688 16.614134
37.900000 3.734375 16.614134
38.500000 4.539062 16.614134
39.000000 6.453125 16.614134
39.100000 7.257812 16.614134
38.900000 7.812500 16.614134
38.900000 8.867188 16.614134
39.000000 9.296875 16.614134
39.400000 9.976562 16.614134
32.300000 -11.105469 16.754724
32.300000 -9.926758 16.754724
32.200000 -9.873047 16.754724
32.200000 -8.694336 16.754724
32.100000 -8.140625 16.754724
32.000000 -7.336914 16.754724
32.000000 -6.658203 16.754724
32.000000 -5.979492 16.754724
36.800000 0.664062 16.754724
36.700000 -2.532227 16.754724
36.900000 2.271484 16.754724
37.300000 2.700195 16.754724
37.800000 3.753906 16.754724
38.300000 4.432617 16.754724
39.600000 7.145996 16.754724
38.900000 7.573242 16.754724
38.900000 8.500488 16.754724
39.000000 9.302734 16.754724
32.300000 -10.810547 16.879726
32.300000 -10.131836 16.879726
32.300000 -9.953125 16.879726
32.200000 -8.776367 16.879726
32.100000 -8.724609 16.879726
32.100000 -7.547852 16.879726
32.000000 -6.996094 16.879726
32.000000 -6.194336 16.879726
36.800000 1.116211 16.879726
36.900000 -2.082031 16.879726
37.300000 2.719727 16.879726
37.700000 3.271484 16.879726
38.300000 3.948242 16.879726
38.300000 4.500000 16.879726
38.600000 6.780273 16.879726
39.100000 7.707031 16.879726
38.900000 8.258789 16.879726
38.900000 9.060547 16.879726
39.200000 9.612305 16.879726
39.700000 10.289062 16.879726
32.300000 -10.611816 17.020386
32.300000 -10.184570 17.020386
32.200000 -9.007324 17.020386
32.200000 -8.705078 17.020386
32.100000 -7.527832 17.020386
32.000000 -6.975586 17.020386
32.000000 -6.923340 17.020386
32.000000 -6.246094 17.020386
36.900000 1.015137 17.020386
36.900000 1.692383 17.020386
37.100000 2.369629 17.020386
37.600000 3.046875 17.020386
38.100000 4.099121 17.020386
38.600000 4.651367 17.020386
39.000000 6.433105 17.020386
39.100000 7.360352 17.020386
38.900000 7.787598 17.020386
38.900000 8.589844 17.020386
39.000000 9.267090 17.020386
39.400000 10.194336 17.020386
32.400000 -10.955566 17.161008
32.300000 -10.279297 17.161008
32.200000 -9.603027 17.161008
32.200000 -9.051758 17.161008
32.100000 -8.125488 17.161008
32.000000 -7.074219 17.161008
32.000000 -6.772949 17.161008
32.000000 -6.096680 17.161008
37.700000 -0.016602 17.161008
37.000000 -3.215332 17.161008
36.900000 -2.539062 17.161008
37.100000 -1.862793 17.161008
37.400000 2.688477 17.161008
37.900000 3.364746 17.161008
38.400000 4.291016 17.161008
39.400000 6.694824 17.161008
39.500000 6.996094 17.161008
38.900000 7.547363 17.161008
38.800000 8.348633 17.161008
39.000000 9.274902 17.161008
32.300000 -10.961426 17.301635
32.300000 -10.780273 17.301635
32.200000 -9.849121 17.301635
32.200000 -9.042969 17.301635
32.100000 -8.486816 17.301635
32.100000 -7.680664 17.301635
32.000000 -7.374512 17.301635
32.000000 -6.193359 17.301635
32.200000 -5.637207 17.301635
36.900000 1.257812 17.301635
37.100000 1.933594 17.301635
37.400000 2.609375 17.301635
37.700000 3.410156 17.301635
38.300000 3.835938 17.301635
38.800000 4.886719 17.301635
39.100000 7.039062 17.301635
39.000000 7.339844 17.301635
38.800000 8.015625 17.301635
38.900000 8.691406 17.301635
39.200000 9.617188 17.301635
39.700000 10.167969 17.301635
32.400000 -10.679688 17.426615
32.300000 -10.252930 17.426615
32.200000 -9.201172 17.426615
32.200000 -8.649414 17.426615
32.100000 -8.347656 17.426615
32.000000 -7.545898 17.426615
32.000000 -6.869141 17.426615
32.000000 -6.317383 17.426615
37.800000 -3.860352 17.426615
37.100000 0.691406 17.426615
37.000000 -2.506836 17.426615
37.200000 2.044922 17.426615
37.500000 2.721680 17.426615
38.000000 3.648438 17.426615
38.500000 4.575195 17.426615
39.200000 6.355469 17.426615
39.300000 7.157227 17.426615
38.900000 7.583984 17.426615
38.800000 8.385742 17.426615
39.000000 9.062500 17.426615
32.400000 -10.940430 17.567260
32.300000 -10.635254 17.567260
32.300000 -9.580078 17.567260
32.200000 -8.899902 17.567260
32.200000 -8.344727 17.567260
32.100000 -7.539551 17.567260
32.000000 -6.859375 17.567260
32.000000 -6.184082 17.567260
32.000000 -5.383789 17.567260
37.100000 1.117676 17.567260
37.000000 1.667969 17.567260
37.300000 2.468262 17.567260
37.700000 3.143555 17.567260
38.200000 3.693848 17.567260
38.700000 4.744141 17.567260
39.000000 6.645020 17.567260
39.000000 7.445312 17.567260
38.900000 7.745605 17.567260
38.900000 8.670898 17.567260
39.100000 9.596191 17.567260
39.500000 10.146484 17.567260
32.300000 -10.863770 17.707884
32.300000 -9.807617 17.707884
32.200000 -9.376465 17.707884
32.200000 -8.695312 17.707884
32.100000 -7.764160 17.707884
32.000000 -7.208008 17.707884
32.000000 -6.776855 17.707884
32.000000 -6.095703 17.707884
37.100000 1.185059 17.707884
37.000000 1.616211 17.707884
37.300000 2.297363 17.707884
37.600000 3.103516 17.707884
38.100000 4.034668 17.707884
38.600000 4.590820 17.707884
39.000000 6.501953 17.707884
39.100000 7.550781 17.707884
38.900000 8.224609 17.707884
38.900000 8.773438 17.707884
39.000000 9.322266 17.707884
39.400000 10.246094 17.707884
32.400000 -11.181641 17.833168
32.300000 -10.875000 17.833168
32.300000 -9.698730 17.833168
32.200000 -8.897461 17.833168
32.100000 -8.721191 17.833168
32.100000 -7.919922 17.833168
32.000000 -7.493652 17.833168
31.900000 -6.317383 17.833168
32.000000 -6.016113 17.833168
37.100000 0.990234 17.833168
37.100000 1.916504 17.833168
37.300000 2.592773 17.833168
37.700000 3.269043 17.833168
38.200000 3.945312 17.833168
38.700000 4.746582 17.833168
39.100000 6.650391 17.833168
38.900000 7.576660 17.833168
38.800000 8.127930 17.833168
38.900000 8.554199 17.833168
39.000000 9.230469 17.833168
39.500000 10.031738 17.833168
32.400000 -11.451172 17.973830
32.300000 -10.270508 17.973830
32.300000 -9.964844 17.973830
32.200000 -9.409180 17.973830
32.100000 -8.853516 17.973830
32.100000 -7.797852 17.973830
32.000000 -7.492188 17.973830
31.900000 -6.061523 17.973830
32.000000 -5.755859 17.973830
37.100000 1.272461 17.973830
37.100000 1.828125 17.973830
37.300000 2.757812 17.973830
37.600000 3.437500 17.973830
38.200000 3.992188 17.973830
38.800000 4.921875 17.973830
39.100000 6.710938 17.973830
38.800000 7.515625 17.973830
38.700000 7.945312 17.973830
38.900000 8.750000 17.973830
39.100000 9.304688 17.973830
39.700000 10.484375 17.973830
32.400000 -11.012695 18.114453
32.300000 -10.708984 18.114453
32.300000 -9.905273 18.114453
32.200000 -9.101562 18.114453
32.200000 -8.922852 18.114453
32.100000 -7.869141 18.114453
32.000000 -7.315430 18.114453
31.900000 -6.261719 18.114453
32.100000 -5.958008 18.114453
37.100000 -2.939453 18.114453
37.000000 1.614258 18.114453
37.300000 2.667969 18.114453
37.600000 3.096680 18.114453
38.100000 3.650391 18.114453
38.700000 4.704102 18.114453
39.000000 6.490234 18.114453
38.800000 7.293945 18.114453
38.700000 7.972656 18.114453
38.800000 8.776367 18.114453
39.000000 9.455078 18.114453
39.500000 10.383789 18.114453
32.400000 -11.148438 18.239417
32.300000 -10.342773 18.239417
32.300000 -10.037109 18.239417
32.200000 -9.106445 18.239417
32.100000 -8.800781 18.239417
32.100000 -7.620117 18.239417
32.000000 -6.814453 18.239417
31.900000 -6.133789 18.239417
32.000000 -5.703125 18.239417
37.100000 1.053223 18.239417
37.100000 -2.145508 18.239417
37.200000 2.655762 18.239417
37.500000 3.207031 18.239417
38.000000 4.008301 18.239417
38.700000 4.559570 18.239417
39.000000 6.713379 18.239417
38.800000 7.514648 18.239417
38.700000 8.190918 18.239417
38.800000 8.617188 18.239417
39.000000 9.543457 18.239417
39.700000 10.094727 18.239417
32.400000 -11.565918 18.380076
32.300000 -10.388672 18.380076
32.300000 -9.961426 18.380076
32.200000 -9.409180 18.380076
32.200000 -8.856934 18.380076
32.100000 -7.804688 18.380076
32.000000 -7.377441 18.380076
31.900000 -6.450195 18.380076
32.000000 -6.022949 18.380076
37.100000 0.988281 18.380076
37.000000 1.915527 18.380076
37.200000 -1.532227 18.380076
37.500000 3.270020 18.380076
38.000000 3.822266 18.380076
38.700000 4.624512 18.380076
38.900000 6.531250 18.380076
38.700000 7.332520 18.380076
38.600000 8.008789 18.380076
38.700000 8.435059 18.380076
38.900000 9.236328 18.380076
39.500000 10.162598 18.380076
32.300000 -11.107422 18.520707
32.300000 -10.553711 18.520707
32.200000 -9.625000 18.520707
32.200000 -8.573730 18.520707
32.100000 -8.272461 18.520707
32.000000 -7.221191 18.520707
32.000000 -7.169922 18.520707
32.000000 -6.243652 18.520707
37.800000 0.086426 18.520707
37.200000 0.762695 18.520707
37.100000 1.563965 18.520707
37.100000 2.240234 18.520707
37.300000 2.916504 18.520707
37.600000 3.717773 18.520707
38.200000 4.394043 18.520707
38.800000 5.195312 18.520707
39.400000 5.746582 18.520707
39.300000 6.547852 18.520707
38.900000 6.849121 18.520707
38.600000 7.650391 18.520707
38.500000 8.451660 18.520707
38.800000 8.877930 18.520707
39.100000 9.679199 18.520707
32.300000 -10.632812 18.645667
32.300000 -10.078125 18.645667
32.200000 -9.398438 18.645667
32.200000 -8.468750 18.645667
32.100000 -7.914062 18.645667
32.000000 -6.859375 18.645667
32.000000 -6.679688 18.645667
32.000000 -6.250000 18.645667
37.100000 1.148438 18.645667
37.000000 1.828125 18.645667
37.200000 2.382812 18.645667
37.400000 3.187500 18.645667
37.700000 3.611328 18.645667
38.300000 4.660156 18.645667
38.700000 6.306641 18.645667
38.600000 7.480469 18.645667
38.400000 7.779297 18.645667
38.500000 8.703125 18.645667
38.700000 9.001953 18.645667
39.200000 9.800781 18.645667
32.400000 -11.064453 18.770709
32.300000 -9.889160 18.770709
32.200000 -9.713867 18.770709
32.200000 -8.663574 18.770709
32.100000 -7.613281 18.770709
32.000000 -6.937988 18.770709
32.000000 -6.762695 18.770709
32.000000 -6.212402 18.770709
37.100000 1.039062 18.770709
37.000000 1.464355 18.770709
37.000000 -1.735352 18.770709
37.300000 2.814941 18.770709
37.600000 3.490234 18.770709
38.200000 4.540527 18.770709
38.800000 5.215820 18.770709
39.300000 6.016113 18.770709
39.200000 6.191406 18.770709
38.600000 6.866699 18.770709
38.400000 7.916992 18.770709
38.500000 8.592285 18.770709
38.700000 9.267578 18.770709
39.100000 9.942871 18.770709
32.400000 -11.017578 18.926982
32.300000 -10.590820 18.926982
32.300000 -10.164062 18.926982
32.200000 -9.612305 18.926982
32.200000 -8.435547 18.926982
32.100000 -8.008789 18.926982
32.000000 -7.582031 18.926982
32.000000 -6.655273 18.926982
32.000000 -5.728516 18.926982
37.000000 -2.846191 18.926982
36.900000 1.705078 18.926982
37.000000 2.381348 18.926982
37.200000 3.057617 18.926982
37.700000 3.983887 18.926982
38.300000 4.660156 18.926982
38.900000 5.461426 18.926982
39.200000 5.887695 18.926982
39.000000 6.563965 18.926982
38.400000 6.990234 18.926982
38.300000 7.791504 18.926982
38.500000 8.467773 18.926982
38.700000 9.394043 18.926982
39.200000 9.945312 18.926982
32.400000 -11.489746 19.051955
32.300000 -10.811523 19.051955
32.200000 -10.008301 19.051955
32.200000 -8.955078 19.051955
32.100000 -8.276855 19.051955
32.100000 -7.973633 19.051955
32.000000 -7.045410 19.051955
31.900000 -6.492188 19.051955
32.000000 -5.438965 19.051955
36.800000 -2.672852 19.051955
36.800000 -2.119629 19.051955
37.000000 -1.441406 19.051955
37.300000 3.111816 19.051955
37.700000 3.915039 19.051955
38.400000 4.593262 19.051955
39.000000 5.271484 19.051955
39.000000 5.949707 19.051955
38.600000 6.502930 19.051955
38.200000 7.556152 19.051955
38.200000 8.234375 19.051955
38.400000 9.036133 19.051955
32.400000 -11.263672 19.192945
32.300000 -10.455566 19.192945
32.300000 -10.022461 19.192945
32.200000 -8.964355 19.192945
32.100000 -8.281250 19.192945
32.100000 -7.854004 19.192945
32.000000 -7.426758 19.192945
31.900000 -6.499512 19.192945
32.000000 -5.572266 19.192945
36.800000 1.188965 19.192945
36.800000 1.741211 19.192945
36.900000 2.668457 19.192945
37.200000 3.345703 19.192945
37.600000 -0.102051 19.192945
38.300000 4.450195 19.192945
38.900000 5.627441 19.192945
38.900000 5.929688 19.192945
38.500000 6.731934 19.192945
38.200000 7.534180 19.192945
38.200000 8.211426 19.192945
38.400000 8.763672 19.192945
32.400000 -11.297363 19.333570
32.300000 -10.617188 19.333570
32.300000 -9.937012 19.333570
32.200000 -9.131836 19.333570
32.100000 -8.576660 19.333570
32.100000 -7.646484 19.333570
32.000000 -6.841309 19.333570
32.000000 -6.161133 19.333570
37.500000 -0.065430 19.333570
37.200000 0.739746 19.333570
36.700000 -2.705078 19.333570
36.700000 -1.899902 19.333570
36.900000 -1.344727 19.333570
37.100000 3.460449 19.333570
37.600000 3.890625 19.333570
38.300000 4.695312 19.333570
38.800000 5.750000 19.333570
38.700000 6.179688 19.333570
38.300000 6.609375 19.333570
38.000000 7.539062 19.333570
38.100000 7.968750 19.333570
38.300000 8.773438 19.333570
38.600000 9.453125 19.333570
32.400000 -10.548828 19.474195
32.300000 -9.745117 19.474195
32.200000 -9.066406 19.474195
32.200000 -8.512695 19.474195
32.100000 -8.333984 19.474195
32.000000 -7.280273 19.474195
32.000000 -6.476562 19.474195
32.000000 -5.797852 19.474195
36.700000 -3.029297 19.474195
36.700000 1.774414 19.474195
36.700000 -1.546875 19.474195
37.000000 -0.868164 19.474195
37.300000 3.560547 19.474195
37.800000 4.239258 19.474195
38.400000 5.167969 19.474195
38.600000 6.096680 19.474195
38.300000 6.400391 19.474195
38.000000 3.079102 19.474195
37.900000 7.632812 19.474195
38.100000 8.436523 19.474195
38.400000 9.240234 19.474195
38.800000 9.918945 19.474195
32.300000 -11.218750 19.614820
32.300000 -10.664062 19.614820
32.300000 -9.984375 19.614820
32.200000 -8.929688 19.614820
32.100000 -8.250000 19.614820
32.000000 -7.445312 19.614820
32.000000 -7.140625 19.614820
32.000000 -6.085938 19.614820
37.300000 -0.117188 19.614820
36.800000 0.812500 19.614820
36.700000 -2.636719 19.614820
36.700000 1.914062 19.614820
36.800000 2.714844 19.614820
37.100000 3.515625 19.614820
37.500000 3.941406 19.614820
38.000000 4.867188 19.614820
38.500000 5.792969 19.614820
38.500000 6.218750 19.614820
38.100000 6.769531 19.614820
37.800000 7.320312 19.614820
37.900000 7.996094 19.614820
38.100000 9.046875 19.614820
32.400000 -10.892578 19.739796
32.300000 -10.590820 19.739796
32.300000 -10.039062 19.739796
32.200000 -8.862305 19.739796
32.100000 -8.310547 19.739796
32.100000 -7.883789 19.739796
32.000000 -7.332031 19.739796
32.000000 -6.530273 19.739796
37.500000 -0.073242 19.739796
37.100000 0.603516 19.739796
36.700000 1.155273 19.739796
36.700000 1.832031 19.739796
36.800000 2.508789 19.739796
37.100000 3.310547 19.739796
37.500000 3.987305 19.739796
37.800000 4.539062 19.739796
38.300000 5.590820 19.739796
38.500000 6.267578 19.739796
38.000000 6.819336 19.739796
37.800000 7.496094 19.739796
37.800000 8.172852 19.739796
38.000000 8.849609 19.739796
32.400000 -11.148438 19.880444
32.300000 -10.219727 19.880444
32.300000 -9.416016 19.880444
32.200000 -9.112305 19.880444
32.100000 -8.183594 19.880444
32.100000 -7.879883 19.880444
32.000000 -6.701172 19.880444
32.000000 -5.897461 19.880444
37.400000 -0.188477 19.880444
37.100000 -3.261719 19.880444
36.700000 1.415039 19.880444
36.700000 -2.033203 19.880444
36.800000 2.768555 19.880444
37.000000 3.570312 19.880444
37.400000 4.122070 19.880444
37.700000 4.548828 19.880444
38.200000 5.600586 19.880444
38.400000 6.277344 19.880444
38.000000 6.579102 19.880444
37.800000 7.505859 19.880444
37.800000 8.182617 19.880444
38.000000 8.984375 19.880444
32.400000 -11.435547 20.005440
32.300000 -10.258789 20.005440
32.300000 -9.707031 20.005440
32.200000 -9.405273 20.005440
32.100000 -8.853516 20.005440
32.100000 -8.051758 20.005440
32.000000 -7.000000 20.005440
32.000000 -6.573242 20.005440
32.100000 -5.521484 20.005440
36.600000 1.237305 20.005440
36.600000 1.789062 20.005440
36.700000 -1.534180 20.005440
37.000000 3.267578 20.005440
37.300000 3.944336 20.005440
37.600000 4.746094 20.005440
38.000000 5.172852 20.005440
38.200000 5.724609 20.005440
38.000000 6.651367 20.005440
37.700000 7.203125 20.005440
37.700000 8.004395 20.005440
37.900000 8.430664 20.005440
38.100000 9.481934 20.005440
38.700000 10.283203 20.005440
32.400000 -11.101562 20.146069
32.300000 -10.796875 20.146069
32.200000 -9.867188 20.146069
32.200000 -8.937500 20.146069
32.100000 -8.760742 20.146069
32.100000 -7.958984 20.146069
