32.450000 2.984375 1.902583
32.550000 3.750000 1.902583
32.625000 5.562500 1.902583
32.675000 6.453125 1.902583
32.800000 7.828125 1.902583
32.950000 8.328125 1.902583
33.075000 9.921875 1.902583
33.200000 11.125000 1.902583
33.625000 11.781250 1.902583
32.175000 1.750000 2.062469
32.225000 3.343750 2.062469
32.300000 4.421875 2.062469
32.425000 5.609375 2.062469
32.500000 6.671875 2.062469
32.600000 7.609375 2.062469
32.700000 8.640625 2.062469
32.825000 10.250000 2.062469
31.875000 0.359375 2.218359
31.850000 1.671875 2.218359
31.900000 3.250000 2.218359
31.975000 3.828125 2.218359
32.050000 5.546875 2.218359
32.100000 6.078125 2.218359
32.225000 7.625000 2.218359
32.375000 8.625000 2.218359
32.500000 9.765625 2.218359
32.625000 10.968750 2.218359
32.800000 12.390625 2.218359
31.350000 0.531250 2.378360
31.400000 1.890625 2.378360
31.450000 3.000000 2.378360
31.500000 4.031250 2.378360
31.600000 4.750000 2.378360
31.675000 6.234375 2.378360
31.775000 7.562500 2.378360
31.925000 8.531250 2.378360
32.025000 9.421875 2.378360
32.100000 11.125000 2.378360
32.225000 11.812500 2.378360
30.775000 1.453125 2.532771
30.825000 2.468750 2.532771
30.850000 3.812500 2.532771
30.950000 4.156250 2.532771
31.050000 5.421875 2.532771
31.100000 6.968750 2.532771
31.200000 8.093750 2.532771
31.300000 9.281250 2.532771
31.400000 10.484375 2.532771
31.500000 11.484375 2.532771
31.675000 12.609375 2.532771
29.975000 1.187500 2.686050
29.975000 2.531250 2.686050
30.025000 3.453125 2.686050
30.075000 4.312500 2.686050
30.150000 5.671875 2.686050
30.225000 6.828125 2.686050
30.300000 8.218750 2.686050
30.350000 9.093750 2.686050
30.450000 10.171875 2.686050
30.525000 11.562500 2.686050
30.675000 12.375000 2.686050
29.800000 1.609375 2.836629
29.800000 2.062500 2.836629
29.850000 3.546875 2.836629
29.900000 4.203125 2.836629
29.975000 5.703125 2.836629
30.050000 7.046875 2.836629
30.150000 7.718750 2.836629
30.300000 9.234375 2.836629
30.375000 10.500000 2.836629
30.475000 11.593750 2.836629
30.625000 12.625000 2.836629
29.675000 0.062500 3.002299
30.150000 1.125000 3.002299
30.175000 2.140625 3.002299
30.225000 3.468750 3.002299
30.275000 4.500000 3.002299
30.325000 5.953125 3.002299
30.400000 7.406250 3.002299
30.500000 8.265625 3.002299
30.625000 9.312500 3.002299
30.750000 10.750000 3.002299
30.900000 11.218750 3.002299
31.075000 12.281250 3.002299
30.425000 1.296875 3.162897
30.450000 2.484375 3.162897
30.500000 2.781250 3.162897
30.550000 4.421875 3.162897
30.625000 5.203125 3.162897
30.700000 6.718750 3.162897
30.800000 7.703125 3.162897
30.900000 9.187500 3.162897
31.050000 9.718750 3.162897
31.200000 10.890625 3.162897
31.275000 12.390625 3.162897
30.700000 1.828125 3.311729
30.725000 3.218750 3.311729
30.775000 4.640625 3.311729
30.825000 5.765625 3.311729
30.925000 6.265625 3.311729
31.050000 7.453125 3.311729
31.150000 8.656250 3.311729
31.275000 10.203125 3.311729
31.375000 11.296875 3.311729
31.500000 12.375000 3.311729
30.825000 1.875000 3.475528
30.850000 2.937500 3.475528
30.900000 4.328125 3.475528
30.900000 5.500000 3.475528
31.000000 6.671875 3.475528
31.100000 8.140625 3.475528
31.200000 9.234375 3.475528
31.400000 10.328125 3.475528
31.525000 11.140625 3.475528
31.650000 12.109375 3.475528
30.850000 1.687500 3.626100
30.875000 2.953125 3.626100
31.000000 4.328125 3.626100
31.125000 5.265625 3.626100
31.125000 6.968750 3.626100
31.225000 7.546875 3.626100
31.400000 8.859375 3.626100
31.475000 9.734375 3.626100
31.625000 11.015625 3.626100
31.725000 12.453125 3.626100
30.975000 1.312500 3.787776
31.000000 3.000000 3.787776
31.025000 3.781250 3.787776
31.125000 4.671875 3.787776
31.225000 6.531250 3.787776
31.300000 7.046875 3.787776
31.400000 8.671875 3.787776
31.500000 9.343750 3.787776
31.625000 10.484375 3.787776
31.775000 11.656250 3.787776
30.925000 1.468750 3.941620
30.925000 2.640625 3.941620
31.025000 4.046875 3.941620
31.125000 5.078125 3.941620
31.200000 6.046875 3.941620
31.275000 6.921875 3.941620
31.375000 8.140625 3.941620
31.475000 9.406250 3.941620
31.625000 10.859375 3.941620
31.750000 11.796875 3.941620
30.925000 0.609375 4.098557
30.900000 2.187500 4.098557
30.925000 3.609375 4.098557
31.025000 4.718750 4.098557
31.100000 5.859375 4.098557
31.175000 6.843750 4.098557
31.275000 7.531250 4.098557
31.375000 9.187500 4.098557
31.500000 9.781250 4.098557
31.650000 11.046875 4.098557
31.800000 12.828125 4.098557
30.825000 1.421875 4.255624
30.825000 3.000000 4.255624
30.850000 3.437500 4.255624
30.925000 5.171875 4.255624
31.000000 6.078125 4.255624
31.100000 7.171875 4.255624
31.200000 8.296875 4.255624
31.325000 9.250000 4.255624
31.425000 10.765625 4.255624
31.525000 11.859375 4.255624
30.625000 0.968750 4.410459
30.650000 2.031250 4.410459
30.675000 3.562500 4.410459
30.725000 4.250000 4.410459
30.800000 5.468750 4.410459
30.900000 6.515625 4.410459
31.000000 8.250000 4.410459
31.100000 9.109375 4.410459
31.225000 10.218750 4.410459
31.350000 11.171875 4.410459
31.500000 12.703125 4.410459
30.375000 0.843750 4.563980
30.400000 2.578125 4.563980
30.425000 3.187500 4.563980
30.500000 4.890625 4.563980
30.550000 5.468750 4.563980
30.625000 7.156250 4.563980
30.700000 8.093750 4.563980
30.825000 8.968750 4.563980
30.975000 9.875000 4.563980
31.100000 11.562500 4.563980
31.200000 12.328125 4.563980
29.575000 -0.125000 4.724917
30.025000 1.343750 4.724917
30.075000 1.968750 4.724917
30.100000 3.218750 4.724917
30.150000 4.500000 4.724917
30.200000 5.562500 4.724917
30.275000 6.609375 4.724917
30.375000 7.718750 4.724917
30.475000 9.125000 4.724917
30.550000 10.343750 4.724917
30.675000 11.890625 4.724917
30.825000 12.328125 4.724917
29.475000 0.359375 4.881978
29.575000 1.171875 4.881978
29.600000 1.968750 4.881978
29.650000 3.312500 4.881978
29.700000 4.187500 4.881978
29.750000 5.562500 4.881978
29.800000 7.281250 4.881978
29.900000 7.781250 4.881978
30.000000 8.906250 4.881978
30.100000 10.359375 4.881978
30.225000 11.171875 4.881978
30.325000 12.859375 4.881978
29.700000 0.875000 5.036524
29.725000 1.765625 5.036524
29.775000 3.500000 5.036524
29.800000 4.656250 5.036524
29.850000 5.500000 5.036524
29.925000 6.281250 5.036524
30.000000 7.984375 5.036524
30.125000 8.656250 5.036524
30.275000 10.171875 5.036524
30.375000 11.140625 5.036524
30.325000 1.531250 5.205497
30.375000 2.515625 5.205497
30.375000 3.875000 5.205497
30.450000 4.484375 5.205497
30.525000 5.906250 5.205497
30.625000 6.937500 5.205497
30.725000 8.015625 5.205497
30.825000 9.750000 5.205497
30.925000 10.812500 5.205497
31.100000 11.703125 5.205497
31.325000 12.609375 5.205497
30.800000 2.125000 5.348145
30.850000 2.875000 5.348145
30.900000 4.125000 5.348145
30.975000 4.953125 5.348145
31.075000 6.218750 5.348145
31.125000 7.890625 5.348145
31.225000 9.093750 5.348145
31.350000 9.515625 5.348145
31.475000 10.828125 5.348145
31.650000 11.968750 5.348145
31.225000 0.921875 5.515096
31.250000 1.500000 5.515096
31.275000 3.265625 5.515096
31.300000 3.796875 5.515096
31.350000 5.156250 5.515096
31.425000 6.656250 5.515096
31.525000 7.843750 5.515096
31.625000 9.031250 5.515096
31.775000 9.750000 5.515096
31.900000 10.953125 5.515096
32.050000 12.578125 5.515096
31.525000 0.968750 5.673085
31.525000 2.156250 5.673085
31.550000 3.578125 5.673085
31.600000 4.656250 5.673085
31.700000 5.734375 5.673085
31.825000 6.468750 5.673085
31.925000 7.812500 5.673085
32.050000 8.671875 5.673085
32.150000 9.875000 5.673085
32.250000 11.593750 5.673085
32.625000 12.171875 5.673085
31.775000 -0.125000 5.826773
31.775000 1.203125 5.826773
31.800000 2.203125 5.826773
31.850000 3.484375 5.826773
31.900000 4.484375 5.826773
31.975000 5.859375 5.826773
32.075000 7.078125 5.826773
32.175000 8.281250 5.826773
32.325000 9.078125 5.826773
32.425000 10.187500 5.826773
32.525000 11.765625 5.826773
32.025000 2.140625 5.986093
32.075000 2.875000 5.986093
32.150000 4.671875 5.986093
32.200000 5.453125 5.986093
32.250000 6.859375 5.986093
32.325000 8.140625 5.986093
32.450000 8.781250 5.986093
32.600000 10.125000 5.986093
32.200000 0.671875 6.141802
32.200000 1.265625 6.141802
32.225000 3.031250 6.141802
32.250000 3.781250 6.141802
32.300000 4.828125 6.141802
32.350000 5.953125 6.141802
32.450000 7.296875 6.141802
32.600000 8.031250 6.141802
32.725000 9.640625 6.141802
32.825000 10.687500 6.141802
32.950000 11.859375 6.141802
32.325000 1.687500 6.299575
32.350000 2.968750 6.299575
32.350000 4.375000 6.299575
32.425000 5.328125 6.299575
32.525000 6.390625 6.299575
32.650000 7.515625 6.299575
32.775000 9.031250 6.299575
32.875000 9.953125 6.299575
32.975000 11.125000 6.299575
32.300000 0.140625 6.455956
32.375000 1.609375 6.455956
32.400000 2.359375 6.455956
32.425000 4.187500 6.455956
32.500000 4.812500 6.455956
32.600000 6.343750 6.455956
32.725000 7.015625 6.455956
32.800000 8.390625 6.455956
32.925000 9.375000 6.455956
33.050000 10.578125 6.455956
33.225000 11.890625 6.455956
32.100000 0.140625 6.616750
32.400000 0.781250 6.616750
32.400000 2.468750 6.616750
32.450000 3.593750 6.616750
32.525000 4.312500 6.616750
32.625000 5.265625 6.616750
32.700000 6.906250 6.616750
32.800000 8.015625 6.616750
32.900000 8.718750 6.616750
33.000000 10.312500 6.616750
33.125000 11.390625 6.616750
32.375000 0.421875 6.767280
32.375000 1.578125 6.767280
32.400000 2.718750 6.767280
32.475000 3.734375 6.767280
32.525000 4.781250 6.767280
32.600000 5.828125 6.767280
32.725000 7.031250 6.767280
32.800000 8.531250 6.767280
32.900000 9.671875 6.767280
33.025000 10.843750 6.767280
33.225000 12.125000 6.767280
32.350000 0.500000 6.928668
32.375000 1.687500 6.928668
32.375000 3.031250 6.928668
32.400000 3.843750 6.928668
32.475000 5.687500 6.928668
32.575000 6.375000 6.928668
32.700000 7.625000 6.928668
32.800000 8.546875 6.928668
32.900000 10.265625 6.928668
32.175000 0.390625 7.081478
32.250000 1.437500 7.081478
32.300000 2.125000 7.081478
32.325000 3.453125 7.081478
32.350000 4.937500 7.081478
32.450000 6.093750 7.081478
32.550000 7.078125 7.081478
32.650000 8.015625 7.081478
32.750000 9.093750 7.081478
32.875000 10.781250 7.081478
33.025000 11.484375 7.081478
32.150000 0.265625 7.241345
32.150000 1.453125 7.241345
32.175000 2.625000 7.241345
32.200000 4.031250 7.241345
32.250000 4.984375 7.241345
32.375000 5.984375 7.241345
32.475000 7.671875 7.241345
32.525000 8.796875 7.241345
32.650000 9.656250 7.241345
32.800000 11.109375 7.241345
33.025000 11.906250 7.241345
31.900000 0.640625 7.394511
31.950000 2.500000 7.394511
31.975000 3.546875 7.394511
32.025000 4.156250 7.394511
32.125000 5.546875 7.394511
32.175000 6.812500 7.394511
32.250000 7.828125 7.394511
32.375000 9.171875 7.394511
32.500000 10.078125 7.394511
32.675000 11.250000 7.394511
31.550000 0.281250 7.554370
31.575000 1.890625 7.554370
31.625000 2.625000 7.554370
31.675000 4.171875 7.554370
31.725000 5.328125 7.554370
31.825000 6.421875 7.554370
31.925000 7.656250 7.554370
32.025000 8.812500 7.554370
32.150000 9.718750 7.554370
32.275000 10.656250 7.554370
32.425000 11.984375 7.554370
31.200000 1.421875 7.705426
31.250000 2.671875 7.705426
31.300000 3.312500 7.705426
31.375000 4.968750 7.705426
31.425000 5.750000 7.705426
31.500000 7.000000 7.705426
31.600000 8.343750 7.705426
31.750000 9.171875 7.705426
31.850000 10.656250 7.705426
31.975000 11.953125 7.705426
30.700000 2.046875 7.866790
30.750000 3.140625 7.866790
30.800000 4.609375 7.866790
30.875000 5.671875 7.866790
30.925000 6.593750 7.866790
31.000000 7.921875 7.866790
31.125000 8.937500 7.866790
31.250000 10.390625 7.866790
31.375000 11.062500 7.866790
31.475000 12.437500 7.866790
29.625000 0.125000 8.017871
30.025000 1.156250 8.017871
30.050000 3.187500 8.017871
30.050000 3.765625 8.017871
30.125000 4.937500 8.017871
30.200000 6.546875 8.017871
30.275000 7.328125 8.017871
30.375000 8.078125 8.017871
30.450000 9.593750 8.017871
30.525000 10.968750 8.017871
30.650000 12.265625 8.017871
30.875000 12.921875 8.017871
29.575000 0.593750 8.181600
29.575000 2.593750 8.181600
29.575000 3.515625 8.181600
29.625000 4.031250 8.181600
29.700000 5.625000 8.181600
29.750000 7.000000 8.181600
29.850000 7.750000 8.181600
29.950000 8.765625 8.181600
30.050000 10.359375 8.181600
30.150000 11.609375 8.181600
30.275000 12.625000 8.181600
29.550000 0.312500 8.329749
29.925000 1.140625 8.329749
29.975000 2.234375 8.329749
30.025000 3.562500 8.329749
30.075000 5.046875 8.329749
30.150000 6.328125 8.329749
30.250000 6.953125 8.329749
30.325000 8.421875 8.329749
30.425000 9.765625 8.329749
30.525000 10.500000 8.329749
30.650000 11.796875 8.329749
30.875000 12.515625 8.329749
30.275000 1.437500 8.495817
30.300000 3.000000 8.495817
30.350000 3.765625 8.495817
30.450000 4.953125 8.495817
30.500000 5.875000 8.495817
30.575000 7.515625 8.495817
30.650000 8.609375 8.495817
30.775000 9.984375 8.495817
30.950000 10.515625 8.495817
31.100000 12.078125 8.495817
30.550000 1.281250 8.646197
30.575000 2.640625 8.646197
30.625000 4.250000 8.646197
30.675000 4.781250 8.646197
30.750000 6.046875 8.646197
30.800000 7.250000 8.646197
30.925000 8.875000 8.646197
31.075000 10.015625 8.646197
31.200000 10.453125 8.646197
31.300000 11.781250 8.646197
30.725000 1.812500 8.808967
30.750000 2.859375 8.808967
30.800000 4.312500 8.808967
30.850000 5.593750 8.808967
30.950000 6.281250 8.808967
31.075000 7.781250 8.808967
31.150000 8.656250 8.808967
31.250000 10.281250 8.808967
31.350000 11.140625 8.808967
31.500000 12.453125 8.808967
30.825000 1.203125 8.958130
30.875000 2.046875 8.958130
30.950000 3.437500 8.958130
31.025000 4.218750 8.958130
31.075000 5.750000 8.958130
31.150000 7.078125 8.958130
31.250000 8.062500 8.958130
31.350000 9.125000 8.958130
31.475000 10.312500 8.958130
31.575000 11.171875 8.958130
31.850000 12.671875 8.958130
30.975000 0.968750 9.118927
31.000000 1.406250 9.118927
31.025000 2.703125 9.118927
31.050000 4.218750 9.118927
31.125000 5.328125 9.118927
31.200000 6.578125 9.118927
31.275000 7.406250 9.118927
31.375000 8.921875 9.118927
31.475000 10.015625 9.118927
31.600000 11.015625 9.118927
31.750000 12.234375 9.118927
30.975000 0.921875 9.285120
31.000000 2.484375 9.285120
31.100000 3.578125 9.285120
31.175000 4.937500 9.285120
31.225000 6.093750 9.285120
31.275000 6.828125 9.285120
31.350000 8.296875 9.285120
31.475000 9.156250 9.285120
31.600000 10.437500 9.285120
30.950000 1.343750 9.433576
30.950000 2.296875 9.433576
30.975000 3.593750 9.433576
31.100000 4.531250 9.433576
31.225000 5.578125 9.433576
31.275000 6.750000 9.433576
31.300000 8.203125 9.433576
31.425000 9.484375 9.433576
31.550000 10.265625 9.433576
31.675000 11.140625 9.433576
32.050000 12.234375 9.433576
30.925000 1.703125 9.583940
30.950000 2.984375 9.583940
31.000000 4.234375 9.583940
31.125000 5.578125 9.583940
31.200000 6.765625 9.583940
31.275000 8.015625 9.583940
31.375000 8.828125 9.583940
31.475000 10.421875 9.583940
31.600000 11.343750 9.583940
31.775000 12.093750 9.583940
30.775000 1.984375 9.744633
30.800000 2.953125 9.744633
30.875000 4.093750 9.744633
30.950000 4.843750 9.744633
31.000000 6.156250 9.744633
31.100000 7.546875 9.744633
31.200000 8.875000 9.744633
31.300000 10.000000 9.744633
31.425000 10.593750 9.744633
31.575000 11.859375 9.744633
30.575000 1.046875 9.906908
30.625000 2.046875 9.906908
30.675000 3.640625 9.906908
30.700000 4.421875 9.906908
30.750000 5.375000 9.906908
30.850000 6.875000 9.906908
30.950000 7.562500 9.906908
31.050000 9.015625 9.906908
31.175000 9.906250 9.906908
31.275000 11.109375 9.906908
31.400000 12.687500 9.906908
30.300000 1.156250 10.063482
30.325000 3.031250 10.063482
30.375000 3.437500 10.063482
30.450000 4.687500 10.063482
30.525000 6.500000 10.063482
30.575000 6.984375 10.063482
30.675000 8.562500 10.063482
30.800000 9.421875 10.063482
30.925000 10.984375 10.063482
29.575000 0.671875 10.220266
30.000000 1.640625 10.220266
30.050000 3.031250 10.220266
30.075000 4.109375 10.220266
30.125000 4.828125 10.220266
30.200000 6.062500 10.220266
30.250000 7.843750 10.220266
30.325000 8.437500 10.220266
30.425000 9.921875 10.220266
30.525000 11.359375 10.220266
29.450000 0.812500 10.375827
29.750000 2.250000 10.375827
29.775000 3.171875 10.375827
29.775000 4.453125 10.375827
29.825000 4.859375 10.375827
29.925000 6.203125 10.375827
30.000000 8.046875 10.375827
30.050000 9.156250 10.375827
30.150000 9.640625 10.375827
30.275000 10.968750 10.375827
30.250000 1.468750 10.533761
30.300000 2.546875 10.533761
30.350000 3.609375 10.533761
30.425000 4.781250 10.533761
30.525000 6.031250 10.533761
30.600000 7.406250 10.533761
30.675000 8.156250 10.533761
30.800000 9.312500 10.533761
30.900000 10.515625 10.533761
31.025000 11.593750 10.533761
30.825000 2.109375 10.683799
30.825000 3.437500 10.683799
30.850000 3.875000 10.683799
30.925000 5.578125 10.683799
31.025000 6.484375 10.683799
31.175000 7.656250 10.683799
31.325000 8.562500 10.683799
31.375000 10.359375 10.683799
31.500000 11.109375 10.683799
31.675000 12.265625 10.683799
31.275000 1.484375 10.845659
31.325000 2.312500 10.845659
31.350000 3.750000 10.845659
31.400000 4.656250 10.845659
31.475000 5.718750 10.845659
31.600000 6.828125 10.845659
31.725000 7.890625 10.845659
31.825000 9.046875 10.845659
31.925000 10.781250 10.845659
32.025000 11.593750 10.845659
31.575000 0.968750 11.002788
31.600000 1.796875 11.002788
31.675000 2.937500 11.002788
31.775000 4.203125 11.002788
31.825000 5.000000 11.002788
31.900000 6.703125 11.002788
32.000000 7.343750 11.002788
32.125000 8.640625 11.002788
32.275000 9.718750 11.002788
32.375000 11.062500 11.002788
32.625000 12.171875 11.002788
31.850000 0.421875 11.157968
31.925000 1.296875 11.157968
31.975000 2.343750 11.157968
32.025000 3.390625 11.157968
32.075000 4.875000 11.157968
32.150000 5.593750 11.157968
32.275000 7.046875 11.157968
32.375000 8.593750 11.157968
32.475000 9.406250 11.157968
32.600000 10.921875 11.157968
32.750000 11.640625 11.157968
32.200000 1.765625 11.310133
32.225000 3.203125 11.310133
32.250000 4.546875 11.310133
32.350000 5.437500 11.310133
32.475000 6.531250 11.310133
32.550000 7.984375 11.310133
32.700000 8.593750 11.310133
32.850000 10.281250 11.310133
32.950000 10.937500 11.310133
32.325000 0.687500 11.468210
32.350000 1.562500 11.468210
32.400000 3.046875 11.468210
32.450000 3.734375 11.468210
32.550000 5.265625 11.468210
32.625000 6.343750 11.468210
32.725000 7.328125 11.468210
32.825000 8.687500 11.468210
32.950000 9.984375 11.468210
33.075000 11.140625 11.468210
33.325000 11.718750 11.468210
32.550000 0.984375 11.623999
32.525000 2.187500 11.623999
32.600000 2.968750 11.623999
32.650000 4.265625 11.623999
32.725000 5.609375 11.623999
32.825000 6.656250 11.623999
32.925000 7.609375 11.623999
33.025000 8.984375 11.623999
33.125000 9.875000 11.623999
33.250000 11.281250 11.623999
32.400000 -0.125000 11.780083
32.650000 1.406250 11.780083
32.650000 2.437500 11.780083
32.725000 3.328125 11.780083
32.775000 4.609375 11.780083
32.850000 5.671875 11.780083
32.975000 7.000000 11.780083
33.050000 8.187500 11.780083
33.175000 9.265625 11.780083
33.325000 10.375000 11.780083
33.450000 11.843750 11.780083
32.825000 0.234375 11.937680
32.725000 1.234375 11.937680
32.775000 2.437500 11.937680
32.825000 3.781250 11.937680
32.900000 5.140625 11.937680
32.975000 6.109375 11.937680
33.100000 7.343750 11.937680
33.200000 8.890625 11.937680
33.300000 9.921875 11.937680
33.450000 10.875000 11.937680
33.900000 11.796875 11.937680
32.775000 2.156250 12.109550
32.825000 2.906250 12.109550
32.900000 4.531250 12.109550
32.975000 5.734375 12.109550
33.050000 6.843750 12.109550
33.150000 7.468750 12.109550
33.250000 8.875000 12.109550
33.350000 9.953125 12.109550
33.500000 11.093750 12.109550
32.850000 1.281250 12.250767
32.725000 2.453125 12.250767
32.775000 3.203125 12.250767
32.875000 4.593750 12.250767
33.025000 5.468750 12.250767
33.050000 6.828125 12.250767
33.075000 7.968750 12.250767
33.200000 8.953125 12.250767
33.350000 10.171875 12.250767
33.525000 11.703125 12.250767
32.850000 0.546875 12.427259
32.700000 2.093750 12.427259
32.750000 2.859375 12.427259
32.825000 4.375000 12.427259
32.900000 5.031250 12.427259
33.000000 6.625000 12.427259
33.100000 7.546875 12.427259
33.200000 8.953125 12.427259
33.300000 10.015625 12.427259
32.525000 -0.078125 12.573314
32.575000 1.750000 12.573314
32.625000 2.437500 12.573314
32.700000 3.703125 12.573314
32.775000 4.890625 12.573314
32.875000 5.781250 12.573314
33.000000 7.078125 12.573314
33.125000 8.078125 12.573314
33.200000 9.625000 12.573314
33.300000 10.453125 12.573314
33.475000 11.656250 12.573314
32.475000 0.765625 12.728304
32.450000 2.328125 12.728304
32.500000 3.312500 12.728304
32.600000 4.000000 12.728304
32.700000 5.453125 12.728304
32.775000 6.484375 12.728304
32.875000 7.656250 12.728304
33.000000 8.718750 12.728304
33.125000 10.203125 12.728304
33.250000 11.093750 12.728304
31.875000 -0.234375 12.886404
32.225000 0.921875 12.886404
32.250000 2.609375 12.886404
32.300000 3.234375 12.886404
32.375000 4.640625 12.886404
32.475000 5.671875 12.886404
32.600000 6.500000 12.886404
32.675000 8.187500 12.886404
32.775000 9.156250 12.886404
32.925000 10.500000 12.886404
33.075000 11.671875 12.886404
31.925000 0.328125 13.042221
31.950000 1.703125 13.042221
31.975000 2.843750 13.042221
32.050000 3.484375 13.042221
32.125000 5.109375 13.042221
32.200000 5.765625 13.042221
32.325000 7.421875 13.042221
32.425000 8.656250 13.042221
32.550000 9.437500 13.042221
32.675000 11.062500 13.042221
32.800000 11.578125 13.042221
31.550000 2.343750 13.197930
31.600000 3.000000 13.197930
31.675000 3.984375 13.197930
31.725000 5.671875 13.197930
31.850000 6.359375 13.197930
31.950000 7.375000 13.197930
32.050000 9.031250 13.197930
32.175000 9.921875 13.197930
32.300000 10.984375 13.197930
32.575000 12.250000 13.197930
31.000000 1.812500 13.354489
31.025000 3.593750 13.354489
31.100000 4.062500 13.354489
31.175000 5.640625 13.354489
31.275000 6.609375 13.354489
31.375000 7.468750 13.354489
31.475000 8.656250 13.354489
31.575000 10.250000 13.354489
31.675000 11.140625 13.354489
31.850000 12.140625 13.354489
30.175000 1.109375 13.509927
30.225000 2.390625 13.509927
30.300000 3.140625 13.509927
30.325000 5.015625 13.509927
30.400000 5.343750 13.509927
30.475000 7.000000 13.509927
30.525000 8.421875 13.509927
30.650000 9.609375 13.509927
30.775000 10.468750 13.509927
30.875000 11.484375 13.509927
31.000000 12.390625 13.509927
29.675000 0.828125 13.665857
29.700000 1.390625 13.665857
29.750000 2.734375 13.665857
29.800000 3.359375 13.665857
29.850000 4.578125 13.665857
29.925000 5.937500 13.665857
30.000000 7.031250 13.665857
30.100000 8.484375 13.665857
30.200000 9.359375 13.665857
30.300000 10.312500 13.665857
30.425000 12.281250 13.665857
30.600000 13.125000 13.665857
29.625000 1.000000 13.822765
30.100000 2.015625 13.822765
30.125000 3.562500 13.822765
30.150000 3.968750 13.822765
30.250000 5.234375 13.822765
30.325000 7.046875 13.822765
30.400000 8.031250 13.822765
30.525000 9.031250 13.822765
30.650000 10.406250 13.822765
30.750000 11.140625 13.822765
30.875000 12.093750 13.822765
30.350000 1.421875 13.979813
30.400000 2.328125 13.979813
30.450000 3.312500 13.979813
30.525000 4.906250 13.979813
30.600000 6.140625 13.979813
30.700000 6.781250 13.979813
30.800000 8.031250 13.979813
30.875000 9.718750 13.979813
31.025000 10.250000 13.979813
31.150000 11.781250 13.979813
31.400000 12.656250 13.979813
30.625000 1.234375 14.135431
30.625000 2.750000 14.135431
30.675000 3.015625 14.135431
30.750000 4.921875 14.135431
30.825000 5.328125 14.135431
30.925000 6.781250 14.135431
31.025000 8.093750 14.135431
31.100000 9.296875 14.135431
31.225000 10.406250 14.135431
31.350000 11.500000 14.135431
31.500000 12.828125 14.135431
30.775000 1.812500 14.304826
30.850000 2.671875 14.304826
30.875000 4.390625 14.304826
30.975000 4.968750 14.304826
31.050000 6.140625 14.304826
31.125000 7.593750 14.304826
31.250000 8.890625 14.304826
31.400000 10.125000 14.304826
31.500000 11.531250 14.304826
31.625000 12.046875 14.304826
30.900000 1.281250 14.459231
30.925000 2.265625 14.459231
30.950000 3.359375 14.459231
31.025000 4.578125 14.459231
31.100000 5.843750 14.459231
31.200000 7.328125 14.459231
31.325000 7.968750 14.459231
31.425000 9.468750 14.459231
31.550000 11.000000 14.459231
30.975000 0.781250 14.614751
31.000000 1.484375 14.614751
31.025000 3.078125 14.614751
31.075000 4.062500 14.614751
31.125000 5.562500 14.614751
31.250000 6.203125 14.614751
31.325000 7.515625 14.614751
31.425000 9.015625 14.614751
31.575000 9.671875 14.614751
31.675000 10.953125 14.614751
31.775000 12.453125 14.614751
30.975000 1.109375 14.770341
31.025000 2.375000 14.770341
31.050000 3.390625 14.770341
31.075000 5.093750 14.770341
31.175000 5.515625 14.770341
31.275000 6.859375 14.770341
31.350000 8.375000 14.770341
31.450000 9.546875 14.770341
31.575000 10.843750 14.770341
31.675000 11.375000 14.770341
32.075000 12.671875 14.770341
30.925000 0.281250 14.929500
30.950000 1.437500 14.929500
31.000000 3.281250 14.929500
31.025000 4.031250 14.929500
31.100000 5.078125 14.929500
31.225000 6.375000 14.929500
31.325000 7.500000 14.929500
31.400000 8.828125 14.929500
31.550000 10.109375 14.929500
31.650000 10.718750 14.929500
31.750000 11.906250 14.929500
30.875000 1.390625 15.084454
30.875000 2.484375 15.084454
30.925000 3.390625 15.084454
31.050000 5.062500 15.084454
31.075000 6.250000 15.084454
31.175000 7.062500 15.084454
31.250000 8.421875 15.084454
31.350000 9.468750 15.084454
31.475000 10.953125 15.084454
30.675000 1.406250 15.241892
30.675000 2.843750 15.241892
30.725000 4.171875 15.241892
30.825000 5.187500 15.241892
30.900000 6.093750 15.241892
31.000000 7.609375 15.241892
31.100000 8.343750 15.241892
31.225000 9.484375 15.241892
31.325000 11.218750 15.241892
31.450000 12.281250 15.241892
30.425000 1.484375 15.395364
30.475000 2.531250 15.395364
30.500000 3.093750 15.395364
30.550000 4.625000 15.395364
30.625000 5.718750 15.395364
30.700000 7.296875 15.395364
30.775000 8.421875 15.395364
30.875000 9.562500 15.395364
31.025000 10.359375 15.395364
31.150000 11.718750 15.395364
31.275000 12.531250 15.395364
29.625000 0.500000 15.556023
30.125000 1.703125 15.556023
30.150000 2.843750 15.556023
30.200000 4.312500 15.556023
30.250000 5.953125 15.556023
30.325000 6.859375 15.556023
30.400000 7.546875 15.556023
30.525000 8.593750 15.556023
30.650000 10.218750 15.556023
30.775000 11.640625 15.556023
30.900000 12.000000 15.556023
29.675000 0.546875 15.707209
29.700000 1.671875 15.707209
29.750000 2.968750 15.707209
29.775000 3.796875 15.707209
29.850000 5.187500 15.707209
29.925000 6.375000 15.707209
30.000000 7.562500 15.707209
30.075000 8.859375 15.707209
30.175000 10.000000 15.707209
30.300000 10.640625 15.707209
30.425000 12.296875 15.707209
30.700000 12.796875 15.707209
29.550000 0.578125 15.867075
29.550000 1.843750 15.867075
29.575000 2.515625 15.867075
29.600000 3.484375 15.867075
29.650000 4.703125 15.867075
29.725000 5.890625 15.867075
29.825000 6.796875 15.867075
29.925000 8.625000 15.867075
30.050000 9.125000 15.867075
30.150000 10.703125 15.867075
30.275000 11.890625 15.867075
30.425000 13.187500 15.867075
30.175000 1.890625 16.016422
30.175000 3.156250 16.016422
30.275000 4.000000 16.016422
30.325000 5.640625 16.016422
30.400000 6.796875 16.016422
30.475000 8.093750 16.016422
30.550000 8.718750 16.016422
30.675000 10.062500 16.016422
30.800000 11.078125 16.016422
31.000000 12.500000 16.016422
30.700000 1.765625 16.183392
30.725000 2.796875 16.183392
30.750000 3.890625 16.183392
30.825000 5.156250 16.183392
30.900000 6.171875 16.183392
31.000000 7.093750 16.183392
31.100000 8.265625 16.183392
31.225000 9.593750 16.183392
31.325000 11.031250 16.183392
31.450000 12.203125 16.183392
31.150000 1.406250 16.329403
31.200000 2.671875 16.329403
31.225000 3.578125 16.329403
31.275000 4.421875 16.329403
31.350000 5.843750 16.329403
31.425000 6.703125 16.329403
31.525000 7.906250 16.329403
31.625000 9.375000 16.329403
31.750000 10.171875 16.329403
31.425000 0.562500 16.495496
31.475000 1.046875 16.495496
31.500000 2.281250 16.495496
31.500000 3.625000 16.495496
31.575000 5.203125 16.495496
31.675000 6.375000 16.495496
31.750000 7.109375 16.495496
31.875000 8.562500 16.495496
31.975000 9.937500 16.495496
32.125000 10.718750 16.495496
32.250000 11.515625 16.495496
31.750000 0.500000 16.652504
31.775000 1.765625 16.652504
31.800000 2.843750 16.652504
31.850000 4.328125 16.652504
31.900000 5.375000 16.652504
31.975000 6.156250 16.652504
32.050000 7.796875 16.652504
32.150000 8.781250 16.652504
32.300000 9.968750 16.652504
32.400000 10.937500 16.652504
32.575000 11.828125 16.652504
31.675000 0.000000 16.807141
31.950000 0.687500 16.807141
31.975000 2.015625 16.807141
32.025000 3.234375 16.807141
32.100000 4.421875 16.807141
32.175000 5.468750 16.807141
32.225000 6.921875 16.807141
32.300000 7.890625 16.807141
32.400000 9.156250 16.807141
32.525000 10.203125 16.807141
31.975000 0.234375 16.965655
32.150000 0.796875 16.965655
32.150000 2.484375 16.965655
32.175000 3.156250 16.965655
32.225000 4.546875 16.965655
32.300000 5.546875 16.965655
32.375000 6.890625 16.965655
32.500000 8.234375 16.965655
32.650000 9.343750 16.965655
32.775000 10.437500 16.965655
32.875000 11.671875 16.965655
32.250000 0.265625 17.122890
32.275000 1.406250 17.122890
32.300000 2.765625 17.122890
32.325000 3.375000 17.122890
32.400000 4.656250 17.122890
32.450000 6.296875 17.122890
32.550000 7.500000 17.122890
32.700000 8.484375 17.122890
32.775000 9.671875 17.122890
32.900000 10.406250 17.122890
33.075000 12.078125 17.122890
32.375000 0.515625 17.278014
32.375000 2.140625 17.278014
32.375000 2.828125 17.278014
32.425000 4.343750 17.278014
32.500000 5.421875 17.278014
32.600000 6.484375 17.278014
32.700000 7.828125 17.278014
32.800000 8.500000 17.278014
32.925000 9.531250 17.278014
33.025000 11.125000 17.278014
33.425000 12.015625 17.278014
32.350000 0.453125 17.435551
32.350000 1.562500 17.435551
32.325000 2.421875 17.435551
32.400000 3.843750 17.435551
32.525000 4.578125 17.435551
32.625000 6.000000 17.435551
32.725000 7.062500 17.435551
32.775000 8.593750 17.435551
32.875000 9.453125 17.435551
33.075000 10.953125 17.435551
33.225000 11.640625 17.435551
32.450000 2.140625 17.589005
32.475000 3.500000 17.589005
32.500000 4.109375 17.589005
32.575000 5.765625 17.589005
32.675000 6.812500 17.589005
32.800000 7.625000 17.589005
32.900000 9.125000 17.589005
33.025000 9.828125 17.589005
33.150000 11.093750 17.589005
32.350000 0.640625 17.746178
32.375000 1.437500 17.746178
32.375000 2.484375 17.746178
32.425000 3.734375 17.746178
32.525000 5.312500 17.746178
32.600000 6.093750 17.746178
32.725000 7.343750 17.746178
32.800000 8.546875 17.746178
32.900000 9.640625 17.746178
33.050000 10.593750 17.746178
33.225000 11.906250 17.746178
32.050000 -0.250000 17.902124
32.325000 0.734375 17.902124
32.375000 2.000000 17.902124
32.275000 3.093750 17.902124
32.325000 4.796875 17.902124
32.500000 5.359375 17.902124
32.575000 6.531250 17.902124
32.675000 8.250000 17.902124
32.800000 9.281250 17.902124
32.875000 10.687500 17.902124
33.000000 11.156250 17.902124
32.175000 0.406250 18.059117
32.175000 1.609375 18.059117
32.200000 2.515625 18.059117
32.225000 4.234375 18.059117
32.275000 5.031250 18.059117
32.375000 6.046875 18.059117
32.450000 7.781250 18.059117
32.575000 8.390625 18.059117
32.725000 10.109375 18.059117
32.850000 10.609375 18.059117
33.075000 12.203125 18.059117
31.875000 -0.046875 18.215553
31.975000 1.296875 18.215553
32.000000 2.078125 18.215553
32.100000 3.031250 18.215553
32.150000 4.734375 18.215553
32.150000 5.843750 18.215553
32.225000 6.906250 18.215553
32.325000 7.906250 18.215553
32.450000 9.218750 18.215553
32.550000 10.625000 18.215553
32.700000 11.625000 18.215553
31.700000 0.593750 18.370276
31.675000 1.312500 18.370276
31.725000 3.140625 18.370276
31.775000 3.734375 18.370276
31.875000 4.625000 18.370276
31.950000 5.828125 18.370276
32.000000 7.187500 18.370276
32.100000 8.406250 18.370276
32.225000 9.343750 18.370276
32.375000 10.781250 18.370276
32.500000 12.250000 18.370276
31.325000 0.875000 18.537175
31.350000 2.437500 18.537175
31.400000 3.250000 18.537175
31.450000 4.843750 18.537175
31.500000 5.390625 18.537175
31.575000 6.796875 18.537175
31.675000 8.171875 18.537175
31.800000 9.203125 18.537175
31.950000 10.234375 18.537175
30.825000 0.937500 18.684966
30.850000 1.890625 18.684966
30.900000 3.281250 18.684966
30.950000 4.171875 18.684966
31.000000 5.750000 18.684966
31.075000 6.484375 18.684966
31.175000 8.265625 18.684966
31.275000 8.750000 18.684966
31.375000 10.500000 18.684966
31.500000 11.046875 18.684966
31.600000 12.265625 18.684966
30.200000 2.203125 18.850154
30.225000 2.796875 18.850154
30.250000 3.750000 18.850154
30.325000 5.250000 18.850154
30.400000 6.500000 18.850154
30.450000 7.515625 18.850154
30.525000 8.843750 18.850154
30.650000 9.921875 18.850154
30.800000 11.109375 18.850154
30.925000 12.515625 18.850154
29.550000 0.265625 19.006662
29.550000 1.156250 19.006662
29.575000 2.203125 19.006662
29.600000 3.906250 19.006662
29.625000 4.562500 19.006662
29.700000 6.062500 19.006662
29.750000 6.796875 19.006662
29.825000 7.875000 19.006662
29.950000 9.781250 19.006662
30.050000 10.250000 19.006662
30.150000 11.859375 19.006662
30.300000 12.734375 19.006662
29.550000 0.125000 19.162191
29.775000 1.218750 19.162191
29.825000 2.125000 19.162191
29.900000 2.750000 19.162191
29.925000 4.328125 19.162191
29.975000 5.140625 19.162191
30.075000 6.609375 19.162191
30.150000 7.359375 19.162191
30.250000 8.671875 19.162191
30.375000 10.437500 19.162191
30.500000 11.625000 19.162191
30.625000 12.140625 19.162191
29.700000 0.250000 19.318237
30.150000 1.312500 19.318237
30.200000 2.671875 19.318237
30.250000 3.703125 19.318237
30.275000 5.250000 19.318237
30.375000 5.687500 19.318237
30.425000 7.468750 19.318237
30.525000 8.078125 19.318237
30.675000 9.500000 19.318237
30.800000 10.328125 19.318237
30.900000 11.734375 19.318237
31.125000 12.796875 19.318237
30.475000 2.031250 19.473986
30.525000 3.125000 19.473986
30.575000 3.843750 19.473986
30.650000 5.203125 19.473986
30.700000 6.468750 19.473986
30.775000 7.250000 19.473986
30.875000 9.015625 19.473986
30.975000 9.718750 19.473986
31.125000 11.296875 19.473986
31.275000 12.531250 19.473986
30.675000 0.750000 19.625144
30.675000 2.218750 19.625144
30.700000 3.687500 19.625144
30.775000 4.343750 19.625144
30.900000 5.546875 19.625144
31.050000 6.500000 19.625144
31.075000 8.187500 19.625144
31.100000 9.484375 19.625144
31.225000 10.203125 19.625144
31.350000 11.562500 19.625144
31.525000 12.140625 19.625144
30.800000 0.281250 19.784290
30.825000 1.453125 19.784290
30.875000 3.015625 19.784290
30.950000 4.328125 19.784290
31.025000 5.421875 19.784290
31.100000 6.187500 19.784290
31.150000 7.984375 19.784290
31.250000 8.656250 19.784290
31.375000 10.046875 19.784290
31.500000 10.671875 19.784290
31.650000 11.906250 19.784290
30.950000 1.781250 19.938557
31.025000 2.359375 19.938557
31.075000 3.593750 19.938557
31.100000 5.187500 19.938557
31.200000 6.171875 19.938557
31.250000 7.593750 19.938557
31.325000 8.187500 19.938557
31.475000 9.312500 19.938557
31.575000 11.109375 19.938557
31.675000 12.125000 19.938557
30.975000 1.531250 20.098109
31.025000 2.250000 20.098109
31.075000 3.609375 20.098109
31.150000 4.453125 20.098109
31.225000 6.000000 20.098109
31.225000 6.593750 20.098109
31.300000 8.093750 20.098109
31.475000 9.031250 20.098109
31.600000 10.078125 20.098109
31.725000 11.515625 20.098109
32.125000 12.343750 20.098109
31.025000 1.781250 20.251562
31.075000 3.015625 20.251562
31.125000 4.343750 20.251562
31.200000 5.609375 20.251562
31.350000 6.484375 20.251562
31.325000 7.828125 20.251562
31.325000 9.234375 20.251562
31.600000 10.312500 20.251562
31.725000 10.890625 20.251562
31.775000 12.093750 20.251562
30.950000 0.296875 20.423078
30.900000 1.531250 20.423078
30.900000 3.015625 20.423078
31.000000 3.953125 20.423078
31.075000 5.062500 20.423078
31.150000 6.265625 20.423078
31.300000 7.343750 20.423078
31.375000 8.953125 20.423078
31.400000 9.734375 20.423078
31.525000 10.796875 20.423078
31.675000 12.296875 20.423078
30.825000 2.015625 20.576435
30.850000 2.781250 20.576435
30.925000 4.015625 20.576435
31.025000 5.312500 20.576435
31.100000 6.875000 20.576435
31.150000 7.640625 20.576435
31.250000 8.843750 20.576435
31.350000 10.343750 20.576435
31.475000 11.390625 20.576435
31.625000 12.265625 20.576435
30.675000 2.171875 20.734631
30.700000 2.562500 20.734631
30.725000 4.062500 20.734631
30.800000 4.921875 20.734631
30.875000 6.734375 20.734631
30.950000 7.906250 20.734631
31.075000 8.750000 20.734631
31.225000 9.828125 20.734631
31.325000 10.765625 20.734631
31.425000 12.171875 20.734631
30.400000 1.812500 20.880038
30.400000 3.234375 20.880038
30.500000 3.828125 20.880038
30.550000 5.609375 20.880038
30.600000 6.343750 20.880038
30.675000 7.812500 20.880038
30.775000 8.546875 20.880038
30.900000 9.750000 20.880038
31.025000 11.062500 20.880038
31.175000 11.984375 20.880038
30.125000 1.500000 21.046132
30.150000 2.343750 21.046132
30.175000 3.843750 21.046132
30.200000 4.843750 21.046132
30.275000 5.937500 21.046132
30.325000 7.234375 21.046132
30.425000 8.250000 21.046132
30.550000 9.515625 21.046132
30.650000 10.968750 21.046132
29.675000 0.734375 21.189421
29.725000 2.312500 21.189421
29.800000 3.343750 21.189421
29.825000 4.109375 21.189421
29.850000 5.781250 21.189421
29.900000 6.859375 21.189421
30.000000 7.625000 21.189421
30.075000 8.796875 21.189421
30.175000 10.156250 21.189421
30.300000 11.234375 21.189421
30.425000 12.281250 21.189421
29.675000 0.140625 21.357933
30.075000 1.187500 21.357933
30.125000 2.156250 21.357933
30.175000 3.937500 21.357933
30.200000 5.171875 21.357933
30.275000 5.531250 21.357933
30.375000 6.968750 21.357933
30.475000 8.187500 21.357933
30.550000 9.468750 21.357933
30.675000 10.312500 21.357933
30.800000 12.125000 21.357933
31.050000 12.500000 21.357933
30.650000 1.468750 21.512583
30.700000 2.796875 21.512583
30.750000 3.937500 21.512583
30.800000 5.421875 21.512583
30.900000 5.781250 21.512583
31.000000 7.109375 21.512583
31.100000 8.812500 21.512583
31.200000 9.343750 21.512583
31.325000 10.687500 21.512583
31.450000 12.078125 21.512583
31.125000 0.328125 21.673813
31.150000 1.734375 21.673813
31.200000 3.234375 21.673813
31.250000 4.093750 21.673813
31.300000 5.062500 21.673813
31.350000 6.265625 21.673813
31.450000 7.296875 21.673813
31.600000 8.953125 21.673813
31.700000 10.093750 21.673813
31.850000 10.625000 21.673813
32.000000 11.843750 21.673813
31.500000 1.187500 21.825535
31.550000 2.531250 21.825535
31.600000 3.375000 21.825535
31.675000 4.265625 21.825535
31.750000 6.125000 21.825535
31.825000 6.703125 21.825535
31.950000 8.015625 21.825535
32.075000 9.078125 21.825535
32.175000 10.640625 21.825535
32.300000 11.328125 21.825535
31.850000 0.640625 21.987988
31.850000 1.515625 21.987988
31.900000 2.687500 21.987988
31.950000 3.765625 21.987988
32.025000 4.765625 21.987988
32.150000 6.062500 21.987988
32.225000 7.718750 21.987988
32.325000 8.593750 21.987988
32.450000 9.937500 21.987988
32.550000 11.250000 21.987988
32.725000 12.203125 21.987988
32.100000 0.109375 22.139504
32.075000 1.593750 22.139504
32.100000 2.500000 22.139504
32.175000 3.671875 22.139504
32.275000 5.062500 22.139504
32.375000 5.750000 22.139504
32.450000 7.375000 22.139504
32.550000 8.718750 22.139504
32.725000 9.421875 22.139504
32.825000 10.812500 22.139504
32.950000 12.187500 22.139504
32.175000 -0.015625 22.297613
32.300000 1.609375 22.297613
32.300000 2.703125 22.297613
32.375000 3.171875 22.297613
32.450000 4.625000 22.297613
32.550000 5.906250 22.297613
32.675000 6.734375 22.297613
32.750000 8.406250 22.297613
32.850000 9.343750 22.297613
33.000000 10.171875 22.297613
33.125000 11.671875 22.297613
32.525000 1.890625 22.450780
32.550000 3.015625 22.450780
32.600000 4.515625 22.450780
32.725000 5.296875 22.450780
32.800000 6.937500 22.450780
32.850000 7.609375 22.450780
33.000000 8.765625 22.450780
33.150000 10.453125 22.450780
33.275000 11.375000 22.450780
32.375000 0.234375 22.606269
32.625000 1.500000 22.606269
32.650000 2.593750 22.606269
32.725000 4.203125 22.606269
32.800000 5.390625 22.606269
32.875000 6.046875 22.606269
33.000000 7.609375 22.606269
33.100000 8.796875 22.606269
33.200000 9.593750 22.606269
32.750000 2.156250 22.761625
32.750000 3.531250 22.761625
32.800000 4.781250 22.761625
32.825000 5.906250 22.761625
32.950000 6.812500 22.761625
33.100000 7.906250 22.761625
33.200000 9.265625 22.761625
33.325000 10.578125 22.761625
33.500000 11.093750 22.761625
32.925000 0.218750 22.916216
32.725000 1.890625 22.916216
32.675000 2.765625 22.916216
32.750000 4.031250 22.916216
32.875000 5.296875 22.916216
33.050000 6.156250 22.916216
33.175000 7.187500 22.916216
33.200000 8.468750 22.916216
33.225000 9.984375 22.916216
32.925000 0.312500 23.084350
32.900000 1.156250 23.084350
32.825000 2.125000 23.084350
32.875000 3.312500 23.084350
32.925000 4.453125 23.084350
33.000000 5.718750 23.084350
33.125000 7.015625 23.084350
33.200000 8.500000 23.084350
33.300000 9.390625 23.084350
33.425000 10.593750 23.084350
33.625000 11.375000 23.084350
32.875000 0.390625 23.240993
32.750000 1.828125 23.240993
32.775000 2.828125 23.240993
32.850000 4.187500 23.240993
32.925000 5.281250 23.240993
33.025000 6.328125 23.240993
33.150000 7.765625 23.240993
33.250000 8.421875 23.240993
33.375000 9.859375 23.240993
33.500000 10.843750 23.240993
32.575000 0.406250 23.397428
32.625000 1.640625 23.397428
32.675000 2.562500 23.397428
32.725000 3.562500 23.397428
32.825000 4.968750 23.397428
32.950000 5.984375 23.397428
33.050000 7.140625 23.397428
33.150000 8.390625 23.397428
33.250000 9.578125 23.397428
33.350000 10.750000 23.397428
33.475000 11.703125 23.397428
32.500000 2.218750 23.557092
32.575000 3.015625 23.557092
32.625000 4.250000 23.557092
32.725000 5.250000 23.557092
32.825000 6.703125 23.557092
32.925000 8.109375 23.557092
33.050000 8.625000 23.557092
33.175000 10.250000 23.557092
33.300000 11.437500 23.557092
32.275000 0.546875 23.711669
32.300000 1.843750 23.711669
32.350000 3.125000 23.711669
32.400000 4.187500 23.711669
32.500000 5.437500 23.711669
32.575000 6.500000 23.711669
32.700000 7.734375 23.711669
32.825000 8.796875 23.711669
32.975000 9.859375 23.711669
33.075000 11.265625 23.711669
33.325000 12.015625 23.711669
31.750000 -0.140625 23.868612
32.025000 1.171875 23.868612
32.075000 2.515625 23.868612
32.125000 3.515625 23.868612
32.200000 4.390625 23.868612
32.300000 5.437500 23.868612
32.400000 6.890625 23.868612
32.500000 8.296875 23.868612
32.575000 9.515625 23.868612
32.725000 10.062500 23.868612
32.875000 11.265625 23.868612
31.600000 0.781250 24.023247
31.650000 1.859375 24.023247
31.725000 3.078125 24.023247
31.800000 3.921875 24.023247
31.850000 5.406250 24.023247
31.925000 6.265625 24.023247
32.025000 7.531250 24.023247
32.150000 8.515625 24.023247
32.300000 9.781250 24.023247
32.400000 10.609375 24.023247
32.525000 11.796875 24.023247
31.150000 1.531250 24.180960
31.175000 3.015625 24.180960
31.225000 3.640625 24.180960
31.300000 4.546875 24.180960
31.400000 6.359375 24.180960
31.525000 7.015625 24.180960
31.625000 8.203125 24.180960
31.725000 9.312500 24.180960
31.875000 10.687500 24.180960
32.000000 11.656250 24.180960
30.400000 0.671875 24.334160
30.450000 1.890625 24.334160
30.500000 2.968750 24.334160
30.550000 4.109375 24.334160
30.600000 5.578125 24.334160
30.700000 6.734375 24.334160
30.800000 8.203125 24.334160
30.900000 8.812500 24.334160
31.000000 10.500000 24.334160
31.100000 11.328125 24.334160
31.250000 12.953125 24.334160
29.700000 0.312500 24.495581
29.700000 1.687500 24.495581
29.725000 2.765625 24.495581
29.775000 4.421875 24.495581
29.850000 4.890625 24.495581
29.900000 6.156250 24.495581
29.950000 7.515625 24.495581
30.050000 9.093750 24.495581
30.150000 10.015625 24.495581
30.250000 10.796875 24.495581
30.400000 12.187500 24.495581
30.700000 13.390625 24.495581
29.575000 0.843750 24.646417
29.975000 2.281250 24.646417
30.025000 2.937500 24.646417
30.075000 3.968750 24.646417
30.150000 5.125000 24.646417
30.225000 6.984375 24.646417
30.300000 8.046875 24.646417
30.425000 8.531250 24.646417
30.525000 10.484375 24.646417
30.675000 10.828125 24.646417
30.800000 12.734375 24.646417
30.300000 1.500000 24.810546
30.325000 2.734375 24.810546
30.375000 3.390625 24.810546
30.450000 4.968750 24.810546
30.500000 5.796875 24.810546
30.600000 6.609375 24.810546
30.675000 8.437500 24.810546
30.825000 9.500000 24.810546
30.975000 10.546875 24.810546
31.075000 11.937500 24.810546
31.200000 12.859375 24.810546
30.600000 1.593750 24.957067
30.625000 2.984375 24.957067
30.650000 4.609375 24.957067
30.700000 5.703125 24.957067
30.800000 6.484375 24.957067
30.900000 7.468750 24.957067
31.000000 8.656250 24.957067
31.150000 10.000000 24.957067
31.275000 11.125000 24.957067
31.375000 12.390625 24.957067
30.700000 1.765625 25.119027
30.725000 2.515625 25.119027
30.800000 3.562500 25.119027
30.875000 4.531250 25.119027
30.975000 5.500000 25.119027
31.050000 6.890625 25.119027
31.125000 8.281250 25.119027
31.225000 9.593750 25.119027
31.350000 10.703125 25.119027
31.475000 11.953125 25.119027
31.850000 12.484375 25.119027
30.875000 2.328125 25.271187
30.900000 3.187500 25.271187
31.000000 3.984375 25.271187
31.075000 5.812500 25.271187
31.100000 6.359375 25.271187
31.250000 7.671875 25.271187
31.375000 8.625000 25.271187
31.500000 9.968750 25.271187
31.600000 10.968750 25.271187
31.700000 12.625000 25.271187
30.950000 0.250000 25.433538
30.975000 1.421875 25.433538
31.000000 2.718750 25.433538
31.025000 4.375000 25.433538
31.100000 5.468750 25.433538
31.175000 6.343750 25.433538
31.300000 7.281250 25.433538
31.400000 8.781250 25.433538
31.500000 9.843750 25.433538
31.625000 11.000000 25.433538
31.775000 12.203125 25.433538
31.000000 0.203125 25.582122
31.000000 1.578125 25.582122
31.000000 2.718750 25.582122
31.025000 3.859375 25.582122
31.100000 4.812500 25.582122
31.200000 6.406250 25.582122
31.300000 7.281250 25.582122
31.375000 8.421875 25.582122
31.500000 9.343750 25.582122
31.650000 11.140625 25.582122
31.750000 12.125000 25.582122
30.975000 0.781250 25.744478
31.025000 1.921875 25.744478
31.050000 3.281250 25.744478
31.075000 4.718750 25.744478
31.125000 5.531250 25.744478
31.225000 6.640625 25.744478
31.350000 8.187500 25.744478
31.425000 9.500000 25.744478
31.500000 10.500000 25.744478
31.675000 11.171875 25.744478
31.925000 12.250000 25.744478
30.875000 1.765625 25.895611
30.875000 3.046875 25.895611
30.900000 4.140625 25.895611
31.025000 5.265625 25.895611
31.125000 6.593750 25.895611
31.225000 7.015625 25.895611
31.350000 8.875000 25.895611
31.425000 9.343750 25.895611
31.550000 10.640625 25.895611
31.725000 12.265625 25.895611
30.700000 1.265625 26.061939
30.725000 1.671875 26.061939
30.775000 3.281250 26.061939
30.825000 4.203125 26.061939
30.900000 5.750000 26.061939
30.975000 7.062500 26.061939
31.050000 7.734375 26.061939
31.150000 9.359375 26.061939
31.300000 10.406250 26.061939
31.425000 11.578125 26.061939
31.550000 12.187500 26.061939
30.500000 1.656250 26.219317
30.525000 2.312500 26.219317
30.600000 3.640625 26.219317
30.650000 4.625000 26.219317
30.700000 5.671875 26.219317
30.775000 7.531250 26.219317
30.875000 8.515625 26.219317
31.000000 9.390625 26.219317
31.125000 10.968750 26.219317
31.250000 11.843750 26.219317
31.450000 13.218750 26.219317
30.250000 1.812500 26.371757
30.250000 2.921875 26.371757
30.275000 4.125000 26.371757
30.350000 5.031250 26.371757
30.425000 5.953125 26.371757
30.525000 7.312500 26.371757
30.625000 8.000000 26.371757
30.700000 9.359375 26.371757
30.800000 11.046875 26.371757
30.975000 11.859375 26.371757
31.250000 13.093750 26.371757
29.825000 1.203125 26.531013
29.875000 1.531250 26.531013
29.900000 3.296875 26.531013
29.950000 3.906250 26.531013
30.025000 5.187500 26.531013
30.075000 6.984375 26.531013
30.175000 7.406250 26.531013
30.275000 8.703125 26.531013
30.350000 10.343750 26.531013
30.450000 11.484375 26.531013
