28.300000 -29.378906 8.859722
28.200000 -28.119141 8.859722
28.200000 -27.984375 8.859722
28.400000 -27.353027 8.859722
28.500000 -26.846680 8.859722
28.600000 -26.340332 8.859722
28.600000 -25.333984 8.859722
28.700000 -24.452637 8.859722
28.500000 -24.446289 8.859722
28.000000 -23.314941 8.859722
27.600000 -23.058594 8.859722
27.400000 -22.552246 8.859722
27.400000 -21.295898 8.859722
27.500000 -20.789551 8.859722
27.500000 -20.158203 8.859722
27.600000 -20.026855 8.859722
27.800000 -18.395508 8.859722
28.000000 -18.889160 8.859722
28.300000 -18.132812 8.859722
28.800000 -31.086426 8.997070
28.500000 -30.076172 8.997070
28.300000 -30.315918 8.997070
28.300000 -29.305664 8.997070
28.200000 -29.045410 8.997070
28.200000 -27.535156 8.997070
28.300000 -27.274902 8.997070
28.400000 -26.264648 8.997070
28.500000 -26.254395 8.997070
28.600000 -25.744141 8.997070
28.600000 -24.733887 8.997070
28.600000 -23.973633 8.997070
28.200000 -23.463379 8.997070
27.600000 -22.828125 8.997070
27.300000 -22.197266 8.997070
27.400000 -19.679688 8.997070
27.600000 -20.173828 8.997070
27.800000 -18.792969 8.997070
27.900000 -18.787109 8.997070
28.200000 -18.031250 8.997070
25.200000 -32.117188 9.137409
27.200000 -29.710938 9.137409
27.000000 -29.578125 9.137409
27.000000 -27.695312 9.137409
26.800000 -27.062500 9.137409
26.500000 -27.679688 9.137409
26.200000 -25.546875 9.137409
26.100000 -25.164062 9.137409
26.500000 -25.406250 9.137409
27.000000 -23.257812 9.137409
27.100000 -22.750000 9.137409
26.900000 -22.492188 9.137409
26.600000 -21.984375 9.137409
26.400000 -21.351562 9.137409
27.700000 -18.703125 9.137409
27.900000 -18.695312 9.137409
28.200000 -18.062500 9.137409
29.000000 -31.128418 9.291598
28.700000 -31.119141 9.291598
28.500000 -29.859863 9.291598
28.300000 -29.725586 9.291598
28.200000 -28.966309 9.291598
28.200000 -27.832031 9.291598
28.300000 -27.947754 9.291598
28.400000 -26.563477 9.291598
28.500000 -26.429199 9.291598
28.500000 -26.294922 9.291598
28.500000 -25.285645 9.291598
28.500000 -24.276367 9.291598
28.300000 -24.142090 9.291598
27.000000 -22.748535 9.291598
27.300000 -20.220703 9.291598
27.600000 -19.211426 9.291598
27.700000 -18.702148 9.291598
27.900000 -18.817871 9.291598
28.100000 -17.558594 9.291598
27.200000 -44.752930 9.432950
28.800000 -30.800781 9.432950
28.500000 -30.416992 9.432950
28.300000 -29.783203 9.432950
28.300000 -29.524414 9.432950
28.200000 -28.765625 9.432950
28.200000 -28.258301 9.432950
28.400000 -27.500977 9.432950
28.500000 -26.618652 9.432950
28.500000 -25.986328 9.432950
28.500000 -25.604004 9.432950
28.500000 -24.971680 9.432950
28.600000 -24.464355 9.432950
26.800000 -22.824707 9.432950
26.800000 -20.942383 9.432950
27.200000 -20.295410 9.432950
27.700000 -20.038086 9.432950
27.800000 -19.280762 9.432950
29.000000 -31.298828 9.571503
28.700000 -30.410645 9.571503
28.400000 -30.397461 9.571503
28.300000 -29.509277 9.571503
28.200000 -28.496094 9.571503
28.200000 -27.607910 9.571503
28.300000 -27.344727 9.571503
28.400000 -26.206543 9.571503
28.400000 -25.818359 9.571503
28.500000 -25.055176 9.571503
28.400000 -25.416992 9.571503
28.600000 -24.653809 9.571503
27.100000 -22.382812 9.571503
26.800000 -22.125000 9.571503
27.800000 -18.710938 9.571503
27.900000 -18.328125 9.571503
28.200000 -18.445312 9.571503
29.000000 -31.623047 9.727839
28.700000 -30.734863 9.727839
28.500000 -29.721680 9.727839
28.300000 -29.583496 9.727839
28.200000 -28.445312 9.727839
28.200000 -28.557129 9.727839
28.300000 -27.918945 9.727839
28.400000 -26.780762 9.727839
28.400000 -26.517578 9.727839
28.400000 -26.004395 9.727839
28.400000 -25.116211 9.727839
28.600000 -24.728027 9.727839
26.600000 -21.800293 9.727839
27.700000 -18.747559 9.727839
27.900000 -18.109375 9.727839
28.200000 -17.849121 9.727839
29.000000 -31.787109 9.867501
28.700000 -31.276855 9.867501
28.500000 -30.516602 9.867501
28.300000 -29.256348 9.867501
28.200000 -29.121094 9.867501
28.200000 -28.110840 9.867501
28.300000 -27.850586 9.867501
28.300000 -27.090332 9.867501
28.400000 -26.330078 9.867501
28.500000 -25.944824 9.867501
28.400000 -24.934570 9.867501
28.500000 -24.299316 9.867501
26.900000 -21.633301 9.867501
27.800000 -18.717285 9.867501
27.800000 -18.082031 9.867501
28.000000 -17.696777 9.867501
28.800000 -30.685547 10.022102
28.500000 -29.925781 10.022102
28.300000 -29.166016 10.022102
28.300000 -28.906250 10.022102
28.200000 -27.898926 10.022102
28.200000 -28.016602 10.022102
28.300000 -27.634277 10.022102
28.300000 -26.001953 10.022102
28.400000 -25.369629 10.022102
28.500000 -25.737305 10.022102
28.500000 -25.104980 10.022102
28.200000 -23.722656 10.022102
26.500000 -20.818359 10.022102
27.800000 -18.539062 10.022102
28.800000 -31.081543 10.162712
28.500000 -30.446289 10.162712
28.300000 -30.061035 10.162712
28.300000 -28.550781 10.162712
28.200000 -28.665527 10.162712
28.200000 -28.030273 10.162712
28.200000 -27.270020 10.162712
28.300000 -26.759766 10.162712
28.400000 -26.249512 10.162712
28.400000 -25.489258 10.162712
28.300000 -24.854004 10.162712
26.500000 -20.943359 10.162712
27.700000 -18.292969 10.162712
28.900000 -31.554199 10.303128
28.600000 -30.168945 10.303128
28.400000 -30.533691 10.303128
28.300000 -29.148438 10.303128
28.200000 -28.388184 10.303128
28.200000 -27.752930 10.303128
28.300000 -27.992676 10.303128
28.300000 -26.357422 10.303128
28.300000 -25.847168 10.303128
28.300000 -25.586914 10.303128
28.200000 -24.576660 10.303128
28.300000 -24.066406 10.303128
26.900000 -22.670898 10.303128
26.700000 -21.410645 10.303128
26.600000 -20.900391 10.303128
27.700000 -19.609375 10.303128
27.800000 -17.977051 10.303128
28.000000 -18.219727 10.303128
28.900000 -31.456055 10.457087
28.600000 -31.572266 10.457087
28.400000 -30.188477 10.457087
28.300000 -30.179688 10.457087
28.200000 -28.795898 10.457087
28.200000 -28.287109 10.457087
28.200000 -27.653320 10.457087
28.200000 -27.269531 10.457087
28.300000 -26.885742 10.457087
28.400000 -25.876953 10.457087
28.300000 -25.743164 10.457087
28.200000 -24.234375 10.457087
28.400000 -24.100586 10.457087
26.700000 -22.833008 10.457087
26.700000 -21.699219 10.457087
27.200000 -19.797852 10.457087
27.600000 -19.914062 10.457087
27.700000 -18.905273 10.457087
28.600000 -30.907227 10.599039
28.400000 -29.898926 10.599039
28.200000 -29.140625 10.599039
28.100000 -29.382812 10.599039
28.100000 -28.625000 10.599039
28.200000 -27.867188 10.599039
28.200000 -27.609375 10.599039
28.300000 -26.726562 10.599039
28.400000 -26.218750 10.599039
28.300000 -25.585938 10.599039
28.300000 -24.828125 10.599039
28.400000 -23.945312 10.599039
26.800000 -22.804688 10.599039
26.800000 -22.046875 10.599039
26.900000 -21.789062 10.599039
27.100000 -20.531250 10.599039
27.400000 -20.273438 10.599039
27.600000 -19.765625 10.599039
27.700000 -19.382812 10.599039
27.800000 -18.625000 10.599039
28.100000 -17.742188 10.599039
28.700000 -31.865234 10.880949
28.300000 -31.229004 10.880949
28.200000 -30.217773 10.880949
28.100000 -28.956543 10.880949
28.000000 -28.695312 10.880949
28.000000 -28.184082 10.880949
28.100000 -27.672852 10.880949
28.200000 -27.161621 10.880949
28.300000 -26.150391 10.880949
28.300000 -25.764160 10.880949
28.200000 -25.627930 10.880949
28.300000 -24.116699 10.880949
27.300000 -23.344238 10.880949
27.000000 -22.208008 10.880949
27.000000 -22.196777 10.880949
27.200000 -20.935547 10.880949
27.400000 -20.549316 10.880949
27.500000 -19.913086 10.880949
27.600000 -19.026855 10.880949
27.700000 -18.890625 10.880949
28.400000 -30.771484 11.033900
28.200000 -31.011230 11.033900
28.100000 -30.250977 11.033900
28.000000 -29.865723 11.033900
28.000000 -29.230469 11.033900
28.100000 -27.595215 11.033900
28.100000 -26.959961 11.033900
28.200000 -27.199707 11.033900
28.300000 -26.064453 11.033900
28.300000 -25.804199 11.033900
28.200000 -25.293945 11.033900
28.200000 -24.033691 11.033900
27.800000 -23.023438 11.033900
27.200000 -22.888184 11.033900
27.100000 -22.627930 11.033900
27.100000 -21.992676 11.033900
27.300000 -21.482422 11.033900
27.400000 -20.847168 11.033900
27.400000 -19.086914 11.033900
27.500000 -19.076660 11.033900
27.700000 -19.066406 11.033900
28.000000 -18.056152 11.033900
28.700000 -31.764160 11.173563
28.400000 -31.626953 11.173563
28.100000 -30.614746 11.173563
28.000000 -30.227539 11.173563
28.000000 -29.465332 11.173563
28.000000 -28.328125 11.173563
28.000000 -27.568848 11.173563
28.100000 -27.809570 11.173563
28.200000 -26.800293 11.173563
28.300000 -26.041016 11.173563
28.200000 -25.531738 11.173563
28.200000 -24.897461 11.173563
28.100000 -23.763184 11.173563
27.700000 -23.253906 11.173563
27.300000 -22.619629 11.173563
27.200000 -21.610352 11.173563
27.200000 -21.726074 11.173563
27.300000 -20.466797 11.173563
27.400000 -19.457520 11.173563
27.400000 -19.573242 11.173563
27.500000 -18.938965 11.173563
27.700000 -18.054688 11.173563
28.000000 -18.045410 11.173563
28.300000 -31.109375 11.312199
28.000000 -29.972656 11.312199
27.900000 -29.585938 11.312199
27.900000 -29.699219 11.312199
28.000000 -28.812500 11.312199
28.000000 -27.925781 11.312199
28.100000 -27.164062 11.312199
28.100000 -27.027344 11.312199
28.300000 -25.890625 11.312199
28.200000 -25.378906 11.312199
28.200000 -24.617188 11.312199
28.200000 -24.230469 11.312199
27.700000 -23.093750 11.312199
27.400000 -22.208984 11.312199
27.200000 -22.449219 11.312199
27.100000 -21.064453 11.312199
27.300000 -20.679688 11.312199
27.300000 -19.919922 11.312199
27.400000 -19.160156 11.312199
27.500000 -19.525391 11.312199
27.700000 -18.015625 11.312199
28.000000 -18.380859 11.312199
28.600000 -32.282715 11.469883
28.200000 -30.896484 11.469883
27.900000 -30.385254 11.469883
27.900000 -30.124023 11.469883
27.900000 -29.737793 11.469883
27.900000 -29.101562 11.469883
28.000000 -28.090332 11.469883
28.100000 -27.454102 11.469883
28.100000 -26.942871 11.469883
28.200000 -26.681641 11.469883
28.300000 -25.670410 11.469883
28.300000 -24.784180 11.469883
28.100000 -24.147949 11.469883
27.700000 -23.761719 11.469883
27.400000 -22.875488 11.469883
27.300000 -21.864258 11.469883
27.300000 -20.978027 11.469883
27.300000 -20.216797 11.469883
27.300000 -20.330566 11.469883
27.400000 -19.944336 11.469883
27.500000 -18.558105 11.469883
27.700000 -17.921875 11.469883
28.200000 -31.808594 11.607303
27.900000 -30.674805 11.607303
27.800000 -29.416016 11.607303
27.800000 -29.907227 11.607303
27.900000 -28.648438 11.607303
27.900000 -28.639648 11.607303
28.100000 -27.505859 11.607303
28.100000 -27.122070 11.607303
28.200000 -26.113281 11.607303
28.300000 -25.229492 11.607303
28.400000 -24.970703 11.607303
28.200000 -23.836914 11.607303
27.800000 -23.703125 11.607303
27.400000 -22.569336 11.607303
27.300000 -22.560547 11.607303
27.200000 -21.551758 11.607303
27.200000 -21.417969 11.607303
27.300000 -20.409180 11.607303
27.400000 -20.150391 11.607303
27.500000 -18.891602 11.607303
27.700000 -18.757812 11.607303
28.200000 -31.066406 11.761016
28.000000 -31.182617 11.761016
27.900000 -29.673828 11.761016
27.800000 -29.415039 11.761016
27.800000 -29.156250 11.761016
27.900000 -28.899414 11.761016
28.000000 -27.642578 11.761016
28.100000 -27.010742 11.761016
28.200000 -26.128906 11.761016
28.300000 -26.247070 11.761016
28.500000 -25.365234 11.761016
28.400000 -24.983398 11.761016
27.900000 -24.351562 11.761016
27.500000 -23.469727 11.761016
27.300000 -22.837891 11.761016
27.200000 -21.206055 11.761016
27.300000 -21.449219 11.761016
27.300000 -21.067383 11.761016
27.300000 -20.560547 11.761016
27.400000 -19.428711 11.761016
27.600000 -19.046875 11.761016
27.800000 -18.790039 11.761016
28.100000 -17.783203 11.761016
28.300000 -31.378906 11.901094
28.000000 -30.493164 11.901094
27.900000 -30.107422 11.901094
27.800000 -29.471680 11.901094
27.900000 -29.585938 11.901094
27.900000 -28.700195 11.901094
28.000000 -28.189453 11.901094
28.100000 -27.678711 11.901094
28.100000 -26.667969 11.901094
28.300000 -26.157227 11.901094
28.500000 -25.146484 11.901094
28.400000 -25.135742 11.901094
28.000000 -24.125000 11.901094
27.600000 -22.993652 11.901094
27.300000 -23.112305 11.901094
27.200000 -21.480957 11.901094
27.200000 -21.474609 11.901094
27.200000 -20.843262 11.901094
27.300000 -20.461914 11.901094
27.400000 -19.330566 11.901094
27.500000 -18.574219 11.901094
27.700000 -18.567871 11.901094
28.000000 -18.061523 11.901094
28.300000 -31.732422 12.042785
27.900000 -30.972656 12.042785
27.800000 -29.712891 12.042785
27.800000 -29.578125 12.042785
27.800000 -29.193359 12.042785
27.900000 -27.808594 12.042785
28.000000 -27.423828 12.042785
28.100000 -27.414062 12.042785
28.100000 -26.154297 12.042785
28.400000 -25.769531 12.042785
28.600000 -24.759766 12.042785
28.300000 -24.625000 12.042785
27.800000 -23.865234 12.042785
27.400000 -23.480469 12.042785
27.300000 -22.470703 12.042785
27.200000 -21.085938 12.042785
27.200000 -20.826172 12.042785
27.200000 -21.066406 12.042785
27.300000 -20.306641 12.042785
27.400000 -18.671875 12.042785
27.600000 -18.665039 12.042785
27.800000 -18.158203 12.042785
28.200000 -17.651367 12.042785
27.000000 -44.890137 12.197066
28.500000 -32.229004 12.197066
28.100000 -31.096680 12.197066
27.900000 -30.589355 12.197066
27.800000 -29.707031 12.197066
27.800000 -28.699707 12.197066
27.900000 -29.192383 12.197066
28.000000 -28.060059 12.197066
28.100000 -27.927734 12.197066
28.100000 -26.670410 12.197066
28.300000 -26.663086 12.197066
28.500000 -25.905762 12.197066
28.500000 -24.398438 12.197066
28.100000 -24.266113 12.197066
27.600000 -23.383789 12.197066
27.300000 -22.626465 12.197066
27.200000 -22.494141 12.197066
27.200000 -22.111816 12.197066
27.200000 -20.479492 12.197066
27.300000 -19.972168 12.197066
27.400000 -20.089844 12.197066
27.500000 -19.582520 12.197066
27.700000 -18.075195 12.197066
28.000000 -31.019531 12.478901
27.900000 -30.634766 12.478901
27.800000 -29.750000 12.478901
27.800000 -28.865234 12.478901
27.900000 -29.105469 12.478901
28.000000 -28.470703 12.478901
28.100000 -27.585938 12.478901
28.200000 -26.701172 12.478901
28.500000 -26.316406 12.478901
28.600000 -26.056641 12.478901
28.700000 -24.546875 12.478901
28.300000 -24.163574 12.478901
27.700000 -23.030273 12.478901
27.300000 -22.271973 12.478901
27.200000 -21.763672 12.478901
27.200000 -21.130371 12.478901
27.200000 -21.247070 12.478901
27.300000 -20.238770 12.478901
27.400000 -19.980469 12.478901
27.500000 -19.097168 12.478901
27.700000 -17.963867 12.478901
28.500000 -32.003906 12.621929
28.000000 -30.742188 12.621929
27.900000 -30.980469 12.621929
27.800000 -29.718750 12.621929
27.900000 -29.207031 12.621929
27.900000 -28.320312 12.621929
28.000000 -28.558594 12.621929
28.100000 -27.546875 12.621929
28.300000 -26.785156 12.621929
28.400000 -26.273438 12.621929
28.600000 -25.886719 12.621929
28.700000 -25.375000 12.621929
28.500000 -24.363281 12.621929
27.900000 -23.601562 12.621929
27.400000 -22.589844 12.621929
27.200000 -21.703125 12.621929
27.200000 -21.066406 12.621929
27.200000 -21.304688 12.621929
27.200000 -19.792969 12.621929
27.300000 -19.656250 12.621929
27.500000 -18.771973 12.621929
27.700000 -18.637695 12.621929
28.700000 -32.591797 12.776873
28.200000 -30.957031 12.776873
27.900000 -30.447266 12.776873
27.800000 -30.062500 12.776873
27.800000 -28.927734 12.776873
27.800000 -28.667969 12.776873
27.900000 -28.158203 12.776873
28.000000 -27.398438 12.776873
28.300000 -26.763672 12.776873
28.500000 -26.003906 12.776873
28.600000 -25.369141 12.776873
28.700000 -24.984375 12.776873
28.800000 -24.974609 12.776873
27.600000 -23.080078 12.776873
27.300000 -22.820312 12.776873
27.200000 -22.060547 12.776873
27.200000 -20.675781 12.776873
27.200000 -20.541016 12.776873
27.300000 -20.031250 12.776873
27.500000 -18.646484 12.776873
27.600000 -18.886719 12.776873
27.900000 -18.626953 12.776873
28.300000 -17.492188 12.776873
28.100000 -31.490234 12.931469
27.900000 -30.854492 12.931469
27.800000 -30.218750 12.931469
27.800000 -29.835449 12.931469
27.800000 -28.952148 12.931469
28.000000 -28.068848 12.931469
28.200000 -28.060547 12.931469
28.300000 -27.177246 12.931469
28.500000 -26.918945 12.931469
28.600000 -26.285645 12.931469
28.700000 -25.152344 12.931469
28.900000 -24.644043 12.931469
27.800000 -23.627441 12.931469
27.400000 -22.369141 12.931469
27.200000 -22.110840 12.931469
27.200000 -21.602539 12.931469
27.200000 -20.594238 12.931469
27.300000 -19.210938 12.931469
27.400000 -19.702637 12.931469
27.600000 -18.694336 12.931469
27.800000 -18.686035 12.931469
28.200000 -18.052734 12.931469
28.600000 -32.503906 13.071879
28.100000 -31.242188 13.071879
27.900000 -30.855469 13.071879
27.800000 -30.093750 13.071879
27.800000 -30.332031 13.071879
27.800000 -28.820312 13.071879
28.000000 -28.558594 13.071879
28.100000 -27.421875 13.071879
28.300000 -27.285156 13.071879
28.500000 -27.148438 13.071879
28.500000 -26.011719 13.071879
28.600000 -25.500000 13.071879
28.700000 -24.617676 13.071879
28.900000 -24.485352 13.071879
27.600000 -22.595703 13.071879
27.400000 -21.838379 13.071879
27.300000 -21.081055 13.071879
27.200000 -20.948730 13.071879
27.300000 -20.316406 13.071879
27.400000 -19.559082 13.071879
27.500000 -19.426758 13.071879
27.800000 -18.544434 13.071879
28.500000 -33.113770 13.212679
28.100000 -32.229492 13.212679
27.800000 -31.345215 13.212679
27.800000 -29.960938 13.212679
27.800000 -29.326660 13.212679
27.900000 -29.442383 13.212679
28.000000 -28.808105 13.212679
28.200000 -28.173828 13.212679
28.300000 -27.914551 13.212679
28.500000 -26.780273 13.212679
28.600000 -26.395996 13.212679
28.700000 -25.511719 13.212679
28.300000 -24.108887 13.212679
27.700000 -22.974609 13.212679
27.400000 -22.090332 13.212679
27.300000 -21.331055 13.212679
27.200000 -20.571777 13.212679
27.200000 -19.812500 13.212679
27.300000 -19.931152 13.212679
27.500000 -19.174805 13.212679
27.700000 -19.043457 13.212679
28.400000 -32.505371 13.354038
28.100000 -31.622070 13.354038
27.800000 -31.113770 13.354038
27.800000 -30.230469 13.354038
27.800000 -29.597168 13.354038
27.800000 -28.963867 13.354038
28.000000 -28.705566 13.354038
28.100000 -28.322266 13.354038
28.300000 -27.688965 13.354038
28.500000 -27.055664 13.354038
28.600000 -26.797363 13.354038
28.700000 -25.914062 13.354038
28.500000 -23.264160 13.354038
27.900000 -23.380859 13.354038
27.500000 -22.122559 13.354038
27.300000 -22.114258 13.354038
27.300000 -21.480957 13.354038
27.300000 -20.222656 13.354038
27.300000 -20.089355 13.354038
27.500000 -19.331055 13.354038
27.700000 -18.697754 13.354038
28.000000 -18.564453 13.354038
28.400000 -17.056152 13.354038
28.100000 -32.391602 13.508181
27.800000 -31.633301 13.508181
27.700000 -31.000000 13.508181
27.700000 -30.743164 13.508181
27.800000 -29.861328 13.508181
27.900000 -28.729492 13.508181
28.100000 -28.847656 13.508181
28.200000 -27.215820 13.508181
28.300000 -27.208984 13.508181
28.500000 -26.077148 13.508181
28.600000 -25.445312 13.508181
27.600000 -22.036133 13.508181
27.400000 -22.029297 13.508181
27.400000 -21.022461 13.508181
27.300000 -20.265625 13.508181
27.300000 -20.383789 13.508181
27.400000 -18.751953 13.508181
27.600000 -18.620117 13.508181
27.900000 -18.113281 13.508181
28.000000 -32.634766 13.648109
27.700000 -32.000977 13.648109
27.600000 -30.492188 13.648109
27.700000 -30.483398 13.648109
27.800000 -29.099609 13.648109
27.900000 -29.090820 13.648109
28.000000 -28.082031 13.648109
28.100000 -28.198242 13.648109
28.300000 -27.189453 13.648109
28.500000 -26.430664 13.648109
28.600000 -25.921875 13.648109
28.700000 -25.416016 13.648109
28.500000 -24.535156 13.648109
27.800000 -22.517578 13.648109
27.500000 -21.636719 13.648109
27.400000 -21.505859 13.648109
27.300000 -20.500000 13.648109
27.300000 -19.869141 13.648109
27.400000 -19.613281 13.648109
27.600000 -19.357422 13.648109
27.900000 -18.226562 13.648109
27.000000 -44.995605 13.789029
28.000000 -32.905273 13.789029
27.700000 -32.269043 13.789029
27.500000 -30.382812 13.789029
27.500000 -30.871582 13.789029
27.700000 -30.235352 13.789029
27.800000 -29.474121 13.789029
27.900000 -28.962891 13.789029
28.100000 -27.451660 13.789029
28.200000 -27.315430 13.789029
28.400000 -26.429199 13.789029
28.600000 -26.167969 13.789029
28.700000 -25.781738 13.789029
28.500000 -23.498047 13.789029
28.000000 -22.736816 13.789029
27.600000 -22.600586 13.789029
27.400000 -21.589355 13.789029
27.400000 -20.703125 13.789029
27.300000 -20.070312 13.789029
27.400000 -20.187500 13.789029
27.600000 -19.429688 13.789029
27.800000 -18.171875 13.789029
28.100000 -17.914062 13.789029
28.500000 -17.281250 13.789029
27.900000 -32.591309 13.943077
27.600000 -31.957031 13.943077
27.500000 -30.947754 13.943077
27.500000 -30.563477 13.943077
27.600000 -29.929199 13.943077
27.700000 -29.544922 13.943077
27.800000 -28.535645 13.943077
28.000000 -28.401367 13.943077
28.200000 -27.017090 13.943077
28.400000 -26.632812 13.943077
28.600000 -26.373535 13.943077
28.700000 -25.239258 13.943077
28.400000 -23.086426 13.943077
27.800000 -21.317871 13.943077
27.400000 -21.433594 13.943077
27.600000 -19.271484 13.943077
27.900000 -32.109375 14.084229
27.600000 -31.224609 14.084229
27.500000 -31.339844 14.084229
27.400000 -30.705078 14.084229
27.500000 -29.445312 14.084229
27.500000 -29.435547 14.084229
27.700000 -29.175781 14.084229
27.800000 -28.041016 14.084229
28.100000 -27.281250 14.084229
28.400000 -26.521484 14.084229
28.600000 -26.636719 14.084229
28.700000 -25.501953 14.084229
28.500000 -23.597656 14.084229
28.100000 -22.712891 14.084229
27.600000 -22.703125 14.084229
27.500000 -21.193359 14.084229
27.400000 -20.558594 14.084229
27.400000 -20.048828 14.084229
27.500000 -20.164062 14.084229
27.600000 -18.779297 14.084229
27.800000 -18.894531 14.084229
28.100000 -17.634766 14.084229
28.500000 -17.375000 14.084229
27.700000 -32.115234 14.237091
27.400000 -31.730469 14.237091
27.300000 -31.095703 14.237091
27.300000 -30.085938 14.237091
27.300000 -29.951172 14.237091
27.400000 -29.441406 14.237091
27.500000 -27.806641 14.237091
27.700000 -27.171875 14.237091
28.000000 -27.288086 14.237091
28.400000 -26.904297 14.237091
28.600000 -25.645508 14.237091
28.700000 -25.886719 14.237091
28.400000 -23.485352 14.237091
27.900000 -22.476562 14.237091
27.600000 -22.467773 14.237091
27.500000 -21.208984 14.237091
27.400000 -20.950195 14.237091
27.400000 -20.316406 14.237091
27.600000 -19.557617 14.237091
27.700000 -19.048828 14.237091
27.900000 -18.165039 14.237091
27.600000 -33.781250 14.378243
27.800000 -32.520508 14.378243
27.500000 -31.384766 14.378243
27.300000 -31.499023 14.378243
27.100000 -29.988281 14.378243
27.100000 -30.352539 14.378243
27.100000 -29.216797 14.378243
27.200000 -28.706055 14.378243
27.300000 -28.320312 14.378243
27.600000 -27.434570 14.378243
28.000000 -27.173828 14.378243
28.400000 -26.413086 14.378243
28.700000 -26.277344 14.378243
27.900000 -23.609375 14.378243
27.800000 -21.853027 14.378243
27.600000 -21.971680 14.378243
27.500000 -20.840332 14.378243
27.400000 -19.708984 14.378243
27.500000 -19.202637 14.378243
27.600000 -19.196289 14.378243
27.800000 -18.189941 14.378243
28.000000 -17.683594 14.378243
27.800000 -32.981445 14.517228
27.500000 -32.345703 14.517228
27.200000 -30.459961 14.517228
27.000000 -30.449219 14.517228
26.900000 -29.063477 14.517228
26.800000 -29.177734 14.517228
26.800000 -28.041992 14.517228
26.900000 -27.656250 14.517228
28.600000 -26.363281 14.517228
27.900000 -22.695312 14.517228
27.900000 -22.184570 14.517228
27.600000 -22.048828 14.517228
27.400000 -20.413086 14.517228
27.400000 -20.902344 14.517228
27.500000 -19.266602 14.517228
27.600000 -19.130859 14.517228
27.800000 -18.495117 14.517228
28.000000 -17.734375 14.517228
27.800000 -32.367188 14.672332
27.400000 -32.234375 14.672332
27.100000 -31.351562 14.672332
26.900000 -30.718750 14.672332
26.700000 -29.710938 14.672332
26.600000 -28.953125 14.672332
26.500000 -27.695312 14.672332
26.500000 -28.312500 14.672332
28.600000 -26.156250 14.672332
28.400000 -23.500000 14.672332
27.800000 -22.617188 14.672332
27.600000 -21.609375 14.672332
27.500000 -21.226562 14.672332
27.400000 -20.593750 14.672332
27.500000 -20.335938 14.672332
27.600000 -19.453125 14.672332
27.800000 -18.695312 14.672332
28.100000 -17.812500 14.672332
27.500000 -32.804688 14.812999
27.700000 -32.793945 14.812999
27.400000 -31.533203 14.812999
27.000000 -30.147461 14.812999
26.800000 -30.761719 14.812999
26.600000 -29.125977 14.812999
26.400000 -29.490234 14.812999
26.300000 -28.604492 14.812999
26.200000 -28.093750 14.812999
26.200000 -26.586914 14.812999
28.300000 -23.414062 14.812999
27.900000 -22.907227 14.812999
27.700000 -21.900391 14.812999
27.500000 -21.393555 14.812999
27.500000 -20.636719 14.812999
27.500000 -19.754883 14.812999
27.600000 -18.998047 14.812999
27.800000 -18.116211 14.812999
28.100000 -18.484375 14.812999
28.500000 -16.977539 14.812999
27.800000 -32.396484 14.953100
27.400000 -32.386719 14.953100
27.100000 -30.501953 14.953100
26.800000 -29.867188 14.953100
26.600000 -29.982422 14.953100
26.400000 -29.722656 14.953100
26.300000 -28.337891 14.953100
26.100000 -28.328125 14.953100
26.000000 -26.443359 14.953100
26.100000 -26.683594 14.953100
28.400000 -25.779297 14.953100
28.400000 -24.644531 14.953100
28.000000 -22.493164 14.953100
27.600000 -21.236328 14.953100
27.500000 -21.354492 14.953100
27.500000 -20.097656 14.953100
27.500000 -19.590820 14.953100
27.600000 -19.208984 14.953100
27.800000 -19.202148 14.953100
28.000000 -18.695312 14.953100
27.900000 -33.215820 15.107654
27.600000 -32.330078 15.107654
27.200000 -31.194336 15.107654
26.900000 -30.683594 15.107654
26.600000 -29.172852 15.107654
26.400000 -29.787109 15.107654
26.300000 -28.026367 15.107654
26.100000 -28.515625 15.107654
26.000000 -27.879883 15.107654
26.100000 -26.494141 15.107654
28.400000 -24.826172 15.107654
28.000000 -22.043945 15.107654
27.700000 -22.033203 15.107654
27.500000 -21.397461 15.107654
27.500000 -20.511719 15.107654
27.500000 -20.125977 15.107654
27.600000 -19.490234 15.107654
27.700000 -18.979492 15.107654
28.000000 -18.093750 15.107654
27.800000 -32.243164 15.247500
27.400000 -31.736328 15.247500
27.000000 -31.104492 15.247500
26.800000 -30.222656 15.247500
26.600000 -29.215820 15.247500
26.400000 -28.958984 15.247500
26.400000 -27.577148 15.247500
26.400000 -26.945312 15.247500
26.400000 -26.313477 15.247500
26.700000 -25.931641 15.247500
27.900000 -22.508789 15.247500
27.700000 -22.001953 15.247500
27.500000 -21.245117 15.247500
27.500000 -20.238281 15.247500
27.600000 -19.606445 15.247500
27.700000 -18.599609 15.247500
27.900000 -18.467773 15.247500
28.200000 -18.210938 15.247500
28.500000 -17.454102 15.247500
27.900000 -32.772949 15.403239
27.600000 -31.510742 15.403239
27.200000 -31.373535 15.403239
27.000000 -29.986328 15.403239
26.800000 -29.974121 15.403239
26.800000 -28.836914 15.403239
26.700000 -28.574707 15.403239
26.700000 -28.437500 15.403239
28.500000 -23.390625 15.403239
28.000000 -21.884766 15.403239
27.700000 -21.253906 15.403239
27.500000 -20.998047 15.403239
27.400000 -20.992188 15.403239
27.500000 -20.236328 15.403239
27.700000 -19.480469 15.403239
27.900000 -19.099609 15.403239
28.100000 -18.593750 15.403239
27.100000 -44.739746 15.531004
27.400000 -31.711914 15.531004
27.200000 -30.449219 15.531004
27.100000 -30.436523 15.531004
27.000000 -29.548828 15.531004
27.000000 -29.036133 15.531004
27.100000 -28.273438 15.531004
27.200000 -27.760742 15.531004
27.600000 -26.498047 15.531004
28.300000 -25.972656 15.531004
28.800000 -25.334961 15.531004
28.500000 -24.197266 15.531004
28.300000 -23.171875 15.531004
28.200000 -22.414551 15.531004
27.700000 -20.267578 15.531004
27.500000 -20.510254 15.531004
27.600000 -19.252930 15.531004
27.800000 -18.745605 15.531004
28.000000 -17.738281 15.531004
28.000000 -32.487305 15.684653
27.700000 -32.100098 15.684653
27.400000 -30.712891 15.684653
27.300000 -30.825684 15.684653
27.300000 -30.063477 15.684653
27.300000 -29.051270 15.684653
27.400000 -29.039062 15.684653
27.500000 -27.401855 15.684653
27.800000 -26.764648 15.684653
28.100000 -26.752441 15.684653
28.500000 -26.490234 15.684653
28.800000 -25.353027 15.684653
27.900000 -22.929199 15.684653
27.900000 -22.666992 15.684653
27.700000 -21.654785 15.684653
27.600000 -21.392578 15.684653
27.600000 -20.755371 15.684653
27.600000 -19.493164 15.684653
27.800000 -19.230957 15.684653
28.000000 -17.843750 15.684653
28.300000 -17.584473 15.684653
28.700000 -17.700195 15.684653
27.200000 -44.805664 15.826012
28.000000 -32.626953 15.826012
27.700000 -31.117188 15.826012
27.500000 -31.232422 15.826012
27.500000 -30.472656 15.826012
27.500000 -29.212891 15.826012
27.600000 -29.328125 15.826012
27.700000 -28.818359 15.826012
27.900000 -27.683594 15.826012
28.100000 -27.173828 15.826012
28.400000 -27.164062 15.826012
28.600000 -26.404297 15.826012
28.800000 -25.019531 15.826012
28.700000 -23.240234 15.826012
28.200000 -22.855469 15.826012
27.900000 -21.720703 15.826012
27.700000 -20.835938 15.826012
27.600000 -20.701172 15.826012
27.600000 -19.691406 15.826012
27.700000 -18.931641 15.826012
27.800000 -18.421875 15.826012
28.000000 -17.912109 15.826012
28.100000 -32.254395 15.980979
27.800000 -31.869141 15.980979
27.600000 -31.358887 15.980979
27.600000 -29.973633 15.980979
27.600000 -30.088379 15.980979
27.700000 -28.953125 15.980979
27.800000 -29.070312 15.980979
28.000000 -28.062500 15.980979
28.200000 -27.054688 15.980979
28.400000 -27.046875 15.980979
28.600000 -25.914062 15.980979
28.800000 -25.531250 15.980979
28.500000 -22.750000 15.980979
27.900000 -21.992188 15.980979
27.800000 -22.109375 15.980979
27.700000 -20.726562 15.980979
27.600000 -20.593750 15.980979
27.700000 -20.085938 15.980979
27.800000 -19.078125 15.980979
28.000000 -18.445312 15.980979
27.000000 -44.938477 16.121553
27.900000 -31.572266 16.121553
27.700000 -31.561035 16.121553
27.700000 -30.924805 16.121553
27.700000 -30.288574 16.121553
27.900000 -29.402344 16.121553
28.000000 -28.516113 16.121553
28.100000 -28.504883 16.121553
28.200000 -26.993652 16.121553
28.400000 -26.482422 16.121553
28.600000 -25.971191 16.121553
28.800000 -25.584961 16.121553
28.500000 -23.297852 16.121553
28.000000 -22.665527 16.121553
27.800000 -22.033203 16.121553
27.700000 -21.400879 16.121553
27.600000 -20.018555 16.121553
27.600000 -19.636230 16.121553
27.800000 -19.378906 16.121553
28.000000 -18.871582 16.121553
28.300000 -18.114258 16.121553
28.700000 -16.981934 16.121553
28.000000 -31.394531 16.263308
27.800000 -31.510742 16.263308
27.800000 -30.876953 16.263308
27.900000 -29.743164 16.263308
27.900000 -29.484375 16.263308
28.000000 -28.725586 16.263308
28.200000 -27.966797 16.263308
28.400000 -27.333008 16.263308
28.600000 -27.199219 16.263308
28.800000 -26.065430 16.263308
28.800000 -25.681641 16.263308
28.500000 -23.021484 16.263308
27.900000 -22.012695 16.263308
27.700000 -21.878906 16.263308
27.700000 -21.370117 16.263308
27.600000 -19.986328 16.263308
27.700000 -19.852539 16.263308
27.800000 -19.593750 16.263308
28.000000 -18.961914 16.263308
28.100000 -31.998047 16.417165
27.900000 -31.364746 16.417165
27.800000 -29.856445 16.417165
27.900000 -30.348145 16.417165
28.000000 -29.089844 16.417165
28.200000 -28.706543 16.417165
28.300000 -28.073242 16.417165
28.500000 -26.939941 16.417165
28.600000 -27.181641 16.417165
28.800000 -26.548340 16.417165
28.800000 -25.290039 16.417165
29.000000 -24.140137 16.417165
27.900000 -22.248535 16.417165
27.700000 -21.240234 16.417165
27.700000 -20.856934 16.417165
27.600000 -19.723633 16.417165
27.700000 -20.090332 16.417165
27.800000 -18.582031 16.417165
28.000000 -18.573730 16.417165
28.300000 -31.566406 16.559553
27.900000 -30.932617 16.559553
27.900000 -30.798828 16.559553
27.900000 -29.290039 16.559553
28.000000 -29.531250 16.559553
28.200000 -28.897949 16.559553
28.400000 -28.014648 16.559553
28.500000 -27.756348 16.559553
28.600000 -26.248047 16.559553
28.800000 -25.989746 16.559553
28.900000 -25.606445 16.559553
29.100000 -23.831543 16.559553
27.900000 -22.189941 16.559553
27.700000 -21.306641 16.559553
27.700000 -20.923340 16.559553
27.600000 -20.415039 16.559553
27.700000 -19.781738 16.559553
27.800000 -19.273438 16.559553
28.000000 -18.765137 16.559553
28.600000 -32.161621 16.699092
28.100000 -30.900391 16.699092
28.000000 -31.014160 16.699092
28.100000 -29.877930 16.699092
28.100000 -29.241699 16.699092
28.200000 -28.980469 16.699092
28.300000 -27.844238 16.699092
28.500000 -27.458008 16.699092
28.700000 -26.821777 16.699092
28.800000 -26.685547 16.699092
28.900000 -25.549316 16.699092
28.800000 -25.413086 16.699092
28.400000 -23.381836 16.699092
28.000000 -22.748047 16.699092
27.800000 -21.864258 16.699092
27.700000 -20.605469 16.699092
27.600000 -20.221680 16.699092
27.700000 -20.212891 16.699092
27.800000 -18.579102 16.699092
28.000000 -18.695312 16.699092
28.300000 -31.511719 16.839441
28.100000 -30.750977 16.839441
28.000000 -29.865234 16.839441
28.100000 -29.104492 16.839441
28.200000 -28.343750 16.839441
28.300000 -28.333008 16.839441
28.500000 -27.572266 16.839441
28.700000 -26.561523 16.839441
28.800000 -25.925781 16.839441
28.900000 -26.040039 16.839441
28.900000 -25.529297 16.839441
28.600000 -23.372070 16.839441
28.000000 -22.611328 16.839441
27.700000 -21.475586 16.839441
27.600000 -20.589844 16.839441
27.600000 -20.829102 16.839441
27.700000 -19.693359 16.839441
27.800000 -19.682617 16.839441
28.000000 -18.296875 16.839441
28.200000 -18.538574 16.839441
28.600000 -17.655273 16.839441
28.900000 -32.175293 16.994981
28.400000 -31.041016 16.994981
28.100000 -30.781738 16.994981
28.000000 -30.397461 16.994981
28.100000 -30.013184 16.994981
28.200000 -28.753906 16.994981
28.300000 -28.244629 16.994981
28.500000 -27.360352 16.994981
28.700000 -27.226074 16.994981
28.800000 -26.216797 16.994981
28.900000 -25.957520 16.994981
29.000000 -24.698242 16.994981
28.600000 -22.795410 16.994981
28.000000 -22.036133 16.994981
27.700000 -21.651855 16.994981
27.600000 -21.517578 16.994981
27.600000 -21.008301 16.994981
27.700000 -19.374023 16.994981
27.800000 -19.739746 16.994981
28.000000 -18.105469 16.994981
28.200000 -17.596191 16.994981
28.600000 -17.586914 16.994981
28.300000 -30.444336 17.135101
28.100000 -30.181641 17.135101
28.100000 -30.043945 17.135101
28.200000 -28.781250 17.135101
28.300000 -28.270508 17.135101
28.500000 -27.259766 17.135101
28.600000 -27.124023 17.135101
28.800000 -25.988281 17.135101
28.900000 -26.352539 17.135101
28.900000 -25.591797 17.135101
28.500000 -22.934570 17.135101
28.000000 -22.673828 17.135101
27.700000 -22.163086 17.135101
27.600000 -21.277344 17.135101
27.600000 -21.016602 17.135101
27.700000 -20.005859 17.135101
27.800000 -19.495117 17.135101
27.900000 -18.234375 17.135101
28.200000 -17.723633 17.135101
28.600000 -18.087891 17.135101
10.500000 -40.785156 17.273629
10.500000 -40.148438 17.273629
10.500000 -39.511719 17.273629
10.400000 -38.875000 17.273629
10.300000 -34.417969 17.273629
10.300000 -33.144531 17.273629
10.300000 -32.507812 17.273629
10.300000 -31.871094 17.273629
10.300000 -31.234375 17.273629
28.900000 -32.574219 17.273629
28.700000 -31.312500 17.273629
28.300000 -30.300781 17.273629
28.100000 -30.289062 17.273629
28.200000 -29.902344 17.273629
28.200000 -29.140625 17.273629
28.300000 -27.878906 17.273629
28.500000 -27.242188 17.273629
28.700000 -27.355469 17.273629
28.800000 -26.343750 17.273629
29.000000 -25.957031 17.273629
29.000000 -25.445312 17.273629
29.000000 -24.558594 17.273629
29.200000 -24.171875 17.273629
27.900000 -22.527344 17.273629
27.700000 -21.267578 17.273629
27.600000 -21.257812 17.273629
27.600000 -20.248047 17.273629
27.700000 -19.738281 17.273629
27.800000 -19.603516 17.273629
28.000000 -18.843750 17.273629
28.200000 -18.458984 17.273629
28.700000 -17.824219 17.273629
27.000000 -44.981934 17.429851
28.900000 -32.538574 17.429851
28.800000 -31.654297 17.429851
28.400000 -30.395020 17.429851
28.100000 -29.760742 17.429851
28.100000 -29.251465 17.429851
28.200000 -28.992188 17.429851
28.300000 -27.732910 17.429851
28.400000 -27.723633 17.429851
28.600000 -27.589355 17.429851
28.800000 -26.830078 17.429851
28.900000 -25.320801 17.429851
29.000000 -25.436523 17.429851
28.900000 -24.552246 17.429851
29.100000 -23.667969 17.429851
28.000000 -22.774414 17.429851
27.700000 -21.140137 17.429851
27.600000 -21.380859 17.429851
27.600000 -20.371582 17.429851
27.600000 -19.362305 17.429851
27.800000 -19.478027 17.429851
27.900000 -19.093750 17.429851
28.200000 -17.710938 17.429851
28.600000 -17.078125 17.429851
28.200000 -30.443359 17.569997
28.200000 -29.561523 17.569997
28.200000 -28.929688 17.569997
28.300000 -28.422852 17.569997
28.400000 -28.291016 17.569997
28.500000 -27.659180 17.569997
28.700000 -26.527344 17.569997
28.800000 -26.395508 17.569997
28.900000 -25.138672 17.569997
28.900000 -24.881836 17.569997
29.100000 -24.000000 17.569997
28.000000 -22.986328 17.569997
27.800000 -22.354492 17.569997
27.700000 -21.472656 17.569997
27.600000 -20.590820 17.569997
27.600000 -19.708984 17.569997
27.700000 -19.702148 17.569997
27.800000 -19.195312 17.569997
28.000000 -18.438477 17.569997
28.400000 -18.306641 17.569997
28.400000 -30.455078 17.724576
28.200000 -29.821289 17.724576
28.200000 -29.312500 17.724576
28.200000 -28.305176 17.724576
28.300000 -28.047852 17.724576
28.500000 -27.165527 17.724576
28.700000 -26.408203 17.724576
28.800000 -26.275879 17.724576
28.900000 -25.643555 17.724576
28.900000 -25.136230 17.724576
29.100000 -23.878906 17.724576
28.800000 -23.996582 17.724576
28.100000 -22.614258 17.724576
27.800000 -21.606934 17.724576
27.700000 -21.349609 17.724576
27.600000 -20.717285 17.724576
27.600000 -20.709961 17.724576
27.700000 -19.827637 17.724576
27.800000 -18.820312 17.724576
28.000000 -17.937988 17.724576
27.000000 -44.970703 17.865740
29.200000 -32.103516 17.865740
28.700000 -30.967285 17.865740
28.400000 -29.956055 17.865740
28.200000 -30.319824 17.865740
28.200000 -29.183594 17.865740
28.200000 -28.797363 17.865740
28.300000 -28.411133 17.865740
28.500000 -27.524902 17.865740
28.600000 -26.388672 17.865740
28.800000 -26.127441 17.865740
28.900000 -25.491211 17.865740
28.900000 -24.979980 17.865740
29.000000 -24.468750 17.865740
28.000000 -23.200195 17.865740
27.700000 -21.690918 17.865740
27.600000 -21.806641 17.865740
27.600000 -20.297363 17.865740
27.600000 -20.163086 17.865740
27.700000 -20.028809 17.865740
27.800000 -18.519531 17.865740
28.000000 -17.885254 17.865740
28.400000 -18.000977 17.865740
29.000000 -31.320312 18.006285
28.400000 -30.935547 18.006285
28.200000 -30.675781 18.006285
28.200000 -29.041016 18.006285
28.200000 -29.406250 18.006285
28.300000 -27.771484 18.006285
28.400000 -27.511719 18.006285
28.500000 -27.001953 18.006285
28.700000 -26.742188 18.006285
28.800000 -26.107422 18.006285
28.900000 -24.972656 18.006285
29.000000 -24.837891 18.006285
28.900000 -24.328125 18.006285
28.300000 -23.443359 18.006285
27.800000 -22.308594 18.006285
27.600000 -22.298828 18.006285
27.600000 -21.664062 18.006285
27.600000 -20.779297 18.006285
27.600000 -20.269531 18.006285
27.800000 -19.634766 18.006285
27.900000 -18.750000 18.006285
28.800000 -31.498047 18.159556
28.400000 -30.864746 18.159556
28.200000 -30.106445 18.159556
28.100000 -29.723145 18.159556
28.200000 -29.214844 18.159556
28.200000 -28.456543 18.159556
28.400000 -27.823242 18.159556
28.600000 -27.064941 18.159556
28.700000 -26.306641 18.159556
28.800000 -25.798340 18.159556
28.900000 -25.040039 18.159556
28.900000 -24.531738 18.159556
28.600000 -23.523438 18.159556
28.000000 -22.765137 18.159556
27.700000 -22.131836 18.159556
27.600000 -21.998535 18.159556
27.600000 -20.490234 18.159556
27.600000 -20.481934 18.159556
27.700000 -19.598633 18.159556
27.800000 -19.715332 18.159556
28.000000 -18.957031 18.159556
29.000000 -31.926270 18.302360
28.500000 -31.166016 18.302360
28.200000 -30.530762 18.302360
28.200000 -29.020508 18.302360
28.200000 -28.885254 18.302360
28.200000 -28.125000 18.302360
28.300000 -27.240234 18.302360
28.500000 -27.480469 18.302360
28.700000 -26.595703 18.302360
28.700000 -25.835938 18.302360
28.800000 -25.201172 18.302360
29.000000 -25.066406 18.302360
28.800000 -23.681641 18.302360
28.200000 -23.171875 18.302360
27.800000 -21.912109 18.302360
27.600000 -22.402344 18.302360
27.600000 -20.767578 18.302360
27.500000 -20.882812 18.302360
27.600000 -20.498047 18.302360
27.700000 -19.863281 18.302360
27.900000 -18.478516 18.302360
28.100000 -18.218750 18.302360
28.500000 -17.958984 18.302360
28.600000 -30.805664 18.440741
28.300000 -30.667969 18.440741
28.200000 -29.530273 18.440741
28.200000 -29.142578 18.440741
28.200000 -29.004883 18.440741
28.200000 -28.367188 18.440741
28.300000 -27.104492 18.440741
28.500000 -26.841797 18.440741
28.600000 -25.704102 18.440741
28.700000 -25.941406 18.440741
28.900000 -25.303711 18.440741
28.800000 -24.791016 18.440741
28.300000 -22.903320 18.440741
27.800000 -22.140625 18.440741
27.600000 -22.005859 18.440741
27.600000 -21.496094 18.440741
27.600000 -20.736328 18.440741
27.600000 -19.726562 18.440741
27.600000 -19.341797 18.440741
27.800000 -18.582031 18.440741
28.000000 -18.447266 18.440741
28.400000 -18.437500 18.440741
28.600000 -31.443848 18.595583
28.300000 -31.181641 18.595583
28.200000 -29.919434 18.595583
28.100000 -29.282227 18.595583
28.200000 -29.020020 18.595583
28.200000 -28.257812 18.595583
28.400000 -27.745605 18.595583
28.500000 -26.608398 18.595583
28.600000 -26.846191 18.595583
28.800000 -26.083984 18.595583
28.900000 -25.446777 18.595583
28.800000 -24.184570 18.595583
28.300000 -23.422363 18.595583
27.800000 -22.535156 18.595583
27.600000 -22.022949 18.595583
27.500000 -21.760742 18.595583
27.600000 -20.748535 18.595583
27.600000 -19.861328 18.595583
27.600000 -19.474121 18.595583
27.800000 -18.836914 18.595583
27.900000 -18.324707 18.595583
28.600000 -31.562988 18.735038
28.300000 -30.927734 18.735038
28.200000 -30.167480 18.735038
28.100000 -29.282227 18.735038
28.100000 -28.646973 18.735038
28.200000 -28.386719 18.735038
28.400000 -27.126465 18.735038
28.500000 -26.741211 18.735038
28.600000 -26.230957 18.735038
28.700000 -26.095703 18.735038
28.900000 -24.710449 18.735038
28.800000 -24.575195 18.735038
28.300000 -23.689941 18.735038
27.800000 -23.054688 18.735038
27.500000 -22.544434 18.735038
27.500000 -22.034180 18.735038
27.500000 -20.398926 18.735038
27.600000 -20.638672 18.735038
27.600000 -20.253418 18.735038
27.800000 -19.493164 18.735038
27.900000 -18.482910 18.735038
14.500000 -35.773438 18.890092
14.400000 -32.602051 18.890092
14.300000 -31.967773 18.890092
14.200000 -31.333496 18.890092
28.700000 -26.330078 18.890092
28.800000 -24.693848 18.890092
28.800000 -24.307617 18.890092
28.300000 -24.171387 18.890092
27.800000 -22.660156 18.890092
27.600000 -22.648926 18.890092
27.500000 -21.387695 18.890092
27.500000 -21.001465 18.890092
27.600000 -20.740234 18.890092
27.600000 -19.479004 18.890092
27.700000 -19.217773 18.890092
27.900000 -18.831543 18.890092
28.800000 -31.883301 19.030150
28.500000 -30.998047 19.030150
28.300000 -29.737793 19.030150
28.200000 -28.977539 19.030150
28.200000 -28.967285 19.030150
28.200000 -27.957031 19.030150
28.300000 -27.946777 19.030150
28.500000 -27.436523 19.030150
28.600000 -26.926270 19.030150
28.700000 -25.916016 19.030150
28.800000 -25.530762 19.030150
28.800000 -24.770508 19.030150
28.300000 -23.135254 19.030150
27.800000 -22.625000 19.030150
27.600000 -22.742676 19.030150
27.500000 -21.860352 19.030150
27.500000 -21.103027 19.030150
27.500000 -20.220703 19.030150
27.600000 -19.713379 19.030150
27.700000 -18.831055 19.030150
27.900000 -19.198730 19.030150
28.600000 -30.918945 19.170893
28.400000 -30.410156 19.170893
28.200000 -30.276367 19.170893
28.200000 -28.642578 19.170893
28.200000 -29.008789 19.170893
28.300000 -28.000000 19.170893
28.400000 -26.991211 19.170893
28.500000 -26.982422 19.170893
28.600000 -25.973633 19.170893
28.700000 -25.714844 19.170893
28.800000 -24.831055 19.170893
28.500000 -24.197266 19.170893
28.000000 -23.688477 19.170893
27.600000 -22.304688 19.170893
27.500000 -21.420898 19.170893
27.500000 -21.662109 19.170893
27.600000 -20.528320 19.170893
27.500000 -20.019531 19.170893
27.700000 -18.885742 19.170893
27.800000 -19.376953 19.170893
28.000000 -18.743164 19.170893
28.400000 -18.109375 19.170893
28.800000 -31.183594 19.311849
28.400000 -30.798828 19.311849
28.200000 -29.539062 19.311849
28.200000 -29.404297 19.311849
28.200000 -29.019531 19.311849
28.200000 -27.509766 19.311849
28.300000 -27.125000 19.311849
28.500000 -26.990234 19.311849
28.600000 -25.730469 19.311849
28.600000 -25.720703 19.311849
28.700000 -24.585938 19.311849
28.600000 -24.701172 19.311849
28.100000 -23.941406 19.311849
27.700000 -23.181641 19.311849
27.500000 -21.796875 19.311849
27.400000 -21.787109 19.311849
27.500000 -21.277344 19.311849
27.600000 -20.017578 19.311849
27.600000 -20.007812 19.311849
27.800000 -19.248047 19.311849
28.000000 -18.113281 19.311849
28.300000 -18.478516 19.311849
27.000000 -44.821289 19.465919
28.800000 -31.312988 19.465919
28.400000 -30.551758 19.465919
28.200000 -30.290527 19.465919
28.200000 -29.279297 19.465919
28.200000 -28.393066 19.465919
28.300000 -27.506836 19.465919
28.400000 -27.120605 19.465919
28.500000 -26.484375 19.465919
28.600000 -26.476074 19.465919
28.600000 -25.217773 19.465919
28.600000 -25.334473 19.465919
28.500000 -24.451172 19.465919
28.100000 -23.817871 19.465919
27.700000 -22.684570 19.465919
27.400000 -21.926270 19.465919
27.300000 -20.917969 19.465919
27.400000 -21.159668 19.465919
27.500000 -20.276367 19.465919
27.600000 -19.143066 19.465919
27.800000 -18.509766 19.465919
28.000000 -18.501465 19.465919
28.300000 -17.743164 19.465919
27.300000 -44.883789 19.608436
28.400000 -30.233398 19.608436
28.300000 -30.096191 19.608436
28.200000 -29.333984 19.608436
28.200000 -28.821777 19.608436
28.300000 -27.809570 19.608436
28.400000 -27.422363 19.608436
28.500000 -26.910156 19.608436
28.600000 -25.397949 19.608436
28.600000 -25.260742 19.608436
28.600000 -24.748535 19.608436
28.400000 -24.361328 19.608436
27.900000 -23.099121 19.608436
27.400000 -21.711914 19.608436
27.200000 -21.949707 19.608436
27.300000 -20.562500 19.608436
27.500000 -20.181641 19.608436
27.600000 -20.050781 19.608436
27.700000 -18.919922 19.608436
27.900000 -19.039062 19.608436
28.900000 -31.816406 19.749858
28.600000 -31.057129 19.749858
28.400000 -30.172852 19.749858
28.200000 -29.663574 19.749858
28.200000 -28.404297 19.749858
28.300000 -28.395020 19.749858
28.400000 -27.385742 19.749858
28.400000 -27.001465 19.749858
28.500000 -26.242188 19.749858
28.600000 -26.107910 19.749858
28.600000 -25.348633 19.749858
28.600000 -24.589355 19.749858
28.200000 -23.455078 19.749858
27.500000 -22.445801 19.749858
27.200000 -22.561523 19.749858
27.400000 -20.783691 19.749858
27.600000 -20.149414 19.749858
27.800000 -18.765137 19.749858
28.000000 -18.880859 19.749858
28.300000 -18.121582 19.749858
29.000000 -30.996582 19.904210
28.600000 -30.484375 19.904210
28.400000 -29.599121 19.904210
28.300000 -29.713867 19.904210
28.200000 -28.328613 19.904210
28.200000 -27.943359 19.904210
28.300000 -27.308105 19.904210
28.400000 -27.297852 19.904210
28.500000 -26.787598 19.904210
28.500000 -26.027344 19.904210
28.500000 -24.642090 19.904210
28.600000 -24.131836 19.904210
27.100000 -22.601074 19.904210
27.400000 -20.195312 19.904210
27.600000 -19.310059 19.904210
27.700000 -19.549805 19.904210
27.900000 -18.539551 19.904210
28.200000 -18.279297 19.904210
29.100000 -31.298828 20.043101
28.700000 -30.786133 20.043101
28.500000 -29.898438 20.043101
28.300000 -29.135742 20.043101
28.200000 -28.498047 20.043101
28.200000 -27.860352 20.043101
28.200000 -27.972656 20.043101
28.400000 -27.209961 20.043101
28.500000 -26.447266 20.043101
28.500000 -25.934570 20.043101
28.500000 -25.046875 20.043101
28.500000 -24.411133 20.043101
28.300000 -23.150391 20.043101
26.900000 -22.753906 20.043101
27.200000 -20.085938 20.043101
27.700000 -19.700195 20.043101
27.900000 -18.939453 20.043101
28.200000 -18.178711 20.043101
