20.200000 -2.371582 7.338390
20.000000 -1.666992 7.338390
19.800000 -0.962402 7.338390
20.200000 -3.504883 7.465693
20.200000 -3.673828 7.465693
20.400000 -0.680664 7.465693
20.300000 -4.111328 7.590630
20.200000 -3.403320 7.590630
20.200000 -2.695312 7.590630
20.200000 -1.987305 7.590630
20.200000 -1.279297 7.590630
20.400000 -4.654297 7.730751
20.200000 -3.945312 7.730751
20.100000 -3.861328 7.730751
20.200000 -2.527344 7.730751
20.200000 -1.818359 7.730751
20.300000 -1.109375 7.730751
20.200000 -3.882812 7.854622
20.100000 -3.175781 7.854622
20.200000 -2.468750 7.854622
20.200000 -1.761719 7.854622
20.300000 -0.804688 7.854622
20.200000 -3.609375 7.979615
20.200000 -2.904297 7.979615
20.200000 -2.199219 7.979615
20.300000 -4.111328 8.117882
20.200000 -3.402344 8.117882
20.200000 -2.693359 8.117882
20.200000 -1.984375 8.117882
20.400000 -5.298828 8.243441
20.200000 -3.967773 8.243441
20.100000 -3.261719 8.243441
20.200000 -2.555664 8.243441
20.200000 -1.849609 8.243441
20.200000 -1.143555 8.243441
20.200000 -3.961426 8.368979
20.100000 -3.004883 8.368979
20.200000 -2.298340 8.368979
20.200000 -1.591797 8.368979
20.300000 -0.885254 8.368979
20.200000 -4.048828 8.495567
20.200000 -3.340820 8.495567
20.200000 -2.632812 8.495567
20.200000 -1.924805 8.495567
20.200000 -1.216797 8.495567
20.200000 -3.605469 8.631993
20.200000 -2.897461 8.631993
20.200000 -2.189453 8.631993
20.200000 -3.912598 8.770795
20.100000 -3.208008 8.770795
20.200000 -2.503418 8.770795
20.200000 -2.673828 8.770795
20.200000 -1.094238 8.770795
20.300000 -2.695312 8.895753
20.200000 -1.988770 8.895753
20.200000 -3.603516 9.020616
20.200000 -2.895996 9.020616
20.200000 -2.188477 9.020616
20.200000 -4.007324 9.161385
20.100000 -3.799805 9.161385
20.200000 -2.592285 9.161385
20.200000 -1.884766 9.161385
20.200000 -2.177246 9.161385
20.300000 -3.825195 9.286613
20.100000 -3.117188 9.286613
20.200000 -3.284180 9.286613
20.200000 -1.701172 9.286613
20.300000 -1.868164 9.286613
20.300000 -3.741211 9.413479
20.100000 -3.033203 9.413479
20.200000 -2.325195 9.413479
20.200000 -2.492188 9.413479
20.400000 -0.909180 9.413479
20.300000 -3.755371 9.551867
20.200000 -3.048828 9.551867
20.200000 -2.342285 9.551867
20.200000 -1.635742 9.551867
20.400000 -1.804199 9.551867
20.300000 -3.592773 9.677555
20.200000 -3.388672 9.677555
20.200000 -2.184570 9.677555
20.300000 -4.463867 9.816739
20.200000 -3.505371 9.816739
20.200000 -3.421875 9.816739
20.200000 -2.466797 9.816739
20.200000 -1.261719 9.816739
20.300000 -3.769531 9.941894
20.200000 -3.061523 9.941894
20.200000 -2.353516 9.941894
20.200000 -1.645508 9.941894
20.300000 -1.937500 9.941894
20.200000 -3.545898 10.066840
20.200000 -2.840332 10.066840
20.200000 -2.134766 10.066840
20.200000 -3.836426 10.191656
20.100000 -3.878906 10.191656
20.200000 -2.421387 10.191656
20.200000 -2.213867 10.191656
20.300000 -1.006348 10.191656
20.100000 -4.240234 10.322661
20.200000 -3.528809 10.322661
20.200000 -3.692383 10.322661
20.200000 -2.605957 10.322661
20.400000 -4.737793 10.458571
20.200000 -4.030273 10.458571
20.100000 -3.322754 10.458571
20.200000 -2.615234 10.458571
20.200000 -2.782715 10.458571
20.200000 -1.200195 10.458571
20.300000 -4.062500 10.596790
20.200000 -3.356445 10.596790
20.200000 -2.650391 10.596790
20.200000 -1.944336 10.596790
20.200000 -1.238281 10.596790
20.400000 -4.649414 10.722847
20.200000 -3.943359 10.722847
20.200000 -3.237305 10.722847
20.200000 -3.281250 10.722847
20.200000 -2.700195 10.722847
20.300000 -1.119141 10.722847
20.400000 -4.316895 10.848529
20.300000 -3.861328 10.848529
20.200000 -4.030762 10.848529
20.200000 -2.450195 10.848529
20.200000 -2.494629 10.848529
20.300000 -1.039062 10.848529
20.200000 -3.750977 10.988422
20.200000 -3.296387 10.988422
20.200000 -2.341797 10.988422
20.200000 -1.637207 10.988422
20.300000 -0.932617 10.988422
20.300000 -4.884277 11.113845
20.200000 -3.425781 11.113845
20.200000 -2.717285 11.113845
20.200000 -2.508789 11.113845
20.200000 -1.300293 11.113845
20.100000 -4.263672 11.252364
20.200000 -3.556152 11.252364
20.200000 -2.848633 11.252364
20.200000 -2.141113 11.252364
20.200000 -3.777344 11.377911
20.200000 -3.072266 11.377911
20.200000 -2.367188 11.377911
20.200000 -1.662109 11.377911
20.300000 -0.957031 11.377911
20.300000 -4.100098 11.505078
20.200000 -3.390625 11.505078
20.200000 -2.436035 11.505078
20.200000 -1.981445 11.505078
20.400000 -4.541016 11.643875
20.200000 -3.831543 11.643875
20.200000 -3.747070 11.643875
20.200000 -2.412598 11.643875
20.200000 -1.703125 11.643875
20.300000 -0.999023 11.643875
20.300000 -3.920898 11.767680
20.100000 -3.214844 11.767680
20.200000 -2.508789 11.767680
20.200000 -1.802734 11.767680
20.300000 -1.471680 11.767680
20.200000 -3.864258 11.892834
20.200000 -3.158203 11.892834
20.200000 -2.452148 11.892834
20.200000 -1.746094 11.892834
20.300000 -1.040039 11.892834
20.300000 -3.697754 12.019556
20.200000 -2.988281 12.019556
20.200000 -2.278809 12.019556
20.200000 -2.319336 12.019556
20.300000 -0.859863 12.019556
20.200000 -3.543945 12.158803
20.200000 -2.833984 12.158803
20.200000 -2.999023 12.158803
20.100000 -3.310059 12.285663
20.200000 -2.603516 12.285663
20.200000 -1.896973 12.285663
20.200000 -1.190430 12.285663
20.400000 -0.483887 12.285663
20.200000 -3.765625 12.409822
20.100000 -3.059570 12.409822
20.200000 -2.353516 12.409822
20.200000 -1.647461 12.409822
20.300000 -0.941406 12.409822
20.300000 -3.530273 12.549716
20.200000 -2.573730 12.549716
20.200000 -2.117188 12.549716
20.200000 -1.410645 12.549716
20.400000 -0.829102 12.549716
20.200000 -3.827148 12.674822
20.100000 -3.121094 12.674822
20.200000 -2.415039 12.674822
20.200000 -1.708984 12.674822
20.300000 -1.002930 12.674822
20.400000 -4.789062 12.813871
20.200000 -4.331055 12.813871
20.200000 -2.748047 12.813871
20.200000 -2.040039 12.813871
20.400000 -4.611328 12.937989
20.200000 -4.402344 12.937989
20.100000 -3.193359 12.937989
20.200000 -2.484375 12.937989
20.200000 -1.775391 12.937989
20.200000 -1.566406 12.937989
20.700000 -5.130371 13.076367
20.200000 -2.967285 13.076367
20.100000 -2.260742 13.076367
20.400000 -4.122070 13.201811
20.200000 -3.416016 13.201811
20.200000 -2.709961 13.201811
20.200000 -2.003906 13.201811
20.200000 -3.755859 13.327832
20.100000 -3.796875 13.327832
20.200000 -2.342285 13.327832
20.200000 -1.637695 13.327832
20.300000 -1.183105 13.327832
20.400000 -5.896973 13.468809
20.300000 -4.189453 13.468809
20.200000 -3.481934 13.468809
20.200000 -2.774414 13.468809
20.200000 -2.066895 13.468809
20.200000 -4.027344 13.580707
20.100000 -3.572266 13.580707
20.200000 -2.617188 13.580707
20.200000 -2.662109 13.580707
20.200000 -1.207031 13.580707
20.400000 -4.700195 13.719711
20.200000 -3.992188 13.719711
20.100000 -3.284180 13.719711
20.200000 -2.576172 13.719711
20.200000 -2.243164 13.719711
20.200000 -1.160156 13.719711
20.200000 -3.916992 13.845953
20.100000 -3.206543 13.845953
20.200000 -2.496094 13.845953
20.200000 -1.785645 13.845953
20.200000 -1.075195 13.845953
20.200000 -3.765625 13.985889
20.100000 -3.058594 13.985889
20.200000 -2.351562 13.985889
20.200000 -1.644531 13.985889
20.300000 -0.937500 13.985889
26.800000 -0.027344 13.985889
20.400000 -4.098145 14.111514
20.200000 -3.391602 14.111514
20.200000 -2.685059 14.111514
20.200000 -1.978516 14.111514
20.200000 -1.271973 14.111514
20.300000 -4.011230 14.238125
20.200000 -3.054688 14.238125
20.200000 -2.098145 14.238125
20.200000 -1.641602 14.238125
20.300000 -0.935059 14.238125
20.200000 -4.236816 14.377749
20.200000 -2.905273 14.377749
20.200000 -2.198730 14.377749
20.200000 -1.492188 14.377749
20.000000 -1.535645 14.377749
20.400000 -4.210938 14.503048
20.200000 -4.378906 14.503048
20.200000 -2.796875 14.503048
20.200000 -2.589844 14.503048
20.200000 -1.382812 14.503048
20.100000 -0.675781 14.503048
20.300000 -4.566406 14.628658
20.200000 -3.232910 14.628658
20.200000 -3.274414 14.628658
20.200000 -1.815918 14.628658
20.200000 -1.107422 14.628658
20.200000 -3.705078 14.766838
20.200000 -2.997070 14.766838
20.200000 -2.289062 14.766838
20.200000 -1.581055 14.766838
20.000000 -0.873047 14.766838
20.200000 -3.927246 14.891746
20.200000 -3.345703 14.891746
20.200000 -2.514160 14.891746
20.200000 -2.182617 14.891746
20.200000 -1.101074 14.891746
20.200000 -3.513672 15.021781
20.200000 -2.808594 15.021781
20.200000 -2.103516 15.021781
20.200000 -1.398438 15.021781
20.200000 -3.836914 15.158819
20.100000 -3.129395 15.158819
20.200000 -2.421875 15.158819
20.200000 -1.716309 15.158819
20.200000 -1.385742 15.158819
20.400000 -4.791992 15.283556
20.200000 -4.084473 15.283556
20.200000 -3.376953 15.283556
20.200000 -2.669434 15.283556
20.200000 -1.961914 15.283556
20.200000 -1.004395 15.283556
20.400000 -4.179688 15.410207
20.200000 -3.471680 15.410207
20.100000 -2.763672 15.410207
20.200000 -2.930664 15.410207
20.200000 -1.347656 15.410207
20.300000 -4.531250 15.548813
20.200000 -3.070312 15.548813
20.200000 -2.359375 15.548813
20.200000 -2.273438 15.548813
20.100000 -0.937500 15.548813
20.200000 -3.580078 15.675630
20.200000 -2.871582 15.675630
20.200000 -2.163086 15.675630
20.200000 -1.454590 15.675630
19.500000 -0.037598 15.675630
20.800000 -9.839844 15.800756
20.400000 -4.183594 15.800756
20.200000 -3.476562 15.800756
20.100000 -2.769531 15.800756
20.200000 -2.062500 15.800756
20.200000 -1.355469 15.800756
13.300000 -29.944336 15.940665
13.400000 -29.238770 15.940665
13.500000 -28.533203 15.940665
20.300000 -4.542969 16.066813
20.200000 -3.085938 16.066813
20.200000 -2.378906 16.066813
20.200000 -1.671875 16.066813
20.200000 -0.964844 16.066813
20.100000 -4.268555 16.193354
20.200000 -3.561035 16.193354
20.200000 -2.853516 16.193354
20.200000 -2.145996 16.193354
20.200000 -1.438477 16.193354
19.900000 -1.230957 16.193354
19.700000 -0.023438 16.193354
20.400000 -4.625488 16.332359
20.200000 -4.792969 16.332359
20.200000 -3.210449 16.332359
20.200000 -2.502930 16.332359
20.200000 -1.795410 16.332359
20.300000 -1.087891 16.332359
20.100000 -4.326660 16.456420
20.200000 -3.620117 16.456420
20.200000 -2.913574 16.456420
20.200000 -2.207031 16.456420
20.200000 -1.500488 16.456420
20.000000 -1.418945 16.456420
19.800000 -0.087402 16.456420
20.400000 -5.586914 16.594106
20.200000 -4.130371 16.594106
20.200000 -3.423828 16.594106
20.100000 -2.717285 16.594106
20.200000 -2.010742 16.594106
20.200000 -1.304199 16.594106
20.300000 -3.748535 16.718721
20.200000 -3.043945 16.718721
20.200000 -3.214355 16.718721
20.200000 -1.634766 16.718721
20.300000 -1.680176 16.718721
20.400000 -4.165039 16.858842
20.200000 -3.457520 16.858842
20.100000 -2.750000 16.858842
20.200000 -2.045410 16.858842
20.200000 -1.340820 16.858842
20.300000 -4.066406 16.985111
20.200000 -3.358398 16.985111
20.100000 -2.650391 16.985111
20.200000 -2.817383 16.985111
20.200000 -1.234375 16.985111
20.200000 -4.551758 17.108846
20.100000 -4.095215 17.108846
20.200000 -2.638672 17.108846
20.200000 -1.932129 17.108846
20.300000 -1.225586 17.108846
20.300000 -3.742188 17.235961
20.200000 -3.532227 17.235961
20.200000 -2.322266 17.235961
20.200000 -1.612305 17.235961
20.200000 -0.902344 17.235961
14.600000 -29.451172 17.376798
14.700000 -28.746094 17.376798
20.400000 -4.960938 17.501740
20.200000 -3.878906 17.501740
20.100000 -3.171875 17.501740
20.200000 -2.464844 17.501740
20.200000 -1.757812 17.501740
20.300000 -1.050781 17.501740
20.200000 -3.622070 17.627639
20.200000 -2.916016 17.627639
20.200000 -3.084961 17.627639
20.400000 -4.890137 17.765098
20.200000 -5.059570 17.765098
20.200000 -3.479004 17.765098
20.100000 -2.773438 17.765098
20.200000 -2.067871 17.765098
20.100000 -4.261719 17.890938
20.200000 -4.430664 17.890938
20.200000 -2.849609 17.890938
20.200000 -2.143555 17.890938
20.300000 -4.126953 18.029633
20.200000 -4.045898 18.029633
20.100000 -2.714844 18.029633
20.200000 -2.008789 18.029633
20.400000 -4.672363 18.155689
20.200000 -3.964844 18.155689
20.100000 -3.257324 18.155689
20.200000 -3.049805 18.155689
20.200000 -1.592285 18.155689
20.200000 -1.134766 18.155689
20.300000 -3.676758 18.283758
20.200000 -2.969238 18.283758
20.200000 -3.136719 18.283758
20.200000 -2.179199 18.283758
20.300000 -0.846680 18.283758
20.300000 -4.986816 18.411746
20.200000 -3.404297 18.411746
20.100000 -2.696777 18.411746
20.200000 -2.864258 18.411746
20.400000 -5.421875 18.548730
20.200000 -3.966797 18.548730
20.100000 -3.011719 18.548730
20.200000 -2.681641 18.548730
20.200000 -1.851562 18.548730
20.200000 -1.146484 18.548730
20.400000 -0.441406 18.548730
20.300000 -3.738770 18.675089
20.200000 -3.031250 18.675089
20.200000 -2.325195 18.675089
20.200000 -1.619141 18.675089
20.300000 -0.913086 18.675089
15.600000 -29.332031 18.812576
15.500000 -28.626465 18.812576
20.300000 -4.094727 18.937643
20.200000 -3.011230 18.937643
20.200000 -2.302734 18.937643
20.200000 -4.025879 19.066853
20.100000 -3.316406 19.066853
20.200000 -2.606934 19.066853
20.200000 -1.897461 19.066853
20.200000 -1.187988 19.066853
20.200000 -3.621582 19.190656
20.200000 -2.913086 19.190656
20.200000 -3.079590 19.190656
20.200000 -3.797852 19.329920
20.200000 -3.091309 19.329920
20.200000 -2.384766 19.329920
20.200000 -1.678223 19.329920
20.300000 -1.596680 19.329920
20.200000 -4.503906 19.457744
20.100000 -3.796875 19.457744
20.200000 -2.589844 19.457744
20.200000 -1.882812 19.457744
20.200000 -1.175781 19.457744
20.300000 -3.630371 19.584065
20.200000 -2.922852 19.584065
20.200000 -2.215332 19.584065
20.200000 -1.507812 19.584065
20.300000 -1.675293 19.584065
20.100000 -3.300293 19.722818
20.200000 -2.591797 19.722818
20.200000 -2.758301 19.722818
20.200000 -1.174805 19.722818
20.200000 -3.910156 19.848750
20.100000 -3.201660 19.848750
20.200000 -3.118164 19.848750
20.200000 -1.784668 19.848750
20.200000 -1.076172 19.848750
20.300000 -3.732422 19.977668
20.200000 -3.026367 19.977668
20.200000 -2.320312 19.977668
20.200000 -1.614258 19.977668
20.300000 -0.908203 19.977668
20.200000 -3.595703 20.115715
20.200000 -2.889160 20.115715
20.200000 -2.807617 20.115715
20.200000 -3.598145 20.380576
20.200000 -2.890625 20.380576
20.200000 -2.185059 20.380576
20.200000 -3.988281 20.506264
20.200000 -4.155273 20.506264
20.200000 -2.572266 20.506264
20.200000 -2.739258 20.506264
20.200000 -1.156250 20.506264
20.300000 -3.641602 20.632073
20.200000 -3.808105 20.632073
20.200000 -3.099609 20.632073
20.300000 -3.652832 20.758146
20.200000 -2.941406 20.758146
20.200000 -2.229980 20.758146
20.200000 -3.914062 20.898112
20.200000 -3.205078 20.898112
20.200000 -2.496094 20.898112
20.200000 -2.662109 20.898112
20.200000 -1.078125 20.898112
20.400000 -4.175293 21.024755
20.300000 -3.467773 21.024755
20.200000 -2.760254 21.024755
20.200000 -2.052734 21.024755
20.400000 -4.632812 21.150628
20.200000 -3.925781 21.150628
20.200000 -3.218750 21.150628
20.200000 -2.511719 21.150628
20.200000 -1.804688 21.150628
20.200000 -0.847656 21.150628
20.400000 -4.828125 21.287825
20.200000 -3.496094 21.287825
20.200000 -2.789062 21.287825
20.200000 -2.082031 21.287825
20.300000 -3.737305 21.412817
20.200000 -3.029785 21.412817
20.200000 -2.322266 21.412817
20.200000 -1.614746 21.412817
20.300000 -0.907227 21.412817
20.400000 -4.134766 21.800761
20.200000 -3.428711 21.800761
20.200000 -2.722656 21.800761
20.200000 -2.016602 21.800761
20.200000 -1.310547 21.800761
20.300000 -3.796875 21.938918
20.100000 -3.091797 21.938918
20.200000 -2.386719 21.938918
20.200000 -1.681641 21.938918
20.300000 -0.976562 21.938918
20.400000 -4.652344 22.065912
20.200000 -4.320312 22.065912
20.200000 -2.738281 22.065912
20.200000 -2.281250 22.065912
20.200000 -3.855957 22.191094
20.100000 -3.275391 22.191094
20.200000 -3.444824 22.191094
20.200000 -2.614258 22.191094
20.300000 -1.033691 22.191094
20.100000 -4.296875 22.329731
20.200000 -3.585938 22.329731
20.200000 -2.875000 22.329731
20.200000 -2.164062 22.329731
20.200000 -4.009766 22.454798
20.200000 -3.922852 22.454798
20.200000 -2.585938 22.454798
20.200000 -1.874023 22.454798
20.200000 -1.162109 22.454798
26.300000 -0.102539 22.454798
20.200000 -3.761719 22.579750
20.100000 -3.053711 22.579750
20.200000 -2.595703 22.579750
20.200000 -1.637695 22.579750
20.300000 -0.929688 22.579750
20.300000 -3.657227 22.719013
20.200000 -3.700684 22.719013
20.200000 -2.369141 22.719013
20.400000 -4.795898 22.844093
20.200000 -4.089355 22.844093
20.200000 -3.382812 22.844093
20.200000 -2.676270 22.844093
20.200000 -1.969727 22.844093
20.200000 -4.559082 22.983850
20.100000 -3.104492 22.983850
20.200000 -2.399902 22.983850
20.200000 -1.945312 22.983850
20.200000 -0.990723 22.983850
20.100000 -0.286133 22.983850
20.300000 -3.680664 23.109590
20.200000 -2.972656 23.109590
20.200000 -2.264648 23.109590
20.400000 -4.230469 23.234904
20.200000 -3.522949 23.234904
20.200000 -2.815430 23.234904
20.200000 -2.107910 23.234904
20.200000 -3.838867 23.373502
20.100000 -3.757324 23.373502
20.200000 -2.425781 23.373502
20.300000 -1.719238 23.373502
20.300000 -1.012695 23.373502
20.300000 -4.131836 23.498488
20.200000 -3.425781 23.498488
20.200000 -2.719727 23.498488
20.200000 -2.888672 23.498488
20.200000 -3.731934 23.638640
20.100000 -3.776367 23.638640
20.200000 -2.320801 23.638640
20.200000 -2.490234 23.638640
20.300000 -0.909668 23.638640
20.400000 -4.195312 23.768680
20.200000 -3.613281 23.768680
20.200000 -2.781250 23.768680
20.200000 -2.074219 23.768680
20.200000 -4.025391 23.888636
20.100000 -4.194824 23.888636
20.200000 -2.614258 23.888636
20.200000 -1.908691 23.888636
20.200000 -1.203125 23.888636
20.400000 -4.643555 24.012393
20.200000 -3.935547 24.012393
20.100000 -3.227539 24.012393
20.200000 -2.519531 24.012393
20.200000 -1.811523 24.012393
20.200000 -1.103516 24.012393
20.300000 -3.695312 24.153788
20.200000 -2.985352 24.153788
20.200000 -2.400391 24.153788
20.200000 -1.565430 24.153788
20.300000 -0.855469 24.153788
21.300000 -9.854980 24.279186
20.200000 -3.469727 24.279186
20.200000 -3.260254 24.279186
20.200000 -2.050781 24.279186
11.700000 -22.068848 24.404597
20.200000 -3.953613 24.404597
20.100000 -4.123047 24.404597
20.200000 -2.542480 24.404597
20.200000 -1.836914 24.404597
20.200000 -1.131348 24.404597
20.100000 -3.061523 24.542698
20.200000 -2.354004 24.542698
20.200000 -1.646484 24.542698
20.300000 -0.938965 24.542698
20.400000 -4.824219 24.669433
20.200000 -4.117188 24.669433
20.200000 -3.410156 24.669433
20.200000 -2.703125 24.669433
20.200000 -1.996094 24.669433
20.200000 -1.289062 24.669433
20.000000 -0.582031 24.669433
20.300000 -3.765625 24.809660
20.200000 -3.058594 24.809660
20.200000 -2.351562 24.809660
20.200000 -1.644531 24.809660
20.300000 -0.937500 24.809660
20.400000 -4.761719 24.935909
20.300000 -4.054199 24.935909
20.200000 -3.346680 24.935909
20.200000 -2.639160 24.935909
20.200000 -1.931641 24.935909
20.200000 -1.224121 24.935909
20.200000 -3.790527 25.063745
20.200000 -3.082031 25.063745
20.200000 -2.373535 25.063745
20.200000 -1.665039 25.063745
20.200000 -0.956543 25.063745
20.300000 -3.657227 25.193076
20.200000 -2.951172 25.193076
20.200000 -2.245117 25.193076
20.200000 -2.164062 25.193076
20.000000 -0.833008 25.193076
19.500000 -0.126953 25.193076
20.400000 -5.826172 25.329724
20.200000 -4.121094 25.329724
20.200000 -3.416016 25.329724
20.200000 -2.835938 25.329724
20.200000 -2.505859 25.329724
20.200000 -1.300781 25.329724
20.200000 -3.765625 25.457434
20.200000 -3.059082 25.457434
20.200000 -2.352539 25.457434
20.200000 -1.645996 25.457434
20.200000 -0.939453 25.457434
20.400000 -5.185547 25.596585
20.200000 -4.104004 25.596585
20.200000 -4.147461 25.596585
20.200000 -2.690918 25.596585
20.200000 -1.984375 25.596585
20.200000 -1.277832 25.596585
20.200000 -3.854980 25.706912
20.100000 -3.146484 25.706912
20.200000 -2.437988 25.706912
20.200000 -1.729492 25.706912
20.200000 -1.020996 25.706912
20.200000 -3.619141 25.846931
20.200000 -2.910156 25.846931
20.200000 -2.826172 25.846931
20.200000 -1.492188 25.846931
19.500000 -0.074219 25.846931
20.200000 -3.354004 25.971625
20.200000 -2.644531 25.971625
20.200000 -2.435059 25.971625
20.200000 -1.225586 25.971625
20.400000 -5.079102 26.111893
20.200000 -3.871094 26.111893
20.200000 -3.163086 26.111893
20.200000 -2.455078 26.111893
20.200000 -1.747070 26.111893
20.300000 -1.039062 26.111893
20.200000 -3.766602 26.237721
20.100000 -3.060059 26.237721
20.200000 -3.228516 26.237721
20.200000 -1.646973 26.237721
20.100000 -0.940430 26.237721
20.200000 -4.070312 26.361731
20.200000 -2.861816 26.361731
20.200000 -2.153320 26.361731
20.200000 -1.444824 26.361731
19.500000 -0.027832 26.361731
20.200000 -3.541016 26.502796
20.200000 -2.833008 26.502796
20.200000 -2.125000 26.502796
20.200000 -1.416992 26.502796
20.400000 -4.773438 26.627500
20.200000 -4.066406 26.627500
20.200000 -3.359375 26.627500
20.200000 -2.652344 26.627500
20.200000 -2.445312 26.627500
20.200000 -1.238281 26.627500
20.200000 -3.831055 26.765983
20.100000 -3.123047 26.765983
20.200000 -2.165039 26.765983
20.200000 -2.457031 26.765983
20.100000 -0.999023 26.765983
20.300000 -4.263672 26.890834
20.200000 -3.557617 26.890834
20.100000 -2.851562 26.890834
20.100000 -2.145508 26.890834
20.200000 -1.439453 26.890834
19.600000 -0.027344 26.890834
20.300000 -4.132812 27.017623
20.200000 -3.427734 27.017623
20.200000 -2.722656 27.017623
20.200000 -2.892578 27.017623
20.200000 -1.312500 27.017623
20.200000 -3.823242 27.156895
20.100000 -3.117676 27.156895
20.200000 -2.412109 27.156895
20.200000 -1.706543 27.156895
20.100000 -1.000977 27.156895
21.700000 -11.207031 27.282728
20.200000 -3.593750 27.282728
20.100000 -3.762695 27.282728
20.200000 -3.056641 27.282728
20.200000 -1.475586 27.282728
20.100000 -0.769531 27.282728
19.700000 -0.063477 27.282728
20.400000 -4.644531 27.423745
20.200000 -3.936523 27.423745
20.200000 -4.103516 27.423745
20.200000 -2.520508 27.423745
20.200000 -1.812500 27.423745
20.300000 -1.106934 27.423745
20.100000 -4.791016 27.534063
20.200000 -3.581055 27.534063
20.100000 -3.871094 27.534063
20.200000 -2.161133 27.534063
20.200000 -1.451172 27.534063
19.900000 -0.741211 27.534063
19.500000 -0.031250 27.534063
20.400000 -4.610352 27.674699
20.200000 -4.523438 27.674699
20.100000 -3.186523 27.674699
20.200000 -2.474609 27.674699
20.200000 -1.762695 27.674699
20.300000 -1.050781 27.674699
20.200000 -3.803711 27.799197
20.100000 -3.095215 27.799197
20.100000 -2.636719 27.799197
20.100000 -2.553223 27.799197
20.300000 -0.969727 27.799197
20.200000 -4.224609 27.926822
20.100000 -3.017090 27.926822
20.100000 -2.309570 27.926822
20.100000 -1.602051 27.926822
20.300000 -0.894531 27.926822
20.200000 -3.570312 28.066983
20.100000 -2.863281 28.066983
20.200000 -2.156250 28.066983
20.200000 -1.449219 28.066983
20.200000 -1.617188 28.066983
20.200000 -3.988281 28.192427
20.100000 -3.031250 28.192427
20.200000 -2.574219 28.192427
20.200000 -1.867188 28.192427
20.200000 -1.160156 28.192427
20.200000 -3.643066 28.331639
20.100000 -3.436523 28.331639
20.200000 -2.229980 28.331639
20.200000 -1.523438 28.331639
20.400000 -0.816895 28.331639
20.400000 -4.739258 28.455848
20.200000 -4.033203 28.455848
20.200000 -3.327148 28.455848
20.200000 -2.621094 28.455848
20.200000 -2.665039 28.455848
20.200000 -1.583984 28.455848
20.200000 -3.601562 28.583927
20.100000 -2.893555 28.583927
20.200000 -2.185547 28.583927
13.600000 -20.583496 28.722661
20.100000 -2.458496 28.722661
20.100000 -1.753906 28.722661
20.300000 -1.049316 28.722661
20.200000 -3.602051 28.847641
20.100000 -3.646484 28.847641
20.200000 -2.190918 28.847641
20.200000 -1.485352 28.847641
20.300000 -0.779785 28.847641
20.100000 -3.322754 28.987777
20.200000 -2.614258 28.987777
20.200000 -2.280762 28.987777
20.200000 -1.197266 28.987777
20.200000 -4.117188 29.113984
20.100000 -3.160156 29.113984
20.200000 -3.328125 29.113984
20.200000 -1.744629 29.113984
20.300000 -1.911133 29.113984
20.200000 -4.005859 29.240450
20.100000 -3.047363 29.240450
20.100000 -2.338867 29.240450
20.100000 -4.303223 29.364476
20.200000 -3.594727 29.364476
20.100000 -2.886230 29.364476
20.200000 -3.052734 29.364476
20.400000 -4.617188 29.503056
20.200000 -3.910156 29.503056
20.100000 -3.203125 29.503056
20.200000 -2.496094 29.503056
20.200000 -1.789062 29.503056
20.300000 -1.082031 29.503056
20.100000 -3.324219 29.629776
20.200000 -3.117188 29.629776
20.200000 -1.910156 29.629776
20.200000 -3.592773 29.756280
20.200000 -2.885254 29.756280
20.200000 -2.177734 29.756280
20.200000 -3.887207 29.882644
20.200000 -3.179688 29.882644
20.200000 -2.472168 29.882644
20.200000 -1.764648 29.882644
20.300000 -1.057129 29.882644
20.200000 -3.571289 30.020641
20.200000 -2.865234 30.020641
20.200000 -2.159180 30.020641
20.400000 -4.658203 30.146656
20.200000 -3.452148 30.146656
20.200000 -2.746094 30.146656
20.400000 -4.696777 30.283085
20.200000 -3.988281 30.283085
20.200000 -3.779785 30.283085
20.200000 -2.571289 30.283085
20.200000 -1.862793 30.283085
20.200000 -1.154297 30.283085
20.400000 -4.623535 30.410630
20.200000 -4.041992 30.410630
20.100000 -3.210449 30.410630
20.200000 -2.503906 30.410630
20.200000 -1.797363 30.410630
20.200000 -1.090820 30.410630
20.300000 -4.535156 30.550634
20.200000 -2.954102 30.550634
20.200000 -3.123047 30.550634
20.200000 -3.979980 30.676190
20.100000 -3.272461 30.676190
20.200000 -2.564941 30.676190
20.200000 -1.857422 30.676190
20.200000 -1.149902 30.676190
20.300000 -3.691895 30.801876
20.200000 -2.984375 30.801876
20.100000 -2.276855 30.801876
20.300000 -4.128906 30.941734
20.200000 -4.170898 30.941734
20.200000 -2.712891 30.941734
20.200000 -2.004883 30.941734
20.200000 -1.296875 30.941734
20.200000 -3.704102 31.067580
20.200000 -2.995605 31.067580
20.200000 -2.287109 31.067580
20.100000 -1.578613 31.067580
20.300000 -0.870117 31.067580
20.300000 -4.802734 31.193547
20.200000 -3.343750 31.193547
20.200000 -2.634766 31.193547
20.200000 -1.925781 31.193547
20.200000 -1.216797 31.193547
20.200000 -3.662598 31.319901
20.100000 -2.956055 31.319901
20.100000 -2.749512 31.319901
20.200000 -3.999023 31.459715
20.200000 -4.166504 31.459715
20.200000 -3.333984 31.459715
20.200000 -2.376465 31.459715
20.200000 -1.168945 31.459715
20.000000 -4.325684 31.585448
20.300000 -2.908691 31.585448
20.200000 -2.575195 31.585448
20.200000 -1.491699 31.585448
20.300000 -4.055176 31.710800
20.200000 -3.846680 31.710800
20.200000 -2.638184 31.710800
20.200000 -2.304688 31.710800
20.200000 -1.221191 31.710800
20.200000 -3.978027 31.848041
20.200000 -3.271484 31.848041
20.200000 -2.314941 31.848041
20.200000 -1.858398 31.848041
20.200000 -1.151855 31.848041
20.200000 -3.882324 31.974609
20.200000 -3.174805 31.974609
20.200000 -3.342285 31.974609
20.100000 -1.759766 31.974609
20.300000 -1.052246 31.974609
20.300000 -3.569824 32.114155
20.200000 -3.113281 32.114155
20.200000 -2.406738 32.114155
20.200000 -1.700195 32.114155
20.300000 -0.993652 32.114155
20.300000 -3.706543 32.239334
20.200000 -3.000977 32.239334
20.200000 -2.545410 32.239334
20.200000 -4.082031 32.366835
20.200000 -2.875000 32.366835
20.200000 -2.417969 32.366835
20.400000 -4.614258 32.505440
20.200000 -3.906250 32.505440
20.200000 -3.199219 32.505440
20.200000 -2.492188 32.505440
20.200000 -1.785156 32.505440
20.300000 -1.953125 32.505440
20.100000 -4.251953 32.630745
20.200000 -3.542969 32.630745
20.200000 -2.833984 32.630745
20.200000 -2.125000 32.630745
20.300000 -3.844238 32.757494
20.200000 -3.134766 32.757494
20.200000 -2.425293 32.757494
20.200000 -1.715820 32.757494
20.300000 -1.006348 32.757494
20.300000 -4.093750 32.883850
20.200000 -3.382812 32.883850
20.200000 -2.671875 32.883850
20.200000 -1.960938 32.883850
20.300000 -4.559082 33.022880
20.200000 -3.850586 33.022880
20.200000 -3.142090 33.022880
20.200000 -2.433594 33.022880
20.200000 -1.725098 33.022880
20.200000 -3.765625 33.148050
20.200000 -3.683594 33.148050
20.200000 -2.101562 33.148050
20.200000 -1.644531 33.148050
20.300000 -0.937500 33.148050
20.200000 -4.002441 33.274558
20.200000 -3.293945 33.274558
20.200000 -2.585449 33.274558
20.200000 -1.876953 33.274558
20.200000 -1.168457 33.274558
20.300000 -3.684082 33.415546
20.200000 -2.976562 33.415546
20.200000 -2.769043 33.415546
20.300000 -1.561523 33.415546
20.300000 -1.729004 33.415546
20.200000 -4.011719 33.541122
20.200000 -3.305664 33.541122
20.200000 -2.599609 33.541122
20.200000 -1.893555 33.541122
20.200000 -1.187500 33.541122
20.100000 -4.228027 33.666905
20.300000 -4.147461 33.666905
20.200000 -3.691895 33.666905
20.200000 -2.111328 33.666905
20.200000 -4.363281 33.805990
20.200000 -3.156250 33.805990
20.200000 -3.324219 33.805990
20.200000 -1.742188 33.805990
20.300000 -1.035156 33.805990
20.100000 -4.287109 33.932634
20.200000 -3.581543 33.932634
20.200000 -2.875977 33.932634
20.200000 -2.170410 33.932634
20.300000 -4.070312 34.070769
20.200000 -3.363281 34.070769
20.200000 -2.656250 34.070769
20.200000 -2.949219 34.070769
20.200000 -3.765625 34.196607
20.100000 -3.057617 34.196607
20.200000 -2.349609 34.196607
20.200000 -1.641602 34.196607
20.300000 -0.933594 34.196607
20.300000 -3.639648 34.322972
20.200000 -2.929199 34.322972
20.200000 -2.218750 34.322972
20.200000 -1.510742 34.322972
20.300000 -0.802734 34.322972
20.100000 -6.287598 34.449662
20.200000 -5.704102 34.449662
20.300000 -4.245605 34.449662
20.300000 -3.787109 34.449662
20.200000 -2.828613 34.449662
20.200000 -2.870117 34.449662
20.400000 -5.250000 34.575912
20.200000 -4.041016 34.575912
20.200000 -3.332031 34.575912
20.200000 -2.623047 34.575912
20.200000 -1.914062 34.575912
20.200000 -1.455078 34.575912
20.200000 -3.738281 34.707932
20.100000 -3.031250 34.707932
20.200000 -2.324219 34.707932
20.200000 -1.617188 34.707932
20.300000 -0.910156 34.707932
20.200000 -4.056641 34.843888
20.200000 -3.350098 34.843888
20.200000 -3.643555 34.843888
20.200000 -1.937012 34.843888
20.200000 -3.829102 34.968877
20.100000 -3.122559 34.968877
20.200000 -2.416016 34.968877
20.200000 -1.709473 34.968877
20.300000 -1.002930 34.968877
20.300000 -4.208008 35.109036
20.200000 -3.500000 35.109036
20.200000 -2.791992 35.109036
20.200000 -2.083984 35.109036
20.200000 -3.758789 35.236659
20.100000 -3.052734 35.236659
20.200000 -2.846680 35.236659
20.200000 -1.640625 35.236659
20.300000 -0.934570 35.236659
20.400000 -4.748047 35.360477
20.200000 -4.042969 35.360477
20.200000 -3.337891 35.360477
20.200000 -2.632812 35.360477
20.200000 -1.927734 35.360477
20.200000 -1.972656 35.360477
20.200000 -3.765625 35.500042
20.100000 -3.058594 35.500042
20.200000 -2.351562 35.500042
20.200000 -1.644531 35.500042
20.300000 -0.937500 35.500042
20.400000 -4.935547 35.625566
20.300000 -4.103027 35.625566
20.200000 -4.020508 35.625566
20.200000 -2.687988 35.625566
20.200000 -2.730469 35.625566
20.200000 -1.272949 35.625566
20.200000 -3.750977 35.753969
20.100000 -3.042969 35.753969
20.200000 -2.334961 35.753969
20.200000 -1.626953 35.753969
20.000000 -0.918945 35.753969
20.400000 -4.677246 35.890557
20.200000 -3.968750 35.890557
20.100000 -3.261230 35.890557
20.200000 -2.553711 35.890557
20.200000 -1.846191 35.890557
20.200000 -1.138672 35.890557
20.200000 -3.606445 36.021054
20.200000 -3.271973 36.021054
20.200000 -2.187500 36.021054
20.200000 -1.479980 36.021054
19.900000 -0.772461 36.021054
19.500000 -0.064941 36.021054
20.300000 -4.060547 36.142505
20.200000 -3.976562 36.142505
20.200000 -3.392578 36.142505
20.200000 -2.808594 36.142505
20.200000 -1.599609 36.142505
20.400000 -5.437500 36.281641
20.200000 -3.980469 36.281641
20.100000 -3.273438 36.281641
20.200000 -2.566406 36.281641
20.200000 -1.859375 36.281641
20.200000 -1.402344 36.281641
20.200000 -3.829590 36.407610
20.100000 -3.996094 36.407610
20.200000 -2.412598 36.407610
20.200000 -1.704102 36.407610
20.200000 -1.495605 36.407610
20.200000 -3.621094 36.531911
20.200000 -2.914062 36.531911
20.200000 -2.207031 36.531911
20.200000 -1.500000 36.531911
19.900000 -1.542969 36.531911
19.500000 -0.085938 36.531911
20.400000 -4.598145 36.672545
20.300000 -4.641602 36.672545
20.200000 -3.185059 36.672545
20.200000 -2.478516 36.672545
20.200000 -1.771973 36.672545
20.200000 -1.065430 36.672545
20.200000 -3.515625 36.797655
20.200000 -2.806641 36.797655
20.200000 -2.097656 36.797655
20.200000 -1.388672 36.797655
20.400000 -4.660156 36.926697
20.200000 -3.952148 36.926697
20.200000 -3.244141 36.926697
20.200000 -2.536133 36.926697
20.200000 -1.828125 36.926697
20.200000 -1.370117 36.926697
20.200000 -3.790527 37.064021
20.100000 -3.083984 37.064021
20.200000 -2.377441 37.064021
20.200000 -1.670898 37.064021
20.100000 -0.964355 37.064021
20.200000 -4.046875 37.191666
20.200000 -3.339844 37.191666
20.200000 -2.632812 37.191666
20.200000 -1.925781 37.191666
20.200000 -1.218750 37.191666
20.000000 -4.295410 37.318168
20.200000 -3.588867 37.318168
20.200000 -3.632324 37.318168
20.200000 -2.175781 37.318168
20.200000 -1.469238 37.318168
19.900000 -0.762695 37.318168
19.600000 -0.056152 37.318168
20.200000 -3.908691 37.448887
20.100000 -3.201172 37.448887
20.200000 -2.493652 37.448887
20.200000 -1.786133 37.448887
20.300000 -1.078613 37.448887
20.300000 -4.109375 37.580310
20.200000 -3.403320 37.580310
20.200000 -2.697266 37.580310
20.200000 -1.991211 37.580310
20.200000 -1.285156 37.580310
20.100000 -4.267578 37.711148
20.200000 -3.558594 37.711148
20.200000 -3.724609 37.711148
20.200000 -2.140625 37.711148
20.200000 -1.433594 37.711148
19.900000 -0.726562 37.711148
19.600000 -0.019531 37.711148
27.500000 -0.066406 37.711148
20.200000 -3.779297 37.833702
20.100000 -3.070312 37.833702
20.200000 -2.361328 37.833702
20.200000 -1.652344 37.833702
20.200000 -0.943359 37.833702
20.300000 -4.031250 37.974718
20.100000 -3.322266 37.974718
20.200000 -2.613281 37.974718
20.200000 -1.904297 37.974718
20.200000 -1.195312 37.974718
20.300000 -3.719727 38.095782
20.200000 -3.010254 38.095782
20.200000 -2.300781 38.095782
20.200000 -1.591309 38.095782
20.100000 -0.881836 38.095782
20.300000 -3.652344 38.226872
20.200000 -2.944336 38.226872
20.200000 -2.236328 38.226872
20.200000 -1.528320 38.226872
20.100000 -0.820312 38.226872
20.200000 -4.068359 38.358582
20.200000 -3.110352 38.358582
20.200000 -2.152344 38.358582
20.200000 -1.444336 38.358582
20.100000 -1.236328 38.358582
20.300000 -4.036133 38.489526
20.100000 -4.203125 38.489526
20.200000 -2.620117 38.489526
20.200000 -1.912109 38.489526
20.200000 -1.204102 38.489526
20.300000 -3.721191 38.621067
20.200000 -3.014648 38.621067
20.200000 -2.308105 38.621067
20.200000 -1.601562 38.621067
20.300000 -0.895020 38.621067
20.400000 -4.158203 38.753096
20.200000 -3.452148 38.753096
20.200000 -2.746094 38.753096
20.200000 -2.040039 38.753096
20.200000 -3.757812 38.881092
20.200000 -3.051758 38.881092
20.200000 -2.345703 38.881092
20.300000 -4.061035 39.012683
20.100000 -4.104492 39.012683
20.200000 -2.647949 39.012683
20.200000 -1.941406 39.012683
20.200000 -1.234863 39.012683
20.200000 -3.675781 39.146218
20.100000 -2.968750 39.146218
20.100000 -2.261719 39.146218
20.200000 -4.906250 39.274939
20.100000 -3.324707 39.274939
20.200000 -2.618164 39.274939
20.200000 -1.911621 39.274939
20.200000 -1.205078 39.274939
20.800000 -10.486328 39.407833
20.400000 -4.189453 39.407833
20.200000 -3.480469 39.407833
20.200000 -3.146484 39.407833
20.200000 -2.062500 39.407833
20.200000 -3.804688 39.535121
20.100000 -3.093750 39.535121
20.200000 -2.382812 39.535121
20.200000 -1.671875 39.535121
20.300000 -0.960938 39.535121
20.200000 -3.966309 39.659903
20.100000 -2.881836 39.659903
20.100000 -2.172363 39.659903
20.200000 -3.933594 39.790516
20.100000 -4.099609 39.790516
20.200000 -2.515625 39.790516
20.200000 -1.806641 39.790516
20.200000 -1.097656 39.790516
20.300000 -4.032227 39.923181
20.100000 -3.324219 39.923181
20.200000 -3.491211 39.923181
20.200000 -2.158203 39.923181
20.200000 -3.581543 40.053894
20.100000 -2.874023 40.053894
20.100000 -2.166504 40.053894
20.200000 -4.242188 40.189964
20.100000 -3.160156 40.189964
20.100000 -2.453125 40.189964
20.100000 -1.746094 40.189964
20.300000 -1.039062 40.189964
20.100000 -4.238281 40.316414
20.200000 -4.406250 40.316414
20.100000 -2.824219 40.316414
20.100000 -2.117188 40.316414
20.400000 -4.757812 40.456555
20.300000 -4.926758 40.456555
20.200000 -3.345703 40.456555
20.200000 -2.639648 40.456555
20.200000 -1.933594 40.456555
20.200000 -1.977539 40.456555
20.200000 -3.788574 40.581875
20.100000 -3.082031 40.581875
20.200000 -2.375488 40.581875
20.200000 -1.918945 40.581875
20.300000 -0.962402 40.581875
20.200000 -3.534668 40.720954
20.200000 -2.829102 40.720954
20.100000 -2.123535 40.720954
20.400000 -4.623047 40.846010
20.200000 -3.917969 40.846010
20.200000 -3.212891 40.846010
20.200000 -2.507812 40.846010
20.200000 -1.802734 40.846010
20.300000 -1.097656 40.846010
20.200000 -3.828125 40.972480
20.100000 -4.119141 40.972480
20.200000 -2.410156 40.972480
20.200000 -2.701172 40.972480
20.300000 -0.992188 40.972480
20.200000 -3.728516 41.112874
20.100000 -3.020508 41.112874
20.200000 -2.312500 41.112874
20.400000 -4.690430 41.223905
20.200000 -3.605469 41.223905
20.200000 -2.770508 41.223905
20.200000 -2.060547 41.223905
20.200000 -4.162598 41.362296
20.100000 -3.079102 41.362296
20.200000 -2.370605 41.362296
20.200000 -1.662109 41.362296
20.300000 -0.953613 41.362296
20.200000 -4.215820 41.489312
20.200000 -3.508301 41.489312
20.200000 -3.050781 41.489312
20.100000 -2.093262 41.489312
20.200000 -4.900391 41.628770
20.200000 -3.318848 41.628770
20.200000 -2.612305 41.628770
20.200000 -1.905762 41.628770
20.200000 -1.199219 41.628770
20.200000 -3.804688 41.753910
20.100000 -3.097656 41.753910
20.200000 -3.265625 41.753910
20.200000 -1.683594 41.753910
20.300000 -0.976562 41.753910
20.300000 -4.128906 41.879706
20.200000 -3.421875 41.879706
20.200000 -2.714844 41.879706
20.200000 -1.757812 41.879706
20.200000 -1.300781 41.879706
20.200000 -3.583496 42.017175
20.100000 -2.875977 42.017175
20.200000 -2.168457 42.017175
20.200000 -3.757812 42.143723
20.100000 -3.675781 42.143723
20.200000 -2.343750 42.143723
20.200000 -1.636719 42.143723
20.300000 -0.929688 42.143723
20.100000 -4.259277 42.281678
20.200000 -3.550781 42.281678
20.200000 -2.842285 42.281678
20.200000 -2.133789 42.281678
20.400000 -4.235352 42.407523
20.200000 -3.529297 42.407523
20.200000 -2.823242 42.407523
20.200000 -2.117188 42.407523
20.400000 -4.758789 42.533539
20.200000 -4.052246 42.533539
20.200000 -3.345703 42.533539
20.200000 -2.639160 42.533539
20.200000 -2.432617 42.533539
20.200000 -2.101074 42.533539
20.200000 -3.886230 42.671687
20.100000 -3.178711 42.671687
20.200000 -3.221191 42.671687
20.200000 -2.263672 42.671687
20.300000 -1.056152 42.671687
20.400000 -4.181641 42.798754
20.200000 -3.473633 42.798754
20.200000 -2.765625 42.798754
20.200000 -2.684082 42.798754
20.400000 -4.250488 42.937648
20.300000 -3.791016 42.937648
20.100000 -3.081543 42.937648
20.200000 -2.372070 42.937648
20.200000 -1.662598 42.937648
20.300000 -1.703125 42.937648
20.200000 -4.265137 43.049263
20.200000 -3.557617 43.049263
20.200000 -3.600098 43.049263
20.200000 -2.142578 43.049263
20.400000 -4.695312 43.187795
20.200000 -3.988281 43.187795
20.200000 -3.281250 43.187795
20.200000 -2.574219 43.187795
20.200000 -1.867188 43.187795
20.200000 -1.160156 43.187795
20.200000 -3.334961 43.314249
20.200000 -2.626953 43.314249
20.200000 -1.918945 43.314249
20.200000 -3.632812 43.456258
20.200000 -2.925781 43.456258
20.200000 -2.218750 43.456258
20.400000 -4.652344 43.579610
20.200000 -3.943359 43.579610
20.200000 -3.859375 43.579610
20.200000 -2.525391 43.579610
20.200000 -1.816406 43.579610
20.300000 -1.107422 43.579610
20.300000 -4.039551 43.705757
20.200000 -2.956055 43.705757
20.200000 -2.247559 43.705757
20.400000 -4.473633 43.845135
20.200000 -4.017578 43.845135
20.200000 -3.311523 43.845135
20.200000 -3.355469 43.845135
20.200000 -1.899414 43.845135
20.200000 -1.943359 43.845135
20.300000 -3.730469 43.970606
20.100000 -3.897949 43.970606
20.200000 -2.315430 43.970606
20.300000 -4.063477 44.097553
20.200000 -3.357422 44.097553
20.200000 -2.651367 44.097553
20.200000 -2.820312 44.097553
20.200000 -3.852051 44.228739
20.100000 -3.146484 44.228739
20.200000 -2.440918 44.228739
20.200000 -1.735352 44.228739
20.300000 -2.029785 44.228739
20.300000 -5.909668 44.360788
20.300000 -4.453125 44.360788
20.200000 -3.746582 44.360788
20.100000 -3.040039 44.360788
20.200000 -2.333496 44.360788
20.200000 -2.501953 44.360788
20.300000 -0.920410 44.360788
20.300000 -4.165039 44.490142
20.200000 -3.457520 44.490142
20.200000 -2.500000 44.490142
20.200000 -2.042969 44.490142
20.200000 -3.730469 44.622880
20.100000 -3.145508 44.622880
20.200000 -2.310547 44.622880
20.200000 -1.600586 44.622880
20.300000 -1.890625 44.622880
20.400000 -4.621094 44.745059
20.200000 -3.910645 44.745059
20.200000 -3.200195 44.745059
20.200000 -2.489746 44.745059
20.200000 -1.779297 44.745059
20.300000 -1.818848 44.745059
20.200000 -4.392090 44.874557
20.200000 -3.558594 44.874557
20.200000 -2.100098 44.874557
20.200000 -4.339844 45.006974
20.100000 -3.131836 45.006974
20.200000 -2.423828 45.006974
20.200000 -1.715820 45.006974
20.200000 -1.007812 45.006974
20.300000 -3.610352 45.137827
20.200000 -2.903809 45.137827
20.200000 -2.197266 45.137827
20.400000 -4.728516 45.274590
20.200000 -4.270508 45.274590
20.100000 -3.312500 45.274590
20.200000 -2.604492 45.274590
20.200000 -2.646484 45.274590
20.200000 -4.411621 45.400430
20.100000 -3.079102 45.400430
20.200000 -2.371582 45.400430
20.200000 -2.414062 45.400430
20.300000 -0.956543 45.400430
20.200000 -4.246094 45.539116
20.300000 -3.541016 45.539116
20.200000 -2.835938 45.539116
20.200000 -2.755859 45.539116
20.300000 -4.175781 45.665720
20.200000 -3.469238 45.665720
20.200000 -2.762695 45.665720
20.200000 -2.056152 45.665720
20.300000 -4.057617 45.792979
20.200000 -3.351074 45.792979
20.200000 -2.644531 45.792979
20.200000 -1.937988 45.792979
20.200000 -1.231445 45.792979
20.300000 -3.689453 45.932897
20.200000 -2.982910 45.932897
20.200000 -2.276367 45.932897
20.200000 -1.569824 45.932897
20.300000 -0.863281 45.932897
20.200000 -3.917480 46.055888
20.200000 -3.209961 46.055888
20.200000 -2.502441 46.055888
20.200000 -1.794922 46.055888
20.200000 -1.087402 46.055888
20.100000 -4.260742 46.189522
20.200000 -3.552246 46.189522
20.200000 -2.843750 46.189522
20.200000 -2.136230 46.189522
20.200000 -1.428711 46.189522
20.000000 -0.721191 46.189522
19.600000 -0.013672 46.189522
20.400000 -4.773438 46.317874
20.200000 -4.437500 46.317874
20.100000 -3.351562 46.317874
20.200000 -2.640625 46.317874
20.200000 -1.929688 46.317874
20.200000 -1.218750 46.317874
20.400000 -4.737305 46.440553
20.200000 -4.029297 46.440553
20.100000 -3.321289 46.440553
20.200000 -2.613281 46.440553
20.200000 -1.905273 46.440553
20.200000 -1.197266 46.440553
20.300000 -4.101562 46.570788
20.100000 -3.393555 46.570788
20.200000 -3.060547 46.570788
20.200000 -1.977539 46.570788
20.200000 -1.269531 46.570788
20.200000 -3.959961 46.705603
20.100000 -3.251465 46.705603
20.200000 -3.417969 46.705603
20.200000 -1.834473 46.705603
20.200000 -2.000977 46.705603
20.200000 -3.781250 46.832949
20.100000 -3.074219 46.832949
20.200000 -2.992188 46.832949
20.200000 -1.660156 46.832949
20.200000 -0.703125 46.832949
20.200000 -3.672852 46.963214
20.200000 -2.966309 46.963214
20.200000 -2.259766 46.963214
20.200000 -1.553223 46.963214
20.000000 -0.846680 46.963214
19.600000 -0.140137 46.963214
20.400000 -4.144531 47.096015
20.200000 -3.437500 47.096015
20.200000 -2.730469 47.096015
20.200000 -2.023438 47.096015
20.200000 -1.316406 47.096015
20.200000 -3.805664 47.225857
20.100000 -3.099609 47.225857
20.200000 -2.393555 47.225857
20.200000 -1.687500 47.225857
20.000000 -0.981445 47.225857
20.400000 -4.080078 47.357049
20.200000 -3.374023 47.357049
20.200000 -3.542969 47.357049
20.200000 -1.961914 47.357049
20.200000 -1.255859 47.357049
20.200000 -3.667969 47.487729
20.200000 -2.710449 47.487729
20.200000 -2.252930 47.487729
20.200000 -1.545410 47.487729
20.000000 -0.837891 47.487729
19.600000 -0.130371 47.487729
20.300000 -4.058594 47.619175
20.100000 -3.351562 47.619175
20.200000 -3.019531 47.619175
20.200000 -1.937500 47.619175
20.200000 -1.230469 47.619175
20.400000 -4.678711 47.749769
20.200000 -3.971191 47.749769
20.100000 -3.263672 47.749769
20.200000 -2.556152 47.749769
20.200000 -1.848633 47.749769
20.200000 -1.516113 47.749769
20.300000 -3.698730 47.880595
20.200000 -3.866211 47.880595
20.200000 -2.283691 47.880595
20.200000 -1.576172 47.880595
20.000000 -0.868652 47.880595
19.700000 -0.161133 47.880595
20.300000 -4.059570 48.023052
20.200000 -3.350098 48.023052
20.100000 -2.640625 48.023052
20.200000 -2.684082 48.023052
20.200000 -1.227539 48.023052
20.200000 -3.681641 48.133406
20.200000 -2.972168 48.133406
20.200000 -3.137695 48.133406
20.200000 -1.553223 48.133406
20.100000 -0.843750 48.133406
19.700000 -0.139160 48.133406
20.400000 -4.202637 48.272813
20.200000 -3.495117 48.272813
20.100000 -2.787598 48.272813
20.200000 -2.080078 48.272813
20.200000 -1.122559 48.272813
20.200000 -3.990234 48.399780
20.100000 -3.281250 48.399780
20.200000 -3.572266 48.399780
20.200000 -1.863281 48.399780
20.200000 -1.154297 48.399780
20.300000 -3.845215 48.537950
20.200000 -4.012695 48.537950
20.200000 -2.430176 48.537950
20.200000 -1.722656 48.537950
20.200000 -1.015137 48.537950
20.200000 -4.560059 48.663444
20.200000 -2.978516 48.663444
20.200000 -2.271973 48.663444
20.200000 -1.565430 48.663444
20.100000 -0.608887 48.663444
20.200000 -4.369141 48.802422
20.200000 -2.785156 48.802422
20.200000 -2.951172 48.802422
20.200000 -1.367188 48.802422
19.900000 -0.658203 48.802422
20.400000 -4.633301 48.927791
20.200000 -3.924805 48.927791
20.100000 -3.216309 48.927791
20.200000 -2.507812 48.927791
20.200000 -1.799316 48.927791
20.200000 -1.090820 48.927791
20.300000 -3.808594 49.055003
20.200000 -3.102539 49.055003
20.200000 -2.396484 49.055003
20.200000 -2.565430 49.055003
20.300000 -1.109375 49.055003
20.200000 -4.500977 49.193890
20.200000 -2.921387 49.193890
20.200000 -2.966797 49.193890
20.200000 -1.512207 49.193890
20.200000 -1.807617 49.193890
20.300000 -4.132324 49.317716
20.200000 -3.175781 49.317716
20.100000 -2.719238 49.317716
20.200000 -2.012695 49.317716
20.200000 -1.931152 49.317716
20.200000 -3.920410 49.457741
20.100000 -3.213867 49.457741
20.200000 -2.507324 49.457741
20.200000 -1.800781 49.457741
20.200000 -1.094238 49.457741
20.300000 -3.753906 49.576900
20.200000 -3.046875 49.576900
20.200000 -2.339844 49.576900
20.200000 -3.277832 49.708703
20.200000 -2.571289 49.708703
20.200000 -2.489746 49.708703
20.200000 -1.158203 49.708703
20.300000 -3.666992 49.837707
20.200000 -2.958496 49.837707
20.200000 -3.125000 49.837707
20.200000 -1.543945 49.837707
20.300000 -0.837891 49.837707
20.200000 -3.990723 49.960828
20.100000 -3.283203 49.960828
20.200000 -3.200684 49.960828
20.200000 -2.368164 49.960828
20.200000 -1.160645 49.960828
20.200000 -3.752930 50.097934
20.100000 -3.044922 50.097934
20.200000 -2.336914 50.097934
20.200000 -1.628906 50.097934
20.300000 -0.920898 50.097934
20.200000 -4.333984 50.223629
20.200000 -2.875000 50.223629
20.200000 -2.166016 50.223629
20.200000 -1.457031 50.223629
20.300000 -0.498047 50.223629
20.200000 -3.641602 50.353569
20.200000 -3.185547 50.353569
20.200000 -2.229492 50.353569
20.200000 -1.523438 50.353569
20.300000 -1.817383 50.353569
20.200000 -3.606934 50.488637
20.200000 -2.900391 50.488637
20.200000 -2.193848 50.488637
20.200000 -1.487305 50.488637
20.300000 -0.780762 50.488637
20.200000 -4.265625 50.614512
20.200000 -3.683594 50.614512
20.200000 -2.851562 50.614512
20.200000 -2.144531 50.614512
20.300000 -5.014648 50.754743
20.200000 -3.433105 50.754743
20.100000 -2.726562 50.754743
20.200000 -2.520020 50.754743
20.200000 -3.867188 50.879813
20.100000 -3.162109 50.879813
20.200000 -2.457031 50.879813
20.200000 -1.751953 50.879813
20.300000 -1.046875 50.879813
20.300000 -3.616211 51.018949
20.200000 -2.910645 51.018949
20.200000 -2.705078 51.018949
20.400000 -4.673828 51.145706
20.200000 -4.590820 51.145706
20.100000 -3.257812 51.145706
20.200000 -2.549805 51.145706
