25.300000 3.156738 19.655784
25.400000 3.721680 19.655784
25.500000 4.786621 19.655784
25.800000 5.476562 19.655784
26.200000 6.541504 19.655784
26.400000 6.231445 19.655784
26.600000 7.296387 19.655784
26.800000 7.861328 19.655784
26.800000 8.926270 19.655784
26.600000 9.616211 19.655784
26.500000 11.056152 19.655784
26.400000 10.996094 19.655784
26.400000 11.561035 19.655784
26.600000 12.625977 19.655784
27.000000 12.565918 19.655784
20.300000 -6.459961 19.795330
20.300000 -5.075195 19.795330
20.200000 -4.382812 19.795330
20.100000 -3.690430 19.795330
20.100000 -2.998047 19.795330
20.200000 -2.305664 19.795330
20.200000 -2.488281 19.795330
25.200000 1.416016 19.795330
25.200000 1.108398 19.795330
25.200000 3.050781 19.795330
25.200000 4.243164 19.795330
25.300000 3.185547 19.795330
25.400000 4.002930 19.795330
25.500000 5.570312 19.795330
25.800000 5.387695 19.795330
26.100000 6.455078 19.795330
26.400000 6.397461 19.795330
26.500000 8.339844 19.795330
26.700000 8.032227 19.795330
26.800000 9.474609 19.795330
26.700000 8.916992 19.795330
26.500000 10.609375 19.795330
26.300000 10.796875 19.795330
26.300000 12.484375 19.795330
20.200000 -5.210938 19.920428
20.300000 -4.520020 19.920428
20.200000 -3.829102 19.920428
20.200000 -3.138184 19.920428
20.100000 -2.447266 19.920428
20.100000 -1.756348 19.920428
20.000000 -1.065430 19.920428
25.200000 1.014160 19.920428
25.200000 1.705078 19.920428
25.200000 1.895996 19.920428
25.200000 3.211914 19.920428
25.300000 3.027832 19.920428
25.400000 3.718750 19.920428
25.500000 4.532227 19.920428
25.700000 5.345703 19.920428
26.000000 5.409180 19.920428
26.300000 6.972656 19.920428
26.400000 7.036133 19.920428
26.600000 8.349609 19.920428
26.900000 8.288086 19.920428
26.700000 9.476562 19.920428
26.500000 9.665039 19.920428
26.300000 10.978516 19.920428
26.100000 11.666992 19.920428
20.300000 -5.563477 20.059905
20.200000 -5.369141 20.059905
20.200000 -3.924805 20.059905
20.100000 -3.230469 20.059905
20.100000 -2.536133 20.059905
20.100000 -1.841797 20.059905
20.200000 -0.897461 20.059905
25.200000 0.919922 20.059905
25.300000 1.231934 20.059905
25.200000 2.668945 20.059905
25.200000 2.230957 20.059905
25.200000 3.292969 20.059905
25.300000 3.729980 20.059905
25.500000 5.041992 20.059905
25.700000 4.854004 20.059905
25.900000 6.416016 20.059905
26.200000 6.228027 20.059905
26.400000 6.915039 20.059905
26.600000 8.227051 20.059905
26.800000 8.789062 20.059905
26.800000 9.601074 20.059905
26.600000 10.788086 20.059905
26.300000 11.350098 20.059905
26.100000 11.412109 20.059905
20.300000 -6.293457 20.199179
20.300000 -4.911621 20.199179
20.200000 -4.220703 20.199179
20.100000 -3.529785 20.199179
20.200000 -2.838867 20.199179
20.100000 -2.147949 20.199179
20.100000 -1.457031 20.199179
25.300000 0.688477 20.199179
25.200000 1.504395 20.199179
25.200000 1.945312 20.199179
25.200000 2.761230 20.199179
25.300000 4.077148 20.199179
25.500000 3.768066 20.199179
25.600000 5.833984 20.199179
25.800000 6.399902 20.199179
26.100000 6.215820 20.199179
26.300000 6.781738 20.199179
26.600000 8.604492 20.199179
26.700000 9.795410 20.199179
26.300000 10.986328 20.199179
20.400000 -6.883789 20.324987
20.300000 -5.498047 20.324987
20.300000 -4.805176 20.324987
20.200000 -4.112305 20.324987
20.100000 -3.419434 20.324987
20.200000 -2.726562 20.324987
20.200000 -2.908691 20.324987
20.200000 -1.340820 20.324987
25.300000 1.373535 20.324987
25.300000 0.941406 20.324987
25.200000 2.134277 20.324987
25.200000 2.452148 20.324987
25.200000 2.895020 20.324987
25.300000 5.212891 20.324987
25.400000 4.530762 20.324987
25.600000 5.223633 20.324987
25.900000 6.541504 20.324987
26.200000 6.859375 20.324987
26.300000 7.174316 20.324987
26.400000 7.364258 20.324987
26.700000 8.429199 20.324987
26.900000 8.869141 20.324987
26.600000 10.559082 20.324987
26.300000 10.124023 20.324987
20.300000 -6.388672 20.465158
20.300000 -5.750977 20.465158
20.200000 -4.307129 20.465158
20.200000 -3.613281 20.465158
20.200000 -2.919434 20.465158
20.100000 -2.225586 20.465158
20.100000 -1.531738 20.465158
21.900000 6.780762 20.465158
21.700000 7.472656 20.465158
21.800000 7.414551 20.465158
20.200000 -1.599609 20.602097
19.600000 -0.219727 20.602097
25.300000 0.790039 20.602097
25.200000 1.354980 20.602097
25.200000 1.794922 20.602097
25.200000 3.609863 20.602097
25.300000 4.299805 20.602097
25.400000 5.489746 20.602097
25.500000 4.929688 20.602097
25.700000 5.119629 20.602097
26.000000 5.934570 20.602097
26.200000 7.249512 20.602097
26.600000 8.319336 20.602097
26.700000 9.634277 20.602097
26.400000 10.574219 20.602097
25.900000 10.764160 20.602097
20.200000 -5.614258 20.725975
20.200000 -4.673828 20.725975
20.200000 -3.858398 20.725975
20.100000 -2.542969 20.725975
20.100000 -1.852539 20.725975
20.200000 -1.162109 20.725975
25.200000 0.290039 20.725975
25.300000 1.105469 20.725975
25.200000 1.795898 20.725975
25.200000 2.486328 20.725975
25.200000 2.926758 20.725975
25.300000 3.617188 20.725975
25.500000 5.557617 20.725975
25.600000 4.998047 20.725975
25.900000 5.938477 20.725975
26.100000 7.003906 20.725975
26.300000 7.694336 20.725975
26.600000 8.765625 20.725975
26.600000 10.078613 20.725975
26.100000 11.391602 20.725975
20.300000 -5.338867 20.851005
20.200000 -4.646484 20.851005
20.200000 -3.954102 20.851005
20.200000 -3.261719 20.851005
20.100000 -2.569336 20.851005
20.100000 -1.876953 20.851005
20.200000 -1.184570 20.851005
25.200000 1.652344 20.851005
25.300000 1.594727 20.851005
25.200000 2.037109 20.851005
25.100000 2.354492 20.851005
25.200000 4.171875 20.851005
25.300000 4.608887 20.851005
25.400000 4.670898 20.851005
25.600000 5.732910 20.851005
25.900000 6.544922 20.851005
26.100000 7.106934 20.851005
26.300000 6.793945 20.851005
26.600000 9.229980 20.851005
26.600000 10.791992 20.851005
26.000000 10.604004 20.851005
20.300000 -5.334961 20.993511
20.200000 -4.641113 20.993511
20.200000 -3.947266 20.993511
20.100000 -3.253418 20.993511
20.100000 -2.559570 20.993511
20.100000 -2.740723 20.993511
20.200000 -1.171875 20.993511
25.200000 0.647949 20.993511
25.200000 2.336914 20.993511
25.200000 1.900879 20.993511
25.100000 2.339844 20.993511
25.200000 2.778809 20.993511
25.300000 4.217773 20.993511
25.400000 5.031738 20.993511
25.600000 4.845703 20.993511
25.900000 6.284668 20.993511
26.100000 6.098633 20.993511
26.300000 7.037598 20.993511
26.400000 7.601562 20.993511
26.600000 8.165527 20.993511
26.800000 9.354492 20.993511
26.500000 9.793457 20.993511
26.000000 10.357422 20.993511
20.300000 -5.594727 21.133363
20.200000 -4.777344 21.133363
20.200000 -4.084961 21.133363
20.100000 -4.267578 21.133363
20.100000 -2.700195 21.133363
20.200000 -2.007812 21.133363
20.200000 -1.315430 21.133363
25.100000 0.771484 21.133363
25.200000 0.838867 21.133363
25.100000 2.281250 21.133363
25.100000 2.598633 21.133363
25.200000 2.916016 21.133363
25.300000 4.358398 21.133363
25.400000 4.925781 21.133363
25.600000 5.868164 21.133363
25.800000 5.560547 21.133363
26.100000 6.377930 21.133363
26.300000 7.320312 21.133363
26.600000 8.772461 21.133363
26.500000 9.839844 21.133363
26.100000 10.907227 21.133363
25.800000 12.474609 21.133363
25.800000 11.666992 21.133363
20.400000 -7.534180 21.257507
20.300000 -6.841797 21.257507
20.300000 -5.582031 21.257507
20.200000 -4.764648 21.257507
20.100000 -4.947266 21.257507
20.100000 -3.379883 21.257507
20.100000 -2.437500 21.257507
20.200000 -2.495117 21.257507
20.200000 -1.302734 21.257507
25.100000 0.284180 21.257507
25.200000 2.351562 21.257507
25.100000 1.418945 21.257507
25.100000 2.111328 21.257507
25.100000 2.678711 21.257507
25.200000 3.871094 21.257507
25.300000 4.063477 21.257507
25.500000 4.755859 21.257507
25.800000 6.198242 21.257507
26.100000 7.265625 21.257507
26.300000 7.079102 21.257507
26.500000 9.394531 21.257507
26.500000 9.333008 21.257507
26.100000 10.396484 21.257507
25.900000 10.834961 21.257507
25.900000 11.773438 21.257507
20.300000 -5.346680 21.397095
20.300000 -4.650391 21.397095
20.200000 -3.954102 21.397095
20.100000 -3.257812 21.397095
20.100000 -2.561523 21.397095
20.200000 -1.865234 21.397095
20.200000 -1.168945 21.397095
25.000000 1.312500 21.397095
25.100000 3.001953 21.397095
25.000000 1.566406 21.397095
25.000000 3.255859 21.397095
25.100000 4.945312 21.397095
25.200000 4.134766 21.397095
25.300000 4.199219 21.397095
25.500000 5.388672 21.397095
25.800000 6.703125 21.397095
26.100000 6.142578 21.397095
26.300000 7.457031 21.397095
26.400000 9.900391 21.397095
26.400000 10.339844 21.397095
26.200000 10.779297 21.397095
26.000000 11.593750 21.397095
26.100000 12.408203 21.397095
20.400000 -8.375000 21.524343
20.300000 -6.289062 21.524343
20.300000 -4.898438 21.524343
20.200000 -4.203125 21.524343
20.100000 -3.513184 21.524343
20.100000 -2.823242 21.524343
20.100000 -2.133301 21.524343
20.100000 -1.443359 21.524343
25.100000 0.946289 21.524343
25.000000 2.511230 21.524343
24.900000 2.826172 21.524343
25.000000 2.766113 21.524343
25.100000 4.081055 21.524343
25.200000 3.895996 21.524343
25.400000 5.210938 21.524343
25.600000 5.275879 21.524343
25.900000 6.715820 21.524343
26.200000 6.905762 21.524343
26.500000 8.975586 21.524343
26.500000 10.040527 21.524343
26.200000 10.105469 21.524343
26.100000 10.670410 21.524343
26.100000 11.860352 21.524343
27.700000 13.995117 21.524343
20.300000 -6.023438 21.664103
20.300000 -4.708008 21.664103
20.200000 -4.017578 21.664103
20.100000 -3.827148 21.664103
20.200000 -2.636719 21.664103
20.200000 -1.946289 21.664103
20.200000 -1.255859 21.664103
24.900000 -0.053711 21.664103
25.000000 2.261719 21.664103
24.900000 2.702148 21.664103
24.900000 2.517578 21.664103
25.000000 2.708008 21.664103
25.100000 5.273438 21.664103
25.200000 4.463867 21.664103
25.500000 5.654297 21.664103
25.700000 7.094727 21.664103
26.000000 7.285156 21.664103
26.200000 7.725586 21.664103
26.300000 7.666016 21.664103
26.600000 8.731445 21.664103
26.700000 9.921875 21.664103
26.400000 9.860352 21.664103
26.200000 10.923828 21.664103
26.100000 11.487305 21.664103
26.300000 12.175781 21.664103
26.500000 13.114258 21.664103
26.900000 13.052734 21.664103
20.700000 -10.014160 21.790652
20.300000 -7.246582 21.790652
20.200000 -5.170898 21.790652
20.300000 -4.479004 21.790652
20.200000 -3.787109 21.790652
20.100000 -3.970215 21.790652
20.200000 -2.403320 21.790652
20.200000 -1.711426 21.790652
20.100000 -1.019531 21.790652
25.000000 0.564941 21.790652
24.900000 2.006836 21.790652
24.900000 3.823730 21.790652
24.900000 3.515625 21.790652
24.900000 4.076660 21.790652
25.000000 4.387695 21.790652
25.200000 5.198730 21.790652
25.500000 5.509766 21.790652
25.700000 6.070801 21.790652
26.000000 7.506836 21.790652
26.300000 7.067871 21.790652
26.400000 8.378906 21.790652
26.600000 8.564941 21.790652
26.500000 10.250977 21.790652
26.300000 10.062012 21.790652
26.200000 11.123047 21.790652
26.200000 10.934082 21.790652
26.300000 11.620117 21.790652
26.600000 13.306152 21.790652
27.000000 13.242188 21.790652
20.300000 -6.495117 21.929472
20.300000 -5.111328 21.929472
20.300000 -4.419434 21.929472
20.200000 -3.727539 21.929472
20.100000 -3.035645 21.929472
20.100000 -2.343750 21.929472
20.200000 -1.655273 21.929472
20.000000 -0.966797 21.929472
19.600000 -0.278320 21.929472
25.000000 0.600586 21.929472
24.900000 1.914062 21.929472
24.800000 1.977539 21.929472
24.800000 3.291016 21.929472
24.900000 5.479492 21.929472
25.000000 5.042969 21.929472
25.200000 5.231445 21.929472
25.500000 6.669922 21.929472
25.800000 5.733398 21.929472
26.000000 7.171875 21.929472
26.200000 7.610352 21.929472
26.400000 8.548828 21.929472
26.500000 8.112305 21.929472
26.400000 8.925781 21.929472
26.200000 9.989258 21.929472
26.200000 10.427734 21.929472
26.200000 11.616211 21.929472
26.400000 11.804688 21.929472
26.700000 12.493164 21.929472
27.000000 13.806641 21.929472
26.200000 6.939453 22.054874
26.400000 7.381836 22.054874
26.500000 8.699219 22.054874
26.500000 9.891602 22.054874
26.300000 10.583984 22.054874
26.200000 10.651367 22.054874
26.100000 12.218750 22.054874
26.300000 12.532715 22.054874
26.500000 12.596680 22.054874
26.900000 13.160645 22.054874
24.700000 1.897461 22.192953
24.700000 2.089844 22.192953
24.700000 3.157227 22.192953
24.800000 4.474609 22.192953
25.000000 4.666992 22.192953
25.200000 5.734375 22.192953
25.500000 5.548828 22.192953
25.800000 5.738281 22.192953
26.100000 6.802734 22.192953
26.400000 7.867188 22.192953
26.600000 7.806641 22.192953
26.500000 8.746094 22.192953
26.300000 9.935547 22.192953
26.200000 10.125000 22.192953
26.200000 11.439453 22.192953
26.300000 11.128906 22.192953
26.500000 12.068359 22.192953
26.700000 13.632812 22.192953
27.100000 14.197266 22.192953
27.600000 13.886719 22.192953
20.300000 -7.251953 22.331540
20.300000 -6.933594 22.331540
20.300000 -5.671875 22.331540
20.300000 -4.478516 22.331540
20.200000 -3.785156 22.331540
20.100000 -3.966797 22.331540
20.100000 -2.398438 22.331540
20.100000 -1.705078 22.331540
20.000000 -1.636719 22.331540
19.600000 -0.318359 22.331540
24.800000 0.943359 22.331540
24.700000 1.882812 22.331540
24.700000 1.697266 22.331540
24.700000 2.636719 22.331540
24.700000 4.326172 22.331540
24.900000 4.140625 22.331540
25.100000 5.955078 22.331540
25.400000 5.019531 22.331540
25.700000 6.333984 22.331540
26.000000 6.523438 22.331540
26.300000 6.962891 22.331540
26.500000 8.402344 22.331540
26.500000 9.216797 22.331540
26.400000 10.031250 22.331540
26.200000 9.720703 22.331540
26.200000 11.035156 22.331540
26.200000 11.849609 22.331540
26.400000 12.164062 22.331540
26.600000 12.478516 22.331540
27.000000 12.917969 22.331540
20.300000 -6.739258 22.457882
20.300000 -5.356445 22.457882
20.300000 -4.666016 22.457882
20.200000 -3.975586 22.457882
20.100000 -3.285156 22.457882
20.100000 -2.594727 22.457882
20.100000 -1.904297 22.457882
20.200000 -1.213867 22.457882
24.700000 0.988281 22.457882
24.800000 2.428711 22.457882
24.800000 1.619141 22.457882
24.800000 2.059570 22.457882
24.800000 3.125000 22.457882
24.900000 4.815430 22.457882
25.000000 4.380859 22.457882
25.300000 5.071289 22.457882
25.600000 5.386719 22.457882
25.900000 7.577148 22.457882
26.300000 6.642578 22.457882
26.500000 7.708008 22.457882
26.500000 8.148438 22.457882
26.400000 10.088867 22.457882
26.300000 10.279297 22.457882
26.200000 10.844727 22.457882
26.200000 11.660156 22.457882
26.300000 11.725586 22.457882
26.500000 13.291016 22.457882
20.300000 -6.043945 22.597267
20.300000 -4.603027 22.597267
20.200000 -3.912109 22.597267
20.100000 -3.221191 22.597267
20.100000 -2.530273 22.597267
20.100000 -1.839355 22.597267
20.200000 -1.148438 22.597267
24.700000 0.306152 22.597267
24.800000 0.997070 22.597267
24.700000 2.187988 22.597267
24.700000 4.378906 22.597267
24.700000 3.569824 22.597267
24.800000 5.760742 22.597267
25.000000 4.576660 22.597267
25.300000 4.892578 22.597267
25.600000 6.833496 22.597267
25.800000 6.524414 22.597267
26.300000 7.465332 22.597267
26.600000 8.031250 22.597267
26.500000 7.970215 22.597267
26.400000 9.034180 22.597267
26.300000 10.223145 22.597267
26.200000 11.162109 22.597267
26.200000 11.101074 22.597267
26.300000 11.665039 22.597267
26.500000 13.104004 22.597267
26.800000 13.292969 22.597267
20.300000 -4.736328 22.723176
20.200000 -4.043457 22.723176
20.100000 -3.350586 22.723176
20.100000 -2.657715 22.723176
20.200000 -2.839844 22.723176
20.200000 -1.271973 22.723176
24.700000 1.567383 22.723176
24.800000 2.010254 22.723176
24.700000 2.203125 22.723176
24.700000 2.890625 22.723176
24.800000 3.703125 22.723176
24.800000 3.640625 22.723176
25.000000 4.453125 22.723176
25.200000 6.390625 22.723176
25.600000 5.328125 22.723176
26.700000 8.703125 22.723176
26.400000 9.765625 22.723176
26.300000 9.703125 22.723176
26.200000 10.515625 22.723176
26.200000 11.578125 22.723176
26.300000 11.640625 22.723176
26.500000 12.828125 22.723176
26.800000 13.015625 22.723176
20.300000 -4.859863 22.865569
20.200000 -4.166992 22.865569
20.100000 -3.474121 22.865569
20.100000 -3.406250 22.865569
20.100000 -2.840820 22.865569
20.100000 -1.400391 22.865569
24.700000 1.051758 22.865569
24.800000 2.117188 22.865569
24.800000 3.432617 22.865569
24.700000 1.873047 22.865569
24.700000 3.188477 22.865569
24.800000 4.253906 22.865569
25.000000 3.944336 22.865569
25.200000 5.259766 22.865569
25.500000 6.200195 22.865569
26.700000 8.836914 22.865569
26.400000 9.652344 22.865569
26.300000 9.592773 22.865569
26.200000 10.283203 22.865569
26.200000 10.723633 22.865569
26.300000 11.414062 22.865569
26.500000 12.104492 22.865569
26.700000 12.544922 22.865569
20.300000 -7.595703 22.988917
20.300000 -6.901367 22.988917
20.300000 -4.818359 22.988917
20.200000 -4.124023 22.988917
20.100000 -3.429688 22.988917
20.100000 -3.360352 22.988917
20.100000 -2.041016 22.988917
20.100000 -1.346680 22.988917
24.700000 0.625000 22.988917
24.800000 1.069336 22.988917
24.700000 1.388672 22.988917
24.700000 2.583008 22.988917
24.700000 2.902344 22.988917
24.800000 3.971680 22.988917
25.000000 5.666016 22.988917
25.200000 5.110352 22.988917
25.600000 5.679688 22.988917
26.700000 7.957031 22.988917
26.400000 9.026367 22.988917
26.300000 10.095703 22.988917
26.200000 11.040039 22.988917
26.200000 11.484375 22.988917
26.300000 12.549805 22.988917
26.500000 12.865234 22.988917
26.700000 13.055664 22.988917
20.300000 -6.384766 23.128203
20.200000 -4.692383 23.128203
20.200000 -4.000000 23.128203
20.100000 -3.307617 23.128203
20.100000 -3.365234 23.128203
20.100000 -1.922852 23.128203
20.200000 -1.230469 23.128203
24.700000 0.981445 23.128203
24.800000 1.048828 23.128203
24.700000 2.991211 23.128203
24.700000 2.558594 23.128203
24.700000 3.250977 23.128203
24.800000 3.693359 23.128203
25.000000 4.135742 23.128203
25.300000 4.953125 23.128203
25.600000 5.643066 23.128203
26.700000 8.402832 23.128203
26.500000 9.217773 23.128203
26.300000 10.532715 23.128203
26.300000 10.222656 23.128203
26.300000 11.162598 23.128203
26.400000 12.102539 23.128203
26.500000 13.417480 23.128203
26.700000 13.232422 23.128203
20.300000 -6.291992 23.269015
20.300000 -4.902344 23.269015
20.200000 -4.957520 23.269015
20.100000 -3.512695 23.269015
20.100000 -2.817871 23.269015
20.100000 -2.123047 23.269015
20.100000 -1.428223 23.269015
24.700000 0.658203 23.269015
24.800000 1.221680 23.269015
24.700000 2.410156 23.269015
24.700000 3.223633 23.269015
24.700000 3.662109 23.269015
24.800000 4.975586 23.269015
25.000000 5.039062 23.269015
25.200000 5.227539 23.269015
25.500000 5.916016 23.269015
25.900000 6.479492 23.269015
26.500000 7.919922 23.269015
26.600000 9.358398 23.269015
26.300000 9.171875 23.269015
26.300000 10.110352 23.269015
26.300000 11.673828 23.269015
26.300000 11.487305 23.269015
26.500000 13.175781 23.269015
26.700000 12.739258 23.269015
20.300000 -7.166016 23.395021
20.300000 -6.473633 23.395021
20.300000 -5.092285 23.395021
20.200000 -4.653320 23.395021
20.200000 -3.714355 23.395021
20.100000 -3.025391 23.395021
20.100000 -2.336426 23.395021
20.100000 -1.647461 23.395021
24.700000 1.047363 23.395021
24.800000 1.111328 23.395021
24.700000 2.300293 23.395021
24.700000 1.739258 23.395021
24.600000 3.303223 23.395021
24.700000 3.242188 23.395021
24.900000 4.681152 23.395021
25.100000 4.370117 23.395021
25.500000 5.184082 23.395021
25.800000 5.873047 23.395021
26.800000 8.253906 23.395021
26.600000 9.817871 23.395021
26.400000 9.881836 23.395021
26.300000 10.445801 23.395021
26.400000 11.259766 23.395021
26.400000 12.448730 23.395021
26.600000 12.387695 23.395021
20.300000 -6.890625 23.535080
20.300000 -6.201172 23.535080
20.300000 -6.386719 23.535080
20.300000 -4.822266 23.535080
20.200000 -4.632812 23.535080
20.100000 -3.443359 23.535080
20.100000 -2.753906 23.535080
20.100000 -2.064453 23.535080
20.100000 -1.125000 23.535080
24.700000 0.197266 23.535080
24.800000 0.636719 23.535080
24.600000 2.826172 23.535080
24.600000 4.140625 23.535080
24.600000 3.580078 23.535080
24.800000 5.519531 23.535080
25.000000 5.458984 23.535080
25.300000 5.148438 23.535080
25.700000 6.212891 23.535080
26.000000 6.652344 23.535080
26.600000 8.094238 23.535080
26.800000 9.782227 23.535080
26.500000 9.595215 23.535080
26.400000 10.408203 23.535080
26.300000 10.721191 23.535080
26.400000 11.284180 23.535080
26.500000 12.472168 23.535080
26.700000 13.035156 23.535080
20.200000 -2.562500 23.661546
20.100000 -1.869141 23.661546
20.100000 -1.175781 23.661546
24.600000 2.291016 23.661546
24.600000 1.359375 23.661546
24.500000 1.921875 23.661546
24.500000 2.859375 23.661546
24.700000 3.921875 23.661546
24.800000 5.109375 23.661546
25.100000 5.171875 23.661546
25.500000 5.734375 23.661546
25.900000 6.546875 23.661546
26.200000 7.359375 23.661546
26.600000 8.421875 23.661546
26.700000 9.609375 23.661546
26.500000 9.546875 23.661546
26.400000 10.859375 23.661546
26.300000 11.671875 23.661546
26.400000 11.859375 23.661546
26.500000 12.171875 23.661546
26.800000 13.234375 23.661546
24.500000 1.742188 23.801622
24.400000 2.308594 23.801622
24.500000 2.625000 23.801622
24.700000 3.691406 23.801622
24.900000 5.632812 23.801622
26.000000 7.523438 23.801622
26.100000 9.539062 23.801622
26.400000 9.855469 23.801622
26.300000 10.421875 23.801622
26.400000 12.113281 23.801622
26.600000 11.929688 23.801622
26.700000 12.371094 23.801622
20.700000 -10.031250 23.926521
20.300000 -7.261719 23.926521
20.300000 -6.569336 23.926521
20.300000 -5.184570 23.926521
20.200000 -5.367188 23.926521
20.200000 -3.799805 23.926521
20.100000 -3.107422 23.926521
20.100000 -2.415039 23.926521
20.100000 -1.722656 23.926521
24.500000 1.739258 23.926521
24.500000 0.931641 23.926521
24.400000 2.374023 23.926521
24.400000 2.566406 23.926521
24.500000 3.258789 23.926521
24.700000 3.576172 23.926521
24.900000 4.143555 23.926521
26.200000 7.413086 23.926521
26.400000 10.182617 23.926521
26.600000 10.500000 23.926521
26.400000 10.812988 23.926521
26.400000 11.250977 23.926521
26.600000 11.563965 23.926521
26.700000 13.251953 23.926521
20.200000 -5.242188 24.065536
20.200000 -4.550293 24.065536
20.200000 -3.858398 24.065536
20.100000 -3.166504 24.065536
20.100000 -2.474609 24.065536
20.100000 -1.782715 24.065536
19.500000 -0.398926 24.065536
24.500000 0.426758 24.065536
24.500000 1.868652 24.065536
24.400000 3.060547 24.065536
24.300000 2.627441 24.065536
24.500000 3.319336 24.065536
24.600000 2.886230 24.065536
26.100000 6.897949 24.065536
26.100000 6.212891 24.065536
26.800000 8.722656 24.065536
26.600000 9.912598 24.065536
26.400000 11.227539 24.065536
26.400000 11.292480 24.065536
26.600000 11.857422 24.065536
26.700000 12.922363 24.065536
20.200000 -4.979980 24.193330
20.200000 -4.534180 24.193330
20.200000 -3.838379 24.193330
20.100000 -3.142578 24.193330
20.100000 -2.446777 24.193330
20.100000 -1.500977 24.193330
24.400000 0.208984 24.193330
24.400000 0.523438 24.193330
24.300000 1.587891 24.193330
24.300000 3.777344 24.193330
24.400000 2.591797 24.193330
24.600000 3.656250 24.193330
24.900000 3.595703 24.193330
25.200000 6.035156 24.193330
25.600000 5.099609 24.193330
26.100000 5.914062 24.193330
26.100000 7.853516 24.193330
26.900000 9.861328 24.193330
26.600000 9.675781 24.193330
26.500000 10.490234 24.193330
26.500000 11.804688 24.193330
26.600000 12.244141 24.193330
26.700000 12.683594 24.193330
20.300000 -5.289062 24.328879
20.200000 -4.597656 24.328879
20.200000 -3.906250 24.328879
20.100000 -3.214844 24.328879
20.100000 -2.523438 24.328879
20.100000 -2.582031 24.328879
19.900000 -1.140625 24.328879
19.600000 -0.449219 24.328879
24.400000 -0.500000 24.328879
24.400000 0.816406 24.328879
24.300000 2.007812 24.328879
24.200000 1.949219 24.328879
24.300000 4.390625 24.328879
24.400000 4.457031 24.328879
26.000000 5.472656 24.328879
26.300000 6.039062 24.328879
26.100000 8.230469 24.328879
26.300000 9.054688 24.328879
26.700000 9.621094 24.328879
26.600000 11.312500 24.328879
26.500000 11.128906 24.328879
26.600000 11.445312 24.328879
26.800000 12.636719 24.328879
20.300000 -6.350586 24.454780
20.300000 -5.660645 24.454780
20.200000 -4.970703 24.454780
20.200000 -4.280762 24.454780
20.200000 -3.590820 24.454780
20.100000 -2.900879 24.454780
20.100000 -2.210938 24.454780
20.100000 -1.520996 24.454780
24.300000 1.928711 24.454780
24.200000 1.993652 24.454780
24.100000 1.933594 24.454780
24.100000 3.998535 24.454780
24.200000 3.063477 24.454780
24.400000 3.378418 24.454780
26.500000 9.714844 24.454780
26.700000 10.030273 24.454780
26.600000 10.345703 24.454780
26.600000 12.286133 24.454780
26.700000 12.601562 24.454780
26.900000 12.666992 24.454780
20.300000 -5.277832 24.593299
20.200000 -4.584961 24.593299
20.200000 -4.267090 24.593299
20.100000 -3.199219 24.593299
20.100000 -2.506348 24.593299
20.100000 -1.813477 24.593299
19.500000 -0.427734 24.593299
24.300000 1.650879 24.593299
24.200000 0.718750 24.593299
24.100000 3.283691 24.593299
24.100000 1.598633 24.593299
24.200000 3.038574 24.593299
24.300000 3.478516 24.593299
24.500000 4.168457 24.593299
26.800000 8.748047 24.593299
27.000000 8.812988 24.593299
26.700000 10.502930 24.593299
26.700000 10.942871 24.593299
26.700000 10.882812 24.593299
26.700000 12.072754 24.593299
26.800000 12.637695 24.593299
27.000000 12.827637 24.593299
27.500000 14.392578 24.593299
20.300000 -5.587891 24.732848
20.300000 -5.395508 24.732848
20.200000 -4.703125 24.732848
20.100000 -3.513184 24.732848
20.100000 -3.698242 24.732848
20.100000 -2.133301 24.732848
20.200000 -1.443359 24.732848
24.300000 -0.118652 24.732848
24.200000 1.446289 24.732848
24.100000 1.886230 24.732848
24.100000 2.701172 24.732848
24.200000 4.766113 24.732848
24.300000 5.456055 24.732848
24.600000 4.020996 24.732848
26.800000 9.165527 24.732848
26.700000 10.605469 24.732848
26.700000 11.295410 24.732848
26.700000 11.485352 24.732848
26.800000 12.300293 24.732848
27.000000 12.615234 24.732848
20.300000 -6.429688 24.856908
20.300000 -5.046875 24.856908
20.200000 -4.355469 24.856908
20.200000 -3.664062 24.856908
20.100000 -2.972656 24.856908
20.100000 -2.281250 24.856908
20.100000 -2.589844 24.856908
24.200000 0.367188 24.856908
24.200000 0.558594 24.856908
24.100000 3.500000 24.856908
24.000000 2.691406 24.856908
24.100000 4.632812 24.856908
24.100000 3.199219 24.856908
24.300000 6.015625 24.856908
26.800000 9.859863 24.856908
26.700000 11.547852 24.856908
26.600000 11.360840 24.856908
26.700000 12.298828 24.856908
26.900000 12.861816 24.856908
20.300000 -7.643555 24.996847
20.300000 -6.450684 24.996847
20.300000 -5.064941 24.996847
20.200000 -4.372070 24.996847
20.200000 -3.679199 24.996847
20.100000 -2.986328 24.996847
20.100000 -2.293457 24.996847
20.100000 -1.600586 24.996847
24.200000 1.613770 24.996847
24.100000 1.556641 24.996847
24.000000 2.249512 24.996847
24.000000 2.942383 24.996847
24.000000 3.010254 24.996847
24.000000 3.578125 24.996847
24.100000 4.640625 24.996847
24.200000 6.203125 24.996847
24.500000 5.890625 24.996847
27.000000 9.515625 24.996847
26.800000 9.703125 24.996847
26.700000 10.265625 24.996847
26.700000 11.203125 24.996847
26.800000 12.515625 24.996847
26.900000 12.828125 24.996847
20.300000 -7.166504 25.126102
20.300000 -6.472656 25.126102
20.300000 -5.084961 25.126102
20.300000 -4.391113 25.126102
20.200000 -3.697266 25.126102
20.100000 -3.003418 25.126102
20.100000 -2.309570 25.126102
20.100000 -1.615723 25.126102
24.100000 2.082031 25.126102
24.100000 1.395508 25.126102
24.000000 1.583984 25.126102
24.000000 2.147461 25.126102
24.000000 2.585938 25.126102
23.900000 5.274414 25.126102
23.900000 4.212891 25.126102
24.000000 5.651367 25.126102
24.200000 6.214844 25.126102
24.400000 8.028320 25.126102
27.000000 8.845703 25.126102
26.800000 9.909180 25.126102
26.800000 10.222656 25.126102
26.700000 11.786133 25.126102
26.800000 12.224609 25.126102
26.900000 13.288086 25.126102
20.300000 -6.435059 25.262371
20.300000 -5.055176 25.262371
20.300000 -4.365234 25.262371
20.200000 -3.675293 25.262371
20.100000 -2.985352 25.262371
20.100000 -3.045410 25.262371
20.100000 -2.230469 25.262371
24.100000 1.844238 25.262371
24.100000 2.784180 25.262371
24.000000 2.349121 25.262371
24.000000 2.289062 25.262371
23.900000 4.604004 25.262371
23.800000 4.793945 25.262371
23.800000 5.483887 25.262371
23.900000 5.298828 25.262371
24.000000 5.363770 25.262371
24.100000 8.053711 25.262371
24.300000 7.118652 25.262371
24.600000 9.433594 25.262371
27.000000 8.188477 25.262371
27.000000 8.878418 25.262371
26.800000 9.693359 25.262371
26.800000 10.383301 25.262371
26.700000 11.948242 25.262371
26.800000 12.388184 25.262371
26.900000 13.203125 25.262371
24.100000 2.377930 25.389032
24.000000 1.445312 25.389032
23.900000 2.387695 25.389032
23.800000 4.705078 25.389032
23.800000 4.147461 25.389032
23.700000 4.964844 25.389032
23.700000 6.782227 25.389032
23.800000 7.041992 25.389032
24.000000 8.859375 25.389032
26.700000 9.863281 25.389032
26.800000 10.301758 25.389032
26.700000 11.428711 25.389032
26.800000 11.742188 25.389032
20.300000 -6.507324 25.530465
20.300000 -5.121582 25.530465
20.200000 -4.428711 25.530465
20.200000 -3.735840 25.530465
20.100000 -3.042969 25.530465
20.100000 -2.350098 25.530465
20.100000 -1.657227 25.530465
24.100000 1.057129 25.530465
24.100000 1.250000 25.530465
24.000000 2.690430 25.530465
23.900000 2.255859 25.530465
23.800000 2.946289 25.530465
23.700000 5.261719 25.530465
23.700000 5.952148 25.530465
23.700000 5.892578 25.530465
23.700000 5.583008 25.530465
23.800000 7.898438 25.530465
23.900000 7.213867 25.530465
24.000000 8.029297 25.530465
26.800000 11.671875 25.530465
26.800000 12.487305 25.530465
26.900000 12.427734 25.530465
20.300000 -6.917969 25.670529
20.300000 -5.529297 25.670529
20.300000 -4.834961 25.670529
20.200000 -4.140625 25.670529
20.100000 -3.449707 25.670529
20.100000 -2.758789 25.670529
20.100000 -2.067871 25.670529
20.200000 -1.376953 25.670529
24.100000 2.077637 25.670529
24.000000 2.768555 25.670529
24.000000 2.709473 25.670529
23.900000 2.275391 25.670529
23.800000 2.841309 25.670529
23.700000 4.157227 25.670529
23.700000 5.223145 25.670529
23.700000 4.914062 25.670529
23.800000 5.979980 25.670529
23.800000 8.545898 25.670529
23.900000 7.111816 25.670529
24.000000 7.927734 25.670529
26.700000 11.382324 25.670529
26.800000 11.198242 25.670529
26.900000 12.639160 25.670529
27.100000 12.830078 25.670529
27.500000 14.020996 25.670529
20.300000 -5.296875 25.796360
20.200000 -4.855469 25.796360
20.200000 -4.789062 25.796360
20.100000 -3.222656 25.796360
20.100000 -2.531250 25.796360
20.100000 -1.839844 25.796360
19.900000 -1.148438 25.796360
19.600000 -0.457031 25.796360
24.100000 0.492188 25.796360
24.200000 1.808594 25.796360
24.100000 3.000000 25.796360
24.000000 1.816406 25.796360
23.900000 3.132812 25.796360
23.800000 3.074219 25.796360
23.800000 4.015625 25.796360
23.800000 4.957031 25.796360
23.800000 7.148438 25.796360
23.900000 5.964844 25.796360
23.900000 6.906250 25.796360
24.000000 9.222656 25.796360
26.800000 11.112305 25.796360
26.900000 11.800781 25.796360
27.000000 13.239258 25.796360
20.300000 -6.335938 25.923327
20.300000 -4.950195 25.923327
20.300000 -4.257324 25.923327
20.200000 -3.564453 25.923327
20.100000 -2.871582 25.923327
20.100000 -2.178711 25.923327
20.100000 -1.485840 25.923327
24.200000 1.353516 25.923327
24.100000 1.421387 25.923327
24.000000 3.364258 25.923327
24.000000 2.182129 25.923327
23.900000 2.875000 25.923327
23.800000 5.436523 25.923327
23.800000 5.373047 25.923327
23.900000 4.809570 25.923327
24.000000 5.871094 25.923327
24.000000 7.182617 25.923327
24.100000 6.869141 25.923327
24.300000 7.680664 25.923327
26.900000 9.926758 25.923327
26.800000 10.613281 25.923327
26.800000 11.299805 25.923327
26.900000 12.111328 25.923327
27.100000 12.797852 25.923327
20.300000 -6.893555 26.063019
20.300000 -6.008789 26.063019
20.300000 -5.441406 26.063019
20.200000 -4.124023 26.063019
20.100000 -3.431641 26.063019
20.100000 -2.739258 26.063019
20.100000 -2.046875 26.063019
20.200000 -1.108887 26.063019
24.200000 1.081055 26.063019
24.100000 2.769043 26.063019
24.000000 2.957031 26.063019
24.000000 3.270020 26.063019
24.000000 3.208008 26.063019
24.000000 4.520996 26.063019
24.000000 4.333984 26.063019
24.000000 4.896973 26.063019
24.100000 5.834961 26.063019
24.300000 7.647949 26.063019
27.000000 9.087891 26.063019
26.900000 10.150879 26.063019
26.900000 10.713867 26.063019
26.900000 11.776855 26.063019
27.000000 12.714844 26.063019
27.100000 12.902832 26.063019
27.500000 13.465820 26.063019
20.400000 -6.439941 26.203306
20.300000 -5.056152 26.203306
20.200000 -4.364258 26.203306
20.200000 -3.672363 26.203306
20.100000 -2.980469 26.203306
20.100000 -2.038574 26.203306
20.100000 -1.596680 26.203306
24.200000 0.362793 26.203306
24.200000 2.554688 26.203306
24.100000 3.246582 26.203306
24.000000 3.938477 26.203306
24.000000 3.255371 26.203306
24.000000 3.697266 26.203306
24.100000 4.264160 26.203306
24.200000 6.081055 26.203306
24.400000 6.147949 26.203306
24.600000 6.339844 26.203306
27.000000 10.174316 26.203306
26.900000 10.866211 26.203306
26.800000 10.558105 26.203306
26.800000 11.875000 26.203306
26.900000 11.940430 26.203306
27.100000 13.005859 26.203306
20.300000 -7.659180 26.329229
20.300000 -5.583496 26.329229
20.300000 -5.641602 26.329229
20.200000 -4.199707 26.329229
20.100000 -3.507812 26.329229
20.100000 -2.815918 26.329229
20.100000 -2.124023 26.329229
20.100000 -1.432129 26.329229
24.300000 1.152344 26.329229
24.200000 2.719238 26.329229
24.100000 2.411133 26.329229
24.100000 4.103027 26.329229
24.100000 2.794922 26.329229
24.200000 3.986816 26.329229
24.300000 5.178711 26.329229
24.500000 6.870605 26.329229
27.000000 9.330078 26.329229
26.900000 9.770508 26.329229
26.900000 11.335938 26.329229
26.900000 11.776367 26.329229
27.000000 12.216797 26.329229
27.100000 12.782227 26.329229
27.500000 13.097656 26.329229
20.400000 -8.392578 26.468620
20.300000 -8.698242 26.468620
20.300000 -6.309570 26.468620
20.300000 -5.615234 26.468620
20.300000 -4.920898 26.468620
20.200000 -4.226562 26.468620
20.100000 -3.532227 26.468620
20.100000 -2.837891 26.468620
20.100000 -2.143555 26.468620
20.100000 -1.699219 26.468620
24.300000 0.892578 26.468620
24.300000 0.957031 26.468620
24.300000 1.271484 26.468620
24.200000 4.085938 26.468620
24.300000 4.150391 26.468620
24.400000 3.339844 26.468620
24.500000 4.029297 26.468620
27.000000 9.544922 26.468620
26.900000 10.984375 26.468620
26.900000 11.673828 26.468620
26.900000 11.363281 26.468620
27.000000 11.677734 26.468620
27.200000 12.742188 26.468620
27.500000 13.306641 26.468620
20.400000 -6.497070 26.594946
20.300000 -5.109375 26.594946
20.200000 -4.419434 26.594946
20.200000 -3.729492 26.594946
20.100000 -3.039551 26.594946
20.100000 -3.224609 26.594946
20.100000 -1.659668 26.594946
24.400000 1.790039 26.594946
24.400000 1.229980 26.594946
24.300000 3.044922 26.594946
24.300000 3.859863 26.594946
24.300000 4.174805 26.594946
24.500000 3.489746 26.594946
24.700000 4.429688 26.594946
27.200000 9.574219 26.594946
27.000000 9.514160 26.594946
26.900000 10.829102 26.594946
26.900000 10.894043 26.594946
27.000000 11.958984 26.594946
27.100000 13.023926 26.594946
20.300000 -6.866699 26.735196
20.300000 -4.984863 26.735196
20.200000 -4.293945 26.735196
20.100000 -3.603027 26.735196
20.100000 -2.912109 26.735196
20.100000 -2.221191 26.735196
20.100000 -1.530273 26.735196
24.400000 1.924316 26.735196
24.400000 0.990234 26.735196
24.300000 2.931152 26.735196
24.300000 2.997070 26.735196
24.400000 4.687988 26.735196
24.600000 3.378906 26.735196
24.800000 4.319824 26.735196
27.100000 9.469238 26.735196
27.000000 9.907227 26.735196
26.900000 10.345215 26.735196
26.900000 12.033203 26.735196
27.000000 12.346191 26.735196
27.200000 12.534180 26.735196
21.100000 -10.019043 26.859881
20.300000 -6.554688 26.859881
20.300000 -5.168945 26.859881
20.200000 -4.476074 26.859881
20.200000 -3.783203 26.859881
20.100000 -3.090332 26.859881
20.100000 -2.397461 26.859881
20.100000 -1.704590 26.859881
19.600000 -0.318848 26.859881
24.400000 1.145508 26.859881
24.400000 1.963379 26.859881
24.500000 4.531250 26.859881
24.600000 5.468750 26.859881
24.900000 3.781250 26.859881
27.100000 8.718750 26.859881
27.300000 9.531250 26.859881
27.100000 9.468750 26.859881
26.900000 10.781250 26.859881
26.900000 11.718750 26.859881
27.000000 12.156250 26.859881
27.100000 13.218750 26.859881
20.400000 -8.329590 26.998873
20.200000 -4.172363 26.998873
19.900000 -3.729492 26.998873
20.000000 -2.786621 26.998873
20.100000 -2.218750 26.998873
20.100000 -1.404297 26.998873
24.500000 -0.082031 26.998873
24.600000 0.982422 26.998873
24.500000 1.296875 26.998873
24.500000 4.111328 26.998873
24.600000 3.675781 26.998873
40.600000 18.085938 26.998873
20.100000 -3.715820 27.124202
20.100000 -3.023438 27.124202
20.100000 -2.331055 27.124202
20.100000 -1.638672 27.124202
24.700000 0.823242 27.124202
24.700000 1.015625 27.124202
24.600000 2.708008 27.124202
24.600000 2.400391 27.124202
24.700000 4.592773 27.124202
24.800000 4.035156 27.124202
25.100000 4.352539 27.124202
25.500000 5.169922 27.124202
26.000000 5.987305 27.124202
26.400000 5.679688 27.124202
26.900000 8.824219 27.124202
27.200000 9.516602 27.124202
27.000000 10.458984 27.124202
26.900000 10.526367 27.124202
26.900000 10.968750 27.124202
27.000000 12.409668 27.124202
27.100000 13.225586 27.124202
20.300000 -6.769531 27.262737
20.200000 -5.384766 27.262737
20.200000 -4.692383 27.262737
20.200000 -4.000000 27.262737
20.100000 -3.307617 27.262737
20.100000 -2.615234 27.262737
20.100000 -1.922852 27.262737
20.100000 -1.230469 27.262737
24.800000 0.106445 27.262737
24.700000 1.923828 27.262737
24.700000 3.616211 27.262737
24.700000 2.808594 27.262737
24.800000 3.375977 27.262737
25.100000 4.818359 27.262737
25.400000 4.260742 27.262737
25.900000 6.078125 27.262737
26.300000 5.268066 27.262737
26.600000 6.208008 27.262737
27.400000 9.717773 27.262737
27.000000 9.782715 27.262737
26.900000 10.097656 27.262737
26.900000 10.912598 27.262737
26.900000 11.977539 27.262737
27.100000 12.667480 27.262737
20.400000 -8.432617 27.400726
20.300000 -7.738281 27.400726
20.300000 -6.349609 27.400726
20.300000 -4.960938 27.400726
20.200000 -4.266602 27.400726
20.100000 -3.572266 27.400726
20.100000 -2.877930 27.400726
20.100000 -2.183594 27.400726
20.100000 -1.489258 27.400726
24.700000 0.099609 27.400726
24.800000 1.165039 27.400726
24.800000 1.105469 27.400726
24.800000 2.420898 27.400726
24.900000 2.736328 27.400726
25.000000 3.551758 27.400726
26.600000 5.688477 27.400726
27.000000 9.325195 27.400726
27.100000 9.140625 27.400726
27.000000 10.831055 27.400726
26.900000 10.396484 27.400726
26.900000 11.461914 27.400726
27.000000 11.652344 27.400726
27.200000 12.342773 27.400726
27.500000 13.658203 27.400726
20.400000 -8.386719 27.526722
20.300000 -7.692383 27.526722
20.300000 -6.303711 27.526722
20.300000 -6.109375 27.526722
20.300000 -4.918945 27.526722
20.200000 -4.228516 27.526722
20.100000 -3.538086 27.526722
20.100000 -2.847656 27.526722
20.100000 -2.157227 27.526722
20.100000 -1.716797 27.526722
24.700000 -0.264648 27.526722
24.800000 2.050781 27.526722
24.800000 1.991211 27.526722
24.800000 3.306641 27.526722
24.900000 3.622070 27.526722
25.000000 5.187500 27.526722
25.400000 4.252930 27.526722
27.000000 8.960938 27.526722
27.100000 9.026367 27.526722
26.900000 10.216797 27.526722
26.900000 10.407227 27.526722
26.900000 11.222656 27.526722
27.000000 12.288086 27.526722
27.200000 12.353516 27.526722
27.500000 13.168945 27.526722
20.300000 -6.788574 27.667079
20.200000 -6.406738 27.667079
20.200000 -4.715820 27.667079
20.200000 -4.024902 27.667079
20.100000 -3.333984 27.667079
20.100000 -2.643066 27.667079
20.100000 -1.952148 27.667079
20.100000 -1.261230 27.667079
24.900000 1.568359 27.667079
24.900000 1.884277 27.667079
24.900000 2.075195 27.667079
24.900000 2.891113 27.667079
25.000000 3.957031 27.667079
25.100000 4.397949 27.667079
25.400000 5.088867 27.667079
25.800000 5.404785 27.667079
26.300000 5.970703 27.667079
26.600000 6.411621 27.667079
27.200000 8.609375 27.667079
27.400000 8.672363 27.667079
27.000000 9.235352 27.667079
26.900000 10.923340 27.667079
26.900000 10.736328 27.667079
26.900000 11.674316 27.667079
27.000000 11.987305 27.667079
20.300000 -7.691406 27.792731
20.300000 -6.308594 27.792731
20.300000 -4.925781 27.792731
20.200000 -4.234375 27.792731
20.100000 -3.542969 27.792731
20.100000 -2.851562 27.792731
20.100000 -2.910156 27.792731
20.100000 -1.468750 27.792731
24.900000 0.738281 27.792731
25.000000 1.429688 27.792731
24.900000 1.621094 27.792731
24.900000 2.187500 27.792731
25.000000 3.000488 27.792731
25.100000 3.438477 27.792731
25.300000 3.751465 27.792731
27.000000 8.317383 27.792731
27.100000 9.880371 27.792731
26.900000 10.068359 27.792731
26.800000 10.631348 27.792731
26.900000 11.319336 27.792731
27.000000 11.757324 27.792731
27.200000 13.445312 27.792731
27.500000 13.008301 27.792731
20.700000 -10.011719 27.930546
20.300000 -7.246094 27.930546
20.300000 -7.554688 27.930546
20.300000 -5.171875 27.930546
20.200000 -4.480469 27.930546
20.200000 -3.789062 27.930546
20.100000 -3.097656 27.930546
20.200000 -3.156250 27.930546
20.200000 -1.716797 27.930546
19.400000 -0.337891 27.930546
25.100000 0.294922 27.930546
25.000000 2.234375 27.930546
24.900000 1.798828 27.930546
25.000000 3.238281 27.930546
25.100000 3.302734 27.930546
25.200000 4.117188 27.930546
25.500000 5.056641 27.930546
26.000000 4.746094 27.930546
26.400000 5.435547 27.930546
26.800000 7.000000 27.930546
27.100000 8.193359 27.930546
27.100000 9.632812 27.930546
26.900000 9.697266 27.930546
26.800000 10.136719 27.930546
26.900000 11.076172 27.930546
27.000000 11.765625 27.930546
27.100000 13.205078 27.930546
20.300000 -6.045410 28.070262
20.200000 -4.729492 28.070262
20.100000 -3.788574 28.070262
20.100000 -3.347656 28.070262
20.100000 -2.656738 28.070262
20.100000 -1.965820 28.070262
20.100000 -1.274902 28.070262
25.000000 2.054688 28.070262
25.100000 1.120605 28.070262
25.000000 2.311523 28.070262
25.000000 2.377441 28.070262
25.000000 3.568359 28.070262
25.200000 3.259277 28.070262
25.500000 4.825195 28.070262
27.200000 7.970703 28.070262
27.300000 9.536621 28.070262
27.000000 10.102539 28.070262
26.900000 10.293457 28.070262
26.900000 10.609375 28.070262
26.900000 11.672852 28.070262
27.000000 12.361328 28.070262
20.700000 -10.011719 28.193709
20.300000 -7.244141 28.193709
20.300000 -6.552246 28.193709
20.300000 -5.168457 28.193709
20.300000 -4.976562 28.193709
20.200000 -3.784668 28.193709
20.100000 -3.092773 28.193709
20.100000 -3.150879 28.193709
20.200000 -1.708984 28.193709
19.400000 -0.325195 28.193709
25.100000 1.317383 28.193709
25.100000 2.384277 28.193709
25.000000 1.826172 28.193709
25.000000 2.268066 28.193709
25.100000 4.959961 28.193709
25.200000 4.026855 28.193709
27.100000 8.102539 28.193709
27.100000 10.041504 28.193709
26.900000 9.855469 28.193709
26.800000 10.419434 28.193709
26.800000 11.983398 28.193709
27.000000 11.547363 28.193709
27.100000 12.236328 28.193709
20.300000 -5.441406 28.335259
20.200000 -4.745605 28.335259
20.100000 -4.049805 28.335259
20.100000 -3.354004 28.335259
20.100000 -2.658203 28.335259
20.100000 -2.087402 28.335259
20.100000 -1.766602 28.335259
25.000000 0.822754 28.335259
25.100000 2.388672 28.335259
25.000000 2.079590 28.335259
25.000000 2.270508 28.335259
25.000000 3.836426 28.335259
25.200000 4.527344 28.335259
25.500000 4.593262 28.335259
27.100000 8.113770 28.335259
27.200000 9.179688 28.335259
27.000000 9.370605 28.335259
26.800000 10.686523 28.335259
26.800000 10.877441 28.335259
26.900000 11.443359 28.335259
27.100000 12.884277 28.335259
20.400000 -7.130859 28.462139
20.300000 -6.437500 28.462139
20.300000 -5.056641 28.462139
20.200000 -4.866211 28.462139
20.100000 -4.300781 28.462139
20.100000 -2.985352 28.462139
20.100000 -3.169922 28.462139
20.200000 -1.604492 28.462139
19.500000 -0.223633 28.462139
25.200000 2.288086 28.462139
25.100000 1.478516 28.462139
25.100000 3.043945 28.462139
25.100000 2.609375 28.462139
25.100000 4.799805 28.462139
25.300000 3.740234 28.462139
25.600000 5.180664 28.462139
27.100000 7.192383 28.462139
27.400000 7.382812 28.462139
27.300000 8.698242 28.462139
27.000000 9.138672 28.462139
26.800000 10.079102 28.462139
26.800000 10.894531 28.462139
26.900000 10.959961 28.462139
27.000000 11.900391 28.462139
27.100000 12.590820 28.462139
27.400000 13.531250 28.462139
20.300000 -6.750488 28.601191
20.200000 -3.986816 28.601191
20.100000 -3.295898 28.601191
20.100000 -2.604980 28.601191
25.100000 2.929199 28.601191
27.100000 8.892578 28.601191
27.100000 9.331055 28.601191
26.800000 9.894531 28.601191
26.800000 10.083008 28.601191
26.800000 11.771484 28.601191
26.900000 11.459961 28.601191
27.000000 12.648438 28.601191
25.000000 -0.038086 28.741514
25.100000 0.656250 28.741514
25.100000 3.219238 28.741514
25.100000 2.032227 28.741514
25.100000 5.220215 28.741514
25.200000 4.783203 28.741514
25.400000 4.971191 28.741514
26.900000 6.848145 28.741514
27.200000 7.036133 28.741514
27.300000 8.224121 28.741514
27.000000 8.662109 28.741514
26.800000 9.725098 28.741514
26.700000 9.913086 28.741514
26.800000 10.726074 28.741514
26.900000 11.914062 28.741514
27.000000 13.102051 28.741514
20.300000 -5.561523 28.865982
20.300000 -4.619141 28.865982
20.200000 -4.801758 28.865982
20.100000 -3.484375 28.865982
20.100000 -2.794922 28.865982
20.100000 -2.730469 28.865982
20.200000 -1.416016 28.865982
25.100000 0.656250 28.865982
25.200000 1.970703 28.865982
25.100000 2.160156 28.865982
25.000000 3.099609 28.865982
25.100000 3.289062 28.865982
25.200000 3.603516 28.865982
25.400000 5.167969 28.865982
25.600000 5.482422 28.865982
27.100000 7.740234 28.865982
27.200000 8.429688 28.865982
27.000000 9.619141 28.865982
26.800000 9.183594 28.865982
26.700000 9.748047 28.865982
26.700000 10.812500 28.865982
26.800000 11.876953 28.865982
27.000000 11.941406 28.865982
27.200000 12.380859 28.865982
27.500000 13.820312 28.865982
20.400000 -6.475586 28.992148
20.300000 -5.090820 28.992148
20.200000 -4.398438 28.992148
20.100000 -3.706055 28.992148
20.100000 -3.013672 28.992148
20.100000 -2.321289 28.992148
20.100000 -1.628906 28.992148
19.500000 -0.744141 28.992148
25.100000 1.025391 28.992148
25.100000 0.967773 28.992148
25.000000 1.910156 28.992148
25.000000 2.602539 28.992148
25.100000 3.669922 28.992148
25.200000 4.612305 28.992148
25.500000 4.554688 28.992148
25.900000 5.997070 28.992148
27.100000 8.016602 28.992148
27.000000 9.083984 28.992148
26.800000 9.151367 28.992148
26.700000 10.093750 28.992148
26.600000 11.406738 28.992148
26.800000 11.469727 28.992148
26.900000 11.657715 28.992148
27.100000 13.095703 28.992148
20.300000 -7.186523 29.132538
20.300000 -6.869141 29.132538
20.300000 -5.109375 29.132538
20.200000 -4.166992 29.132538
20.100000 -3.724609 29.132538
20.100000 -3.032227 29.132538
20.100000 -3.214844 29.132538
20.100000 -2.522461 29.132538
19.600000 -1.012695 29.132538
25.100000 0.506836 29.132538
25.000000 1.074219 29.132538
25.000000 3.141602 29.132538
25.000000 4.208984 29.132538
25.100000 2.901367 29.132538
25.200000 4.093750 29.132538
25.400000 5.283691 29.132538
25.800000 5.098633 29.132538
26.200000 5.538574 29.132538
26.600000 6.103516 29.132538
27.000000 7.293457 29.132538
27.100000 8.608398 29.132538
27.000000 9.173340 29.132538
26.800000 9.113281 29.132538
26.700000 9.803223 29.132538
26.600000 10.368164 29.132538
26.800000 11.558105 29.132538
26.900000 12.873047 29.132538
27.100000 12.687988 29.132538
20.400000 -7.651367 29.273381
20.300000 -6.456543 29.273381
20.300000 -5.066895 29.273381
20.300000 -4.747070 29.273381
20.200000 -3.677246 29.273381
20.100000 -2.982422 29.273381
20.100000 -2.287598 29.273381
20.100000 -1.592773 29.273381
25.100000 1.050781 29.273381
25.000000 0.989258 29.273381
25.000000 2.177734 29.273381
25.000000 2.491211 29.273381
25.100000 3.304688 29.273381
25.300000 4.243164 29.273381
25.500000 5.056641 29.273381
25.800000 6.245117 29.273381
26.200000 5.808594 29.273381
26.600000 6.497070 29.273381
27.000000 7.435547 29.273381
27.000000 8.374023 29.273381
26.900000 8.187500 29.273381
