26.800000 -11.052734 3.332902
27.000000 -10.036133 3.332902
27.400000 -9.769531 3.332902
26.900000 -14.421875 3.473214
26.800000 -14.156250 3.473214
26.800000 -13.765625 3.473214
26.800000 -12.000000 3.473214
26.800000 -11.359375 3.473214
26.800000 -11.468750 3.473214
26.900000 -10.703125 3.473214
27.200000 -10.687500 3.473214
27.000000 -13.893066 3.614867
26.800000 -13.628906 3.614867
26.800000 -12.614746 3.614867
26.800000 -13.100586 3.614867
26.900000 -12.461426 3.614867
26.900000 -11.322266 3.614867
27.000000 -11.308105 3.614867
27.300000 -9.918945 3.614867
27.000000 -14.437500 3.755390
26.900000 -13.546875 3.755390
26.900000 -13.531250 3.755390
26.900000 -13.265625 3.755390
26.900000 -11.875000 3.755390
26.900000 -11.359375 3.755390
26.900000 -10.218750 3.755390
27.100000 -9.703125 3.755390
26.900000 -14.352539 3.908705
26.900000 -13.460449 3.908705
26.900000 -13.318359 3.908705
26.900000 -11.551270 3.908705
26.900000 -11.909180 3.908705
27.000000 -10.267090 3.908705
26.900000 -14.406250 4.048699
26.900000 -14.015625 4.048699
26.900000 -13.125000 4.048699
26.900000 -11.984375 4.048699
26.900000 -11.593750 4.048699
27.000000 -10.953125 4.048699
27.200000 -10.562500 4.048699
27.500000 -10.421875 4.048699
27.000000 -13.942383 4.190662
26.900000 -13.298340 4.190662
26.800000 -12.529297 4.190662
26.900000 -12.885254 4.190662
27.000000 -11.366211 4.190662
27.100000 -11.722168 4.190662
27.100000 -10.703125 4.190662
27.000000 -14.213379 4.329729
26.900000 -13.072266 4.329729
26.900000 -12.681152 4.329729
26.900000 -12.165039 4.329729
27.000000 -11.523926 4.329729
27.100000 -10.632812 4.329729
27.100000 -10.616699 4.329729
27.100000 -14.937500 4.611768
27.100000 -13.171875 4.611768
27.000000 -12.781250 4.611768
27.000000 -12.140625 4.611768
27.100000 -11.875000 4.611768
27.100000 -11.234375 4.611768
27.200000 -10.343750 4.611768
27.000000 -14.977539 4.767864
27.000000 -14.583984 4.767864
27.000000 -13.690430 4.767864
27.000000 -13.171875 4.767864
27.000000 -13.032715 4.767864
27.100000 -11.268555 4.767864
27.100000 -11.379395 4.767864
27.200000 -10.240234 4.767864
27.000000 -14.092773 4.908471
27.000000 -13.453125 4.908471
27.000000 -13.063477 4.908471
27.000000 -11.673828 4.908471
27.100000 -11.659180 4.908471
27.100000 -11.144531 4.908471
27.200000 -11.004883 4.908471
27.700000 -10.115234 4.908471
27.100000 -14.924805 5.049695
27.100000 -14.281250 5.049695
27.100000 -13.890625 5.049695
27.100000 -12.625000 5.049695
27.100000 -11.984375 5.049695
27.100000 -11.468750 5.049695
27.200000 -10.578125 5.049695
27.100000 -14.272949 5.189628
27.000000 -13.006836 5.189628
27.000000 -12.865723 5.189628
27.100000 -12.474609 5.189628
27.100000 -11.333496 5.189628
27.200000 -10.567383 5.189628
27.100000 -14.844727 5.343180
27.000000 -13.955078 5.343180
27.000000 -12.940430 5.343180
27.000000 -12.925781 5.343180
27.100000 -11.786133 5.343180
27.100000 -11.646484 5.343180
27.300000 -11.131836 5.343180
27.200000 -14.671875 5.482321
27.100000 -14.531250 5.482321
27.000000 -13.890625 5.482321
27.000000 -13.125000 5.482321
27.000000 -12.234375 5.482321
27.100000 -12.218750 5.482321
27.200000 -10.828125 5.482321
27.100000 -14.460449 5.621962
27.000000 -13.697266 5.621962
27.100000 -12.934082 5.621962
27.100000 -11.920898 5.621962
27.100000 -11.782715 5.621962
27.200000 -11.019531 5.621962
27.400000 -10.756348 5.621962
27.100000 -14.603027 5.762718
27.000000 -14.212891 5.762718
27.000000 -13.572754 5.762718
27.100000 -13.307617 5.762718
27.100000 -12.167480 5.762718
27.100000 -10.902344 5.762718
27.200000 -10.512207 5.762718
27.400000 -9.872070 5.762718
27.100000 -14.177246 6.058522
27.000000 -13.536133 6.058522
27.000000 -13.895020 6.058522
27.100000 -13.378906 6.058522
27.100000 -11.612793 6.058522
27.100000 -11.221680 6.058522
27.200000 -11.455566 6.058522
27.400000 -10.689453 6.058522
27.100000 -14.759766 6.198544
27.000000 -13.868164 6.198544
27.000000 -13.851562 6.198544
27.000000 -11.959961 6.198544
27.100000 -12.193359 6.198544
27.200000 -11.801758 6.198544
27.300000 -11.035156 6.198544
27.500000 -10.643555 6.198544
27.100000 -14.180664 6.340636
27.000000 -13.914062 6.340636
27.000000 -13.397461 6.340636
27.000000 -13.130859 6.340636
27.100000 -11.989258 6.340636
27.200000 -11.097656 6.340636
27.300000 -10.456055 6.340636
27.600000 -9.689453 6.340636
27.100000 -14.386719 6.485883
27.000000 -13.370605 6.485883
27.000000 -13.604492 6.485883
27.000000 -12.838379 6.485883
27.100000 -12.072266 6.485883
27.200000 -11.056152 6.485883
27.300000 -10.915039 6.485883
27.500000 -10.273926 6.485883
27.200000 -14.730957 6.637047
27.100000 -13.840820 6.637047
27.000000 -13.200684 6.637047
27.000000 -13.310547 6.637047
27.100000 -11.920410 6.637047
27.100000 -12.030273 6.637047
27.300000 -10.265137 6.637047
27.500000 -10.500000 6.637047
27.100000 -13.807617 6.777899
27.000000 -13.667969 6.777899
27.000000 -13.028320 6.777899
27.000000 -12.138672 6.777899
27.000000 -12.249023 6.777899
27.100000 -10.984375 6.777899
27.300000 -9.969727 6.777899
27.000000 -13.782715 6.918881
27.000000 -13.516602 6.918881
26.900000 -12.125488 6.918881
26.900000 -11.984375 6.918881
27.000000 -11.094238 6.918881
27.200000 -10.954102 6.918881
27.600000 -9.938965 6.918881
27.300000 -14.700195 7.059566
27.100000 -14.560547 7.059566
27.000000 -12.795898 7.059566
26.800000 -13.281250 7.059566
26.800000 -12.641602 7.059566
26.900000 -11.626953 7.059566
27.100000 -10.987305 7.059566
27.400000 -10.347656 7.059566
27.300000 -14.631836 7.201134
27.100000 -13.987793 7.201134
26.900000 -13.843750 7.201134
26.800000 -12.580078 7.201134
26.800000 -12.691406 7.201134
26.900000 -10.802734 7.201134
27.000000 -10.664062 7.201134
27.300000 -10.650391 7.201134
27.100000 -14.921875 7.496401
26.900000 -13.407227 7.496401
26.800000 -13.267578 7.496401
26.800000 -13.127930 7.496401
26.800000 -12.488281 7.496401
26.800000 -10.723633 7.496401
27.000000 -11.333984 7.496401
27.400000 -10.569336 7.496401
27.000000 -14.680176 7.637351
26.800000 -13.290039 7.637351
26.700000 -12.899902 7.637351
26.700000 -12.259766 7.637351
26.800000 -11.619629 7.637351
26.900000 -10.979492 7.637351
27.200000 -14.517090 7.777874
26.900000 -13.877930 7.777874
26.800000 -13.738770 7.777874
26.700000 -13.474609 7.777874
26.700000 -12.085449 7.777874
26.700000 -12.321289 7.777874
26.800000 -11.057129 7.777874
27.500000 -14.782227 7.916774
26.900000 -14.377930 7.916774
26.700000 -12.988281 7.916774
26.600000 -12.973633 7.916774
26.700000 -12.208984 7.916774
26.800000 -11.569336 7.916774
26.900000 -11.429688 7.916774
27.300000 -10.290039 7.916774
26.800000 -14.203125 8.070896
26.600000 -13.687500 8.070896
26.600000 -12.796875 8.070896
26.600000 -12.281250 8.070896
26.700000 -11.640625 8.070896
26.800000 -11.500000 8.070896
27.200000 -10.234375 8.070896
26.800000 -14.214844 8.211987
26.700000 -14.573242 8.211987
26.600000 -13.181641 8.211987
26.600000 -12.915039 8.211987
26.600000 -12.398438 8.211987
26.700000 -11.881836 8.211987
26.900000 -11.240234 8.211987
27.200000 -10.598633 8.211987
26.600000 -14.043945 8.352409
26.600000 -13.152832 8.352409
26.600000 -12.511719 8.352409
26.700000 -12.495605 8.352409
26.700000 -11.979492 8.352409
26.900000 -11.463379 8.352409
27.200000 -10.697266 8.352409
26.700000 -14.968750 8.493580
26.600000 -14.078125 8.493580
26.500000 -13.062500 8.493580
26.500000 -12.921875 8.493580
26.600000 -12.406250 8.493580
26.700000 -11.765625 8.493580
26.800000 -10.875000 8.493580
27.100000 -10.984375 8.493580
26.600000 -14.546875 8.632920
26.500000 -13.515625 8.632920
26.500000 -13.875000 8.632920
26.500000 -12.359375 8.632920
26.500000 -11.843750 8.632920
26.600000 -11.953125 8.632920
26.800000 -11.062500 8.632920
27.200000 -10.046875 8.632920
26.400000 -14.238281 8.926464
26.300000 -13.849609 8.926464
26.300000 -13.085938 8.926464
26.400000 -12.072266 8.926464
26.500000 -11.433594 8.926464
26.700000 -11.294922 8.926464
27.000000 -10.531250 8.926464
26.300000 -14.616699 9.069507
26.300000 -12.974609 9.069507
26.300000 -13.332520 9.069507
26.300000 -11.940430 9.069507
26.300000 -12.423340 9.069507
26.500000 -11.406250 9.069507
26.400000 -14.322266 9.209814
26.300000 -14.929688 9.209814
26.200000 -13.662109 9.209814
26.200000 -13.644531 9.209814
26.300000 -13.001953 9.209814
26.300000 -12.234375 9.209814
26.500000 -11.841797 9.209814
26.200000 -14.892578 9.363596
26.200000 -14.497559 9.363596
26.100000 -12.977539 9.363596
26.100000 -12.957520 9.363596
26.200000 -11.812500 9.363596
26.300000 -11.049316 9.363596
26.200000 -13.731445 9.492737
26.100000 -14.716797 9.492737
26.100000 -13.077148 9.492737
26.100000 -12.062500 9.492737
26.100000 -11.297852 9.492737
26.200000 -11.658203 9.492737
26.200000 -14.767578 9.646590
26.100000 -13.977539 9.646590
26.000000 -13.957520 9.646590
26.000000 -13.062500 9.646590
26.000000 -12.798828 9.646590
26.100000 -11.160156 9.646590
26.300000 -11.396484 9.646590
26.100000 -14.989258 9.786002
26.100000 -14.475098 9.786002
26.100000 -13.460938 9.786002
26.000000 -13.071777 9.786002
26.000000 -12.557617 9.786002
26.100000 -12.043457 9.786002
26.300000 -11.654297 9.786002
26.600000 -10.515137 9.786002
26.100000 -14.486328 9.926776
26.000000 -13.468750 9.926776
26.000000 -13.953613 9.926776
26.000000 -12.563477 9.926776
26.000000 -12.173340 9.926776
26.100000 -10.908203 9.926776
26.100000 -14.914551 10.068125
26.000000 -14.648438 10.068125
26.000000 -14.132324 10.068125
25.900000 -12.866211 10.068125
26.000000 -12.850098 10.068125
26.100000 -10.833984 10.068125
26.200000 -11.192871 10.068125
26.200000 -14.976562 10.363415
26.000000 -14.071289 10.363415
25.900000 -13.556152 10.363415
25.900000 -13.541016 10.363415
26.000000 -11.650879 10.363415
26.000000 -11.385742 10.363415
26.100000 -10.995605 10.363415
26.400000 -10.855469 10.363415
26.100000 -14.783203 10.503695
26.100000 -14.894531 10.503695
26.000000 -14.755859 10.503695
25.900000 -14.117188 10.503695
25.900000 -12.353516 10.503695
25.900000 -12.089844 10.503695
26.000000 -11.326172 10.503695
26.100000 -10.812500 10.503695
26.400000 -11.048828 10.503695
26.100000 -14.265625 10.645904
26.100000 -14.750000 10.645904
26.000000 -14.484375 10.645904
25.900000 -13.468750 10.645904
25.900000 -12.953125 10.645904
25.900000 -11.937500 10.645904
26.000000 -11.421875 10.645904
26.200000 -10.781250 10.645904
26.600000 -10.015625 10.645904
26.200000 -14.716797 10.786166
26.000000 -14.183594 10.786166
25.900000 -12.916992 10.786166
25.900000 -12.900391 10.786166
25.900000 -11.758789 10.786166
26.000000 -11.367188 10.786166
26.100000 -10.975586 10.786166
26.000000 -14.060547 10.941983
25.900000 -13.921387 10.941983
25.900000 -14.032227 10.941983
25.900000 -12.268066 10.941983
25.900000 -11.503906 10.941983
25.900000 -11.614746 10.941983
26.100000 -10.975586 10.941983
26.400000 -10.336426 10.941983
26.100000 -14.919434 11.081989
25.900000 -14.403320 11.081989
25.900000 -13.137207 11.081989
25.900000 -12.996094 11.081989
25.900000 -12.979980 11.081989
26.000000 -12.338867 11.081989
26.100000 -11.322754 11.081989
26.400000 -11.056641 11.081989
26.000000 -14.314453 11.222678
25.900000 -14.046875 11.222678
25.900000 -13.029297 11.222678
25.900000 -12.261719 11.222678
25.900000 -11.494141 11.222678
26.100000 -11.726562 11.222678
26.000000 -14.730469 11.363031
25.900000 -13.839355 11.363031
25.900000 -12.698242 11.363031
25.900000 -12.432129 11.363031
25.900000 -12.291016 11.363031
26.000000 -11.399902 11.363031
26.300000 -10.258789 11.363031
26.700000 -9.992676 11.363031
26.000000 -14.671875 11.520021
25.900000 -12.906250 11.520021
25.900000 -13.265625 11.520021
25.900000 -11.875000 11.520021
26.000000 -11.484375 11.520021
26.200000 -10.843750 11.520021
26.600000 -10.828125 11.520021
26.500000 -14.603516 11.644801
26.300000 -14.088867 11.644801
26.000000 -13.324219 11.644801
25.800000 -13.434570 11.644801
26.000000 -11.515625 11.644801
26.100000 -14.314453 11.799158
26.000000 -13.673340 11.799158
26.000000 -12.907227 11.799158
26.100000 -12.141113 11.799158
26.100000 -12.250000 11.799158
26.200000 -10.361328 11.799158
26.200000 -14.387695 11.939772
26.100000 -13.498047 11.939772
26.100000 -13.608398 11.939772
26.100000 -13.093750 11.939772
26.200000 -11.704102 11.939772
26.200000 -11.189453 11.939772
26.400000 -11.424805 11.939772
26.800000 -10.035156 11.939772
26.300000 -14.915039 12.082121
26.200000 -13.771484 12.082121
26.100000 -13.252930 12.082121
26.100000 -13.359375 12.082121
26.100000 -12.969727 12.082121
26.200000 -11.955078 12.082121
26.200000 -11.065430 12.082121
26.400000 -11.175781 12.082121
26.800000 -10.411133 12.082121
26.300000 -14.478027 12.222984
26.300000 -14.335938 12.222984
26.200000 -13.193848 12.222984
26.200000 -12.926758 12.222984
26.200000 -11.909668 12.222984
26.300000 -11.642578 12.222984
26.500000 -11.625488 12.222984
26.700000 -10.983398 12.222984
26.300000 -14.046875 12.377128
26.300000 -14.782227 12.377128
26.200000 -13.267578 12.377128
26.200000 -12.752930 12.377128
26.200000 -12.238281 12.377128
26.300000 -12.223633 12.377128
26.500000 -10.458984 12.377128
26.400000 -13.899414 12.505663
26.300000 -14.009277 12.505663
26.300000 -13.369141 12.505663
26.300000 -12.979004 12.505663
26.400000 -11.588867 12.505663
26.500000 -11.323730 12.505663
26.700000 -10.558594 12.505663
27.100000 -10.043457 12.505663
26.500000 -14.501465 12.658660
26.400000 -13.361328 12.658660
26.300000 -13.596191 12.658660
26.300000 -12.331055 12.658660
26.300000 -12.315918 12.658660
26.400000 -11.800781 12.658660
26.500000 -11.035645 12.658660
26.600000 -14.072754 12.799672
26.500000 -13.932617 12.799672
26.400000 -13.542480 12.799672
26.400000 -11.777344 12.799672
26.400000 -11.762207 12.799672
26.500000 -11.122070 12.799672
26.700000 -10.106934 12.799672
27.100000 -10.341797 12.799672
26.600000 -14.427734 12.952489
26.500000 -13.913086 12.952489
26.400000 -12.523438 12.952489
26.400000 -12.008789 12.952489
26.500000 -11.619141 12.952489
26.500000 -11.479492 12.952489
26.700000 -10.589844 12.952489
27.100000 -10.200195 12.952489
26.700000 -13.946289 13.092978
26.600000 -13.554688 13.092978
26.600000 -13.163086 13.092978
26.500000 -11.771484 13.092978
26.500000 -12.504883 13.092978
26.600000 -11.363281 13.092978
26.700000 -10.721680 13.092978
27.100000 -10.330078 13.092978
27.200000 -14.878418 13.233099
26.900000 -14.863281 13.233099
26.800000 -13.723145 13.233099
26.600000 -13.083008 13.233099
26.500000 -13.317871 13.233099
26.500000 -12.427734 13.233099
26.600000 -11.162598 13.233099
26.700000 -11.272461 13.233099
26.900000 -10.382324 13.233099
27.200000 -14.945312 13.376688
26.800000 -13.662109 13.376688
26.600000 -13.895508 13.376688
26.600000 -12.003906 13.376688
26.600000 -12.237305 13.376688
26.600000 -11.345703 13.376688
26.700000 -10.204102 13.376688
26.900000 -10.437500 13.376688
26.900000 -13.760742 13.517084
26.800000 -13.246094 13.517084
26.700000 -12.106445 13.517084
26.600000 -12.591797 13.517084
26.600000 -11.577148 13.517084
26.700000 -10.812500 13.517084
27.100000 -14.351074 13.672892
27.000000 -14.208984 13.672892
26.900000 -14.316895 13.672892
26.800000 -13.549805 13.672892
26.700000 -13.032715 13.672892
26.700000 -12.265625 13.672892
26.800000 -11.377930 13.672892
26.900000 -10.240234 13.672892
27.300000 -10.352539 13.672892
27.000000 -14.934570 13.798813
26.900000 -13.544922 13.798813
26.800000 -13.405273 13.798813
26.900000 -13.015625 13.798813
26.700000 -11.750977 13.798813
26.700000 -10.736328 13.798813
26.900000 -10.221680 13.798813
27.200000 -10.457031 13.798813
27.000000 -14.394531 13.954791
26.900000 -14.501953 13.954791
26.800000 -13.359375 13.954791
26.800000 -12.969727 13.954791
26.800000 -11.705078 13.954791
26.800000 -11.815430 13.954791
26.900000 -10.800781 13.954791
27.100000 -10.411133 13.954791
27.100000 -14.722656 14.095545
27.000000 -14.705078 14.095545
26.900000 -14.562500 14.095545
26.800000 -12.919922 14.095545
26.800000 -13.027344 14.095545
26.900000 -12.259766 14.095545
26.900000 -11.742188 14.095545
26.900000 -11.224609 14.095545
27.200000 -10.707031 14.095545
27.000000 -14.687500 14.239154
26.900000 -13.798340 14.239154
26.800000 -13.659180 14.239154
26.800000 -12.270020 14.239154
26.900000 -11.630859 14.239154
26.900000 -11.741699 14.239154
26.900000 -11.352539 14.239154
27.100000 -14.485352 14.378750
26.900000 -14.095703 14.378750
26.800000 -13.956055 14.378750
26.800000 -12.441406 14.378750
26.900000 -12.676758 14.378750
26.900000 -11.412109 14.378750
26.900000 -10.522461 14.378750
27.100000 -10.882812 14.378750
27.500000 -9.993164 14.378750
27.100000 -14.615234 14.519843
26.900000 -13.339844 14.519843
26.800000 -13.702148 14.519843
26.900000 -12.939453 14.519843
27.000000 -12.426758 14.519843
27.000000 -12.039062 14.519843
27.000000 -10.901367 14.519843
27.100000 -14.613281 14.675100
26.900000 -14.348633 14.675100
26.800000 -13.583984 14.675100
26.900000 -13.319336 14.675100
26.900000 -12.554688 14.675100
27.000000 -12.040039 14.675100
27.000000 -10.525391 14.675100
27.100000 -11.135742 14.675100
26.900000 -13.612793 14.812872
26.900000 -13.347656 14.812872
26.900000 -12.957520 14.812872
27.000000 -11.317383 14.812872
27.000000 -10.677246 14.812872
27.100000 -11.287109 14.812872
27.000000 -13.757812 14.953924
26.900000 -13.868164 14.953924
27.000000 -12.978516 14.953924
27.000000 -12.088867 14.953924
27.000000 -10.824219 14.953924
27.100000 -10.559570 14.953924
27.000000 -14.868164 15.094883
27.000000 -14.103516 15.094883
27.000000 -13.588867 15.094883
27.100000 -12.824219 15.094883
27.100000 -11.059570 15.094883
27.100000 -11.044922 15.094883
27.000000 -13.963867 15.239720
27.000000 -13.068848 15.239720
27.000000 -13.173828 15.239720
27.000000 -12.028809 15.239720
27.100000 -11.883789 15.239720
27.100000 -10.738770 15.239720
27.200000 -10.468750 15.239720
27.000000 -14.062988 15.378696
27.100000 -13.798828 15.378696
27.100000 -13.409668 15.378696
27.000000 -11.895508 15.378696
27.100000 -12.381348 15.378696
27.100000 -11.742188 15.378696
27.200000 -10.353027 15.378696
27.100000 -14.035645 15.533042
27.100000 -12.768555 15.533042
27.000000 -13.376465 15.533042
27.000000 -12.609375 15.533042
27.100000 -12.096680 15.533042
27.100000 -10.333984 15.533042
27.200000 -14.310547 15.674710
27.100000 -12.921875 15.674710
27.000000 -12.658203 15.674710
27.100000 -11.269531 15.674710
27.100000 -11.880859 15.674710
27.200000 -10.992188 15.674710
27.100000 -14.517090 15.815914
27.100000 -13.375000 15.815914
27.100000 -12.860840 15.815914
27.000000 -12.971680 15.815914
27.100000 -11.957520 15.815914
27.100000 -11.693359 15.815914
27.100000 -10.179199 15.815914
27.400000 -10.790039 15.815914
27.100000 -14.726562 15.956874
27.100000 -14.587402 15.956874
27.000000 -13.198242 15.956874
27.000000 -13.434082 15.956874
27.100000 -12.794922 15.956874
27.100000 -12.280762 15.956874
27.200000 -10.641602 15.956874
27.300000 -10.752441 15.956874
27.600000 -10.113281 15.956874
27.100000 -14.408203 16.112743
27.100000 -14.644531 16.112743
27.000000 -14.005859 16.112743
27.000000 -13.492188 16.112743
27.100000 -12.478516 16.112743
27.100000 -11.964844 16.112743
27.200000 -11.201172 16.112743
27.300000 -10.937500 16.112743
27.600000 -9.548828 16.112743
27.100000 -14.637695 16.252905
27.000000 -13.496094 16.252905
27.100000 -13.104492 16.252905
27.100000 -12.337891 16.252905
27.100000 -10.946289 16.252905
27.200000 -11.304688 16.252905
27.400000 -10.788086 16.252905
27.200000 -14.830078 16.392868
27.100000 -14.065430 16.392868
27.000000 -14.175781 16.392868
27.000000 -13.286133 16.392868
27.000000 -13.271484 16.392868
27.100000 -12.256836 16.392868
27.200000 -11.242188 16.392868
27.200000 -10.102539 16.392868
27.500000 -10.337891 16.392868
27.200000 -14.959961 16.532596
27.100000 -14.443848 16.532596
27.100000 -13.427734 16.532596
27.000000 -13.911621 16.532596
27.000000 -12.770508 16.532596
27.100000 -12.254395 16.532596
27.100000 -12.113281 16.532596
27.200000 -11.472168 16.532596
27.400000 -10.956055 16.532596
27.300000 -14.623535 16.687130
27.100000 -14.982422 16.687130
27.000000 -13.091309 16.687130
27.000000 -12.700195 16.687130
27.000000 -12.684082 16.687130
27.100000 -12.292969 16.687130
27.200000 -11.776855 16.687130
27.300000 -10.760742 16.687130
27.600000 -10.119629 16.687130
27.100000 -14.650391 16.827810
27.000000 -14.261719 16.827810
27.000000 -13.248047 16.827810
27.000000 -12.234375 16.827810
27.100000 -12.345703 16.827810
27.200000 -11.082031 16.827810
27.300000 -11.193359 16.827810
27.500000 -9.804688 16.827810
27.100000 -14.984375 16.968664
27.000000 -14.218750 16.968664
27.000000 -12.703125 16.968664
27.000000 -12.062500 16.968664
27.000000 -11.546875 16.968664
27.200000 -10.781250 16.968664
27.300000 -10.515625 16.968664
27.500000 -9.625000 16.968664
27.100000 -14.582520 17.108846
27.100000 -13.691406 17.108846
27.000000 -13.300293 17.108846
27.000000 -12.659180 17.108846
27.100000 -12.393066 17.108846
27.100000 -12.001953 17.108846
27.300000 -11.485840 17.108846
27.500000 -10.844727 17.108846
27.100000 -13.948730 17.251934
27.000000 -13.432617 17.251934
27.000000 -13.416504 17.251934
27.000000 -12.400391 17.251934
27.000000 -12.134277 17.251934
27.200000 -10.493164 17.251934
27.400000 -10.977051 17.251934
27.200000 -14.847168 17.393886
27.100000 -14.331055 17.393886
27.000000 -13.564941 17.393886
27.000000 -13.423828 17.393886
27.000000 -12.282715 17.393886
26.900000 -12.016602 17.393886
27.100000 -11.000488 17.393886
27.400000 -10.359375 17.393886
27.800000 -10.596680 17.393886
27.300000 -14.062988 17.533658
27.100000 -14.423828 17.533658
27.000000 -12.659668 17.533658
26.900000 -12.520508 17.533658
26.800000 -11.506348 17.533658
26.900000 -11.242188 17.533658
27.200000 -10.728027 17.533658
27.500000 -9.963867 17.533658
27.100000 -13.974609 17.688605
26.900000 -13.832520 17.688605
26.900000 -12.690430 17.688605
26.800000 -12.923340 17.688605
26.900000 -12.406250 17.688605
27.000000 -11.768066 17.688605
27.200000 -11.129883 17.688605
27.600000 -10.741699 17.688605
27.100000 -14.225098 17.827235
26.900000 -13.584961 17.827235
26.800000 -12.194824 17.827235
26.800000 -11.804688 17.827235
26.800000 -11.289551 17.827235
27.000000 -10.774414 17.827235
27.400000 -10.009277 17.827235
27.500000 -14.945312 17.972244
27.200000 -14.302734 17.972244
27.000000 -13.535156 17.972244
26.800000 -13.392578 17.972244
26.700000 -12.875000 17.972244
26.800000 -11.984863 17.972244
26.800000 -10.969727 17.972244
27.000000 -11.329590 17.972244
27.400000 -9.689453 17.972244
27.100000 -13.974609 18.108757
26.900000 -14.081055 18.108757
26.800000 -13.312500 18.108757
26.700000 -12.168945 18.108757
26.800000 -12.275391 18.108757
26.900000 -11.131836 18.108757
27.100000 -14.257812 18.253905
27.000000 -14.238281 18.253905
26.900000 -13.218750 18.253905
26.700000 -12.954102 18.253905
26.700000 -12.314453 18.253905
26.800000 -11.674805 18.253905
27.000000 -11.410156 18.253905
27.200000 -10.645508 18.253905
26.900000 -14.765625 18.392870
26.700000 -13.500000 18.392870
26.600000 -13.359375 18.392870
26.700000 -11.968750 18.392870
26.800000 -10.953125 18.392870
26.900000 -11.312500 18.392870
27.200000 -10.046875 18.392870
27.000000 -14.906250 18.547806
26.800000 -14.142090 18.547806
26.700000 -13.752930 18.547806
26.600000 -13.238770 18.547806
26.700000 -11.974609 18.547806
26.800000 -11.085449 18.547806
26.900000 -11.071289 18.547806
27.200000 -10.307129 18.547806
27.200000 -14.648438 18.688986
26.800000 -14.509277 18.688986
26.700000 -13.370117 18.688986
26.600000 -13.730957 18.688986
26.600000 -12.716797 18.688986
26.600000 -11.827637 18.688986
26.700000 -11.688477 18.688986
26.900000 -11.299316 18.688986
27.200000 -10.910156 18.688986
26.700000 -13.750977 18.828949
26.600000 -14.360840 18.828949
26.600000 -13.345703 18.828949
26.600000 -13.080566 18.828949
26.600000 -11.940430 18.828949
26.800000 -11.175293 18.828949
26.600000 -14.181152 18.968772
26.600000 -13.791016 18.968772
26.600000 -13.400879 18.968772
26.600000 -11.760742 18.968772
26.600000 -12.245605 18.968772
26.700000 -11.730469 18.968772
26.700000 -14.232910 19.125809
26.600000 -14.216797 19.125809
26.500000 -12.950684 19.125809
26.500000 -13.559570 19.125809
26.500000 -12.543457 19.125809
26.600000 -12.152344 19.125809
26.700000 -10.386230 19.125809
26.500000 -13.966797 19.268040
26.500000 -13.573730 19.268040
26.400000 -13.305664 19.268040
26.400000 -12.287598 19.268040
26.500000 -12.144531 19.268040
26.600000 -11.251465 19.268040
26.800000 -10.358398 19.268040
27.100000 -10.340332 19.268040
26.500000 -14.859375 19.409997
26.400000 -14.718750 19.409997
26.400000 -14.328125 19.409997
26.400000 -13.312500 19.409997
26.400000 -13.296875 19.409997
26.500000 -12.156250 19.409997
26.600000 -12.140625 19.409997
26.700000 -10.375000 19.409997
27.000000 -10.359375 19.409997
26.400000 -14.928711 19.552810
26.300000 -13.414062 19.552810
26.300000 -12.774414 19.552810
26.300000 -12.384766 19.552810
26.400000 -11.620117 19.552810
26.600000 -11.980469 19.552810
26.300000 -13.562500 19.692053
26.300000 -12.796875 19.692053
26.300000 -12.656250 19.692053
26.300000 -11.765625 19.692053
26.400000 -10.500000 19.692053
26.300000 -14.915039 19.834142
26.300000 -14.523438 19.834142
26.200000 -14.756836 19.834142
26.200000 -14.115234 19.834142
26.200000 -12.598633 19.834142
26.200000 -12.207031 19.834142
26.300000 -11.315430 19.834142
26.500000 -10.798828 19.834142
26.900000 -10.282227 19.834142
26.300000 -14.527344 19.976669
26.200000 -13.116211 19.976669
26.100000 -13.223145 19.976669
26.100000 -11.955078 19.976669
26.200000 -11.187012 19.976669
26.400000 -11.293945 19.976669
26.200000 -14.433594 20.130718
26.100000 -13.791504 20.130718
26.100000 -14.274414 20.130718
26.100000 -13.257324 20.130718
26.100000 -12.365234 20.130718
26.100000 -12.348145 20.130718
26.300000 -11.831055 20.130718
26.200000 -14.573730 20.271892
26.100000 -13.807617 20.271892
26.100000 -14.166504 20.271892
26.000000 -12.775391 20.271892
26.000000 -12.634277 20.271892
26.100000 -12.118164 20.271892
26.200000 -11.352051 20.271892
26.200000 -14.649414 20.412837
26.100000 -13.365234 20.412837
26.000000 -13.848145 20.412837
26.000000 -12.706055 20.412837
26.000000 -11.938965 20.412837
26.100000 -11.796875 20.412837
26.300000 -11.533691 20.412837
26.600000 -10.520508 20.412837
26.100000 -13.996094 20.553524
26.000000 -13.356445 20.553524
26.000000 -12.966797 20.553524
26.000000 -12.077148 20.553524
26.000000 -11.562500 20.553524
26.000000 -11.422852 20.553524
26.200000 -11.408203 20.553524
26.600000 -10.393555 20.553524
26.100000 -14.523438 20.695555
26.000000 -14.738281 20.695555
26.000000 -13.720703 20.695555
26.000000 -12.578125 20.695555
26.000000 -12.439941 20.695555
26.100000 -11.301758 20.695555
26.200000 -11.288574 20.695555
26.500000 -11.025391 20.695555
26.100000 -14.714844 20.836333
26.000000 -14.076172 20.836333
25.900000 -13.437500 20.836333
25.900000 -12.548828 20.836333
25.900000 -11.535156 20.836333
25.900000 -10.896484 20.836333
26.100000 -11.757812 20.836333
26.100000 -14.424805 20.993346
26.000000 -14.140625 20.993346
25.900000 -13.500000 20.993346
25.900000 -11.734375 20.993346
26.000000 -11.093750 20.993346
26.000000 -11.453125 20.993346
26.100000 -14.851562 21.119951
26.000000 -13.319336 21.119951
25.900000 -14.053223 21.119951
25.900000 -13.162109 21.119951
25.900000 -12.520996 21.119951
26.000000 -12.254883 21.119951
26.100000 -11.113770 21.119951
26.400000 -11.097656 21.119951
26.000000 -14.075195 21.272996
26.000000 -14.558594 21.272996
25.900000 -12.291992 21.272996
25.900000 -12.900391 21.272996
26.000000 -11.508789 21.272996
26.000000 -12.117188 21.272996
26.100000 -10.725586 21.272996
26.500000 -9.958984 21.272996
26.000000 -14.494141 21.426826
26.000000 -13.479004 21.426826
25.900000 -13.963867 21.426826
25.900000 -11.823730 21.426826
25.900000 -11.433594 21.426826
26.000000 -11.918457 21.426826
26.100000 -10.903320 21.426826
26.400000 -11.013184 21.426826
26.000000 -14.941406 21.706514
25.900000 -13.802246 21.706514
25.800000 -13.538086 21.706514
25.800000 -12.273926 21.706514
25.900000 -10.759766 21.706514
26.100000 -11.745605 21.706514
26.000000 -14.085938 21.845489
25.900000 -14.446289 21.845489
25.900000 -14.181641 21.845489
25.900000 -13.166992 21.845489
25.900000 -11.527344 21.845489
25.900000 -11.512695 21.845489
26.100000 -10.373047 21.845489
26.000000 -14.330566 21.986809
25.900000 -13.314453 21.986809
25.900000 -12.173340 21.986809
25.900000 -11.907227 21.986809
26.000000 -11.266113 21.986809
26.100000 -11.000000 21.986809
26.500000 -10.487305 21.986809
26.100000 -14.814453 22.129160
26.000000 -14.920898 22.129160
26.000000 -13.652344 22.129160
25.900000 -13.008789 22.129160
25.900000 -11.865234 22.129160
25.900000 -12.471680 22.129160
26.100000 -12.078125 22.129160
26.300000 -11.184570 22.129160
26.600000 -10.791016 22.129160
26.000000 -13.680664 22.283005
25.900000 -13.662109 22.283005
26.000000 -13.393555 22.283005
26.100000 -12.375000 22.283005
26.100000 -11.235840 22.283005
26.300000 -11.346680 22.283005
26.600000 -9.957520 22.283005
26.200000 -13.956543 22.423548
26.100000 -14.692383 22.423548
26.000000 -13.303223 22.423548
26.000000 -12.914062 22.423548
26.100000 -12.149902 22.423548
26.100000 -12.010742 22.423548
26.300000 -11.496582 22.423548
26.300000 -14.878906 22.565364
26.200000 -13.611328 22.565364
26.100000 -13.968750 22.565364
26.100000 -13.205566 22.565364
26.100000 -12.317383 22.565364
26.200000 -11.554199 22.565364
26.300000 -10.666016 22.565364
26.500000 -10.902832 22.565364
27.000000 -9.764648 22.565364
26.300000 -14.921875 22.703817
26.100000 -13.658203 22.703817
26.100000 -13.019531 22.703817
26.100000 -13.130859 22.703817
26.100000 -11.867188 22.703817
26.300000 -11.603516 22.703817
26.400000 -10.589844 22.703817
26.700000 -10.201172 22.703817
26.300000 -14.782227 22.858829
26.300000 -13.517578 22.858829
26.200000 -13.502930 22.858829
26.200000 -13.488281 22.858829
26.200000 -11.973633 22.858829
26.300000 -11.208984 22.858829
26.400000 -11.694336 22.858829
26.400000 -14.523438 23.139907
26.300000 -14.130859 23.139907
26.300000 -13.863281 23.139907
26.300000 -12.720703 23.139907
26.400000 -12.578125 23.139907
26.400000 -11.060547 23.139907
26.600000 -11.042969 23.139907
26.900000 -9.775391 23.139907
26.600000 -14.603516 23.281553
26.500000 -13.838379 23.281553
26.400000 -13.073242 23.281553
26.400000 -13.683105 23.281553
26.400000 -12.417969 23.281553
26.400000 -11.402832 23.281553
26.500000 -11.262695 23.281553
26.700000 -10.372559 23.281553
27.000000 -9.607422 23.281553
26.700000 -14.859375 23.420867
26.600000 -14.593750 23.420867
26.500000 -13.828125 23.420867
26.400000 -13.312500 23.420867
26.400000 -12.171875 23.420867
26.400000 -12.531250 23.420867
26.500000 -11.890625 23.420867
26.700000 -11.125000 23.420867
27.000000 -9.984375 23.420867
26.800000 -14.734375 23.576576
26.600000 -14.718750 23.576576
26.600000 -14.078125 23.576576
26.400000 -12.937500 23.576576
26.500000 -12.421875 23.576576
26.500000 -12.031250 23.576576
26.600000 -10.890625 23.576576
26.800000 -10.500000 23.576576
27.200000 -9.859375 23.576576
26.700000 -14.820312 23.716493
26.600000 -13.055664 23.716493
26.600000 -13.416016 23.716493
26.500000 -11.901367 23.716493
26.500000 -12.136719 23.716493
26.500000 -11.747070 23.716493
26.800000 -10.232422 23.716493
27.100000 -9.592773 23.716493
26.800000 -14.462891 23.856888
26.600000 -13.198242 23.856888
26.500000 -12.933594 23.856888
26.600000 -12.293945 23.856888
26.600000 -11.779297 23.856888
26.700000 -11.389648 23.856888
27.100000 -10.250000 23.856888
27.000000 -14.954102 23.996201
26.800000 -14.062012 23.996201
26.700000 -12.669922 23.996201
26.600000 -12.527832 23.996201
26.600000 -12.510742 23.996201
26.600000 -11.243652 23.996201
26.800000 -10.851562 23.996201
27.100000 -10.334473 23.996201
27.000000 -13.914062 24.153788
26.900000 -13.396484 24.153788
26.800000 -13.503906 24.153788
26.700000 -12.236328 24.153788
26.700000 -11.218750 24.153788
26.700000 -11.331055 24.153788
26.800000 -10.818359 24.153788
27.200000 -9.930664 24.153788
27.000000 -14.656250 24.293920
27.000000 -13.765625 24.293920
26.900000 -13.250000 24.293920
26.900000 -13.109375 24.293920
26.700000 -11.843750 24.293920
26.700000 -11.328125 24.293920
26.800000 -11.437500 24.293920
27.100000 -14.879883 24.433631
26.800000 -13.736816 24.433631
26.700000 -13.093750 24.433631
26.600000 -12.580078 24.433631
26.700000 -11.039062 24.433631
27.000000 -14.702148 24.574591
26.900000 -14.687500 24.574591
26.800000 -13.422852 24.574591
26.800000 -12.408203 24.574591
26.800000 -12.018555 24.574591
26.900000 -11.128906 24.574591
26.900000 -10.739258 24.574591
27.100000 -10.099609 24.574591
27.000000 -14.828125 24.716663
26.900000 -13.688477 24.716663
26.800000 -13.673828 24.716663
26.800000 -13.159180 24.716663
26.900000 -12.894531 24.716663
26.900000 -11.129883 24.716663
26.800000 -10.490234 24.716663
26.900000 -14.253906 24.860661
26.800000 -13.740234 24.860661
26.800000 -13.101562 24.860661
26.900000 -11.712891 24.860661
26.900000 -11.449219 24.860661
26.900000 -11.435547 24.860661
26.900000 -14.833984 25.000604
26.800000 -13.070312 25.000604
26.800000 -13.306641 25.000604
26.900000 -12.917969 25.000604
26.900000 -11.654297 25.000604
26.900000 -11.640625 25.000604
27.100000 -11.001953 25.000604
27.500000 -9.863281 25.000604
27.100000 -14.981445 25.158855
27.000000 -14.089844 25.158855
26.900000 -13.198242 25.158855
26.900000 -13.181641 25.158855
26.900000 -12.790039 25.158855
27.000000 -12.148438 25.158855
27.000000 -11.381836 25.158855
27.100000 -10.740234 25.158855
27.100000 -14.906250 25.299921
27.000000 -14.515625 25.299921
26.900000 -14.625000 25.299921
26.900000 -13.359375 25.299921
27.000000 -13.093750 25.299921
27.000000 -11.578125 25.299921
26.900000 -11.937500 25.299921
27.000000 -10.546875 25.299921
27.100000 -14.692383 25.441114
27.000000 -14.301270 25.441114
26.800000 -14.035156 25.441114
26.900000 -12.644043 25.441114
27.000000 -12.752930 25.441114
27.000000 -11.986816 25.441114
27.100000 -11.220703 25.441114
27.200000 -10.954590 25.441114
27.500000 -9.938477 25.441114
27.100000 -14.762207 25.580749
27.000000 -14.496094 25.580749
26.900000 -13.354980 25.580749
27.000000 -12.463867 25.580749
27.000000 -12.072754 25.580749
27.000000 -11.681641 25.580749
27.000000 -11.165527 25.580749
27.000000 -14.464844 25.722374
27.000000 -13.824707 25.722374
27.000000 -12.934570 25.722374
27.000000 -12.794434 25.722374
27.000000 -12.529297 25.722374
27.000000 -11.639160 25.722374
27.100000 -10.749023 25.722374
27.000000 -14.582520 25.863022
27.000000 -14.192383 25.863022
27.000000 -12.927246 25.863022
26.900000 -12.662109 25.863022
27.000000 -12.396973 25.863022
27.100000 -10.881836 25.863022
27.200000 -10.741699 25.863022
27.100000 -14.961426 26.016929
27.000000 -14.692383 26.016929
27.100000 -14.548340 26.016929
27.100000 -12.654297 26.016929
27.000000 -12.635254 26.016929
27.100000 -12.616211 26.016929
27.000000 -11.222168 26.016929
27.100000 -11.328125 26.016929
27.100000 -14.505371 26.157916
27.000000 -14.615234 26.157916
27.100000 -14.475098 26.157916
27.100000 -12.584961 26.157916
27.000000 -13.069824 26.157916
27.100000 -12.054688 26.157916
27.100000 -11.539551 26.157916
27.200000 -10.524414 26.157916
27.100000 -14.254395 26.298714
27.100000 -14.862305 26.298714
27.000000 -12.970215 26.298714
27.000000 -13.453125 26.298714
27.000000 -12.315430 26.298714
27.100000 -12.177734 26.298714
27.200000 -11.540039 26.298714
27.100000 -14.489746 26.439094
27.100000 -14.351562 26.439094
27.100000 -13.463379 26.439094
27.100000 -12.575195 26.439094
27.100000 -12.062012 26.439094
27.100000 -11.173828 26.439094
27.200000 -10.160645 26.439094
27.000000 -13.815430 26.580545
27.000000 -13.052734 26.580545
27.000000 -12.790039 26.580545
27.100000 -12.777344 26.580545
27.100000 -11.514648 26.580545
27.200000 -10.251953 26.580545
27.400000 -10.114258 26.580545
27.100000 -14.135742 26.721936
27.000000 -13.621582 26.721936
27.000000 -13.232422 26.721936
27.000000 -13.093262 26.721936
27.100000 -12.204102 26.721936
27.200000 -11.064941 26.721936
27.300000 -10.550781 26.721936
27.600000 -10.536621 26.721936
27.100000 -14.785645 26.875185
27.000000 -13.271484 26.875185
27.000000 -13.507324 26.875185
27.000000 -12.993164 26.875185
27.100000 -11.354004 26.875185
27.100000 -11.839844 26.875185
27.300000 -10.825684 26.875185
27.500000 -10.811523 26.875185
27.200000 -14.515625 27.016609
27.100000 -14.125000 27.016609
27.000000 -14.109375 27.016609
27.000000 -13.218750 27.016609
27.000000 -11.953125 27.016609
27.100000 -12.062500 27.016609
27.200000 -11.296875 27.016609
27.400000 -10.031250 27.016609
27.700000 -10.265625 27.016609
27.200000 -14.541992 27.158695
27.100000 -14.400391 27.158695
27.000000 -13.883789 27.158695
27.000000 -13.367188 27.158695
27.000000 -11.975586 27.158695
27.100000 -11.833984 27.158695
27.200000 -11.692383 27.158695
27.300000 -10.925781 27.158695
27.500000 -10.534180 27.158695
27.100000 -14.004395 27.313504
27.000000 -13.238281 27.313504
27.000000 -13.472168 27.313504
27.000000 -12.956055 27.313504
27.100000 -12.064941 27.313504
27.100000 -11.423828 27.313504
27.300000 -10.657715 27.313504
27.500000 -10.766602 27.313504
27.200000 -14.957031 27.441830
27.100000 -13.816895 27.441830
27.000000 -13.926758 27.441830
27.000000 -13.036621 27.441830
27.000000 -12.021484 27.441830
27.100000 -12.006348 27.441830
27.300000 -10.866211 27.441830
27.400000 -10.476074 27.441830
27.200000 -14.402832 27.596066
27.100000 -14.887695 27.596066
27.000000 -14.122559 27.596066
27.000000 -12.982422 27.596066
27.000000 -12.092285 27.596066
27.100000 -11.327148 27.596066
27.200000 -10.687012 27.596066
27.400000 -10.796875 27.596066
27.200000 -14.832031 27.737049
27.100000 -14.318359 27.737049
27.000000 -13.304688 27.737049
27.000000 -12.416016 27.737049
27.000000 -12.152344 27.737049
27.100000 -12.013672 27.737049
27.200000 -11.125000 27.737049
27.400000 -10.736328 27.737049
27.100000 -14.124023 27.878824
27.000000 -14.355469 27.878824
27.000000 -12.586914 27.878824
27.000000 -13.068359 27.878824
27.000000 -12.424805 27.878824
27.100000 -11.031250 27.878824
27.200000 -10.142090 27.878824
27.600000 -9.877930 27.878824
27.100000 -14.671875 28.019958
27.000000 -13.527344 28.019958
27.000000 -13.257812 28.019958
26.900000 -12.488281 28.019958
26.900000 -11.718750 28.019958
27.200000 -11.199219 28.019958
27.500000 -10.054688 28.019958
27.400000 -14.967773 28.161933
27.300000 -13.949219 28.161933
27.100000 -13.430664 28.161933
27.000000 -13.162109 28.161933
26.900000 -11.893555 28.161933
26.800000 -11.250000 28.161933
26.900000 -11.486328 28.161933
27.200000 -10.972656 28.161933
27.500000 -10.708984 28.161933
27.300000 -14.428223 28.300946
27.100000 -13.913086 28.300946
26.900000 -13.522949 28.300946
26.800000 -12.757812 28.300946
26.800000 -12.492676 28.300946
26.900000 -11.977539 28.300946
27.100000 -11.087402 28.300946
27.500000 -10.822266 28.300946
27.100000 -14.299316 28.455848
26.900000 -13.906250 28.455848
26.800000 -13.017090 28.455848
26.800000 -11.627930 28.455848
26.800000 -12.113770 28.455848
27.000000 -10.849609 28.455848
27.300000 -10.085449 28.455848
27.600000 -14.935547 28.598976
27.300000 -14.170898 28.598976
27.100000 -14.531250 28.598976
26.900000 -12.766602 28.598976
26.800000 -12.751953 28.598976
26.700000 -11.862305 28.598976
26.800000 -11.597656 28.598976
27.000000 -10.958008 28.598976
27.300000 -10.693359 28.598976
27.000000 -14.234375 28.738841
26.900000 -13.343750 28.738841
26.700000 -13.453125 28.738841
26.700000 -11.812500 28.738841
26.800000 -12.046875 28.738841
27.000000 -11.281250 28.738841
27.300000 -10.265625 28.738841
27.000000 -14.209961 28.878710
26.800000 -12.818848 28.878710
26.700000 -12.802734 28.878710
26.700000 -12.786621 28.878710
26.800000 -11.645508 28.878710
27.000000 -10.629395 28.878710
27.300000 -10.738281 28.878710
27.100000 -14.333008 29.022876
26.900000 -13.819824 29.022876
26.800000 -13.931641 29.022876
26.600000 -13.043457 29.022876
26.700000 -12.405273 29.022876
26.700000 -12.142090 29.022876
26.900000 -11.378906 29.022876
27.100000 -10.240723 29.022876
26.900000 -13.962891 29.176831
26.700000 -13.822754 29.176831
26.600000 -13.557617 29.176831
26.700000 -12.542480 29.176831
26.700000 -11.277344 29.176831
26.800000 -11.637207 29.176831
26.800000 -14.564941 29.317801
26.700000 -14.299805 29.317801
26.600000 -13.159668 29.317801
26.600000 -12.519531 29.317801
26.600000 -12.004395 29.317801
26.700000 -11.489258 29.317801
26.900000 -11.224121 29.317801
27.200000 -10.958984 29.317801
26.700000 -14.973145 29.458544
26.600000 -14.582031 29.458544
26.600000 -13.565918 29.458544
26.600000 -12.299805 29.458544
26.600000 -11.908691 29.458544
26.700000 -11.392578 29.458544
26.900000 -10.751465 29.458544
27.200000 -10.860352 29.458544
26.600000 -14.613770 29.598843
26.500000 -12.973633 29.598843
26.500000 -12.333496 29.598843
26.600000 -11.693359 29.598843
26.700000 -11.428223 29.598843
26.800000 -11.413086 29.598843
26.500000 -13.604492 29.741238
26.500000 -13.589844 29.741238
26.500000 -13.325195 29.741238
26.600000 -12.310547 29.741238
26.700000 -11.670898 29.741238
26.900000 -11.406250 29.741238
27.200000 -11.017090 29.741238
26.600000 -14.411621 29.880645
26.500000 -14.271484 29.880645
26.400000 -14.006348 29.880645
26.500000 -12.491211 29.880645
26.500000 -12.726074 29.880645
26.600000 -11.210938 29.880645
26.700000 -11.070801 29.880645
26.500000 -14.470703 30.036362
26.400000 -14.825684 30.036362
26.400000 -13.055664 30.036362
26.300000 -12.910645 30.036362
26.400000 -11.890625 30.036362
26.500000 -11.875977 30.036362
26.700000 -11.611328 30.036362
27.000000 -10.346680 30.036362
26.400000 -14.168457 30.175987
26.300000 -14.276367 30.175987
26.300000 -12.634277 30.175987
26.300000 -12.992188 30.175987
26.300000 -11.475098 30.175987
26.500000 -11.458008 30.175987
26.300000 -13.693359 30.315904
26.300000 -13.799805 30.315904
26.300000 -12.656250 30.315904
26.300000 -12.517578 30.315904
26.300000 -11.628906 30.315904
26.500000 -10.365234 30.315904
26.200000 -14.271973 30.456874
26.200000 -13.007812 30.456874
26.200000 -12.993652 30.456874
26.200000 -12.479492 30.456874
26.300000 -11.965332 30.456874
26.500000 -11.951172 30.456874
26.200000 -14.517090 30.613546
26.100000 -13.486328 30.613546
26.100000 -13.097656 30.613546
26.100000 -13.083984 30.613546
26.100000 -12.320312 30.613546
26.300000 -11.931641 30.613546
26.100000 -14.672852 30.754001
26.100000 -14.283203 30.754001
26.000000 -13.393555 30.754001
26.000000 -12.503906 30.754001
26.100000 -12.239258 30.754001
26.300000 -11.724609 30.754001
26.200000 -14.865234 30.894506
26.000000 -13.852539 30.894506
26.000000 -14.214844 30.894506
26.000000 -13.577148 30.894506
26.000000 -11.939453 30.894506
26.100000 -12.051758 30.894506
26.200000 -11.414062 30.894506
26.500000 -10.276367 30.894506
26.100000 -14.830078 31.036725
26.100000 -13.312988 31.036725
26.000000 -12.545898 31.036725
26.000000 -13.278809 31.036725
26.000000 -12.636719 31.036725
26.200000 -11.494629 31.036725
26.000000 -13.729492 31.179288
26.000000 -14.087891 31.179288
25.900000 -13.196289 31.179288
25.900000 -12.554688 31.179288
26.000000 -10.913086 31.179288
26.100000 -10.521484 31.179288
26.100000 -14.176758 31.334751
26.000000 -13.912109 31.334751
25.900000 -14.522461 31.334751
25.900000 -12.382812 31.334751
25.900000 -12.493164 31.334751
26.000000 -12.478516 31.334751
26.100000 -11.463867 31.334751
26.000000 -14.843750 31.460638
26.000000 -14.578125 31.460638
25.900000 -13.687500 31.460638
25.900000 -12.046875 31.460638
25.900000 -12.156250 31.460638
26.100000 -11.265625 31.460638
26.300000 -10.125000 31.460638
26.600000 -10.234375 31.460638
26.100000 -14.703125 31.617036
26.000000 -13.921875 31.617036
25.900000 -13.406250 31.617036
25.900000 -12.640625 31.617036
25.900000 -13.000000 31.617036
25.900000 -12.234375 31.617036
26.100000 -10.343750 31.617036
26.000000 -14.091309 31.755928
25.900000 -12.827148 31.755928
25.900000 -13.562988 31.755928
25.900000 -11.798828 31.755928
25.900000 -12.284668 31.755928
26.000000 -11.895508 31.755928
26.000000 -13.755859 31.896744
25.900000 -13.739258 31.896744
25.900000 -13.222656 31.896744
25.900000 -11.956055 31.896744
25.900000 -12.189453 31.896744
26.000000 -10.547852 31.896744
26.000000 -14.796387 32.037154
25.900000 -14.029297 32.037154
25.900000 -12.887207 32.037154
25.900000 -12.745117 32.037154
25.900000 -12.228027 32.037154
26.000000 -11.210938 32.037154
26.200000 -10.318848 32.037154
26.500000 -10.926758 32.037154
26.000000 -14.287109 32.193715
25.900000 -13.520020 32.193715
25.900000 -13.752930 32.193715
25.900000 -12.235840 32.193715
25.900000 -11.718750 32.193715
25.900000 -12.205566 32.193715
26.100000 -11.567383 32.193715
26.500000 -10.929199 32.193715
26.100000 -14.355469 32.334762
25.900000 -13.951172 32.334762
25.900000 -13.311523 32.334762
25.900000 -13.171875 32.334762
25.900000 -12.282227 32.334762
26.000000 -10.642578 32.334762
26.200000 -10.127930 32.334762
26.500000 -10.863281 32.334762
26.100000 -14.787109 32.473965
26.000000 -14.268555 32.473965
25.900000 -13.750000 32.473965
25.900000 -12.985840 32.473965
25.900000 -11.346680 32.473965
26.000000 -11.957520 32.473965
26.100000 -10.318359 32.473965
26.100000 -14.131348 32.614934
26.000000 -14.117188 32.614934
25.900000 -12.603027 32.614934
25.900000 -13.588867 32.614934
25.900000 -12.449707 32.614934
26.000000 -11.310547 32.614934
26.100000 -11.421387 32.614934
26.000000 -14.079102 32.759464
25.900000 -13.564453 32.759464
25.900000 -12.674805 32.759464
25.900000 -13.035156 32.759464
26.000000 -11.895508 32.759464
26.000000 -12.005859 32.759464
26.200000 -14.979492 32.899258
26.100000 -14.965332 32.899258
25.900000 -13.701172 32.899258
25.900000 -13.437012 32.899258
26.000000 -12.047852 32.899258
26.100000 -11.783691 32.899258
26.200000 -11.769531 32.899258
26.300000 -14.967773 33.053791
26.200000 -14.576660 33.053791
26.100000 -14.310547 33.053791
26.100000 -14.544434 33.053791
26.100000 -12.403320 33.053791
26.000000 -11.762207 33.053791
26.100000 -11.871094 33.053791
26.200000 -10.479980 33.053791
26.300000 -10.713867 33.053791
26.700000 -9.947754 33.053791
26.300000 -14.957031 33.195709
26.200000 -13.927734 33.195709
26.100000 -13.538086 33.195709
26.100000 -12.898438 33.195709
26.200000 -11.633789 33.195709
26.200000 -11.369141 33.195709
26.400000 -10.854492 33.195709
26.700000 -9.839844 33.195709
26.200000 -14.522461 33.335660
26.100000 -13.382812 33.335660
26.100000 -13.368164 33.335660
26.200000 -12.603516 33.335660
26.300000 -11.963867 33.335660
26.400000 -10.574219 33.335660
26.300000 -14.968750 33.480547
26.300000 -13.578125 33.480547
26.200000 -13.062500 33.480547
26.200000 -13.171875 33.480547
26.300000 -12.031250 33.480547
26.400000 -11.890625 33.480547
26.600000 -11.125000 33.480547
27.000000 -10.359375 33.480547
26.400000 -13.906250 33.619059
26.300000 -13.765625 33.619059
26.200000 -12.875000 33.619059
26.200000 -12.109375 33.619059
26.300000 -11.593750 33.619059
26.400000 -10.828125 33.619059
26.400000 -14.494141 33.775424
26.300000 -14.229492 33.775424
26.300000 -13.839844 33.775424
26.400000 -12.950195 33.775424
26.400000 -11.185547 33.775424
26.400000 -10.920898 33.775424
26.600000 -11.031250 33.775424
26.900000 -9.768555 33.775424
26.500000 -14.472656 33.900893
26.400000 -12.831055 33.900893
26.400000 -13.314453 33.900893
26.400000 -12.922852 33.900893
26.500000 -12.156250 33.900893
26.500000 -10.264648 33.900893
26.800000 -10.123047 33.900893
27.200000 -9.356445 33.900893
26.600000 -14.042969 34.055445
26.500000 -12.898438 34.055445
26.400000 -13.253906 34.055445
26.400000 -12.984375 34.055445
26.400000 -12.220215 34.055445
26.500000 -11.706055 34.055445
26.800000 -9.941895 34.055445
27.200000 -9.677734 34.055445
26.700000 -14.220703 34.196607
26.600000 -13.829102 34.196607
26.500000 -12.437500 34.196607
26.400000 -12.045898 34.196607
26.500000 -11.529297 34.196607
26.500000 -11.762695 34.196607
26.800000 -10.871094 34.196607
27.200000 -10.729492 34.196607
26.800000 -14.438965 34.338780
26.700000 -13.296875 34.338780
26.600000 -13.158691 34.338780
