32.275000 -10.453125 0.013999
32.175000 -8.890625 0.013999
32.050000 -7.859375 0.013999
32.075000 -6.578125 0.013999
36.175000 -4.687500 0.013999
36.250000 -3.390625 0.013999
37.800000 1.875000 0.013999
37.550000 3.031250 0.013999
37.900000 4.187500 0.013999
32.350000 -10.500000 0.154000
32.175000 -9.328125 0.154000
32.050000 -7.703125 0.154000
37.725000 2.937500 0.154000
37.925000 4.171875 0.154000
32.425000 -10.859375 0.296000
32.275000 -9.765625 0.296000
32.100000 -8.281250 0.296000
32.025000 -7.062500 0.296000
36.475000 -2.296875 0.296000
38.000000 2.734375 0.296000
37.900000 3.812500 0.296000
32.250000 -10.156250 0.442000
32.125000 -8.703125 0.442000
32.025000 -7.328125 0.442000
36.525000 -2.593750 0.442000
38.150000 2.203125 0.442000
32.275000 -9.609375 0.578999
32.100000 -8.468750 0.578999
32.075000 -7.421875 0.578999
36.675000 -2.578125 0.578999
38.300000 2.640625 0.578999
38.175000 3.609375 0.578999
32.250000 -9.859375 0.719999
32.100000 -8.703125 0.719999
32.025000 -7.453125 0.719999
36.675000 -2.796875 0.719999
38.400000 2.359375 0.719999
38.350000 3.531250 0.719999
32.250000 -10.281250 0.863000
32.100000 -8.906250 0.863000
32.000000 -7.359375 0.863000
37.300000 -4.218750 0.863000
36.800000 -3.078125 0.863000
32.250000 -9.718750 1.008001
32.100000 -9.109375 1.008001
32.025000 -7.250000 1.008001
36.800000 -3.015625 1.008001
32.325000 -10.500000 1.146001
32.200000 -9.015625 1.146001
32.050000 -7.390625 1.146001
32.125000 -6.828125 1.146001
36.375000 -4.546875 1.146001
36.875000 -3.078125 1.146001
38.800000 2.890625 1.146001
39.075000 4.468750 1.146001
32.350000 -11.046875 1.288000
32.200000 -9.671875 1.288000
32.100000 -8.218750 1.288000
32.025000 -6.484375 1.288000
32.350000 -5.453125 1.288000
36.950000 -3.562500 1.288000
37.150000 -2.437500 1.288000
38.000000 -1.281250 1.288000
38.825000 1.312500 1.288000
38.925000 2.687500 1.288000
38.975000 4.171875 1.288000
32.425000 -10.843750 1.433001
32.250000 -9.390625 1.433001
32.175000 -7.906250 1.433001
32.100000 -7.000000 1.433001
31.850000 -5.171875 1.433001
37.400000 -3.531250 1.433001
37.150000 -2.328125 1.433001
39.025000 2.812500 1.433001
38.975000 3.671875 1.433001
32.425000 -10.718750 1.575999
32.250000 -9.609375 1.575999
32.100000 -7.937500 1.575999
32.025000 -6.828125 1.575999
37.175000 -2.671875 1.575999
39.075000 2.750000 1.575999
39.075000 3.656250 1.575999
32.425000 -10.593750 1.714033
32.250000 -9.734375 1.714033
32.175000 -8.375000 1.714033
32.100000 -7.265625 1.714033
37.175000 -2.515625 1.714033
39.175000 2.484375 1.714033
39.125000 3.625000 1.714033
32.250000 -10.140625 1.858999
32.100000 -8.468750 1.858999
32.000000 -7.531250 1.858999
37.100000 -2.828125 1.858999
39.425000 2.187500 1.858999
32.350000 -10.578125 1.999000
32.175000 -8.921875 1.999000
32.050000 -7.593750 1.999000
37.000000 -3.515625 1.999000
39.275000 2.562500 1.999000
39.375000 3.968750 1.999000
32.425000 -10.750000 2.139000
32.250000 -9.515625 2.139000
32.175000 -8.593750 2.139000
32.100000 -6.593750 2.139000
37.150000 -2.218750 2.139000
37.850000 -1.140625 2.139000
38.500000 -0.078125 2.139000
39.175000 1.125000 2.139000
39.450000 2.437500 2.139000
39.275000 3.796875 2.139000
32.325000 -10.531250 2.283999
32.200000 -8.687500 2.283999
32.050000 -7.562500 2.283999
36.750000 -4.265625 2.283999
36.950000 -3.062500 2.283999
39.300000 2.906250 2.283999
39.600000 4.296875 2.283999
32.275000 -9.421875 2.423029
32.100000 -8.671875 2.423029
32.000000 -7.015625 2.423029
37.125000 -2.640625 2.423029
37.725000 -1.359375 2.423029
38.675000 2.421875 2.423029
32.325000 -10.031250 2.568000
32.200000 -8.968750 2.568000
32.025000 -8.062500 2.568000
39.300000 3.203125 2.568000
39.600000 4.500000 2.568000
32.425000 -10.828125 2.712999
32.275000 -9.531250 2.712999
32.100000 -8.015625 2.712999
32.025000 -6.765625 2.712999
37.000000 -2.640625 2.712999
37.475000 -1.406250 2.712999
32.250000 -10.062500 2.852000
32.000000 -8.562500 2.852000
31.925000 -7.406250 2.852000
36.975000 -2.968750 2.852000
39.425000 3.484375 2.852000
39.800000 4.437500 2.852000
32.250000 -9.859375 2.992999
32.000000 -9.062500 2.992999
31.925000 -7.109375 2.992999
36.900000 -3.000000 2.992999
39.425000 3.140625 2.992999
39.775000 4.656250 2.992999
32.275000 -10.578125 3.136999
32.175000 -9.390625 3.136999
32.050000 -7.515625 3.136999
36.825000 -2.031250 3.136999
39.400000 2.640625 3.136999
39.650000 4.312500 3.136999
32.425000 -10.859375 3.276999
32.250000 -9.828125 3.276999
32.100000 -8.078125 3.276999
32.025000 -7.031250 3.276999
36.800000 -2.140625 3.276999
36.875000 -0.875000 3.276999
32.425000 -10.703125 3.420001
32.275000 -9.562500 3.420001
32.100000 -8.453125 3.420001
32.025000 -7.031250 3.420001
36.775000 -2.500000 3.420001
36.750000 -1.046875 3.420001
32.250000 -9.906250 3.559000
32.075000 -8.734375 3.559000
32.000000 -7.718750 3.559000
36.875000 -2.828125 3.559000
36.750000 -1.437500 3.559000
39.450000 3.140625 3.559000
39.825000 4.343750 3.559000
32.325000 -10.359375 3.699001
32.200000 -9.015625 3.699001
32.025000 -7.375000 3.699001
36.675000 -2.015625 3.699001
36.650000 -0.468750 3.699001
39.700000 4.296875 3.699001
32.350000 -10.765625 3.859000
32.175000 -9.609375 3.859000
32.050000 -7.578125 3.859000
36.900000 -3.437500 3.859000
36.700000 -1.828125 3.859000
36.625000 -0.734375 3.859000
39.625000 3.937500 3.859000
32.275000 -9.484375 3.988999
32.100000 -8.750000 3.988999
32.000000 -6.781250 3.988999
36.775000 -2.546875 3.988999
36.625000 -1.187500 3.988999
32.325000 -10.359375 4.125001
32.150000 -8.593750 4.125001
32.000000 -7.312500 4.125001
36.925000 -4.406250 4.125001
36.825000 -3.062500 4.125001
36.675000 -1.578125 4.125001
36.625000 -0.187500 4.125001
39.750000 4.140625 4.125001
32.275000 -10.421875 4.269999
32.175000 -9.171875 4.269999
32.025000 -8.109375 4.269999
36.650000 -1.953125 4.269999
36.700000 -0.750000 4.269999
39.675000 4.265625 4.269999
32.425000 -11.296875 4.413999
32.275000 -9.843750 4.413999
32.100000 -8.281250 4.413999
32.025000 -6.703125 4.413999
36.750000 -2.359375 4.413999
36.700000 -1.125000 4.413999
32.250000 -10.093750 4.549999
32.100000 -8.578125 4.549999
32.000000 -7.109375 4.549999
36.775000 -2.687500 4.549999
36.725000 -1.671875 4.549999
39.450000 3.515625 4.549999
40.050000 4.468750 4.549999
32.350000 -11.000000 4.695001
32.200000 -9.484375 4.695001
32.075000 -7.843750 4.695001
31.975000 -6.343750 4.695001
32.350000 -5.453125 4.695001
36.925000 -3.718750 4.695001
36.825000 -2.062500 4.695001
39.550000 2.484375 4.695001
39.575000 3.765625 4.695001
32.250000 -10.125000 4.841998
32.000000 -8.468750 4.841998
31.925000 -7.109375 4.841998
36.825000 -2.828125 4.841998
39.400000 3.468750 4.841998
39.900000 4.546875 4.841998
32.275000 -10.375000 4.981999
32.175000 -9.375000 4.981999
32.050000 -7.609375 4.981999
36.900000 -1.859375 4.981999
39.525000 2.609375 4.981999
39.625000 3.937500 4.981999
32.250000 -9.593750 5.120000
32.075000 -8.593750 5.120000
31.975000 -7.343750 5.120000
36.875000 -2.484375 5.120000
39.675000 2.156250 5.120000
39.425000 3.296875 5.120000
32.350000 -10.765625 5.268001
32.200000 -9.484375 5.268001
32.075000 -7.593750 5.268001
36.900000 -3.546875 5.268001
39.500000 2.640625 5.268001
39.600000 4.203125 5.268001
32.425000 -11.093750 5.408999
32.275000 -9.687500 5.408999
32.100000 -8.062500 5.408999
32.025000 -7.265625 5.408999
37.000000 -2.718750 5.408999
37.600000 -1.062500 5.408999
39.525000 2.718750 5.408999
39.475000 3.656250 5.408999
32.250000 -10.421875 5.548999
32.000000 -8.750000 5.548999
31.925000 -7.125000 5.548999
36.850000 -2.781250 5.548999
32.325000 -9.859375 5.686000
32.200000 -8.515625 5.686000
32.050000 -7.562500 5.686000
37.100000 -4.328125 5.686000
36.850000 -3.234375 5.686000
32.250000 -10.140625 5.828000
31.975000 -8.437500 5.828000
31.875000 -7.390625 5.828000
36.825000 -3.187500 5.828000
39.325000 3.468750 5.828000
32.325000 -9.968750 5.971999
32.175000 -8.937500 5.971999
32.025000 -7.296875 5.971999
37.025000 -4.515625 5.971999
36.875000 -3.281250 5.971999
39.225000 3.078125 5.971999
32.325000 -10.375000 6.112999
32.175000 -8.968750 6.112999
32.025000 -7.750000 6.112999
36.950000 -4.140625 6.112999
36.800000 -2.828125 6.112999
39.150000 2.984375 6.112999
32.275000 -10.765625 6.256999
32.175000 -9.062500 6.256999
32.025000 -7.890625 6.256999
39.050000 3.156250 6.256999
39.350000 4.078125 6.256999
32.400000 -10.921875 6.396999
32.250000 -9.265625 6.396999
32.125000 -7.875000 6.396999
32.025000 -7.062500 6.396999
32.125000 -5.875000 6.396999
36.825000 -3.796875 6.396999
38.900000 2.468750 6.396999
39.050000 3.718750 6.396999
32.325000 -10.031250 6.546000
32.200000 -9.125000 6.546000
32.050000 -7.437500 6.546000
36.925000 -4.156250 6.546000
36.675000 -3.203125 6.546000
38.800000 2.937500 6.546000
32.250000 -10.421875 6.686000
32.125000 -8.421875 6.686000
32.025000 -7.546875 6.686000
37.100000 -4.296875 6.686000
36.650000 -3.000000 6.686000
38.600000 3.437500 6.686000
32.325000 -10.687500 6.833001
32.200000 -8.828125 6.833001
32.100000 -7.875000 6.833001
32.025000 -6.703125 6.833001
36.400000 -4.562500 6.833001
36.575000 -3.375000 6.833001
38.450000 2.937500 6.833001
38.875000 4.500000 6.833001
32.225000 -10.421875 6.969001
31.950000 -8.484375 6.969001
31.850000 -7.734375 6.969001
37.075000 -4.296875 6.969001
36.550000 -3.171875 6.969001
38.225000 3.140625 6.969001
32.325000 -10.046875 7.107001
32.175000 -9.187500 7.107001
32.025000 -7.640625 7.107001
36.800000 -4.546875 7.107001
36.400000 -2.765625 7.107001
38.050000 3.093750 7.107001
38.550000 4.406250 7.107001
32.325000 -10.703125 7.265999
32.175000 -8.906250 7.265999
32.050000 -7.921875 7.265999
37.925000 3.078125 7.265999
38.075000 4.234375 7.265999
32.275000 -9.625000 7.397002
32.175000 -8.750000 7.397002
32.075000 -6.937500 7.397002
36.250000 -2.234375 7.397002
37.875000 2.531250 7.397002
37.725000 3.968750 7.397002
32.225000 -10.015625 7.544000
32.100000 -8.546875 7.544000
32.025000 -7.640625 7.544000
36.100000 -2.750000 7.544000
37.650000 1.984375 7.544000
37.550000 3.187500 7.544000
38.100000 4.468750 7.544000
32.275000 -10.625000 7.683003
32.175000 -8.937500 7.683003
32.100000 -8.015625 7.683003
32.150000 -6.500000 7.683003
36.000000 -4.328125 7.683003
35.950000 -3.406250 7.683003
37.375000 3.343750 7.683003
37.700000 4.187500 7.683003
32.325000 -10.656250 7.828001
32.200000 -8.671875 7.828001
32.050000 -7.906250 7.828001
36.325000 -4.046875 7.828001
35.875000 -2.718750 7.828001
37.425000 1.828125 7.828001
37.225000 3.296875 7.828001
37.650000 4.359375 7.828001
32.300000 -10.437500 7.976001
32.175000 -8.734375 7.976001
32.075000 -7.906250 7.976001
31.975000 -6.250000 7.976001
36.125000 -4.515625 7.976001
35.850000 -3.046875 7.976001
36.025000 -1.953125 7.976001
36.650000 -0.593750 7.976001
37.400000 0.562500 7.976001
37.325000 1.953125 7.976001
37.050000 3.406250 7.976001
37.425000 4.500000 7.976001
32.275000 -10.781250 8.133002
32.175000 -9.062500 8.133002
32.050000 -7.593750 8.133002
32.075000 -6.859375 8.133002
35.725000 -4.296875 8.133002
35.825000 -3.375000 8.133002
36.000000 -2.093750 8.133002
36.425000 -0.890625 8.133002
37.100000 0.281250 8.133002
37.225000 1.843750 8.133002
37.000000 3.390625 8.133002
37.300000 4.515625 8.133002
32.350000 -10.671875 8.255001
32.200000 -9.437500 8.255001
32.100000 -7.750000 8.255001
35.925000 -2.046875 8.255001
36.350000 -0.968750 8.255001
37.100000 0.203125 8.255001
37.225000 1.578125 8.255001
36.900000 2.828125 8.255001
37.200000 4.250000 8.255001
32.400000 -10.656250 8.393002
32.250000 -9.515625 8.393002
32.100000 -8.625000 8.393002
32.025000 -6.937500 8.393002
31.925000 -5.890625 8.393002
35.850000 -3.890625 8.393002
35.875000 -2.453125 8.393002
36.275000 -0.937500 8.393002
36.700000 0.015625 8.393002
36.925000 1.250000 8.393002
36.900000 2.671875 8.393002
32.275000 -10.593750 8.546000
32.175000 -9.265625 8.546000
32.050000 -7.734375 8.546000
31.975000 -6.859375 8.546000
35.700000 -4.359375 8.546000
35.825000 -3.187500 8.546000
35.925000 -1.750000 8.546000
36.350000 -0.937500 8.546000
36.800000 0.281250 8.546000
36.875000 1.750000 8.546000
36.700000 3.062500 8.546000
37.000000 4.406250 8.546000
32.325000 -10.625000 8.679000
32.175000 -9.265625 8.679000
32.050000 -7.687500 8.679000
36.300000 -4.390625 8.679000
35.825000 -3.000000 8.679000
36.000000 -1.546875 8.679000
36.400000 -0.656250 8.679000
36.950000 0.656250 8.679000
36.900000 2.062500 8.679000
36.525000 3.656250 8.679000
36.975000 4.421875 8.679000
32.250000 -10.390625 8.819000
32.025000 -8.890625 8.819000
31.925000 -7.484375 8.819000
35.825000 -2.859375 8.819000
36.050000 -1.406250 8.819000
36.250000 2.421875 8.819000
32.250000 -10.046875 8.963000
32.075000 -8.312500 8.963000
31.975000 -7.328125 8.963000
35.825000 -2.687500 8.963000
36.050000 -1.187500 8.963000
36.100000 2.703125 8.963000
32.250000 -9.593750 9.104001
32.150000 -8.250000 9.104001
32.050000 -7.078125 9.104001
35.875000 -2.281250 9.104001
36.125000 -1.062500 9.104001
36.075000 2.453125 9.104001
36.225000 3.609375 9.104001
37.125000 5.031250 9.104001
32.250000 -9.562500 9.242000
32.025000 -8.328125 9.242000
31.925000 -7.171875 9.242000
35.825000 -2.718750 9.242000
36.050000 -1.421875 9.242000
32.250000 -10.000000 9.389000
32.025000 -8.281250 9.389000
31.925000 -7.296875 9.389000
35.825000 -2.906250 9.389000
36.100000 -1.546875 9.389000
36.150000 2.812500 9.389000
32.275000 -10.015625 9.534001
32.150000 -8.531250 9.534001
32.050000 -7.265625 9.534001
36.300000 -3.593750 9.534001
35.900000 -2.390625 9.534001
36.200000 -0.875000 9.534001
32.275000 -9.765625 9.675001
32.125000 -8.140625 9.675001
32.025000 -7.015625 9.675001
36.300000 -3.468750 9.675001
35.875000 -2.515625 9.675001
36.125000 -1.421875 9.675001
36.175000 2.515625 9.675001
32.275000 -9.765625 9.813999
32.125000 -8.546875 9.813999
32.025000 -7.406250 9.813999
36.300000 -3.718750 9.813999
35.875000 -2.218750 9.813999
36.200000 -1.125000 9.813999
36.450000 2.828125 9.813999
36.725000 3.734375 9.813999
37.475000 4.828125 9.813999
32.250000 -10.015625 9.965002
32.100000 -8.718750 9.965002
32.000000 -6.921875 9.965002
35.850000 -2.828125 9.965002
36.200000 -1.203125 9.965002
36.550000 2.421875 9.965002
32.250000 -9.734375 10.102000
32.100000 -8.093750 10.102000
32.000000 -7.515625 10.102000
35.950000 -2.828125 10.102000
36.275000 -1.468750 10.102000
36.625000 0.046875 10.102000
36.975000 1.375000 10.102000
36.975000 2.484375 10.102000
37.000000 3.562500 10.102000
37.650000 4.859375 10.102000
32.400000 -10.781250 10.243001
32.250000 -9.250000 10.243001
32.100000 -8.171875 10.243001
32.025000 -6.937500 10.243001
32.350000 -5.593750 10.243001
35.875000 -3.390625 10.243001
35.925000 -2.078125 10.243001
36.375000 -0.859375 10.243001
37.150000 0.062500 10.243001
37.275000 1.390625 10.243001
36.975000 2.671875 10.243001
32.400000 -11.140625 10.380000
32.250000 -9.703125 10.380000
32.075000 -8.015625 10.380000
32.000000 -6.718750 10.380000
32.125000 -5.734375 10.380000
35.875000 -3.390625 10.380000
35.975000 -2.406250 10.380000
36.525000 -1.218750 10.380000
37.400000 0.187500 10.380000
37.550000 1.234375 10.380000
37.075000 2.812500 10.380000
32.350000 -10.734375 10.534000
32.200000 -9.375000 10.534000
32.100000 -8.000000 10.534000
36.025000 -1.875000 10.534000
36.700000 1.609375 10.534000
37.150000 3.140625 10.534000
37.400000 4.156250 10.534000
32.325000 -10.609375 10.665000
32.200000 -9.171875 10.665000
32.025000 -7.359375 10.665000
36.550000 -4.156250 10.665000
36.050000 -3.203125 10.665000
37.500000 2.031250 10.665000
37.300000 3.234375 10.665000
37.750000 4.375000 10.665000
32.250000 -10.000000 10.806999
32.025000 -8.843750 10.806999
31.950000 -7.140625 10.806999
36.125000 -2.500000 10.806999
37.625000 2.250000 10.806999
37.500000 3.656250 10.806999
38.025000 4.906250 10.806999
32.425000 -10.921875 10.952001
32.250000 -9.500000 10.952001
32.075000 -8.343750 10.952001
32.000000 -6.812500 10.952001
36.650000 -3.859375 10.952001
36.300000 -2.625000 10.952001
37.700000 2.562500 10.952001
37.725000 3.656250 10.952001
32.350000 -10.875000 11.093000
32.200000 -9.375000 11.093000
32.075000 -7.906250 11.093000
37.800000 3.015625 11.093000
37.975000 4.328125 11.093000
32.325000 -10.625000 11.235001
32.200000 -9.328125 11.235001
32.050000 -7.968750 11.235001
36.775000 -4.156250 11.235001
36.475000 -2.953125 11.235001
37.925000 3.203125 11.235001
38.375000 4.312500 11.235001
32.250000 -9.796875 11.379999
32.125000 -8.687500 11.379999
32.050000 -7.156250 11.379999
36.575000 -2.515625 11.379999
38.200000 2.375000 11.379999
32.350000 -10.406250 11.520002
32.175000 -9.187500 11.520002
32.050000 -8.140625 11.520002
38.350000 2.890625 11.520002
38.475000 3.984375 11.520002
32.325000 -10.656250 11.663000
32.200000 -9.109375 11.663000
32.050000 -7.390625 11.663000
32.100000 -6.250000 11.663000
38.475000 2.875000 11.663000
38.700000 4.484375 11.663000
32.000000 -7.437500 11.803001
36.825000 -2.859375 11.803001
38.575000 2.281250 11.803001
32.400000 -10.625000 11.950003
32.250000 -9.703125 11.950003
32.200000 -7.984375 11.950003
32.125000 -6.843750 11.950003
31.650000 -5.453125 11.950003
38.850000 2.453125 11.950003
38.750000 3.687500 11.950003
32.350000 -10.968750 12.103000
32.200000 -9.125000 12.103000
32.175000 -7.859375 12.103000
32.075000 -6.937500 12.103000
32.100000 -5.671875 12.103000
36.925000 -3.453125 12.103000
38.850000 2.750000 12.103000
38.850000 3.656250 12.103000
32.350000 -10.593750 12.230001
32.200000 -9.609375 12.230001
32.050000 -7.875000 12.230001
36.950000 -3.515625 12.230001
39.000000 2.734375 12.230001
38.975000 3.937500 12.230001
32.350000 -10.359375 12.373999
32.175000 -9.140625 12.373999
32.050000 -8.281250 12.373999
37.025000 -3.171875 12.373999
39.050000 2.750000 12.373999
39.175000 4.156250 12.373999
32.300000 -10.500000 12.515001
32.175000 -9.234375 12.515001
32.050000 -8.140625 12.515001
39.050000 3.062500 12.515001
39.275000 4.203125 12.515001
32.250000 -9.703125 12.659999
32.100000 -8.656250 12.659999
32.000000 -7.031250 12.659999
37.100000 -2.531250 12.659999
39.350000 2.437500 12.659999
39.150000 3.453125 12.659999
32.325000 -10.062500 12.796999
32.125000 -9.203125 12.796999
31.975000 -7.546875 12.796999
37.000000 -4.625000 12.796999
36.975000 -3.296875 12.796999
39.475000 1.828125 12.796999
39.225000 3.000000 12.796999
39.550000 4.203125 12.796999
32.325000 -10.171875 12.936999
32.225000 -8.687500 12.936999
32.075000 -7.671875 12.936999
32.075000 -6.359375 12.936999
39.225000 3.046875 12.936999
39.525000 4.281250 12.936999
32.275000 -10.750000 13.081999
32.200000 -9.390625 13.081999
32.075000 -7.843750 13.081999
39.225000 3.031250 13.081999
39.525000 4.437500 13.081999
32.350000 -10.890625 13.225999
32.200000 -9.328125 13.225999
32.050000 -8.000000 13.225999
36.950000 -3.250000 13.225999
37.125000 -2.296875 13.225999
37.925000 -0.890625 13.225999
38.550000 0.437500 13.225999
39.075000 1.328125 13.225999
39.375000 2.796875 13.225999
39.450000 3.906250 13.225999
32.400000 -10.750000 13.364999
32.250000 -9.656250 13.364999
32.075000 -8.390625 13.364999
31.975000 -6.468750 13.364999
31.850000 -5.406250 13.364999
37.025000 -3.843750 13.364999
37.100000 -2.453125 13.364999
37.800000 -1.281250 13.364999
38.775000 2.453125 13.364999
39.425000 4.078125 13.364999
32.400000 -10.656250 13.506999
32.250000 -9.890625 13.506999
32.075000 -8.218750 13.506999
32.000000 -7.062500 13.506999
37.100000 -2.468750 13.506999
37.625000 -1.265625 13.506999
39.500000 3.562500 13.506999
32.400000 -11.078125 13.652999
32.250000 -9.703125 13.652999
32.050000 -7.937500 13.652999
32.000000 -6.656250 13.652999
36.975000 -2.359375 13.652999
37.450000 -0.890625 13.652999
32.400000 -10.531250 13.792000
32.250000 -9.296875 13.792000
32.200000 -7.859375 13.792000
32.125000 -6.578125 13.792000
31.700000 -5.593750 13.792000
36.950000 -2.453125 13.792000
37.325000 -0.828125 13.792000
32.425000 -11.328125 13.931001
32.275000 -9.781250 13.931001
32.150000 -8.671875 13.931001
32.075000 -6.875000 13.931001
36.875000 -2.468750 13.931001
37.050000 -1.312500 13.931001
32.325000 -10.375000 14.075000
32.200000 -9.078125 14.075000
32.050000 -7.343750 14.075000
37.000000 -4.640625 14.075000
36.850000 -3.046875 14.075000
36.800000 -1.890625 14.075000
39.450000 3.312500 14.075000
39.750000 4.437500 14.075000
32.350000 -10.890625 14.216000
32.200000 -9.140625 14.216000
32.075000 -8.015625 14.216000
36.875000 -3.359375 14.216000
36.725000 -2.218750 14.216000
39.075000 2.781250 14.216000
39.425000 4.156250 14.216000
32.400000 -10.765625 14.359999
32.250000 -9.828125 14.359999
32.050000 -7.828125 14.359999
31.975000 -6.843750 14.359999
31.675000 -5.437500 14.359999
36.750000 -2.328125 14.359999
36.725000 -0.796875 14.359999
32.250000 -10.046875 14.500999
32.100000 -8.390625 14.500999
32.000000 -7.531250 14.500999
36.800000 -2.812500 14.500999
36.675000 -1.625000 14.500999
39.525000 3.531250 14.500999
40.050000 4.546875 14.500999
32.250000 -9.765625 14.639999
32.025000 -8.359375 14.639999
31.925000 -7.562500 14.639999
36.750000 -3.015625 14.639999
36.625000 -1.390625 14.639999
39.950000 4.531250 14.639999
32.325000 -9.968750 14.781999
32.225000 -8.687500 14.781999
32.075000 -7.531250 14.781999
36.650000 -4.593750 14.781999
36.825000 -2.843750 14.781999
36.650000 -1.546875 14.781999
36.625000 -0.546875 14.781999
39.650000 4.453125 14.781999
32.350000 -10.687500 14.925000
32.200000 -9.656250 14.925000
32.075000 -8.312500 14.925000
31.975000 -6.515625 14.925000
32.325000 -5.390625 14.925000
36.900000 -3.609375 14.925000
36.750000 -2.281250 14.925000
36.625000 -0.703125 14.925000
39.600000 4.203125 14.925000
36.900000 -3.281250 15.066999
36.725000 -2.390625 15.066999
36.625000 -0.828125 15.066999
39.650000 4.109375 15.066999
32.400000 -11.171875 15.211999
32.250000 -9.359375 15.211999
32.150000 -8.015625 15.211999
32.075000 -6.703125 15.211999
36.675000 -2.546875 15.211999
36.700000 -0.984375 15.211999
39.500000 3.765625 15.211999
32.275000 -9.546875 15.354001
32.100000 -8.750000 15.354001
32.000000 -6.937500 15.354001
36.775000 -2.546875 15.354001
36.750000 -1.406250 15.354001
32.250000 -9.625000 15.494000
32.075000 -8.406250 15.494000
32.000000 -7.140625 15.494000
36.775000 -2.671875 15.494000
32.250000 -10.015625 15.634000
32.000000 -8.375000 15.634000
31.925000 -7.250000 15.634000
36.800000 -2.750000 15.634000
39.475000 3.390625 15.634000
39.950000 4.328125 15.634000
32.250000 -9.781250 15.779000
32.000000 -8.796875 15.779000
31.900000 -7.640625 15.779000
36.825000 -2.984375 15.779000
39.450000 3.156250 15.779000
40.050000 4.328125 15.779000
32.250000 -10.328125 15.919001
31.900000 -8.890625 15.919001
31.825000 -6.984375 15.919001
36.825000 -2.656250 15.919001
39.900000 2.203125 15.919001
32.250000 -10.328125 16.067001
32.050000 -8.671875 16.067001
31.950000 -7.921875 16.067001
37.275000 -4.375000 16.067001
36.875000 -3.000000 16.067001
39.750000 2.078125 16.067001
39.400000 3.078125 16.067001
39.900000 4.156250 16.067001
32.275000 -9.359375 16.200001
32.150000 -8.468750 16.200001
32.050000 -7.296875 16.200001
36.975000 -2.437500 16.200001
39.625000 2.203125 16.200001
39.475000 3.437500 16.200001
32.400000 -10.718750 16.361005
32.250000 -9.140625 16.361005
32.150000 -8.406250 16.361005
32.075000 -6.531250 16.361005
31.700000 -5.531250 16.361005
36.875000 -3.531250 16.361005
37.000000 -2.453125 16.361005
37.700000 -1.171875 16.361005
39.500000 2.734375 16.361005
39.525000 4.015625 16.361005
32.250000 -9.687500 16.490001
32.050000 -8.578125 16.490001
31.950000 -7.046875 16.490001
36.900000 -2.546875 16.490001
39.375000 3.250000 16.490001
32.250000 -9.562500 16.637999
32.075000 -8.656250 16.637999
32.000000 -7.390625 16.637999
36.925000 -2.750000 16.637999
39.325000 3.500000 16.637999
32.400000 -10.578125 16.772000
32.250000 -9.609375 16.772000
32.150000 -8.281250 16.772000
32.075000 -6.718750 16.772000
37.225000 -3.406250 16.772000
36.925000 -2.578125 16.772000
37.650000 -1.140625 16.772000
38.700000 1.421875 16.772000
39.175000 2.609375 16.772000
39.275000 3.890625 16.772000
32.350000 -10.750000 16.918000
32.200000 -9.578125 16.918000
32.075000 -7.625000 16.918000
36.800000 -3.156250 16.918000
39.100000 2.906250 16.918000
39.400000 4.078125 16.918000
32.250000 -10.375000 17.054998
32.050000 -9.000000 17.054998
31.950000 -7.140625 17.054998
36.725000 -2.656250 17.054998
39.050000 3.140625 17.054998
32.350000 -10.812500 17.198003
32.200000 -9.515625 17.198003
32.125000 -8.281250 17.198003
32.050000 -6.765625 17.198003
32.350000 -5.921875 17.198003
36.800000 -3.281250 17.198003
39.000000 2.593750 17.198003
39.125000 3.781250 17.198003
32.250000 -10.062500 17.337999
32.050000 -8.171875 17.337999
31.950000 -6.921875 17.337999
36.775000 -2.750000 17.337999
38.900000 3.593750 17.337999
32.250000 -9.625000 17.481000
32.075000 -8.218750 17.481000
31.975000 -6.859375 17.481000
36.725000 -2.468750 17.481000
38.675000 3.640625 17.481000
32.225000 -10.312500 17.622000
32.050000 -9.140625 17.622000
31.975000 -7.406250 17.622000
37.050000 -4.296875 17.622000
36.575000 -3.171875 17.622000
38.550000 3.265625 17.622000
32.300000 -9.984375 17.763999
32.125000 -8.890625 17.763999
31.975000 -7.453125 17.763999
36.625000 -4.281250 17.763999
36.550000 -3.109375 17.763999
32.300000 -10.187500 17.908000
32.125000 -9.062500 17.908000
31.975000 -7.953125 17.908000
36.800000 -4.125000 17.908000
36.450000 -3.062500 17.908000
38.200000 3.015625 17.908000
38.750000 4.437500 17.908000
32.275000 -10.546875 18.047000
32.175000 -9.156250 18.047000
32.075000 -7.750000 18.047000
32.100000 -6.640625 18.047000
38.025000 2.828125 18.047000
38.275000 4.312500 18.047000
32.275000 -10.125000 18.187999
32.200000 -8.906250 18.187999
32.100000 -7.828125 18.187999
32.100000 -6.500000 18.187999
36.125000 -4.328125 18.187999
36.225000 -3.250000 18.187999
37.800000 2.984375 18.187999
38.175000 4.453125 18.187999
32.325000 -10.406250 18.337000
32.175000 -9.437500 18.337000
32.075000 -8.171875 18.337000
32.075000 -6.515625 18.337000
37.625000 3.234375 18.337000
37.925000 4.234375 18.337000
32.350000 -10.812500 18.476000
32.200000 -9.656250 18.476000
32.075000 -8.093750 18.476000
37.450000 3.125000 18.476000
37.725000 4.171875 18.476000
32.350000 -10.421875 18.616000
32.200000 -9.234375 18.616000
32.100000 -7.859375 18.616000
37.350000 2.781250 18.616000
37.525000 3.984375 18.616000
32.400000 -11.125000 18.754001
32.250000 -9.109375 18.754001
32.100000 -8.125000 18.754001
35.875000 -3.468750 18.754001
35.975000 -2.187500 18.754001
36.550000 -1.187500 18.754001
37.450000 0.015625 18.754001
37.550000 1.515625 18.754001
37.175000 2.718750 18.754001
37.350000 4.171875 18.754001
32.250000 -10.109375 18.895999
32.125000 -9.062500 18.895999
32.050000 -7.765625 18.895999
35.800000 -2.828125 18.895999
36.125000 -1.734375 18.895999
36.675000 -0.250000 18.895999
37.175000 0.765625 18.895999
37.175000 2.296875 18.895999
37.100000 3.500000 18.895999
37.650000 4.718750 18.895999
32.300000 -10.375000 19.042000
32.200000 -8.656250 19.042000
32.050000 -7.687500 19.042000
35.825000 -3.093750 19.042000
36.050000 -1.750000 19.042000
36.450000 -0.343750 19.042000
37.000000 0.859375 19.042000
37.125000 2.171875 19.042000
37.000000 3.296875 19.042000
37.450000 4.328125 19.042000
32.400000 -10.875000 19.182999
32.250000 -9.406250 19.182999
32.100000 -7.953125 19.182999
32.025000 -6.718750 19.182999
32.325000 -5.578125 19.182999
35.825000 -3.640625 19.182999
35.950000 -2.406250 19.182999
36.350000 -1.109375 19.182999
36.975000 0.203125 19.182999
37.125000 1.609375 19.182999
36.900000 2.734375 19.182999
32.225000 -10.000000 19.327000
32.125000 -8.578125 19.327000
32.050000 -7.203125 19.327000
35.800000 -3.125000 19.327000
36.050000 -1.734375 19.327000
36.450000 2.250000 19.327000
36.650000 3.718750 19.327000
37.125000 4.453125 19.327000
32.325000 -10.687500 19.471001
32.175000 -9.531250 19.471001
32.075000 -7.796875 19.471001
32.050000 -6.296875 19.471001
35.925000 -1.875000 19.471001
36.300000 -0.593750 19.471001
36.575000 0.703125 19.471001
36.675000 1.859375 19.471001
36.625000 2.859375 19.471001
36.900000 4.328125 19.471001
32.250000 -9.625000 19.607000
32.075000 -8.859375 19.607000
32.000000 -7.250000 19.607000
35.800000 -2.234375 19.607000
36.075000 -1.437500 19.607000
36.275000 2.296875 19.607000
32.275000 -10.781250 19.749000
32.200000 -9.078125 19.749000
32.100000 -7.765625 19.749000
32.100000 -6.328125 19.749000
36.125000 -4.484375 19.749000
35.800000 -3.296875 19.749000
35.975000 -1.609375 19.749000
36.400000 -0.328125 19.749000
36.750000 0.687500 19.749000
36.775000 1.750000 19.749000
36.650000 3.156250 19.749000
37.000000 4.687500 19.749000
32.275000 -10.703125 19.894999
32.175000 -9.093750 19.894999
32.075000 -8.000000 19.894999
32.050000 -6.687500 19.894999
35.825000 -4.765625 19.894999
35.850000 -3.359375 19.894999
35.925000 -2.187500 19.894999
36.325000 -0.937500 19.894999
36.575000 0.453125 19.894999
36.650000 1.625000 19.894999
36.625000 3.156250 19.894999
32.400000 -11.000000 20.035001
32.225000 -9.390625 20.035001
32.100000 -7.796875 20.035001
35.950000 -2.062500 20.035001
36.250000 -0.859375 20.035001
32.350000 -10.640625 20.174998
32.200000 -9.640625 20.174998
32.100000 -8.328125 20.174998
35.925000 -2.265625 20.174998
36.275000 -0.656250 20.174998
32.325000 -10.234375 20.318000
32.175000 -9.296875 20.318000
32.050000 -7.484375 20.318000
32.025000 -6.796875 20.318000
35.700000 -4.250000 20.318000
35.850000 -2.968750 20.318000
35.925000 -2.015625 20.318000
36.300000 -0.437500 20.318000
36.400000 0.578125 20.318000
36.475000 2.078125 20.318000
36.600000 3.437500 20.318000
32.275000 -10.625000 20.460000
32.175000 -9.484375 20.460000
32.050000 -7.671875 20.460000
32.050000 -6.250000 20.460000
35.600000 -4.656250 20.460000
35.825000 -3.375000 20.460000
35.925000 -2.046875 20.460000
36.325000 -0.640625 20.460000
36.500000 0.578125 20.460000
36.600000 1.859375 20.460000
36.600000 3.375000 20.460000
32.275000 -10.562500 20.607000
32.175000 -9.234375 20.607000
32.075000 -7.656250 20.607000
32.050000 -6.218750 20.607000
35.825000 -4.296875 20.607000
35.825000 -3.203125 20.607000
35.975000 -2.093750 20.607000
36.375000 -0.531250 20.607000
36.700000 0.515625 20.607000
36.750000 1.937500 20.607000
36.600000 3.218750 20.607000
35.825000 -3.296875 20.741999
35.950000 -2.093750 20.741999
36.325000 -0.671875 20.741999
36.675000 0.625000 20.741999
36.750000 1.703125 20.741999
36.675000 3.093750 20.741999
32.325000 -10.406250 20.884000
32.175000 -9.406250 20.884000
32.050000 -8.046875 20.884000
35.950000 -2.250000 20.884000
36.325000 -0.781250 20.884000
36.950000 0.281250 20.884000
37.025000 1.953125 20.884000
36.700000 3.343750 20.884000
37.050000 4.093750 20.884000
32.400000 -11.000000 21.032001
32.225000 -9.453125 21.032001
32.100000 -8.265625 21.032001
35.950000 -2.046875 21.032001
36.375000 -1.109375 21.032001
37.025000 0.109375 21.032001
37.175000 1.546875 21.032001
37.025000 2.671875 21.032001
32.275000 -9.593750 21.165999
32.075000 -8.375000 21.165999
32.000000 -7.156250 21.165999
36.300000 -3.796875 21.165999
35.925000 -2.718750 21.165999
36.375000 -1.156250 21.165999
36.950000 0.000000 21.165999
37.175000 1.281250 21.165999
37.050000 2.453125 21.165999
32.325000 -10.796875 21.308999
32.175000 -9.031250 21.308999
32.050000 -8.218750 21.308999
32.000000 -6.921875 21.308999
35.575000 -4.437500 21.308999
35.900000 -3.250000 21.308999
36.050000 -2.046875 21.308999
36.650000 1.578125 21.308999
37.050000 3.343750 21.308999
37.375000 4.484375 21.308999
32.400000 -10.921875 21.458000
32.225000 -9.140625 21.458000
32.075000 -8.109375 21.458000
36.050000 -2.296875 21.458000
36.700000 -0.937500 21.458000
37.625000 0.062500 21.458000
37.700000 1.359375 21.458000
37.175000 2.875000 21.458000
37.350000 4.078125 21.458000
32.400000 -10.812500 21.593999
32.250000 -9.218750 21.593999
32.125000 -8.609375 21.593999
32.075000 -7.125000 21.593999
31.850000 -5.609375 21.593999
36.100000 -3.734375 21.593999
36.125000 -2.531250 21.593999
37.450000 2.906250 21.593999
37.525000 4.187500 21.593999
32.425000 -10.718750 21.732998
32.275000 -9.578125 21.732998
32.100000 -8.328125 21.732998
32.050000 -6.765625 21.732998
36.200000 -3.750000 21.732998
36.150000 -2.171875 21.732998
37.550000 2.906250 21.732998
37.550000 4.062500 21.732998
32.400000 -10.921875 21.879998
32.250000 -9.500000 21.879998
32.100000 -8.500000 21.879998
32.025000 -7.187500 21.879998
31.675000 -5.312500 21.879998
36.375000 -3.828125 21.879998
36.350000 -2.531250 21.879998
37.750000 2.890625 21.879998
37.775000 3.687500 21.879998
32.275000 -9.609375 22.020999
32.100000 -8.703125 22.020999
32.025000 -6.984375 22.020999
36.450000 -2.609375 22.020999
37.950000 2.703125 22.020999
37.850000 3.796875 22.020999
32.250000 -9.796875 22.159999
32.075000 -8.203125 22.159999
32.000000 -7.250000 22.159999
36.550000 -2.750000 22.159999
38.200000 2.453125 22.159999
38.000000 3.484375 22.159999
32.425000 -11.109375 22.304999
32.250000 -9.640625 22.304999
32.100000 -8.062500 22.304999
32.025000 -6.968750 22.304999
37.050000 -3.484375 22.304999
36.650000 -2.125000 22.304999
38.300000 2.546875 22.304999
38.200000 4.078125 22.304999
32.425000 -11.078125 22.442999
32.250000 -9.656250 22.442999
32.100000 -8.515625 22.442999
32.025000 -6.890625 22.442999
37.050000 -3.781250 22.442999
38.400000 2.390625 22.442999
38.375000 3.734375 22.442999
32.425000 -11.046875 22.585999
32.250000 -9.156250 22.585999
32.175000 -8.093750 22.585999
32.125000 -6.796875 22.585999
31.550000 -5.750000 22.585999
37.075000 -3.484375 22.585999
38.575000 2.500000 22.585999
38.525000 3.718750 22.585999
32.425000 -10.531250 22.730000
32.250000 -9.453125 22.730000
32.175000 -8.531250 22.730000
32.125000 -7.234375 22.730000
31.875000 -5.218750 22.730000
36.850000 -3.703125 22.730000
38.700000 2.890625 22.730000
38.700000 4.015625 22.730000
32.275000 -10.093750 22.870000
32.150000 -8.343750 22.870000
32.075000 -7.484375 22.870000
36.950000 -2.562500 22.870000
38.850000 2.296875 22.870000
38.700000 3.687500 22.870000
32.425000 -11.062500 23.015000
32.250000 -9.265625 23.015000
32.175000 -8.359375 23.015000
32.100000 -7.203125 23.015000
38.975000 2.609375 23.015000
38.900000 3.968750 23.015000
32.425000 -10.781250 23.152999
32.250000 -9.265625 23.152999
32.175000 -8.531250 23.152999
32.100000 -6.484375 23.152999
31.825000 -5.828125 23.152999
37.350000 -3.859375 23.152999
37.075000 -2.343750 23.152999
38.975000 2.593750 23.152999
39.000000 3.906250 23.152999
32.350000 -10.453125 23.292999
32.200000 -9.140625 23.292999
32.150000 -8.156250 23.292999
32.075000 -6.671875 23.292999
32.325000 -5.609375 23.292999
37.025000 -3.531250 23.292999
39.075000 2.843750 23.292999
39.075000 4.046875 23.292999
32.350000 -10.546875 23.434999
32.200000 -9.406250 23.434999
32.125000 -7.718750 23.434999
37.000000 -3.500000 23.434999
39.100000 2.875000 23.434999
39.175000 4.125000 23.434999
32.350000 -10.437500 23.577000
32.200000 -9.093750 23.577000
32.100000 -8.234375 23.577000
32.050000 -6.671875 23.577000
32.350000 -5.546875 23.577000
36.975000 -3.687500 23.577000
39.125000 2.593750 23.577000
39.200000 3.859375 23.577000
32.275000 -10.078125 23.720999
32.150000 -8.390625 23.720999
32.075000 -7.062500 23.720999
37.050000 -2.343750 23.720999
39.400000 2.437500 23.720999
39.250000 3.468750 23.720999
32.250000 -10.171875 23.862000
32.150000 -8.875000 23.862000
32.050000 -7.250000 23.862000
37.050000 -2.609375 23.862000
39.425000 2.046875 23.862000
37.325000 -4.062500 24.005000
36.975000 -3.156250 24.005000
39.300000 3.375000 24.005000
39.700000 4.484375 24.005000
32.325000 -10.328125 24.146999
32.175000 -9.250000 24.146999
32.050000 -7.953125 24.146999
39.500000 1.625000 24.146999
39.350000 3.078125 24.146999
39.525000 3.968750 24.146999
32.425000 -10.968750 24.288999
32.250000 -9.546875 24.288999
32.100000 -8.343750 24.288999
32.025000 -7.000000 24.288999
37.050000 -2.343750 24.288999
37.725000 -1.421875 24.288999
38.775000 2.625000 24.288999
39.475000 3.796875 24.288999
32.250000 -10.046875 24.428999
32.125000 -9.078125 24.428999
32.050000 -7.703125 24.428999
37.475000 -4.453125 24.428999
36.950000 -2.796875 24.428999
39.300000 3.421875 24.428999
39.700000 4.531250 24.428999
32.250000 -9.859375 24.571999
32.075000 -8.734375 24.571999
31.975000 -7.281250 24.571999
37.450000 -4.484375 24.571999
36.900000 -2.781250 24.571999
39.325000 3.296875 24.571999
39.725000 4.390625 24.571999
32.250000 -10.140625 24.713000
32.075000 -8.859375 24.713000
31.975000 -7.421875 24.713000
36.950000 -2.765625 24.713000
39.450000 3.390625 24.713000
39.950000 4.750000 24.713000
32.250000 -9.843750 24.856999
32.050000 -8.421875 24.856999
31.975000 -7.125000 24.856999
36.875000 -2.765625 24.856999
36.950000 -1.312500 24.856999
39.475000 3.640625 24.856999
39.950000 4.593750 24.856999
32.250000 -10.062500 25.003999
32.075000 -8.500000 25.003999
32.000000 -7.812500 25.003999
37.425000 -4.312500 25.003999
36.875000 -3.109375 25.003999
36.875000 -1.921875 25.003999
39.350000 3.468750 25.003999
39.725000 4.593750 25.003999
32.225000 -10.484375 25.138003
32.150000 -9.031250 25.138003
32.075000 -7.484375 25.138003
37.300000 -4.171875 25.138003
36.850000 -3.093750 25.138003
36.775000 -1.625000 25.138003
39.350000 3.015625 25.138003
39.725000 4.296875 25.138003
32.300000 -10.203125 25.282999
32.225000 -9.015625 25.282999
32.075000 -7.484375 25.282999
36.725000 -1.734375 25.282999
39.700000 4.093750 25.282999
32.325000 -10.546875 25.423001
32.175000 -8.812500 25.423001
32.050000 -8.234375 25.423001
36.925000 -3.296875 25.423001
36.725000 -2.234375 25.423001
36.650000 -0.437500 25.423001
39.600000 4.046875 25.423001
32.250000 -9.500000 25.564999
32.075000 -8.671875 25.564999
31.975000 -7.312500 25.564999
36.750000 -2.437500 25.564999
36.625000 -1.281250 25.564999
32.300000 -9.984375 25.703999
32.225000 -9.171875 25.703999
32.075000 -7.546875 25.703999
36.925000 -4.281250 25.703999
36.850000 -3.265625 25.703999
36.700000 -1.593750 25.703999
36.650000 -0.359375 25.703999
39.725000 4.203125 25.703999
32.300000 -10.234375 25.844999
32.200000 -8.812500 25.844999
32.050000 -7.484375 25.844999
37.200000 -4.437500 25.844999
36.825000 -2.875000 25.844999
36.700000 -1.609375 25.844999
36.625000 -0.406250 25.844999
39.750000 4.437500 25.844999
32.250000 -9.687500 25.989999
32.075000 -8.093750 25.989999
31.975000 -7.515625 25.989999
36.750000 -2.562500 25.989999
36.625000 -1.500000 25.989999
32.250000 -9.656250 26.130999
32.050000 -8.359375 26.130999
31.975000 -6.906250 26.130999
36.675000 -2.453125 26.130999
36.625000 -1.437500 26.130999
39.475000 3.562500 26.130999
40.075000 4.468750 26.130999
32.250000 -9.671875 26.278000
32.050000 -8.390625 26.278000
31.975000 -7.531250 26.278000
36.675000 -2.734375 26.278000
36.700000 -1.531250 26.278000
39.475000 3.203125 26.278000
40.075000 4.640625 26.278000
32.225000 -9.734375 26.416000
31.975000 -8.734375 26.416000
31.875000 -7.250000 26.416000
36.850000 -2.859375 26.416000
39.400000 3.125000 26.416000
39.900000 4.484375 26.416000
32.275000 -10.625000 26.557999
32.175000 -8.984375 26.557999
32.075000 -7.937500 26.557999
32.050000 -6.609375 26.557999
36.825000 -2.187500 26.557999
39.525000 3.062500 26.557999
39.675000 4.328125 26.557999
32.275000 -10.421875 26.697000
32.175000 -9.453125 26.697000
32.050000 -8.062500 26.697000
36.850000 -1.875000 26.697000
39.500000 2.765625 26.697000
39.650000 4.296875 26.697000
32.325000 -10.250000 26.849000
32.175000 -9.500000 26.849000
32.075000 -8.218750 26.849000
36.900000 -3.687500 26.849000
39.475000 2.812500 26.849000
39.550000 3.921875 26.849000
32.425000 -11.078125 26.982999
32.250000 -9.593750 26.982999
32.100000 -8.125000 26.982999
32.050000 -6.718750 26.982999
36.950000 -2.187500 26.982999
39.550000 2.625000 26.982999
39.500000 4.000000 26.982999
32.400000 -10.515625 27.125999
32.250000 -9.796875 27.125999
32.200000 -7.906250 27.125999
32.100000 -7.140625 27.125999
31.950000 -5.718750 27.125999
36.925000 -3.453125 27.125999
37.100000 -2.531250 27.125999
37.775000 -1.109375 27.125999
39.475000 2.718750 27.125999
39.475000 3.765625 27.125999
32.400000 -10.890625 27.262999
32.250000 -9.625000 27.262999
32.175000 -7.781250 27.262999
32.075000 -6.781250 27.262999
31.825000 -5.609375 27.262999
36.900000 -3.625000 27.262999
37.075000 -2.468750 27.262999
37.775000 -1.031250 27.262999
39.450000 2.828125 27.262999
39.475000 3.828125 27.262999
32.325000 -10.859375 27.408000
32.200000 -9.281250 27.408000
32.075000 -7.984375 27.408000
32.000000 -6.734375 27.408000
32.325000 -5.281250 27.408000
36.850000 -3.484375 27.408000
39.425000 2.671875 27.408000
39.475000 4.093750 27.408000
32.275000 -10.187500 27.549999
32.175000 -9.484375 27.549999
32.025000 -7.531250 27.549999
39.250000 3.046875 27.549999
39.475000 3.968750 27.549999
32.325000 -10.843750 27.690001
32.175000 -9.015625 27.690001
32.025000 -8.000000 27.690001
36.800000 -3.625000 27.690001
39.225000 2.578125 27.690001
39.450000 3.828125 27.690001
32.325000 -10.812500 27.836000
32.200000 -9.656250 27.836000
32.050000 -7.734375 27.836000
36.825000 -3.609375 27.836000
39.150000 2.890625 27.836000
39.325000 3.859375 27.836000
32.325000 -10.421875 27.978000
32.200000 -9.625000 27.978000
32.150000 -7.921875 27.978000
32.050000 -6.906250 27.978000
32.325000 -5.234375 27.978000
36.850000 -3.531250 27.978000
39.125000 2.546875 27.978000
39.200000 3.812500 27.978000
32.325000 -10.234375 28.114999
32.175000 -9.453125 28.114999
32.025000 -7.843750 28.114999
39.000000 3.062500 28.114999
39.250000 4.281250 28.114999
32.275000 -10.156250 28.254999
32.175000 -9.375000 28.254999
32.075000 -7.718750 28.254999
38.850000 3.156250 28.254999
39.300000 4.093750 28.254999
32.275000 -10.218750 28.406000
32.175000 -8.843750 28.406000
32.075000 -7.593750 28.406000
32.050000 -6.437500 28.406000
38.800000 3.171875 28.406000
39.150000 4.359375 28.406000
32.400000 -10.671875 28.540999
32.250000 -9.250000 28.540999
32.100000 -8.500000 28.540999
32.000000 -6.609375 28.540999
31.900000 -5.281250 28.540999
36.825000 -3.625000 28.540999
38.500000 2.953125 28.540999
38.575000 3.812500 28.540999
32.425000 -11.281250 28.681999
32.275000 -9.906250 28.681999
32.100000 -8.046875 28.681999
32.050000 -7.218750 28.681999
31.675000 -5.562500 28.681999
36.925000 -3.734375 28.681999
38.400000 2.750000 28.681999
38.350000 4.125000 28.681999
32.425000 -11.250000 28.830000
32.275000 -9.703125 28.830000
32.100000 -8.171875 28.830000
32.050000 -7.250000 28.830000
36.850000 -3.718750 28.830000
36.500000 -2.562500 28.830000
37.175000 -1.187500 28.830000
38.050000 1.046875 28.830000
38.200000 2.437500 28.830000
38.175000 4.015625 28.830000
32.250000 -10.156250 28.967999
32.075000 -8.140625 28.967999
32.000000 -7.281250 28.967999
36.375000 -2.843750 28.967999
37.975000 2.546875 28.967999
37.975000 3.843750 28.967999
32.275000 -9.593750 29.106000
32.100000 -8.500000 29.106000
32.025000 -7.171875 29.106000
36.275000 -2.546875 29.106000
37.875000 2.796875 29.106000
37.800000 3.781250 29.106000
32.250000 -9.468750 29.250999
32.075000 -8.250000 29.250999
31.975000 -7.359375 29.250999
36.150000 -2.656250 29.250999
37.775000 2.390625 29.250999
37.625000 3.453125 29.250999
32.250000 -9.968750 29.390998
32.125000 -8.500000 29.390998
32.050000 -7.500000 29.390998
36.000000 -2.796875 29.390998
37.600000 2.500000 29.390998
37.450000 3.281250 29.390998
38.075000 4.781250 29.390998
32.250000 -10.203125 29.535999
32.075000 -8.578125 29.535999
32.000000 -7.078125 29.535999
35.925000 -2.656250 29.535999
37.325000 2.328125 29.535999
35.850000 -2.718750 29.677000
36.175000 -1.484375 29.677000
36.975000 -0.500000 29.677000
37.500000 1.218750 29.677000
37.250000 2.234375 29.677000
37.175000 3.343750 29.677000
37.825000 4.562500 29.677000
32.325000 -10.234375 29.817002
32.225000 -8.531250 29.817002
32.050000 -7.890625 29.817002
35.850000 -2.671875 29.817002
36.100000 -1.828125 29.817002
36.550000 -0.359375 29.817002
37.075000 0.906250 29.817002
37.150000 2.125000 29.817002
37.050000 3.328125 29.817002
37.575000 4.640625 29.817002
32.300000 -10.531250 29.959001
32.200000 -9.265625 29.959001
32.050000 -7.734375 29.959001
35.825000 -2.875000 29.959001
36.075000 -1.453125 29.959001
36.475000 -0.250000 29.959001
37.000000 0.828125 29.959001
37.125000 2.062500 29.959001
37.025000 3.390625 29.959001
37.525000 4.734375 29.959001
