29.000000 3.811035 41.963145
29.300000 4.946289 41.963145
30.400000 6.747559 41.963145
30.200000 7.757813 41.963145
30.000000 8.018066 41.963145
29.900000 8.528320 41.963145
29.900000 9.538574 41.963145
30.100000 9.798828 41.963145
30.200000 10.059082 41.963145
30.400000 10.694336 41.963145
30.500000 11.079590 41.963145
24.200000 -9.320801 42.144149
24.100000 -9.928711 42.144149
24.100000 -9.661621 42.144149
24.000000 -9.019531 42.144149
24.000000 -8.002441 42.144149
24.000000 -2.990723 42.144149
23.800000 -3.598633 42.144149
23.700000 -2.831543 42.144149
23.700000 -1.939453 42.144149
23.700000 -2.422363 42.144149
23.800000 0.094727 42.144149
28.600000 0.180176 42.144149
28.500000 0.822266 42.144149
28.400000 1.214355 42.144149
28.500000 1.856445 42.144149
28.600000 1.873535 42.144149
28.700000 2.640625 42.144149
28.800000 2.778320 42.144149
28.800000 4.166016 42.144149
29.100000 3.803711 42.144149
29.400000 5.066406 42.144149
30.700000 6.742188 42.144149
30.400000 7.504883 42.144149
30.300000 7.142578 42.144149
30.200000 7.780273 42.144149
30.100000 8.292969 42.144149
30.100000 9.055664 42.144149
30.200000 9.943359 42.144149
30.300000 9.706055 42.144149
30.400000 11.093750 42.144149
30.600000 10.856445 42.144149
24.100000 -9.938477 42.324153
24.000000 -8.298828 42.324153
24.000000 -6.909180 42.324153
24.000000 -7.144531 42.324153
23.800000 -4.027344 42.324153
23.700000 -1.762695 42.324153
23.700000 -2.623047 42.324153
23.700000 -0.733398 42.324153
23.700000 -1.218750 42.324153
28.500000 0.104492 42.324153
28.700000 0.244141 42.324153
28.700000 0.633789 42.324153
28.600000 1.273438 42.324153
28.600000 1.788086 42.324153
28.700000 2.052734 42.324153
28.700000 3.317383 42.324153
28.800000 3.707031 42.324153
29.000000 3.971680 42.324153
29.300000 4.236328 42.324153
29.600000 5.000977 42.324153
30.800000 6.305176 42.324153
30.500000 7.693359 42.324153
30.400000 8.081543 42.324153
30.300000 7.969727 42.324153
30.200000 8.482910 42.324153
30.200000 9.746094 42.324153
30.300000 9.759277 42.324153
30.400000 10.272461 42.324153
30.600000 10.660645 42.324153
30.900000 11.673828 42.324153
31.300000 11.562012 42.324153
24.200000 -10.519531 42.505150
24.100000 -10.002930 42.505150
24.100000 -9.611328 42.505150
24.000000 -7.094727 42.505150
24.000000 -8.453125 42.505150
23.900000 -2.468750 42.505150
23.800000 -3.205078 42.505150
23.700000 -2.566406 42.505150
23.700000 -2.427734 42.505150
23.700000 -0.414062 42.505150
23.800000 -0.775391 42.505150
28.800000 0.417969 42.505150
28.800000 0.556641 42.505150
28.800000 0.695312 42.505150
28.700000 2.208984 42.505150
28.800000 2.222656 42.505150
28.800000 2.486328 42.505150
28.900000 3.500000 42.505150
29.100000 3.638672 42.505150
29.300000 4.277344 42.505150
29.600000 4.291016 42.505150
29.900000 5.304688 42.505150
30.100000 5.193359 42.505150
30.600000 6.082031 42.505150
31.000000 6.470703 42.505150
30.900000 6.859375 42.505150
30.600000 7.997070 42.505150
30.400000 8.384766 42.505150
30.300000 8.647461 42.505150
30.300000 9.035156 42.505150
30.400000 9.547852 42.505150
30.500000 9.935547 42.505150
30.600000 10.698242 42.505150
30.800000 10.710937 42.505150
24.200000 -9.837891 42.684150
24.100000 -9.198242 42.684150
24.000000 -8.683594 42.684150
24.000000 -7.793945 42.684150
23.800000 -2.426758 42.684150
23.700000 -3.787109 42.684150
23.800000 -3.397461 42.684150
23.700000 -2.257813 42.684150
23.700000 -0.368164 42.684150
23.800000 -0.978516 42.684150
28.900000 0.594727 42.684150
28.800000 1.109375 42.684150
28.800000 0.999023 42.684150
28.700000 1.388672 42.684150
28.800000 1.903320 42.684150
28.800000 3.167969 42.684150
28.900000 3.557617 42.684150
29.200000 3.447266 42.684150
29.500000 4.586914 42.684150
29.800000 4.601562 42.684150
30.100000 4.991211 42.684150
30.500000 6.924805 42.684150
30.700000 7.314453 42.684150
30.400000 7.954102 42.684150
30.300000 8.843750 42.684150
30.400000 8.856934 42.684150
30.500000 9.245117 42.684150
30.600000 10.133301 42.684150
30.800000 10.521484 42.684150
31.000000 11.284668 42.684150
31.300000 11.797852 42.684150
24.100000 -7.807617 42.863147
24.100000 -9.042480 42.863147
24.000000 -8.152344 42.863147
24.000000 -7.387207 42.863147
23.900000 -4.393066 42.863147
23.800000 -3.129883 42.863147
23.800000 -3.116699 42.863147
23.800000 -1.603516 42.863147
23.700000 -1.340332 42.863147
23.800000 -1.077148 42.863147
28.900000 -0.011230 42.863147
28.900000 1.001953 42.863147
28.900000 0.765137 42.863147
28.900000 1.653320 42.863147
28.800000 1.791504 42.863147
28.900000 2.554688 42.863147
29.100000 3.192871 42.863147
29.200000 3.456055 42.863147
29.500000 4.219238 42.863147
29.900000 4.732422 42.863147
30.200000 4.995605 42.863147
30.400000 5.633789 42.863147
30.700000 6.673340 42.863147
30.800000 7.561523 42.863147
30.600000 7.949707 42.863147
30.500000 8.587891 42.863147
30.400000 9.101074 42.863147
30.500000 9.364258 42.863147
30.700000 9.877441 42.863147
30.800000 10.265625 42.863147
31.000000 11.152832 42.863147
31.300000 11.540039 42.863147
24.100000 -9.459473 43.037149
24.000000 -7.317383 43.037149
24.000000 -8.800293 43.037149
24.000000 -7.533203 43.037149
23.800000 -3.646484 43.037149
23.700000 -3.379395 43.037149
23.700000 -2.862305 43.037149
23.700000 -0.720215 43.037149
23.700000 -1.828125 43.037149
28.800000 0.360352 43.037149
29.000000 0.123047 43.037149
29.000000 0.760742 43.037149
28.900000 1.773438 43.037149
28.900000 1.536133 43.037149
29.000000 2.048828 43.037149
29.100000 3.061523 43.037149
29.300000 2.949219 43.037149
29.500000 4.211914 43.037149
29.800000 4.599609 43.037149
30.200000 4.737305 43.037149
30.500000 5.500000 43.037149
30.800000 7.563477 43.037149
30.700000 8.701172 43.037149
30.600000 9.088867 43.037149
30.600000 9.601562 43.037149
30.700000 10.114258 43.037149
30.800000 10.251953 43.037149
31.000000 10.889648 43.037149
24.200000 -10.589355 43.216150
24.100000 -10.198242 43.216150
24.100000 -8.807129 43.216150
24.000000 -9.166016 43.216150
24.000000 -8.024902 43.216150
24.000000 -3.770996 43.216150
23.800000 -3.629883 43.216150
23.800000 -2.488770 43.216150
23.800000 -2.097656 43.216150
23.700000 -2.331543 43.216150
23.700000 -0.690430 43.216150
28.900000 0.390137 43.216150
29.000000 0.156250 43.216150
29.000000 0.918945 43.216150
28.900000 1.931641 43.216150
28.900000 2.569336 43.216150
29.000000 2.207031 43.216150
29.200000 3.469727 43.216150
29.400000 3.857422 43.216150
29.700000 4.245117 43.216150
30.100000 4.257812 43.216150
30.400000 5.270508 43.216150
30.400000 5.408203 43.216150
31.200000 7.833984 43.216150
30.800000 7.721680 43.216150
30.700000 8.234375 43.216150
30.700000 8.747070 43.216150
30.700000 9.259766 43.216150
30.800000 9.897461 43.216150
30.900000 10.660156 43.216150
31.200000 10.797852 43.216150
24.200000 -9.833984 43.397152
24.100000 -10.194824 43.397152
24.100000 -9.305664 43.397152
24.000000 -7.166504 43.397152
24.000000 -7.277344 43.397152
24.000000 -2.789062 43.397152
23.800000 -3.899902 43.397152
23.800000 -1.760742 43.397152
23.700000 -0.996582 43.397152
23.700000 -1.482422 43.397152
23.800000 -1.218262 43.397152
28.900000 0.352539 43.397152
29.000000 0.866699 43.397152
29.000000 0.630859 43.397152
28.900000 1.520020 43.397152
28.900000 2.159180 43.397152
29.100000 2.798340 43.397152
29.200000 3.562500 43.397152
29.500000 3.200684 43.397152
29.800000 3.963867 43.397152
30.100000 4.602051 43.397152
30.400000 4.865234 43.397152
30.300000 5.753418 43.397152
31.500000 7.181152 43.397152
30.900000 7.819336 43.397152
30.700000 8.207520 43.397152
30.700000 8.470703 43.397152
30.700000 9.233887 43.397152
30.800000 9.997070 43.397152
30.900000 10.135254 43.397152
31.200000 10.898438 43.397152
24.300000 -8.780762 43.576144
24.100000 -10.140625 43.576144
24.100000 -7.751953 43.576144
24.000000 -7.238281 43.576144
24.000000 -7.974609 43.576144
23.900000 -4.490234 43.576144
23.800000 -3.976562 43.576144
23.700000 -2.087891 43.576144
23.700000 -1.074219 43.576144
23.700000 -2.435547 43.576144
23.800000 -1.296875 43.576144
28.800000 0.271484 43.576144
29.000000 0.160156 43.576144
29.000000 0.923828 43.576144
28.900000 1.312500 43.576144
28.900000 1.701172 43.576144
29.100000 2.589844 43.576144
29.300000 2.478516 43.576144
29.500000 3.742187 43.576144
29.800000 4.380859 43.576144
30.200000 4.519531 43.576144
30.500000 4.533203 43.576144
30.500000 5.046875 43.576144
30.800000 7.593750 43.576144
31.100000 7.980469 43.576144
30.900000 8.492188 43.576144
30.800000 9.128906 43.576144
30.900000 9.515625 43.576144
31.000000 10.152344 43.576144
31.100000 10.164063 43.576144
31.200000 10.425781 43.576144
24.200000 -9.203125 43.757147
24.100000 -10.187500 43.757147
24.100000 -9.546875 43.757147
24.000000 -7.156250 43.757147
24.000000 -7.640625 43.757147
24.000000 -4.292969 43.757147
23.900000 -4.031250 43.757147
23.700000 -1.519531 43.757147
23.700000 -2.257813 43.757147
23.700000 -1.871094 43.757147
23.800000 -1.109375 43.757147
28.900000 -0.425781 43.757147
29.000000 0.585938 43.757147
28.900000 1.472656 43.757147
28.900000 1.484375 43.757147
28.900000 1.621094 43.757147
29.100000 2.507812 43.757147
29.300000 2.894531 43.757147
29.600000 3.531250 43.757147
29.900000 3.917969 43.757147
30.300000 4.554687 43.757147
30.600000 4.566406 43.757147
30.400000 5.703125 43.757147
31.100000 7.761719 43.757147
31.000000 8.023438 43.757147
30.900000 8.410156 43.757147
30.900000 9.296875 43.757147
31.000000 10.183594 43.757147
31.100000 10.320312 43.757147
31.400000 10.707031 43.757147
24.200000 -10.515625 43.936154
24.100000 -9.750000 43.936154
24.100000 -8.484375 43.936154
24.000000 -9.218750 43.936154
24.000000 -8.703125 43.936154
24.000000 -3.833008 43.936154
23.800000 -2.069824 43.936154
23.700000 -1.556641 43.936154
23.700000 -2.543457 43.936154
23.700000 -0.530273 43.936154
23.800000 -0.017090 43.936154
28.900000 -0.201172 43.936154
29.000000 0.312012 43.936154
28.900000 0.700195 43.936154
28.900000 1.088379 43.936154
29.000000 1.601562 43.936154
29.200000 2.864746 43.936154
29.300000 3.127930 43.936154
29.600000 3.641113 43.936154
29.900000 4.029297 43.936154
30.300000 4.542480 43.936154
30.600000 4.555664 43.936154
30.400000 5.318848 43.936154
30.100000 6.207031 43.936154
31.100000 8.022949 43.936154
31.000000 9.036133 43.936154
31.000000 9.299316 43.936154
31.100000 9.812500 43.936154
31.200000 10.325684 43.936154
31.400000 10.588867 43.936154
24.200000 -8.743164 44.116163
24.100000 -9.103027 44.116163
24.100000 -9.087891 44.116163
24.000000 -7.322754 44.116163
24.000000 -6.682617 44.116163
24.000000 -4.186523 44.116163
23.800000 -2.046387 44.116163
23.700000 -3.031250 44.116163
23.700000 -1.894043 44.116163
23.700000 -0.506836 44.116163
23.800000 -1.369629 44.116163
28.900000 -0.433594 44.116163
29.000000 0.453613 44.116163
28.900000 1.465820 44.116163
28.900000 1.103027 44.116163
29.000000 1.740234 44.116163
29.100000 2.127441 44.116163
29.300000 2.639648 44.116163
29.600000 3.151855 44.116163
29.900000 3.789062 44.116163
30.300000 4.426270 44.116163
30.800000 4.438477 44.116163
31.000000 7.511719 44.116163
31.100000 8.023926 44.116163
31.100000 9.161133 44.116163
31.100000 9.048340 44.116163
31.200000 9.560547 44.116163
31.300000 10.572754 44.116163
31.400000 10.834961 44.116163
24.100000 -8.446777 44.288149
24.000000 -8.929688 44.288149
24.000000 -8.912598 44.288149
24.000000 -7.770508 44.288149
23.800000 -2.758789 44.288149
23.700000 -2.991699 44.288149
23.700000 -1.224609 44.288149
23.700000 -2.332520 44.288149
23.700000 -1.815430 44.288149
22.600000 0.843750 44.288149
29.000000 -0.117187 44.288149
28.900000 1.142578 44.288149
28.800000 1.902344 44.288149
28.900000 2.037109 44.288149
29.000000 2.296875 44.288149
29.200000 2.431641 44.288149
29.400000 3.441406 44.288149
29.800000 3.326172 44.288149
30.200000 4.085938 44.288149
30.600000 4.595703 44.288149
30.700000 4.730469 44.288149
31.600000 7.404297 44.288149
31.300000 8.039063 44.288149
31.200000 8.923828 44.288149
31.100000 9.308594 44.288149
31.200000 9.193359 44.288149
31.300000 9.703125 44.288149
31.400000 10.712891 44.288149
31.700000 10.597656 44.288149
32.200000 11.607422 44.288149
24.200000 -9.600586 44.469150
24.100000 -9.958984 44.469150
24.100000 -7.817383 44.469150
24.000000 -8.050781 44.469150
24.000000 -6.659180 44.469150
24.000000 -4.526367 44.469150
23.800000 -3.259766 44.469150
23.700000 -2.243164 44.469150
23.700000 -0.976563 44.469150
23.800000 -1.459961 44.469150
23.800000 -1.193359 44.469150
28.900000 -0.110352 44.469150
28.900000 1.156250 44.469150
28.900000 1.669434 44.469150
28.900000 1.182617 44.469150
28.900000 1.695801 44.469150
29.100000 2.708984 44.469150
29.300000 2.847168 44.469150
29.500000 3.110352 44.469150
29.900000 3.748535 44.469150
30.300000 4.261719 44.469150
30.700000 5.274902 44.469150
31.000000 8.104004 44.469150
31.200000 8.367188 44.469150
31.100000 8.630371 44.469150
31.100000 9.268555 44.469150
31.200000 9.906738 44.469150
31.400000 10.419922 44.469150
31.600000 11.183105 44.469150
24.200000 -10.140625 44.651160
24.100000 -9.875000 44.651160
24.100000 -8.234375 44.651160
24.000000 -8.718750 44.651160
24.000000 -7.828125 44.651160
24.000000 -2.828125 44.651160
23.800000 -2.062500 44.651160
23.700000 -2.046875 44.651160
23.700000 -2.656250 44.651160
23.700000 -1.390625 44.651160
23.800000 -1.875000 44.651160
28.800000 -0.046875 44.651160
28.800000 0.093750 44.651160
28.800000 0.609375 44.651160
28.800000 1.250000 44.651160
28.800000 2.140625 44.651160
28.900000 3.031250 44.651160
29.100000 3.419434 44.651160
29.400000 3.057617 44.651160
30.400000 5.485352 44.651160
30.000000 6.373535 44.651160
31.300000 8.314453 44.651160
31.100000 8.827637 44.651160
31.200000 9.590820 44.651160
31.400000 9.729004 44.651160
31.500000 10.367188 44.651160
31.600000 10.880371 44.651160
24.200000 -10.595703 44.829149
24.100000 -8.207031 44.829149
24.100000 -7.693359 44.829149
24.000000 -9.054688 44.829149
24.000000 -7.291016 44.829149
24.000000 -4.056641 44.829149
23.800000 -4.042969 44.829149
23.800000 -2.779297 44.829149
23.700000 -2.265625 44.829149
23.700000 -1.751953 44.829149
23.800000 -0.488281 44.829149
28.800000 -0.169922 44.829149
28.800000 0.968750 44.829149
28.800000 1.607422 44.829149
28.800000 1.121094 44.829149
28.800000 2.509766 44.829149
28.900000 2.523438 44.829149
29.100000 3.537109 44.829149
29.300000 3.925781 44.829149
30.400000 5.728516 44.829149
30.000000 5.741211 44.829149
31.400000 8.179688 44.829149
31.200000 8.692383 44.829149
31.300000 9.080078 44.829149
31.400000 9.592773 44.829149
31.500000 9.980469 44.829149
31.600000 10.618164 44.829149
24.100000 -7.922363 45.009151
24.000000 -8.781250 45.009151
24.000000 -8.518555 45.009151
24.000000 -7.130859 45.009151
23.800000 -3.279297 45.009151
23.700000 -1.766602 45.009151
23.700000 -2.753906 45.009151
23.700000 -2.116211 45.009151
23.700000 -0.228516 45.009151
28.900000 0.597656 45.009151
28.800000 0.735352 45.009151
28.700000 1.623047 45.009151
28.700000 1.760742 45.009151
28.700000 2.773438 45.009151
28.800000 3.036133 45.009151
29.000000 3.423828 45.009151
29.200000 3.936523 45.009151
31.700000 7.660156 45.009151
31.500000 8.171875 45.009151
31.400000 8.308594 45.009151
31.300000 9.320313 45.009151
31.400000 9.207031 45.009151
31.500000 10.093750 45.009151
31.600000 10.105469 45.009151
24.100000 -10.390625 45.190149
24.100000 -9.250000 45.190149
24.100000 -7.609375 45.190149
24.000000 -7.718750 45.190149
24.000000 -6.578125 45.190149
23.900000 -3.348633 45.190149
23.800000 -1.961426 45.190149
23.700000 -2.199219 45.190149
23.700000 -1.937012 45.190149
23.800000 -2.424805 45.190149
23.800000 -0.287598 45.190149
28.800000 0.648438 45.190149
28.800000 0.535645 45.190149
28.700000 1.297852 45.190149
28.600000 1.435059 45.190149
28.600000 2.447266 45.190149
28.600000 2.709473 45.190149
28.700000 3.721680 45.190149
28.800000 4.108887 45.190149
30.200000 6.169922 45.190149
31.600000 7.593750 45.190149
31.500000 8.729980 45.190149
31.400000 9.116211 45.190149
31.400000 9.127441 45.190149
31.400000 10.138672 45.190149
31.500000 10.149902 45.190149
31.800000 10.786133 45.190149
24.100000 -8.507812 45.370150
24.000000 -6.995117 45.370150
24.000000 -7.482422 45.370150
23.800000 -2.378906 45.370150
23.700000 -1.865234 45.370150
23.700000 -1.851563 45.370150
23.700000 -2.212891 45.370150
23.800000 -1.574219 45.370150
22.400000 0.703125 45.370150
28.800000 0.507812 45.370150
28.700000 0.521484 45.370150
28.500000 1.035156 45.370150
28.500000 2.423828 45.370150
28.500000 2.187500 45.370150
28.500000 3.201172 45.370150
28.600000 3.464844 45.370150
28.600000 4.353516 45.370150
28.800000 4.867187 45.370150
31.800000 6.962891 45.370150
31.600000 8.101562 45.370150
31.400000 8.490234 45.370150
31.400000 9.003906 45.370150
31.400000 9.642578 45.370150
31.500000 9.906250 45.370150
31.600000 10.793457 45.370150
24.100000 -9.713867 45.550148
24.000000 -9.324707 45.550148
24.000000 -6.935547 45.550148
24.000000 -6.171387 45.550148
23.800000 -4.183105 45.550148
23.700000 -2.668945 45.550148
23.700000 -2.279785 45.550148
23.700000 -0.515625 45.550148
23.700000 -1.507324 45.550148
23.600000 0.250977 45.550148
28.700000 0.667480 45.550148
28.700000 0.675781 45.550148
28.600000 1.559082 45.550148
28.400000 2.442383 45.550148
28.400000 2.325684 45.550148
28.400000 2.958984 45.550148
28.400000 2.967285 45.550148
28.500000 3.725586 45.550148
28.500000 4.358887 45.550148
28.600000 5.367188 45.550148
28.900000 5.250488 45.550148
31.800000 7.166992 45.550148
31.600000 8.050293 45.550148
31.400000 8.558594 45.550148
31.400000 9.066895 45.550148
31.400000 9.575195 45.550148
31.400000 9.958496 45.550148
31.600000 10.466797 45.550148
31.900000 10.600098 45.550148
32.400000 11.108398 45.550148
24.100000 -9.631348 45.722145
24.000000 -8.242188 45.722145
24.000000 -7.478027 45.722145
24.000000 -6.588867 45.722145
23.800000 -2.975586 45.722145
23.700000 -3.461426 45.722145
23.800000 -1.197266 45.722145
23.700000 -1.808105 45.722145
23.700000 -1.793945 45.722145
28.600000 0.137207 45.722145
28.700000 0.271484 45.722145
28.500000 1.405762 45.722145
28.400000 1.040039 45.722145
28.400000 1.674316 45.722145
28.300000 2.933594 45.722145
28.300000 3.567871 45.722145
28.300000 3.702148 45.722145
28.300000 4.086426 45.722145
28.300000 4.220703 45.722145
28.400000 4.604980 45.722145
28.500000 5.989258 45.722145
28.600000 5.748535 45.722145
28.900000 6.507812 45.722145
31.500000 6.651367 45.722145
31.600000 7.410645 45.722145
31.500000 7.919922 45.722145
31.400000 8.554199 45.722145
31.400000 8.938477 45.722145
31.400000 9.447754 45.722145
31.500000 10.332031 45.722145
31.600000 10.591309 45.722145
24.100000 -8.000000 45.903149
24.100000 -8.984375 45.903149
24.000000 -8.218750 45.903149
24.000000 -6.453125 45.903149
23.800000 -3.703125 45.903149
23.700000 -1.812500 45.903149
23.700000 -1.296875 45.903149
23.700000 -0.781250 45.903149
23.700000 -1.390625 45.903149
22.800000 0.765625 45.903149
28.700000 -0.437500 45.903149
28.700000 -0.046875 45.903149
28.500000 0.841309 45.903149
28.500000 1.979492 45.903149
28.400000 1.617676 45.903149
28.400000 2.880859 45.903149
28.300000 2.894043 45.903149
28.300000 4.032227 45.903149
28.300000 4.170410 45.903149
28.300000 4.433594 45.903149
28.300000 5.196777 45.903149
28.300000 5.334961 45.903149
28.400000 5.598145 45.903149
28.500000 6.236328 45.903149
28.700000 6.874512 45.903149
31.400000 8.177246 45.903149
31.400000 9.190430 45.903149
31.400000 9.328613 45.903149
31.500000 10.341797 45.903149
31.700000 10.229980 45.903149
24.100000 -9.748047 46.081150
24.000000 -9.479492 46.081150
24.000000 -8.710938 46.081150
24.000000 -7.692383 46.081150
23.800000 -3.668945 46.081150
23.700000 -3.025391 46.081150
23.700000 -2.756836 46.081150
23.700000 -2.363281 46.081150
23.700000 -0.219727 46.081150
22.800000 0.817383 46.081150
28.700000 -0.251953 46.081150
28.600000 0.891602 46.081150
28.500000 0.410156 46.081150
28.400000 1.178711 46.081150
28.400000 1.822266 46.081150
28.300000 2.465820 46.081150
28.300000 2.734375 46.081150
28.300000 3.120605 46.081150
28.300000 4.006836 46.081150
28.300000 4.143066 46.081150
28.300000 5.529297 46.081150
28.300000 6.165527 46.081150
28.400000 5.801758 46.081150
28.500000 6.312988 46.081150
31.400000 8.244141 46.081150
31.400000 9.505371 46.081150
31.400000 9.266602 46.081150
31.500000 10.402832 46.081150
31.700000 10.414062 46.081150
24.100000 -8.333008 46.264150
24.100000 -7.569824 46.264150
24.000000 -8.931641 46.264150
24.000000 -6.543457 46.264150
23.800000 -3.437988 46.264150
23.700000 -3.549805 46.264150
23.700000 -2.911621 46.264150
23.700000 -2.773438 46.264150
23.800000 -2.260254 46.264150
23.800000 0.127930 46.264150
28.700000 -0.306152 46.264150
28.600000 0.457031 46.264150
28.500000 1.470215 46.264150
28.400000 1.858398 46.264150
28.300000 2.621582 46.264150
28.300000 3.009766 46.264150
28.300000 3.272949 46.264150
28.200000 3.661133 46.264150
28.200000 4.299316 46.264150
28.200000 5.312500 46.264150
28.300000 5.574707 46.264150
28.300000 5.961914 46.264150
28.400000 6.974121 46.264150
31.400000 8.035156 46.264150
31.400000 9.047363 46.264150
31.400000 9.559570 46.264150
31.400000 10.071777 46.264150
31.600000 10.208984 46.264150
24.200000 -8.404297 46.442150
24.100000 -9.014648 46.442150
24.100000 -7.625000 46.442150
24.000000 -7.112305 46.442150
24.000000 -7.849609 46.442150
24.000000 -3.998047 46.442150
23.800000 -1.985352 46.442150
23.700000 -1.472656 46.442150
23.700000 -2.834961 46.442150
23.700000 -0.447266 46.442150
23.800000 -0.934570 46.442150
28.700000 0.628906 46.442150
28.600000 1.016602 46.442150
28.400000 0.779297 46.442150
28.300000 1.666992 46.442150
28.300000 1.929688 46.442150
28.300000 3.192383 46.442150
28.200000 3.080078 46.442150
28.200000 3.717773 46.442150
28.300000 3.980469 46.442150
28.300000 4.493164 46.442150
28.400000 5.380859 46.442150
28.500000 6.143555 46.442150
28.600000 6.281250 46.442150
28.900000 6.668457 46.442150
31.500000 7.967285 46.442150
31.400000 8.479492 46.442150
31.400000 8.991699 46.442150
31.400000 9.628906 46.442150
31.600000 10.516113 46.442150
24.100000 -9.046875 46.623153
24.100000 -7.531250 46.623153
24.000000 -8.640625 46.623153
24.000000 -8.000000 46.623153
23.900000 -2.385254 46.623153
23.800000 -3.746094 46.623153
23.700000 -3.106934 46.623153
23.700000 -0.842773 46.623153
23.700000 -1.828613 46.623153
22.800000 0.699707 46.623153
28.700000 -0.382812 46.623153
28.600000 0.131348 46.623153
28.500000 1.020508 46.623153
28.400000 1.284668 46.623153
28.300000 2.298828 46.623153
28.300000 2.937988 46.623153
28.300000 3.327148 46.623153
28.300000 3.216309 46.623153
28.300000 3.855469 46.623153
28.400000 4.119629 46.623153
28.500000 5.133789 46.623153
28.700000 5.647949 46.623153
28.900000 6.037109 46.623153
31.800000 7.343750 46.623153
31.600000 7.606445 46.623153
31.500000 8.744141 46.623153
31.400000 9.131836 46.623153
31.400000 9.269531 46.623153
31.500000 10.157227 46.623153
31.600000 10.294922 46.623153
31.900000 11.182617 46.623153
24.100000 -7.767578 46.804145
24.000000 -9.003906 46.804145
24.000000 -8.490234 46.804145
24.000000 -3.883789 46.804145
23.800000 -3.871094 46.804145
23.700000 -1.608398 46.804145
23.800000 -2.345703 46.804145
23.700000 -1.458008 46.804145
23.800000 -1.445312 46.804145
28.500000 -0.256836 46.804145
28.500000 0.005859 46.804145
28.400000 0.643555 46.804145
28.300000 2.156250 46.804145
28.300000 1.918945 46.804145
28.300000 2.181641 46.804145
28.300000 2.819336 46.804145
28.400000 3.582031 46.804145
28.500000 4.469727 46.804145
28.700000 4.232422 46.804145
32.000000 7.308594 46.804145
31.700000 7.196289 46.804145
31.500000 8.333984 46.804145
31.400000 8.846680 46.804145
31.400000 9.109375 46.804145
31.500000 9.996094 46.804145
31.600000 10.382812 46.804145
24.200000 -8.683594 46.982150
24.100000 -9.170898 46.982150
24.100000 -9.658203 46.982150
24.000000 -8.645508 46.982150
24.000000 -8.382812 46.982150
24.000000 -4.406250 46.982150
23.800000 -2.144043 46.982150
23.700000 -2.756836 46.982150
23.700000 -2.744629 46.982150
23.700000 -2.482422 46.982150
23.800000 0.029785 46.982150
28.600000 -0.409180 46.982150
28.500000 0.728027 46.982150
28.400000 1.240234 46.982150
28.300000 1.502441 46.982150
28.300000 2.389648 46.982150
28.400000 2.401855 46.982150
28.500000 2.914062 46.982150
28.600000 3.301270 46.982150
28.800000 4.063477 46.982150
32.000000 7.023926 46.982150
31.700000 7.786133 46.982150
31.500000 8.673340 46.982150
31.400000 8.935547 46.982150
31.400000 9.447754 46.982150
31.500000 9.459961 46.982150
31.600000 10.347168 46.982150
24.100000 -9.855469 47.163150
24.000000 -9.218750 47.163150
24.000000 -7.707031 47.163150
23.900000 -3.363281 47.163150
23.800000 -1.714844 47.163150
23.800000 -3.078125 47.163150
23.700000 -1.567383 47.163150
23.700000 -1.306641 47.163150
28.500000 0.372070 47.163150
28.600000 0.007812 47.163150
28.500000 1.393555 47.163150
28.400000 1.779297 47.163150
28.400000 2.040039 47.163150
28.500000 2.800781 47.163150
28.600000 2.686523 47.163150
28.700000 3.947266 47.163150
28.900000 3.958008 47.163150
29.100000 4.218750 47.163150
32.000000 7.033203 47.163150
31.700000 7.293945 47.163150
31.500000 7.804688 47.163150
31.400000 8.690430 47.163150
31.400000 9.076172 47.163150
31.400000 9.211914 47.163150
31.500000 9.972656 47.163150
24.100000 -7.541504 47.343149
24.000000 -8.653320 47.343149
24.000000 -6.765137 47.343149
24.000000 -4.534668 47.343149
23.800000 -2.146484 47.343149
23.700000 -2.133301 47.343149
23.700000 -2.370117 47.343149
23.700000 -2.231934 47.343149
23.800000 -1.093750 47.343149
28.500000 -0.427246 47.343149
28.500000 0.831055 47.343149
28.400000 1.464355 47.343149
28.400000 1.472656 47.343149
28.400000 2.230957 47.343149
28.500000 2.114258 47.343149
28.700000 3.247559 47.343149
28.900000 3.880859 47.343149
29.100000 3.514160 47.343149
31.700000 7.830566 47.343149
31.500000 8.213867 47.343149
31.400000 8.347168 47.343149
31.300000 9.105469 47.343149
31.400000 9.363770 47.343149
31.500000 10.122070 47.343149
31.700000 10.755371 47.343149
32.100000 11.263672 47.343149
24.200000 -9.208008 47.517150
24.100000 -9.568848 47.517150
24.000000 -9.054688 47.517150
24.000000 -8.040527 47.517150
23.900000 -3.927246 47.517150
23.800000 -3.913086 47.517150
23.800000 -2.523926 47.517150
23.800000 -2.134766 47.517150
23.700000 -1.620605 47.517150
23.800000 -1.356445 47.517150
28.600000 0.701172 47.517150
28.600000 0.335938 47.517150
28.400000 1.220703 47.517150
28.400000 1.480469 47.517150
28.500000 1.740234 47.517150
28.600000 2.875000 47.517150
28.800000 2.884766 47.517150
29.100000 4.144531 47.517150
29.400000 4.529297 47.517150
31.700000 7.472656 47.517150
31.500000 7.857422 47.517150
31.400000 8.242188 47.517150
31.300000 8.626953 47.517150
31.400000 9.011719 47.517150
31.400000 9.646484 47.517150
31.600000 10.031250 47.517150
31.800000 10.666016 47.517150
24.100000 -7.979492 47.695150
24.000000 -9.214844 47.695150
24.000000 -8.825195 47.695150
24.000000 -7.935547 47.695150
23.900000 -2.318359 47.695150
23.800000 -1.803711 47.695150
23.700000 -3.039062 47.695150
23.800000 -1.899414 47.695150
23.800000 -2.134766 47.695150
22.700000 0.769531 47.695150
28.600000 0.203125 47.695150
28.500000 0.463867 47.695150
28.500000 1.724609 47.695150
28.400000 1.860352 47.695150
28.600000 2.496094 47.695150
28.800000 2.756836 47.695150
29.000000 2.892578 47.695150
29.300000 3.278320 47.695150
29.600000 4.539062 47.695150
31.700000 7.489258 47.695150
31.500000 7.750000 47.695150
31.300000 8.510742 47.695150
31.300000 8.771484 47.695150
31.300000 9.657227 47.695150
31.300000 10.042969 47.695150
31.500000 10.553711 47.695150
31.900000 11.189453 47.695150
24.100000 -9.459473 47.876150
24.000000 -8.822266 47.876150
24.000000 -8.435059 47.876150
24.000000 -6.422852 47.876150
23.900000 -2.325195 47.876150
23.700000 -3.562988 47.876150
23.700000 -1.050781 47.876150
23.800000 -2.038574 47.876150
23.800000 -0.276367 47.876150
23.700000 0.235840 47.876150
28.600000 0.046875 47.876150
28.500000 0.428711 47.876150
28.500000 1.560547 47.876150
28.500000 1.692383 47.876150
28.600000 2.699219 47.876150
28.800000 3.206055 47.876150
29.000000 3.462891 47.876150
29.300000 3.969727 47.876150
29.600000 3.726563 47.876150
31.500000 7.524414 47.876150
31.500000 8.031250 47.876150
31.300000 8.663086 47.876150
31.200000 8.794922 47.876150
31.200000 9.176758 47.876150
31.300000 10.183594 47.876150
31.400000 10.440430 47.876150
31.700000 10.572266 47.876150
24.100000 -9.810547 48.056149
24.000000 -7.422363 48.056149
24.000000 -8.284180 48.056149
24.000000 -8.145996 48.056149
23.900000 -4.165527 48.056149
23.700000 -1.777344 48.056149
23.700000 -3.139160 48.056149
23.800000 -1.750977 48.056149
23.800000 -1.612793 48.056149
22.800000 0.788574 48.056149
28.700000 0.203125 48.056149
28.600000 -0.037598 48.056149
28.500000 0.471680 48.056149
28.400000 1.355957 48.056149
28.500000 1.490234 48.056149
28.600000 2.624512 48.056149
28.800000 2.508789 48.056149
29.000000 3.143066 48.056149
29.400000 3.277344 48.056149
29.800000 4.036621 48.056149
30.200000 4.170898 48.056149
31.500000 7.351563 48.056149
31.400000 7.985840 48.056149
31.200000 8.870117 48.056149
31.100000 9.004395 48.056149
31.100000 9.388672 48.056149
31.200000 9.897949 48.056149
31.400000 10.657227 48.056149
31.700000 10.666504 48.056149
24.200000 -8.594727 48.236150
24.100000 -7.583984 48.236150
24.000000 -7.073242 48.236150
24.000000 -8.187500 48.236150
23.900000 -4.351563 48.236150
23.800000 -3.715820 48.236150
23.800000 -3.330078 48.236150
23.800000 -2.444336 48.236150
23.700000 -2.308594 48.236150
23.800000 -0.797852 48.236150
28.600000 0.629883 48.236150
28.600000 0.515137 48.236150
28.400000 0.900391 48.236150
28.500000 1.285645 48.236150
28.700000 1.795898 48.236150
28.800000 2.556152 48.236150
28.900000 3.191406 48.236150
29.300000 3.951660 48.236150
29.700000 4.461914 48.236150
30.100000 4.847168 48.236150
31.300000 8.043945 48.236150
31.100000 7.929199 48.236150
31.000000 8.689453 48.236150
31.000000 9.199707 48.236150
31.100000 9.709961 48.236150
31.200000 10.095215 48.236150
31.500000 10.730469 48.236150
24.300000 -9.788574 48.416150
24.100000 -8.278320 48.416150
24.100000 -7.893066 48.416150
24.000000 -8.882813 48.416150
24.000000 -7.372559 48.416150
23.800000 -3.655273 48.416150
23.700000 -3.145020 48.416150
23.700000 -1.509766 48.416150
23.700000 -0.624512 48.416150
23.800000 -1.239258 48.416150
28.400000 -0.451172 48.416150
28.600000 0.179688 48.416150
28.600000 1.185547 48.416150
28.500000 1.941406 48.416150
28.500000 1.697266 48.416150
28.600000 2.578125 48.416150
28.800000 2.833984 48.416150
29.000000 3.214844 48.416150
29.400000 3.345703 48.416150
29.800000 4.101562 48.416150
31.300000 7.642578 48.416150
31.100000 7.773438 48.416150
31.000000 8.279297 48.416150
30.900000 9.035156 48.416150
30.900000 9.416016 48.416150
31.000000 9.921875 48.416150
31.200000 10.927734 48.416150
31.600000 10.933594 48.416150
24.100000 -8.083008 48.604150
24.100000 -9.573730 48.604150
24.000000 -8.564453 48.604150
24.000000 -7.055176 48.604150
23.900000 -3.855957 48.604150
23.800000 -1.971680 48.604150
23.800000 -1.462402 48.604150
23.800000 -0.953125 48.604150
23.700000 -2.445801 48.604150
23.800000 -1.688477 48.604150
28.600000 0.098145 48.604150
28.600000 0.230469 48.604150
28.600000 1.112793 48.604150
28.500000 1.245117 48.604150
28.700000 2.127441 48.604150
28.800000 2.759766 48.604150
28.900000 3.267090 48.604150
29.100000 3.149414 48.604150
29.500000 4.031738 48.604150
30.000000 4.414063 48.604150
31.200000 7.715332 48.604150
31.000000 8.722656 48.604150
30.800000 8.479980 48.604150
30.800000 9.362305 48.604150
30.800000 10.119629 48.604150
31.000000 10.376953 48.604150
24.100000 -9.263672 48.784149
24.000000 -9.502930 48.784149
24.000000 -8.492188 48.784149
24.000000 -7.356445 48.784149
24.000000 -4.274902 48.784149
23.800000 -2.768555 48.784149
23.800000 -2.387207 48.784149
23.700000 -0.880859 48.784149
23.700000 -1.499512 48.784149
23.800000 0.131836 48.784149
28.600000 -0.336426 48.784149
28.600000 0.294922 48.784149
28.500000 1.301270 48.784149
28.500000 1.307617 48.784149
28.600000 2.188965 48.784149
28.700000 2.820313 48.784149
28.800000 3.076660 48.784149
29.100000 3.333008 48.784149
31.000000 8.015137 48.784149
30.800000 8.396484 48.784149
30.700000 8.527832 48.784149
30.700000 9.159180 48.784149
30.800000 9.540527 48.784149
30.900000 10.046875 48.784149
24.100000 -7.859375 48.965149
24.000000 -8.726562 48.965149
24.000000 -6.843750 48.965149
23.800000 -3.900879 48.965149
23.700000 -3.643555 48.965149
23.700000 -1.261230 48.965149
23.800000 -0.753906 48.965149
23.800000 -1.871582 48.965149
23.600000 -1.239258 48.965149
28.600000 -0.084961 48.965149
28.600000 0.047363 48.965149
28.500000 0.679688 48.965149
28.500000 1.062012 48.965149
28.500000 2.069336 48.965149
28.500000 1.826660 48.965149
28.600000 3.208984 48.965149
28.800000 3.466309 48.965149
29.000000 3.473633 48.965149
31.000000 7.532227 48.965149
30.800000 8.289551 48.965149
30.600000 8.546875 48.965149
30.500000 9.427734 48.965149
30.500000 9.308594 48.965149
30.600000 10.189453 48.965149
30.800000 10.695313 48.965149
24.300000 -10.793945 49.144151
24.200000 -10.036621 49.144151
24.100000 -8.904297 49.144151
24.000000 -8.146973 49.144151
24.000000 -7.764648 49.144151
23.800000 -3.813477 49.144151
23.700000 -3.304687 49.144151
23.700000 -1.170898 49.144151
23.700000 -1.662109 49.144151
23.700000 -1.028320 49.144151
28.400000 0.265625 49.144151
28.600000 0.399414 49.144151
28.500000 0.533203 49.144151
28.500000 1.666992 49.144151
28.500000 1.675781 49.144151
28.500000 2.934570 49.144151
28.600000 2.568359 49.144151
28.700000 3.077148 49.144151
30.900000 7.656250 49.144151
30.600000 7.914551 49.144151
30.400000 8.422852 49.144151
30.400000 9.056152 49.144151
30.400000 9.939453 49.144151
30.500000 10.197754 49.144151
30.700000 10.456055 49.144151
31.000000 10.839355 49.144151
24.200000 -9.521484 49.325150
24.100000 -9.762695 49.325150
24.100000 -9.628906 49.325150
24.000000 -7.120117 49.325150
24.000000 -6.861328 49.325150
24.000000 -4.418945 49.325150
23.900000 -2.035645 49.325150
23.700000 -2.902344 49.325150
23.700000 -2.394043 49.325150
23.700000 -1.885742 49.325150
23.800000 -0.002441 49.325150
28.500000 -0.210938 49.325150
28.500000 1.047363 49.325150
28.400000 1.305664 49.325150
28.300000 1.938965 49.325150
28.300000 2.197266 49.325150
28.400000 2.330566 49.325150
28.600000 2.963867 49.325150
28.700000 3.222168 49.325150
29.000000 4.105469 49.325150
30.800000 7.163574 49.325150
30.600000 7.796875 49.325150
30.300000 8.305176 49.325150
30.200000 8.563477 49.325150
30.200000 9.571777 49.325150
30.300000 9.705078 49.325150
30.400000 10.463379 49.325150
30.600000 11.096680 49.325150
31.000000 11.104980 49.325150
24.100000 -9.444336 49.505149
24.100000 -9.308594 49.505149
24.100000 -8.297852 49.505149
24.000000 -8.537109 49.505149
24.000000 -8.401367 49.505149
24.000000 -4.180176 49.505149
23.800000 -2.042969 49.505149
23.700000 -2.905762 49.505149
23.800000 -2.768555 49.505149
23.800000 -1.881348 49.505149
23.700000 -1.869141 49.505149
28.400000 0.191895 49.505149
28.400000 1.079102 49.505149
28.400000 0.716309 49.505149
28.300000 1.228516 49.505149
28.300000 2.240723 49.505149
28.400000 2.877930 49.505149
28.500000 3.515137 49.505149
28.700000 3.277344 49.505149
30.700000 7.000000 49.505149
30.300000 8.385254 49.505149
30.100000 8.270508 49.505149
30.100000 8.780762 49.505149
30.200000 9.416016 49.505149
30.200000 9.801270 49.505149
30.400000 10.436523 49.505149
30.600000 11.196777 49.505149
30.900000 11.082031 49.505149
24.100000 -10.046387 49.684150
24.100000 -8.786133 49.684150
24.000000 -8.900879 49.684150
24.000000 -6.265625 49.684150
23.900000 -2.441406 49.684150
23.800000 -3.557129 49.684150
23.700000 -2.172852 49.684150
23.800000 -1.538574 49.684150
23.800000 -1.029297 49.684150
23.800000 0.104980 49.684150
28.400000 0.401367 49.684150
28.300000 1.035645 49.684150
28.200000 1.544922 49.684150
28.200000 1.429199 49.684150
28.200000 2.313477 49.684150
28.400000 2.197754 49.684150
28.500000 3.707031 49.684150
28.600000 3.341309 49.684150
28.800000 3.850586 49.684150
30.600000 7.031250 49.684150
30.400000 7.165527 49.684150
30.100000 8.049805 49.684150
30.000000 8.809082 49.684150
29.900000 9.318359 49.684150
30.000000 9.702637 49.684150
30.000000 10.461914 49.684150
30.200000 10.471191 49.684150
30.500000 11.355469 49.684150
30.800000 11.864746 49.684150
24.100000 -8.107422 49.867150
24.100000 -8.468750 49.867150
24.000000 -7.083984 49.867150
24.000000 -6.824219 49.867150
24.000000 -3.621094 49.867150
23.800000 -2.986328 49.867150
23.700000 -2.101562 49.867150
23.800000 -1.466797 49.867150
23.700000 -1.707031 49.867150
23.800000 -1.447266 49.867150
28.300000 -0.148438 49.867150
28.200000 0.861328 49.867150
28.100000 0.871094 49.867150
28.100000 2.005859 49.867150
28.100000 2.515625 49.867150
28.200000 2.900391 49.867150
28.300000 3.035156 49.867150
28.500000 3.544922 49.867150
28.700000 4.304688 49.867150
29.000000 4.439453 49.867150
29.500000 4.574219 49.867150
30.000000 5.333984 49.867150
30.300000 5.593750 49.867150
30.500000 6.353027 49.867150
30.400000 7.112305 49.867150
30.200000 7.121582 49.867150
30.000000 7.505859 49.867150
29.900000 8.765137 49.867150
29.800000 9.024414 49.867150
29.800000 9.908691 49.867150
30.000000 9.542969 49.867150
30.100000 10.802246 49.867150
30.300000 10.686523 49.867150
24.300000 -10.562500 50.044149
24.200000 -10.053711 50.044149
24.100000 -9.044922 50.044149
24.000000 -8.411133 50.044149
24.000000 -6.777344 50.044149
24.000000 -2.707031 50.044149
23.800000 -3.448242 50.044149
23.700000 -3.564453 50.044149
23.700000 -1.555664 50.044149
23.700000 -1.046875 50.044149
23.700000 -0.163086 50.044149
22.800000 0.854492 50.044149
28.100000 -0.369141 50.044149
28.200000 0.014648 50.044149
28.100000 0.773437 50.044149
28.100000 1.157227 50.044149
28.000000 1.916016 50.044149
28.100000 2.674805 50.044149
28.200000 2.808594 50.044149
28.400000 3.067383 50.044149
28.600000 3.951172 50.044149
28.800000 4.709961 50.044149
29.200000 4.843750 50.044149
29.500000 5.726563 50.044149
29.800000 5.359375 50.044149
30.200000 6.492188 50.044149
30.300000 6.375000 50.044149
30.100000 7.382812 50.044149
29.900000 7.390625 50.044149
29.700000 8.273438 50.044149
29.700000 8.406250 50.044149
29.700000 9.039062 50.044149
29.800000 9.546875 50.044149
30.000000 10.554688 50.044149
30.100000 11.062500 50.044149
30.400000 11.445312 50.044149
30.800000 11.953125 50.044149
24.200000 -10.316406 50.227149
24.100000 -9.305664 50.227149
24.100000 -8.294922 50.227149
24.000000 -9.159180 50.227149
24.000000 -7.898438 50.227149
24.000000 -3.187500 50.227149
23.800000 -3.926758 50.227149
23.700000 -3.291016 50.227149
23.700000 -2.155273 50.227149
23.700000 -1.769531 50.227149
23.700000 -1.383789 50.227149
28.200000 -0.080078 50.227149
28.200000 0.180664 50.227149
28.200000 0.941406 50.227149
28.100000 1.952148 50.227149
28.100000 2.337891 50.227149
28.100000 2.223633 50.227149
28.200000 3.109375 50.227149
28.400000 3.616211 50.227149
28.700000 3.748047 50.227149
28.900000 4.254883 50.227149
29.200000 5.261719 50.227149
30.100000 7.039062 50.227149
30.000000 7.670898 50.227149
29.800000 8.427734 50.227149
29.700000 8.434570 50.227149
29.700000 8.691406 50.227149
29.700000 9.448242 50.227149
29.800000 10.330078 50.227149
29.900000 10.211914 50.227149
30.100000 10.718750 50.227149
30.400000 11.225586 50.227149
30.800000 11.482422 50.227149
24.100000 -10.173828 50.406152
24.100000 -8.786133 50.406152
24.100000 -9.273438 50.406152
24.000000 -8.885742 50.406152
24.000000 -7.748047 50.406152
24.000000 -3.771484 50.406152
23.800000 -2.883789 50.406152
23.700000 -3.246094 50.406152
23.800000 -2.483398 50.406152
23.700000 -0.470703 50.406152
23.700000 -1.458008 50.406152
28.300000 0.480469 50.406152
28.200000 1.118164 50.406152
28.100000 1.880859 50.406152
28.100000 1.268555 50.406152
28.100000 1.781250 50.406152
28.200000 2.787598 50.406152
28.300000 3.418945 50.406152
28.500000 4.050293 50.406152
28.600000 4.431641 50.406152
28.900000 4.937988 50.406152
29.100000 5.069336 50.406152
29.300000 5.825684 50.406152
29.600000 6.207031 50.406152
29.900000 6.463379 50.406152
30.000000 7.344727 50.406152
30.000000 7.226074 50.406152
29.700000 7.857422 50.406152
29.600000 8.238770 50.406152
29.600000 8.745117 50.406152
29.600000 9.751465 50.406152
29.800000 9.757812 50.406152
29.900000 10.389160 50.406152
30.100000 10.770508 50.406152
24.100000 -7.996094 50.585150
24.000000 -7.486328 50.585150
24.000000 -8.226562 50.585150
24.000000 -6.466797 50.585150
24.000000 -3.513672 50.585150
23.900000 -3.253906 50.585150
23.700000 -1.994141 50.585150
23.800000 -1.984375 50.585150
23.700000 -1.849609 50.585150
23.800000 -0.464844 50.585150
28.300000 0.583984 50.585150
28.200000 0.593750 50.585150
28.200000 0.976074 50.585150
28.200000 2.233398 50.585150
28.200000 1.865723 50.585150
28.200000 2.748047 50.585150
28.300000 2.880371 50.585150
28.500000 3.762695 50.585150
28.700000 4.395020 50.585150
28.900000 4.402344 50.585150
29.100000 5.159668 50.585150
29.300000 5.291992 50.585150
29.500000 6.299316 50.585150
29.700000 6.431641 50.585150
29.900000 6.688965 50.585150
29.900000 7.446289 50.585150
29.700000 7.953613 50.585150
29.600000 8.460938 50.585150
29.500000 9.218262 50.585150
29.600000 9.475586 50.585150
29.700000 10.107910 50.585150
29.800000 10.990234 50.585150
30.100000 10.747559 50.585150
24.100000 -9.720703 50.766150
24.000000 -7.335449 50.766150
24.000000 -8.200195 50.766150
24.000000 -3.368164 50.766150
23.800000 -3.732910 50.766150
23.700000 -3.097656 50.766150
23.700000 -3.212402 50.766150
23.700000 -0.702148 50.766150
23.700000 -1.941895 50.766150
22.800000 0.828613 50.766150
28.200000 -0.515625 50.766150
28.300000 0.491699 50.766150
28.200000 0.874023 50.766150
28.100000 1.881348 50.766150
28.100000 2.513672 50.766150
28.200000 2.020996 50.766150
28.300000 3.153320 50.766150
28.400000 3.160645 50.766150
28.600000 4.292969 50.766150
28.700000 4.175293 50.766150
29.000000 4.682617 50.766150
29.200000 5.439941 50.766150
29.400000 6.322266 50.766150
29.400000 5.954590 50.766150
29.600000 6.336914 50.766150
30.000000 7.219238 50.766150
30.000000 7.601562 50.766150
29.700000 8.733887 50.766150
29.500000 9.116211 50.766150
29.400000 8.998535 50.766150
29.400000 9.880859 50.766150
29.800000 10.777832 50.766150
24.100000 -9.755859 50.947151
24.100000 -8.494629 50.947151
24.000000 -8.608398 50.947151
24.000000 -8.472168 50.947151
23.900000 -2.757324 50.947151
23.800000 -1.871094 50.947151
23.700000 -2.859863 50.947151
23.700000 -1.973633 50.947151
23.700000 -2.337402 50.947151
23.800000 -0.576172 50.947151
28.300000 0.851074 50.947151
28.200000 0.733398 50.947151
28.200000 1.490723 50.947151
28.200000 1.373047 50.947151
28.200000 2.880371 50.947151
28.300000 2.887695 50.947151
28.300000 3.145020 50.947151
28.500000 3.527344 50.947151
28.700000 4.159668 50.947151
28.900000 5.041992 50.947151
29.100000 5.174316 50.947151
29.300000 5.306641 50.947151
29.300000 5.813965 50.947151
29.600000 7.585937 50.947151
29.800000 8.468262 50.947151
29.500000 8.600586 50.947151
29.200000 8.982910 50.947151
29.100000 9.615234 50.947151
29.300000 10.122559 50.947151
29.600000 10.879883 50.947151
29.900000 11.137207 50.947151
30.300000 11.519531 50.947151
24.100000 -9.707031 51.128152
24.000000 -9.320312 51.128152
24.000000 -8.558594 51.128152
24.000000 -7.546875 51.128152
23.800000 -3.453125 51.128152
23.700000 -1.691406 51.128152
23.700000 -1.179688 51.128152
23.700000 -0.667969 51.128152
23.700000 -1.406250 51.128152
28.300000 -0.104980 51.128152
28.300000 0.149414 51.128152
28.300000 0.653809 51.128152
28.300000 1.408203 51.128152
28.200000 1.662598 51.128152
28.300000 2.916992 51.128152
28.300000 2.921387 51.128152
28.500000 3.675781 51.128152
28.700000 3.555176 51.128152
28.700000 4.559570 51.128152
28.900000 4.813965 51.128152
29.200000 5.318359 51.128152
29.300000 5.822754 51.128152
29.700000 7.465332 51.128152
29.800000 8.469727 51.128152
29.400000 8.474121 51.128152
29.300000 9.862305 51.128152
24.200000 -10.556641 51.306150
24.100000 -10.044434 51.306150
24.100000 -9.157227 51.306150
24.000000 -7.145020 51.306150
24.000000 -6.632813 51.306150
24.000000 -3.910156 51.306150
23.800000 -2.022949 51.306150
23.700000 -1.510742 51.306150
23.800000 -2.248535 51.306150
23.700000 -1.861328 51.306150
23.700000 -0.849121 51.306150
28.500000 -0.167969 51.306150
28.400000 0.466797 51.306150
28.300000 1.726562 51.306150
28.300000 2.111328 51.306150
28.300000 2.496094 51.306150
28.400000 2.505859 51.306150
28.400000 2.765625 51.306150
28.500000 3.400391 51.306150
28.700000 4.285156 51.306150
28.900000 4.544922 51.306150
29.100000 5.054688 51.306150
29.300000 5.939453 51.306150
29.200000 5.949219 51.306150
29.600000 8.748047 51.306150
29.200000 9.257813 51.306150
24.100000 -8.710938 51.490152
24.000000 -8.574219 51.490152
24.000000 -8.562500 51.490152
24.000000 -6.425781 51.490152
23.900000 -3.582031 51.490152
23.700000 -3.320312 51.490152
23.700000 -3.058594 51.490152
23.700000 -1.546875 51.490152
23.700000 -1.535156 51.490152
22.800000 0.738281 51.490152
28.500000 -0.731445 51.490152
28.500000 0.402832 51.490152
28.400000 0.787109 51.490152
28.300000 1.296387 51.490152
28.300000 1.680664 51.490152
28.400000 1.939941 51.490152
28.500000 2.699219 51.490152
28.600000 3.458496 51.490152
28.700000 3.342773 51.490152
28.800000 3.977051 51.490152
28.900000 4.486328 51.490152
29.200000 4.870605 51.490152
29.300000 5.504883 51.490152
29.200000 6.639160 51.490152
28.900000 8.944824 51.490152
24.100000 -9.777344 51.675149
24.100000 -8.890625 51.675149
24.000000 -7.503906 51.675149
24.000000 -8.367188 51.675149
23.900000 -4.273438 51.675149
23.700000 -1.886719 51.675149
23.700000 -1.375000 51.675149
23.700000 -2.738281 51.675149
23.700000 -0.726562 51.675149
23.800000 -1.089844 51.675149
28.500000 0.318359 51.675149
28.400000 0.323730 51.675149
28.300000 1.329102 51.675149
28.300000 1.334473 51.675149
28.400000 2.214844 51.675149
28.400000 2.845215 51.675149
28.500000 3.100586 51.675149
28.600000 3.230957 51.675149
28.700000 4.611328 51.675149
28.900000 5.116699 51.675149
29.100000 4.997070 51.675149
29.300000 5.752441 51.675149
29.200000 6.507812 51.675149
29.000000 6.263184 51.675149
30.700000 7.148926 51.675149
29.600000 8.659668 51.675149
29.100000 9.290039 51.675149
24.200000 -8.740234 51.856147
24.100000 -9.980469 51.856147
24.100000 -9.095703 51.856147
24.000000 -7.210938 51.856147
24.000000 -7.951172 51.856147
24.000000 -2.623047 51.856147
23.800000 -3.863281 51.856147
23.700000 -3.228516 51.856147
23.700000 -1.593750 51.856147
23.700000 -2.460449 51.856147
23.700000 -0.077148 51.856147
28.400000 0.089355 51.856147
28.400000 0.097656 51.856147
28.300000 0.855957 51.856147
28.300000 1.364258 51.856147
28.300000 1.997559 51.856147
28.400000 2.505859 51.856147
28.600000 2.764160 51.856147
28.700000 3.272461 51.856147
28.700000 3.655762 51.856147
28.900000 4.664062 51.856147
29.100000 4.422363 51.856147
29.300000 5.930664 51.856147
29.300000 6.313965 51.856147
28.900000 6.322266 51.856147
30.500000 7.213867 51.856147
30.300000 8.222168 51.856147
29.500000 9.488770 51.856147
29.200000 10.888672 51.856147
30.900000 12.546875 51.856147
24.100000 -7.831543 52.034150
24.000000 -7.321289 52.034150
24.000000 -8.811035 52.034150
23.800000 -3.593750 52.034150
23.700000 -3.334961 52.034150
23.700000 -2.326172 52.034150
23.700000 -2.567383 52.034150
23.700000 -1.933594 52.034150
28.400000 -0.514648 52.034150
28.500000 0.619141 52.034150
28.400000 1.502930 52.034150
28.300000 1.511719 52.034150
28.300000 1.520508 52.034150
28.400000 2.404297 52.034150
28.500000 3.163086 52.034150
28.600000 3.296875 52.034150
28.700000 3.430664 52.034150
28.900000 4.189453 52.034150
29.100000 4.448242 52.034150
29.300000 5.582031 52.034150
29.400000 5.590820 52.034150
29.700000 8.000977 52.034150
29.800000 8.759766 52.034150
29.400000 9.268555 52.034150
29.100000 9.152344 52.034150
29.100000 9.911133 52.034150
29.400000 10.419922 52.034150
24.100000 -7.851562 52.215147
