69.000000 -13.104492 0.123000
69.100000 -12.478027 0.123000
69.100000 -11.726562 0.123000
69.400000 -11.225098 0.123000
69.400000 -10.723633 0.123000
69.300000 -9.972168 0.123000
69.100000 -9.345703 0.123000
68.900000 -8.844238 0.123000
68.500000 -8.217773 0.123000
68.000000 -7.591309 0.123000
67.500000 -6.964844 0.123000
67.000000 -6.338379 0.123000
66.300000 -5.711914 0.123000
65.800000 -5.085449 0.123000
65.300000 -4.458984 0.123000
59.600000 -3.581055 0.123000
59.500000 -2.829590 0.123000
59.600000 -2.078125 0.123000
59.700000 -1.581543 0.123000
59.400000 -1.084961 0.123000
59.400000 -0.213379 0.123000
59.600000 0.158203 0.123000
59.000000 0.904785 0.123000
58.800000 1.401367 0.123000
57.000000 2.769531 0.123000
57.500000 3.141113 0.123000
57.800000 3.887695 0.123000
58.300000 4.634277 0.123000
58.700000 5.255859 0.123000
58.900000 5.752441 0.123000
58.900000 6.374023 0.123000
58.800000 6.995605 0.123000
58.800000 7.742188 0.123000
59.000000 8.238770 0.123000
59.200000 8.860352 0.123000
59.500000 9.731934 0.123000
59.800000 10.103516 0.123000
60.000000 10.975098 0.123000
60.400000 11.596680 0.123000
61.000000 12.093262 0.123000
62.000000 15.947754 0.123000
62.700000 16.694336 0.123000
71.700000 -24.431641 0.269000
71.400000 -23.929688 0.269000
71.100000 -23.302734 0.269000
70.700000 -22.550781 0.269000
70.700000 -22.048828 0.269000
70.200000 -21.421875 0.269000
69.900000 -20.795410 0.269000
70.300000 -20.168945 0.269000
70.300000 -19.667480 0.269000
70.000000 -18.916016 0.269000
69.900000 -18.414551 0.269000
69.900000 -17.663086 0.269000
69.800000 -17.036621 0.269000
69.800000 -16.535156 0.269000
69.800000 -15.908691 0.269000
69.900000 -15.282227 0.269000
70.100000 -14.405762 0.269000
70.200000 -14.029297 0.269000
70.700000 -13.152832 0.269000
70.500000 -12.776367 0.269000
70.200000 -12.149902 0.269000
70.700000 -11.398438 0.269000
70.900000 -10.771973 0.269000
70.900000 -10.145508 0.269000
71.100000 -9.519043 0.269000
71.100000 -8.892578 0.269000
70.800000 -8.141113 0.269000
70.600000 -7.639648 0.269000
70.200000 -7.013184 0.269000
69.900000 -6.386719 0.269000
69.600000 -5.760254 0.269000
69.300000 -5.133789 0.269000
68.900000 -4.632324 0.269000
68.500000 -4.005859 0.269000
62.300000 -2.877930 0.269000
62.000000 -2.376465 0.269000
62.100000 -1.625000 0.269000
62.100000 -1.003418 0.269000
62.200000 -0.381836 0.269000
62.400000 0.239746 0.269000
62.000000 0.736328 0.269000
61.600000 1.482910 0.269000
61.600000 1.979492 0.269000
61.800000 2.726074 0.269000
62.000000 3.222656 0.269000
62.200000 4.094238 0.269000
62.500000 4.590820 0.269000
62.800000 5.212402 0.269000
63.000000 5.708984 0.269000
62.800000 6.455566 0.269000
62.600000 7.077148 0.269000
60.800000 8.195312 0.269000
61.500000 8.816895 0.269000
61.900000 9.563477 0.269000
62.100000 10.185059 0.269000
62.400000 10.931641 0.269000
62.700000 11.303223 0.269000
63.000000 12.049805 0.269000
63.500000 12.671387 0.269000
63.700000 15.282715 0.269000
64.100000 15.779297 0.269000
72.400000 -24.852539 0.417000
72.100000 -24.101074 0.417000
72.000000 -23.599609 0.417000
71.600000 -23.098145 0.417000
71.300000 -22.346680 0.417000
71.200000 -21.720215 0.417000
70.900000 -21.093750 0.417000
70.700000 -20.468262 0.417000
70.500000 -19.842773 0.417000
70.300000 -19.342285 0.417000
70.400000 -18.466797 0.417000
70.500000 -17.966309 0.417000
70.500000 -17.215820 0.417000
70.600000 -16.715332 0.417000
70.700000 -16.089844 0.417000
70.600000 -15.464355 0.417000
70.500000 -14.838867 0.417000
70.600000 -14.213379 0.417000
70.700000 -13.587891 0.417000
71.100000 -12.962402 0.417000
70.900000 -12.336914 0.417000
71.100000 -11.586426 0.417000
71.700000 -11.085938 0.417000
71.800000 -10.335449 0.417000
71.900000 -9.834961 0.417000
72.100000 -9.209473 0.417000
72.000000 -8.458984 0.417000
71.600000 -7.833496 0.417000
71.100000 -7.333008 0.417000
70.900000 -6.707520 0.417000
70.700000 -5.957031 0.417000
70.400000 -5.331543 0.417000
70.100000 -4.831055 0.417000
69.700000 -4.080566 0.417000
69.200000 -3.580078 0.417000
68.800000 -3.079590 0.417000
62.800000 -1.828613 0.417000
62.700000 -1.328125 0.417000
62.800000 -0.706543 0.417000
62.900000 -0.209961 0.417000
63.100000 0.411621 0.417000
62.800000 1.158203 0.417000
62.700000 1.654785 0.417000
62.700000 2.276367 0.417000
62.700000 2.897949 0.417000
63.000000 3.519531 0.417000
63.200000 4.266113 0.417000
63.500000 5.012695 0.417000
63.900000 5.634277 0.417000
64.000000 6.255859 0.417000
64.400000 6.752441 0.417000
64.400000 7.374023 0.417000
63.200000 7.995605 0.417000
62.500000 8.742188 0.417000
62.900000 9.238770 0.417000
63.400000 9.860352 0.417000
63.600000 10.481934 0.417000
63.900000 11.228516 0.417000
64.200000 11.850098 0.417000
64.700000 12.471680 0.417000
65.200000 13.093262 0.417000
65.700000 13.714844 0.417000
66.000000 15.704590 0.417000
72.600000 -24.618164 0.564000
72.500000 -23.991699 0.564000
72.200000 -23.490234 0.564000
71.700000 -22.863770 0.564000
71.500000 -22.237305 0.564000
71.700000 -21.610840 0.564000
71.700000 -20.859375 0.564000
71.000000 -20.359863 0.564000
70.600000 -19.735352 0.564000
70.400000 -18.985840 0.564000
70.400000 -18.611328 0.564000
70.400000 -17.861816 0.564000
70.400000 -17.112305 0.564000
70.300000 -16.737793 0.564000
70.300000 -15.988281 0.564000
70.500000 -15.488770 0.564000
70.500000 -14.739258 0.564000
70.600000 -13.989746 0.564000
70.900000 -13.490234 0.564000
71.000000 -12.740723 0.564000
71.100000 -12.241211 0.564000
71.400000 -11.616699 0.564000
71.700000 -10.867187 0.564000
72.100000 -10.367676 0.564000
72.200000 -9.618164 0.564000
72.100000 -9.118652 0.564000
71.900000 -8.494141 0.564000
71.500000 -7.869629 0.564000
71.100000 -7.245117 0.564000
70.800000 -6.620605 0.564000
70.500000 -5.996094 0.564000
70.200000 -5.246582 0.564000
69.700000 -4.747070 0.564000
69.000000 -4.122559 0.564000
68.600000 -3.498047 0.564000
68.200000 -2.873535 0.564000
67.400000 -2.249023 0.564000
62.100000 -1.125000 0.564000
62.000000 -0.755371 0.564000
62.200000 -0.135742 0.564000
62.400000 0.608887 0.564000
62.500000 1.228516 0.564000
62.500000 1.723145 0.564000
62.600000 2.467773 0.564000
62.500000 3.212402 0.564000
62.500000 3.832031 0.564000
62.200000 4.326660 0.564000
62.400000 4.946289 0.564000
63.200000 5.690918 0.564000
63.700000 6.185547 0.564000
64.000000 6.805176 0.564000
64.300000 7.424805 0.564000
64.600000 8.169434 0.564000
64.000000 8.664062 0.564000
63.200000 9.408691 0.564000
63.600000 9.903320 0.564000
64.200000 10.647949 0.564000
64.500000 11.142578 0.564000
64.900000 11.762207 0.564000
65.500000 12.631836 0.564000
66.100000 13.126465 0.564000
66.500000 13.746094 0.564000
66.800000 15.604980 0.564000
72.600000 -24.434570 0.712000
72.300000 -23.935059 0.712000
71.900000 -23.185547 0.712000
71.500000 -22.561035 0.712000
71.000000 -22.061523 0.712000
70.900000 -21.562012 0.712000
71.000000 -20.687500 0.712000
70.600000 -20.187988 0.712000
70.200000 -19.563477 0.712000
70.000000 -18.938965 0.712000
70.100000 -18.314453 0.712000
70.200000 -17.814941 0.712000
70.500000 -17.065430 0.712000
70.300000 -16.565918 0.712000
69.800000 -15.941406 0.712000
69.600000 -15.316895 0.712000
69.800000 -14.567383 0.712000
69.700000 -13.942871 0.712000
70.000000 -13.318359 0.712000
70.900000 -12.693848 0.712000
71.500000 -12.069336 0.712000
71.600000 -11.319824 0.712000
71.400000 -10.695313 0.712000
71.700000 -10.070801 0.712000
71.900000 -9.446289 0.712000
71.700000 -8.821777 0.712000
71.400000 -8.322266 0.712000
71.100000 -7.572754 0.712000
70.400000 -7.073242 0.712000
69.900000 -6.448730 0.712000
69.600000 -5.949219 0.712000
69.200000 -5.199707 0.712000
68.600000 -4.700195 0.712000
68.300000 -3.950684 0.712000
68.000000 -3.451172 0.712000
67.500000 -2.826660 0.712000
62.300000 -1.702637 0.712000
61.900000 -1.078125 0.712000
61.900000 -0.455078 0.712000
62.100000 0.292969 0.712000
62.400000 0.791016 0.712000
62.200000 1.414063 0.712000
62.400000 2.037109 0.712000
62.800000 2.535156 0.712000
62.500000 3.408203 0.712000
62.200000 3.906250 0.712000
61.600000 4.529297 0.712000
61.200000 5.027344 0.712000
61.600000 5.650391 0.712000
62.500000 6.398438 0.712000
63.600000 7.146484 0.712000
64.200000 7.644531 0.712000
64.000000 8.392578 0.712000
63.400000 9.015625 0.712000
63.500000 9.513672 0.712000
63.900000 10.261719 0.712000
64.300000 10.884766 0.712000
64.700000 11.382812 0.712000
65.200000 12.130859 0.712000
65.600000 12.753906 0.712000
66.500000 13.376953 0.712000
65.200000 14.498047 0.712000
71.800000 -24.393555 0.858999
71.400000 -23.768066 0.858999
71.300000 -23.017578 0.858999
71.000000 -22.517090 0.858999
71.200000 -21.891602 0.858999
70.500000 -21.266113 0.858999
70.500000 -20.515625 0.858999
70.600000 -20.017090 0.858999
70.000000 -19.393555 0.858999
70.000000 -18.895020 0.858999
69.800000 -18.146484 0.858999
69.700000 -17.397949 0.858999
69.800000 -16.899414 0.858999
70.000000 -16.275879 0.858999
70.200000 -15.652344 0.858999
70.400000 -15.028809 0.858999
70.400000 -14.405273 0.858999
69.800000 -13.781738 0.858999
69.800000 -13.283203 0.858999
70.700000 -12.534668 0.858999
71.100000 -11.786133 0.858999
71.100000 -11.162598 0.858999
71.200000 -10.664062 0.858999
71.400000 -10.040527 0.858999
71.600000 -9.291992 0.858999
71.200000 -8.793457 0.858999
70.800000 -8.294922 0.858999
70.500000 -7.546387 0.858999
70.000000 -6.922852 0.858999
69.600000 -6.299316 0.858999
69.000000 -5.800781 0.858999
68.400000 -5.052246 0.858999
67.900000 -4.553711 0.858999
67.500000 -3.930176 0.858999
67.200000 -3.306641 0.858999
62.300000 -2.184570 0.858999
61.700000 -1.686035 0.858999
61.600000 -1.062500 0.858999
61.800000 -0.440918 0.858999
62.200000 0.180664 0.858999
61.900000 0.927246 0.858999
61.900000 1.548828 0.858999
62.300000 2.170410 0.858999
62.000000 2.791992 0.858999
61.900000 3.288574 0.858999
60.200000 4.656738 0.858999
60.800000 5.278320 0.858999
61.400000 5.774902 0.858999
62.100000 6.521484 0.858999
62.700000 7.143066 0.858999
62.900000 7.764648 0.858999
62.800000 8.261230 0.858999
62.800000 9.007813 0.858999
63.200000 9.629395 0.858999
63.500000 10.375977 0.858999
63.900000 10.997559 0.858999
64.300000 11.494141 0.858999
64.700000 12.240723 0.858999
65.400000 12.737305 0.858999
64.900000 13.483887 0.858999
63.900000 13.855469 0.858999
64.700000 15.348633 0.858999
71.200000 -24.509766 1.012000
70.800000 -23.885742 1.012000
70.500000 -23.261719 1.012000
70.100000 -22.637695 1.012000
69.900000 -22.013672 1.012000
70.000000 -21.264648 1.012000
69.800000 -20.890625 1.012000
69.200000 -20.139648 1.012000
69.000000 -19.513672 1.012000
69.000000 -18.887695 1.012000
68.900000 -18.261719 1.012000
68.900000 -17.635742 1.012000
68.900000 -17.134766 1.012000
68.800000 -16.508789 1.012000
68.800000 -15.757812 1.012000
69.000000 -15.131836 1.012000
69.800000 -14.505859 1.012000
68.500000 -13.253906 1.012000
69.800000 -12.627930 1.012000
70.000000 -12.001953 1.012000
69.800000 -11.500977 1.012000
70.000000 -10.750000 1.012000
70.300000 -9.999023 1.012000
70.200000 -9.498047 1.012000
69.800000 -8.997070 1.012000
69.400000 -8.246094 1.012000
68.700000 -7.745117 1.012000
68.200000 -7.119141 1.012000
67.800000 -6.368164 1.012000
67.100000 -5.867188 1.012000
66.500000 -5.241211 1.012000
66.200000 -4.615234 1.012000
65.900000 -3.989258 1.012000
61.000000 -2.987305 1.012000
60.600000 -2.236328 1.012000
60.500000 -1.860352 1.012000
60.600000 -0.984375 1.012000
61.100000 -0.486328 1.012000
60.000000 0.884766 1.012000
60.600000 1.507812 1.012000
60.400000 2.005859 1.012000
60.000000 2.753906 1.012000
59.100000 3.251953 1.012000
58.700000 3.750000 1.012000
59.000000 4.498047 1.012000
59.300000 5.121094 1.012000
59.900000 5.744141 1.012000
60.300000 6.492188 1.012000
60.700000 7.115234 1.012000
60.700000 7.613281 1.012000
60.600000 8.236328 1.012000
60.800000 8.984375 1.012000
61.100000 9.607422 1.012000
61.500000 10.355469 1.012000
61.800000 10.728516 1.012000
62.200000 11.476562 1.012000
62.600000 11.974609 1.012000
63.200000 12.722656 1.012000
63.200000 15.214844 1.012000
66.000000 17.333984 1.012000
68.300000 -24.434570 1.154000
68.000000 -23.935059 1.154000
67.800000 -23.310547 1.154000
67.500000 -22.686035 1.154000
67.200000 -22.186523 1.154000
67.100000 -21.437012 1.154000
67.000000 -20.687500 1.154000
66.900000 -20.060547 1.154000
66.600000 -19.558594 1.154000
66.600000 -18.931641 1.154000
66.500000 -18.304688 1.154000
66.300000 -17.677734 1.154000
66.200000 -16.925781 1.154000
66.200000 -16.548828 1.154000
66.100000 -15.796875 1.154000
65.900000 -15.294922 1.154000
66.100000 -14.542969 1.154000
64.500000 -13.289062 1.154000
65.900000 -12.537109 1.154000
66.400000 -12.035156 1.154000
66.400000 -11.408203 1.154000
66.300000 -10.906250 1.154000
66.000000 -10.029297 1.154000
65.500000 -9.402344 1.154000
65.100000 -8.900391 1.154000
64.600000 -8.273437 1.154000
64.100000 -7.646484 1.154000
63.300000 -7.144531 1.154000
62.700000 -6.642578 1.154000
62.500000 -5.890625 1.154000
62.200000 -5.263672 1.154000
56.900000 -4.259766 1.154000
56.600000 -3.632812 1.154000
56.600000 -3.130859 1.154000
56.700000 -2.378906 1.154000
56.800000 -1.626953 1.154000
56.700000 -1.250000 1.154000
56.500000 -0.628906 1.154000
56.500000 0.117187 1.154000
56.500000 0.613281 1.154000
56.400000 1.234375 1.154000
56.700000 1.855469 1.154000
56.900000 2.476562 1.154000
57.100000 3.347656 1.154000
57.400000 3.968750 1.154000
57.600000 4.464844 1.154000
58.100000 5.335938 1.154000
57.900000 5.707031 1.154000
57.300000 6.328125 1.154000
56.700000 7.074219 1.154000
55.900000 7.445312 1.154000
56.000000 8.316406 1.154000
56.500000 8.812500 1.154000
56.900000 9.433594 1.154000
57.200000 10.179688 1.154000
57.700000 10.800781 1.154000
58.000000 11.296875 1.154000
58.300000 12.167969 1.154000
58.800000 12.664062 1.154000
59.500000 13.160156 1.154000
63.200000 -24.728516 1.303000
62.700000 -24.104492 1.303000
62.500000 -23.605469 1.303000
62.300000 -22.981445 1.303000
62.000000 -22.357422 1.303000
62.000000 -21.608398 1.303000
61.900000 -20.984375 1.303000
61.700000 -20.483398 1.303000
61.600000 -19.732422 1.303000
61.500000 -18.981445 1.303000
61.400000 -18.605469 1.303000
61.200000 -17.854492 1.303000
61.100000 -17.228516 1.303000
61.100000 -16.602539 1.303000
57.500000 -15.600586 1.303000
57.900000 -14.974609 1.303000
58.300000 -14.348633 1.303000
58.600000 -13.722656 1.303000
59.000000 -12.846680 1.303000
59.200000 -12.345703 1.303000
59.500000 -11.719727 1.303000
60.100000 -11.093750 1.303000
60.200000 -10.592773 1.303000
60.000000 -9.841797 1.303000
59.700000 -9.215820 1.303000
59.500000 -8.714844 1.303000
59.300000 -8.088867 1.303000
59.200000 -7.337891 1.303000
59.000000 -6.711914 1.303000
59.000000 -6.085937 1.303000
58.900000 -5.584961 1.303000
58.800000 -4.833984 1.303000
58.800000 -4.333008 1.303000
54.300000 -3.081055 1.303000
54.000000 -2.580078 1.303000
53.700000 -1.829102 1.303000
53.500000 -1.453125 1.303000
53.300000 -0.707520 1.303000
53.100000 -0.336914 1.303000
53.000000 0.408691 1.303000
52.900000 1.029297 1.303000
52.800000 1.774902 1.303000
52.900000 2.520508 1.303000
53.100000 2.891113 1.303000
53.300000 3.636719 1.303000
53.500000 4.382324 1.303000
53.700000 4.877930 1.303000
53.900000 5.498535 1.303000
54.500000 6.119141 1.303000
54.100000 6.614746 1.303000
53.300000 7.360352 1.303000
53.600000 8.105957 1.303000
53.900000 8.476562 1.303000
54.200000 9.222168 1.303000
54.400000 9.967773 1.303000
54.800000 12.945801 1.303000
56.900000 -24.874023 1.448000
56.800000 -23.996582 1.448000
56.700000 -23.494141 1.448000
56.600000 -22.991699 1.448000
56.500000 -22.239258 1.448000
56.400000 -21.611816 1.448000
56.300000 -20.984375 1.448000
56.200000 -20.484863 1.448000
56.000000 -19.860352 1.448000
55.100000 -19.235840 1.448000
53.600000 -18.736328 1.448000
53.100000 -17.986816 1.448000
53.300000 -17.487305 1.448000
53.500000 -16.737793 1.448000
53.800000 -16.238281 1.448000
54.100000 -15.488770 1.448000
54.500000 -14.739258 1.448000
55.000000 -14.239746 1.448000
55.400000 -13.490234 1.448000
55.800000 -12.865723 1.448000
56.300000 -12.241211 1.448000
56.500000 -11.491699 1.448000
56.800000 -10.992188 1.448000
57.400000 -10.242676 1.448000
58.200000 -9.743164 1.448000
59.600000 -8.868652 1.448000
53.000000 -24.545898 1.596000
53.000000 -24.043457 1.596000
53.100000 -23.291016 1.596000
53.100000 -22.788574 1.596000
53.000000 -22.161133 1.596000
53.000000 -21.533691 1.596000
53.000000 -20.906250 1.596000
53.100000 -20.283203 1.596000
53.000000 -19.660156 1.596000
53.000000 -19.037109 1.596000
52.900000 -18.289062 1.596000
52.700000 -17.791016 1.596000
52.700000 -17.167969 1.596000
52.800000 -16.669922 1.596000
53.000000 -15.921875 1.596000
53.100000 -15.298828 1.596000
53.200000 -14.425781 1.596000
53.300000 -13.802734 1.596000
52.000000 -24.792969 1.743000
51.900000 -24.166016 1.743000
51.700000 -23.289063 1.743000
51.400000 -22.787109 1.743000
51.200000 -22.285156 1.743000
51.000000 -21.533203 1.743000
50.900000 -20.906250 1.743000
50.700000 -20.283203 1.743000
50.700000 -19.785156 1.743000
50.600000 -19.162109 1.743000
50.700000 -18.539063 1.743000
50.800000 -17.791016 1.743000
50.800000 -17.417969 1.743000
51.300000 -16.544922 1.743000
52.200000 -15.921875 1.743000
53.200000 -15.298828 1.743000
51.200000 -24.668945 1.891001
51.000000 -24.169434 1.891001
50.800000 -23.544922 1.891001
50.600000 -23.045410 1.891001
50.500000 -22.545898 1.891001
50.400000 -21.796387 1.891001
50.200000 -21.296875 1.891001
50.100000 -20.674316 1.891001
50.000000 -19.926758 1.891001
50.100000 -19.179199 1.891001
50.100000 -18.806641 1.891001
50.300000 -18.184082 1.891001
51.000000 -17.436523 1.891001
51.800000 -16.563965 1.891001
52.800000 -15.816406 1.891001
51.300000 -24.978516 2.038000
51.100000 -24.354492 2.038000
50.800000 -23.730469 2.038000
50.600000 -23.106445 2.038000
50.400000 -22.607422 2.038000
50.300000 -21.858398 2.038000
50.200000 -21.484375 2.038000
50.100000 -20.735840 2.038000
50.000000 -20.237305 2.038000
50.000000 -19.488770 2.038000
50.100000 -18.990234 2.038000
50.300000 -17.991699 2.038000
50.900000 -17.493164 2.038000
51.700000 -16.869629 2.038000
52.700000 -16.121094 2.038000
51.400000 -24.988281 2.186000
51.100000 -24.615234 2.186000
50.900000 -23.992188 2.186000
50.800000 -23.119141 2.186000
50.600000 -22.621094 2.186000
50.500000 -21.998047 2.186000
50.400000 -21.375000 2.186000
50.300000 -20.874023 2.186000
50.100000 -20.248047 2.186000
50.200000 -19.622070 2.186000
50.300000 -18.871094 2.186000
50.400000 -18.245117 2.186000
50.900000 -17.744141 2.186000
51.700000 -16.868164 2.186000
52.600000 -16.367188 2.186000
51.700000 -24.842773 2.333000
51.500000 -24.340332 2.333000
51.200000 -23.837891 2.333000
51.000000 -23.085449 2.333000
50.800000 -22.708008 2.333000
50.700000 -21.955566 2.333000
50.600000 -21.078125 2.333000
50.500000 -20.703613 2.333000
50.400000 -19.954102 2.333000
50.400000 -19.579590 2.333000
50.600000 -18.705078 2.333000
50.700000 -18.080566 2.333000
51.200000 -17.581055 2.333000
51.900000 -16.956543 2.333000
52.800000 -16.082031 2.333000
52.100000 -24.654297 2.482000
52.200000 -23.899414 2.482000
52.100000 -23.394531 2.482000
52.000000 -22.889648 2.482000
51.900000 -22.259766 2.482000
51.700000 -21.504883 2.482000
51.500000 -20.875000 2.482000
51.300000 -20.375000 2.482000
51.100000 -19.625000 2.482000
51.100000 -19.000000 2.482000
51.100000 -18.375000 2.482000
51.300000 -17.875000 2.482000
51.300000 -17.000000 2.482000
51.300000 -16.500000 2.482000
51.600000 -15.750000 2.482000
52.300000 -15.125000 2.482000
53.400000 -14.500000 2.482000
54.500000 -24.794922 2.627999
54.300000 -24.042969 2.627999
54.100000 -23.541016 2.627999
53.900000 -22.914062 2.627999
51.400000 -21.785156 2.627999
50.500000 -21.158203 2.627999
50.600000 -20.656250 2.627999
50.700000 -19.782227 2.627999
51.000000 -19.283203 2.627999
51.300000 -18.659180 2.627999
51.600000 -18.035156 2.627999
51.900000 -17.411133 2.627999
52.300000 -16.662109 2.627999
52.900000 -16.038086 2.627999
53.400000 -15.539062 2.627999
53.400000 -14.665039 2.627999
53.500000 -14.166016 2.627999
53.800000 -13.416992 2.627999
54.200000 -12.917969 2.627999
54.700000 -12.418945 2.627999
55.400000 -11.669922 2.627999
56.300000 -10.920898 2.627999
59.500000 -24.757812 2.776000
59.300000 -24.131836 2.776000
59.200000 -23.505859 2.776000
59.100000 -22.879883 2.776000
58.900000 -22.253906 2.776000
58.700000 -21.752930 2.776000
58.500000 -21.001953 2.776000
58.300000 -20.375977 2.776000
58.200000 -19.875000 2.776000
58.000000 -19.126465 2.776000
57.200000 -18.502930 2.776000
54.200000 -17.380859 2.776000
54.400000 -16.757324 2.776000
54.800000 -16.133789 2.776000
55.100000 -15.635254 2.776000
55.300000 -15.136719 2.776000
55.500000 -14.388184 2.776000
55.600000 -13.764648 2.776000
55.800000 -13.016113 2.776000
56.200000 -12.392578 2.776000
56.200000 -11.769043 2.776000
56.400000 -11.145508 2.776000
57.100000 -10.396973 2.776000
57.400000 -9.898438 2.776000
57.300000 -9.149902 2.776000
57.100000 -8.651367 2.776000
57.100000 -7.902832 2.776000
57.500000 -7.279297 2.776000
58.200000 -6.780762 2.776000
51.100000 -2.791016 2.776000
51.000000 -2.167480 2.776000
50.800000 -1.418945 2.776000
50.500000 -0.795410 2.776000
50.200000 -0.296875 2.776000
50.100000 0.325195 2.776000
50.000000 1.072266 2.776000
50.100000 1.694336 2.776000
50.300000 2.316406 2.776000
50.600000 2.813477 2.776000
50.800000 3.435547 2.776000
50.900000 4.182617 2.776000
50.800000 4.804687 2.776000
50.100000 6.670898 2.776000
49.800000 7.167969 2.776000
49.800000 7.790039 2.776000
49.700000 8.537109 2.776000
49.600000 8.909180 2.776000
50.200000 12.144531 2.776000
51.000000 12.891602 2.776000
65.700000 -24.747559 2.921999
65.600000 -24.121094 2.921999
65.300000 -23.619629 2.921999
65.100000 -22.868164 2.921999
65.000000 -22.241699 2.921999
65.000000 -21.615234 2.921999
64.900000 -20.988770 2.921999
64.800000 -20.487305 2.921999
64.700000 -19.735840 2.921999
64.100000 -19.234375 2.921999
63.800000 -18.610352 2.921999
64.000000 -17.986328 2.921999
63.900000 -17.362305 2.921999
63.900000 -16.613281 2.921999
63.900000 -16.114258 2.921999
63.900000 -15.365234 2.921999
61.600000 -14.117188 2.921999
63.100000 -13.493164 2.921999
63.900000 -12.994141 2.921999
63.900000 -12.245117 2.921999
63.800000 -11.746094 2.921999
63.500000 -10.997070 2.921999
63.100000 -10.373047 2.921999
62.600000 -9.874023 2.921999
62.200000 -9.250000 2.921999
61.900000 -8.750977 2.921999
61.300000 -8.126953 2.921999
60.600000 -7.377930 2.921999
60.100000 -6.878906 2.921999
59.700000 -6.254883 2.921999
53.800000 -5.131836 2.921999
53.700000 -4.507812 2.921999
53.700000 -4.133789 2.921999
53.900000 -3.384766 2.921999
53.900000 -2.635742 2.921999
53.800000 -2.261719 2.921999
53.500000 -1.512695 2.921999
53.000000 -1.013672 2.921999
53.000000 -0.264648 2.921999
53.200000 0.234375 2.921999
53.300000 0.979980 2.921999
53.600000 1.600586 2.921999
53.800000 2.346191 2.921999
53.900000 2.716797 2.921999
54.100000 3.337402 2.921999
54.300000 4.083008 2.921999
54.300000 4.703613 2.921999
53.700000 5.449219 2.921999
53.300000 6.069824 2.921999
53.000000 6.440430 2.921999
52.500000 7.061035 2.921999
52.800000 7.806641 2.921999
53.300000 8.552246 2.921999
53.600000 9.047852 2.921999
53.900000 9.543457 2.921999
54.100000 10.164062 2.921999
54.300000 10.909668 2.921999
54.700000 11.405273 2.921999
55.200000 12.400879 2.921999
55.800000 12.771484 2.921999
55.500000 14.137695 2.921999
70.100000 -24.983398 3.071000
69.700000 -24.356934 3.071000
69.400000 -23.730469 3.071000
69.100000 -23.229004 3.071000
68.900000 -22.602539 3.071000
68.500000 -21.851074 3.071000
68.200000 -21.349609 3.071000
67.900000 -20.723145 3.071000
67.800000 -19.971680 3.071000
68.000000 -19.470215 3.071000
67.900000 -18.843750 3.071000
67.800000 -18.219238 3.071000
67.700000 -17.469727 3.071000
67.700000 -16.845215 3.071000
67.400000 -16.470703 3.071000
67.900000 -15.596191 3.071000
67.400000 -14.347168 3.071000
68.500000 -13.722656 3.071000
68.200000 -13.098145 3.071000
68.200000 -12.598633 3.071000
68.600000 -11.974121 3.071000
68.700000 -11.224609 3.071000
68.800000 -10.725098 3.071000
68.600000 -9.975586 3.071000
68.300000 -9.351074 3.071000
67.800000 -8.851563 3.071000
67.000000 -8.227051 3.071000
66.400000 -7.477539 3.071000
65.800000 -6.978027 3.071000
64.900000 -6.478516 3.071000
64.400000 -5.854004 3.071000
64.100000 -5.104492 3.071000
58.100000 -4.105469 3.071000
57.800000 -3.605957 3.071000
57.800000 -2.981445 3.071000
58.000000 -2.356934 3.071000
58.200000 -1.732422 3.071000
57.600000 -1.107910 3.071000
57.200000 -0.483398 3.071000
57.700000 0.266113 3.071000
57.500000 0.890625 3.071000
57.200000 1.512695 3.071000
55.600000 2.631836 3.071000
56.000000 3.253906 3.071000
56.200000 3.750977 3.071000
56.700000 4.623047 3.071000
57.200000 5.245117 3.071000
57.400000 5.742188 3.071000
57.600000 6.489258 3.071000
57.600000 6.986328 3.071000
57.700000 7.733398 3.071000
57.900000 8.230469 3.071000
58.100000 8.977539 3.071000
58.400000 9.599609 3.071000
58.600000 10.221680 3.071000
59.000000 10.718750 3.071000
59.400000 11.340820 3.071000
59.900000 11.962891 3.071000
61.200000 15.945312 3.071000
71.900000 -24.775391 3.217000
71.200000 -24.024414 3.217000
70.800000 -23.523438 3.217000
70.400000 -22.897461 3.217000
70.300000 -22.271484 3.217000
69.900000 -21.770508 3.217000
70.000000 -21.019531 3.217000
70.000000 -20.393555 3.217000
69.800000 -19.767578 3.217000
69.800000 -19.266602 3.217000
69.600000 -18.640625 3.217000
69.400000 -17.889160 3.217000
69.200000 -17.262695 3.217000
69.300000 -16.636230 3.217000
69.300000 -16.134766 3.217000
69.300000 -15.383301 3.217000
69.300000 -14.756836 3.217000
69.600000 -14.130371 3.217000
69.500000 -13.503906 3.217000
69.000000 -12.877441 3.217000
69.400000 -12.250977 3.217000
70.000000 -11.749512 3.217000
70.200000 -10.998047 3.217000
70.300000 -10.371582 3.217000
70.300000 -9.745117 3.217000
70.200000 -9.243652 3.217000
69.800000 -8.492188 3.217000
69.500000 -7.990723 3.217000
69.100000 -7.364258 3.217000
68.600000 -6.612793 3.217000
68.200000 -6.111328 3.217000
67.600000 -5.359863 3.217000
67.000000 -4.858398 3.217000
66.500000 -4.231934 3.217000
60.600000 -3.104004 3.217000
60.200000 -2.477539 3.217000
60.200000 -1.976074 3.217000
60.200000 -1.349609 3.217000
60.400000 -0.598145 3.217000
60.200000 -0.096680 3.217000
60.000000 0.404785 3.217000
60.300000 1.156250 3.217000
60.300000 1.651855 3.217000
60.200000 2.522461 3.217000
59.400000 3.018066 3.217000
59.200000 3.513672 3.217000
60.100000 4.384277 3.217000
60.800000 5.004883 3.217000
61.400000 5.500488 3.217000
61.700000 6.121094 3.217000
61.400000 6.741699 3.217000
60.400000 7.487305 3.217000
60.000000 7.982910 3.217000
60.500000 8.603516 3.217000
60.900000 9.349121 3.217000
61.100000 9.969727 3.217000
61.500000 10.590332 3.217000
61.800000 11.210938 3.217000
62.100000 11.956543 3.217000
62.700000 12.577148 3.217000
62.200000 13.568359 3.217000
64.500000 16.175781 3.217000
71.700000 -24.478516 3.365000
71.400000 -23.852539 3.365000
71.200000 -23.226562 3.365000
71.000000 -22.725586 3.365000
70.600000 -22.224609 3.365000
70.100000 -21.598633 3.365000
70.300000 -20.847656 3.365000
70.300000 -20.221680 3.365000
70.000000 -19.720703 3.365000
69.900000 -18.969727 3.365000
69.800000 -18.468750 3.365000
69.600000 -17.716797 3.365000
69.500000 -17.214844 3.365000
69.500000 -16.462891 3.365000
69.500000 -15.835937 3.365000
69.600000 -15.333984 3.365000
69.800000 -14.457031 3.365000
70.000000 -13.955078 3.365000
69.800000 -13.328125 3.365000
69.700000 -12.826172 3.365000
70.100000 -12.074219 3.365000
70.300000 -11.572266 3.365000
70.400000 -10.945313 3.365000
70.500000 -10.193359 3.365000
70.500000 -9.691406 3.365000
70.300000 -8.939453 3.365000
69.900000 -8.312500 3.365000
69.600000 -7.685547 3.365000
69.200000 -7.183594 3.365000
68.800000 -6.556641 3.365000
68.300000 -5.929688 3.365000
67.900000 -5.302734 3.365000
67.300000 -4.550781 3.365000
66.900000 -4.048828 3.365000
61.100000 -3.044922 3.365000
60.900000 -2.417969 3.365000
60.900000 -1.791016 3.365000
60.800000 -1.039062 3.365000
61.000000 -0.412109 3.365000
60.900000 0.089844 3.365000
60.300000 0.591797 3.365000
60.400000 1.343750 3.365000
60.800000 1.964355 3.365000
61.000000 2.584961 3.365000
60.800000 3.205566 3.365000
60.400000 3.951172 3.365000
61.100000 4.571777 3.365000
61.900000 5.192383 3.365000
62.100000 5.687988 3.365000
62.400000 6.433594 3.365000
62.300000 6.929199 3.365000
60.900000 7.674805 3.365000
60.400000 8.170410 3.365000
61.100000 8.916016 3.365000
61.500000 9.536621 3.365000
61.600000 10.157227 3.365000
62.100000 10.902832 3.365000
62.400000 11.398438 3.365000
62.800000 12.019043 3.365000
63.500000 12.639648 3.365000
63.900000 15.122070 3.365000
71.900000 -24.850098 3.513000
71.600000 -24.221680 3.513000
71.100000 -23.468262 3.513000
70.900000 -22.839844 3.513000
70.800000 -22.211426 3.513000
70.600000 -21.708008 3.513000
70.100000 -21.204590 3.513000
69.800000 -20.326172 3.513000
69.600000 -19.822754 3.513000
69.500000 -19.194336 3.513000
69.500000 -18.690918 3.513000
69.200000 -18.062500 3.513000
69.100000 -17.312500 3.513000
69.200000 -16.812500 3.513000
69.200000 -16.187500 3.513000
69.200000 -15.437500 3.513000
69.500000 -14.687500 3.513000
70.100000 -14.187500 3.513000
70.100000 -13.687500 3.513000
70.100000 -12.937500 3.513000
70.600000 -12.312500 3.513000
70.400000 -11.687500 3.513000
70.400000 -11.062500 3.513000
70.600000 -10.437500 3.513000
70.600000 -9.812500 3.513000
70.500000 -9.187500 3.513000
70.100000 -8.687500 3.513000
69.800000 -7.937500 3.513000
69.300000 -7.312500 3.513000
68.700000 -6.812500 3.513000
68.300000 -6.062500 3.513000
67.700000 -5.437500 3.513000
67.000000 -5.062500 3.513000
66.600000 -4.312500 3.513000
60.900000 -3.187500 3.513000
60.400000 -2.562500 3.513000
60.500000 -2.062500 3.513000
60.700000 -1.312500 3.513000
61.000000 -0.812500 3.513000
60.400000 -0.187500 3.513000
59.800000 0.562500 3.513000
60.400000 1.062500 3.513000
60.400000 1.812500 3.513000
60.600000 2.309082 3.513000
59.000000 3.552246 3.513000
59.500000 4.048828 3.513000
59.800000 4.795410 3.513000
60.600000 5.541992 3.513000
60.800000 6.038574 3.513000
60.700000 6.660156 3.513000
60.400000 7.406738 3.513000
60.400000 7.903320 3.513000
60.700000 8.649902 3.513000
60.900000 9.271484 3.513000
61.200000 9.893066 3.513000
61.500000 10.514648 3.513000
61.800000 11.011230 3.513000
62.100000 11.757812 3.513000
62.900000 12.254395 3.513000
61.000000 13.497559 3.513000
61.800000 14.865723 3.513000
71.500000 -24.417480 3.652000
71.100000 -23.790039 3.652000
70.800000 -23.162598 3.652000
70.600000 -22.535156 3.652000
70.400000 -21.907715 3.652000
70.700000 -21.155273 3.652000
70.500000 -20.652832 3.652000
69.800000 -20.025391 3.652000
69.800000 -19.397949 3.652000
69.700000 -18.770508 3.652000
69.500000 -18.143066 3.652000
69.500000 -17.390625 3.652000
69.600000 -16.890137 3.652000
69.400000 -16.389648 3.652000
69.200000 -15.639160 3.652000
69.200000 -15.138672 3.652000
69.200000 -14.388184 3.652000
69.200000 -13.762695 3.652000
69.900000 -13.137207 3.652000
70.700000 -12.511719 3.652000
70.800000 -11.886230 3.652000
70.600000 -11.260742 3.652000
70.600000 -10.635254 3.652000
70.800000 -9.884766 3.652000
70.700000 -9.509277 3.652000
70.500000 -8.758789 3.652000
70.100000 -8.133301 3.652000
69.400000 -7.507813 3.652000
68.800000 -6.882324 3.652000
68.300000 -6.381836 3.652000
67.600000 -5.631348 3.652000
66.900000 -5.130859 3.652000
66.600000 -4.380371 3.652000
66.300000 -3.879883 3.652000
60.700000 -2.878906 3.652000
60.400000 -2.253418 3.652000
60.400000 -1.502930 3.652000
60.900000 -0.877441 3.652000
61.000000 0.874023 3.652000
60.400000 1.624512 3.652000
60.000000 2.250000 3.652000
58.400000 3.365234 3.652000
58.700000 3.985352 3.652000
59.000000 4.605469 3.652000
59.500000 5.100586 3.652000
59.900000 5.970703 3.652000
60.200000 6.465820 3.652000
60.300000 7.085938 3.652000
60.300000 7.706055 3.652000
60.400000 8.326172 3.652000
60.600000 9.071289 3.652000
60.900000 9.566406 3.652000
61.200000 10.311523 3.652000
61.500000 10.931641 3.652000
61.800000 11.426758 3.652000
62.300000 12.171875 3.652000
62.300000 12.791992 3.652000
62.200000 13.537109 3.652000
62.500000 14.032227 3.652000
72.000000 -24.732422 3.799000
71.400000 -24.104980 3.799000
71.100000 -23.352539 3.799000
70.800000 -22.850098 3.799000
70.300000 -22.347656 3.799000
69.900000 -21.720215 3.799000
69.800000 -20.967773 3.799000
69.900000 -20.340332 3.799000
69.700000 -19.712891 3.799000
69.600000 -19.085449 3.799000
69.600000 -18.458008 3.799000
69.600000 -17.830566 3.799000
69.700000 -17.203125 3.799000
69.600000 -16.580078 3.799000
69.700000 -15.957031 3.799000
69.000000 -15.458984 3.799000
69.200000 -14.710938 3.799000
70.000000 -14.087891 3.799000
69.200000 -13.589844 3.799000
69.400000 -12.966797 3.799000
70.400000 -12.218750 3.799000
70.500000 -11.595703 3.799000
70.400000 -10.972656 3.799000
70.500000 -10.349609 3.799000
70.600000 -9.726562 3.799000
70.400000 -9.103516 3.799000
70.200000 -8.480469 3.799000
69.700000 -7.857422 3.799000
69.100000 -7.234375 3.799000
68.500000 -6.736328 3.799000
67.700000 -6.113281 3.799000
66.900000 -5.365234 3.799000
66.400000 -4.992188 3.799000
66.300000 -4.119141 3.799000
60.700000 -3.123047 3.799000
60.200000 -2.500000 3.799000
60.200000 -2.001953 3.799000
60.400000 -1.378906 3.799000
60.800000 -0.755859 3.799000
60.200000 -0.007813 3.799000
60.000000 0.615234 3.799000
60.700000 1.113281 3.799000
60.400000 1.861328 3.799000
60.100000 2.359375 3.799000
59.300000 2.980469 3.799000
58.900000 3.601562 3.799000
59.100000 4.347656 3.799000
59.400000 4.718750 3.799000
60.000000 5.589844 3.799000
60.400000 6.085937 3.799000
60.800000 6.832031 3.799000
60.600000 7.328125 3.799000
60.400000 8.074219 3.799000
60.600000 8.570312 3.799000
60.800000 9.191406 3.799000
61.100000 9.937500 3.799000
61.300000 10.433594 3.799000
61.700000 11.179688 3.799000
62.100000 11.800781 3.799000
62.600000 12.296875 3.799000
62.800000 12.917969 3.799000
61.900000 14.781250 3.799000
71.600000 -24.554687 3.947000
71.100000 -23.927734 3.947000
70.800000 -23.300781 3.947000
70.500000 -22.673828 3.947000
70.000000 -22.046875 3.947000
70.100000 -21.419922 3.947000
70.100000 -20.792969 3.947000
69.800000 -20.041016 3.947000
69.800000 -19.539062 3.947000
69.600000 -19.037109 3.947000
69.600000 -18.285156 3.947000
69.600000 -17.658203 3.947000
69.500000 -17.031250 3.947000
69.600000 -16.407227 3.947000
69.600000 -15.783203 3.947000
68.600000 -15.159180 3.947000
70.100000 -13.911133 3.947000
68.900000 -13.412109 3.947000
68.600000 -12.663086 3.947000
69.800000 -12.039062 3.947000
70.300000 -11.540039 3.947000
70.400000 -10.791016 3.947000
70.500000 -10.166992 3.947000
70.500000 -9.542969 3.947000
70.300000 -8.918945 3.947000
69.900000 -8.294922 3.947000
69.100000 -7.670898 3.947000
68.400000 -7.171875 3.947000
68.000000 -6.547852 3.947000
67.100000 -5.923828 3.947000
66.300000 -5.299805 3.947000
66.200000 -4.675781 3.947000
66.000000 -4.051758 3.947000
60.300000 -3.178711 3.947000
59.900000 -2.429688 3.947000
59.800000 -1.930664 3.947000
60.000000 -1.181641 3.947000
60.400000 -0.432617 3.947000
59.900000 0.066406 3.947000
59.900000 0.690430 3.947000
60.500000 1.314453 3.947000
60.200000 1.938477 3.947000
59.700000 2.562500 3.947000
59.000000 3.186035 3.947000
59.000000 3.809570 3.947000
59.300000 4.558105 3.947000
59.600000 5.056641 3.947000
60.400000 5.680176 3.947000
61.000000 6.303711 3.947000
61.200000 6.927246 3.947000
60.800000 7.550781 3.947000
60.400000 8.174316 3.947000
60.500000 8.797852 3.947000
60.900000 9.546387 3.947000
61.200000 10.169922 3.947000
61.400000 10.793457 3.947000
61.800000 11.541992 3.947000
62.300000 12.165527 3.947000
62.800000 12.789062 3.947000
62.900000 13.287598 3.947000
62.700000 13.786133 3.947000
61.900000 14.409668 3.947000
71.300000 -24.496094 4.093999
71.000000 -23.870117 4.093999
70.700000 -23.119141 4.093999
70.500000 -22.618164 4.093999
70.100000 -21.992187 4.093999
70.200000 -21.366211 4.093999
70.200000 -20.740234 4.093999
69.700000 -20.239258 4.093999
69.600000 -19.613281 4.093999
69.600000 -18.987305 4.093999
69.500000 -18.236328 4.093999
69.500000 -17.610352 4.093999
69.600000 -16.984375 4.093999
69.700000 -16.359375 4.093999
69.400000 -15.859375 4.093999
69.500000 -15.109375 4.093999
69.700000 -14.484375 4.093999
69.600000 -13.984375 4.093999
68.900000 -13.359375 4.093999
68.500000 -12.734375 4.093999
69.700000 -12.109375 4.093999
70.100000 -11.359375 4.093999
70.200000 -10.734375 4.093999
70.300000 -10.109375 4.093999
70.200000 -9.609375 4.093999
69.900000 -8.859375 4.093999
69.500000 -8.359375 4.093999
68.800000 -7.609375 4.093999
68.300000 -7.109375 4.093999
67.900000 -6.484375 4.093999
67.000000 -5.984375 4.093999
66.200000 -5.234375 4.093999
66.000000 -4.734375 4.093999
65.900000 -3.984375 4.093999
60.100000 -2.859375 4.093999
59.800000 -2.359375 4.093999
59.800000 -1.734375 4.093999
59.900000 -1.109375 4.093999
60.300000 -0.359375 4.093999
59.900000 0.265625 4.093999
59.700000 0.765625 4.093999
60.200000 1.515625 4.093999
60.100000 2.015625 4.093999
59.900000 2.640625 4.093999
59.400000 3.139160 4.093999
58.700000 3.887695 4.093999
59.300000 4.511230 4.093999
60.200000 5.259766 4.093999
60.600000 5.758301 4.093999
61.200000 6.506836 4.093999
61.500000 7.005371 4.093999
61.000000 7.753906 4.093999
60.200000 8.252441 4.093999
60.300000 8.875977 4.093999
60.900000 9.624512 4.093999
61.200000 10.248047 4.093999
61.500000 10.871582 4.093999
61.800000 11.495117 4.093999
62.300000 12.118652 4.093999
62.800000 12.742188 4.093999
63.100000 13.365723 4.093999
62.600000 13.989258 4.093999
61.800000 14.612793 4.093999
65.900000 16.608398 4.093999
66.500000 17.231934 4.093999
71.100000 -24.353516 4.240000
70.700000 -23.854004 4.240000
70.400000 -23.354492 4.240000
70.300000 -22.604980 4.240000
70.300000 -21.980469 4.240000
70.000000 -21.355957 4.240000
69.500000 -20.606445 4.240000
69.300000 -20.231934 4.240000
69.200000 -19.482422 4.240000
69.400000 -18.982910 4.240000
69.500000 -18.233398 4.240000
69.500000 -17.608887 4.240000
69.400000 -17.109375 4.240000
69.200000 -16.482422 4.240000
68.900000 -15.855469 4.240000
69.500000 -15.103516 4.240000
69.700000 -14.601562 4.240000
69.000000 -13.974609 4.240000
68.300000 -13.347656 4.240000
68.500000 -12.470703 4.240000
69.700000 -11.968750 4.240000
70.000000 -11.341797 4.240000
70.100000 -10.714844 4.240000
70.200000 -10.087891 4.240000
70.100000 -9.585938 4.240000
69.700000 -8.833984 4.240000
69.100000 -8.207031 4.240000
68.500000 -7.580078 4.240000
68.100000 -7.078125 4.240000
67.300000 -6.326172 4.240000
66.400000 -5.824219 4.240000
66.000000 -5.197266 4.240000
65.800000 -4.570313 4.240000
65.500000 -4.068359 4.240000
60.000000 -2.939453 4.240000
59.700000 -2.437500 4.240000
59.700000 -1.685547 4.240000
59.800000 -1.183594 4.240000
60.200000 -0.431641 4.240000
59.900000 0.195312 4.240000
59.600000 0.822266 4.240000
60.100000 1.449219 4.240000
59.900000 2.076172 4.240000
59.800000 2.703125 4.240000
59.300000 3.200195 4.240000
58.800000 3.947266 4.240000
59.300000 4.569336 4.240000
60.000000 5.191406 4.240000
60.500000 5.938477 4.240000
61.200000 6.435547 4.240000
61.300000 7.182617 4.240000
60.600000 7.804688 4.240000
60.100000 8.301758 4.240000
60.300000 8.923828 4.240000
60.800000 9.670898 4.240000
61.200000 10.167969 4.240000
61.400000 10.790039 4.240000
61.800000 11.662109 4.240000
62.300000 12.159180 4.240000
62.800000 12.906250 4.240000
62.900000 13.278320 4.240000
62.100000 14.522461 4.240000
71.000000 -24.918945 4.388000
70.700000 -24.292969 4.388000
70.500000 -23.666992 4.388000
70.200000 -23.041016 4.388000
69.500000 -22.540039 4.388000
69.600000 -21.789063 4.388000
69.800000 -21.288086 4.388000
69.300000 -20.537109 4.388000
69.300000 -20.036133 4.388000
69.200000 -19.285156 4.388000
69.300000 -18.659180 4.388000
69.200000 -18.158203 4.388000
69.200000 -17.407227 4.388000
69.300000 -16.906250 4.388000
69.200000 -16.154785 4.388000
69.100000 -14.400391 4.388000
68.700000 -13.648926 4.388000
67.900000 -13.147461 4.388000
69.800000 -11.769531 4.388000
69.900000 -11.143066 4.388000
70.000000 -10.641602 4.388000
70.100000 -9.890137 4.388000
69.900000 -9.263672 4.388000
69.500000 -8.637207 4.388000
69.000000 -8.010742 4.388000
68.400000 -7.509277 4.388000
67.800000 -6.882813 4.388000
66.900000 -6.381348 4.388000
66.000000 -5.504883 4.388000
65.800000 -5.003418 4.388000
65.600000 -4.376953 4.388000
65.200000 -3.875488 4.388000
59.800000 -2.747559 4.388000
59.600000 -2.121094 4.388000
59.900000 -1.494629 4.388000
59.900000 -0.743164 4.388000
60.000000 -0.116699 4.388000
60.000000 0.384766 4.388000
59.400000 1.011230 4.388000
59.300000 1.637695 4.388000
59.700000 2.139160 4.388000
60.200000 2.890625 4.388000
58.700000 4.126953 4.388000
59.000000 4.620117 4.388000
59.800000 5.238281 4.388000
60.400000 5.856445 4.388000
61.100000 6.724609 4.388000
60.900000 7.217773 4.388000
60.100000 7.835937 4.388000
60.100000 8.454102 4.388000
60.400000 9.072266 4.388000
60.700000 9.815430 4.388000
61.100000 10.308594 4.388000
61.400000 11.051758 4.388000
61.800000 11.669922 4.388000
62.200000 12.413086 4.388000
62.800000 13.031250 4.388000
62.900000 13.649414 4.388000
70.900000 -24.681641 4.535000
70.600000 -24.304688 4.535000
70.400000 -23.552734 4.535000
70.100000 -22.925781 4.535000
69.800000 -22.298828 4.535000
69.700000 -21.796875 4.535000
69.500000 -21.044922 4.535000
69.100000 -20.542969 4.535000
69.100000 -19.791016 4.535000
69.200000 -19.164062 4.535000
69.100000 -18.662109 4.535000
69.100000 -18.035156 4.535000
69.100000 -17.283203 4.535000
69.200000 -16.781250 4.535000
69.100000 -16.030762 4.535000
68.300000 -15.530273 4.535000
68.600000 -14.904785 4.535000
69.300000 -14.154297 4.535000
68.300000 -13.653809 4.535000
68.100000 -12.903320 4.535000
69.400000 -12.152832 4.535000
69.900000 -11.652344 4.535000
69.900000 -11.026855 4.535000
70.100000 -10.526367 4.535000
70.100000 -9.650879 4.535000
69.800000 -9.150391 4.535000
69.400000 -8.524902 4.535000
68.600000 -8.024414 4.535000
68.100000 -7.398926 4.535000
67.700000 -6.773438 4.535000
66.600000 -6.147949 4.535000
65.900000 -5.522461 4.535000
65.800000 -4.896973 4.535000
65.600000 -4.146484 4.535000
59.700000 -2.770020 4.535000
59.500000 -2.019531 4.535000
59.700000 -1.269043 4.535000
60.100000 -0.768555 4.535000
59.700000 -0.143066 4.535000
59.700000 0.607422 4.535000
60.100000 0.982910 4.535000
59.800000 1.733398 4.535000
59.400000 2.233887 4.535000
58.600000 2.859375 4.535000
58.700000 3.603516 4.535000
59.200000 4.222656 4.535000
59.400000 4.841797 4.535000
59.900000 5.585938 4.535000
60.400000 6.080078 4.535000
61.100000 6.699219 4.535000
60.900000 7.443359 4.535000
59.900000 7.812500 4.535000
60.000000 8.681641 4.535000
60.400000 9.175781 4.535000
60.700000 9.669922 4.535000
61.000000 10.414062 4.535000
61.200000 11.158203 4.535000
61.700000 11.902344 4.535000
62.200000 12.396484 4.535000
62.800000 13.140625 4.535000
62.700000 13.759766 4.535000
61.700000 14.253906 4.535000
65.900000 16.855469 4.535000
70.900000 -24.647461 4.682000
70.600000 -24.019531 4.682000
70.300000 -23.266602 4.682000
70.000000 -22.638672 4.682000
70.000000 -22.010742 4.682000
69.800000 -21.382812 4.682000
69.300000 -20.754883 4.682000
69.300000 -20.126953 4.682000
69.200000 -19.499023 4.682000
69.100000 -18.871094 4.682000
69.000000 -18.368164 4.682000
69.000000 -17.615234 4.682000
69.200000 -17.112305 4.682000
69.200000 -16.359375 4.682000
68.600000 -15.859863 4.682000
69.700000 -14.485840 4.682000
68.600000 -13.861328 4.682000
67.900000 -13.236816 4.682000
68.300000 -12.612305 4.682000
69.500000 -11.987793 4.682000
69.700000 -11.488281 4.682000
69.900000 -10.738770 4.682000
69.900000 -10.114258 4.682000
69.800000 -9.489746 4.682000
69.600000 -8.865234 4.682000
69.000000 -8.240723 4.682000
68.400000 -7.741211 4.682000
67.900000 -6.991699 4.682000
67.200000 -6.492188 4.682000
66.200000 -5.867676 4.682000
65.600000 -5.368164 4.682000
65.600000 -4.618652 4.682000
65.400000 -4.119141 4.682000
59.900000 -2.870117 4.682000
59.600000 -2.495605 4.682000
59.700000 -1.746094 4.682000
59.800000 -1.121582 4.682000
60.000000 -0.497070 4.682000
59.800000 0.127441 4.682000
59.200000 0.626953 4.682000
59.200000 1.376465 4.682000
59.600000 2.000977 4.682000
60.000000 2.625488 4.682000
59.800000 3.125000 4.682000
59.000000 3.869629 4.682000
59.300000 4.364258 4.682000
59.900000 5.108887 4.682000
60.400000 5.728516 4.682000
61.100000 6.473145 4.682000
61.000000 6.967773 4.682000
60.200000 7.462402 4.682000
59.800000 8.082031 4.682000
59.900000 8.951660 4.682000
60.400000 9.571289 4.682000
60.700000 10.065918 4.682000
61.100000 10.810547 4.682000
61.400000 11.430176 4.682000
61.800000 11.924805 4.682000
62.300000 12.544434 4.682000
62.600000 13.164063 4.682000
62.200000 13.908691 4.682000
61.500000 14.528320 4.682000
64.800000 16.387207 4.682000
70.900000 -24.806641 4.830999
70.600000 -24.303711 4.830999
70.300000 -23.550781 4.830999
70.100000 -22.922852 4.830999
69.700000 -22.419922 4.830999
69.900000 -21.541992 4.830999
69.700000 -21.039062 4.830999
69.100000 -20.411133 4.830999
69.100000 -19.783203 4.830999
69.200000 -19.155273 4.830999
69.200000 -18.527344 4.830999
69.200000 -17.899414 4.830999
69.200000 -17.396484 4.830999
69.000000 -16.643555 4.830999
69.000000 -16.015625 4.830999
69.000000 -15.390137 4.830999
69.000000 -14.889648 4.830999
69.000000 -14.139160 4.830999
68.600000 -13.638672 4.830999
67.700000 -12.888184 4.830999
69.600000 -11.637207 4.830999
69.700000 -11.136719 4.830999
70.000000 -10.511230 4.830999
70.000000 -9.760742 4.830999
69.800000 -9.260254 4.830999
69.300000 -8.509766 4.830999
68.600000 -7.884277 4.830999
68.000000 -7.258789 4.830999
67.600000 -6.758301 4.830999
66.600000 -6.257812 4.830999
65.700000 -5.507324 4.830999
65.600000 -5.006836 4.830999
65.600000 -4.381348 4.830999
60.200000 -3.255371 4.830999
59.700000 -2.629883 4.830999
59.500000 -2.129395 4.830999
59.600000 -1.378906 4.830999
60.000000 -0.753418 4.830999
59.700000 -0.127930 4.830999
59.500000 0.622559 4.830999
59.900000 1.123047 4.830999
59.700000 1.748535 4.830999
59.900000 2.374023 4.830999
59.500000 2.874512 4.830999
58.700000 3.625000 4.830999
59.200000 4.244629 4.830999
60.000000 4.989258 4.830999
60.400000 5.483887 4.830999
60.900000 6.103516 4.830999
61.300000 6.723145 4.830999
60.800000 7.467773 4.830999
59.800000 7.962402 4.830999
59.800000 8.707031 4.830999
60.300000 9.326660 4.830999
60.500000 9.946289 4.830999
60.900000 10.565918 4.830999
61.200000 11.060547 4.830999
61.700000 11.805176 4.830999
62.200000 12.299805 4.830999
62.500000 13.169434 4.830999
62.300000 13.539062 4.830999
61.300000 14.158691 4.830999
71.000000 -24.406250 4.977000
70.600000 -23.781250 4.977000
70.400000 -23.156250 4.977000
70.200000 -22.406250 4.977000
70.200000 -21.781250 4.977000
69.800000 -21.281250 4.977000
69.300000 -20.656250 4.977000
69.300000 -20.031250 4.977000
69.200000 -19.531250 4.977000
69.200000 -18.906250 4.977000
69.400000 -18.281250 4.977000
69.400000 -17.531250 4.977000
69.200000 -16.906250 4.977000
69.000000 -16.281250 4.977000
69.100000 -15.781250 4.977000
69.200000 -15.155762 4.977000
69.100000 -14.405273 4.977000
69.200000 -13.779785 4.977000
68.800000 -13.154297 4.977000
68.400000 -12.528809 4.977000
69.100000 -11.903320 4.977000
69.900000 -11.277832 4.977000
69.900000 -10.777344 4.977000
69.800000 -10.026855 4.977000
69.700000 -9.526367 4.977000
69.300000 -8.775879 4.977000
68.800000 -8.150391 4.977000
68.300000 -7.649902 4.977000
67.800000 -6.899414 4.977000
67.200000 -6.398926 4.977000
66.300000 -5.898438 4.977000
65.700000 -5.147949 4.977000
65.500000 -4.397461 4.977000
60.900000 -3.521484 4.977000
59.900000 -2.895996 4.977000
59.700000 -2.145508 4.977000
59.800000 -1.520020 4.977000
60.100000 -1.019531 4.977000
59.800000 -0.269043 4.977000
59.700000 0.356445 4.977000
60.000000 0.731934 4.977000
59.700000 1.482422 4.977000
59.700000 2.107910 4.977000
59.600000 2.733398 4.977000
59.200000 3.233887 4.977000
59.700000 3.859375 4.977000
