59.600000 11.859375 19.812999
59.600000 12.465332 19.812999
59.800000 12.946289 19.812999
60.000000 13.677246 19.812999
60.500000 14.283203 19.812999
60.600000 15.014160 19.812999
60.600000 15.495117 19.812999
61.600000 16.351074 19.812999
61.900000 16.832031 19.812999
61.800000 17.437988 19.812999
61.900000 18.043945 19.812999
61.700000 18.649902 19.812999
64.000000 19.861816 19.812999
64.600000 20.467773 19.812999
65.000000 21.198730 19.812999
65.000000 21.679688 19.812999
64.400000 22.285645 19.812999
64.300000 22.891602 19.812999
65.100000 23.497559 19.812999
65.900000 24.353516 19.812999
66.800000 24.834473 19.812999
67.800000 25.565430 19.812999
68.800000 26.171387 19.812999
69.600000 26.652344 19.812999
69.200000 27.258301 19.812999
69.000000 27.989258 19.812999
66.200000 -0.547852 19.967000
66.500000 0.058594 19.967000
66.900000 0.665039 19.967000
67.100000 1.271484 19.967000
67.300000 1.877930 19.967000
67.100000 2.484375 19.967000
66.800000 2.963379 19.967000
66.500000 3.692383 19.967000
66.100000 4.296387 19.967000
65.800000 4.900391 19.967000
65.600000 5.504395 19.967000
65.100000 6.108398 19.967000
64.600000 6.712402 19.967000
64.400000 7.316406 19.967000
64.300000 7.795410 19.967000
64.400000 8.399414 19.967000
64.400000 9.003418 19.967000
64.200000 9.482422 19.967000
63.600000 10.211426 19.967000
62.400000 10.690430 19.967000
60.900000 11.294434 19.967000
59.700000 11.773438 19.967000
59.400000 12.502441 19.967000
59.500000 13.106445 19.967000
59.900000 13.835449 19.967000
60.300000 14.189453 19.967000
60.700000 14.918457 19.967000
60.900000 15.647461 19.967000
61.000000 16.126465 19.967000
61.300000 16.730469 19.967000
61.100000 17.334473 19.967000
61.300000 18.188477 19.967000
62.400000 18.667480 19.967000
63.300000 19.271484 19.967000
64.200000 19.875488 19.967000
64.800000 20.479492 19.967000
65.200000 21.208496 19.967000
65.300000 21.812500 19.967000
64.900000 22.417969 19.967000
64.600000 23.023438 19.967000
65.400000 23.628906 19.967000
66.200000 24.234375 19.967000
66.900000 24.839844 19.967000
67.800000 25.445312 19.967000
69.100000 26.175781 19.967000
69.900000 26.781250 19.967000
69.400000 27.386719 19.967000
69.200000 27.992187 19.967000
66.300000 -0.308594 20.114000
66.500000 0.171875 20.114000
67.100000 0.902344 20.114000
67.300000 1.382812 20.114000
67.100000 1.988281 20.114000
67.000000 2.593750 20.114000
66.600000 3.074219 20.114000
66.300000 3.679688 20.114000
65.900000 4.410156 20.114000
65.700000 4.890625 20.114000
65.500000 5.496094 20.114000
65.100000 6.226562 20.114000
64.700000 6.707031 20.114000
64.400000 7.437500 20.114000
64.300000 7.917969 20.114000
64.200000 8.523438 20.114000
64.200000 9.253906 20.114000
64.000000 9.859375 20.114000
63.500000 10.339844 20.114000
62.700000 10.820312 20.114000
59.700000 11.906250 20.114000
59.300000 12.636230 20.114000
59.300000 13.241211 20.114000
59.600000 13.846191 20.114000
59.900000 14.451172 20.114000
60.300000 15.056152 20.114000
60.800000 15.661133 20.114000
61.000000 16.266113 20.114000
61.500000 16.996094 20.114000
61.900000 17.726074 20.114000
62.500000 18.206055 20.114000
62.900000 18.686035 20.114000
63.200000 19.416016 20.114000
64.300000 20.020996 20.114000
64.800000 20.625977 20.114000
65.300000 21.230957 20.114000
65.600000 21.960938 20.114000
65.200000 22.440918 20.114000
64.900000 23.045898 20.114000
65.600000 23.775879 20.114000
66.500000 24.505859 20.114000
67.300000 25.110840 20.114000
68.500000 25.715820 20.114000
69.400000 26.195801 20.114000
69.800000 26.925781 20.114000
69.700000 27.530762 20.114000
66.100000 -0.685547 20.268000
66.600000 -0.204102 20.268000
66.600000 0.402344 20.268000
67.000000 1.008789 20.268000
67.200000 1.740234 20.268000
67.100000 2.221680 20.268000
66.800000 2.828125 20.268000
66.400000 3.433105 20.268000
66.100000 4.038086 20.268000
65.700000 4.518066 20.268000
65.600000 5.248047 20.268000
65.300000 5.853027 20.268000
64.900000 6.458008 20.268000
64.400000 7.062988 20.268000
64.100000 7.667969 20.268000
64.100000 8.272949 20.268000
64.200000 8.752930 20.268000
64.200000 9.482910 20.268000
63.900000 10.087891 20.268000
63.500000 10.567871 20.268000
62.900000 11.297852 20.268000
61.700000 11.652832 20.268000
60.200000 12.382812 20.268000
59.200000 12.987793 20.268000
59.100000 13.342773 20.268000
59.300000 13.947754 20.268000
59.700000 14.552734 20.268000
60.200000 15.282715 20.268000
60.600000 16.012695 20.268000
60.900000 16.617676 20.268000
61.400000 17.222656 20.268000
61.800000 17.702637 20.268000
62.000000 18.432617 20.268000
62.900000 19.037598 20.268000
63.700000 19.642578 20.268000
64.500000 20.372559 20.268000
65.000000 20.977539 20.268000
65.400000 21.582520 20.268000
65.800000 22.187500 20.268000
65.600000 22.791992 20.268000
65.200000 23.271484 20.268000
65.800000 24.125977 20.268000
66.800000 24.480469 20.268000
67.900000 25.209961 20.268000
69.300000 25.939453 20.268000
70.000000 26.543945 20.268000
69.800000 27.148438 20.268000
69.900000 27.627930 20.268000
66.000000 -0.492188 20.418999
66.500000 0.113281 20.418999
66.800000 0.718750 20.418999
67.000000 1.324219 20.418999
67.100000 2.054688 20.418999
67.000000 2.660156 20.418999
66.600000 3.265625 20.418999
66.300000 3.746094 20.418999
66.000000 4.351562 20.418999
65.800000 4.957031 20.418999
65.500000 5.437500 20.418999
65.100000 6.042969 20.418999
64.600000 6.648438 20.418999
64.400000 7.253906 20.418999
64.300000 7.984375 20.418999
64.200000 8.464844 20.418999
64.100000 9.070312 20.418999
64.100000 9.675781 20.418999
63.900000 10.281250 20.418999
63.300000 10.886719 20.418999
62.300000 11.367188 20.418999
60.700000 11.972656 20.418999
59.600000 12.703125 20.418999
59.400000 13.056641 20.418999
59.700000 13.910156 20.418999
59.900000 14.513672 20.418999
60.100000 15.117188 20.418999
60.500000 15.720703 20.418999
61.100000 16.324219 20.418999
61.600000 16.927734 20.418999
61.900000 17.531250 20.418999
61.900000 18.009766 20.418999
62.500000 18.738281 20.418999
63.500000 19.466797 20.418999
64.400000 19.945312 20.418999
65.200000 20.673828 20.418999
65.500000 21.277344 20.418999
65.800000 21.880859 20.418999
66.000000 22.484375 20.418999
65.200000 23.087891 20.418999
65.400000 23.691406 20.418999
66.500000 24.294922 20.418999
67.600000 25.023438 20.418999
68.900000 25.626953 20.418999
70.600000 26.230469 20.418999
70.900000 26.833984 20.418999
70.100000 27.437500 20.418999
69.900000 28.041016 20.418999
66.000000 -0.410156 20.571999
66.500000 0.197266 20.571999
66.900000 0.929688 20.571999
67.200000 1.412109 20.571999
67.200000 2.144531 20.571999
67.100000 2.626953 20.571999
66.800000 3.234375 20.571999
66.300000 3.964844 20.571999
66.000000 4.445312 20.571999
65.800000 5.050781 20.571999
65.500000 5.656250 20.571999
65.100000 6.136719 20.571999
64.700000 6.742188 20.571999
64.400000 7.472656 20.571999
64.300000 8.078125 20.571999
64.200000 8.558594 20.571999
64.200000 9.164063 20.571999
64.100000 9.894531 20.571999
63.800000 10.375000 20.571999
63.300000 10.980469 20.571999
62.000000 11.460938 20.571999
60.400000 12.066406 20.571999
59.400000 12.546875 20.571999
59.300000 13.277344 20.571999
59.600000 14.007813 20.571999
60.000000 14.613281 20.571999
60.500000 15.218750 20.571999
60.800000 15.824219 20.571999
61.100000 16.304688 20.571999
61.600000 17.035156 20.571999
61.900000 17.640625 20.571999
62.200000 18.246094 20.571999
63.000000 18.851562 20.571999
63.900000 19.582031 20.571999
64.700000 20.187500 20.571999
65.200000 20.792969 20.571999
65.600000 21.273438 20.571999
65.900000 22.003906 20.571999
65.500000 22.484375 20.571999
65.100000 23.213379 20.571999
65.600000 23.817383 20.571999
66.700000 24.421387 20.571999
67.800000 25.150391 20.571999
69.100000 25.754395 20.571999
69.800000 26.358398 20.571999
70.000000 26.837402 20.571999
69.900000 27.566406 20.571999
65.900000 -0.850098 20.719999
66.500000 -0.243164 20.719999
66.800000 0.363770 20.719999
67.100000 1.095703 20.719999
67.200000 1.577637 20.719999
67.200000 2.309570 20.719999
67.100000 2.916504 20.719999
66.700000 3.273437 20.719999
66.300000 4.005371 20.719999
66.000000 4.612305 20.719999
65.600000 5.219238 20.719999
65.500000 5.826172 20.719999
65.100000 6.433105 20.719999
64.600000 6.915039 20.719999
64.400000 7.646973 20.719999
64.300000 8.128906 20.719999
64.300000 8.735840 20.719999
64.200000 9.467773 20.719999
64.100000 9.949707 20.719999
63.700000 10.556641 20.719999
62.700000 11.038574 20.719999
59.700000 12.127441 20.719999
59.500000 12.734375 20.719999
59.700000 13.338867 20.719999
60.000000 14.068359 20.719999
60.300000 14.797852 20.719999
60.700000 15.402344 20.719999
61.100000 16.006836 20.719999
61.700000 16.611328 20.719999
62.100000 17.215820 20.719999
62.000000 17.820313 20.719999
62.700000 18.299805 20.719999
63.500000 19.029297 20.719999
64.300000 19.633789 20.719999
64.800000 20.363281 20.719999
65.300000 21.092773 20.719999
65.700000 21.572266 20.719999
65.900000 22.176758 20.719999
65.200000 22.656250 20.719999
65.200000 23.385742 20.719999
66.200000 23.990234 20.719999
67.000000 24.719727 20.719999
68.200000 25.199219 20.719999
69.500000 26.053711 20.719999
70.200000 26.533203 20.719999
70.300000 27.137695 20.719999
70.100000 27.742188 20.719999
66.500000 -0.252930 20.875000
66.800000 0.231934 20.875000
67.100000 0.966797 20.875000
67.300000 1.701660 20.875000
67.200000 2.186523 20.875000
67.000000 2.671387 20.875000
66.700000 3.406250 20.875000
66.300000 4.013184 20.875000
66.000000 4.620117 20.875000
65.700000 5.102051 20.875000
65.500000 5.833984 20.875000
65.100000 6.440918 20.875000
64.600000 7.047852 20.875000
64.400000 7.654785 20.875000
64.300000 8.261719 20.875000
64.300000 8.743652 20.875000
64.300000 9.350586 20.875000
64.100000 9.957520 20.875000
63.700000 10.689453 20.875000
62.700000 11.171387 20.875000
59.700000 12.260254 20.875000
59.500000 12.992187 20.875000
59.600000 13.474121 20.875000
59.900000 14.206055 20.875000
60.300000 14.562988 20.875000
60.700000 15.419922 20.875000
61.100000 16.026855 20.875000
61.500000 16.633789 20.875000
61.800000 17.240723 20.875000
61.900000 17.722656 20.875000
62.500000 18.454590 20.875000
63.500000 19.186523 20.875000
64.300000 19.668457 20.875000
64.800000 20.400391 20.875000
65.400000 20.882324 20.875000
65.800000 21.614258 20.875000
65.900000 22.221191 20.875000
65.200000 22.828125 20.875000
65.200000 23.432129 20.875000
66.200000 23.911133 20.875000
67.000000 24.765137 20.875000
68.200000 25.369141 20.875000
69.500000 25.973145 20.875000
70.200000 26.577148 20.875000
70.200000 27.056152 20.875000
70.000000 27.785156 20.875000
67.200000 1.207031 21.022999
67.300000 1.815430 21.022999
67.200000 2.298828 21.022999
67.000000 2.907227 21.022999
66.700000 3.640625 21.022999
66.200000 4.124023 21.022999
65.900000 4.607422 21.022999
65.600000 5.215820 21.022999
65.500000 5.824219 21.022999
65.100000 6.432617 21.022999
64.500000 7.041016 21.022999
64.300000 7.774414 21.022999
64.300000 8.257812 21.022999
64.400000 8.991211 21.022999
64.400000 9.474609 21.022999
64.000000 10.208008 21.022999
63.400000 10.691406 21.022999
62.200000 11.174805 21.022999
60.600000 11.658203 21.022999
59.600000 12.391602 21.022999
59.500000 13.125000 21.022999
59.600000 13.731445 21.022999
60.000000 14.212891 21.022999
60.200000 14.819336 21.022999
60.500000 15.550781 21.022999
60.800000 16.157227 21.022999
61.700000 16.763672 21.022999
62.200000 17.370117 21.022999
61.900000 17.976562 21.022999
62.600000 18.583008 21.022999
63.500000 19.064453 21.022999
64.400000 19.920898 21.022999
65.000000 20.402344 21.022999
65.500000 21.258789 21.022999
65.900000 21.615234 21.022999
65.500000 22.346680 21.022999
64.800000 22.953125 21.022999
65.200000 23.559570 21.022999
66.300000 24.041016 21.022999
67.300000 24.772461 21.022999
68.500000 25.503906 21.022999
70.000000 26.110352 21.022999
70.400000 26.716797 21.022999
69.900000 27.323242 21.022999
69.800000 27.929687 21.022999
65.900000 -0.718750 21.178000
66.500000 -0.234375 21.178000
66.800000 0.375000 21.178000
67.100000 0.984375 21.178000
67.300000 1.718750 21.178000
67.200000 2.203125 21.178000
67.000000 2.687500 21.178000
66.600000 3.296875 21.178000
66.300000 4.027344 21.178000
65.900000 4.632813 21.178000
65.600000 5.238281 21.178000
65.500000 5.718750 21.178000
65.100000 6.324219 21.178000
64.600000 6.929687 21.178000
64.400000 7.660156 21.178000
64.300000 8.265625 21.178000
64.300000 8.746094 21.178000
64.300000 9.351562 21.178000
64.000000 10.082031 21.178000
63.500000 10.562500 21.178000
62.500000 11.292969 21.178000
60.800000 11.523438 21.178000
59.700000 12.378906 21.178000
59.500000 12.984375 21.178000
59.500000 13.464844 21.178000
59.900000 13.945312 21.178000
60.300000 14.800781 21.178000
60.700000 15.281250 21.178000
61.100000 16.011719 21.178000
61.700000 16.742188 21.178000
62.000000 17.222656 21.178000
61.800000 17.703125 21.178000
62.400000 18.433594 21.178000
63.500000 19.164062 21.178000
64.300000 19.644531 21.178000
64.800000 20.375000 21.178000
65.300000 20.855469 21.178000
65.800000 21.585938 21.178000
65.700000 22.191406 21.178000
64.900000 22.671875 21.178000
65.000000 23.405273 21.178000
66.200000 24.013672 21.178000
67.000000 24.747070 21.178000
68.200000 25.230469 21.178000
69.500000 25.838867 21.178000
70.200000 26.572266 21.178000
69.900000 27.180664 21.178000
69.800000 27.789062 21.178000
66.100000 -0.410156 21.327000
66.600000 0.322266 21.327000
67.000000 0.804688 21.327000
67.300000 1.537109 21.327000
67.200000 2.144531 21.327000
67.100000 2.626953 21.327000
66.800000 3.234375 21.327000
66.300000 3.841797 21.327000
66.000000 4.449219 21.327000
65.700000 5.056641 21.327000
65.500000 5.539063 21.327000
65.100000 6.271484 21.327000
64.700000 6.753906 21.327000
64.300000 7.361328 21.327000
64.300000 7.968750 21.327000
64.400000 8.576172 21.327000
64.400000 9.308594 21.327000
64.100000 9.916016 21.327000
63.300000 10.398437 21.327000
60.100000 11.488281 21.327000
59.700000 11.970703 21.327000
59.600000 12.828125 21.327000
59.900000 13.308105 21.327000
60.300000 13.913086 21.327000
60.700000 14.518066 21.327000
61.200000 15.123047 21.327000
61.400000 15.728027 21.327000
61.500000 16.333008 21.327000
61.700000 16.937988 21.327000
62.300000 17.792969 21.327000
63.000000 18.272949 21.327000
63.600000 18.877930 21.327000
64.300000 19.607910 21.327000
64.900000 20.212891 21.327000
65.300000 20.817871 21.327000
65.300000 21.297852 21.327000
65.000000 22.027832 21.327000
64.500000 22.507812 21.327000
64.900000 23.112793 21.327000
66.000000 23.967773 21.327000
66.700000 24.447754 21.327000
67.800000 25.177734 21.327000
69.000000 25.782715 21.327000
69.800000 26.387695 21.327000
69.500000 26.992676 21.327000
68.900000 27.472656 21.327000
65.900000 -0.829102 21.479000
66.400000 0.027832 21.479000
66.800000 0.509766 21.479000
67.200000 1.116699 21.479000
67.300000 1.723633 21.479000
67.300000 2.330566 21.479000
67.100000 2.937500 21.479000
66.700000 3.544434 21.479000
66.200000 4.151367 21.479000
65.900000 4.633301 21.479000
65.600000 5.240234 21.479000
65.400000 6.097168 21.479000
64.900000 6.454102 21.479000
64.300000 7.061035 21.479000
64.300000 7.667969 21.479000
64.300000 8.274902 21.479000
64.400000 9.006836 21.479000
64.100000 9.613770 21.479000
60.400000 10.452637 21.479000
59.800000 11.059570 21.479000
59.800000 11.916504 21.479000
60.000000 12.398438 21.479000
60.200000 13.130371 21.479000
60.600000 13.612305 21.479000
60.900000 14.344238 21.479000
61.100000 14.826172 21.479000
61.500000 15.683105 21.479000
61.600000 16.165039 21.479000
61.900000 16.771973 21.479000
62.400000 17.503906 21.479000
62.600000 17.985840 21.479000
63.200000 18.592773 21.479000
63.700000 19.199707 21.479000
64.200000 19.931641 21.479000
64.600000 20.413574 21.479000
64.700000 21.020508 21.479000
63.900000 21.752441 21.479000
63.500000 22.234375 21.479000
64.500000 22.839844 21.479000
65.200000 23.570313 21.479000
65.800000 24.175781 21.479000
66.500000 24.781250 21.479000
67.400000 25.386719 21.479000
68.000000 25.992188 21.479000
67.800000 26.722656 21.479000
67.600000 27.328125 21.479000
66.100000 -0.711914 21.627999
66.400000 0.020020 21.627999
66.800000 0.626953 21.627999
67.200000 1.233887 21.627999
67.400000 1.715820 21.627999
67.300000 2.322754 21.627999
67.100000 2.929688 21.627999
66.700000 3.661621 21.627999
66.200000 4.018555 21.627999
65.900000 4.875488 21.627999
65.600000 5.357422 21.627999
65.400000 5.964355 21.627999
64.900000 6.446289 21.627999
64.300000 7.178223 21.627999
64.300000 7.785156 21.627999
64.400000 8.267090 21.627999
64.400000 8.999023 21.627999
60.000000 10.569824 21.627999
59.800000 11.301758 21.627999
60.000000 11.908691 21.627999
60.200000 12.390625 21.627999
60.600000 12.993652 21.627999
60.600000 13.596680 21.627999
60.700000 14.199707 21.627999
61.600000 14.927734 21.627999
61.500000 15.530762 21.627999
61.200000 16.008789 21.627999
61.100000 16.611816 21.627999
60.800000 17.214844 21.627999
63.200000 18.545898 21.627999
63.700000 19.273926 21.627999
64.200000 19.876953 21.627999
64.400000 20.479980 21.627999
63.700000 20.833008 21.627999
63.000000 21.686035 21.627999
63.400000 22.289062 21.627999
64.200000 22.767090 21.627999
64.700000 23.370117 21.627999
65.300000 24.098145 21.627999
66.000000 24.701172 21.627999
66.700000 25.304199 21.627999
67.300000 25.907227 21.627999
67.100000 26.510254 21.627999
66.400000 27.113281 21.627999
66.400000 -0.491211 21.783000
66.700000 0.116699 21.783000
67.300000 0.724609 21.783000
67.600000 1.332520 21.783000
67.600000 1.940430 21.783000
67.300000 2.548340 21.783000
66.900000 3.156250 21.783000
66.500000 3.760742 21.783000
66.200000 4.365234 21.783000
66.000000 4.969727 21.783000
65.600000 5.449219 21.783000
65.100000 6.053711 21.783000
64.600000 6.658203 21.783000
64.400000 7.387695 21.783000
64.300000 7.867188 21.783000
64.400000 8.471680 21.783000
64.100000 9.076172 21.783000
60.100000 10.160156 21.783000
59.800000 10.764648 21.783000
59.900000 11.369141 21.783000
60.200000 11.973633 21.783000
60.500000 12.578125 21.783000
60.700000 13.307617 21.783000
60.600000 13.912109 21.783000
60.600000 14.516602 21.783000
61.000000 15.121094 21.783000
61.200000 15.600586 21.783000
61.800000 16.330078 21.783000
62.300000 16.809570 21.783000
62.300000 17.414062 21.783000
62.700000 18.143555 21.783000
63.200000 18.873047 21.783000
63.600000 19.477539 21.783000
64.100000 19.957031 21.783000
64.200000 20.686523 21.783000
63.200000 21.166016 21.783000
62.700000 21.895508 21.783000
63.500000 22.500000 21.783000
64.300000 22.978516 21.783000
64.700000 23.582031 21.783000
65.200000 24.310547 21.783000
65.800000 25.039062 21.783000
66.600000 25.517578 21.783000
67.000000 26.121094 21.783000
66.400000 26.724609 21.783000
65.900000 27.328125 21.783000
66.200000 -0.695801 21.931000
66.500000 0.034180 21.931000
66.900000 0.639160 21.931000
67.300000 1.244141 21.931000
67.400000 1.724121 21.931000
67.300000 2.329102 21.931000
67.100000 2.934082 21.931000
66.700000 3.539063 21.931000
66.200000 4.019043 21.931000
65.900000 4.749023 21.931000
65.600000 5.229004 21.931000
65.300000 5.833984 21.931000
64.800000 6.563965 21.931000
64.300000 7.168945 21.931000
64.300000 7.648926 21.931000
64.400000 8.253906 21.931000
64.200000 8.858887 21.931000
60.800000 9.943848 21.931000
59.900000 10.673828 21.931000
59.900000 11.153809 21.931000
60.100000 11.758789 21.931000
60.300000 12.488770 21.931000
60.500000 13.093750 21.931000
60.600000 13.697754 21.931000
60.700000 14.176758 21.931000
61.600000 15.030762 21.931000
61.500000 15.384766 21.931000
61.200000 16.113770 21.931000
61.600000 16.592773 21.931000
61.900000 17.321777 21.931000
62.500000 18.050781 21.931000
63.200000 18.529785 21.931000
63.700000 19.258789 21.931000
64.200000 19.862793 21.931000
64.300000 20.341797 21.931000
63.600000 20.945801 21.931000
62.800000 21.424805 21.931000
63.200000 22.153809 21.931000
64.100000 22.882812 21.931000
64.600000 23.486816 21.931000
65.100000 24.090820 21.931000
65.800000 24.694824 21.931000
66.500000 25.298828 21.931000
67.100000 25.902832 21.931000
66.700000 26.506836 21.931000
66.100000 27.110840 21.931000
66.500000 -0.534668 22.087000
66.700000 0.200195 22.087000
67.200000 0.685059 22.087000
67.500000 1.294922 22.087000
67.500000 1.904785 22.087000
67.300000 2.514648 22.087000
66.900000 3.124512 22.087000
66.600000 3.734375 22.087000
66.300000 4.463867 22.087000
66.000000 5.068359 22.087000
65.600000 5.547852 22.087000
65.100000 6.152344 22.087000
64.600000 6.756836 22.087000
64.300000 7.236328 22.087000
64.300000 7.840820 22.087000
64.300000 8.445312 22.087000
64.100000 8.924805 22.087000
60.400000 10.133789 22.087000
59.900000 10.863281 22.087000
59.900000 11.467773 22.087000
60.200000 11.947266 22.087000
60.400000 12.676758 22.087000
60.700000 13.156250 22.087000
60.700000 13.760742 22.087000
60.700000 14.365234 22.087000
61.300000 15.094727 22.087000
61.300000 15.699219 22.087000
61.700000 16.303711 22.087000
62.100000 16.908203 22.087000
61.900000 17.512695 22.087000
62.500000 17.992187 22.087000
63.300000 18.721680 22.087000
63.700000 19.451172 22.087000
64.100000 19.930664 22.087000
64.100000 20.660156 22.087000
63.600000 21.014648 22.087000
63.000000 21.619141 22.087000
63.500000 22.473633 22.087000
64.200000 23.078125 22.087000
64.700000 23.556641 22.087000
65.200000 24.410156 22.087000
65.900000 24.888672 22.087000
66.700000 25.617188 22.087000
67.200000 26.095703 22.087000
66.800000 26.699219 22.087000
66.300000 27.302734 22.087000
67.100000 -0.280762 22.232999
66.800000 0.200195 22.232999
67.300000 0.806152 22.232999
67.600000 1.412109 22.232999
67.500000 2.018066 22.232999
67.200000 2.624023 22.232999
66.700000 3.229980 22.232999
66.300000 3.835938 22.232999
66.200000 4.441895 22.232999
65.900000 5.047852 22.232999
65.600000 5.653809 22.232999
65.000000 6.134766 22.232999
64.500000 6.865723 22.232999
64.300000 7.471680 22.232999
64.300000 8.077637 22.232999
64.400000 8.683594 22.232999
64.100000 9.164551 22.232999
60.000000 10.376465 22.232999
59.800000 10.857422 22.232999
59.800000 11.463379 22.232999
60.100000 12.194336 22.232999
60.300000 12.675293 22.232999
60.500000 13.281250 22.232999
60.800000 13.886230 22.232999
60.900000 14.491211 22.232999
61.100000 15.221191 22.232999
61.200000 15.826172 22.232999
61.900000 16.431152 22.232999
62.200000 16.911133 22.232999
61.800000 17.641113 22.232999
62.500000 18.246094 22.232999
63.300000 18.976074 22.232999
63.600000 19.581055 22.232999
64.000000 20.186035 22.232999
63.900000 20.666016 22.232999
63.100000 21.270996 22.232999
62.800000 22.000977 22.232999
63.600000 22.480957 22.232999
64.300000 23.085938 22.232999
64.800000 23.815918 22.232999
65.400000 24.545898 22.232999
66.100000 24.900879 22.232999
66.900000 25.630859 22.232999
67.300000 26.235840 22.232999
66.900000 26.965820 22.232999
66.400000 27.445801 22.232999
66.400000 -0.796875 22.388999
66.800000 -0.185547 22.388999
66.800000 0.300781 22.388999
67.200000 1.162109 22.388999
67.400000 1.648438 22.388999
67.300000 2.259766 22.388999
67.200000 2.871094 22.388999
66.800000 3.607422 22.388999
66.200000 4.093750 22.388999
65.900000 4.699707 22.388999
65.700000 5.305664 22.388999
65.400000 5.911621 22.388999
64.800000 6.392578 22.388999
64.300000 6.998535 22.388999
64.400000 7.604492 22.388999
64.300000 8.335449 22.388999
64.300000 8.941406 22.388999
63.500000 9.422363 22.388999
59.900000 10.384277 22.388999
59.700000 11.115234 22.388999
59.900000 11.596191 22.388999
60.200000 12.452148 22.388999
60.600000 13.058105 22.388999
60.700000 13.539063 22.388999
60.600000 14.270020 22.388999
60.700000 14.750977 22.388999
60.900000 15.356934 22.388999
60.700000 16.087891 22.388999
60.500000 16.568848 22.388999
61.600000 17.299805 22.388999
62.400000 17.905762 22.388999
62.800000 18.636719 22.388999
63.300000 19.242676 22.388999
64.000000 19.723633 22.388999
64.400000 20.329590 22.388999
63.900000 21.060547 22.388999
63.100000 21.416504 22.388999
63.200000 22.272461 22.388999
64.100000 22.753418 22.388999
64.600000 23.484375 22.388999
65.100000 24.089355 22.388999
65.800000 24.819336 22.388999
66.500000 25.174316 22.388999
67.100000 25.904297 22.388999
66.900000 26.509277 22.388999
66.700000 26.989258 22.388999
66.100000 -0.726562 22.537000
66.500000 -0.116211 22.537000
66.900000 0.619141 22.537000
67.300000 1.104492 22.537000
67.500000 1.714844 22.537000
67.400000 2.325195 22.537000
67.100000 2.935547 22.537000
66.700000 3.545898 22.537000
66.300000 4.156250 22.537000
66.100000 4.766602 22.537000
65.700000 5.376953 22.537000
65.300000 5.862305 22.537000
64.800000 6.472656 22.537000
64.300000 7.083008 22.537000
64.400000 7.693359 22.537000
64.400000 8.303711 22.537000
64.100000 9.039063 22.537000
60.800000 10.134766 22.537000
59.900000 10.620117 22.537000
59.900000 11.355469 22.537000
60.200000 11.840820 22.537000
60.300000 12.326172 22.537000
60.600000 13.186523 22.537000
60.700000 13.671875 22.537000
60.800000 14.402832 22.537000
61.700000 15.008789 22.537000
61.600000 15.489746 22.537000
61.700000 16.220703 22.537000
61.700000 16.826660 22.537000
61.200000 17.307617 22.537000
62.100000 18.038574 22.537000
63.300000 18.769531 22.537000
63.500000 19.375488 22.537000
63.900000 19.981445 22.537000
64.100000 20.462402 22.537000
63.600000 21.193359 22.537000
63.000000 21.674316 22.537000
63.500000 22.405273 22.537000
64.200000 22.886230 22.537000
64.700000 23.492188 22.537000
65.200000 24.223145 22.537000
65.900000 24.704102 22.537000
66.700000 25.435059 22.537000
67.200000 26.041016 22.537000
67.200000 26.646973 22.537000
66.700000 27.252930 22.537000
66.400000 -0.714844 22.693999
66.800000 -0.230957 22.693999
66.800000 0.377930 22.693999
67.300000 0.986816 22.693999
67.500000 1.595703 22.693999
67.400000 2.204590 22.693999
67.100000 2.813477 22.693999
66.700000 3.547363 22.693999
66.300000 3.906250 22.693999
66.100000 4.638672 22.693999
65.800000 5.121094 22.693999
65.400000 5.853516 22.693999
64.700000 6.335938 22.693999
64.400000 7.068359 22.693999
64.600000 7.675781 22.693999
64.700000 8.283203 22.693999
64.500000 8.765625 22.693999
60.100000 10.462891 22.693999
60.100000 11.070312 22.693999
60.200000 11.677734 22.693999
60.400000 12.410156 22.693999
60.700000 13.017578 22.693999
60.700000 13.500000 22.693999
60.800000 14.107422 22.693999
61.600000 14.714844 22.693999
61.500000 15.322266 22.693999
61.400000 15.929688 22.693999
61.500000 16.662109 22.693999
61.200000 17.144531 22.693999
62.200000 18.001953 22.693999
63.300000 18.609375 22.693999
63.700000 19.091797 22.693999
64.200000 19.699219 22.693999
64.300000 20.431641 22.693999
63.600000 20.914063 22.693999
63.000000 21.521484 22.693999
63.300000 22.128906 22.693999
64.100000 22.736328 22.693999
64.600000 23.468750 22.693999
65.100000 24.075684 22.693999
65.800000 24.682617 22.693999
66.500000 25.289551 22.693999
67.100000 25.896484 22.693999
66.900000 26.378418 22.693999
66.400000 27.235352 22.693999
65.900000 -0.771973 22.844999
66.600000 0.084961 22.844999
67.000000 0.441895 22.844999
67.400000 1.173828 22.844999
67.500000 1.780762 22.844999
67.400000 2.387695 22.844999
67.000000 2.994629 22.844999
66.600000 3.601562 22.844999
66.400000 4.208496 22.844999
66.200000 4.815430 22.844999
65.800000 5.422363 22.844999
65.200000 6.029297 22.844999
64.700000 6.511230 22.844999
64.700000 7.243164 22.844999
64.800000 7.850098 22.844999
64.800000 8.332031 22.844999
64.300000 8.813965 22.844999
60.800000 9.902832 22.844999
60.100000 10.759766 22.844999
60.100000 11.366699 22.844999
60.200000 11.848633 22.844999
60.300000 12.455566 22.844999
60.600000 13.062500 22.844999
60.700000 13.668457 22.844999
60.800000 14.274414 22.844999
61.500000 15.005371 22.844999
61.400000 15.486328 22.844999
61.600000 16.092285 22.844999
62.100000 16.948242 22.844999
62.200000 17.304199 22.844999
62.700000 18.035156 22.844999
63.500000 18.766113 22.844999
64.000000 19.247070 22.844999
64.300000 19.853027 22.844999
64.300000 20.583984 22.844999
63.600000 21.064941 22.844999
63.000000 21.670898 22.844999
63.600000 22.401855 22.844999
64.400000 22.882813 22.844999
64.700000 23.613770 22.844999
65.200000 24.219727 22.844999
66.000000 24.825684 22.844999
66.900000 25.556641 22.844999
67.400000 26.037598 22.844999
67.100000 26.768555 22.844999
66.700000 27.249512 22.844999
66.400000 -0.796875 22.995001
66.800000 -0.187500 22.995001
66.900000 0.421875 22.995001
67.400000 1.156250 22.995001
67.500000 1.640625 22.995001
67.500000 2.250000 22.995001
67.400000 2.984375 22.995001
66.900000 3.468750 22.995001
66.400000 3.948242 22.995001
66.100000 4.677734 22.995001
65.800000 5.157227 22.995001
65.300000 5.886719 22.995001
64.900000 6.491211 22.995001
64.700000 7.095703 22.995001
64.700000 7.575195 22.995001
64.800000 8.179688 22.995001
64.500000 8.909180 22.995001
63.500000 9.388672 22.995001
60.300000 10.472656 22.995001
60.200000 11.077148 22.995001
60.200000 11.681641 22.995001
60.400000 12.286133 22.995001
60.700000 13.015625 22.995001
60.800000 13.495117 22.995001
61.000000 14.224609 22.995001
61.800000 14.829102 22.995001
61.600000 15.308594 22.995001
61.200000 16.038086 22.995001
61.500000 16.642578 22.995001
61.700000 17.247070 22.995001
62.500000 17.851562 22.995001
63.400000 18.456055 22.995001
63.700000 19.060547 22.995001
64.200000 19.790039 22.995001
64.400000 20.394531 22.995001
63.800000 20.999023 22.995001
63.100000 21.478516 22.995001
63.300000 22.083008 22.995001
64.200000 22.687500 22.995001
64.600000 23.291504 22.995001
65.200000 24.020508 22.995001
66.000000 24.749512 22.995001
66.700000 25.228516 22.995001
67.200000 25.832520 22.995001
67.100000 26.436523 22.995001
66.600000 27.040527 22.995001
66.600000 -0.310547 23.144000
66.900000 0.295898 23.144000
67.400000 0.902344 23.144000
67.600000 1.508789 23.144000
67.600000 2.115234 23.144000
67.400000 2.721680 23.144000
67.000000 3.203125 23.144000
66.400000 3.934570 23.144000
66.200000 4.666016 23.144000
65.900000 5.147461 23.144000
65.300000 5.628906 23.144000
64.900000 6.360352 23.144000
64.700000 6.966797 23.144000
64.700000 7.573242 23.144000
64.800000 8.054688 23.144000
64.700000 8.786133 23.144000
63.500000 9.142578 23.144000
60.300000 10.355469 23.144000
60.200000 10.961914 23.144000
60.300000 11.568359 23.144000
60.400000 12.174805 23.144000
60.700000 12.781250 23.144000
60.900000 13.384766 23.144000
61.100000 14.113281 23.144000
61.700000 14.591797 23.144000
61.600000 15.320312 23.144000
61.200000 15.923828 23.144000
61.200000 16.527344 23.144000
61.000000 17.005859 23.144000
63.400000 18.462891 23.144000
63.700000 18.941406 23.144000
64.300000 19.544922 23.144000
64.500000 20.273438 23.144000
63.800000 20.876953 23.144000
62.900000 21.230469 23.144000
63.100000 21.958984 23.144000
64.100000 22.562500 23.144000
64.700000 23.291016 23.144000
65.300000 23.894531 23.144000
65.900000 24.373047 23.144000
66.600000 25.226562 23.144000
67.300000 25.830078 23.144000
67.500000 26.308594 23.144000
66.900000 26.912109 23.144000
66.200000 -0.630371 23.299000
66.700000 -0.022461 23.299000
66.900000 0.585449 23.299000
67.300000 1.068359 23.299000
67.500000 1.676270 23.299000
67.500000 2.284180 23.299000
67.300000 2.892090 23.299000
66.900000 3.500000 23.299000
66.500000 4.104980 23.299000
66.200000 4.709961 23.299000
65.800000 5.314941 23.299000
65.400000 5.919922 23.299000
64.900000 6.524902 23.299000
64.700000 7.004883 23.299000
64.700000 7.734863 23.299000
64.800000 8.339844 23.299000
64.500000 8.944824 23.299000
61.200000 9.904785 23.299000
60.200000 10.509766 23.299000
60.100000 11.114746 23.299000
60.300000 11.844727 23.299000
60.300000 12.324707 23.299000
60.700000 12.929688 23.299000
60.800000 13.659668 23.299000
60.900000 14.139648 23.299000
61.700000 14.994629 23.299000
61.700000 15.474609 23.299000
61.500000 15.954590 23.299000
61.400000 16.559570 23.299000
60.900000 17.164551 23.299000
63.300000 18.499512 23.299000
63.700000 19.229492 23.299000
64.200000 19.709473 23.299000
64.300000 20.439453 23.299000
63.700000 20.919434 23.299000
63.000000 21.399414 23.299000
63.300000 22.129395 23.299000
64.100000 22.859375 23.299000
64.600000 23.338379 23.299000
65.200000 24.067383 23.299000
66.000000 24.796387 23.299000
66.700000 25.275391 23.299000
67.300000 25.879395 23.299000
67.100000 26.483398 23.299000
66.200000 27.087402 23.299000
66.400000 -0.597656 23.445999
66.700000 0.257812 23.445999
67.300000 0.738281 23.445999
67.600000 1.343750 23.445999
67.500000 2.074219 23.445999
67.400000 2.679688 23.445999
67.200000 3.285156 23.445999
66.700000 3.765625 23.445999
66.300000 4.371094 23.445999
66.100000 4.851562 23.445999
65.700000 5.457031 23.445999
65.000000 6.187500 23.445999
64.700000 6.667969 23.445999
64.800000 7.398438 23.445999
64.900000 8.003906 23.445999
64.700000 8.609375 23.445999
63.700000 9.089844 23.445999
60.200000 10.300781 23.445999
60.100000 10.906250 23.445999
60.200000 11.511719 23.445999
60.300000 11.992188 23.445999
60.700000 12.597656 23.445999
60.900000 13.203125 23.445999
60.900000 13.807129 23.445999
61.200000 14.536133 23.445999
61.300000 15.015137 23.445999
60.800000 15.619141 23.445999
60.600000 16.223145 23.445999
61.700000 16.827148 23.445999
62.400000 17.556152 23.445999
62.700000 18.160156 23.445999
63.200000 18.639160 23.445999
63.800000 19.368164 23.445999
64.200000 20.097168 23.445999
63.800000 20.451172 23.445999
62.900000 21.180176 23.445999
63.000000 21.784180 23.445999
63.800000 22.513184 23.445999
64.300000 22.992188 23.445999
64.800000 23.596191 23.445999
65.400000 24.325195 23.445999
66.200000 24.929199 23.445999
66.900000 25.533203 23.445999
67.400000 26.262207 23.445999
66.600000 26.616211 23.445999
67.000000 -0.364746 23.602000
66.800000 0.243164 23.602000
67.300000 0.851074 23.602000
67.600000 1.583984 23.602000
67.500000 2.066895 23.602000
67.400000 2.674805 23.602000
67.200000 3.282715 23.602000
66.600000 3.890625 23.602000
66.200000 4.497070 23.602000
66.100000 5.103516 23.602000
65.700000 5.584961 23.602000
65.000000 6.191406 23.602000
64.700000 6.922852 23.602000
64.700000 7.529297 23.602000
64.800000 8.135742 23.602000
64.700000 8.617187 23.602000
60.200000 10.436523 23.602000
60.100000 11.042969 23.602000
60.300000 11.524414 23.602000
60.400000 12.130859 23.602000
60.800000 12.737305 23.602000
60.700000 13.343750 23.602000
60.800000 13.950195 23.602000
61.700000 14.681641 23.602000
61.500000 15.163086 23.602000
61.300000 15.769531 23.602000
60.800000 16.375977 23.602000
60.700000 17.107422 23.602000
61.900000 17.713867 23.602000
62.900000 18.320312 23.602000
63.100000 18.801758 23.602000
63.600000 19.533203 23.602000
63.900000 20.139648 23.602000
63.500000 20.871094 23.602000
62.900000 21.227539 23.602000
63.000000 21.958984 23.602000
63.900000 22.690430 23.602000
64.400000 23.296875 23.602000
64.800000 23.899414 23.602000
65.400000 24.501953 23.602000
66.200000 25.104492 23.602000
67.000000 25.707031 23.602000
66.900000 26.309570 23.602000
66.100000 26.787109 23.602000
67.000000 -0.403809 23.750000
66.900000 0.204102 23.750000
67.300000 0.812012 23.750000
67.600000 1.419922 23.750000
67.500000 2.027832 23.750000
67.400000 2.635742 23.750000
67.100000 3.118652 23.750000
66.600000 3.976562 23.750000
66.200000 4.584473 23.750000
66.100000 4.942383 23.750000
65.700000 5.550293 23.750000
65.000000 6.283203 23.750000
64.600000 6.891113 23.750000
64.700000 7.374023 23.750000
64.800000 7.981934 23.750000
64.600000 8.714844 23.750000
60.200000 10.288574 23.750000
60.100000 10.896484 23.750000
60.200000 11.629395 23.750000
60.400000 12.112305 23.750000
60.800000 12.720215 23.750000
60.700000 13.328125 23.750000
60.800000 13.932617 23.750000
61.500000 14.537109 23.750000
61.400000 15.141602 23.750000
60.900000 15.746094 23.750000
60.400000 16.225586 23.750000
62.300000 17.684570 23.750000
62.700000 18.289063 23.750000
63.100000 18.893555 23.750000
63.500000 19.498047 23.750000
63.800000 20.102539 23.750000
63.500000 20.707031 23.750000
63.000000 21.311523 23.750000
63.100000 21.916016 23.750000
63.900000 22.520508 23.750000
64.400000 23.250000 23.750000
64.800000 23.854492 23.750000
65.400000 24.333984 23.750000
66.200000 25.063477 23.750000
66.800000 25.667969 23.750000
66.900000 26.397461 23.750000
66.100000 26.876953 23.750000
67.000000 -0.209961 23.904000
66.800000 0.275391 23.904000
67.300000 1.010742 23.904000
67.600000 1.496094 23.904000
67.500000 2.106445 23.904000
67.400000 2.716797 23.904000
67.100000 3.327148 23.904000
66.600000 3.937500 23.904000
66.200000 4.541992 23.904000
66.100000 5.146484 23.904000
65.700000 5.625977 23.904000
65.000000 6.230469 23.904000
64.600000 6.959961 23.904000
64.700000 7.439453 23.904000
64.800000 8.043945 23.904000
64.600000 8.773438 23.904000
60.200000 10.461914 23.904000
60.100000 10.941406 23.904000
60.200000 11.545898 23.904000
60.400000 12.025391 23.904000
60.700000 12.879883 23.904000
60.600000 13.359375 23.904000
60.600000 14.088867 23.904000
61.300000 14.568359 23.904000
61.300000 15.172852 23.904000
60.900000 15.902344 23.904000
60.400000 16.381836 23.904000
62.200000 17.715820 23.904000
62.600000 18.445312 23.904000
63.000000 18.799805 23.904000
63.500000 19.654297 23.904000
63.800000 20.133789 23.904000
63.500000 20.738281 23.904000
63.000000 21.342773 23.904000
63.100000 21.947266 23.904000
63.900000 22.551758 23.904000
64.400000 23.281250 23.904000
64.800000 23.760254 23.904000
65.400000 24.489258 23.904000
66.200000 25.093262 23.904000
66.900000 25.697266 23.904000
67.100000 26.176270 23.904000
66.300000 26.905273 23.904000
66.700000 -0.531250 24.051999
66.800000 0.078125 24.051999
67.200000 0.562500 24.051999
67.500000 1.296875 24.051999
67.500000 1.906250 24.051999
67.400000 2.390625 24.051999
67.200000 3.000000 24.051999
66.800000 3.609375 24.051999
66.400000 4.218750 24.051999
66.200000 4.828125 24.051999
65.800000 5.312500 24.051999
65.200000 6.046875 24.051999
64.700000 6.656250 24.051999
64.700000 7.140625 24.051999
64.800000 7.750000 24.051999
64.700000 8.484375 24.051999
64.100000 8.968750 24.051999
60.200000 10.062500 24.051999
59.900000 10.796875 24.051999
60.100000 11.406250 24.051999
60.300000 12.015625 24.051999
60.500000 12.500000 24.051999
60.800000 13.109375 24.051999
60.700000 13.715820 24.051999
60.600000 14.447266 24.051999
60.800000 14.928711 24.051999
60.800000 15.535156 24.051999
61.900000 16.873047 24.051999
61.200000 17.354492 24.051999
62.000000 18.085938 24.051999
63.000000 18.692383 24.051999
63.300000 19.298828 24.051999
63.800000 19.905273 24.051999
63.800000 20.636719 24.051999
63.100000 21.118164 24.051999
63.000000 21.724609 24.051999
63.700000 22.331055 24.051999
64.300000 23.062500 24.051999
64.700000 23.543945 24.051999
65.300000 24.275391 24.051999
66.100000 24.881836 24.051999
66.700000 25.613281 24.051999
67.000000 25.969727 24.051999
66.700000 26.701172 24.051999
67.200000 -0.565918 24.207999
66.900000 0.168945 24.207999
67.300000 0.903809 24.207999
67.600000 1.513672 24.207999
67.500000 2.123535 24.207999
67.400000 2.608398 24.207999
67.100000 3.343262 24.207999
66.600000 3.828125 24.207999
66.200000 4.311523 24.207999
66.100000 5.044922 24.207999
65.600000 5.528320 24.207999
64.900000 6.261719 24.207999
64.600000 6.870117 24.207999
64.700000 7.478516 24.207999
64.700000 8.086914 24.207999
64.500000 8.695312 24.207999
63.400000 9.178711 24.207999
60.100000 10.270508 24.207999
60.000000 10.878906 24.207999
60.100000 11.612305 24.207999
60.400000 12.220703 24.207999
60.700000 12.704102 24.207999
60.400000 13.312500 24.207999
60.500000 13.920898 24.207999
61.300000 14.654297 24.207999
61.300000 15.262695 24.207999
60.700000 15.746094 24.207999
60.500000 16.354492 24.207999
61.200000 17.212891 24.207999
61.600000 17.696289 24.207999
62.200000 18.429688 24.207999
62.900000 19.038086 24.207999
63.500000 19.646484 24.207999
63.600000 20.129883 24.207999
63.300000 20.738281 24.207999
63.100000 21.471680 24.207999
63.200000 21.955078 24.207999
63.900000 22.688477 24.207999
64.300000 23.171875 24.207999
64.800000 23.778320 24.207999
65.400000 24.384766 24.207999
66.200000 25.241211 24.207999
66.800000 25.847656 24.207999
67.000000 26.204102 24.207999
66.600000 26.935547 24.207999
66.500000 27.666992 24.207999
67.000000 -0.216309 24.354000
67.100000 0.391602 24.354000
67.400000 1.124512 24.354000
67.500000 1.607422 24.354000
67.500000 2.215332 24.354000
67.300000 2.823242 24.354000
66.900000 3.431152 24.354000
66.400000 4.039062 24.354000
66.100000 4.646973 24.354000
65.800000 5.379883 24.354000
65.300000 5.862793 24.354000
64.900000 6.470703 24.354000
64.600000 7.078613 24.354000
64.600000 7.686523 24.354000
64.600000 8.169434 24.354000
64.100000 8.902344 24.354000
60.400000 9.993164 24.354000
60.000000 10.601074 24.354000
60.000000 11.083984 24.354000
60.200000 11.816895 24.354000
60.400000 12.424805 24.354000
60.800000 12.907715 24.354000
60.700000 13.515625 24.354000
60.600000 14.247070 24.354000
61.500000 14.978516 24.354000
61.700000 15.459961 24.354000
61.500000 16.066406 24.354000
61.800000 17.885742 24.354000
62.400000 18.492188 24.354000
62.700000 19.223633 24.354000
63.400000 19.830078 24.354000
63.600000 20.436523 24.354000
62.900000 21.042969 24.354000
63.000000 21.524414 24.354000
63.500000 22.130859 24.354000
64.100000 22.737305 24.354000
64.500000 23.343750 24.354000
65.100000 24.075195 24.354000
65.700000 24.556641 24.354000
66.300000 25.413086 24.354000
66.800000 25.894531 24.354000
66.500000 26.375977 24.354000
66.800000 -0.130371 24.513000
67.200000 0.477539 24.513000
67.500000 1.085449 24.513000
67.500000 1.693359 24.513000
67.400000 2.301270 24.513000
67.200000 3.034180 24.513000
66.900000 3.517090 24.513000
66.500000 4.125000 24.513000
66.200000 4.604492 24.513000
65.800000 5.208984 24.513000
65.300000 5.938477 24.513000
64.800000 6.542969 24.513000
64.600000 7.147461 24.513000
64.600000 7.626953 24.513000
64.600000 8.231445 24.513000
64.100000 8.835938 24.513000
60.400000 10.044922 24.513000
59.900000 10.524414 24.513000
60.000000 11.128906 24.513000
60.200000 11.858398 24.513000
60.300000 12.462891 24.513000
60.700000 12.942383 24.513000
60.700000 13.671875 24.513000
60.600000 14.276367 24.513000
61.500000 14.880859 24.513000
61.600000 15.360352 24.513000
61.400000 16.089844 24.513000
61.600000 18.028320 24.513000
62.100000 18.507813 24.513000
62.700000 18.987305 24.513000
63.200000 19.716797 24.513000
63.400000 20.196289 24.513000
62.900000 21.050781 24.513000
63.000000 21.530273 24.513000
63.500000 22.134766 24.513000
64.100000 22.864258 24.513000
64.500000 23.468750 24.513000
65.100000 24.201660 24.513000
65.700000 24.684570 24.513000
66.300000 25.417480 24.513000
66.800000 26.025391 24.513000
66.600000 26.508301 24.513000
66.400000 27.116211 24.513000
67.400000 -0.597656 24.660000
66.800000 0.009277 24.660000
67.200000 0.741211 24.660000
67.500000 1.223145 24.660000
67.500000 1.830078 24.660000
67.400000 2.437012 24.660000
67.200000 3.168945 24.660000
66.700000 3.650879 24.660000
66.300000 4.132812 24.660000
66.200000 4.864746 24.660000
65.800000 5.471680 24.660000
65.200000 5.953613 24.660000
64.700000 6.685547 24.660000
64.600000 7.292480 24.660000
64.700000 7.774414 24.660000
64.700000 8.506348 24.660000
63.700000 8.863281 24.660000
60.100000 10.202148 24.660000
59.900000 10.684082 24.660000
60.000000 11.416016 24.660000
60.300000 11.897949 24.660000
60.500000 12.504883 24.660000
60.800000 13.236816 24.660000
60.700000 13.843750 24.660000
60.500000 14.323730 24.660000
60.800000 15.053711 24.660000
60.900000 15.658691 24.660000
61.800000 16.263672 24.660000
60.600000 17.473633 24.660000
61.600000 18.078613 24.660000
62.400000 18.808594 24.660000
62.900000 19.413574 24.660000
63.300000 20.018555 24.660000
63.200000 20.498535 24.660000
63.000000 21.228516 24.660000
63.200000 21.708496 24.660000
63.800000 22.313477 24.660000
64.300000 23.043457 24.660000
64.700000 23.648438 24.660000
65.300000 24.378418 24.660000
66.000000 24.858398 24.660000
66.900000 25.463379 24.660000
67.200000 26.068359 24.660000
66.600000 26.673340 24.660000
66.500000 27.278320 24.660000
67.600000 -0.503906 24.813999
66.900000 0.104004 24.813999
67.300000 0.711914 24.813999
67.600000 1.444824 24.813999
67.500000 1.927734 24.813999
67.400000 2.660645 24.813999
67.200000 3.143555 24.813999
66.700000 3.751465 24.813999
66.300000 4.359375 24.813999
66.200000 4.840820 24.813999
65.700000 5.447266 24.813999
65.100000 6.053711 24.813999
64.700000 6.785156 24.813999
64.700000 7.391602 24.813999
64.700000 7.873047 24.813999
64.500000 8.604492 24.813999
63.700000 9.210938 24.813999
60.200000 10.173828 24.813999
59.900000 10.905273 24.813999
60.000000 11.386719 24.813999
60.300000 11.993164 24.813999
60.500000 12.474609 24.813999
60.700000 13.206055 24.813999
60.800000 13.937500 24.813999
60.600000 14.418945 24.813999
61.100000 15.025391 24.813999
61.300000 15.631836 24.813999
61.700000 16.363281 24.813999
61.700000 18.182617 24.813999
62.300000 18.789062 24.813999
63.000000 19.395508 24.813999
63.400000 20.126953 24.813999
63.400000 20.608398 24.813999
63.000000 21.339844 24.813999
63.300000 21.946289 24.813999
63.800000 22.427734 24.813999
64.300000 23.034180 24.813999
64.700000 23.640625 24.813999
65.300000 24.369141 24.813999
66.000000 24.972656 24.813999
67.000000 25.576172 24.813999
67.200000 26.304688 24.813999
66.800000 26.783203 24.813999
67.400000 -0.673340 24.960000
66.900000 0.058594 24.960000
67.300000 0.665527 24.960000
67.600000 1.272461 24.960000
67.700000 2.004395 24.960000
67.600000 2.486328 24.960000
67.200000 2.968262 24.960000
66.800000 3.825195 24.960000
66.400000 4.182129 24.960000
66.200000 4.914063 24.960000
65.700000 5.520996 24.960000
65.100000 6.127930 24.960000
64.700000 6.734863 24.960000
64.700000 7.341797 24.960000
64.700000 7.948730 24.960000
64.600000 8.430664 24.960000
64.100000 9.162598 24.960000
62.700000 9.519531 24.960000
60.900000 10.126465 24.960000
59.800000 10.733398 24.960000
59.900000 11.340332 24.960000
60.100000 12.072266 24.960000
60.300000 12.679199 24.960000
60.900000 13.286133 24.960000
60.400000 13.643066 24.960000
60.300000 14.375000 24.960000
61.200000 15.104004 24.960000
61.200000 15.583008 24.960000
60.900000 16.312012 24.960000
61.000000 16.916016 24.960000
60.800000 17.395020 24.960000
60.600000 17.999023 24.960000
61.400000 18.603027 24.960000
62.400000 19.332031 24.960000
63.100000 19.811035 24.960000
63.200000 20.540039 24.960000
63.000000 21.144043 24.960000
63.200000 21.748047 24.960000
63.700000 22.477051 24.960000
64.200000 22.956055 24.960000
64.700000 23.685059 24.960000
65.200000 24.164062 24.960000
65.700000 24.768066 24.960000
66.400000 25.622070 24.960000
67.100000 26.226074 24.960000
67.100000 26.580078 24.960000
66.800000 27.184082 24.960000
65.500000 -0.718750 25.116000
66.100000 0.015625 25.116000
66.700000 0.625000 25.116000
67.100000 1.234375 25.116000
67.100000 1.968750 25.116000
67.400000 2.578125 25.116000
67.600000 3.187500 25.116000
67.400000 3.796875 25.116000
67.100000 4.281250 25.116000
66.800000 5.015625 25.116000
66.400000 5.500000 25.116000
66.100000 6.104980 25.116000
65.700000 6.584961 25.116000
65.000000 7.189941 25.116000
64.700000 7.919922 25.116000
64.600000 8.399902 25.116000
64.600000 9.004883 25.116000
64.500000 9.734863 25.116000
63.800000 10.339844 25.116000
60.300000 11.299805 25.116000
59.800000 11.904785 25.116000
59.900000 12.634766 25.116000
60.200000 12.989746 25.116000
60.300000 13.719727 25.116000
60.700000 14.324707 25.116000
60.400000 15.054687 25.116000
60.400000 15.534668 25.116000
61.400000 16.139648 25.116000
61.600000 16.869629 25.116000
61.400000 17.349609 25.116000
60.000000 18.434570 25.116000
60.700000 19.039551 25.116000
61.500000 20.019531 25.116000
62.400000 20.624512 25.116000
62.900000 21.104492 25.116000
63.200000 21.584473 25.116000
63.100000 22.439453 25.116000
63.300000 22.794434 25.116000
63.800000 23.649414 25.116000
64.200000 24.129395 25.116000
64.500000 24.734375 25.116000
65.200000 25.338379 25.116000
65.900000 26.067383 25.116000
66.700000 26.671387 25.116000
67.200000 27.275391 25.116000
66.500000 27.879395 25.116000
