34.900000 -24.664062 27.124022
35.100000 -27.656250 27.124022
35.300000 -23.398438 27.124022
35.600000 -26.390625 27.124022
34.400000 -21.500000 27.124022
34.200000 -24.371094 27.124022
34.000000 -24.117188 27.124022
33.600000 -22.863281 27.124022
33.000000 -22.359375 27.124022
32.900000 -21.980469 27.124022
32.800000 -21.101562 27.124022
32.800000 -20.472656 27.124022
33.100000 -20.093750 27.124022
33.000000 -19.589844 27.124022
33.000000 -18.585937 27.124022
33.100000 -18.082031 27.124022
33.100000 -15.820312 27.124022
32.900000 -15.691406 27.124022
32.700000 -15.062500 27.124022
32.500000 -14.433594 27.124022
32.400000 -13.554688 27.124022
32.200000 -13.300781 27.124022
32.000000 -12.546875 27.124022
32.100000 -11.792969 27.124022
32.200000 -10.914062 27.124022
32.400000 -10.160156 27.124022
26.400000 -44.824219 27.263995
26.600000 -44.941895 27.263995
29.700000 -42.655273 27.263995
30.000000 -42.147949 27.263995
30.400000 -41.015625 27.263995
30.700000 -40.757812 27.263995
31.100000 -39.875000 27.263995
35.100000 -28.218750 27.263995
35.100000 -27.585937 27.263995
35.400000 -23.078125 27.263995
34.300000 -21.179688 27.263995
34.100000 -23.921875 27.263995
34.000000 -23.789062 27.263995
33.500000 -22.406250 27.263995
33.000000 -22.273437 27.263995
32.900000 -21.515625 27.263995
32.700000 -21.013184 27.263995
32.800000 -20.635742 27.263995
33.100000 -19.508301 27.263995
33.000000 -18.880859 27.263995
33.100000 -18.628418 27.263995
33.200000 -17.875977 27.263995
33.100000 -15.493652 27.263995
32.800000 -15.241211 27.263995
32.600000 -14.613770 27.263995
32.400000 -13.861328 27.263995
32.200000 -12.983887 27.263995
32.100000 -12.731445 27.263995
32.100000 -12.229004 27.263995
32.100000 -11.226562 27.263995
32.300000 -10.599121 27.263995
32.700000 -10.471680 27.263995
26.900000 -43.949219 27.411023
29.600000 -42.304688 27.411023
29.900000 -42.299805 27.411023
30.300000 -41.794922 27.411023
30.600000 -41.040039 27.411023
35.000000 -24.539063 27.411023
35.100000 -27.782715 27.411023
35.300000 -27.151367 27.411023
34.900000 -25.763672 27.411023
34.300000 -25.382324 27.411023
34.200000 -20.875977 27.411023
33.900000 -23.994629 27.411023
33.400000 -23.363281 27.411023
32.900000 -22.606934 27.411023
32.700000 -21.725586 27.411023
32.900000 -19.956543 27.411023
33.000000 -19.575195 27.411023
33.000000 -19.068848 27.411023
33.100000 -17.937500 27.411023
33.100000 -16.296387 27.411023
32.900000 -15.166016 27.411023
32.700000 -15.035645 27.411023
32.500000 -14.030273 27.411023
32.300000 -13.649902 27.411023
32.100000 -13.019531 27.411023
32.000000 -12.639160 27.411023
32.100000 -11.883789 27.411023
32.200000 -10.753418 27.411023
32.400000 -10.748047 27.411023
29.700000 -42.888672 27.559023
30.100000 -41.632812 27.559023
30.400000 -41.501953 27.559023
30.800000 -40.746094 27.559023
31.100000 -40.115234 27.559023
35.000000 -24.237305 27.559023
35.100000 -27.480469 27.559023
35.400000 -26.723633 27.559023
34.200000 -25.459961 27.559023
34.200000 -21.203125 27.559023
34.000000 -23.946289 27.559023
33.900000 -23.314453 27.559023
32.600000 -22.050781 27.559023
32.700000 -21.293945 27.559023
33.000000 -19.648438 27.559023
32.900000 -18.766602 27.559023
32.900000 -18.134766 27.559023
33.100000 -17.627930 27.559023
33.000000 -15.732422 27.559023
32.800000 -15.475586 27.559023
32.500000 -14.218750 27.559023
32.400000 -13.465332 27.559023
32.200000 -13.336914 27.559023
32.100000 -12.958496 27.559023
32.000000 -11.830078 27.559023
32.100000 -11.451660 27.559023
32.300000 -11.073242 27.559023
32.700000 -10.194824 27.559023
29.500000 -42.496094 27.704026
29.800000 -41.867188 27.704026
30.200000 -41.738281 27.704026
30.600000 -41.109375 27.704026
30.900000 -40.855469 27.704026
31.400000 -39.726562 27.704026
34.900000 -28.375488 27.704026
35.000000 -27.866211 27.704026
35.200000 -23.481934 27.704026
34.200000 -25.204102 27.704026
34.000000 -20.944824 27.704026
33.700000 -24.185547 27.704026
33.300000 -23.551270 27.704026
32.700000 -22.416992 27.704026
32.500000 -22.032715 27.704026
32.800000 -19.754883 27.704026
32.800000 -19.245605 27.704026
32.700000 -19.111328 27.704026
33.000000 -18.352051 27.704026
33.100000 -17.217773 27.704026
33.300000 -16.708496 27.704026
33.300000 -16.574219 27.704026
32.900000 -15.314941 27.704026
32.600000 -14.680664 27.704026
32.500000 -14.171387 27.704026
32.300000 -13.287109 27.704026
32.100000 -12.777832 27.704026
32.000000 -12.393555 27.704026
32.100000 -11.509277 27.704026
32.200000 -11.000000 27.704026
32.400000 -10.372070 27.704026
26.500000 -44.587402 27.854023
26.800000 -43.955078 27.854023
29.600000 -42.800781 27.854023
29.900000 -42.543457 27.854023
30.300000 -41.911133 27.854023
30.600000 -41.528809 27.854023
35.100000 -28.375000 27.854023
35.100000 -23.994141 27.854023
35.300000 -23.238281 27.854023
34.200000 -21.470703 27.854023
34.000000 -24.339844 27.854023
33.700000 -23.708984 27.854023
33.100000 -23.078125 27.854023
32.500000 -22.447266 27.854023
32.500000 -22.066406 27.854023
32.600000 -21.310547 27.854023
32.800000 -20.804688 27.854023
32.800000 -19.923828 27.854023
32.600000 -19.417969 27.854023
32.700000 -18.662109 27.854023
32.800000 -17.781250 27.854023
33.000000 -17.525391 27.854023
33.300000 -16.769531 27.854023
33.300000 -16.263672 27.854023
32.800000 -15.257812 27.854023
32.600000 -14.876953 27.854023
32.400000 -13.871094 27.854023
32.200000 -13.615234 27.854023
32.000000 -12.609375 27.854023
32.000000 -11.853516 27.854023
32.000000 -11.847656 27.854023
32.100000 -10.966797 27.854023
32.400000 -10.585938 27.854023
26.500000 -44.978516 28.000029
29.500000 -42.452637 28.000029
29.900000 -42.322266 28.000029
30.200000 -41.316895 28.000029
30.600000 -41.436523 28.000029
30.900000 -40.556152 28.000029
31.400000 -39.925781 28.000029
34.900000 -28.323730 28.000029
35.000000 -27.693359 28.000029
35.200000 -27.187988 28.000029
34.100000 -25.296875 28.000029
34.000000 -24.418457 28.000029
33.600000 -24.165039 28.000029
33.500000 -19.661621 28.000029
32.400000 -21.904785 28.000029
32.500000 -21.026367 28.000029
32.500000 -20.397949 28.000029
32.400000 -19.644531 28.000029
32.400000 -19.516113 28.000029
32.500000 -18.762695 28.000029
32.700000 -18.134277 28.000029
33.000000 -17.380859 28.000029
33.100000 -16.627441 28.000029
33.100000 -16.624023 28.000029
32.800000 -15.370605 28.000029
32.600000 -15.117188 28.000029
32.400000 -14.488770 28.000029
32.200000 -13.235352 28.000029
32.100000 -12.731934 28.000029
31.900000 -12.103516 28.000029
32.000000 -11.975098 28.000029
32.100000 -10.721680 28.000029
32.300000 -10.718262 28.000029
26.400000 -44.825684 28.138020
29.800000 -42.662598 28.138020
30.100000 -42.156250 28.138020
30.500000 -41.149902 28.138020
30.800000 -40.518555 28.138020
31.200000 -40.512207 28.138020
35.000000 -28.135254 28.138020
35.100000 -27.253906 28.138020
34.600000 -22.366211 28.138020
34.000000 -25.359863 28.138020
33.900000 -24.478516 28.138020
33.600000 -23.972168 28.138020
33.500000 -23.715820 28.138020
32.300000 -21.953125 28.138020
32.300000 -21.449707 28.138020
32.400000 -20.696289 28.138020
32.300000 -20.442871 28.138020
32.300000 -19.064453 28.138020
32.300000 -19.186035 28.138020
32.500000 -17.932617 28.138020
32.800000 -17.929199 28.138020
32.700000 -16.675781 28.138020
32.800000 -16.172363 28.138020
33.000000 -16.168945 28.138020
32.700000 -15.290527 28.138020
32.500000 -14.537109 28.138020
32.300000 -13.783691 28.138020
32.100000 -12.780273 28.138020
31.900000 -12.651855 28.138020
31.900000 -11.898437 28.138020
32.000000 -11.145020 28.138020
32.200000 -11.016602 28.138020
32.600000 -10.388184 28.138020
26.500000 -44.671875 28.289028
29.500000 -42.652344 28.289028
29.800000 -42.398438 28.289028
30.200000 -41.894531 28.289028
30.600000 -40.890625 28.289028
34.700000 -28.283691 28.289028
35.000000 -24.153320 28.289028
35.200000 -27.147949 28.289028
34.000000 -25.506836 28.289028
33.800000 -24.501465 28.289028
33.400000 -23.871094 28.289028
33.400000 -23.240723 28.289028
32.300000 -21.729980 28.289028
32.200000 -21.349609 28.289028
32.200000 -20.719238 28.289028
32.200000 -20.088867 28.289028
32.200000 -19.083496 28.289028
32.300000 -19.078125 28.289028
32.500000 -18.449219 28.289028
32.800000 -17.320312 28.289028
33.000000 -17.191406 28.289028
32.900000 -16.062500 28.289028
32.900000 -15.933594 28.289028
32.500000 -15.179687 28.289028
32.100000 -14.425781 28.289028
32.000000 -13.921875 28.289028
32.000000 -12.792969 28.289028
31.900000 -12.289062 28.289028
31.900000 -12.160156 28.289028
32.000000 -10.906250 28.289028
32.200000 -10.527344 28.289028
26.800000 -44.593750 28.434022
29.500000 -42.949219 28.434022
29.900000 -41.944336 28.434022
30.200000 -41.814453 28.434022
30.600000 -41.059570 28.434022
34.900000 -28.457031 28.434022
34.900000 -27.577148 28.434022
35.100000 -27.322266 28.434022
34.000000 -25.812500 28.434022
33.900000 -25.057617 28.434022
33.800000 -24.677734 28.434022
33.400000 -24.047852 28.434022
33.400000 -23.417969 28.434022
32.200000 -22.033203 28.434022
32.200000 -20.903320 28.434022
32.100000 -20.148438 28.434022
32.100000 -19.643555 28.434022
32.100000 -19.638672 28.434022
32.200000 -18.383789 28.434022
32.500000 -18.253906 28.434022
32.700000 -17.374023 28.434022
32.900000 -16.619141 28.434022
32.900000 -15.989258 28.434022
32.700000 -15.484375 28.434022
32.300000 -14.981445 28.434022
32.000000 -14.353516 28.434022
32.000000 -13.600586 28.434022
31.900000 -12.597656 28.434022
31.800000 -11.969727 28.434022
31.800000 -11.341797 28.434022
31.900000 -11.338867 28.434022
32.300000 -10.585938 28.434022
26.600000 -44.523438 28.580023
26.900000 -44.394531 28.580023
29.600000 -42.628906 28.580023
29.900000 -42.375000 28.580023
30.300000 -41.371094 28.580023
30.600000 -40.867188 28.580023
35.100000 -28.143066 28.580023
34.900000 -23.886719 28.580023
34.400000 -26.249023 28.580023
33.900000 -25.867676 28.580023
33.900000 -25.361328 28.580023
33.700000 -24.104980 28.580023
33.300000 -24.098633 28.580023
33.300000 -19.592285 28.580023
32.100000 -21.329590 28.580023
32.100000 -20.823242 28.580023
32.100000 -20.316895 28.580023
32.000000 -20.060547 28.580023
32.100000 -19.304199 28.580023
32.200000 -18.172852 28.580023
32.400000 -17.791504 28.580023
32.700000 -17.285156 28.580023
32.900000 -16.653809 28.580023
32.900000 -16.272461 28.580023
32.500000 -15.141113 28.580023
32.100000 -14.634766 28.580023
32.000000 -13.878418 28.580023
31.900000 -13.372070 28.580023
31.800000 -12.740723 28.580023
31.700000 -11.859375 28.580023
31.700000 -11.856445 28.580023
31.900000 -10.603516 28.580023
32.300000 -10.600586 28.580023
26.400000 -44.863281 28.730021
26.700000 -44.481445 28.730021
29.700000 -42.697266 28.730021
30.100000 -42.065430 28.730021
30.400000 -41.183594 28.730021
30.800000 -41.051758 28.730021
31.100000 -40.169922 28.730021
34.900000 -24.160156 28.730021
35.000000 -27.529297 28.730021
33.900000 -22.392578 28.730021
33.800000 -25.511719 28.730021
33.700000 -24.630859 28.730021
33.500000 -23.875000 28.730021
33.200000 -23.244141 28.730021
32.700000 -22.488281 28.730021
32.200000 -21.857422 28.730021
32.000000 -21.351562 28.730021
32.000000 -20.345703 28.730021
31.900000 -19.839844 28.730021
32.000000 -19.458984 28.730021
32.100000 -18.703125 28.730021
32.300000 -18.197266 28.730021
32.600000 -17.441406 28.730021
32.600000 -17.060547 28.730021
32.700000 -16.554688 28.730021
32.700000 -15.798828 28.730021
32.200000 -15.167969 28.730021
32.000000 -14.287109 28.730021
31.900000 -13.656250 28.730021
31.700000 -13.150391 28.730021
31.700000 -12.519531 28.730021
31.800000 -12.138672 28.730021
31.800000 -11.132812 28.730021
32.100000 -10.751953 28.730021
26.600000 -44.428223 28.875023
29.600000 -42.148438 28.875023
30.000000 -41.642578 28.875023
30.300000 -41.636719 28.875023
30.700000 -40.630859 28.875023
31.000000 -40.625000 28.875023
35.000000 -23.876953 28.875023
33.800000 -25.484375 28.875023
33.600000 -24.603516 28.875023
33.400000 -24.222656 28.875023
33.100000 -23.841797 28.875023
33.200000 -23.210938 28.875023
32.100000 -21.824219 28.875023
32.000000 -20.693359 28.875023
32.000000 -20.062500 28.875023
32.000000 -19.681641 28.875023
32.000000 -19.300781 28.875023
32.100000 -18.169922 28.875023
32.400000 -17.664062 28.875023
32.600000 -17.033203 28.875023
32.900000 -16.777344 28.875023
32.700000 -16.146484 28.875023
32.300000 -14.890625 28.875023
32.000000 -14.259766 28.875023
31.900000 -14.253906 28.875023
31.700000 -13.373047 28.875023
31.600000 -12.867187 28.875023
31.600000 -12.111328 28.875023
31.700000 -11.605469 28.875023
26.500000 -44.874023 29.016025
29.500000 -43.080078 29.016025
29.900000 -41.946289 29.016025
30.200000 -41.312500 29.016025
30.600000 -40.928711 29.016025
35.100000 -24.619141 29.016025
35.000000 -27.735352 29.016025
33.800000 -25.708984 29.016025
33.600000 -25.325195 29.016025
33.400000 -24.066406 29.016025
33.200000 -23.807617 29.016025
33.100000 -23.048828 29.016025
32.800000 -22.540039 29.016025
32.300000 -21.781250 29.016025
32.100000 -20.902832 29.016025
32.000000 -20.274414 29.016025
32.000000 -19.895996 29.016025
32.000000 -19.267578 29.016025
32.200000 -18.389160 29.016025
32.300000 -17.635742 29.016025
32.600000 -17.257324 29.016025
32.700000 -16.753906 29.016025
32.700000 -16.250488 29.016025
32.500000 -15.747070 29.016025
32.100000 -14.368652 29.016025
31.800000 -13.740234 29.016025
31.700000 -13.236816 29.016025
31.600000 -12.608398 29.016025
31.600000 -12.479980 29.016025
31.700000 -11.726562 29.016025
31.900000 -11.348145 29.016025
32.300000 -10.719727 29.016025
26.400000 -44.763672 29.166035
26.700000 -44.632812 29.166035
29.700000 -42.228516 29.166035
30.000000 -42.097656 29.166035
30.400000 -41.341797 29.166035
30.700000 -40.835938 29.166035
31.100000 -40.580078 29.166035
34.900000 -28.179687 29.166035
33.700000 -25.906250 29.166035
33.600000 -25.648438 29.166035
33.500000 -25.140625 29.166035
33.300000 -24.507813 29.166035
33.100000 -23.250000 29.166035
33.000000 -22.867188 29.166035
32.700000 -22.109375 29.166035
32.300000 -21.851563 29.166035
32.100000 -20.593750 29.166035
32.000000 -20.210938 29.166035
31.900000 -19.703125 29.166035
32.000000 -18.570312 29.166035
32.200000 -18.687500 29.166035
32.400000 -17.681641 29.166035
32.600000 -17.050781 29.166035
32.700000 -16.669922 29.166035
32.700000 -15.664062 29.166035
32.200000 -15.408203 29.166035
31.800000 -14.902344 29.166035
31.600000 -14.146484 29.166035
31.500000 -13.140625 29.166035
31.500000 -12.509766 29.166035
31.600000 -11.878906 29.166035
31.600000 -10.998047 29.166035
31.900000 -10.617188 29.166035
26.500000 -44.815430 29.311023
29.500000 -42.913574 29.311023
29.800000 -41.908203 29.311023
30.200000 -41.402832 29.311023
30.600000 -40.772461 29.311023
30.800000 -40.267090 29.311023
31.300000 -40.136719 29.311023
35.000000 -28.404297 29.311023
33.600000 -26.130859 29.311023
33.500000 -25.000000 29.311023
33.400000 -24.619141 29.311023
33.200000 -23.738281 29.311023
33.000000 -23.107422 29.311023
32.900000 -22.601562 29.311023
32.800000 -22.095703 29.311023
32.400000 -21.214844 29.311023
32.100000 -20.583984 29.311023
32.000000 -20.328125 29.311023
32.100000 -19.572266 29.311023
32.100000 -18.316406 29.311023
32.200000 -18.060547 29.311023
32.500000 -17.804688 29.311023
32.400000 -16.423828 29.311023
32.500000 -16.542969 29.311023
32.300000 -15.412109 29.311023
31.800000 -14.531250 29.311023
31.600000 -14.153320 29.311023
31.500000 -13.400391 29.311023
31.400000 -13.022461 29.311023
31.400000 -12.519531 29.311023
31.500000 -11.641602 29.311023
31.700000 -11.138672 29.311023
32.100000 -10.760742 29.311023
29.500000 -42.854492 29.457023
29.800000 -42.353027 29.457023
30.200000 -41.726562 29.457023
30.600000 -41.475098 29.457023
35.100000 -28.420898 29.457023
33.500000 -25.774414 29.457023
33.500000 -25.269043 29.457023
33.300000 -24.763672 29.457023
33.100000 -23.633301 29.457023
33.000000 -23.002930 29.457023
32.900000 -22.622559 29.457023
32.800000 -21.617188 29.457023
32.600000 -21.111816 29.457023
32.200000 -20.731445 29.457023
32.000000 -19.976074 29.457023
32.000000 -19.470703 29.457023
32.000000 -18.715332 29.457023
32.200000 -18.209961 29.457023
32.500000 -17.329590 29.457023
32.400000 -16.574219 29.457023
32.400000 -15.943848 29.457023
31.600000 -14.433105 29.457023
31.500000 -14.052734 29.457023
31.400000 -13.422363 29.457023
31.400000 -13.041992 29.457023
31.400000 -12.036621 29.457023
31.500000 -11.406250 29.457023
31.700000 -10.777832 29.457023
32.000000 -10.899414 29.457023
29.500000 -42.558594 29.604023
29.800000 -42.429687 29.604023
30.200000 -41.550781 29.604023
30.600000 -40.796875 29.604023
30.800000 -40.917969 29.604023
31.300000 -39.914062 29.604023
34.900000 -28.590820 29.604023
33.500000 -25.579102 29.604023
33.400000 -25.326172 29.604023
33.300000 -24.698242 29.604023
33.100000 -23.820312 29.604023
33.000000 -23.067383 29.604023
32.900000 -22.689453 29.604023
32.700000 -21.811523 29.604023
32.500000 -21.058594 29.604023
32.300000 -20.930664 29.604023
32.100000 -20.427734 29.604023
32.100000 -19.799805 29.604023
32.000000 -19.046875 29.604023
32.200000 -17.918945 29.604023
32.400000 -18.041016 29.604023
32.500000 -17.288086 29.604023
32.500000 -16.660156 29.604023
32.100000 -15.907227 29.604023
31.500000 -15.154297 29.604023
31.300000 -13.901367 29.604023
31.300000 -13.898438 29.604023
31.200000 -13.270508 29.604023
31.200000 -12.267578 29.604023
31.300000 -11.514648 29.604023
31.500000 -11.511719 29.604023
31.900000 -10.258789 29.604023
29.500000 -43.240234 29.752028
29.800000 -42.237793 29.752028
30.200000 -41.610352 29.752028
30.600000 -41.357910 29.752028
30.800000 -40.355469 29.752028
31.300000 -40.228027 29.752028
35.200000 -28.306641 29.752028
33.500000 -25.796875 29.752028
33.400000 -25.540039 29.752028
33.300000 -24.283203 29.752028
33.100000 -24.151367 29.752028
33.000000 -23.269531 29.752028
32.900000 -22.762695 29.752028
32.600000 -22.130859 29.752028
32.500000 -21.624023 29.752028
32.300000 -20.367188 29.752028
32.100000 -19.985352 29.752028
32.000000 -19.728516 29.752028
32.100000 -18.971680 29.752028
32.100000 -17.839844 29.752028
32.400000 -17.583008 29.752028
32.400000 -16.951172 29.752028
32.000000 -15.819336 29.752028
31.600000 -15.312500 29.752028
31.300000 -15.055664 29.752028
31.200000 -14.298828 29.752028
31.100000 -13.541992 29.752028
31.100000 -12.660156 29.752028
31.100000 -12.028320 29.752028
31.300000 -11.396484 29.752028
31.600000 -11.139648 29.752028
32.000000 -10.757812 29.752028
29.600000 -42.489746 29.891021
30.000000 -41.859375 29.891021
30.300000 -41.353027 29.891021
30.700000 -40.721680 29.891021
31.000000 -40.215332 29.891021
34.500000 -28.844727 29.891021
33.400000 -22.569336 29.891021
33.400000 -25.437988 29.891021
33.300000 -24.806641 29.891021
33.100000 -24.425293 29.891021
33.000000 -23.418945 29.891021
32.900000 -23.037598 29.891021
32.600000 -21.906250 29.891021
32.500000 -21.524414 29.891021
32.400000 -21.267578 29.891021
32.200000 -20.385742 29.891021
32.100000 -19.753906 29.891021
32.100000 -19.122070 29.891021
32.100000 -18.115234 29.891021
32.300000 -17.858398 29.891021
32.300000 -17.476563 29.891021
32.100000 -16.344727 29.891021
31.700000 -15.962891 29.891021
31.300000 -15.206055 29.891021
31.100000 -14.074219 29.891021
31.000000 -13.442383 29.891021
30.900000 -13.435547 29.891021
31.000000 -12.303711 29.891021
31.100000 -12.171875 29.891021
31.300000 -11.415039 29.891021
31.700000 -10.533203 29.891021
26.900000 -44.653320 30.039022
29.600000 -43.125977 30.039022
29.900000 -42.244141 30.039022
30.300000 -41.737305 30.039022
30.600000 -40.980469 30.039022
34.300000 -28.820313 30.039022
33.400000 -26.037109 30.039022
33.400000 -25.653809 30.039022
33.300000 -24.645508 30.039022
33.100000 -24.512207 30.039022
33.000000 -23.878906 30.039022
32.800000 -22.995605 30.039022
32.700000 -22.612305 30.039022
32.500000 -21.854004 30.039022
32.400000 -21.095703 30.039022
32.200000 -19.962402 30.039022
32.100000 -19.579102 30.039022
32.000000 -19.070801 30.039022
32.100000 -18.437500 30.039022
32.300000 -17.681641 30.039022
32.300000 -17.300781 30.039022
31.900000 -16.669922 30.039022
31.600000 -15.789062 30.039022
31.200000 -15.283203 30.039022
31.000000 -14.527344 30.039022
30.900000 -13.896484 30.039022
30.900000 -12.765625 30.039022
30.900000 -12.384766 30.039022
31.100000 -12.378906 30.039022
31.200000 -11.248047 30.039022
31.500000 -11.117188 30.039022
29.500000 -42.488770 30.186020
29.900000 -41.857422 30.186020
30.200000 -41.726074 30.186020
30.600000 -41.469727 30.186020
30.900000 -40.588379 30.186020
31.400000 -39.832031 30.186020
34.900000 -24.706055 30.186020
33.400000 -26.185547 30.186020
33.400000 -25.553711 30.186020
33.300000 -25.171875 30.186020
33.100000 -24.540039 30.186020
33.000000 -23.408203 30.186020
32.800000 -22.776367 30.186020
32.700000 -22.144531 30.186020
32.600000 -21.512695 30.186020
32.400000 -21.255859 30.186020
32.200000 -20.374023 30.186020
32.100000 -19.742188 30.186020
32.000000 -18.985352 30.186020
32.100000 -18.978516 30.186020
32.200000 -18.221680 30.186020
32.200000 -16.964844 30.186020
31.900000 -16.708008 30.186020
31.600000 -15.826172 30.186020
31.100000 -14.944336 30.186020
31.000000 -14.187500 30.186020
30.800000 -14.309570 30.186020
30.800000 -13.181641 30.186020
30.800000 -12.678711 30.186020
30.900000 -11.800781 30.186020
31.100000 -11.172852 30.186020
26.700000 -44.436035 30.334029
29.800000 -42.659180 30.334029
30.100000 -41.528809 30.334029
30.500000 -41.148437 30.334029
30.800000 -41.143066 30.334029
31.200000 -39.762695 30.334029
35.100000 -28.405762 30.334029
33.400000 -26.130371 30.334029
33.300000 -24.999023 30.334029
33.200000 -24.742676 30.334029
33.100000 -24.111328 30.334029
32.900000 -22.979980 30.334029
32.700000 -22.848633 30.334029
32.600000 -22.092285 30.334029
32.500000 -21.210938 30.334029
32.300000 -20.329590 30.334029
32.100000 -20.198242 30.334029
32.100000 -19.691895 30.334029
32.100000 -19.060547 30.334029
32.100000 -18.179199 30.334029
32.300000 -17.797852 30.334029
32.100000 -16.916504 30.334029
31.500000 -16.535156 30.334029
31.100000 -15.778809 30.334029
30.900000 -14.647461 30.334029
30.700000 -14.516113 30.334029
30.700000 -13.509766 30.334029
30.700000 -12.503418 30.334029
30.700000 -12.247070 30.334029
30.900000 -11.365723 30.334029
31.200000 -11.359375 30.334029
31.700000 -10.981934 30.334029
26.400000 -44.691406 30.480025
26.700000 -44.685547 30.480025
29.700000 -42.906250 30.480025
30.000000 -42.275391 30.480025
30.400000 -41.644531 30.480025
30.700000 -40.763672 30.480025
31.100000 -40.007812 30.480025
34.600000 -25.021484 30.480025
33.400000 -26.255371 30.480025
33.300000 -25.126953 30.480025
33.200000 -24.748535 30.480025
33.100000 -24.245117 30.480025
32.900000 -23.241699 30.480025
32.800000 -22.613281 30.480025
32.600000 -22.609863 30.480025
32.500000 -21.231445 30.480025
32.300000 -20.853027 30.480025
32.200000 -19.974609 30.480025
32.100000 -19.721191 30.480025
32.000000 -18.717773 30.480025
31.700000 -16.707520 30.480025
31.300000 -16.204102 30.480025
31.100000 -15.700684 30.480025
30.700000 -14.947266 30.480025
30.500000 -14.568848 30.480025
30.500000 -13.440430 30.480025
30.600000 -13.437012 30.480025
30.600000 -12.308594 30.480025
30.800000 -11.430176 30.480025
31.000000 -11.051758 30.480025
31.500000 -11.048340 30.480025
26.700000 -44.651367 30.620025
29.700000 -41.998047 30.620025
30.100000 -41.617188 30.620025
30.400000 -40.986328 30.620025
30.800000 -40.480469 30.620025
31.100000 -40.349609 30.620025
34.600000 -28.738281 30.620025
33.300000 -26.339844 30.620025
33.300000 -25.333984 30.620025
33.100000 -24.453125 30.620025
33.000000 -24.322266 30.620025
32.900000 -23.441406 30.620025
32.700000 -22.935547 30.620025
32.600000 -22.429688 30.620025
32.500000 -21.673828 30.620025
32.300000 -20.917969 30.620025
32.200000 -20.162109 30.620025
32.100000 -19.281250 30.620025
32.100000 -18.650391 30.620025
32.100000 -18.394531 30.620025
30.900000 -16.507812 30.620025
30.500000 -16.126953 30.620025
30.200000 -15.746094 30.620025
30.100000 -14.490234 30.620025
30.100000 -13.734375 30.620025
30.200000 -13.978516 30.620025
30.400000 -12.847656 30.620025
30.600000 -12.466797 30.620025
30.700000 -11.835937 30.620025
31.000000 -11.580078 30.620025
31.500000 -10.449219 30.620025
29.600000 -42.150391 30.769022
30.000000 -41.895508 30.769022
30.300000 -41.390625 30.769022
30.700000 -40.760742 30.769022
33.300000 -26.268555 30.769022
33.300000 -25.638672 30.769022
33.100000 -24.758789 30.769022
33.000000 -24.253906 30.769022
32.900000 -23.374023 30.769022
32.700000 -23.244141 30.769022
32.600000 -22.114258 30.769022
32.500000 -21.359375 30.769022
32.400000 -20.853516 30.769022
32.200000 -20.597656 30.769022
32.100000 -19.966797 30.769022
32.000000 -19.210938 30.769022
31.900000 -18.580078 30.769022
31.600000 -18.074219 30.769022
30.300000 -16.062500 30.769022
30.000000 -15.681641 30.769022
29.900000 -14.800781 30.769022
29.800000 -14.044922 30.769022
30.000000 -13.789062 30.769022
30.200000 -12.783203 30.769022
30.400000 -12.777344 30.769022
30.600000 -11.896484 30.769022
30.800000 -11.265625 30.769022
31.300000 -10.634766 30.769022
29.500000 -42.489258 30.914023
29.800000 -42.611328 30.914023
30.200000 -41.483398 30.914023
30.500000 -41.605469 30.914023
30.800000 -40.477539 30.914023
31.300000 -39.849609 30.914023
35.000000 -24.835938 30.914023
33.300000 -25.804688 30.914023
33.200000 -25.296875 30.914023
33.000000 -24.414062 30.914023
32.900000 -24.156250 30.914023
32.800000 -23.398438 30.914023
32.600000 -22.265625 30.914023
32.500000 -21.632812 30.914023
32.300000 -21.000000 30.914023
32.200000 -20.742187 30.914023
32.100000 -19.609375 30.914023
32.000000 -19.726562 30.914023
30.200000 -16.952637 30.914023
30.000000 -15.822266 30.914023
29.800000 -14.691895 30.914023
29.700000 -14.686523 30.914023
29.700000 -13.556152 30.914023
29.900000 -13.425781 30.914023
30.300000 -13.045410 30.914023
30.500000 -12.290039 30.914023
30.700000 -11.284668 30.914023
29.500000 -42.798828 31.064019
29.800000 -42.668457 31.064019
30.200000 -41.913086 31.064019
30.500000 -41.532715 31.064019
35.100000 -28.669922 31.064019
33.200000 -26.528809 31.064019
33.200000 -26.148438 31.064019
33.100000 -25.393066 31.064019
32.900000 -24.762695 31.064019
32.800000 -24.132324 31.064019
32.600000 -23.376953 31.064019
32.500000 -22.496582 31.064019
32.400000 -21.616211 31.064019
32.300000 -21.110840 31.064019
32.200000 -20.355469 31.064019
32.100000 -19.975098 31.064019
32.000000 -19.344727 31.064019
31.900000 -19.089355 31.064019
32.000000 -18.208984 31.064019
30.200000 -16.948242 31.064019
30.000000 -15.942871 31.064019
29.800000 -14.812500 31.064019
29.700000 -14.811035 31.064019
29.700000 -14.059570 31.064019
29.900000 -13.183105 31.064019
30.200000 -13.056641 31.064019
30.500000 -12.055176 31.064019
30.700000 -11.803711 31.064019
26.200000 -44.987305 31.210994
26.800000 -44.852539 31.210994
29.500000 -43.083008 31.210994
29.900000 -41.953125 31.210994
30.200000 -41.323242 31.210994
30.600000 -40.693359 31.210994
35.300000 -28.583984 31.210994
33.100000 -26.316406 31.210994
33.200000 -25.810547 31.210994
33.100000 -25.304688 31.210994
32.900000 -24.423828 31.210994
32.800000 -23.792969 31.210994
32.600000 -23.162109 31.210994
32.500000 -22.656250 31.210994
32.400000 -21.775391 31.210994
32.200000 -21.019531 31.210994
32.100000 -20.263672 31.210994
32.000000 -19.882812 31.210994
31.900000 -19.126953 31.210994
31.800000 -18.746094 31.210994
31.900000 -17.865234 31.210994
30.200000 -16.728516 31.210994
30.000000 -15.972656 31.210994
29.800000 -15.216797 31.210994
29.700000 -14.835938 31.210994
29.800000 -13.830078 31.210994
30.000000 -13.574219 31.210994
30.300000 -13.068359 31.210994
30.500000 -12.312500 31.210994
30.700000 -11.187012 31.210994
31.100000 -10.936523 31.210994
26.500000 -44.944336 31.356025
29.500000 -42.419922 31.356025
29.800000 -42.165039 31.356025
30.200000 -41.410156 31.356025
30.500000 -40.780273 31.356025
30.800000 -40.775391 31.356025
31.300000 -39.895508 31.356025
35.000000 -28.556641 31.356025
33.100000 -26.172852 31.356025
33.200000 -26.044922 31.356025
33.100000 -25.291992 31.356025
32.900000 -24.289062 31.356025
32.800000 -23.911133 31.356025
32.600000 -23.533203 31.356025
32.400000 -22.405273 31.356025
32.400000 -22.277344 31.356025
32.200000 -20.899414 31.356025
32.100000 -20.521484 31.356025
32.000000 -19.768555 31.356025
32.000000 -19.515625 31.356025
31.900000 -18.387695 31.356025
30.300000 -16.125977 31.356025
30.000000 -14.748047 31.356025
29.900000 -14.495117 31.356025
30.000000 -13.992188 31.356025
30.100000 -12.989258 31.356025
30.200000 -12.986328 31.356025
30.400000 -12.483398 31.356025
30.600000 -11.230469 31.356025
26.300000 -44.851074 31.507022
26.900000 -44.337891 31.507022
29.600000 -42.439453 31.507022
29.900000 -42.558594 31.507022
30.300000 -41.427734 31.507022
30.600000 -40.921875 31.507022
33.200000 -26.281250 31.507022
33.100000 -25.651367 31.507022
32.900000 -25.271484 31.507022
32.800000 -24.391602 31.507022
32.600000 -23.386719 31.507022
32.400000 -23.131836 31.507022
32.400000 -22.626953 31.507022
32.300000 -21.747070 31.507022
32.100000 -20.867188 31.507022
31.900000 -20.237305 31.507022
31.900000 -19.607422 31.507022
31.900000 -18.727539 31.507022
31.800000 -18.347656 31.507022
30.600000 -15.328125 31.507022
30.400000 -14.948242 31.507022
30.300000 -13.943359 31.507022
30.300000 -14.063477 31.507022
30.300000 -13.058594 31.507022
30.300000 -12.303711 31.507022
30.500000 -11.798828 31.507022
30.800000 -11.043945 31.507022
31.200000 -10.664063 31.507022
29.700000 -42.890625 31.643023
30.100000 -41.633789 31.643023
30.400000 -41.376953 31.643023
30.800000 -40.870117 31.643023
31.100000 -40.363281 31.643023
34.700000 -28.483398 31.643023
33.000000 -25.706055 31.643023
32.900000 -25.074219 31.643023
32.800000 -24.442383 31.643023
32.700000 -24.310547 31.643023
32.500000 -23.053711 31.643023
32.400000 -22.546875 31.643023
32.300000 -21.793457 31.643023
32.100000 -21.290039 31.643023
32.000000 -20.911621 31.643023
31.900000 -20.158203 31.643023
31.800000 -19.529785 31.643023
31.900000 -18.776367 31.643023
31.800000 -18.272949 31.643023
31.800000 -17.769531 31.643023
31.500000 -16.766113 31.643023
30.900000 -16.512695 31.643023
30.600000 -15.634277 31.643023
30.400000 -14.880859 31.643023
30.300000 -14.502441 31.643023
30.300000 -13.499023 31.643023
30.300000 -13.370605 31.643023
30.400000 -11.992187 31.643023
30.500000 -11.613770 31.643023
30.900000 -11.360352 31.643023
31.500000 -10.731934 31.643023
26.500000 -44.818848 31.790031
29.500000 -43.176758 31.790031
29.800000 -42.173340 31.790031
30.200000 -41.919922 31.790031
30.500000 -40.916504 31.790031
30.800000 -41.038086 31.790031
31.300000 -39.909668 31.790031
33.000000 -25.981934 31.790031
33.000000 -25.598633 31.790031
32.900000 -24.840332 31.790031
32.700000 -24.082031 31.790031
32.500000 -23.573730 31.790031
32.400000 -22.815430 31.790031
32.300000 -22.307129 31.790031
32.100000 -21.923828 31.790031
32.000000 -21.415527 31.790031
31.900000 -20.532227 31.790031
31.800000 -19.523926 31.790031
31.800000 -19.390625 31.790031
31.800000 -18.884766 31.790031
31.400000 -16.492188 31.790031
30.800000 -15.486328 31.790031
30.600000 -15.105469 31.790031
30.400000 -14.849609 31.790031
30.300000 -13.718750 31.790031
30.300000 -13.712891 31.790031
30.400000 -12.707031 31.790031
30.500000 -12.451172 31.790031
30.700000 -11.820312 31.790031
31.100000 -11.189453 31.790031
26.600000 -44.835938 31.940023
29.600000 -42.693848 31.940023
30.000000 -41.940430 31.940023
30.300000 -41.312012 31.940023
30.700000 -40.933594 31.940023
34.600000 -25.187500 31.940023
32.900000 -25.906250 31.940023
32.800000 -25.773438 31.940023
32.700000 -24.890625 31.940023
32.600000 -24.382812 31.940023
32.500000 -23.875000 31.940023
32.400000 -22.742188 31.940023
32.200000 -22.234375 31.940023
32.000000 -21.851563 31.940023
31.900000 -21.343750 31.940023
31.800000 -20.085938 31.940023
31.700000 -19.703125 31.940023
31.700000 -19.195313 31.940023
31.800000 -18.437500 31.940023
31.400000 -16.664062 31.940023
30.800000 -15.531250 31.940023
30.500000 -15.402832 31.940023
30.400000 -14.649414 31.940023
30.400000 -13.645996 31.940023
30.300000 -13.017578 31.940023
30.400000 -12.264160 31.940023
30.600000 -11.760742 31.940023
30.800000 -11.132324 31.940023
31.200000 -11.128906 31.940023
29.700000 -42.171875 32.086023
30.000000 -41.916016 32.086023
30.400000 -41.410156 32.086023
30.700000 -40.779297 32.086023
31.100000 -40.523438 32.086023
34.700000 -28.905273 32.086023
32.800000 -26.884766 32.086023
32.900000 -25.627930 32.086023
32.800000 -25.621094 32.086023
32.600000 -24.614258 32.086023
32.500000 -23.857422 32.086023
32.400000 -23.725586 32.086023
32.400000 -23.093750 32.086023
32.100000 -22.211914 32.086023
31.900000 -21.330078 32.086023
31.800000 -20.698242 32.086023
31.700000 -19.941406 32.086023
31.600000 -19.434570 32.086023
31.600000 -18.427734 32.086023
31.700000 -18.545898 32.086023
31.400000 -16.525391 32.086023
30.800000 -15.518555 32.086023
30.600000 -14.886719 32.086023
30.500000 -13.879883 32.086023
30.400000 -13.373047 32.086023
30.400000 -12.741211 32.086023
30.500000 -12.734375 32.086023
30.700000 -11.982422 32.086023
29.800000 -42.695312 32.232030
30.100000 -41.562500 32.232030
30.500000 -41.429688 32.232030
30.800000 -41.046875 32.232030
31.200000 -40.039063 32.232030
32.800000 -26.884277 32.232030
32.800000 -25.754883 32.232030
32.700000 -25.500488 32.232030
32.600000 -24.371094 32.232030
32.400000 -23.866699 32.232030
32.300000 -23.362305 32.232030
32.200000 -22.607910 32.232030
32.000000 -21.978516 32.232030
31.900000 -21.349121 32.232030
31.700000 -20.969727 32.232030
31.500000 -19.715332 32.232030
31.500000 -19.335938 32.232030
31.600000 -18.831543 32.232030
31.700000 -18.202148 32.232030
31.400000 -16.188965 32.232030
30.800000 -15.684570 32.232030
30.600000 -14.430176 32.232030
30.500000 -14.050781 32.232030
30.500000 -13.796387 32.232030
30.500000 -12.541992 32.232030
30.600000 -11.912598 32.232030
30.700000 -11.408203 32.232030
31.100000 -11.278809 32.232030
29.700000 -42.596680 32.380025
30.100000 -41.964355 32.380025
30.400000 -41.332031 32.380025
30.800000 -40.949707 32.380025
31.100000 -40.067383 32.380025
32.800000 -26.281250 32.380025
32.800000 -25.902832 32.380025
32.700000 -25.024414 32.380025
32.600000 -24.770996 32.380025
32.400000 -23.767578 32.380025
32.300000 -23.389160 32.380025
32.200000 -22.510742 32.380025
32.000000 -22.132324 32.380025
31.900000 -21.003906 32.380025
31.600000 -21.000488 32.380025
31.500000 -20.247070 32.380025
31.500000 -18.993652 32.380025
31.600000 -18.740234 32.380025
31.700000 -17.986816 32.380025
31.500000 -16.476562 32.380025
31.100000 -15.598145 32.380025
30.700000 -14.469727 32.380025
30.500000 -13.841309 32.380025
30.500000 -13.462891 32.380025
30.500000 -12.959473 32.380025
30.600000 -12.331055 32.380025
30.700000 -11.452637 32.380025
29.500000 -42.750000 32.519023
29.800000 -42.493652 32.519023
30.200000 -41.362305 32.519023
30.600000 -41.355957 32.519023
34.300000 -28.729004 32.519023
32.800000 -26.328613 32.519023
32.800000 -25.572266 32.519023
32.600000 -24.690918 32.519023
32.500000 -24.434570 32.519023
32.400000 -23.553223 32.519023
32.300000 -23.046875 32.519023
32.200000 -22.670410 32.519023
32.000000 -21.668945 32.519023
31.800000 -21.417480 32.519023
31.400000 -20.166016 32.519023
31.300000 -19.539551 32.519023
31.400000 -19.288086 32.519023
31.500000 -18.911621 32.519023
31.400000 -18.160156 32.519023
31.500000 -17.533691 32.519023
31.900000 -16.532227 32.519023
31.600000 -15.780762 32.519023
31.200000 -15.654297 32.519023
30.800000 -14.902832 32.519023
30.700000 -14.401367 32.519023
30.600000 -13.399902 32.519023
30.600000 -12.523437 32.519023
30.700000 -12.521973 32.519023
31.000000 -11.770508 32.519023
31.300000 -10.894043 32.519023
26.700000 -44.747070 32.667023
29.700000 -42.475098 32.667023
30.100000 -42.095703 32.667023
30.400000 -41.591309 32.667023
30.800000 -40.836914 32.667023
31.100000 -40.082520 32.667023
34.100000 -29.086914 32.667023
34.300000 -24.955078 32.667023
32.800000 -26.809570 32.667023
32.800000 -26.177734 32.667023
32.700000 -25.295898 32.667023
32.500000 -24.789062 32.667023
32.400000 -23.782227 32.667023
32.300000 -23.025391 32.667023
32.200000 -22.393555 32.667023
32.100000 -22.261719 32.667023
31.700000 -21.129883 32.667023
31.400000 -20.748047 32.667023
31.300000 -20.241211 32.667023
31.300000 -19.484375 32.667023
31.400000 -18.354492 32.667023
31.600000 -18.224609 32.667023
31.600000 -15.959961 32.667023
31.300000 -15.330078 32.667023
31.000000 -15.075195 32.667023
30.700000 -14.070313 32.667023
30.700000 -13.940430 32.667023
30.700000 -12.810547 32.667023
30.800000 -12.055664 32.667023
31.000000 -12.175781 32.667023
26.600000 -44.289062 32.814023
29.600000 -42.892090 32.814023
30.000000 -42.387695 32.814023
30.300000 -41.508301 32.814023
30.700000 -41.128906 32.814023
31.000000 -40.499512 32.814023
34.200000 -28.761719 32.814023
32.800000 -26.616211 32.814023
32.900000 -25.859375 32.814023
32.800000 -25.602539 32.814023
32.600000 -24.845703 32.814023
32.500000 -24.088867 32.814023
32.300000 -23.457031 32.814023
32.500000 -23.325195 32.814023
31.400000 -21.061523 32.814023
31.300000 -20.429688 32.814023
31.200000 -20.047852 32.814023
31.200000 -19.666016 32.814023
31.400000 -18.784180 32.814023
31.600000 -18.027344 32.814023
31.700000 -16.381836 32.814023
31.400000 -15.875000 32.814023
31.100000 -15.495605 32.814023
31.000000 -14.241211 32.814023
30.700000 -13.611816 32.814023
30.700000 -13.357422 32.814023
30.800000 -12.478027 32.814023
30.900000 -12.223633 32.814023
26.200000 -44.976074 32.963020
29.500000 -42.574707 32.963020
29.900000 -42.195312 32.963020
30.200000 -42.065918 32.963020
30.600000 -41.061523 32.963020
34.500000 -29.203125 32.963020
34.200000 -28.320312 32.963020
32.800000 -26.171875 32.963020
32.800000 -25.789062 32.963020
32.700000 -24.906250 32.963020
32.500000 -24.398438 32.963020
32.300000 -23.390625 32.963020
32.600000 -23.507812 32.963020
31.300000 -21.867188 32.963020
31.300000 -20.734375 32.963020
31.200000 -20.601563 32.963020
31.200000 -20.093750 32.963020
31.300000 -19.210938 32.963020
31.600000 -18.203125 32.963020
31.800000 -16.679688 32.963020
31.700000 -16.296875 32.963020
31.400000 -15.664062 32.963020
31.200000 -15.031250 32.963020
31.000000 -14.023438 32.963020
30.800000 -13.390625 32.963020
30.800000 -12.632812 32.963020
30.900000 -12.500000 32.963020
31.100000 -11.122559 32.963020
31.500000 -10.870117 32.963020
26.300000 -44.818359 33.108023
29.600000 -42.405273 33.108023
30.000000 -41.773926 33.108023
30.300000 -41.517578 33.108023
30.700000 -41.136230 33.108023
31.000000 -40.504883 33.108023
34.200000 -28.509766 33.108023
34.200000 -24.503906 33.108023
33.100000 -26.617188 33.108023
32.900000 -26.361328 33.108023
32.800000 -25.230469 33.108023
32.800000 -25.099609 33.108023
31.400000 -22.326172 33.108023
31.300000 -21.445312 33.108023
31.300000 -20.564453 33.108023
31.200000 -20.433594 33.108023
31.300000 -19.177734 33.108023
31.400000 -18.796875 33.108023
31.700000 -18.541016 33.108023
31.800000 -16.398438 33.108023
31.600000 -15.892578 33.108023
31.400000 -15.386719 33.108023
31.300000 -14.255859 33.108023
31.000000 -14.000000 33.108023
30.900000 -13.369141 33.108023
30.900000 -12.238281 33.108023
31.000000 -11.857422 33.108023
31.200000 -10.976562 33.108023
31.800000 -10.720703 33.108023
26.400000 -44.958496 33.256023
29.500000 -43.042969 33.256023
29.800000 -42.409180 33.256023
30.100000 -41.650391 33.256023
30.500000 -41.266602 33.256023
30.800000 -40.632812 33.256023
31.200000 -40.249023 33.256023
34.300000 -28.965820 33.256023
34.100000 -28.457031 33.256023
34.300000 -27.948242 33.256023
33.000000 -26.430664 33.256023
33.000000 -25.796875 33.256023
33.000000 -24.917480 33.256023
32.700000 -24.538086 33.256023
32.600000 -23.658691 33.256023
31.500000 -22.399902 33.256023
31.300000 -21.520508 33.256023
31.300000 -20.766113 33.256023
31.300000 -20.636719 33.256023
31.400000 -20.257324 33.256023
31.500000 -19.252930 33.256023
31.700000 -19.123535 33.256023
31.900000 -16.860352 33.256023
31.800000 -15.980957 33.256023
31.600000 -15.851563 33.256023
31.400000 -14.972168 33.256023
31.200000 -14.217773 33.256023
31.000000 -13.588379 33.256023
30.900000 -12.708984 33.256023
31.000000 -12.454590 33.256023
31.100000 -11.450195 33.256023
31.400000 -10.820801 33.256023
29.500000 -42.521484 33.397025
29.800000 -42.640625 33.397025
30.200000 -41.509277 33.397025
30.500000 -40.877930 33.397025
30.800000 -40.746582 33.397025
31.300000 -39.740234 33.397025
34.400000 -29.250977 33.397025
34.100000 -28.244629 33.397025
34.300000 -24.113281 33.397025
33.100000 -26.100586 33.397025
33.100000 -26.094238 33.397025
33.000000 -24.837891 33.397025
31.400000 -22.187500 33.397025
31.400000 -21.558594 33.397025
31.400000 -20.679687 33.397025
31.500000 -20.050781 33.397025
31.600000 -19.671875 33.397025
31.700000 -19.167969 33.397025
31.900000 -18.539062 33.397025
31.900000 -16.777344 33.397025
31.800000 -16.023438 33.397025
31.600000 -15.519531 33.397025
31.400000 -14.640625 33.397025
31.200000 -14.511719 33.397025
31.000000 -13.757813 33.397025
30.900000 -13.003906 33.397025
31.000000 -12.125000 33.397025
31.100000 -11.246094 33.397025
31.500000 -11.242188 33.397025
29.500000 -42.719727 33.545024
29.900000 -41.964355 33.545024
30.200000 -41.708984 33.545024
30.600000 -41.328613 33.545024
30.900000 -40.448242 33.545024
31.400000 -39.942871 33.545024
34.100000 -28.837891 33.545024
34.100000 -28.457031 33.545024
34.300000 -27.701172 33.545024
33.200000 -26.564453 33.545024
33.200000 -26.058594 33.545024
33.000000 -24.677734 33.545024
31.600000 -22.154297 33.545024
31.600000 -21.523438 33.545024
31.700000 -21.392578 33.545024
31.800000 -20.511719 33.545024
31.900000 -20.005859 33.545024
32.000000 -19.250000 33.545024
32.200000 -18.370117 33.545024
32.300000 -18.240234 33.545024
32.400000 -17.485352 33.545024
32.200000 -16.855469 33.545024
31.800000 -15.975586 33.545024
31.600000 -15.470703 33.545024
31.400000 -14.590820 33.545024
31.200000 -14.210938 33.545024
31.000000 -13.581055 33.545024
31.000000 -12.576172 33.545024
31.100000 -12.321289 33.545024
31.300000 -11.941406 33.545024
31.600000 -10.686523 33.545024
29.600000 -42.407715 33.691022
29.900000 -42.028320 33.691022
30.300000 -41.648926 33.691022
30.600000 -41.019531 33.691022
34.100000 -28.783203 33.691022
34.100000 -28.276855 33.691022
34.300000 -27.645508 33.691022
33.200000 -26.382812 33.691022
33.300000 -25.376465 33.691022
33.200000 -25.120117 33.691022
32.900000 -24.363770 33.691022
32.800000 -23.607422 33.691022
31.700000 -22.594727 33.691022
31.800000 -21.338379 33.691022
31.900000 -21.207031 33.691022
32.300000 -20.200684 33.691022
32.400000 -19.819336 33.691022
32.300000 -19.187988 33.691022
32.400000 -18.431641 33.691022
32.600000 -18.425293 33.691022
32.500000 -17.168945 33.691022
32.100000 -16.662598 33.691022
31.700000 -15.781250 33.691022
31.500000 -15.526367 33.691022
31.400000 -14.271484 33.691022
31.200000 -14.266602 33.691022
31.000000 -13.136719 33.691022
31.000000 -13.006836 33.691022
31.100000 -11.876953 33.691022
31.300000 -11.747070 33.691022
31.800000 -11.117188 33.691022
29.600000 -42.515625 33.839022
29.900000 -42.261719 33.839022
30.300000 -41.632812 33.839022
30.600000 -41.378906 33.839022
33.700000 -29.284180 33.839022
34.100000 -29.151855 33.839022
34.100000 -28.269531 33.839022
34.300000 -27.637207 33.839022
34.700000 -27.129883 33.839022
33.300000 -25.490234 33.839022
33.200000 -24.857910 33.839022
32.900000 -24.600586 33.839022
32.700000 -23.468262 33.839022
32.300000 -23.210938 33.839022
31.900000 -21.953613 33.839022
31.900000 -21.321289 33.839022
32.100000 -20.938965 33.839022
32.500000 -20.806641 33.839022
32.500000 -19.924316 33.839022
32.400000 -18.916992 33.839022
32.600000 -18.784668 33.839022
32.900000 -18.277344 33.839022
32.600000 -17.270020 33.839022
32.100000 -16.887695 33.839022
31.700000 -16.005371 33.839022
31.500000 -15.623047 33.839022
31.300000 -14.490723 33.839022
31.200000 -14.358398 33.839022
31.100000 -13.226074 33.839022
31.000000 -12.843750 33.839022
31.100000 -12.090820 33.839022
31.400000 -11.462891 33.839022
31.900000 -11.334961 33.839022
26.600000 -44.960938 33.985026
29.700000 -42.816406 33.985026
30.000000 -42.437500 33.985026
30.400000 -41.808594 33.985026
30.700000 -41.179688 33.985026
31.100000 -40.300781 33.985026
34.200000 -29.603516 33.985026
34.100000 -28.722656 33.985026
34.200000 -28.091797 33.985026
34.500000 -27.585938 33.985026
34.800000 -23.205078 33.985026
33.500000 -25.818359 33.985026
33.400000 -24.562500 33.985026
33.200000 -24.556641 33.985026
32.600000 -23.800781 33.985026
32.100000 -23.044922 33.985026
32.100000 -22.289062 33.985026
32.300000 -20.271484 33.985026
32.500000 -20.015625 33.985026
32.600000 -18.759766 33.985026
32.800000 -18.503906 33.985026
33.000000 -17.998047 33.985026
32.700000 -16.992188 33.985026
32.000000 -16.236328 33.985026
31.800000 -16.230469 33.985026
31.500000 -14.724609 33.985026
31.300000 -14.593750 33.985026
31.200000 -14.087891 33.985026
31.100000 -12.832031 33.985026
31.100000 -12.326172 33.985026
31.200000 -11.945312 33.985026
31.500000 -11.564453 33.985026
26.900000 -44.617188 34.133025
29.600000 -42.710938 34.133025
30.000000 -42.203125 34.133025
30.300000 -41.195312 34.133025
30.600000 -41.312500 34.133025
33.900000 -29.664063 34.133025
34.000000 -28.531250 34.133025
34.200000 -28.148438 34.133025
34.100000 -22.625000 34.133025
33.700000 -25.743652 34.133025
33.600000 -25.112305 34.133025
33.300000 -24.355957 34.133025
32.800000 -23.849609 34.133025
32.200000 -22.968262 34.133025
32.100000 -22.211914 34.133025
32.200000 -21.455566 34.133025
32.400000 -20.824219 34.133025
32.600000 -20.192871 34.133025
32.500000 -19.561523 34.133025
32.600000 -19.430176 34.133025
32.900000 -18.298828 34.133025
33.200000 -17.917480 34.133025
32.800000 -16.911133 34.133025
32.100000 -16.779785 34.133025
31.800000 -16.148438 34.133025
31.600000 -15.517090 34.133025
31.400000 -14.510742 34.133025
31.300000 -13.754395 34.133025
31.200000 -13.248047 34.133025
31.100000 -12.616699 34.133025
31.200000 -11.735352 34.133025
31.500000 -11.604004 34.133025
29.600000 -43.100586 34.274024
29.900000 -42.093750 34.274024
30.300000 -41.336426 34.274024
30.600000 -41.204102 34.274024
34.100000 -28.807617 34.274024
34.300000 -24.550293 34.274024
34.800000 -23.917969 34.274024
35.400000 -27.035645 34.274024
35.300000 -26.528320 34.274024
34.400000 -22.020996 34.274024
33.800000 -25.263672 34.274024
33.500000 -24.631348 34.274024
33.200000 -23.874023 34.274024
32.600000 -22.991699 34.274024
32.200000 -21.984375 34.274024
32.400000 -21.479980 34.274024
32.400000 -20.850586 34.274024
32.600000 -20.596191 34.274024
32.800000 -19.466797 34.274024
32.800000 -19.462402 34.274024
33.000000 -18.333008 34.274024
33.200000 -17.703613 34.274024
32.900000 -17.199219 34.274024
32.300000 -16.569824 34.274024
32.000000 -15.690430 34.274024
31.700000 -15.061035 34.274024
31.500000 -14.931641 34.274024
31.500000 -13.677246 34.274024
31.400000 -13.172852 34.274024
31.200000 -12.668457 34.274024
31.300000 -12.039062 34.274024
31.500000 -11.784668 34.274024
26.500000 -44.664062 34.418023
29.500000 -42.759766 34.418023
29.800000 -42.378906 34.418023
30.200000 -41.373047 34.418023
30.600000 -40.742188 34.418023
30.900000 -40.611328 34.418023
31.400000 -39.855469 34.418023
34.300000 -29.234375 34.418023
34.400000 -28.477539 34.418023
34.800000 -23.970703 34.418023
35.500000 -23.338867 34.418023
35.900000 -22.707031 34.418023
34.000000 -25.193359 34.418023
33.800000 -20.936523 34.418023
33.700000 -23.804688 34.418023
32.400000 -22.166016 34.418023
32.300000 -22.034180 34.418023
32.400000 -21.277344 34.418023
32.600000 -20.895508 34.418023
32.800000 -20.388672 34.418023
32.800000 -19.256836 34.418023
33.000000 -19.000000 34.418023
33.300000 -17.994629 34.418023
33.200000 -17.489258 34.418023
