-0.707193 3.363797 3.684046
-0.675056 2.985722 3.969411
-0.651654 2.782659 4.143709
-0.663070 2.520312 4.226263
-0.637924 2.318766 4.405833
-0.623049 2.002192 4.603567
-0.484579 1.708977 5.213717
-0.493828 1.591102 5.236701
-0.447950 1.230264 5.561128
-0.029699 2.311900 6.491873
0.078896 2.381322 6.831566
0.152748 2.384568 7.082966
0.230978 2.255985 7.410487
0.275876 2.058823 7.655662
0.362117 1.805399 8.068506
0.450922 1.558803 8.486962
0.418337 1.237560 8.524332
-1.422756 3.117639 2.203849
-1.259693 3.510645 2.697088
-1.124884 3.590430 3.148228
-1.042848 3.414151 3.462535
-1.028033 3.382969 3.519180
-0.989381 3.178900 3.688678
-0.908324 2.893463 4.018917
-0.867687 2.692893 4.194645
-0.814420 2.351167 4.438934
-0.845824 2.168863 4.362804
-0.772667 2.035824 4.638816
-0.700825 1.672796 4.950980
-0.656027 1.479420 5.139797
-0.519953 1.143301 5.668878
-0.136136 2.175395 6.810925
-0.121332 2.381996 6.825469
-0.018276 2.236807 7.206819
0.158170 2.116483 7.837057
0.131062 2.039266 7.757163
0.283482 1.742508 8.335692
0.335189 1.463540 8.563495
0.357557 1.219888 8.683796
-1.512805 3.547000 2.830621
-1.358629 3.378572 3.344615
-1.388526 3.431004 3.247119
-1.323482 3.317578 3.459301
-1.267911 3.116549 3.629124
-1.204973 2.800136 3.811702
-1.131424 2.575498 4.041024
-0.999909 2.160720 4.449641
-0.890548 1.893481 4.797972
-0.813306 1.678559 5.041120
-0.811475 1.675964 5.047160
-0.757816 1.393986 5.201475
-0.668864 1.067075 5.472747
-0.285859 2.018282 6.900290
-0.206345 2.128776 7.187085
-0.134195 2.148233 7.438431
-0.002548 2.004684 7.877345
-0.017879 2.020962 7.826181
0.027080 1.872422 7.965128
0.150444 1.546079 8.355324
0.242617 1.256915 8.641875
-2.024353 3.415811 2.167429
-1.864362 3.541256 2.769222
-1.823923 3.573230 2.921442
-1.697279 3.295369 3.238266
-1.494824 3.011127 3.812403
-1.458030 2.868901 3.878439
-1.440519 2.660931 3.850526
-1.365977 2.469464 4.025197
-1.141893 1.998753 4.594644
-1.178035 1.951641 4.450757
-0.950796 1.584375 5.074780
-0.477735 1.993852 6.870467
-0.462998 2.164014 6.992988
-0.320753 2.119877 7.462183
-0.229951 2.036696 7.738427
-0.067904 1.895979 8.234686
0.008881 1.739804 8.431980
-0.017488 1.575450 8.272019
0.141413 1.169935 8.645481
-2.190063 3.172144 2.503703
-2.058534 3.254516 3.006912
-2.102327 3.391331 2.955648
-1.998673 3.263672 3.215869
-1.726833 2.859334 3.849081
-1.779837 2.837592 3.654405
-1.690044 2.651142 3.826120
-1.511020 2.284384 4.171995
-1.309674 1.901435 4.581910
-1.362122 1.873119 4.384460
-1.207834 1.628339 4.733028
-1.082066 1.501652 5.068737
-0.675868 1.377554 6.354813
-0.772594 1.973554 6.449608
-0.663670 2.135818 6.932916
-0.468346 1.977265 7.481333
-0.419922 2.026093 7.679695
-0.379825 1.995691 7.793795
-0.290025 1.842581 7.989138
-0.053871 1.504098 8.548268
0.062154 1.165526 8.701010
-2.509666 3.272250 2.581179
-2.463761 3.372393 2.831991
-2.372215 3.275497 3.039616
-2.245976 3.069277 3.254315
-2.119352 2.865242 3.472443
-1.992362 2.663440 3.693985
-1.828725 2.352963 3.929713
-1.633809 2.094204 4.320046
-1.468139 1.790706 4.569390
-1.316951 1.581194 4.863472
-1.343821 1.526768 4.720798
-0.809947 1.412657 6.376428
-0.895884 1.874611 6.547450
-0.845619 1.998096 6.835725
-0.573568 1.894364 7.634439
-0.590558 1.986732 7.669273
-0.406722 1.873222 8.166176
-0.426260 1.720471 7.950803
-0.222536 1.435805 8.344754
-0.017815 1.073967 8.665891
-2.746088 3.054355 2.772212
-2.589182 3.054422 3.275774
-2.538390 3.010907 3.382934
-2.439698 2.927510 3.592632
-2.346645 2.710729 3.613124
-2.156364 2.415251 3.844645
-2.035486 2.248423 4.018505
-1.890390 2.064488 4.248129
-1.698151 1.776266 4.495240
-1.505006 1.490962 4.749003
-1.311358 1.281738 5.101980
-1.001775 1.299505 6.118164
-0.907474 1.694587 6.927585
-0.875652 1.905336 7.300054
-0.722225 1.823670 7.687607
-0.747441 1.914079 7.722676
-0.589593 1.757223 8.027954
-0.552837 1.582946 7.922328
-0.323827 1.317796 8.317029
-0.073700 1.050870 8.777213
0.044851 0.680678 8.682719
-3.116073 2.846750 2.433847
-2.933919 2.965375 3.180198
-2.932104 2.964043 3.183748
-2.773785 2.784543 3.395675
-2.669430 2.710396 3.603632
-2.435267 2.483160 3.976207
-2.298888 2.259273 4.051720
-2.090159 2.056151 4.382952
-1.795671 1.669062 4.694931
-1.681820 1.463662 4.729386
-1.466332 1.198695 4.985924
-1.458396 1.125244 4.896937
-1.112313 1.214595 6.104728
-1.134433 1.583336 6.606248
-1.187187 1.825113 6.816859
-1.036700 1.828273 7.286880
-0.934958 1.858048 7.647369
-0.844608 1.820915 7.869242
-0.750351 1.633279 7.870587
-0.391247 1.348917 8.541052
-0.295108 1.162101 8.549483
-3.607321 2.869119 2.177854
-3.172963 2.469106 2.740574
-3.321780 2.683553 2.686930
-3.242403 2.693861 2.939722
-3.082938 2.656846 3.343792
-2.945447 2.574928 3.602279
-2.649900 2.406022 4.170838
-2.584826 2.307050 4.184948
-2.509669 2.139506 4.105531
-2.131312 1.746165 4.514975
-2.001309 1.550401 4.546685
-1.726622 1.217856 4.759478
-1.659839 1.119786 4.780255
-1.094052 0.796425 5.868662
-1.320166 1.574992 6.601110
-1.280054 1.699001 6.942443
-1.178056 1.732842 7.304304
-0.876831 1.635990 8.019160
-0.809532 1.542939 8.050482
-0.742120 1.449968 8.082279
-0.586008 1.258526 8.198816
-0.295336 0.959174 8.518460
-0.004816 0.588073 8.708662
-3.549467 2.297163 2.422794
-3.375956 2.379154 3.074300
-3.483456 2.549830 3.121180
-3.323381 2.527943 3.523842
-3.057473 2.460637 4.129761
-2.984520 2.367078 4.143241
-2.801968 2.224427 4.363033
-2.646950 2.095664 4.534157
-2.512974 1.854082 4.417000
-2.268615 1.565644 4.512891
-1.813717 1.132215 4.901999
-1.557200 0.907986 5.162470
-1.351259 1.298540 6.532252
-1.346358 1.364587 6.680300
-1.341005 1.499125 6.968930
-1.146056 1.518151 7.552240
-1.075964 1.572848 7.859313
-1.048297 1.495619 7.779501
-0.833953 1.379256 8.141582
-0.548376 1.182126 8.538360
-0.331868 1.000472 8.773670
-3.749259 2.077458 2.662344
-3.767901 2.250370 3.008049
-3.566623 2.282898 3.604998
-3.583958 2.346056 3.703932
-3.487161 2.366983 4.003054
-3.287034 2.295641 4.360260
-3.178538 2.199945 4.423950
-2.991363 2.019424 4.498656
-2.561494 1.643125 4.757502
-2.161071 1.219517 4.832033
-1.951047 0.914140 4.681499
-1.702626 0.720070 4.884406
-1.718713 0.910406 5.276462
-1.549653 0.994573 5.907429
-1.497664 1.112175 6.310524
-1.429981 1.296753 6.907042
-1.325029 1.483545 7.605415
-1.275137 1.476622 7.719226
-1.097777 1.384322 7.969524
-0.921469 1.294532 8.222811
-0.862197 1.217070 8.200208
-0.628789 1.052510 8.431383
-0.430144 0.818756 8.414545
0.060522 0.346763 8.613190
-3.710155 1.538819 2.581457
-3.920310 1.819397 2.774169
-3.916715 2.033451 3.314787
-3.783796 2.103880 3.808979
-3.806818 2.165731 3.907421
-3.830160 2.227757 4.005524
-3.596030 2.221575 4.552339
-3.480971 2.135565 4.614848
-1.520828 0.534720 5.342828
-1.669010 0.745381 5.510580
-1.458802 0.840507 6.251734
-1.395238 0.963051 6.708918
-1.475632 1.169381 7.028671
-1.510506 1.373898 7.453219
-1.508690 1.373771 7.457265
-1.250916 1.290861 7.870158
-1.020455 1.214286 8.233214
-0.955179 1.141967 8.210214
-0.507087 0.928015 8.754407
-3.910271 1.302138 2.584943
-4.077883 1.549607 2.879556
-3.941092 1.678762 3.524373
-4.178782 1.888886 3.565697
-3.938319 1.949997 4.255597
-3.942015 2.061436 4.545442
-3.746072 2.086180 5.040632
-3.827123 2.098636 4.896465
-3.573929 2.061740 5.352219
-1.494181 0.653200 6.140274
-1.716841 0.982819 6.533985
-1.617624 1.111434 7.095084
-1.436544 1.181086 7.677795
-1.575606 1.246284 7.547613
-1.360425 1.183782 7.851674
-1.218272 1.120372 7.993404
-0.775759 1.010851 8.669527
-0.586955 0.808259 8.541297
-4.231908 0.970058 2.252254
-4.319674 1.185521 2.699240
-4.160218 1.320005 3.392870
-4.261737 1.489791 3.682472
-4.209629 1.591125 4.073432
-4.280952 1.705921 4.264044
-4.151520 1.805034 4.798301
-4.188429 1.863318 4.893728
-3.851663 1.845273 5.493851
-3.752520 1.783654 5.509325
-1.616529 0.574206 6.180829
-1.667500 0.829695 6.813619
-1.836541 0.949029 6.828097
-1.731170 1.023866 7.246286
-1.607937 1.105453 7.718371
-1.319510 1.075120 8.189759
-1.150448 1.030564 8.389407
-0.906721 0.927321 8.565543
-0.746588 0.734470 8.323355
-4.642338 0.784236 2.193268
-4.166578 0.653559 2.602399
-4.272613 0.811725 2.900315
-4.349926 0.969393 3.245219
-4.277535 1.124448 3.834969
-4.326731 1.231975 4.076146
-4.115542 1.341341 4.762444
-4.117353 1.453497 5.097575
-4.216556 1.507334 5.092437
-4.102851 1.510812 5.294877
-3.753651 1.469775 5.760647
-1.758647 0.616853 6.556715
-1.663964 0.833462 7.369701
-1.716442 0.892442 7.458955
-1.501795 0.937598 7.957473
-1.569951 0.922429 7.796679
-1.201260 0.864126 8.243286
-1.039631 0.757182 8.193672
-0.528731 0.672343 8.800340
-0.240528 0.526389 8.846777
-4.168485 0.310850 2.659847
-4.126801 0.466697 3.209591
-4.378214 0.611103 3.302697
-4.535342 0.759925 3.545009
-4.437124 0.871468 4.036624
-4.319846 0.989350 4.575521
-4.335414 1.043331 4.722870
-4.018339 1.135526 5.467784
-4.152263 1.119036 5.223728
-1.712218 0.491911 6.754450
-1.774724 0.612182 7.042817
-1.675789 0.779919 7.712112
-1.688225 0.848703 7.910490
-1.512400 0.831056 8.107373
-1.187914 0.790940 8.446994
-0.973706 0.713843 8.512079
-0.674670 0.590513 8.553582
-0.375167 0.467823 8.597767
-4.232075 -0.075838 2.579126
-4.234978 0.183150 3.420390
-4.451887 0.257855 3.415984
-4.302289 0.387336 4.009287
-4.260963 0.449000 4.257633
-4.251138 0.506168 4.455299
-3.936314 0.567043 5.013800
-1.328646 -0.004170 6.132761
-1.626368 0.238070 6.582295
-1.831992 0.375381 6.794957
-1.858167 0.506420 7.192357
-1.713658 0.634809 7.776280
-1.733819 0.626675 7.726701
-1.555523 0.624610 7.923840
-1.100195 0.672223 8.599753
-0.917441 0.516400 8.300572
-4.177635 -0.525026 2.287311
-4.221079 -0.379477 2.736540
-4.230798 -0.170241 3.428052
-4.189511 -0.106369 3.677511
-4.004270 -0.004446 4.179068
-4.231972 -0.006905 3.973428
-3.884099 0.085243 4.583283
-3.769656 0.059489 4.596352
-3.375401 0.057349 4.931006
-2.975190 -0.120421 4.683308
-2.380670 -0.176289 5.011860
-1.865043 -0.316390 4.990234
-1.667010 -0.311502 5.178277
-1.644481 -0.238917 5.440623
-1.556825 -0.072229 6.074224
-1.575537 0.129517 6.732884
-1.864426 0.217752 6.777585
-1.834111 0.377349 7.337756
-1.899988 0.420940 7.426461
-1.767416 0.486020 7.759106
-1.478851 0.477894 7.982105
-1.130587 0.506174 8.378650
-0.906378 0.467336 8.443116
-4.087687 -0.898802 2.325075
-4.144440 -0.757573 2.775167
-4.216729 -0.672845 3.023909
-4.141602 -0.538986 3.522267
-3.876364 -0.447289 3.982632
-3.902633 -0.456643 3.936106
-3.729492 -0.393816 4.246751
-3.385865 -0.382281 4.477341
-3.038267 -0.427537 4.516449
-2.574873 -0.486726 4.572486
-2.171431 -0.506682 4.728961
-1.953549 -0.277727 5.631104
-1.881480 -0.030554 6.514232
-1.765415 0.032301 6.793203
-1.858283 0.131645 7.080339
-1.819765 0.232091 7.444361
-1.766405 0.345959 7.862420
-1.712825 0.297613 7.727350
-1.268087 0.421857 8.398624
-1.137399 0.336655 8.180769
-0.833360 0.372405 8.471914
-0.176646 0.399168 8.928694
-3.715514 -1.196480 2.429160
-3.845606 -1.083271 2.779771
-3.921005 -0.946385 3.228342
-3.975160 -0.912201 3.329739
-3.712951 -0.800417 3.793427
-3.653667 -0.774255 3.901323
-3.506754 -0.768092 3.966722
-3.277186 -0.723535 4.189156
-2.817375 -0.691050 4.439272
-2.438882 -0.695295 4.538484
-2.176621 -0.692271 4.627769
-1.797755 -0.693752 4.736610
-1.333156 -0.286636 6.277883
-1.662177 -0.111850 6.780653
-1.803548 -0.047317 6.960301
-1.823530 0.101771 7.467546
-1.665738 0.217142 7.912179
-1.626613 0.246925 8.026478
-1.436096 0.215159 7.974416
-1.079131 0.316107 8.429297
-0.887466 0.285330 8.380984
-0.328907 0.375496 8.859373
-3.612662 -1.482884 2.589132
-3.668836 -1.338058 3.090353
-3.669415 -1.279322 3.293337
-3.534629 -1.146107 3.751899
-3.443097 -1.157069 3.712803
-3.216493 -1.092409 3.933243
-2.939791 -0.996159 4.262182
-2.769569 -0.960198 4.384193
-2.341826 -0.899236 4.589181
-2.007096 -0.824959 4.841419
-1.747596 -0.796982 4.934655
-1.416146 -0.719507 5.197986
-1.111275 -0.502946 5.942310
-1.292387 -0.317415 6.585855
-1.741695 -0.255276 6.806555
-1.888838 -0.204276 6.984750
-1.828010 -0.066693 7.459388
-1.716491 0.030735 7.794590
-1.601554 0.040278 7.826045
-1.235417 0.188695 8.334071
-0.959145 0.257873 8.569463
-3.604214 -1.676335 2.979530
-3.358567 -1.519522 3.445434
-3.225228 -1.431441 3.708527
-3.055476 -1.382401 3.826256
-2.761684 -1.245835 4.207964
-2.743789 -1.301222 4.011901
-2.313208 -1.131366 4.467043
-2.008358 -1.047902 4.662612
-1.705022 -0.963048 4.863426
-1.426043 -0.894975 5.013800
-1.232277 -0.485448 6.365313
-1.683743 -0.460025 6.588729
-1.890665 -0.384971 6.909396
-1.822810 -0.225450 7.438136
-1.703159 -0.101800 7.827800
-1.525094 -0.012717 8.080877
-1.459915 -0.046229 7.945890
-1.171221 0.062008 8.231608
-0.915877 0.136052 8.409654
-0.424461 0.267734 8.715064
-3.302752 -2.112334 2.403141
-3.341858 -2.014685 2.758596
-3.284026 -1.840840 3.316861
-3.281264 -1.838717 3.322478
-2.990356 -1.678599 3.697658
-2.686291 -1.572958 3.879600
-2.451291 -1.449866 4.161375
-2.357662 -1.444150 4.126075
-2.079940 -1.355565 4.265338
-1.780388 -1.245997 4.463294
-1.438669 -1.095110 4.777314
-1.350223 -1.012911 5.005540
-1.132579 -0.620913 6.213328
-1.525852 -0.664410 6.295221
-1.776811 -0.554421 6.816623
-1.802264 -0.483755 7.072190
-1.719210 -0.387485 7.351492
-1.704270 -0.261657 7.771308
-1.490576 -0.101709 8.191073
-1.269557 -0.045476 8.253314
-1.034936 0.030262 8.374030
-0.595007 0.144006 8.504100
-2.939875 -2.330604 2.500162
-2.981919 -2.160067 3.107029
-3.068501 -2.168283 3.156662
-2.813982 -2.004043 3.478536
-2.654118 -1.926248 3.596010
-2.472531 -1.826348 3.767958
-2.093886 -1.605506 4.168352
-1.875232 -1.460951 4.456416
-1.588987 -1.325056 4.655402
-1.495922 -1.310420 4.621439
-1.244325 -1.120640 5.031194
-1.224349 -0.810378 6.049419
-1.541783 -0.694255 6.719717
-1.805408 -0.717846 6.875598
-1.751087 -0.528404 7.459817
-1.722080 -0.486313 7.574546
-1.559211 -0.367450 7.826478
-1.361822 -0.188281 8.249053
-1.088168 -0.011623 8.595359
-0.874310 0.065760 8.663398
-0.342058 0.258735 8.834013
-2.584125 -2.408850 2.842032
-2.933905 -2.553891 2.777991
-2.732735 -2.338090 3.245482
-2.645441 -2.241721 3.457208
-2.430543 -2.080345 3.731646
-2.150222 -1.923341 3.915582
-1.950818 -1.859791 3.889843
-1.741717 -1.696725 4.176532
-1.390734 -1.442901 4.593058
-1.226390 -1.326498 4.780129
-1.011544 -1.139683 5.137382
-0.521102 -0.766004 5.781218
-1.522136 -0.766295 6.947342
-1.705085 -0.811143 7.014742
-1.706568 -0.682712 7.434273
-1.669065 -0.617162 7.603793
-1.505701 -0.464122 7.911192
-1.357002 -0.332348 8.166505
-1.035063 -0.171068 8.315834
-2.447601 -2.834462 2.349472
-2.535040 -2.697013 2.907576
-2.519515 -2.591119 3.216787
-2.335630 -2.435058 3.437915
-2.222122 -2.280165 3.757916
-1.939281 -2.072402 3.996886
-1.642264 -1.838671 4.296575
-1.587358 -1.858674 4.153901
-1.309367 -1.648725 4.406786
-1.075003 -1.391643 4.870929
-0.894244 -1.211261 5.172823
-0.823519 -0.965592 5.839615
-1.039230 -0.824666 6.595495
-1.439201 -0.887530 6.981231
-1.573685 -0.858535 7.268022
-1.641497 -0.843925 7.412600
-1.610007 -0.775271 7.581857
-1.398370 -0.454684 8.278112
-1.252320 -0.474099 8.004488
-0.970462 -0.142507 8.632922
-2.159670 -2.956775 2.477547
-2.213527 -2.851467 2.885885
-2.105182 -2.582612 3.508114
-2.087002 -2.553145 3.565534
-1.804402 -2.296126 3.854326
-1.595421 -2.046825 4.245791
-1.394903 -1.921836 4.278383
-1.179832 -1.769710 4.367593
-0.980436 -1.520508 4.775149
-0.826768 -1.351059 5.021355
-0.726895 -1.286032 5.045914
-0.875079 -1.018865 6.101613
-1.349426 -1.146552 6.529034
-1.521002 -1.045576 7.125606
-1.546184 -0.919874 7.546170
-1.497934 -0.780460 7.882389
-1.512531 -0.823745 7.777344
-1.278879 -0.559933 8.170216
-1.058038 -0.319297 8.515383
-0.895271 -0.280128 8.354767
-0.432820 0.018378 8.460701
-1.438072 -2.912107 2.169070
-1.818651 -3.070632 2.459993
-1.855325 -2.808602 3.278769
-1.883805 -2.863140 3.178852
-1.780343 -2.662210 3.549828
-1.587776 -2.395332 3.934908
-1.505495 -2.352050 3.897700
-1.250167 -2.072416 4.196633
-1.035749 -1.875652 4.339126
-0.928447 -1.775847 4.414248
-0.718071 -1.429552 4.991018
-0.634953 -1.383981 4.958704
-0.820264 -1.180613 5.900370
-1.246651 -1.244349 6.551010
-1.357782 -1.160983 7.005676
-1.468733 -1.059452 7.511789
-1.437620 -0.939883 7.792003
-1.455100 -1.008197 7.631329
-1.314988 -0.726349 8.161500
-1.147398 -0.629068 8.111729
-0.850409 -0.253377 8.603239
-0.503405 0.011416 8.680886
-1.074792 -2.951398 2.180640
-1.411048 -2.946123 2.935962
-1.601902 -2.993042 3.231842
-1.613104 -3.020243 3.184148
-1.451769 -2.763450 3.511868
-1.350475 -2.498538 3.993557
-1.294254 -2.506319 3.848909
-1.015132 -2.061405 4.417599
-0.879317 -2.018389 4.232664
-0.742953 -1.794947 4.526678
-0.584267 -1.488520 4.992327
-0.583673 -1.486551 4.996255
-0.780728 -1.277000 5.988334
-1.089599 -1.177076 6.935170
-1.310235 -1.261100 7.197961
-1.309901 -1.259370 7.201828
-1.361709 -1.165464 7.565946
-1.335269 -0.996985 7.956022
-1.167677 -0.814967 8.070951
-0.993074 -0.562525 8.357842
-0.817102 -0.242257 8.822215
-0.425354 -0.005860 8.587707
-0.961240 -3.099572 2.328043
-1.298395 -3.290702 2.670179
-1.369601 -3.173744 3.131214
-1.329687 -3.047901 3.345773
-1.218814 -2.869804 3.518051
-1.074991 -2.572205 3.906045
-0.944806 -2.307062 4.246774
-0.805667 -2.223339 4.117556
-0.571155 -1.757237 4.702875
-0.503849 -1.726939 4.615158
-0.378447 -1.436430 5.030128
-0.523979 -1.209870 5.941551
-0.945217 -1.424827 6.427923
-1.141798 -1.419994 6.914740
-1.195771 -1.302809 7.334704
-1.269596 -1.361247 7.368628
-1.182409 -1.152726 7.673308
-1.095298 -0.874969 8.149262
-1.021148 -0.812001 8.125746
-0.868725 -0.546135 8.414545
-0.571702 -0.249769 8.429411
-0.994432 -3.049498 3.368659
-1.089688 -3.230817 3.207581
-1.034619 -2.979833 3.631203
-0.947193 -2.825688 3.751296
-0.780730 -2.550540 3.938466
-0.668895 -2.246307 4.334154
-0.498806 -1.913181 4.642949
-0.405242 -1.673042 4.941454
-0.256813 -1.458220 5.039336
-0.350312 -1.155336 5.968559
-0.687500 -1.394389 6.309157
-0.954251 -1.520298 6.721528
-1.083432 -1.420681 7.284364
-1.152643 -1.509456 7.264486
-1.152308 -1.214900 7.929670
-1.085617 -1.074609 8.072624
-0.949112 -0.914472 8.078010
-0.814929 -0.706627 8.197346
-0.616156 -0.383773 8.407952
-0.742607 -3.155393 3.312399
-0.725666 -3.026843 3.526914
-0.713808 -2.930799 3.689416
-0.636492 -2.739237 3.863708
-0.566777 -2.609643 3.933015
-0.425658 -2.321941 4.124984
-0.351933 -2.131491 4.307037
-0.277472 -1.911729 4.546732
-0.139071 -1.566355 4.863747
-0.317097 -1.172615 6.162669
-0.697072 -1.511877 6.532530
-0.889541 -1.617781 6.854179
-0.958600 -1.560098 7.164459
-1.031600 -1.481291 7.528763
-1.037811 -1.406681 7.698058
-0.997819 -1.118863 8.172588
-0.891382 -0.832185 8.459300
-0.766008 -0.683821 8.411445
-0.600415 -0.323962 8.682045
-0.161264 -3.136780 2.490901
-0.430841 -3.244187 3.092449
-0.478933 -3.149275 3.405243
-0.478760 -3.145796 3.411000
-0.466772 -2.829088 3.946134
-0.405777 -2.540826 4.285498
-0.291499 -2.425374 4.156439
-0.176439 -2.096586 4.409357
-0.123824 -1.752754 4.873531
-0.067586 -1.647262 4.897703
-0.020737 -1.338470 5.315763
-0.019341 -1.364048 5.265574
-0.089314 -1.237693 5.699538
-0.500812 -1.621301 6.222109
-0.763647 -1.609576 7.018369
-0.827609 -1.633908 7.163170
-0.902928 -1.585744 7.472055
-0.931704 -1.416679 7.861455
-0.870859 -1.361598 7.781233
-0.851138 -1.095548 8.202310
-0.743056 -0.915281 8.208276
0.279112 -2.961640 2.287016
0.075968 -3.216062 2.529415
-0.127850 -3.438623 2.822454
-0.185897 -3.249245 3.291063
-0.192833 -3.087337 3.559288
-0.197906 -2.990268 3.722933
-0.168466 -2.604158 4.219965
-0.075373 -2.357964 4.306367
-0.030647 -2.218278 4.380493
0.061157 -1.971679 4.471512
0.077119 -1.596536 4.993637
0.057048 -1.450229 5.278829
0.085349 -1.227679 5.530167
-0.048297 -1.191304 6.000116
-0.424060 -1.616418 6.517824
-0.600799 -1.728236 6.895621
-0.656631 -1.781703 6.987320
-0.729431 -1.762184 7.242861
-0.797149 -1.499445 7.853256
-0.768025 -1.346205 7.996426
-0.767865 -1.104045 8.364927
-0.662818 -0.958495 8.260893
-0.511234 -0.490787 8.503415
0.495743 -3.165025 2.084068
0.339845 -3.154515 2.598992
0.151708 -3.361491 2.943752
0.076946 -3.179727 3.413262
0.076556 -3.176643 3.418404
0.023781 -2.802409 4.059565
0.067357 -2.719752 4.023437
0.081266 -2.456111 4.310722
0.158176 -2.232633 4.344679
0.195070 -1.802935 4.767138
0.232288 -1.689546 4.790177
0.169114 -1.402545 5.354939
0.198652 -1.261569 5.437437
-0.297610 -1.848286 6.295495
-0.522890 -1.775362 7.112302
-0.558873 -1.881821 7.094016
-0.614206 -1.714176 7.483222
-0.680784 -1.529813 7.929670
-0.630713 -1.464033 7.851385
-0.685563 -1.134568 8.442843
-0.593092 -0.980311 8.339546
-0.520531 -0.418387 8.813757
0.748781 -2.917968 2.381092
0.523565 -3.122987 2.932178
0.398647 -3.300396 3.176752
0.350144 -3.078901 3.550213
0.284341 -2.803186 4.033110
0.313026 -2.920154 3.825697
0.265746 -2.507454 4.378475
0.345544 -2.365633 4.249565
0.308236 -2.017980 4.706855
0.362780 -1.788206 4.746142
0.301468 -1.394499 5.327292
0.327335 -1.278851 5.352330
0.171438 -1.211405 5.934591
-0.108238 -1.557591 6.531091
-0.240185 -1.930849 6.611168
-0.323997 -1.897085 6.921807
-0.448539 -1.776413 7.451015
-0.439319 -1.797080 7.400586
-0.511439 -1.640189 7.790494
-0.594798 -1.316303 8.377877
-0.494915 -1.196657 8.161017
1.005310 -3.107233 2.141411
0.889530 -3.073494 2.556655
0.731026 -3.277749 2.954386
0.633060 -3.318697 3.258360
0.575971 -3.133287 3.578170
0.547065 -2.866383 3.858062
0.556072 -2.718800 3.928165
0.524462 -2.455551 4.214724
0.488519 -2.024230 4.630550
0.495157 -1.878336 4.707527
0.446833 -1.596498 5.063385
0.441035 -1.424972 5.199965
0.383463 -1.290721 5.486534
0.172558 -1.582581 6.002064
-0.003135 -1.955776 6.342853
-0.174732 -1.900878 6.961621
-0.250145 -1.900145 7.217605
-0.322391 -1.767759 7.552619
-0.323605 -1.765593 7.558207
-0.456673 -1.404093 8.255473
-0.418626 -1.329834 8.177201
-0.480936 -0.967098 8.635594
-0.364112 -0.612347 8.481669
1.213003 -2.879496 2.360270
1.083674 -3.125236 2.706859
0.965912 -3.111269 3.116663
0.906494 -3.105660 3.322866
0.760799 -2.755152 3.961936
0.735247 -2.696488 4.072902
0.744098 -2.577781 4.089562
0.648467 -2.095578 4.608957
0.681933 -2.030901 4.519703
0.650925 -1.831542 4.705157
0.526328 -1.452577 5.283079
0.532857 -1.334269 5.307552
0.375077 -1.432311 5.810346
0.217462 -1.793702 6.208205
0.094873 -2.090875 6.511275
-0.073451 -1.941001 7.148515
-0.061068 -1.960477 7.098289
-0.190263 -1.886062 7.571296
-0.213133 -1.730626 7.711410
-0.320353 -1.460585 8.186506
-0.312215 -1.232588 8.248928
1.398299 -2.967093 2.589569
1.293226 -3.108413 2.940889
1.146348 -2.935092 3.462643
1.145038 -2.932559 3.467378
1.041166 -2.735708 3.842499
0.921464 -2.518475 4.273997
0.933187 -2.309376 4.250782
0.870427 -2.086004 4.486063
0.837202 -1.915833 4.614915
0.677241 -1.431402 5.207581
0.688855 -1.337378 5.175230
0.568687 -1.377364 5.587076
0.471464 -1.677931 5.898111
0.225521 -1.882704 6.730854
0.185891 -2.048420 6.854069
0.050870 -1.981411 7.326073
0.029980 -1.846630 7.409382
-0.017546 -1.788027 7.578416
-0.111843 -1.675704 7.913475
-0.233741 -1.324683 8.363614
-0.230932 -1.114425 8.371290
-0.305981 -0.611183 8.672162
1.599540 -2.830356 2.635246
1.521651 -3.007499 2.934755
1.411922 -2.926669 3.299473
1.236014 -2.746115 3.875323
1.275316 -2.705611 3.732662
1.139772 -2.495396 4.164060
1.010413 -2.201561 4.559630
0.988217 -1.966536 4.595525
0.941778 -1.799134 4.726806
0.843203 -1.561474 5.025857
0.853675 -1.373800 4.957208
0.759098 -1.347944 5.279150
0.591536 -1.634918 5.907184
0.360930 -1.857027 6.741570
0.261759 -2.043361 7.116124
0.159530 -1.931321 7.449548
0.208675 -1.984576 7.289155
-0.007231 -1.659721 7.978060
-0.008352 -1.658608 7.981734
-0.138928 -1.334754 8.376303
-0.205618 -1.174725 8.578756
1.784834 -2.672645 2.856329
1.705715 -2.833239 3.204996
1.685220 -2.805261 3.261536
1.532015 -2.690526 3.730024
1.397962 -2.517877 4.104866
1.281646 -2.282927 4.388776
1.277661 -2.097973 4.312622
1.140581 -1.842902 4.657806
1.041134 -1.636914 4.898061
1.035483 -1.450098 4.826703
0.876486 -1.181400 5.240261
0.729276 -1.294812 5.798992
0.596699 -1.702806 6.450669
0.569285 -1.947677 6.663341
0.428542 -1.994998 7.167863
0.317110 -1.893855 7.500021
0.370650 -1.941903 7.340162
0.272706 -1.763649 7.588738
0.082341 -1.512271 8.118028
0.032724 -1.289499 8.179644
-0.147397 -0.968378 8.640025
-0.261446 -0.610494 8.856499
2.174026 -2.560464 2.308405
2.062916 -2.668821 2.766027
1.926616 -2.671245 3.227113
1.722419 -2.522727 3.800968
1.733802 -2.453852 3.709689
1.648206 -2.360285 3.926179
1.491341 -2.111669 4.263645
1.303737 -1.755416 4.621965
1.250612 -1.620126 4.696990
1.176141 -1.464442 4.828264
0.995908 -1.209842 5.239864
0.962651 -1.262060 5.392039
0.756050 -1.412349 6.203610
0.670731 -1.761205 6.759147
0.712753 -1.964021 6.773416
0.565036 -1.930609 7.245433
0.504534 -1.884230 7.413638
0.470718 -1.773712 7.442644
0.351388 -1.686070 7.777344
0.102222 -1.430141 8.420169
0.092385 -1.250973 8.315631
2.228766 -2.222149 2.639301
2.128658 -2.344846 3.097053
2.017295 -2.386051 3.506923
2.075583 -2.516381 3.450763
1.920948 -2.295125 3.729557
1.759205 -2.146514 4.107511
1.582075 -1.913750 4.448419
1.433171 -1.633595 4.646923
1.453448 -1.650830 4.598084
1.207852 -1.370669 5.115153
1.079749 -1.114356 5.269981
1.005501 -1.134220 5.535314
1.006566 -1.524422 5.938636
0.843175 -1.720889 6.681799
0.732925 -1.805168 7.132909
0.793192 -1.924828 7.059105
0.645595 -1.828799 7.445272
0.519816 -1.670272 7.694397
0.394529 -1.596187 8.029937
0.351215 -1.489839 8.061765
0.120337 -1.116997 8.433710
-0.029733 -0.791232 8.588502
2.589894 -2.088964 2.201154
2.472225 -2.191565 2.713222
2.260224 -2.222886 3.430745
2.109400 -2.104061 3.752746
2.033272 -2.045402 3.917036
1.884212 -1.933159 4.242204
1.760253 -1.771869 4.421864
1.757885 -1.699609 4.332899
1.439419 -1.403978 4.953064
1.484426 -1.363346 4.755349
1.166954 -1.079200 5.387682
1.048387 -1.077415 5.763197
0.990784 -1.337645 6.294355
1.193325 -1.827844 6.303537
0.954721 -1.840570 7.081014
0.798741 -1.758370 7.468364
0.840472 -1.779871 7.364076
0.664231 -1.691563 7.807847
0.589687 -1.578701 7.894692
0.343305 -1.390069 8.428020
0.294001 -1.132776 8.241515
0.007088 -0.777068 8.680873
2.670199 -1.774254 2.389148
2.591445 -1.909286 2.848298
2.460557 -1.948685 3.311659
2.303251 -1.910627 3.730178
2.274394 -1.892180 3.788379
2.167116 -1.824530 4.006252
1.847515 -1.565087 4.561531
1.709516 -1.418267 4.744921
1.538123 -1.186664 4.892897
1.535623 -1.185273 4.898276
1.270353 -0.973829 5.365469
1.226780 -1.020359 5.573853
1.129074 -1.322417 6.361437
1.244862 -1.659749 6.554475
1.094331 -1.808280 7.254591
1.060331 -1.866991 7.453487
0.975939 -1.759893 7.537593
0.823696 -1.627259 7.787445
0.739099 -1.521535 7.874403
0.438015 -1.267139 8.381336
0.292558 -1.068447 8.503459
0.041408 -0.762913 8.775124
2.826894 -1.621806 2.463448
2.552755 -1.586060 3.194487
2.484404 -1.671474 3.552605
2.491430 -1.736973 3.654268
2.443792 -1.773657 3.861270
2.103095 -1.537447 4.412265
2.048785 -1.383827 4.283909
1.843984 -1.220804 4.575917
1.640039 -1.061435 4.872244
1.530743 -1.012453 5.098957
1.369985 -0.943180 5.437583
1.176275 -0.931817 5.980048
1.252490 -1.369777 6.574746
1.343382 -1.747801 7.014998
1.407754 -1.839535 6.998707
1.079146 -1.662840 7.625475
1.055805 -1.584369 7.547102
0.754790 -1.427615 8.130757
0.730211 -1.347933 8.053731
0.591782 -1.165564 8.116547
2.868595 -1.285736 2.486760
2.830616 -1.382972 2.795070
2.736391 -1.456004 3.207032
2.718735 -1.506745 3.361979
2.643970 -1.532846 3.622036
2.412266 -1.434678 4.052273
2.082672 -1.242649 4.554349
2.033552 -1.162188 4.520399
1.817446 -1.019425 4.814233
1.602525 -0.880251 5.112346
1.518032 -0.851520 5.284062
1.434164 -0.823835 5.456257
1.361421 -1.062125 6.155987
1.552014 -1.514498 6.581844
1.428648 -1.685788 7.279992
1.039103 -1.533820 8.030743
0.956929 -1.375851 7.924919
0.827863 -1.209268 7.929781
0.604452 -1.026880 8.160529
0.312268 -0.837893 8.566272
2.925395 -1.027349 2.554511
3.008389 -1.225354 2.801171
2.780133 -1.199340 3.325552
2.669830 -1.276522 3.787136
2.549683 -1.237399 4.004171
2.430691 -1.199951 4.222135
2.174268 -1.063711 4.563010
2.147910 -0.996131 4.473782
1.949418 -0.879353 4.711396
1.749295 -0.825855 5.099965
1.637086 -0.735492 5.177818
1.496019 -0.701235 5.459732
1.865097 -1.612875 6.628768
1.702044 -1.717140 7.288298
1.140944 -1.439923 8.082671
1.093646 -1.294078 7.865555
0.856680 -1.129942 8.091886
0.550198 -0.964231 8.492640
0.255017 -0.730182 8.705938
2.950946 -0.743023 2.645628
3.052127 -0.933128 2.891971
2.942629 -1.014424 3.354964
2.873812 -1.053103 3.614395
2.658875 -1.003158 3.990644
2.418416 -0.951931 4.423384
2.327306 -0.875377 4.442095
2.118375 -0.717406 4.529694
1.941387 -0.685031 4.861759
1.626469 -0.635066 5.472028
1.540843 -0.623274 5.642516
1.463182 -0.676365 5.959283
2.011186 -1.699599 7.277244
1.451007 -1.472614 8.011748
1.054046 -1.118389 8.040703
0.799596 -1.050766 8.464522
3.040797 -0.452147 2.439143
2.894272 -0.639976 3.262371
2.890346 -0.748711 3.567108
2.793831 -0.734042 3.732129
2.759672 -0.729023 3.791005
2.457159 -0.746079 4.480063
2.300334 -0.670819 4.608025
2.107898 -0.534196 4.644363
1.842424 -0.510567 5.143847
1.707283 -0.562430 5.572269
1.609406 -0.495543 5.597846
1.724686 -0.687109 5.875162
2.250718 -1.659429 7.408232
1.039743 -1.037308 8.284643
0.920611 -0.977220 8.373897
3.028655 -0.245777 2.652693
2.994762 -0.348291 3.013334
3.126113 -0.466523 3.107152
2.998637 -0.509745 3.473120
2.875922 -0.556036 3.838972
2.780458 -0.550559 4.003546
2.405188 -0.478575 4.504524
2.183699 -0.415877 4.741729
1.963625 -0.355247 4.982244
1.731142 -0.357644 5.428559
1.615981 -0.360868 5.655533
1.641333 -0.360038 5.605217
1.106847 -0.734575 7.698951
1.043969 -0.888625 8.263475
3.162445 0.025696 2.456957
3.108620 -0.130665 3.021379
3.080576 -0.183913 3.229348
2.990723 -0.238824 3.542662
2.689901 -0.303766 4.228824
2.717417 -0.302508 4.180348
2.399747 -0.262905 4.574841
2.262727 -0.214226 4.648587
2.026879 -0.233467 5.089898
1.825743 -0.254159 5.479328
1.851521 -0.251275 5.428710
1.255343 -0.754773 7.932175
1.116270 -0.792132 8.271779
0.752259 -0.749230 8.731385
3.025026 0.275726 2.654355
3.172652 0.181581 2.751294
3.157315 0.074763 3.111275
3.115471 -0.036548 3.521761
3.017817 -0.046390 3.686520
2.829119 -0.067477 4.011456
2.417005 -0.065248 4.567869
2.246135 -0.032605 4.697903
2.017899 -0.010349 4.939338
1.957217 -0.020865 5.055685
1.921319 -0.088434 5.319217
1.617067 -0.023814 5.530137
1.194911 -0.691682 8.226989
0.934980 -0.714336 8.654293
0.719394 -0.562940 8.468578
3.131478 0.496178 2.602505
2.931821 0.356228 3.280240
2.996030 0.258174 3.531065
2.808500 0.222148 3.854953
2.707143 0.144172 4.221717
2.734206 0.149962 4.173039
2.439309 0.083296 4.715177
2.324969 0.115476 4.735237
2.153515 0.133346 4.864875
1.845533 0.050770 5.473510
1.843095 0.050074 5.478466
1.107025 -0.657983 8.606552
0.927090 -0.583638 8.560444
2.905652 0.790339 2.696351
2.971784 0.698696 2.951933
3.040402 0.606978 3.205792
3.020145 0.489715 3.616254
2.866693 0.445343 3.887540
2.629394 0.372616 4.320884
2.398467 0.357691 4.554772
2.283873 0.318969 4.776150
2.029704 0.291715 5.069990
1.973238 0.271052 5.184394
1.987152 0.146773 5.591269
1.767909 0.125946 5.835712
2.894604 -0.643110 7.525733
1.358669 -0.520877 8.336476
1.153394 -0.474608 8.344171
0.810540 -0.514242 8.750188
3.046639 1.096332 2.339391
2.920672 0.887870 3.116965
2.998065 0.802050 3.370027
2.816127 0.675651 3.896263
2.841540 0.685463 3.849554
2.694736 0.627918 4.122320
2.518907 0.617616 4.248731
2.240609 0.499791 4.795663
2.121575 0.511273 4.818185
1.881659 0.401432 5.317927
1.942770 0.363431 5.416057
1.658062 0.361191 5.571406
2.668138 -0.331440 7.413839
1.873383 -0.513259 8.447330
1.499313 -0.337445 8.040703
1.231463 -0.437623 8.521922
0.873223 -0.428583 8.676880
3.007413 1.321501 2.423093
3.050838 1.170371 2.934319
2.957784 1.070321 3.300530
2.984680 1.023618 3.455438
2.899665 0.923287 3.820785
2.569588 0.758311 4.464913
2.423765 0.746678 4.538274
2.278084 0.734733 4.612677
2.054973 0.680181 4.851653
1.975728 0.636125 5.021638
1.678487 0.462455 5.688259
1.465999 0.404274 5.937326
2.935951 -0.012381 7.038887
2.732932 -0.153916 7.573219
2.523175 -0.139549 7.571503
2.179711 -0.226376 7.949211
1.817884 -0.154978 7.785513
1.572433 -0.260477 8.205259
1.475280 -0.247921 8.184114
1.228713 -0.266449 8.304218
0.817320 -0.333459 8.629081
2.897432 1.543308 2.585251
3.043554 1.445215 2.936800
2.960359 1.337730 3.300909
2.882809 1.230408 3.664944
2.694360 1.117076 4.040124
2.486781 0.986967 4.471604
2.293302 0.929912 4.651932
2.125549 0.888517 4.780392
2.006994 0.879475 4.801351
1.976648 0.787254 5.117309
1.743973 0.621127 5.671046
1.648721 0.627516 5.640714
2.716337 0.167006 7.324189
2.640874 0.102101 7.541867
2.599428 0.154815 7.356165
2.262102 0.038088 7.730167
1.868971 -0.042771 7.975417
1.653999 -0.153346 8.338774
1.411261 -0.193859 8.457683
1.265559 -0.240164 8.605017
0.896522 -0.311011 8.817769
2.609729 1.678742 2.870951
2.740879 1.575609 3.274160
2.839377 1.513286 3.524991
2.926699 1.508519 3.573918
2.706051 1.418911 3.799524
2.554022 1.308220 4.123142
2.220461 1.126267 4.623917
2.171517 1.087884 4.737541
1.962609 0.995794 4.976050
1.855554 0.828647 5.510392
1.874701 0.844971 5.461446
1.673241 0.751951 5.705926
2.599830 0.484177 6.971279
2.675132 0.466313 7.060720
2.372440 0.254630 7.675141
2.147367 0.214819 7.728019
1.971541 0.227577 7.618646
1.714632 0.046967 8.143380
1.512439 -0.081302 8.508690
1.303806 -0.106259 8.516662
0.899920 -0.261037 8.897858
2.595482 1.994653 2.600058
2.833353 1.983257 2.794728
2.817330 1.903819 3.053747
2.633393 1.683759 3.679765
2.650335 1.626438 3.885363
2.555140 1.544325 4.101537
2.439135 1.517003 4.118157
2.210107 1.388772 4.403036
1.991371 1.185966 4.947688
1.855238 1.137301 5.023524
1.744070 0.942297 5.612254
1.688606 0.973030 5.471605
1.700455 0.807205 6.042007
2.170755 0.756257 6.523309
2.527415 0.768592 6.715364
2.565412 0.614075 7.264550
2.280857 0.481004 7.529433
2.014199 0.365605 7.746091
1.816872 0.221429 8.105857
1.762623 0.266343 7.917890
1.458807 0.091695 8.311209
1.245412 -0.092059 8.794724
0.918815 -0.185060 8.896078
2.590524 2.397158 2.203434
2.702248 2.291505 2.661644
2.572149 2.020450 3.436014
2.524888 1.973439 3.546543
2.480774 1.851113 3.910068
2.500321 1.871171 3.862315
2.322874 1.767127 4.036806
2.075201 1.500651 4.682790
1.943166 1.440134 4.756536
1.678763 1.225923 5.212952
1.731975 1.195753 5.364312
1.694158 1.150302 5.478754
1.611900 0.948968 6.067780
2.089039 1.050351 6.190631
2.227789 0.805583 7.136573
2.398747 0.818531 7.258176
2.196606 0.761025 7.254439
2.046228 0.659925 7.445216
1.884312 0.538318 7.692947
1.725082 0.416580 7.943703
1.556703 0.274567 8.252940
1.275785 0.072724 8.652408
0.937356 -0.089740 8.865815
2.485355 2.519963 2.505527
2.609510 2.425699 2.960618
2.565607 2.297532 3.322644
2.479947 2.199492 3.536713
2.277399 1.959901 4.068060
2.275424 1.957506 4.073431
2.032571 1.746471 4.463659
1.814183 1.559228 4.806376
1.794689 1.533552 4.865989
1.740586 1.461447 5.034170
1.621087 1.297417 5.421079
1.507703 1.134903 5.810461
1.722177 1.001567 6.501086
2.018010 0.985791 6.909241
2.161213 0.968380 7.138465
2.177565 0.864007 7.496169
1.968778 0.770265 7.547712
1.956154 0.747650 7.605706
1.772639 0.552024 8.017659
1.606299 0.378167 8.379853
1.380812 0.240491 8.553499
2.163479 2.713034 2.452868
2.355095 2.708953 2.752359
2.329890 2.499512 3.367008
2.358339 2.447473 3.571681
2.375152 2.470837 3.524068
2.160556 2.164380 4.157459
2.107038 2.184469 4.014790
1.933613 2.027766 4.243340
1.714248 1.796058 4.636764
1.578290 1.689659 4.764700
1.587943 1.593343 5.079157
1.513297 1.468531 5.356207
1.529837 1.375640 5.670303
1.903438 1.409885 6.122778
2.011535 1.203065 6.928770
2.021863 1.223839 6.879519
2.054747 1.141445 7.185380
1.922615 1.016995 7.375269
1.833919 0.815653 7.869669
1.690079 0.648509 8.175021
1.591022 0.590501 8.207455
1.331444 0.302546 8.715894
1.031824 0.108597 8.871593
2.102657 3.058973 2.240730
2.131623 2.818914 3.006453
2.312662 2.910893 3.049837
2.193310 2.717636 3.416205
2.162929 2.561390 3.828293
1.956384 2.311520 4.210439
1.871284 2.273830 4.173526
1.713231 2.103670 4.403272
1.614728 1.918123 4.783222
1.444608 1.842651 4.709814
1.338447 1.632458 5.149742
1.313335 1.438421 5.683614
1.397659 1.474589 5.723698
1.725701 1.443442 6.391446
1.941866 1.463086 6.711828
1.998233 1.429712 6.910023
1.926125 1.241198 7.345075
1.908729 1.193185 7.457577
1.730784 0.877539 8.085748
1.616847 0.744482 8.282317
1.516904 0.656108 8.370338
1.296233 0.392503 8.768630
1.051996 0.329495 8.528192
1.790810 3.127988 2.405172
2.010882 3.213626 2.602095
2.016763 3.000886 3.214363
2.052072 2.953368 3.418885
1.928618 2.824900 3.535458
1.845786 2.653620 3.853859
1.612255 2.276950 4.451668
1.518240 2.204095 4.469931
1.505245 2.174168 4.528510
1.295452 1.975831 4.670219
1.073144 1.578900 5.347593
1.174100 1.674255 5.279651
1.331266 1.570783 5.885022
1.606066 1.598757 6.353812
1.737292 1.589564 6.641339
1.835310 1.462549 7.195271
1.821330 1.412906 7.307542
1.820789 1.410956 7.311969
1.660883 1.056789 7.993011
1.562483 0.937367 8.133988
1.464998 0.818032 8.276545
1.281271 0.626837 8.450048
1.608725 3.266873 2.670961
1.783524 3.282673 3.020866
1.751524 3.059632 3.536187
1.727796 2.997840 3.645667
1.682858 2.878276 3.859683
1.584139 2.768445 3.927636
1.338930 2.407984 4.327103
1.272583 2.206795 4.707986
1.212903 2.209625 4.566877
1.039975 1.848124 5.130962
0.978325 1.849223 4.989995
0.921950 1.652947 5.380285
1.245079 1.670722 6.057198
1.523838 1.750717 6.470994
1.645363 1.703862 6.866476
1.693251 1.607442 7.227481
1.619512 1.574859 7.148081
1.570146 1.282960 7.805725
1.472770 1.083765 8.111869
1.400255 1.072217 7.979855
1.300654 0.827298 8.401350
1.128090 0.506244 8.859803
0.888863 0.242167 9.019005
1.193153 3.290877 2.565975
1.336610 3.227341 3.072244
1.488417 3.362220 3.115292
1.468101 3.109241 3.682217
1.458760 3.076592 3.738926
1.369220 2.959456 3.805146
1.240275 2.693967 4.136485
1.137333 2.518150 4.312925
1.108156 2.399107 4.531650
0.910113 2.052962 4.890354
0.728840 1.764973 5.148366
0.711884 1.678006 5.318832
0.967979 1.716517 5.852245
1.302862 1.823924 6.410694
1.525232 2.025838 6.463167
1.558663 1.779733 7.144985
1.558421 1.777505 7.149823
1.539767 1.579523 7.586752
1.459500 1.419790 7.779523
1.381982 1.284395 7.919701
1.301745 1.032301 8.337694
1.154237 0.835398 8.456374
1.036805 3.331136 3.079357
1.155785 3.384703 3.277836
1.129912 3.257021 3.490525
1.149856 3.069978 3.956016
1.082619 3.005708 3.918818
0.994414 2.820337 4.092856
0.902886 2.605634 4.322724
0.872311 2.396298 4.702946
0.722705 2.150994 4.845749
0.577740 1.934390 4.937622
0.553276 1.702996 5.382744
0.807648 1.793440 5.860168
1.131494 1.931308 6.417887
1.324169 1.896582 7.007137
1.391414 1.961349 7.043260
1.389586 1.737024 7.533026
1.391102 1.638592 7.754098
1.325920 1.497074 7.892701
1.266661 1.262229 8.252845
1.202607 1.145176 8.340504
1.077612 0.890112 8.570315
0.890503 0.543360 8.837021
0.461743 3.490239 2.061165
0.713333 3.440226 2.872709
0.868349 3.407636 3.376251
0.918486 3.375964 3.580962
0.840257 3.151722 3.803509
0.828267 3.025979 4.018575
0.815264 2.871627 4.287430
0.737369 2.563041 4.677959
0.677322 2.521545 4.590086
0.547525 2.263924 4.732694
0.477748 1.987989 5.081549
0.350459 1.645365 5.399602
0.473557 1.754362 5.532358
0.843782 2.035663 6.023738
1.092753 2.183220 6.436597
1.163675 2.020699 6.959306
1.233359 1.965575 7.265815
1.237277 1.914005 7.379040
1.255690 1.718815 7.817742
1.208429 1.525941 8.065867
1.105416 1.237554 8.345259
0.990170 1.041422 8.407305
0.879336 0.822247 8.527479
0.674206 0.318515 8.944146
0.154248 3.278682 2.427209
0.430398 3.587570 2.715083
0.590333 3.661924 3.063524
0.636770 3.505418 3.474263
0.633121 3.377176 3.686280
0.573788 3.056263 4.066884
0.518258 2.829864 4.294563
0.520393 2.677706 4.565424
0.410367 2.469898 4.598021
0.303822 2.173035 4.795812
0.140660 1.861093 4.850714
0.154504 1.626802 5.299312
0.335006 1.680841 5.744494
0.755274 1.915315 6.592164
0.980707 2.193237 6.782385
1.043072 2.217198 6.927004
1.089127 1.921406 7.578712
1.098135 1.871837 7.691777
1.047716 1.768162 7.721399
1.066648 1.672438 7.944334
0.981746 1.398021 8.167753
0.893540 1.147136 8.340397
-0.095389 3.339443 2.494458
0.158095 3.508428 3.041976
0.252338 3.751146 2.983072
0.321648 3.440397 3.653584
0.333014 3.282433 3.919664
0.291773 3.111161 4.040360
0.243067 3.031465 4.004060
0.263225 2.817709 4.379084
0.175254 2.571277 4.463053
0.098936 2.236102 4.713004
0.038142 1.816174 5.135242
-0.058872 1.655787 5.065343
0.119531 1.694654 5.567506
0.435597 2.037494 6.057411
0.736594 2.156674 6.826438
0.850625 2.243830 7.056493
0.868742 2.169286 7.222007
0.919125 1.978282 7.658518
0.878224 1.870700 7.687354
0.954920 1.620441 8.292749
0.845677 1.496096 8.131951
0.787936 1.216264 8.359353
-0.276067 3.411080 2.688552
-0.079779 3.525831 3.187579
-0.023640 3.506359 3.392877
0.023946 3.550869 3.493884
0.052088 3.362304 3.810773
0.029624 3.157669 3.982837
0.003000 2.983934 4.104431
-0.054402 2.670125 4.293877
-0.098031 2.298474 4.597192
-0.121348 2.126664 4.727205
-0.117919 1.841543 5.079528
-0.132201 1.643726 5.269955
0.001642 1.616626 5.736294
0.296441 1.961462 6.279338
0.534772 2.281385 6.669135
0.641117 2.375541 6.901219
0.729067 2.114110 7.499202
0.797175 1.932513 7.937319
0.756993 1.844187 7.912753
0.761083 1.646344 8.162774
0.804449 1.367075 8.637566
0.753410 1.128065 8.758124
-0.612078 3.646019 2.263374
-0.381200 3.544238 3.126172
-0.344481 3.623209 3.175596
-0.287210 3.608696 3.379717
-0.229667 3.361551 3.799368
-0.250113 3.215811 3.865738
-0.224023 2.892845 4.250592
-0.254367 2.576693 4.441221
-0.324518 2.405146 4.365866
-0.291793 2.088760 4.766747
-0.264472 1.805764 5.118825
-0.306243 1.548855 5.216740
-0.205209 1.445336 5.648721
0.295904 2.262309 6.563840
0.413213 2.317138 6.903930
0.487135 2.310840 7.155923
0.578204 2.107437 7.646870
0.651726 1.955431 8.031962
0.629829 1.842651 8.063088
0.662066 1.475407 8.509266
0.653433 1.192774 8.741274
-1.033057 3.522394 1.989763
-0.870431 3.506670 2.552469
-0.744882 3.806420 2.795394
-0.600295 3.518044 3.464153
-0.618744 3.575073 3.366399
-0.548676 3.362717 3.735062
-0.463415 2.956170 4.274625
-0.500721 2.895311 4.185120
-0.470056 2.493394 4.536172
-0.534949 2.343830 4.407314
-0.517634 2.142216 4.589983
-0.408304 1.727312 5.216529
-0.422592 1.609653 5.240177
-0.365937 1.336668 5.600456
0.084898 2.285347 6.551171
0.244056 2.261422 7.107119
0.282731 2.328978 7.197165
0.343706 2.219518 7.471731
0.429669 1.939125 7.936224
0.505834 1.818356 8.269391
0.482791 1.591800 8.330129
0.486210 1.326931 8.504378
-1.240788 3.285917 2.229531
-1.067869 3.552396 2.728934
-0.952406 3.684826 3.078616
-0.927293 3.621251 3.187597
-0.842020 3.411588 3.555429
-0.789063 3.148175 3.831338
-0.809078 3.056852 3.795088
-0.788040 2.735578 3.981905
-0.674936 2.224448 4.552843
-0.641610 2.024856 4.738530
-0.686940 1.984974 4.596930
-0.538776 1.694875 5.209607
-0.543705 1.575577 5.235180
-0.444275 1.141842 5.731536
-0.033222 2.196562 6.768552
-0.013096 2.287470 6.805331
0.074404 2.271563 7.111763
0.157137 2.145771 7.440975
0.268467 1.985536 7.880757
0.321390 1.794474 8.130766
0.415103 1.438948 8.579595
0.424973 1.194330 8.700701
-1.532725 3.280620 2.221058
-1.384845 3.561394 2.719355
-1.253070 3.529342 3.176145
-1.280523 3.583898 3.078816
-1.074526 3.187792 3.808533
-1.012374 2.960376 4.033577
-1.053927 2.921616 3.891744
-0.943380 2.499135 4.292830
-0.921697 2.236911 4.379608
-0.917431 2.117396 4.399752
-0.819889 1.844829 4.749124
-0.677403 1.621215 5.251585
-0.644264 1.570988 5.368366
-0.629802 1.219713 5.434215
-0.292750 2.159475 6.556398
-0.192678 2.241930 6.898462
0.019996 2.082225 7.640566
0.037148 2.061784 7.700757
0.038785 2.059842 7.706502
0.171432 1.801661 8.176525
0.186299 1.573776 8.238199
0.217681 1.328924 8.357707
-1.779438 3.199682 2.318011
-1.605655 3.409572 2.968606
-1.590069 3.584105 3.065214
-1.460255 3.274695 3.436664
-1.475646 3.299107 3.389607
-1.378656 3.047674 3.662155
-1.303563 2.734754 3.844122
-1.135021 2.389063 4.340153
-1.178718 2.254077 4.156366
-0.972106 1.867547 4.773589
-1.027959 1.845008 4.575527
-0.938234 1.723843 4.855039
-0.531733 1.608665 6.227947
-0.411628 1.959687 6.728188
-0.333886 2.166472 7.046969
-0.312945 2.241241 7.137522
-0.088773 2.107570 7.877402
-0.071762 1.993690 7.908059
-0.037522 1.863385 7.994069
0.133575 1.511497 8.497385
0.203131 1.256839 8.674576
-1.949556 3.270857 2.740228
-1.929257 3.507675 2.934962
-1.813437 3.348727 3.246303
-1.734708 3.154742 3.412422
-1.578927 2.863209 3.790009
-1.575635 2.770527 3.752169
-1.514557 2.604544 3.872843
-1.315535 2.182981 4.329232
-1.214195 1.974584 4.564934
-1.167767 1.743302 4.600998
-1.025862 1.494016 4.953576
-0.825265 1.277968 5.524181
-0.549073 1.986885 6.842785
-0.391684 2.023364 7.399576
-0.334998 1.974018 7.567018
-0.211286 1.960516 7.982334
-0.209998 1.959465 7.986177
-0.177166 1.752076 7.988465
0.059709 1.388506 8.604831
0.113045 1.167929 8.670156
0.144600 0.781149 8.573078
-2.315284 3.238702 2.636035
-2.307864 3.386979 2.785882
-2.143588 3.277635 3.244269
-2.004862 3.044728 3.512879
-1.865657 2.815184 3.785930
-1.726001 2.589075 4.063388
-1.724666 2.428366 3.932404
-1.615978 2.157080 4.067999
-1.431150 1.892554 4.464463
-1.255864 1.563376 4.774457
-1.091402 1.330627 5.129453
-0.799275 1.158729 5.963591
-0.759643 1.537693 6.415830
-0.805218 1.986605 6.641467
-0.730026 2.093136 6.983254
-0.488789 1.915389 7.641911
-0.526359 1.942019 7.538446
-0.366116 1.831186 7.982063
-0.309169 1.708936 8.069872
-0.137489 1.429758 8.409921
-0.047449 1.118818 8.449598
0.119604 0.677619 8.637581
-2.609779 3.072829 2.558572
-2.536814 3.216349 2.957354
-2.365851 3.124471 3.413997
-2.432940 3.188170 3.265648
-2.230487 2.925498 3.634713
-2.125731 2.683592 3.707413
-1.973901 2.400606 3.888244
-1.746734 2.129539 4.328771
-1.570033 1.833068 4.575898
-1.553880 1.670516 4.447355
-1.440484 1.503078 4.631406
-1.254138 1.355764 5.076506
-1.172817 1.597929 5.612683
-1.006155 1.785903 6.367516
-0.938672 2.051253 6.884305
-0.662466 1.879109 7.595601
-0.723544 1.915655 7.436611
-0.515733 1.875256 8.071211
-0.511434 1.792558 7.992997
-0.356764 1.466822 8.135414
-0.165530 1.287437 8.560720
-2.898533 3.015800 2.655501
-2.840120 3.100105 2.957063
-2.687870 2.975409 3.266840
-2.635440 2.933232 3.374574
-2.411521 2.689434 3.746656
-2.335201 2.562633 3.813046
-2.136013 2.344492 4.142278
-1.862927 2.009018 4.543321
-1.733572 1.708779 4.537877
-1.604863 1.479714 4.628790
-1.428506 1.290740 4.926042
-0.978094 1.230924 6.269829
-1.125515 1.755849 6.528722
-1.023818 1.848392 6.978760
-0.984810 1.902654 7.177326
-0.807086 1.813666 7.617152
-0.610420 1.722853 8.114445
-0.577880 1.631198 8.090776
-0.363340 1.384631 8.429328
-0.255661 1.184311 8.493383
-3.125826 2.691628 2.579396
-3.074458 2.780182 2.880984
-2.972640 2.835662 3.281680
-2.917440 2.798275 3.388155
-2.680418 2.641944 3.852248
-2.491469 2.457392 4.123826
-2.405412 2.338906 4.190987
-2.183956 2.073421 4.428542
-1.987428 1.825578 4.619261
-1.937084 1.597467 4.397848
-1.627122 1.220197 4.721013
-1.513136 1.089914 4.853737
-1.184154 0.986712 5.684691
-1.114529 1.303357 6.416262
-1.021487 1.548322 7.101360
-1.139503 1.741822 7.060168
-1.013359 1.762636 7.477925
-0.897779 1.718319 7.756629
-0.790006 1.604876 7.898106
-0.526760 1.441018 8.429584
-0.429945 1.182661 8.299829
-0.128268 0.940052 8.818881
0.142837 0.557052 9.014480
-3.229808 2.377151 2.923828
-3.172495 2.523841 3.369533
-3.291565 2.649366 3.267252
-3.244299 2.682967 3.467562
-2.957295 2.468953 3.883602
-2.685834 2.331203 4.400917
-2.643766 2.248428 4.363495
-2.306927 1.899120 4.663917
-2.236465 1.677128 4.441679
-1.895860 1.330198 4.757492
-1.715485 1.057989 4.755349
-1.456626 0.882503 5.164169
-1.290721 1.015073 5.895271
-1.354798 1.375375 6.400645
-1.244494 1.474910 6.908540
-1.117256 1.575675 7.467509
-1.044134 1.626414 7.775017
-0.858790 1.579492 8.218439
-0.810511 1.494881 8.195370
-0.692800 1.320725 8.200643
-0.436385 1.042352 8.405473
-3.712749 2.127059 2.185268
-3.627281 2.253070 2.687323
-3.607602 2.413086 3.084349
-3.320422 2.400348 3.834339
-3.419075 2.500816 3.783133
-3.303510 2.451512 3.990033
-3.023439 2.337402 4.503000
-3.028918 2.279944 4.364735
-2.720140 1.979767 4.555683
