0.481368 -2.666059 2.087202
0.425725 -2.428149 2.363160
0.417455 -2.392764 2.439784
0.316295 -1.960246 2.926512
0.239844 -1.633615 2.942394
0.163279 -1.306495 2.961214
0.058275 -0.857493 3.537368
0.041991 -0.787985 3.448049
0.002934 -0.620641 4.147917
0.234237 -1.608141 5.144094
0.204053 -1.478716 5.820966
0.224622 -1.566564 5.866243
0.159368 -1.287398 6.417928
0.114960 -1.097708 6.370618
0.757090 -3.009635 1.309782
0.675779 -2.738099 1.862537
0.648165 -2.645879 2.056706
0.595894 -2.471310 2.433961
0.509162 -2.181903 2.607099
0.398631 -1.813000 2.971604
0.344419 -1.632200 2.903862
0.200681 -1.152512 3.305078
0.134250 -0.930753 3.601239
0.056838 -0.672456 3.734138
0.337471 -1.607981 4.808594
0.317867 -1.542163 5.582839
0.312668 -1.524619 5.944042
0.299269 -1.479850 6.083814
0.231457 -1.253605 6.161769
0.128956 -0.911433 6.627712
0.039661 -0.613574 6.618868
0.896675 -2.833123 1.346111
0.944898 -2.963804 1.511743
0.827472 -2.645202 1.960363
0.763902 -2.472661 2.337694
0.730401 -2.381838 2.308320
0.595793 -2.016687 2.667418
0.491547 -1.733943 2.847657
0.365506 -1.392148 2.928971
0.224132 -1.008613 3.374659
0.135163 -0.767209 3.738219
0.188430 -0.911571 3.891872
0.310640 -1.242472 4.925893
0.479181 -1.699409 5.050439
0.455105 -1.633906 5.537378
0.393768 -1.467358 6.055200
0.363509 -1.385188 6.322458
0.247553 -1.070594 6.722862
1.093654 -2.828562 1.445390
1.004476 -2.625877 1.880204
0.977936 -2.565465 2.240678
0.938849 -2.476713 2.211482
0.747146 -2.041156 2.752754
0.648375 -1.816833 2.808745
0.512736 -1.508799 2.826131
0.417318 -1.291998 3.117195
0.296726 -1.018068 3.309231
0.171656 -0.733849 3.802507
0.603464 -1.714021 4.912164
0.529876 -1.546594 5.713315
0.545391 -1.581872 5.602605
0.474314 -1.420257 6.121569
0.384558 -1.216287 6.486548
0.281641 -0.982511 6.634189
0.109661 -0.591945 6.662383
1.242505 -2.718498 1.312862
1.277944 -2.787271 1.598038
1.232911 -2.699688 1.791189
1.134313 -2.507928 2.226275
0.969026 -2.186618 2.518898
0.856887 -1.968675 2.571320
0.680323 -1.625423 2.938078
0.543159 -1.358800 3.123721
0.418824 -1.117130 3.249934
0.270229 -0.828269 3.508360
0.680071 -1.624298 4.778581
0.711729 -1.685588 5.458831
0.669257 -1.602958 5.722753
0.565248 -1.400708 6.081840
0.544153 -1.359666 6.222080
0.424979 -1.127899 6.714151
1.432653 -2.678468 1.654088
1.458930 -2.722574 1.773525
1.378568 -2.587476 2.087182
1.224336 -2.328256 2.480638
1.098896 -2.117511 2.531815
0.901801 -1.786295 2.892066
0.748859 -1.529308 3.072722
0.541527 -1.180871 3.511799
0.390426 -0.926975 3.703857
0.382563 -0.913671 4.010791
0.637959 -1.342517 4.659163
0.863113 -1.720594 5.195289
0.885699 -1.758483 5.366121
0.761237 -1.549182 6.064950
0.689272 -1.428254 6.171377
0.586348 -1.255256 6.469023
0.417450 -0.971505 6.519099
1.643021 -2.658824 1.483320
1.620317 -2.625413 1.780755
1.549300 -2.521153 1.808527
1.411780 -2.319139 2.303766
1.260019 -2.096264 2.639139
1.154412 -1.941257 2.568156
0.875295 -1.531348 3.182300
0.768681 -1.374861 3.116194
0.600611 -1.128086 3.304455
0.522361 -1.013124 3.637508
0.962969 -1.659563 4.925477
0.922615 -1.600189 5.410051
0.947902 -1.637262 5.582007
0.860380 -1.508657 6.033125
0.734589 -1.323897 6.393107
0.602092 -1.129374 6.473118
1.884661 -2.656423 1.664009
1.732708 -2.460459 1.931181
1.583914 -2.268510 2.426916
1.469024 -2.120415 2.355272
1.265549 -1.858038 2.590749
1.157908 -1.719171 2.976112
0.924400 -1.418043 3.347324
0.695023 -1.122372 3.205049
0.642401 -1.054345 3.933854
0.889092 -1.372216 4.549171
1.085196 -1.624882 5.116545
1.139261 -1.694569 5.166322
0.973399 -1.480547 5.928917
0.964457 -1.468927 6.288738
0.870300 -1.347586 6.115785
0.733682 -1.171368 6.479430
2.030787 -2.494140 1.525251
2.023576 -2.485970 1.764702
1.899059 -2.345784 2.138022
1.795250 -2.228963 2.229510
1.653054 -2.068925 2.443420
1.432789 -1.821042 2.679359
1.311373 -1.684396 2.838381
1.064083 -1.406021 3.436121
0.805323 -1.114846 3.587987
0.742296 -1.043814 4.086948
0.995502 -1.328544 4.763177
1.286591 -1.655996 5.018264
1.210033 -1.569714 5.626513
1.177365 -1.532924 5.766899
1.117010 -1.464955 6.032294
1.022616 -1.358723 6.141871
0.797929 -1.105828 6.538426
2.218750 -2.406474 1.416260
2.124901 -2.312879 1.892116
2.014610 -2.202941 2.204937
1.842899 -2.031828 2.476492
1.693082 -1.882538 2.690877
1.479891 -1.670125 2.866698
1.312687 -1.503499 3.149547
1.231536 -1.422601 3.413007
0.937359 -1.129505 3.624908
0.859336 -1.051721 3.893242
1.175579 -1.366579 4.669097
1.321213 -1.511523 5.259853
1.384103 -1.574162 5.308277
1.255461 -1.445899 5.818938
1.221762 -1.412298 5.957704
1.115684 -1.306526 6.409650
0.879147 -1.070809 6.805484
2.371830 -2.298634 1.359768
2.271459 -2.209138 1.837207
2.021163 -1.986119 2.287860
1.926341 -1.901659 2.320791
1.683182 -1.684995 2.777991
1.486358 -1.509624 3.118811
1.393380 -1.426805 3.153185
1.131146 -1.193184 3.461659
1.087460 -1.154246 3.600542
1.244374 -1.293886 4.142050
1.372471 -1.407776 5.083759
1.491826 -1.514048 5.228075
1.409877 -1.440933 5.831971
1.374710 -1.409583 5.969031
1.192259 -1.246996 6.387365
1.043497 -1.114440 6.684661
0.912612 -0.997891 6.574884
0.536263 -0.662639 6.855575
2.356217 -2.027178 1.516637
2.442844 -2.095165 1.739627
2.319668 -1.998368 2.049938
2.082819 -1.812283 2.439188
1.961809 -1.717231 2.529983
1.724957 -1.531188 2.702385
1.545749 -1.390347 3.208473
1.384369 -1.263565 3.430056
1.151745 -1.080839 3.615799
1.131691 -1.064970 4.208596
1.547061 -1.391117 4.504693
1.578266 -1.415476 5.243046
1.503857 -1.356988 5.503571
1.471913 -1.331817 5.921945
1.377314 -1.257516 5.964770
1.201096 -1.119054 6.321944
0.922494 -0.900165 6.780999
0.663058 -0.696409 6.835363
2.656341 -1.976262 1.344729
2.570930 -1.918047 1.760522
2.465674 -1.846354 2.012598
2.312376 -1.741982 2.161824
2.111694 -1.605333 2.434178
1.889853 -1.454269 2.771531
1.626251 -1.274756 3.237501
1.522917 -1.204413 3.273854
1.146828 -0.948315 3.837655
1.308632 -1.058389 4.153723
1.567039 -1.234169 4.725578
1.735860 -1.349020 5.032272
1.733224 -1.347170 5.327944
1.583306 -1.245029 5.837062
1.413545 -1.129423 6.130630
1.246273 -1.015510 6.427607
1.097735 -0.914361 6.664605
0.681540 -0.631017 6.946550
2.799650 -1.850677 1.259438
2.683630 -1.780625 1.734984
2.497837 -1.668505 2.167024
2.440238 -1.633787 2.077331
2.206491 -1.492766 2.410251
2.024711 -1.383105 2.625773
1.827547 -1.264115 3.131429
1.660756 -1.163451 3.579091
1.385475 -0.997399 3.828773
1.459303 -1.041910 3.882040
1.518320 -1.077333 4.794120
1.833581 -1.267418 4.951398
1.777026 -1.233173 5.713377
1.809942 -1.253043 5.604944
1.613625 -1.134591 5.958350
1.456309 -1.039680 6.190955
1.167539 -0.865468 6.585222
2.881055 -1.640990 1.335708
2.843239 -1.621451 1.632958
2.702195 -1.548717 1.944284
2.538342 -1.464219 2.317422
2.218045 -1.299122 2.608118
2.081017 -1.228495 2.702193
1.975487 -1.174071 2.961778
1.776394 -1.071390 3.469670
1.677181 -1.020220 3.732389
1.490442 -0.923904 4.246185
1.750582 -1.057890 4.594468
1.951827 -1.161496 5.122292
1.969827 -1.170730 5.355391
1.790121 -1.078028 5.924397
1.682864 -1.022752 5.968060
1.514178 -0.935728 6.543441
1.270469 -0.810110 6.749284
2.815871 -1.410471 1.654944
2.781362 -1.395038 1.728764
2.585271 -1.307303 2.386430
2.417626 -1.232367 2.538639
2.065051 -1.074761 2.895580
1.925838 -1.012539 2.990218
1.722497 -0.921590 3.498605
1.729502 -0.924679 3.737003
1.522687 -0.832217 4.023871
1.726020 -0.923030 4.273817
2.013503 -1.051343 5.121812
2.057136 -1.070762 5.572093
2.079312 -1.080632 5.802373
1.824778 -0.966862 5.996229
1.676921 -0.900765 6.163483
1.369380 -0.763276 6.553335
1.119376 -0.651529 6.760367
0.730727 -0.477861 6.785698
3.055476 -1.276032 1.344035
2.873906 -1.208912 1.937760
2.728752 -1.155280 2.249904
2.529190 -1.081583 2.460434
2.225578 -0.969438 2.917858
2.116470 -0.929121 3.176373
1.999535 -0.885952 3.210884
1.880504 -0.841924 3.758485
1.653322 -0.758057 3.819531
1.632690 -0.750343 4.408155
2.300513 -0.996690 5.347520
2.288066 -0.991990 5.977292
2.066749 -0.910286 6.048083
1.659957 -0.760073 6.400825
1.655805 -0.758538 6.414491
1.271394 -0.616594 6.715337
0.925448 -0.488869 6.897180
3.003965 -1.050706 1.590755
2.965556 -1.039079 1.889090
2.902061 -1.019879 2.246656
2.639111 -0.940597 2.354046
2.490440 -0.895765 2.446738
2.213815 -0.812275 3.071641
2.093632 -0.776040 3.107371
2.045488 -0.761467 3.470878
1.750955 -0.672604 3.943494
1.624099 -0.634310 4.271386
2.083077 -0.772357 6.156295
1.668681 -0.647380 6.512407
1.424392 -0.573717 6.656064
1.052133 -0.461460 6.901571
3.117432 -0.873387 1.484643
2.959915 -0.836384 2.021697
2.809200 -0.801011 2.336426
2.742846 -0.785475 2.247855
2.402767 -0.705653 2.990508
2.361548 -0.696017 2.842422
2.114702 -0.638073 3.410184
1.954223 -0.600401 3.796732
1.667679 -0.533215 3.985450
2.114012 -0.637409 6.515777
1.548779 -0.504911 6.691268
1.338884 -0.455717 6.711129
0.812058 -0.332182 7.124404
3.092894 -0.670786 1.407911
3.169586 -0.683876 1.692295
3.013848 -0.657152 2.003966
2.890437 -0.635974 2.257402
2.741078 -0.610342 2.572271
2.423515 -0.555878 3.029825
2.192621 -0.516287 3.309875
2.107249 -0.501633 3.509201
2.088476 -0.498370 3.809752
1.749065 -0.440187 4.121046
1.568962 -0.408925 6.715840
3.233909 -0.493032 1.419967
3.191806 -0.488387 1.718740
2.916940 -0.458281 2.271464
2.790985 -0.444519 2.303398
2.668607 -0.431114 2.560631
2.384846 -0.400025 3.182089
2.180685 -0.377693 3.400315
2.043675 -0.362679 3.722194
1.818273 -0.338017 4.007829
1.695570 -0.324610 4.045904
1.566267 -0.310053 6.795991
1.314657 -0.282551 6.940865
3.151031 -0.289602 1.408841
3.321291 -0.297713 1.514485
3.071867 -0.285729 2.003033
2.947244 -0.279740 2.255528
2.767787 -0.271115 2.629791
2.558211 -0.261077 2.843230
2.332707 -0.250232 3.345263
2.194197 -0.243570 3.666113
1.552773 -0.212441 6.892459
1.396228 -0.204996 6.721278
3.218194 -0.086355 1.519448
3.177524 -0.086974 1.817212
2.932727 -0.090903 2.309682
2.724977 -0.094234 2.745944
2.487855 -0.098071 3.022437
2.399106 -0.099493 3.220333
2.258511 -0.101743 3.541764
1.582339 -0.112344 6.494509
1.403006 -0.115187 7.078257
1.110888 -0.119979 7.008295
3.219580 0.104721 1.515734
3.149100 0.099433 1.872565
3.052706 0.092155 2.065349
2.899514 0.080588 2.378915
2.806685 0.073580 2.573449
2.403540 0.043113 3.214116
2.343358 0.038571 3.350773
1.660368 -0.012705 6.590835
1.367915 -0.034838 6.861993
3.153970 0.296331 1.838602
3.028300 0.278974 2.091509
2.992022 0.273964 2.165620
2.840752 0.253073 2.480217
2.492485 0.204944 2.997893
2.431444 0.196516 3.134556
2.264815 0.173510 3.517019
2.144327 0.156917 4.063520
1.904814 0.123771 4.126834
1.688231 0.094165 6.494681
1.453497 0.061738 6.920179
3.228425 0.505922 1.643152
3.014562 0.463087 2.073756
2.895874 0.439352 2.550810
2.689290 0.397942 2.763198
2.627957 0.385659 2.898326
2.451754 0.350335 3.051521
2.182930 0.296504 3.677188
1.595628 0.179178 6.766725
1.498144 0.159618 6.749777
1.024561 0.064644 6.965138
3.016130 0.656603 1.341494
3.032447 0.660999 1.744379
3.141721 0.689999 1.742876
2.935055 0.635258 2.396658
2.842131 0.610592 2.365766
2.528029 0.527307 2.819471
2.388392 0.490300 3.137183
2.226531 0.447406 3.517980
3.054120 0.667347 5.402710
3.033677 0.661978 5.748213
1.594695 0.280192 6.391717
1.513342 0.258645 6.657050
3.117334 0.891054 1.475597
3.107133 0.887698 1.713867
2.873039 0.809864 2.205405
2.814215 0.790345 2.563245
2.749361 0.768744 2.474336
2.607811 0.721684 2.790625
2.357145 0.638309 3.128587
2.209757 0.589353 3.734784
2.154700 0.571051 3.872485
1.716754 0.425342 4.208278
1.549455 0.370090 6.807798
1.417819 0.326296 6.919932
1.013700 0.191795 6.947831
3.073613 1.088630 1.225890
3.229910 1.151630 1.334979
3.078868 1.090819 1.645932
2.931144 1.031345 1.958732
2.759676 0.962314 2.333376
2.645728 0.916441 2.589710
2.397914 0.816638 2.926937
2.213770 0.742511 3.370661
2.713617 0.944245 5.224163
2.804852 0.981111 5.824073
1.580144 0.487735 6.612189
1.575414 0.485831 6.628392
1.250454 0.354964 7.092338
3.020538 1.282950 1.616282
2.903475 1.227347 2.092403
2.790709 1.173748 2.346145
2.521441 1.045727 2.739328
2.414108 0.994713 2.996964
2.251052 0.917175 3.153900
2.075210 0.833605 3.598738
1.989302 0.792824 4.084511
1.725506 0.667369 4.273451
2.810152 1.183567 5.609824
2.669614 1.116789 6.043621
2.116612 0.853769 6.289535
1.555328 0.586819 6.584700
1.411680 0.518516 6.758660
1.027579 0.335865 7.132909
3.082255 1.544173 1.300442
2.937631 1.464360 1.833808
2.697986 1.332049 2.384493
2.691837 1.328655 2.398997
2.462216 1.201883 2.955228
2.377632 1.155143 2.926052
2.196254 1.054966 3.141003
2.015845 0.955416 3.868396
1.885423 0.883372 3.966270
1.830119 0.852891 4.388499
2.639875 1.300522 5.609780
2.578749 1.266783 5.802525
2.279999 1.101783 6.172938
1.836569 0.856822 6.428102
1.714479 0.789384 6.534602
1.558407 0.703191 6.767587
1.353665 0.590081 6.847783
2.830700 1.635606 1.640371
2.747483 1.582758 2.055186
2.767735 1.595671 2.231675
2.612647 1.497062 2.379815
2.368079 1.341632 2.994923
2.216476 1.245242 3.149026
1.975271 1.091911 3.550656
1.938093 1.068333 3.910986
1.899136 1.043529 3.762481
1.821888 0.994490 4.246861
2.401250 1.363095 4.958025
2.424886 1.378274 5.740498
2.366520 1.341190 5.935026
2.087750 1.163899 5.971280
1.767103 0.960062 6.476089
1.700154 0.917468 6.396656
1.402083 0.727980 6.851103
2.904330 1.963699 1.403459
2.895112 1.956966 1.640179
2.624303 1.757902 2.305138
2.642341 1.771161 2.259561
2.310715 1.527356 2.890071
2.232309 1.469679 2.862325
2.064373 1.346196 3.078471
1.843208 1.183641 3.706571
1.838276 1.180016 3.721026
1.743511 1.110419 4.268149
2.128838 1.393928 4.688690
2.278905 1.504490 5.608317
2.246607 1.480813 6.019219
2.107589 1.378536 5.906785
1.790091 1.145044 6.130597
1.671422 1.057845 6.578937
1.498160 0.930406 6.595268
1.231103 0.734049 6.991889
2.751441 2.115103 1.470566
2.651301 2.031585 1.720920
2.439317 1.854790 2.270461
2.344874 1.776026 2.524542
2.204423 1.658846 2.676980
2.112878 1.582502 2.933874
1.828922 1.345652 3.518941
1.794310 1.316841 3.880665
1.659689 1.204529 4.042727
1.739473 1.271168 4.318483
2.052897 1.532911 5.199988
2.140579 1.606139 5.466599
2.019245 1.504972 5.906785
1.846158 1.360598 6.256407
1.618599 1.170746 6.517796
1.557233 1.119518 6.439939
1.359644 0.954724 6.925500
1.092351 0.731683 7.041655
2.631632 2.263177 1.469646
2.514320 2.153884 1.778259
2.552347 2.189359 1.896305
2.332206 1.984272 2.504156
2.261516 1.918369 2.474385
1.984265 1.660037 3.049668
1.793539 1.482314 3.389357
1.808749 1.496483 3.341909
1.707105 1.401799 3.663224
1.638737 1.338170 4.147763
1.780904 1.470827 4.740966
1.914978 1.595950 5.386355
2.100932 1.769336 5.564381
1.902082 1.584068 6.030928
1.629670 1.330159 6.194364
1.566455 1.271285 6.456455
1.379916 1.097423 6.596735
1.123653 0.858632 7.056472
0.868896 0.621172 7.177989
2.414177 2.342853 1.458120
2.488902 2.421674 1.682243
2.442211 2.372486 1.813711
2.314126 2.237553 2.182677
2.107694 2.020037 2.570988
1.886578 1.787057 3.024260
1.788940 1.684207 3.341059
1.648668 1.536392 3.558587
1.608833 1.494432 3.694045
1.470420 1.348579 3.915242
1.584830 1.469332 4.572450
1.805088 1.701639 5.132610
1.899463 1.801168 5.336644
1.760329 1.654632 5.897405
1.619899 1.506668 6.184212
1.523401 1.404971 6.288412
1.399417 1.274329 6.518291
1.276697 1.145020 6.750683
1.010348 0.864310 6.991495
2.352686 2.588259 1.418849
2.385471 2.627370 1.536429
2.206257 2.413867 2.079714
2.203151 2.410222 2.314381
1.917563 2.069894 2.778572
1.783676 1.910344 2.991269
1.744586 1.863779 3.125479
1.629742 1.726914 3.280613
1.473192 1.540434 3.847158
1.453212 1.516634 3.921790
1.513524 1.588737 4.762751
1.675729 1.782210 5.224456
1.660937 1.764663 5.577242
1.690410 1.799838 5.745804
1.571754 1.658447 5.970499
1.375943 1.425173 6.569714
1.337884 1.379769 6.427535
1.098984 1.095110 6.944672
0.875182 0.828350 7.062327
2.229033 2.818257 1.452115
2.258788 2.859057 1.570630
2.147169 2.706223 1.936140
2.021309 2.533891 2.363528
1.862769 2.316759 2.691693
1.735601 2.142520 2.680285
1.632916 2.001928 3.057744
1.425221 1.717440 3.357484
1.273650 1.509861 3.703255
1.293965 1.537742 3.880080
1.431664 1.726610 4.637371
1.525119 1.854844 5.345818
1.525083 1.854874 5.638664
1.552085 1.891915 5.808319
1.430912 1.725969 6.096160
1.275928 1.513749 6.573597
1.205411 1.417143 6.619617
1.044103 1.196186 6.825019
0.737327 0.775955 7.169973
1.974528 2.829090 1.295609
1.998597 2.866822 1.639719
1.945088 2.783218 1.831926
1.845622 2.627878 2.425254
1.731137 2.448945 2.636210
1.647834 2.318729 2.729372
1.470575 2.041656 2.964310
1.328966 1.820352 3.306991
1.197344 1.614582 3.366832
1.108055 1.475094 3.756590
1.218853 1.648566 4.582120
1.403154 1.936865 5.085597
1.476130 2.051022 5.293946
1.436643 1.989344 5.492954
1.374556 1.892366 5.815072
1.259221 1.712225 6.446988
1.143241 1.530898 6.462318
0.973966 1.266336 6.793039
1.840746 2.988232 1.828330
1.807821 2.929755 1.959616
1.760690 2.846050 2.150337
1.571457 2.509902 2.716056
1.437966 2.272679 2.826110
1.308700 2.043040 3.163932
1.234104 1.910489 3.260139
1.062259 1.605163 3.566170
1.007924 1.508676 3.830271
1.155819 1.771811 4.689740
1.324374 2.071458 4.909774
1.345716 2.109536 5.360860
1.256918 1.951874 5.864690
1.202784 1.855763 6.186619
1.123653 1.715176 6.354960
1.054841 1.592909 6.462804
0.920039 1.353386 6.667193
0.488559 0.701998 6.845986
0.602482 0.940478 7.009795
1.459244 3.177338 1.421376
1.466840 3.195848 1.598149
1.360973 2.939082 2.142535
1.358555 2.933216 2.155294
1.266259 2.709277 2.422399
1.121545 2.358220 2.996252
1.084617 2.268566 2.967881
0.904913 1.832465 3.289300
0.766999 1.497714 3.370862
0.809993 1.602290 3.876422
0.953103 1.949969 4.548822
1.065723 2.223496 4.891404
1.055281 2.198295 5.245466
1.010687 2.090175 5.564899
0.935282 1.907364 6.132528
0.902244 1.827271 6.393461
0.782486 1.536693 6.720069
0.671800 1.267971 6.644321
0.531171 0.926668 6.825011
1.230001 3.232889 1.492418
1.188217 3.108441 1.965155
1.186025 3.101904 1.978797
1.099022 2.842445 2.305020
0.986273 2.506251 2.817591
0.928731 2.334621 2.972168
0.880179 2.189787 3.067331
0.747583 1.794214 3.268993
0.627765 1.436859 3.643370
0.731960 1.748036 4.160904
0.853133 2.109955 4.828573
0.888465 2.215519 5.098035
0.852395 2.108183 5.698806
0.853494 2.111607 5.991869
0.845247 2.087035 6.067551
0.742655 1.781225 6.731486
0.644025 1.486904 6.719035
0.502764 1.065592 7.154369
1.053827 3.383107 1.546519
0.988796 3.141607 2.033167
0.979142 3.105756 2.107291
0.878479 2.731821 2.676216
0.800249 2.441051 2.848934
0.724603 2.160033 3.251253
0.678031 1.986965 3.411643
0.566932 1.573870 3.393918
0.541346 1.479038 3.888551
0.657991 1.913042 4.378563
0.691429 2.037841 5.156640
0.709422 2.104981 5.549098
0.704241 2.085934 5.905867
0.675709 1.980042 6.228683
0.653336 1.897015 6.490636
0.597501 1.689417 6.505811
0.531302 1.443365 6.648177
0.832131 3.370219 1.468727
0.811650 3.270542 1.882454
0.762704 3.031936 2.371244
0.761337 3.025271 2.385220
0.700650 2.729084 2.552482
0.628806 2.378517 2.846239
0.586901 2.174081 3.064571
0.532478 1.908438 3.182785
0.432800 1.422051 3.579955
0.461236 1.561245 4.023345
0.556778 2.028081 4.447401
0.569395 2.090440 5.406501
0.606103 2.269742 5.488450
0.564177 2.065255 5.776336
0.537653 1.936045 6.161653
0.528433 1.891137 6.299713
0.473070 1.620971 6.501791
0.379394 1.163965 6.997026
0.274710 0.652819 6.998798
0.639618 3.523592 1.262181
0.603943 3.272312 1.745420
0.594569 3.206287 1.875972
0.560208 2.964043 2.141295
0.514070 2.638873 2.591859
0.480676 2.403468 2.866284
0.443818 2.143680 3.206066
0.394631 1.796823 3.511466
0.355161 1.518098 3.406842
0.341516 1.422334 3.900147
0.390992 1.772403 4.636868
0.436072 2.091237 5.199107
0.464923 2.294912 5.219655
0.439206 2.113950 5.724470
0.420602 1.983064 6.108333
0.399916 1.837548 6.556275
0.367032 1.605514 6.633794
0.318007 1.259593 6.747443
0.255575 0.818999 6.836903
0.404483 3.393088 1.357556
0.391716 3.230707 1.888952
0.398177 3.313550 1.946201
0.374565 3.012024 2.330252
0.351029 2.711033 2.496334
0.318749 2.298603 2.911883
0.304714 2.119236 3.068115
0.290743 1.940680 3.226239
0.258331 1.526137 3.433447
0.241537 1.312177 3.952789
0.276675 1.763031 4.439426
0.310482 2.196940 4.978347
0.310483 2.198113 5.552948
0.310131 2.193639 5.565462
0.289815 1.935063 6.320842
0.281630 1.830925 6.644967
0.263387 1.597526 6.723213
0.233186 1.211357 6.965389
0.195642 0.731149 7.187715
0.194088 3.497954 1.408282
0.189077 3.185619 2.014277
0.188482 3.148560 2.088448
0.182294 2.761037 2.659516
0.178888 2.544549 2.650197
0.174116 2.243055 2.826300
0.171233 2.061439 2.985547
0.165179 1.680449 3.357130
0.160467 1.382967 3.547102
0.159129 1.305170 4.272763
0.169248 1.950917 4.543288
0.171966 2.130180 5.196693
0.172614 2.173065 5.369863
0.169340 1.970783 5.942329
0.168913 1.944406 6.019789
0.165525 1.735521 6.659360
0.161815 1.500579 6.741142
-0.008336 3.398419 1.608273
-0.001468 3.238997 1.919328
0.005316 3.082327 2.008632
0.018396 2.779457 2.400257
0.031512 2.476544 2.572814
0.045802 2.146338 2.811595
0.057218 1.881994 3.158899
0.062162 1.767083 3.424628
0.077884 1.404416 3.512678
0.080877 1.333861 3.947577
0.062391 1.756848 4.786407
0.048255 2.080591 5.349377
0.047273 2.102373 5.583908
0.050308 2.031699 5.784720
0.057745 1.858440 6.297426
0.064693 1.697674 6.469433
0.084061 1.249749 6.901646
-0.222206 3.414738 1.563098
-0.208639 3.286387 1.812971
-0.164281 2.867000 2.439063
-0.141523 2.652335 2.426833
-0.106647 2.322984 2.661376
-0.077845 2.051116 2.777705
-0.044276 1.733731 3.250562
-0.025413 1.555548 3.414724
0.008629 1.234031 3.669784
0.000582 1.309428 4.014869
-0.051827 1.802425 4.949518
-0.076471 2.034118 5.475712
-0.078925 2.056919 5.709902
-0.064952 1.924529 6.097320
-0.043615 1.722801 6.393242
-0.010470 1.409638 6.726229
0.012230 1.195464 6.746318
0.053107 0.809486 6.996994
-0.433749 3.401041 1.335900
-0.437051 3.420412 1.512898
-0.390593 3.144984 2.058442
-0.349813 2.903636 2.101727
-0.295003 2.578878 2.554434
-0.240161 2.254133 2.788811
-0.181031 1.903954 3.091236
-0.169403 1.835231 3.001592
-0.132391 1.615729 3.516195
-0.091909 1.376125 3.578569
-0.048277 1.117322 4.229343
-0.148046 1.707320 4.622435
-0.209409 2.070016 5.062264
-0.206335 2.051220 5.700947
-0.198387 2.004058 5.838031
-0.150605 1.720803 6.380753
-0.127322 1.582927 6.489096
-0.071964 1.254979 6.886712
-0.633382 3.323950 1.420732
-0.603500 3.195650 1.893356
-0.602086 3.189586 1.905645
-0.499499 2.749918 2.368188
-0.443929 2.511899 2.415646
-0.370289 2.196208 2.876079
-0.314845 1.958722 2.930394
-0.259372 1.721112 2.986762
-0.214852 1.530133 3.439853
-0.153552 1.267519 3.565748
-0.111115 1.085460 4.026090
-0.229736 1.592868 4.898526
-0.299185 1.889861 5.521169
-0.304684 1.913248 5.754016
-0.279500 1.805170 6.078642
-0.273782 1.780630 6.154071
-0.183770 1.394736 6.735638
-0.134940 1.185603 6.753800
-0.034124 0.753537 7.196830
-0.840388 3.282127 1.412657
-0.802195 3.154676 1.887561
-0.774406 3.062148 1.856977
-0.669954 2.714015 2.367010
-0.616051 2.534541 2.295197
-0.520420 2.215935 2.530199
-0.433407 1.926060 2.708900
-0.330701 1.583851 3.017807
-0.293128 1.458418 3.577240
-0.207986 1.174764 3.770729
-0.142608 0.956874 4.069838
-0.420565 1.881776 5.479583
-0.406303 1.834202 5.619506
-0.373760 1.725647 5.947254
-0.381468 1.751188 6.182160
-0.273260 1.390538 6.701971
-0.217019 1.203266 6.657323
-0.050121 0.647346 6.849237
-1.022289 3.181141 1.501544
-1.009228 3.145608 1.574151
-0.902750 2.856028 1.959257
-0.788130 2.544287 2.411199
-0.713503 2.341457 2.399908
-0.618866 2.084186 2.512963
-0.475762 1.695037 2.941502
-0.413402 1.525469 3.103887
-0.292188 1.195378 4.491656
-0.475532 1.693572 4.783472
-0.530508 1.842797 5.215231
-0.530102 1.841557 5.512899
-0.454236 1.635063 6.152655
-0.424293 1.553558 6.418756
-0.336088 1.313754 6.562729
-0.228055 1.019967 6.902194
-1.252839 3.202784 1.316096
-1.175499 3.026294 1.684410
-1.100365 2.854923 1.831162
-1.001533 2.629470 2.100811
-0.832655 2.244247 2.514593
-0.734126 2.019570 2.567460
-0.604646 1.724156 3.037694
-0.517441 1.525320 3.034522
-0.465185 1.405951 3.593290
-0.373286 1.196296 3.887542
-0.275709 0.973783 3.956058
-0.557670 1.616197 5.203170
-0.586183 1.681055 5.598506
-0.570277 1.644621 6.021376
-0.543206 1.582816 6.224256
-0.408033 1.274451 6.620289
-0.321510 1.077162 6.639821
-1.397488 3.029909 1.295941
-1.376975 2.989729 1.815748
-1.332867 2.903649 2.006842
-1.193791 2.632462 1.945548
-1.068829 2.388663 2.277400
-0.956958 2.170489 2.326409
-0.741070 1.749304 2.873936
-0.683895 1.637797 2.909227
-0.509824 1.298218 3.284038
-0.629699 1.531467 4.774467
-0.704287 1.676671 5.490066
-0.691974 1.652635 5.566252
-0.640300 1.551752 5.893285
-0.546960 1.369631 6.190457
-0.393265 1.069778 6.588831
-0.250712 0.791672 6.930805
-1.655797 3.023895 1.300212
-1.448278 2.678562 1.860121
-1.429578 2.647437 1.932351
-1.258560 2.362848 2.382783
-1.117714 2.128548 2.492356
-0.962301 1.870001 2.666935
-0.778623 1.564399 2.971101
-0.685913 1.410148 3.132442
-0.586122 1.244028 3.588235
-0.481821 1.070476 3.818135
-0.343648 0.840615 3.949528
-0.778140 1.562944 5.104008
-0.765758 1.542238 5.464366
-0.706933 1.444296 5.791465
-0.607619 1.278932 6.372937
-0.595046 1.257997 6.449451
-0.354321 0.857451 6.950074
-1.842616 2.924115 1.283873
-1.732804 2.764369 1.653347
-1.575139 2.535066 1.980792
-1.403191 2.284982 2.373788
-1.212672 2.008005 2.381963
-0.992261 1.687474 2.745564
-0.841903 1.468787 3.095271
-0.718546 1.289453 3.094074
-0.387766 0.808247 4.253809
-0.593713 1.107525 4.704416
-0.789950 1.392671 5.210221
-0.805314 1.414862 5.733214
-0.790004 1.392583 5.811875
-0.715512 1.284177 6.205032
-0.491286 0.958036 6.796458
-0.347497 0.748956 6.947222
-0.084509 0.366581 7.111576
-1.951375 2.745008 1.667105
-1.892494 2.669035 1.635275
-1.777515 2.520625 1.782388
-1.571466 2.254675 2.007569
-1.333135 1.946976 2.587581
-1.235524 1.821049 2.456106
-1.036812 1.564505 2.925309
-0.813717 1.276596 3.007188
-0.742704 1.184890 3.275369
-0.604439 1.006117 4.642261
-0.830281 1.297436 5.085603
-0.900209 1.387603 5.357671
-0.808669 1.269287 6.098371
-0.780224 1.232544 6.239873
-0.620601 1.026435 6.733350
-0.466268 0.827331 6.532088
-2.092420 2.569668 1.772245
-1.948640 2.407440 1.978780
-1.884663 2.335283 1.948025
-1.722157 2.151916 2.218720
-1.460649 1.856913 2.346517
-1.165259 1.523606 2.833062
-1.081811 1.429470 2.869151
-0.828082 1.143183 3.244418
-0.466629 0.735285 4.045050
-0.920032 1.246398 5.354958
-0.891420 1.214024 5.781478
-0.888065 1.210236 5.796284
-0.850092 1.167288 6.285360
-0.680084 0.975489 6.430041
-0.407858 0.668352 6.742478
-0.125293 0.349535 7.130048
-2.406407 2.595663 1.340110
-2.186080 2.375900 1.719436
-2.075530 2.265656 1.805486
-1.818291 2.009060 2.314879
-1.645051 1.836320 2.362683
-1.430880 1.622740 2.535865
-1.157635 1.350218 2.900917
-0.952729 1.145822 3.314146
-0.864537 1.057882 3.351444
-0.777334 0.970689 4.457537
-1.020339 1.212866 4.964198
-1.021390 1.213784 5.549123
-0.941209 1.133766 5.877762
-0.878361 1.071043 6.144212
-0.707103 0.900194 6.572840
-0.499456 0.693096 6.849267
-2.464054 2.349172 1.381526
-2.478519 2.361839 1.559873
-2.404157 2.296488 1.750969
-2.196386 2.113939 2.076792
-1.945647 1.893671 2.303766
-1.653243 1.636783 2.659218
-1.422162 1.433839 2.609698
-1.049853 1.106716 3.231492
-0.927571 0.999345 3.103804
-0.649058 0.754486 4.272791
-0.781767 0.870963 4.651247
-0.990350 1.054012 5.347020
-1.045232 1.102131 5.743981
-1.009096 1.070363 5.885172
-0.855016 0.934975 6.185899
-0.718385 0.814924 6.425926
-0.409959 0.543973 6.740027
0.026098 0.160950 6.941379
-2.664674 2.265398 1.419309
-2.561792 2.184702 1.669183
-2.320801 1.995675 2.277698
-2.198682 1.899932 2.368114
-2.028544 1.766568 2.356038
-1.718706 1.523670 2.486025
-1.435993 1.302000 2.788083
-1.112676 1.048474 3.223602
-1.013902 0.971041 3.262491
-0.743075 0.758468 4.658077
-0.867596 0.855989 5.096416
-1.067542 1.012684 5.276337
-1.039765 0.990768 5.989240
-0.986572 0.949031 6.194029
-0.875567 0.861995 6.305148
-0.658120 0.691502 6.515992
-0.200269 0.332497 7.066691
-2.744447 2.063656 1.540525
-2.538984 1.921713 2.028220
-2.388239 1.817568 2.400401
-2.213826 1.697115 2.611869
-1.914533 1.490472 2.681167
-1.568729 1.251694 2.878972
-1.201104 0.997837 3.147709
-0.999794 0.858842 3.210016
-0.690471 0.645005 4.688337
-1.072218 0.908469 5.165748
-1.034482 0.882334 5.594647
-1.028681 0.878205 6.244618
-0.896019 0.786582 6.420063
-0.731816 0.673159 6.725809
-0.427902 0.463304 6.913803
-2.915854 1.920164 1.431027
-2.880378 1.898722 1.726182
-2.771514 1.833007 2.198181
-2.515059 1.678331 2.584521
-2.305922 1.552242 2.632621
-0.933056 0.724289 4.342525
-0.944527 0.731054 5.164477
-1.162530 0.862445 5.343559
-1.070582 0.806900 5.961277
-1.094021 0.820987 6.197500
-0.856852 0.677970 6.405901
-0.554099 0.495368 6.877648
-0.271077 0.324735 6.938298
0.158465 0.065728 7.240788
-3.032665 1.713081 1.446655
-3.211606 1.804932 1.494142
-3.042654 1.718136 1.858421
-2.930580 1.660559 2.106922
-2.637774 1.510168 2.551333
-2.395435 1.385745 2.658808
-1.130469 0.735956 5.029179
-1.094115 0.717167 5.745066
-1.079740 0.709723 6.108558
-0.991212 0.664280 6.091082
-0.739864 0.535152 6.652136
-0.530945 0.427888 6.737489
-0.134260 0.224233 6.834220
0.365020 -0.032097 6.976505
-3.302588 1.618015 1.506236
-3.237476 1.589053 1.858729
-3.176520 1.561935 2.210995
-3.034855 1.499039 2.298032
-2.736432 1.366501 2.743772
-2.436837 1.233479 2.974127
-0.925747 0.562367 5.180708
-1.158442 0.665623 5.360103
-1.186090 0.677805 5.884877
-1.085557 0.633124 6.217749
-0.975333 0.584190 6.265847
-0.704117 0.463757 6.542343
-0.330593 0.297905 6.858932
0.144973 0.086752 7.224645
-3.420149 1.419334 1.246732
-3.433130 1.424091 1.646371
-3.367888 1.399787 1.998326
-3.250350 1.356066 2.246790
-3.001644 1.263550 2.792326
-2.805931 1.190784 3.002374
-0.993186 0.516832 4.787908
-1.164614 0.580476 5.161022
-1.230904 0.605043 5.560182
-1.153990 0.576367 6.115270
-1.040866 0.534320 6.162695
-0.870260 0.470879 6.403399
-0.556802 0.354323 6.812397
-0.138777 0.198960 6.911280
0.369522 0.010054 6.988839
-3.478703 1.203564 1.499847
-3.524117 1.217323 1.840240
-3.517217 1.215149 2.295055
-3.291036 1.146262 2.777920
-3.225253 1.126265 2.690031
-2.840645 1.009159 3.316667
-1.052120 0.464792 4.993647
-1.204186 0.511028 5.141891
-1.146481 0.493344 5.924126
-1.112840 0.483039 6.353988
-1.036306 0.459770 6.275844
-0.676986 0.350372 6.812571
-0.378642 0.259612 6.808785
-3.662479 1.014869 1.701942
-3.682163 1.019527 1.879426
-3.646916 1.011052 2.392089
-3.478990 0.970976 2.976238
-3.418414 0.956532 3.108617
-3.076474 0.875072 3.394900
-1.125273 0.410269 4.863362
-1.259306 0.442100 5.364075
-1.259267 0.442041 5.667589
-1.128883 0.410933 6.066143
-0.833571 0.340520 6.694201
-0.642480 0.295030 6.652745
-0.282079 0.209190 6.845112
0.243364 0.084015 7.283655
-3.708415 0.767394 1.301499
-3.662116 0.759456 2.036283
-3.831243 0.788006 2.140167
-3.857449 0.792370 2.532351
-3.683810 0.762983 2.893544
-3.488352 0.729901 3.315733
-1.142647 0.333346 5.475726
-1.230880 0.348242 5.522833
-1.284615 0.357245 5.983117
-1.083591 0.323242 6.285092
-0.771842 0.270530 6.625683
-0.482727 0.221651 6.907796
-0.062090 0.150596 6.942414
0.472496 0.060287 7.021177
-3.830771 0.550506 1.569910
-3.730673 0.539674 2.198997
-3.729225 0.539447 2.651422
-3.789918 0.545902 2.985070
-3.845657 0.551860 3.100081
-3.689446 0.535020 3.679323
-3.514691 0.516260 3.828345
-0.922107 0.238121 4.957298
-1.177365 0.265413 5.427846
-1.272489 0.275559 5.763452
-1.161570 0.263614 6.097567
-0.959619 0.241913 6.402897
-0.800567 0.224833 6.580468
-0.375258 0.179173 6.964425
0.067560 0.131680 7.066726
-3.802450 0.313948 1.673556
-3.735667 0.310753 2.464417
-3.850757 0.316010 2.683294
-3.802449 0.313700 3.248364
-3.805951 0.313825 3.478994
-3.616531 0.305049 3.901586
-3.442102 0.297006 4.052292
-1.036520 0.186217 5.265876
-1.181833 0.192819 5.762158
-1.165837 0.192026 6.127006
-1.182153 0.192784 6.077115
-0.823866 0.176238 6.544363
-0.511025 0.161800 6.890702
-0.124470 0.143987 7.150812
-3.825980 0.082120 1.438526
-3.692973 0.083990 2.126974
-3.719320 0.083536 2.521802
-3.863620 0.081365 2.681708
-3.761425 0.082777 3.362673
-3.792564 0.082287 3.534636
-1.163430 0.121129 5.233844
-1.213168 0.120316 5.698089
-1.217002 0.120212 6.000339
-1.149319 0.121186 6.207138
-0.772803 0.126703 6.741972
-0.461611 0.131277 7.091669
-3.858813 -0.155750 1.585319
-3.847838 -0.154982 2.038910
-3.901883 -0.159169 2.374211
-3.875694 -0.157246 2.881014
-3.795225 -0.151155 3.285154
-0.949324 0.066257 4.959310
-1.117616 0.053270 5.684272
-1.142831 0.051304 5.922411
-1.169933 0.049194 6.159699
-1.008843 0.061487 6.335607
-0.713786 0.084011 6.613443
-0.268663 0.117986 7.066171
-3.638605 -0.365366 1.545502
-3.657007 -0.368022 2.163477
-3.827493 -0.391732 2.266318
-3.661773 -0.368827 3.065558
-3.754428 -0.381748 3.337883
-0.977767 0.003914 4.886910
-1.231436 -0.031417 5.356575
-1.253925 -0.034580 5.594734
-1.142006 -0.019078 5.927908
-1.013558 -0.001290 6.326572
-0.740139 0.036677 6.539192
-0.296917 0.098206 6.990547
0.087941 0.151709 6.894373
-3.592821 -0.581836 2.013178
-3.731729 -0.609837 2.175805
-3.758102 -0.615211 2.569608
-3.566441 -0.576716 3.209951
-3.507135 -0.564793 3.340948
-0.992790 -0.058628 4.554622
-1.078371 -0.075964 5.186717
-1.148084 -0.090068 5.588052
-1.171857 -0.094894 5.827022
-1.002873 -0.060947 6.354684
-0.807263 -0.021603 6.660049
-0.539412 0.032305 6.875397
-0.121688 0.116424 6.907742
-3.610729 -0.813562 1.676003
-3.716262 -0.841580 1.899405
-3.598365 -0.810433 2.586548
-3.678306 -0.831638 2.645054
-3.288860 -0.728481 3.262159
-0.736767 -0.052005 4.392357
-1.000103 -0.121893 4.805288
-1.181048 -0.169977 5.467245
-1.100227 -0.148639 6.025157
-1.075419 -0.142074 6.103484
-0.894807 -0.094283 6.696468
-0.667778 -0.034103 6.782681
-0.329563 0.055551 6.908554
0.119569 0.174605 7.078404
-3.340187 -0.960935 1.894737
-3.334484 -0.959120 2.352018
-3.330991 -0.958001 2.586891
-3.329157 -0.957432 2.821608
-3.157247 -0.900467 2.970930
-2.709784 -0.752177 3.279466
-2.192587 -0.580719 3.274311
-1.561166 -0.371398 3.299545
-1.154162 -0.236468 3.285361
-0.827924 -0.128549 4.692804
-1.022308 -0.193042 5.005502
-1.092984 -0.216587 5.698026
-1.198342 -0.251512 5.682391
-1.051622 -0.202950 6.146054
-0.783709 -0.114227 6.712128
-0.597326 -0.052431 6.670529
-0.136452 0.100316 6.902051
-3.235652 -1.150810 1.325307
-3.332280 -1.189728 1.772788
-3.297706 -1.175918 2.288581
-3.210505 -1.140898 2.479343
-3.177492 -1.127640 2.552463
-2.852711 -0.997171 3.059160
-2.542384 -0.872428 3.069185
-1.960509 -0.638558 3.247664
-1.503989 -0.455026 3.125056
-1.176683 -0.323510 3.442121
-0.778229 -0.163573 4.810041
-1.056222 -0.275329 4.864462
-1.143028 -0.310330 5.492690
-1.164721 -0.319090 5.731987
-0.984085 -0.246579 6.323561
-0.891136 -0.209213 6.308624
-0.579412 -0.083977 6.718905
-0.111843 0.103925 7.016712
-3.275905 -1.423717 1.492422
-3.157942 -1.366976 1.962609
-3.152424 -1.364359 2.197079
-2.989882 -1.286126 2.564672
-2.700119 -1.146625 3.012426
-2.399194 -1.001670 3.021411
-1.746438 -0.687262 3.172781
-1.001722 -0.328601 3.584464
-0.755675 -0.210200 4.270595
-0.893192 -0.276571 5.005599
-1.186468 -0.417891 5.282628
-1.166733 -0.408448 5.648015
-0.980006 -0.318554 5.949740
-0.773321 -0.219120 6.672687
-0.630637 -0.150419 6.852541
-0.350291 -0.015375 6.847167
0.155184 0.228089 6.988286
-3.002618 -1.520776 1.671261
-3.020301 -1.530742 2.071614
-3.040711 -1.542194 2.248454
-2.804614 -1.410151 2.574512
-2.517198 -1.249377 2.803070
-2.279648 -1.116482 2.915516
-1.858871 -0.881065 3.011197
-1.413704 -0.632013 3.177760
-1.119916 -0.467637 3.201313
-0.761404 -0.267224 4.211177
-0.892839 -0.340897 4.947993
-1.034438 -0.420204 5.385255
-1.117981 -0.467009 5.720271
-0.937684 -0.366183 6.022759
-0.773261 -0.274292 6.617093
-0.634687 -0.196789 6.796903
-0.296322 -0.007512 7.054335
0.176292 0.256912 7.132499
-2.958207 -1.735391 1.548355
-2.748087 -1.600483 2.036355
-2.642871 -1.532931 2.289139
-2.439558 -1.402355 2.560256
-2.285862 -1.303636 2.713618
-1.839780 -1.017117 3.155773
-1.526428 -0.815765 3.009037
-1.051197 -0.510492 3.308074
-0.680530 -0.272602 4.692219
-0.952008 -0.447076 4.973916
-0.996018 -0.475493 5.729294
-1.017444 -0.489304 5.967895
-0.874590 -0.397621 6.496128
-0.659709 -0.259591 6.646151
-0.461757 -0.132425 6.733866
-0.053897 0.129576 6.966682
-2.758013 -1.849969 1.325532
-2.869357 -1.931647 1.492418
-2.715386 -1.818816 1.861605
-2.445825 -1.621242 2.309213
-2.271332 -1.493288 2.297147
-2.026370 -1.313697 2.469409
-1.713727 -1.084515 2.831952
-1.308737 -0.787624 3.226807
-1.103263 -0.636923 3.060136
-0.542337 -0.225786 3.959937
-0.546881 -0.229224 4.503873
-0.863078 -0.461215 5.178945
-1.032107 -0.585220 5.486702
-0.998701 -0.560808 5.918164
-0.783838 -0.403352 6.417217
-0.606900 -0.273682 6.792585
-0.355479 -0.089321 6.788638
0.035441 0.197285 7.024935
-2.581658 -1.966321 1.469799
-2.527001 -1.920936 1.826046
-2.315237 -1.744882 2.153604
-2.198045 -1.647479 2.468462
-2.076645 -1.546485 2.335082
-1.777834 -1.298042 2.692283
-1.482393 -1.052402 3.058437
-1.288011 -0.890702 2.888397
-0.944325 -0.604920 3.164056
-0.537383 -0.266685 4.203134
-0.635598 -0.348534 5.007249
-0.885979 -0.556829 5.284926
-0.891995 -0.561954 5.877534
-0.896616 -0.565859 6.179623
-0.803978 -0.488824 6.227576
-0.664500 -0.372871 6.470314
-0.290363 -0.061826 7.052534
-2.411480 -2.084753 1.580529
-2.361873 -2.037964 1.713153
-2.203941 -1.888959 1.921122
-2.025652 -1.720754 2.192527
-1.766133 -1.475941 2.712942
-1.521949 -1.245490 2.725651
-1.222637 -0.963104 3.159531
-1.017918 -0.769874 3.054664
-0.867090 -0.627577 3.285432
-0.706932 -0.476660 4.369300
-0.785958 -0.551429 5.231476
-1.004338 -0.757540 5.282379
-0.909809 -0.668475 5.967895
-0.890966 -0.650709 6.046421
-0.757909 -0.525186 6.287222
-0.513500 -0.294609 6.696496
-2.280572 -2.225160 1.802336
-2.173455 -2.111131 1.890030
-1.984678 -1.910164 1.994820
-1.817294 -1.732012 2.268295
-1.671400 -1.576728 2.484106
-1.402113 -1.290047 2.619488
-1.132910 -1.003458 2.761012
-0.851253 -0.703678 3.204324
-0.746802 -0.592613 3.835014
-0.742793 -0.588348 3.849602
-0.332553 -0.151600 4.006129
-0.815454 -0.665969 4.970908
-0.836635 -0.688709 5.789111
-0.811804 -0.662370 6.218720
-0.753086 -0.599915 6.489340
-0.578464 -0.414028 6.638037
-0.431064 -0.257095 6.659002
-0.099024 0.096377 6.889309
-2.162475 -2.384580 1.304517
-2.134992 -2.351582 1.602843
-2.071817 -2.275611 1.795919
-1.762588 -1.903645 2.324396
-1.700509 -1.828938 2.295690
-1.415233 -1.485782 2.779157
-1.313045 -1.362786 2.647721
-1.044003 -1.039097 2.852348
-0.799402 -0.744860 3.232351
-0.802963 -0.749205 3.477281
-0.656016 -0.572457 3.775049
-0.725602 -0.656610 5.480687
-0.815227 -0.764508 5.688023
-0.804382 -0.751548 6.053927
-0.648679 -0.564297 6.487833
-0.559305 -0.456781 6.602035
-0.384059 -0.245960 6.819529
0.010710 0.228985 7.159310
-1.914264 -2.380896 1.619984
-1.767467 -2.180336 1.889628
-1.657214 -2.029691 2.041536
-1.390989 -1.665963 2.521158
-1.299496 -1.540942 2.617939
-1.121015 -1.297055 2.799915
-0.840106 -0.913220 3.137286
-0.717771 -0.746084 3.369643
-0.493016 -0.439159 4.321274
-0.583563 -0.563108 5.059485
-0.789165 -0.844168 5.273793
-0.712108 -0.739035 5.962533
-0.765151 -0.811543 6.009400
-0.608755 -0.597926 6.509027
-0.537678 -0.500797 6.559966
-1.767758 -2.515532 1.581935
-1.633894 -2.305535 1.851469
-1.549462 -2.173061 1.942700
-1.433276 -1.990790 2.157199
-1.285050 -1.758208 2.270138
-1.044652 -1.381091 2.761222
-0.852800 -1.080105 3.074303
-0.691670 -0.827295 3.266398
-0.688087 -0.821677 3.282176
-0.555606 -0.614110 4.434435
-0.639259 -0.745604 5.168895
-0.704512 -0.848172 5.732547
-0.718015 -0.869432 5.972145
-0.648301 -0.760146 6.372761
-0.510531 -0.543985 6.522728
-0.311086 -0.231047 6.712704
-0.070909 0.145838 6.814448
-1.619434 -2.621253 1.569102
-1.527742 -2.456715 1.717884
-1.436409 -2.292823 1.868628
-1.258336 -1.973279 2.161125
-1.124095 -1.732355 2.274926
-0.964541 -1.446112 2.746535
-0.844958 -1.231481 2.805924
-0.618550 -0.825268 3.379173
-0.660291 -0.900210 3.433253
-0.535204 -0.675799 3.796741
-0.206048 -0.085084 4.152964
-0.654083 -0.889613 5.121642
-0.677362 -0.931549 5.587553
-0.668235 -0.915286 5.954897
-0.605017 -0.801939 6.355187
-0.480239 -0.578014 6.504747
-0.355853 -0.354792 6.656959
-1.524139 -2.866143 1.253245
-1.415518 -2.639000 1.518824
-1.281933 -2.359678 1.909320
-1.188772 -2.164859 2.122605
-1.032220 -1.837453 2.419503
-0.926218 -1.615712 2.473733
-0.758965 -1.265950 2.845432
-0.605482 -0.944971 3.162056
-0.579331 -0.890314 3.304972
-0.421775 -0.561239 4.778163
-0.561298 -0.853229 5.058676
-0.603472 -0.941689 5.685522
-0.614314 -0.964458 5.923910
-0.593994 -0.922000 6.066439
-0.488919 -0.702337 6.500953
-0.370297 -0.454254 6.716867
-1.307955 -2.862693 1.226399
-1.269833 -2.768530 1.419922
-1.164397 -2.508011 1.749562
-1.072044 -2.279906 2.249722
-0.967993 -2.022625 2.134609
-0.842654 -1.712861 2.373169
-0.696689 -1.352165 2.743747
-0.573137 -1.046826 2.995488
-0.450333 -0.743340 3.253075
-0.330388 -0.447381 4.605782
-0.504092 -0.876888 4.794495
-0.574012 -1.050024 5.457269
-0.550367 -0.991777 5.951898
-0.509358 -0.890533 6.287430
-0.426522 -0.685904 6.659544
-0.403830 -0.629746 6.515890
-0.214140 -0.160918 6.808202
-1.113749 -2.887093 1.326802
-1.043659 -2.677960 1.534764
-0.983246 -2.497798 1.911450
-0.886527 -2.209266 2.308701
-0.789996 -1.921183 2.484529
-0.692200 -1.629213 2.435460
-0.595732 -1.341324 2.619111
-0.519757 -1.114663 2.911237
-0.431355 -0.851087 3.567282
-0.409443 -0.786169 4.561119
-0.459832 -0.936953 5.292698
-0.489751 -1.026437 5.630026
-0.511214 -1.090565 5.741461
-0.436469 -0.867790 6.461690
-0.398241 -0.753694 6.511803
-0.286653 -0.420637 6.634486
-0.904134 -2.853273 1.521867
-0.886514 -2.787227 1.655203
-0.838248 -2.606177 1.804338
-0.706205 -2.110997 2.401949
-0.657950 -1.929855 2.330604
-0.572359 -1.608787 2.572276
-0.510782 -1.377867 2.860253
-0.398278 -0.955959 3.368891
-0.396736 -0.950182 3.383187
-0.337226 -0.727028 3.681824
-0.429784 -1.075359 5.266801
-0.441140 -1.118085 5.442057
-0.424877 -1.057354 5.935904
-0.396716 -0.951872 6.270624
-0.330683 -0.704144 6.418182
-0.239617 -0.362673 6.896047
-0.735461 -2.923640 1.263728
-0.739144 -2.941925 1.443988
-0.683255 -2.666909 1.773638
-0.610555 -2.309235 2.291715
-0.555816 -2.039710 2.405492
-0.501119 -1.770396 2.522491
-0.424006 -1.390873 2.895345
-0.375149 -1.150284 2.957338
-0.333630 -0.945965 3.189297
-0.302464 -0.793401 4.378638
-0.370402 -1.128431 4.890799
-0.361410 -1.084711 5.612284
-0.361957 -1.087649 5.915416
-0.331918 -0.940060 6.379541
-0.299942 -0.782702 6.558500
-0.245354 -0.514005 6.773675
-0.164380 -0.115142 6.739205
-0.533973 -2.815519 1.771937
-0.508043 -2.630232 1.922575
-0.502914 -2.593629 1.997429
-0.436359 -2.118232 2.537553
-0.385804 -1.756734 2.613039
-0.343922 -1.457391 2.797038
-0.314869 -1.249859 3.025322
-0.262071 -0.872669 3.410576
-0.299301 -1.140657 4.913754
-0.312399 -1.235049 5.538004
-0.303891 -1.174757 6.029247
-0.287228 -1.055632 6.074948
-0.264811 -0.895499 6.249970
-0.234202 -0.676996 6.621302
-0.169712 -0.215935 6.781419
-0.348835 -2.694180 1.846401
-0.336632 -2.537860 2.165263
-0.326783 -2.411254 2.198262
-0.307739 -2.166406 2.248210
-0.270834 -1.692831 2.799915
-0.238248 -1.274126 3.008420
-0.228521 -1.149085 3.046389
-0.211238 -0.927862 3.573569
-0.202652 -0.817976 3.845698
-0.167384 -0.364474 3.908154
-0.241667 -1.322234 5.042329
-0.236199 -1.252908 5.535020
-0.222375 -1.076154 6.059933
-0.218768 -1.030048 6.202177
-0.201538 -0.809192 6.572640
-0.183294 -0.574693 6.658311
-0.188374 -2.991271 1.513910
-0.184725 -2.772041 1.723609
-0.180579 -2.525515 2.223538
-0.175531 -2.221213 2.397378
-0.171464 -1.975216 2.451333
-0.162558 -1.439712 2.907211
-0.157566 -1.138968 3.097328
-0.153654 -0.904629 3.394963
-0.151757 -0.802620 4.750391
-0.160520 -1.336518 5.036870
-0.160465 -1.338801 5.627388
-0.158546 -1.225698 5.960979
-0.155475 -1.041807 6.201175
-0.154347 -0.975470 6.409428
-0.147187 -0.545109 6.790749
-0.005290 -2.986537 1.317543
-0.005795 -2.974426 1.558156
-0.016919 -2.725338 1.828910
-0.033147 -2.361519 2.348193
-0.044161 -2.115655 2.401144
-0.057735 -1.812248 2.581052
-0.077863 -1.362312 2.851527
-0.085984 -1.180561 3.018189
-0.092338 -1.037648 3.354097
-0.102675 -0.806016 3.654022
-0.109830 -0.644988 4.059194
-0.071737 -1.490629 5.218057
-0.075981 -1.395007 5.486838
-0.082966 -1.237582 5.947531
-0.093899 -0.992189 6.380545
-0.107109 -0.696530 6.660354
0.178320 -2.998018 1.285482
0.160995 -2.833951 1.826044
0.147638 -2.707692 2.082000
0.106297 -2.317587 2.436609
0.096016 -2.220753 2.408685
0.045458 -1.743836 2.732831
0.019549 -1.499591 2.791855
-0.015138 -1.172346 3.044392
-0.035743 -0.977478 3.508460
-0.069781 -0.656333 3.771978
-0.069436 -0.658776 4.315432
0.001331 -1.324906 4.806125
0.011145 -1.416458 5.431377
0.015893 -1.460939 5.606152
-0.017044 -1.149635 6.225621
-0.026099 -1.063900 6.497050
-0.046732 -0.869531 6.452014
-0.094030 -0.423153 6.900400
0.353909 -2.915159 1.413611
0.341893 -2.844046 1.774289
0.300851 -2.601835 2.272656
0.279363 -2.475446 2.078498
0.228862 -2.177612 2.479709
0.167714 -1.817372 2.554937
0.107662 -1.463364 2.865195
0.057300 -1.166546 3.054876
0.020164 -0.947306 3.583630
-0.013693 -0.747664 3.817448
-0.024408 -0.684142 4.256272
0.064163 -1.205288 4.838179
0.099478 -1.412743 5.432120
0.103477 -1.436076 5.667709
0.074344 -1.263988 6.188387
0.057732 -1.166155 6.170184
0.008072 -0.873392 6.443440
-0.063712 -0.450214 6.824389
0.517364 -2.829154 1.531003
0.515152 -2.819505 1.770997
0.459499 -2.580637 2.268386
0.397139 -2.313290 2.379088
0.368514 -2.190580 2.411814
0.266100 -1.751462 2.672662
0.184950 -1.403443 2.983402
0.104525 -1.058524 3.301464
0.097031 -1.026352 3.380177
0.002435 -0.620762 3.604006
0.180924 -1.384655 5.190512
0.222509 -1.562828 5.272712
0.202701 -1.477550 5.824915
0.168269 -1.329659 6.282827
0.114669 -1.099878 6.363863
0.034253 -0.754894 6.835103
0.702664 -2.835097 1.662946
0.657287 -2.683167 1.978769
0.570427 -2.392459 2.375089
0.525952 -2.243669 2.469709
0.431078 -1.926244 2.709628
0.310518 -1.522936 2.914996
0.224423 -1.234899 3.103927
0.149709 -0.984830 3.464501
0.057090 -0.674936 3.727791
0.071948 -0.724400 4.141635
0.256202 -1.340303 4.699927
0.321947 -1.559882 5.233342
0.309070 -1.516584 5.660169
0.276817 -1.408538 5.991466
0.234050 -1.265255 6.451237
0.178013 -1.077871 6.406402
0.860100 -2.740411 1.538525
0.846336 -2.702864 1.838520
0.802656 -2.584020 2.094060
0.708594 -2.328198 2.429753
0.633838 -2.125008 2.419995
0.509631 -1.787266 2.722501
0.383701 -1.444938 2.802468
0.251307 -1.084907 3.182562
0.221165 -1.002885 3.389708
0.118483 -0.723694 3.586520
0.420996 -1.545345 4.919181
0.436481 -1.587224 5.379767
0.399678 -1.486911 5.993811
0.405303 -1.502221 5.945273
0.260047 -1.107104 6.597078
0.166419 -0.852679 6.458571
1.115142 -2.883542 1.332165
1.037002 -2.705472 1.931690
1.046110 -2.726219 1.886381
0.923560 -2.447157 2.280010
0.753278 -2.059543 2.472483
0.622830 -1.762475 2.942361
0.521105 -1.531029 2.772772
0.323044 -1.080019 3.406999
0.272517 -0.965009 3.448432
0.131875 -0.644799 3.776805
0.496717 -1.474636 5.042733
0.515398 -1.516970 5.504107
0.533494 -1.558087 5.678441
0.479776 -1.435676 6.071973
0.390059 -1.231351 6.435575
0.256950 -0.928391 6.487831
0.092175 -0.553260 6.803747
1.257361 -2.745407 1.254375
1.306637 -2.841020 1.480293
1.219452 -2.671584 1.853068
1.106913 -2.452950 2.124103
0.995571 -2.236640 2.398953
0.911542 -2.073408 2.554460
0.680216 -1.624059 2.941013
0.517989 -1.308920 3.253578
0.381545 -1.043893 3.445258
0.282186 -0.850945 3.446348
0.530217 -1.332135 4.799042
0.710573 -1.682241 5.174935
0.666959 -1.597457 5.438411
0.594854 -1.457278 5.891594
0.535371 -1.341632 6.283876
0.390839 -1.060848 6.618822
1.739244 -3.188597 1.378912
1.522351 -2.824834 1.323786
1.439196 -2.685269 1.636332
1.358418 -2.549688 1.948602
1.233363 -2.339859 2.219066
1.022493 -1.985984 2.861646
0.955183 -1.873150 2.667902
0.740080 -1.512311 2.868785
0.503204 -1.114840 3.435393
0.398878 -0.939790 3.666463
0.348675 -0.855596 3.642010
0.774643 -1.569597 5.092019
0.750871 -1.529595 5.515076
0.714820 -1.469066 5.716508
0.668623 -1.391503 5.981489
0.613174 -1.298400 6.310585
0.423140 -0.979614 6.487781
0.184516 -0.579339 6.642023
