-2.342179 0.048910 3.862903
-2.126042 0.041820 4.429776
-2.388257 0.050432 4.585301
-2.630548 0.058394 5.091393
-2.735010 0.061828 5.398478
-2.747796 0.062251 5.671293
-2.511381 0.054494 6.072347
-2.165379 0.043139 6.513827
-2.034852 0.038854 6.601743
-1.866824 0.033340 6.820889
-1.454229 0.019797 7.183651
-3.666024 0.392062 1.338074
-3.463149 0.368814 1.984585
-3.410856 0.362821 2.096014
-3.302040 0.350350 2.331604
-3.104568 0.327715 2.527071
-2.880955 0.302084 2.787874
-2.632944 0.273657 3.115465
-2.506510 0.259167 3.421279
-2.425384 0.249873 3.893194
-2.312808 0.236968 3.908289
-2.215644 0.225837 4.445895
-2.570565 0.266530 4.925132
-2.773642 0.289818 5.552215
-2.861345 0.299876 5.918845
-2.615047 0.271643 6.034469
-2.214575 0.225738 6.315809
-2.179234 0.221688 6.432152
-1.917749 0.191720 6.974520
-1.748641 0.172332 6.841840
-1.285133 0.119205 7.409295
-3.185205 0.628036 1.325267
-3.424119 0.677294 1.737060
-3.318174 0.655460 2.198217
-3.268431 0.645206 2.307859
-3.191410 0.629331 2.479854
-2.837841 0.556449 3.050935
-2.674958 0.522872 3.186772
-2.486900 0.484106 3.387898
-2.407264 0.467695 3.857472
-2.450259 0.476564 4.298245
-2.229375 0.431025 4.048131
-2.844247 0.557802 5.540392
-2.931199 0.575732 5.903956
-2.822562 0.553337 5.921060
-2.482014 0.483137 6.352765
-2.186359 0.422187 6.313544
-2.039288 0.391870 6.463284
-1.855633 0.354013 6.744752
-3.157093 0.907893 1.247567
-3.389868 0.976992 1.660024
-3.256046 0.937277 2.185402
-3.261234 0.938817 2.173798
-3.102528 0.891713 2.534535
-2.782183 0.796633 3.046016
-2.596128 0.741409 3.247911
-2.386444 0.679173 3.516025
-2.446670 0.697054 3.897379
-2.332348 0.663125 4.204731
-2.087807 0.590539 4.313700
-3.034618 0.871598 5.710792
-3.069373 0.881917 5.917021
-2.447986 0.697482 6.640425
-1.883118 0.529816 6.872881
-1.794599 0.503541 6.832097
-1.364168 0.375783 7.330174
-3.215723 1.237428 1.600552
-3.223090 1.240338 2.046304
-3.062830 1.177170 2.178333
-2.987698 1.147558 2.353554
-2.869705 1.101057 2.882429
-2.713117 1.039336 3.019455
-2.532289 0.968063 3.221419
-2.366666 0.902785 3.654708
-1.782866 0.672717 7.051831
-1.663175 0.625540 7.141318
-1.241125 0.459183 7.285770
-2.992176 1.449677 1.620166
-3.078276 1.492294 1.881776
-2.982044 1.444673 2.346874
-3.012158 1.459576 2.273953
-2.839720 1.374237 2.698374
-2.566497 1.239016 3.149406
-2.440325 1.176570 3.225875
-2.373542 1.143520 3.405088
-3.025410 1.802981 1.221012
-2.899217 1.726417 1.747677
-2.855348 1.699804 2.088849
-2.839189 1.690003 2.367482
-2.597930 1.543618 2.751491
-2.531993 1.503613 2.928049
-2.319793 1.374859 3.255836
-2.132860 1.261437 3.524010
-2.208172 1.307139 3.841633
-2.105719 1.244977 4.148756
-2.146037 1.269448 4.590696
-2.827425 2.039238 1.292524
-2.781783 2.005764 1.633617
-2.645731 1.905976 2.222516
-2.654395 1.912335 2.438813
-2.517156 1.811669 2.572723
-2.409845 1.732959 2.874050
-2.209295 1.585856 3.201124
-2.011713 1.440930 3.532494
-1.589519 1.131295 6.891169
-2.506138 2.162366 1.650705
-2.491349 2.149394 2.158679
-2.563803 2.212987 2.188545
-2.376965 2.049009 2.735680
-2.312399 1.992339 2.682713
-2.144382 1.844875 2.944487
-1.958175 1.681448 3.273178
-1.876003 1.609335 3.808288
-1.402288 1.193608 6.910593
-1.151986 0.973926 7.367503
-2.215921 2.259158 1.041418
-2.298978 2.345362 1.704307
-2.344729 2.392841 1.798010
-2.309542 2.356332 2.139274
-2.194367 2.236818 2.501208
-2.063443 2.100962 2.928049
-1.946839 1.979960 3.065892
-1.775666 1.802335 3.396366
-1.736104 1.761288 3.804794
-1.334772 1.344853 6.034062
-1.334031 1.344091 6.377061
-1.258839 1.266075 7.110662
-2.042949 2.481981 0.942085
-2.097719 2.549730 1.667920
-2.101683 2.554637 1.886198
-2.070323 2.515860 2.228102
-1.966531 2.387507 2.591041
-1.860337 2.256179 2.725185
-1.761125 2.133490 3.090101
-1.639713 1.983342 3.291580
-1.587360 1.918606 3.761881
-1.601761 1.936420 3.976343
-1.305501 1.570039 4.370210
-1.895942 2.300270 5.608300
-1.958341 2.377441 5.627096
-1.485457 1.792640 6.669165
-1.259447 1.513134 6.829461
-1.189784 1.426981 6.852990
-0.968589 1.153438 7.376268
-1.805219 2.628390 1.216910
-1.941272 2.830264 1.401289
-1.910107 2.784031 1.743565
-1.800927 2.622049 2.396401
-1.756419 2.556014 2.572723
-1.645928 2.392076 2.772135
-1.476154 2.140183 3.227939
-1.478766 2.144058 3.216758
-1.350608 1.953915 3.780224
-1.390951 2.013776 3.869710
-1.230908 1.776321 4.336650
-1.245557 1.798062 4.553680
-1.616500 2.348464 5.070180
-1.655413 2.406219 5.787022
-1.333913 1.929207 6.610996
-1.164674 1.678097 6.576669
-1.039500 1.492378 6.991188
-1.606590 2.807119 1.125196
-1.724636 3.017595 1.539058
-1.639707 2.866184 1.898806
-1.615491 2.823018 2.240247
-1.521285 2.655069 2.665346
-1.425044 2.483487 2.864657
-1.369281 2.384068 2.876235
-1.260584 2.190278 3.142793
-1.147863 1.989322 3.707010
-1.183233 2.052386 3.796001
-1.124377 1.947461 4.105195
-1.101402 1.906516 4.806983
-1.368681 2.383054 5.060974
-1.351907 2.353158 5.462065
-1.291342 2.245188 5.831159
-1.196299 2.075742 6.107721
-1.073951 1.857621 6.580931
-1.000759 1.727130 6.734812
-0.871812 1.497236 6.928292
-1.304528 2.824447 1.373918
-1.417506 3.074967 1.723493
-1.383248 2.999012 1.897594
-1.325617 2.871232 2.196847
-1.280888 2.772061 2.434900
-1.199372 2.591319 2.633420
-1.118401 2.411784 2.834342
-1.004952 2.160242 3.229656
-0.959643 2.059792 3.768548
-0.871708 1.864819 4.042764
-0.823356 1.757616 4.354951
-0.921649 1.975582 4.867960
-1.078339 2.323020 4.990047
-1.093876 2.357487 5.489283
-1.009352 2.170088 6.115478
-0.980162 2.105360 6.008763
-0.900991 1.929820 6.288654
-0.791666 1.687425 6.832097
-0.698724 1.481345 6.895720
-0.543656 1.137514 7.133600
-1.149623 3.204806 1.456595
-1.111942 3.096998 1.923062
-1.105078 3.077367 2.203091
-1.039011 2.888320 2.399929
-1.022004 2.839659 2.514206
-0.893785 2.472776 3.157652
-0.865208 2.391000 3.105685
-0.766976 2.109921 3.566904
-0.751768 2.066406 3.682438
-0.656536 1.793913 4.151368
-0.726898 1.995270 4.437604
-0.813803 2.243971 4.883021
-0.818643 2.257841 5.448133
-0.830101 2.290639 5.658747
-0.776809 2.138160 6.158643
-0.764945 2.104216 6.274040
-0.683614 1.871487 6.396116
-0.590558 1.605223 7.007132
-0.484375 1.301375 7.045075
-0.352335 0.923533 6.992086
-0.822873 3.126260 1.353216
-0.860815 3.275677 1.721559
-0.855260 3.253819 2.000950
-0.763701 2.893333 2.571299
-0.758083 2.871215 2.622554
-0.716319 2.706776 2.759652
-0.605743 2.271412 3.306552
-0.587573 2.199877 3.487469
-0.517597 1.924356 3.659909
-0.499963 1.854931 3.843019
-0.510080 1.894809 4.587023
-0.569828 2.130091 5.097746
-0.617321 2.317097 5.151872
-0.609199 2.285139 5.557028
-0.587432 2.199460 6.153367
-0.545222 2.033272 6.369233
-0.512943 1.906178 6.457268
-0.466599 1.723712 6.742176
-0.378035 1.375002 6.910317
-0.257000 0.898439 7.192075
-0.582463 3.290169 1.586253
-0.583873 3.298573 2.031688
-0.575218 3.247187 2.142912
-0.532612 2.994203 2.462548
-0.519598 2.916939 2.637766
-0.471740 2.632756 2.796907
-0.425897 2.360556 3.190865
-0.398253 2.196408 3.332126
-0.338144 1.839490 3.698039
-0.302553 1.628161 3.975690
-0.325743 1.765910 4.459997
-0.392911 2.164798 4.811517
-0.407257 2.250045 5.476258
-0.409552 2.263694 5.751622
-0.406785 2.247263 5.802597
-0.367813 2.015872 6.210864
-0.355340 1.941819 6.457014
-0.314508 1.699357 6.582261
-0.239246 1.252467 7.080852
-0.153695 0.744441 7.070268
-0.268209 3.085303 1.402976
-0.284978 3.300850 1.875531
-0.283386 3.280439 2.153827
-0.265673 3.052881 2.411176
-0.245986 2.799960 2.734978
-0.237166 2.686639 2.745374
-0.214826 2.399603 2.908155
-0.191462 2.099471 3.371546
-0.182647 1.986211 3.385655
-0.152623 1.600488 3.821900
-0.155989 1.643813 4.273500
-0.187223 2.045215 4.627997
-0.200958 2.221809 5.329248
-0.205260 2.277118 5.477012
-0.195693 2.154243 5.850516
-0.191208 2.096645 6.031275
-0.173235 1.865770 6.443255
-0.163084 1.735352 6.532114
-0.136746 1.397004 6.990480
-0.093946 0.847071 7.112574
-0.000788 3.131280 1.107736
0.000793 3.312297 1.646099
0.001108 3.348285 1.801884
-0.001906 3.000954 2.309107
-0.001068 3.097297 2.338838
-0.002796 2.898257 2.536939
-0.006826 2.434390 2.849154
-0.009554 2.120330 3.078883
-0.011688 1.874379 3.416419
-0.013932 1.616112 3.524604
-0.016241 1.350043 3.936517
-0.015020 1.489762 4.423295
-0.010474 2.012072 4.743510
-0.009722 2.097498 5.411119
-0.009966 2.068918 5.816745
-0.010465 2.011264 5.997066
-0.010779 1.974915 6.112734
-0.012437 1.783811 6.395103
-0.014742 1.518487 6.586660
-0.017678 1.180178 7.048504
0.273401 3.144076 1.058477
0.279102 3.203444 1.616409
0.274038 3.150597 1.960128
0.257949 2.982793 2.324549
0.255707 2.959418 2.376292
0.222630 2.614499 2.662956
0.189808 2.272233 2.956334
0.162338 1.985802 3.126412
0.136322 1.714491 3.534144
0.115638 1.498788 3.815157
0.086251 1.192349 4.064621
0.104255 1.380016 4.422046
0.145278 1.807674 5.005774
0.166329 2.027123 5.287177
0.167432 2.038585 5.566961
0.159049 1.951098 6.168589
0.142700 1.780605 6.386929
0.124676 1.592641 6.673254
0.095957 1.293158 7.002167
0.528341 3.094019 1.776433
0.540114 3.159436 1.869542
0.488964 2.875173 2.253395
0.459871 2.713487 2.619682
0.399012 2.375280 2.909656
0.351077 2.108926 2.779485
0.280941 1.719162 3.210334
0.225635 1.411820 3.452278
0.182695 1.173182 3.801802
0.162525 1.061102 3.820157
0.308959 1.874721 5.061489
0.308428 1.871722 5.698746
0.322271 1.948638 5.781940
0.294011 1.791564 6.290427
0.274232 1.681654 6.314042
0.230546 1.438864 6.799740
0.173416 1.121404 6.838251
0.082984 0.618862 7.191719
0.775444 2.945054 0.833557
0.774241 2.940617 1.518376
0.791755 3.004719 1.842808
0.739524 2.813491 2.269619
0.717023 2.731123 2.215840
0.656915 2.511066 2.479320
0.582943 2.240251 2.874487
0.468618 1.821722 3.134338
0.368673 1.455841 3.271054
0.279655 1.129949 3.583067
0.274197 1.109967 3.636794
0.222556 0.920894 4.159757
0.455604 1.773977 5.261209
0.483733 1.876938 5.572612
0.435404 1.699987 6.147191
0.410260 1.607925 6.462191
0.365647 1.444596 6.684633
0.301002 1.207938 6.815785
1.008639 2.818480 1.849509
1.020737 2.851315 1.775525
0.922046 2.583442 2.394119
0.872655 2.449391 2.468883
0.772286 2.176981 2.632745
0.634520 1.803064 3.060538
0.526028 1.508606 3.300575
0.422553 1.227774 3.240963
0.343869 1.014201 3.826956
0.272291 0.819937 3.809237
0.510351 1.465988 5.150710
0.594960 1.695612 5.363792
0.577632 1.648565 5.838767
0.562888 1.608533 6.313017
0.531276 1.522739 6.269919
0.432484 1.254604 6.529090
0.308847 0.919030 7.061596
0.210106 0.651048 6.968528
1.047205 2.287199 0.998865
1.201303 2.614076 1.628710
1.280760 2.782630 1.702608
1.181509 2.572075 1.961984
1.109893 2.420141 2.329384
1.037005 2.265515 2.467215
0.866292 1.903361 2.889629
0.676324 1.500370 2.918127
0.530732 1.191509 3.226168
0.419820 0.956222 3.339589
0.384784 0.881884 3.832052
0.274819 0.648606 3.951474
0.661153 1.468116 5.291993
0.716014 1.584488 5.539119
0.654955 1.454947 5.985840
0.639236 1.421599 6.104668
0.516388 1.160975 6.724811
0.427912 0.973288 6.723371
1.397581 2.477259 1.236752
1.489750 2.636928 1.543588
1.478088 2.616717 1.824511
1.333518 2.366250 2.210724
1.233738 2.193382 2.410873
1.102808 1.966550 2.509166
0.935645 1.676937 3.039175
0.759354 1.371523 3.108014
0.582934 1.065884 3.180696
0.527939 0.970594 3.737304
0.408486 0.763640 4.091229
0.398721 0.746722 4.144689
0.518582 0.954352 4.968748
0.739002 1.336202 5.543355
0.836268 1.504708 5.591835
0.744897 1.346397 6.169802
0.669140 1.215150 6.325453
0.555415 1.018117 6.749295
0.423691 0.789909 6.949919
0.205039 0.411106 7.034739
1.713563 2.504313 1.303233
1.681282 2.458050 1.648959
1.532876 2.245387 2.205031
1.483816 2.175090 2.151973
1.284121 1.888940 2.442068
1.133793 1.673534 2.543998
0.889436 1.323382 3.042436
0.740108 1.109407 3.153276
0.462718 0.711927 3.566518
0.460794 0.709142 4.745276
0.828895 1.236589 5.027447
0.863636 1.286359 5.474850
0.823873 1.229371 6.021022
0.826027 1.232457 6.008896
0.670798 1.010017 6.565095
0.563447 0.856188 6.859742
1.642285 2.006203 1.296678
1.837833 2.239879 1.585899
1.766035 2.154070 2.059189
1.618263 1.977475 2.324209
1.431223 1.753956 2.488300
1.262542 1.552379 2.591403
1.017061 1.259023 2.723991
0.744636 0.933462 3.232772
0.577269 0.733454 3.348711
0.463893 0.597941 4.696548
0.801357 1.001209 5.012674
0.873795 1.087761 5.625338
0.923868 1.147597 5.709417
0.820655 1.024246 6.226720
0.735287 0.922221 6.679955
0.589778 0.748334 6.746537
2.065820 2.128982 1.442435
2.048030 2.110987 1.726267
1.843013 1.903648 2.115497
1.677749 1.736516 2.149339
1.456986 1.513252 2.612764
1.311545 1.366170 2.587464
0.965432 1.016143 2.985709
0.865585 0.915166 3.069373
0.673160 0.720561 3.488926
0.568571 0.614773 4.465939
0.824768 0.873849 5.252711
0.966600 1.017276 5.600501
0.947818 0.998274 6.016778
0.933017 0.983298 6.432143
0.745853 0.794018 6.631333
0.599471 0.645983 6.632071
2.163409 1.869925 1.665147
2.122563 1.835311 1.778292
1.967976 1.704315 1.976485
1.684168 1.463814 2.562490
1.457214 1.271501 2.494378
1.151967 1.012836 2.926932
1.064961 0.939109 2.941226
0.825036 0.735799 3.185052
0.637828 0.577158 3.537548
0.617916 0.560264 4.779003
0.913378 0.810624 5.193878
1.002516 0.886146 5.804824
0.958301 0.848677 5.990359
0.914950 0.811939 6.176244
0.710687 0.638843 6.736561
0.566821 0.516936 6.668360
0.203824 0.209339 6.888347
2.413443 1.740883 1.423300
2.294659 1.656885 1.726747
2.033116 1.471937 2.181045
1.794584 1.303266 2.344376
1.564001 1.140212 2.744487
1.470940 1.074407 2.757170
1.374595 1.006271 3.305297
1.044443 0.772813 3.511065
0.701959 0.530638 3.486218
0.543823 0.418801 4.594484
0.954140 0.708936 4.977782
0.994159 0.737221 5.790582
1.008103 0.747076 6.072730
0.913756 0.680356 6.458974
0.854144 0.638200 6.712647
0.653963 0.496647 6.846473
0.237113 0.201882 7.204908
2.289099 1.369235 1.371959
2.397811 1.432714 1.805438
2.222605 1.330394 2.004816
2.048538 1.228739 2.206629
1.772080 1.067288 2.435368
1.521053 0.920691 2.603944
1.350379 0.821017 2.814974
1.100986 0.675372 2.990661
0.761112 0.476885 3.439128
0.756915 0.474430 3.731342
0.733680 0.460855 4.090176
0.289327 0.201362 4.041990
1.032527 0.635361 5.220426
1.033399 0.635860 5.868122
1.037053 0.637994 5.854587
0.866752 0.538531 6.509473
0.720863 0.453331 6.737376
0.525246 0.339093 6.805328
0.068316 0.072247 7.236152
2.717440 1.328872 1.322574
2.558659 1.253034 1.687316
2.322053 1.140028 2.012522
2.192614 1.078208 2.085853
1.800969 0.891155 2.571879
1.589684 0.790246 2.610331
1.278832 0.641781 2.914601
1.054484 0.534629 3.262471
0.796279 0.411310 3.444125
0.876518 0.449627 3.771187
0.812870 0.419226 3.959436
0.281586 0.165487 4.114017
1.021143 0.518675 5.423694
1.119417 0.565605 5.738317
1.029531 0.522672 6.058328
0.924966 0.472727 6.446362
0.824210 0.424606 6.472203
0.567421 0.301962 6.741935
0.072939 0.065795 7.241009
2.525641 0.978278 1.059784
2.696184 1.042310 1.369753
2.728664 1.054504 1.527637
2.593606 1.003787 1.831362
2.183109 0.849643 2.309828
1.969858 0.769566 2.579915
1.672587 0.657941 2.814595
1.427623 0.565958 2.922553
1.157640 0.464580 3.099788
0.863770 0.354231 3.348185
0.834259 0.343145 3.708198
0.834701 0.343299 4.581830
0.953534 0.387912 5.136977
1.121365 0.450925 5.552543
1.045530 0.422447 5.807239
0.859616 0.352629 6.465372
0.790906 0.326825 6.722364
0.560928 0.240469 6.859466
2.696529 0.783631 0.638520
2.953733 0.855596 0.996519
2.894516 0.839018 1.574690
2.755946 0.800240 1.877731
2.558108 0.744882 1.844941
2.334590 0.682335 2.110340
1.997849 0.588105 2.403496
1.663752 0.494615 2.703400
1.332411 0.401897 3.010031
1.054999 0.324270 3.189492
0.778943 0.247022 3.371581
0.406315 0.142741 4.417880
0.684115 0.220469 4.807315
0.944639 0.293362 5.258304
1.048003 0.322281 5.574867
0.944584 0.293333 6.261168
0.872557 0.273175 6.516616
0.635400 0.206813 6.651018
0.398722 0.140585 6.788100
-0.128403 -0.006920 7.292631
3.074468 0.601417 0.882482
3.071737 0.600902 1.335602
2.928637 0.574229 1.868878
2.697652 0.531186 1.899061
2.380354 0.472055 2.122587
2.098953 0.419612 2.520827
1.868163 0.376605 2.559729
1.555440 0.318327 2.797488
1.165468 0.245651 3.240326
0.935137 0.202729 3.288840
0.320557 0.088194 4.097679
0.916180 0.199169 5.416028
1.002125 0.215179 5.800634
0.998519 0.214503 6.153453
0.982207 0.211462 6.208738
0.681477 0.155418 6.542442
0.384243 0.100025 6.882407
2.715978 0.308686 1.235762
2.958572 0.333737 1.650431
2.964055 0.334304 1.638904
2.558119 0.292368 2.280672
2.506598 0.287045 2.396421
2.189606 0.254301 2.624922
1.865091 0.220783 2.624123
1.522235 0.185367 2.927962
1.089877 0.140707 3.201510
0.830565 0.113922 3.317281
0.371493 0.066490 4.571257
0.614919 0.091626 5.096096
0.952709 0.126512 5.343825
1.081246 0.139784 5.594205
0.939441 0.125132 6.051337
0.804414 0.111180 6.510537
0.693052 0.099677 6.538207
0.391604 0.068537 6.880536
2.833858 0.071764 1.256221
3.078132 0.075533 1.439625
3.052851 0.075139 1.722419
2.732470 0.070188 2.172868
2.539529 0.067204 2.604446
2.250769 0.062744 2.767894
1.962726 0.058295 2.935251
1.582897 0.052430 3.068660
1.229944 0.046980 3.140882
0.864874 0.041339 3.522803
0.389111 0.033982 4.533022
0.538815 0.036287 5.025005
0.907965 0.041979 5.504847
1.017979 0.043673 5.820017
0.960129 0.042778 6.007497
0.824203 0.040674 6.464923
0.636044 0.037765 6.762089
0.409577 0.034268 6.831103
2.885895 -0.180187 0.916561
3.155625 -0.199658 1.270742
3.219105 -0.204244 1.595737
2.988651 -0.187618 2.083539
2.907863 -0.181790 2.259786
2.569728 -0.157393 2.776517
2.364448 -0.142577 2.748642
1.930606 -0.111270 3.006635
1.551724 -0.083927 3.141726
1.080330 -0.049908 3.245418
0.820787 -0.031178 3.360771
0.646559 -0.018617 4.405311
0.770867 -0.027595 4.963403
0.926397 -0.038826 5.448077
0.940399 -0.039841 5.733495
0.916423 -0.038116 6.152476
0.860738 -0.034099 6.340570
0.519087 -0.009448 6.814094
0.141836 0.017775 7.064662
2.993844 -0.441313 1.094377
3.054014 -0.450760 1.652743
3.120803 -0.461242 1.976701
2.954804 -0.435205 2.340484
2.931963 -0.431622 2.391504
2.708069 -0.396501 2.654298
2.315264 -0.334884 3.073426
2.020185 -0.288591 3.010075
1.382734 -0.188592 3.267451
0.915880 -0.115354 3.374984
0.653574 -0.074220 4.677139
0.918839 -0.115841 5.130757
1.053819 -0.137023 5.680753
0.914333 -0.115147 6.138021
0.918083 -0.115735 6.125408
0.728580 -0.086010 6.421810
0.504722 -0.050897 6.857497
0.167126 0.002064 6.972008
-0.414389 0.093287 7.248512
3.120527 -0.746818 1.630762
3.214207 -0.770107 1.892259
3.165988 -0.758126 2.233932
3.005972 -0.718355 2.596660
2.903411 -0.692864 2.835787
2.546059 -0.604041 3.187695
2.178876 -0.512771 3.317031
1.567141 -0.360709 3.274620
1.018471 -0.224326 3.343254
0.872288 -0.187994 3.733972
0.736257 -0.154193 4.709759
0.834846 -0.178704 5.031948
0.936543 -0.203987 5.351699
0.920139 -0.199919 6.071557
0.904047 -0.195920 6.126459
0.773395 -0.163449 6.585989
0.516044 -0.099482 6.790935
0.148386 -0.008095 7.042838
2.897736 -0.961171 1.265549
3.213588 -1.069171 1.721800
3.137363 -1.043114 2.124724
3.093131 -1.027995 2.465280
3.026734 -1.005299 2.867647
2.945067 -0.977375 2.815484
2.683878 -0.888076 3.203626
0.889286 -0.274510 5.437305
0.952536 -0.296142 5.888937
1.026827 -0.321545 5.973659
0.878665 -0.270893 6.498743
0.681650 -0.203531 6.499041
0.359258 -0.093307 6.978396
-0.055459 0.048489 7.070570
-0.612429 0.238921 7.355058
2.820037 -1.216481 1.004342
2.956145 -1.276681 1.607166
3.235300 -1.400133 1.665317
3.187087 -1.378817 2.006035
3.173905 -1.372994 2.511560
3.060193 -1.322714 3.036395
2.918514 -1.260064 3.398552
0.813617 -0.329239 5.602695
0.895696 -0.365542 5.986765
0.825138 -0.334343 6.242666
0.792350 -0.319845 6.364270
0.479207 -0.181369 6.838855
0.221724 -0.067505 7.115970
-0.057010 0.055761 7.095525
2.691200 -1.436104 0.823771
2.848527 -1.521928 1.134677
2.955154 -1.580102 1.796074
3.118247 -1.669068 1.871200
3.078767 -1.647541 2.437805
3.169290 -1.696924 2.694024
3.063160 -1.639039 3.215690
2.906725 -1.553711 3.637632
2.933493 -1.568312 3.564177
0.865112 -0.440058 5.314697
0.857190 -0.435742 5.668911
0.936785 -0.479166 6.051347
0.851953 -0.432895 6.374507
0.652062 -0.323858 6.441113
0.385076 -0.178225 6.782493
0.052381 0.003253 7.035630
-0.332323 0.213103 7.130912
2.722775 -1.772665 1.096034
2.847822 -1.855631 1.696419
2.807383 -1.828812 2.266690
2.846323 -1.854651 2.646038
2.980237 -1.943491 2.776400
2.948022 -1.922125 3.111405
2.854324 -1.859973 3.631138
2.816278 -1.834736 3.741642
2.654565 -1.727463 4.225605
0.744244 -0.460175 5.285384
0.852140 -0.531757 5.534367
0.892561 -0.558580 6.048992
0.796157 -0.494632 6.437264
0.590904 -0.358469 6.569973
0.450626 -0.265413 6.800251
0.166112 -0.076668 6.912252
-0.324830 0.249018 7.187642
2.397486 -1.878358 0.833068
2.656402 -2.085087 1.064178
2.656305 -2.085021 1.742355
2.755420 -2.164160 1.940505
2.656015 -2.084805 2.692217
2.759856 -2.167717 2.885360
2.688823 -2.111010 3.345496
2.775652 -2.180341 3.596572
2.699711 -2.119712 3.831526
2.514130 -1.971545 4.154737
0.718963 -0.538256 5.215139
0.802674 -0.605098 5.532008
0.888823 -0.673886 5.846402
0.749879 -0.562960 6.435950
0.632435 -0.469192 6.596546
0.367819 -0.257924 7.072889
0.115741 -0.056659 7.119372
-0.301840 0.276747 7.188465
2.316601 -2.149109 0.610112
2.374310 -2.203618 1.339847
2.508044 -2.329914 1.646413
2.556767 -2.375930 1.968684
2.505119 -2.327168 2.597235
2.561269 -2.380198 2.914496
2.592043 -2.409262 3.066659
2.613779 -2.429795 3.503538
2.469155 -2.293231 3.985947
0.654032 -0.579156 4.664700
0.625680 -0.552390 5.089117
0.709048 -0.631128 5.708024
0.835295 -0.750349 5.822641
0.734110 -0.654805 6.279262
0.554127 -0.484849 6.778549
0.389194 -0.329099 6.848708
0.140666 -0.094406 6.963392
2.105627 -2.321876 1.101393
2.265850 -2.501767 1.516550
2.389029 -2.640067 1.821918
2.415392 -2.669671 2.204352
2.403219 -2.656011 2.481434
2.320097 -2.562699 3.004394
2.313053 -2.554796 3.280320
2.263704 -2.499395 3.454989
0.449428 -0.462523 4.714518
0.532056 -0.555295 4.970269
0.664465 -0.703958 5.322569
0.707803 -0.752623 5.774446
0.655049 -0.693400 6.031121
0.551563 -0.577226 6.558282
0.387558 -0.393099 6.695420
0.211508 -0.195452 6.903901
1.893179 -2.494916 1.106516
2.037010 -2.688042 1.751063
2.097167 -2.768820 2.239460
2.137245 -2.822631 2.332388
2.044667 -2.698346 2.918293
1.983006 -2.615564 3.155439
1.938229 -2.555449 3.331122
0.609837 -0.771967 5.274562
0.648287 -0.823600 5.726803
0.621396 -0.787507 6.213980
0.623457 -0.790274 6.202448
0.440142 -0.544158 6.539265
0.281394 -0.331026 6.745648
0.011593 0.031204 7.276133
-0.286626 0.431600 7.210454
1.760564 -2.797399 0.984384
1.790949 -2.846619 1.770902
1.857396 -2.954215 1.970129
1.846579 -2.936706 2.248861
1.716155 -2.725536 2.796109
1.718641 -2.729561 2.785409
1.587193 -2.516727 3.109912
0.370344 -0.546442 4.980740
0.486607 -0.734703 5.266437
0.592829 -0.906707 5.615900
0.568249 -0.866918 6.102911
0.517635 -0.784971 6.427021
0.448872 -0.673632 6.519504
0.260788 -0.369099 7.062750
0.120263 -0.141555 6.901758
1.461119 -2.812795 1.031184
1.570075 -3.027169 1.445723
1.626714 -3.138607 1.645110
1.576553 -3.039933 2.108086
1.526968 -2.942385 2.343723
1.403288 -2.699071 2.955070
1.376526 -2.646417 2.840201
1.155970 -2.212502 3.216567
0.954689 -1.816500 3.244257
0.609483 -1.137344 3.533910
0.407547 -0.740055 3.577582
0.502251 -0.926384 3.872473
0.502736 -0.927355 4.450989
0.398107 -0.721516 4.808260
0.467538 -0.858131 5.294496
0.478085 -0.878896 5.879239
0.495284 -0.912741 6.096628
0.381874 -0.689629 6.593643
0.331281 -0.590094 6.620818
0.202855 -0.337435 6.894702
-0.028452 0.117633 7.262203
1.223186 -2.967869 1.173832
1.279846 -3.108837 1.543889
1.270761 -3.086245 1.824162
1.219778 -2.959429 2.352580
1.190015 -2.885393 2.528535
1.075613 -2.600804 2.977778
1.053630 -2.546113 2.861898
0.912220 -2.194325 2.985483
0.652230 -1.547547 3.365510
0.461355 -1.072697 3.299220
0.316402 -0.712104 3.750586
0.291598 -0.650436 4.824775
0.373879 -0.855139 5.109214
0.413422 -0.953524 5.426449
0.423098 -0.977615 6.008703
0.394476 -0.906418 6.263003
0.330802 -0.748022 6.490232
0.246782 -0.539017 6.923457
0.112791 -0.205686 7.105223
-0.099771 0.323108 7.313019
1.046639 -3.344579 1.255673
1.021249 -3.261125 1.658729
0.962684 -3.068610 2.081445
0.887643 -2.821928 2.403284
0.864576 -2.746100 2.580239
0.780426 -2.469466 2.741211
0.657295 -2.064693 3.228167
0.562483 -1.752994 3.232175
0.425129 -1.301449 3.333720
0.330042 -0.988848 3.344301
0.189219 -0.525947 4.657281
0.266381 -0.779627 4.808787
0.332290 -0.996329 5.392684
0.363929 -1.100357 5.707835
0.350909 -1.057573 6.191426
0.256130 -0.746005 6.592059
0.223680 -0.639324 6.618699
0.135846 -0.350584 6.960475
-0.030280 0.195547 7.164440
0.694820 -3.073867 1.067497
0.732968 -3.249930 1.606356
0.708834 -3.138580 1.843511
0.660714 -2.916568 2.332148
0.630470 -2.777014 2.405228
0.557162 -2.438764 2.693396
0.490179 -2.129693 2.923720
0.421115 -1.811009 2.925419
0.323502 -1.360608 3.259948
0.232079 -0.938767 3.538243
0.151045 -0.564910 4.582599
0.207628 -0.826032 5.038006
0.265500 -1.093101 5.486588
0.277396 -1.148003 5.638496
0.276247 -1.142721 5.989759
0.243164 -0.990096 6.512616
0.178939 -0.693759 6.850216
0.098823 -0.324093 7.100166
0.002318 0.121205 7.263018
0.440022 -3.267453 1.000875
0.451136 -3.355695 1.495027
0.421994 -3.124505 1.980601
0.408149 -3.014673 2.218987
0.379612 -2.788260 2.480416
0.353902 -2.584247 2.450498
0.329081 -2.387319 2.653535
0.271158 -1.927742 2.975634
0.230362 -1.604033 2.979228
0.166228 -1.095185 3.451876
0.140271 -0.889215 3.433869
0.103921 -0.600927 4.817189
0.157981 -1.029909 5.099537
0.177647 -1.186011 5.581706
0.169220 -1.119195 6.132946
0.167169 -1.102930 6.187248
0.145705 -0.932641 6.414415
0.124450 -0.764006 6.643801
0.147474 -3.198894 1.189405
0.153150 -3.351037 1.559136
0.152230 -3.326431 1.609748
0.138050 -2.946837 2.179947
0.134858 -2.861338 2.126641
0.117640 -2.400386 2.668794
0.106848 -2.111408 2.835546
0.099140 -1.904943 2.810597
0.079904 -1.389932 3.275732
0.072161 -1.182556 3.256218
0.061095 -0.886337 3.744232
0.061129 -0.887549 4.618652
0.073790 -1.226842 5.170460
0.072983 -1.205464 5.886345
0.076684 -1.304588 5.904165
0.072268 -1.186438 6.291587
0.064446 -0.977095 6.653118
0.051672 -0.634992 6.762354
0.032557 -0.123188 7.125033
-0.134460 -3.236809 1.566809
-0.133252 -3.212670 1.848133
-0.121627 -2.981049 2.107320
-0.114425 -2.837583 2.180342
-0.092733 -2.405390 2.659788
-0.085187 -2.255143 2.504389
-0.067851 -1.909752 2.802457
-0.052005 -1.594075 3.041408
-0.032921 -1.213908 3.181998
-0.017207 -0.900862 3.431765
-0.007357 -0.704308 4.849648
-0.030462 -1.164375 5.364231
-0.038012 -1.314719 5.547699
-0.037683 -1.308079 5.898456
-0.032753 -1.209795 6.219450
-0.019345 -0.942594 6.782246
-0.010849 -0.773402 6.645913
-0.345301 -2.800739 0.611388
-0.407816 -3.269367 1.228158
-0.424148 -3.391794 1.429298
-0.381242 -3.070075 1.871626
-0.362218 -2.927441 1.942731
-0.320362 -2.613595 2.394877
-0.281956 -2.325636 2.557499
-0.239993 -2.011012 2.788896
-0.198247 -1.698011 3.025550
-0.163768 -1.439506 3.135086
-0.106567 -1.010631 3.411341
-0.090141 -0.887452 3.734762
-0.059301 -0.656233 3.786893
-0.052595 -0.605913 4.216000
-0.118617 -1.100828 4.907081
-0.148716 -1.326425 5.487788
-0.168734 -1.476491 5.669422
-0.142096 -1.276712 6.319649
-0.132243 -1.202820 6.573425
-0.099707 -0.958879 6.706640
-0.044737 -0.546722 7.087978
0.023523 -0.034965 7.084558
-0.664806 -3.108514 0.792051
-0.683019 -3.190105 1.519922
-0.690671 -3.224393 1.676651
-0.620795 -2.911163 2.122280
-0.571097 -2.688389 2.382251
-0.481987 -2.288966 2.565521
-0.451179 -2.150871 2.640287
-0.376434 -1.815826 2.937140
-0.331592 -1.614834 2.911455
-0.237150 -1.191504 3.180696
-0.169144 -0.886670 3.427557
-0.157603 -0.834865 4.733949
-0.264021 -1.311813 5.477418
-0.301768 -1.481000 5.591029
-0.300611 -1.475794 5.936940
-0.262991 -1.307157 6.157727
-0.208818 -1.064313 6.648061
-0.151339 -0.806663 6.848055
-0.077090 -0.473854 6.957679
-0.903988 -2.955624 0.526273
-0.957088 -3.123759 0.839043
-0.964686 -3.147793 1.458758
-0.957196 -3.124061 1.739260
-0.886582 -2.900456 1.766222
-0.799094 -2.623398 2.153083
-0.702627 -2.317915 2.377253
-0.617585 -2.048604 2.775446
-0.538868 -1.799336 2.880079
-0.435919 -1.473326 3.184982
-0.329549 -1.136491 3.259866
-0.248050 -0.878399 3.680067
-0.198342 -0.720987 3.834583
-0.113196 -0.451354 4.023470
-0.402906 -1.368686 5.528097
-0.442301 -1.493425 5.774143
-0.418583 -1.418308 6.024635
-0.377688 -1.288789 6.474643
-0.344117 -1.182483 6.499517
-0.247290 -0.875855 6.899959
-0.121074 -0.476178 6.916103
-1.176306 -2.944677 0.588913
-1.175991 -2.943900 0.809102
-1.197164 -2.995555 1.367074
-1.244547 -3.111186 1.566641
-1.144747 -2.867612 1.884330
-1.024540 -2.574232 2.332826
-0.893209 -2.253711 2.620529
-0.783667 -1.986367 2.785543
-0.705549 -1.795724 2.758975
-0.565433 -1.453758 3.127313
-0.456777 -1.188576 3.304067
-0.338614 -0.900193 3.551889
-0.301778 -0.810287 3.807394
-0.149490 -0.438620 4.028804
-0.583412 -1.497562 5.300729
-0.608060 -1.557701 5.744008
-0.585915 -1.503648 5.927765
-0.490070 -1.269725 6.413490
-0.418545 -1.095156 6.704714
-0.332681 -0.885603 6.770692
-0.166634 -0.480365 6.853235
-1.509045 -2.985584 1.351150
-1.483345 -2.935768 1.693874
-1.309939 -2.599696 2.265194
-1.215701 -2.417066 2.233992
-1.111001 -2.214151 2.499646
-0.952591 -1.907149 2.793875
-0.807808 -1.626556 3.029452
-0.670497 -1.360451 2.968670
-0.544543 -1.116344 3.383085
-0.518207 -1.065277 4.385275
-0.663798 -1.347404 5.299878
-0.829637 -1.668791 5.479867
-0.744610 -1.503994 6.056666
-0.727725 -1.471269 6.175938
-0.622261 -1.266870 6.596921
-0.492237 -1.014879 6.862524
-1.573367 -2.546911 1.386519
-1.704146 -2.754238 1.799018
-1.611472 -2.607309 1.932238
-1.488188 -2.411850 2.193158
-1.302306 -2.117147 2.480685
-1.147406 -1.871565 2.645830
-0.934873 -1.534606 3.075907
-0.853580 -1.405729 2.920949
-0.657351 -1.094620 3.295234
-0.536278 -0.902657 3.882678
-0.398890 -0.684840 4.001393
-0.449421 -0.764945 4.326128
-0.782054 -1.292276 5.274613
-0.975097 -1.598321 5.453885
-0.942945 -1.547342 5.636681
-0.867359 -1.427498 6.082047
-0.785010 -1.296930 6.595422
-0.684630 -1.137790 6.526237
-0.451961 -0.768909 6.966227
-1.991063 -2.664226 1.390147
-1.975236 -2.643411 1.671801
-1.800842 -2.414096 2.285340
-1.748695 -2.345532 2.233243
-1.470471 -1.979696 2.775474
-1.295587 -1.749746 2.943128
-1.065189 -1.446804 3.076673
-0.923355 -1.260312 3.121137
-0.717483 -0.989615 3.433292
-1.074817 -1.459416 5.317589
-1.178561 -1.595821 5.435488
-1.065586 -1.447264 6.011004
-1.055290 -1.433725 6.065405
-0.927012 -1.265051 6.417746
-0.720299 -0.993244 6.879772
-2.241815 -2.533618 1.500830
-2.205639 -2.493403 1.842330
-2.050836 -2.321336 2.099190
-1.822123 -2.067117 2.612020
-1.671932 -1.900176 2.877566
-1.472621 -1.678647 2.811410
-1.236331 -1.416013 2.876514
-1.043593 -1.201785 3.049377
-0.860774 -0.998578 3.462280
-0.664950 -0.780912 3.947605
-0.601966 -0.710903 4.203355
-1.302281 -1.489273 5.140918
-1.315373 -1.503813 5.711661
-1.248430 -1.429401 6.024392
-1.170498 -1.342773 6.403533
-1.095814 -1.259763 6.427826
-0.855213 -0.992329 6.954153
-0.599822 -0.708469 6.834256
-2.204205 -2.092155 1.293932
-2.382490 -2.258273 1.707462
-2.365774 -2.242692 1.988114
-2.155750 -2.046986 2.371140
-2.051676 -1.950009 2.443427
-1.846074 -1.758424 2.834490
-1.608160 -1.536737 2.831793
-1.358108 -1.303734 3.130519
-1.080680 -1.045226 3.266928
-1.034991 -1.002631 4.558827
-1.384446 -1.328244 5.008071
-1.450985 -1.390232 5.676162
-1.477556 -1.414987 5.888629
-1.391155 -1.334473 6.265397
-1.336438 -1.283484 6.513060
-1.128796 -1.090000 6.771743
-0.909423 -0.885582 7.101896
-0.629745 -0.624982 6.983326
-2.322901 -1.852347 0.981052
-2.701306 -2.148297 1.362197
-2.610220 -2.077050 1.828038
-2.544824 -2.025899 2.003173
-2.435021 -1.940016 2.303676
-2.190018 -1.748388 2.754223
-2.027748 -1.621474 2.726298
-1.621304 -1.303581 3.175431
-1.374990 -1.110931 3.413926
-1.211741 -0.983251 3.393677
-1.053741 -0.859669 3.910607
-0.983629 -0.804834 3.863275
-1.692008 -1.358847 5.198294
-1.650083 -1.326049 5.669611
-1.620125 -1.302616 5.786136
-1.542022 -1.241526 6.097506
-1.435788 -1.158431 6.540333
-1.242233 -1.007046 6.667599
-0.943780 -0.773617 6.903452
-0.523248 -0.444712 6.958995
-2.736196 -1.822470 1.242471
-2.940116 -1.955796 1.426370
-2.770701 -1.845018 2.076492
-2.654763 -1.769210 2.375948
-2.535440 -1.691192 2.448111
-2.323011 -1.552295 2.773473
-2.036502 -1.364963 3.064376
-1.909163 -1.281708 2.910629
-1.501586 -1.015217 3.302321
-1.219052 -0.830484 3.610670
-1.123462 -0.767984 3.628489
-1.252971 -0.852649 4.352647
-1.671358 -1.126192 5.034141
-1.819432 -1.223001 5.443060
-1.812745 -1.218623 5.785217
-1.798438 -1.209268 5.837907
-1.635731 -1.102882 6.119587
-1.571863 -1.061119 6.367899
-1.317041 -0.894505 6.692019
-2.912254 -1.595274 0.954326
-2.989905 -1.636954 1.448622
-3.021039 -1.653663 1.833498
-3.027799 -1.657289 2.050163
-2.876143 -1.575869 2.181973
-2.674881 -1.467816 2.440527
-2.500130 -1.373996 2.639332
-2.245664 -1.237381 2.800894
-1.862907 -1.031890 3.056660
-1.494594 -0.834150 3.555138
-1.326419 -0.743861 3.769534
-1.450776 -0.810620 3.960299
-1.738700 -0.965187 4.514688
-2.034682 -1.124080 5.058920
-2.145808 -1.183736 5.304901
-2.053768 -1.134319 5.613155
-1.857410 -1.028891 6.309613
-1.774679 -0.984472 6.621248
-1.525337 -0.850606 6.879175
-1.358934 -0.761272 6.812142
-0.908951 -0.519689 7.158145
-3.316935 -1.455510 1.023085
-3.260325 -1.431181 1.592941
-3.238375 -1.421747 1.871441
-3.056281 -1.343510 2.292599
-3.034858 -1.334306 2.343238
-2.800663 -1.233687 2.664613
-2.560815 -1.130642 2.761132
-2.271017 -1.006137 2.987995
-1.862139 -0.830467 3.543568
-1.695875 -0.759038 3.457432
-1.535621 -0.690184 3.903381
-1.770688 -0.791167 4.359017
-2.101006 -0.933067 5.132195
-2.237545 -0.991724 5.314143
-2.209268 -0.979570 5.718238
-2.174196 -0.964501 5.834587
-2.028120 -0.901736 6.336952
-1.819429 -0.812078 6.396116
-1.593823 -0.715147 6.877640
-1.247071 -0.566173 7.114458
-3.256209 -1.102409 0.726022
-3.424904 -1.157989 1.036514
-3.395300 -1.148224 1.772917
-3.400600 -1.149971 1.761394
-3.265986 -1.105612 2.057883
-3.000713 -1.018197 2.666937
-2.839981 -0.965235 2.802448
-2.566738 -0.875201 2.963310
-2.432765 -0.831056 3.039241
-2.173234 -0.745537 3.436737
-1.864101 -0.643678 3.441478
-1.674490 -0.581196 3.950867
-2.007163 -0.690803 4.439877
-2.303197 -0.788337 5.048100
-2.360547 -0.807228 5.485003
-2.303238 -0.788342 5.664744
-2.207608 -0.756828 5.973149
-2.096215 -0.720120 6.347022
-1.990152 -0.685172 6.370244
-1.683455 -0.584112 6.755459
-1.324440 -0.465815 6.989445
-3.387252 -0.842859 1.283610
-3.507685 -0.871799 1.483709
-3.454861 -0.859100 1.822879
-3.434099 -0.854107 2.100057
-3.267239 -0.814004 2.230871
-2.964201 -0.741170 2.675619
-2.746673 -0.688888 2.937585
-2.531428 -0.637156 3.202846
-2.369426 -0.598221 3.343361
-2.002380 -0.510008 3.475217
-1.857757 -0.475246 3.852173
-2.220274 -0.562363 4.276957
-2.362009 -0.596416 5.043102
-2.441942 -0.615621 5.415702
-2.403906 -0.606478 5.530901
-2.357046 -0.595210 5.997187
-2.208825 -0.559587 6.146835
-2.042062 -0.519506 6.362663
-1.839637 -0.470854 6.710903
-1.507884 -0.391123 6.811627
-0.976700 -0.263459 7.291177
-3.405634 -0.537431 0.706718
-3.427484 -0.540689 1.325059
-3.520151 -0.554538 1.586934
-3.555289 -0.559789 1.742193
-3.358264 -0.530331 2.160505
-3.195128 -0.505939 2.519463
-3.027819 -0.480927 2.652386
-2.726598 -0.435893 3.102455
-2.641283 -0.423140 3.049754
-2.295087 -0.371380 3.636242
-2.224877 -0.360882 3.815300
-2.082487 -0.339592 4.188590
-2.223567 -0.360676 4.666303
-2.438960 -0.392870 4.946703
-2.541318 -0.408168 5.254634
-2.468866 -0.397330 5.783004
-2.351018 -0.379709 6.153023
-2.143101 -0.348623 6.495671
-2.186039 -0.355044 6.352812
-1.885493 -0.310112 6.670197
-1.529701 -0.256923 6.835050
-1.043156 -0.184188 7.112614
-3.351649 -0.236174 0.877071
-3.530934 -0.247302 1.185891
-3.712917 -0.258597 1.491968
-3.480588 -0.244166 1.971093
-3.313118 -0.233763 2.329908
-3.177955 -0.225367 2.628454
-3.036794 -0.216602 2.700329
-2.786799 -0.201075 3.025400
-2.566757 -0.187410 3.291083
-2.519466 -0.184472 3.405832
-2.269998 -0.168975 4.033557
-2.274936 -0.169281 4.020745
-2.366957 -0.174987 4.627109
-2.654749 -0.192851 5.005554
-2.642005 -0.192056 5.343293
-2.496233 -0.182999 5.776023
-2.397218 -0.176847 6.082702
-2.205978 -0.164970 6.361121
-2.094839 -0.158069 6.383385
-1.868616 -0.144018 6.796437
-1.551828 -0.124343 7.187967
-0.984748 -0.089131 7.378201
-3.339102 0.055181 1.138480
-3.580140 0.061192 1.552105
-3.467614 0.058394 2.015436
-3.237687 0.052668 2.271593
-3.129327 0.049971 2.509503
-2.968000 0.045956 2.873805
-2.826752 0.042437 2.948432
-2.473991 0.033654 3.533243
-2.519964 0.034802 3.686594
-2.373617 0.031160 4.058536
-2.232000 0.027636 4.432306
-2.564109 0.035915 4.687295
-2.735689 0.040196 5.095098
-2.723494 0.039896 5.433111
-2.557660 0.035770 5.929647
-2.384433 0.031456 6.143010
-2.249933 0.028110 6.580829
-1.966688 0.021056 6.836062
-1.800067 0.016907 7.057546
-1.460304 0.008442 7.161702
-3.347984 0.334511 1.088612
-3.620056 0.363987 1.212206
-3.532638 0.354522 1.613851
-3.335708 0.333197 2.262817
-3.200045 0.318504 2.561772
-3.086719 0.306227 2.571502
-2.900184 0.286025 2.998804
-2.654222 0.259384 3.327199
-2.463188 0.238692 3.531995
-2.509000 0.243657 3.685099
-2.388228 0.230577 3.992706
-2.339761 0.225332 4.400963
-2.648422 0.258778 5.007537
-2.889002 0.284843 5.222541
-2.921279 0.288350 6.061998
-2.600687 0.253620 6.084627
-2.275854 0.218436 6.460701
-2.107506 0.200201 6.677883
-1.977935 0.186166 6.767283
-1.661761 0.151919 7.157805
-1.341611 0.117237 7.198656
-3.441443 0.654582 1.483168
-3.387764 0.643931 1.824329
-3.281632 0.622870 2.288967
-3.258645 0.618308 2.339845
-3.090922 0.585016 2.473893
-2.905458 0.548206 2.900553
-2.687829 0.505009 3.164756
-2.498234 0.467377 3.368474
-2.508342 0.469390 3.877465
-2.323726 0.432745 4.084834
-2.138605 0.396005 4.587455
-2.720272 0.511473 5.005615
-2.942970 0.555687 5.567110
-2.916025 0.550343 5.963802
-2.672941 0.502092 6.079456
-2.316920 0.431422 6.231916
-2.168422 0.401947 6.383281
-1.945826 0.357766 6.795702
-1.723985 0.313731 6.858716
-1.283702 0.226339 7.360492
-3.277190 0.923411 0.789775
-3.358601 0.947082 1.285537
-3.275867 0.923042 1.918494
-3.255680 0.917178 2.197975
-3.096584 0.870938 2.559826
-2.968141 0.833607 2.861165
-2.806114 0.786512 2.998804
-2.593525 0.724722 3.264752
-2.358442 0.656394 3.597907
-2.443427 0.681101 3.916303
-2.352237 0.654598 4.160747
-2.196266 0.609263 4.306596
-3.142494 0.884325 5.705988
-1.968230 0.543009 6.579708
-1.700734 0.465264 7.191152
-1.408886 0.380431 7.165317
-3.041059 1.133158 1.103323
-3.294637 1.230152 1.455484
-3.188306 1.189489 1.919461
-3.089011 1.151517 2.383731
-3.067591 1.143324 2.433958
-2.728562 1.013659 3.006916
-2.673051 0.992426 2.892242
-2.551894 0.946089 3.196175
-2.361512 0.873278 3.692574
-1.916135 0.702964 6.237198
-1.864165 0.683089 6.419456
-1.742516 0.636567 6.862673
-3.012969 1.434627 0.921861
-2.929652 1.394102 1.556845
-3.071175 1.462957 1.921877
-2.997850 1.427288 2.094666
-2.925472 1.392079 2.267947
-2.761425 1.312281 2.919840
-2.626466 1.246622 2.763775
-2.354030 1.114091 3.217254
-2.287806 1.081876 3.394872
-2.426934 1.149567 3.812042
-2.235538 1.056458 4.080342
-1.960580 0.922701 4.609644
-1.638473 0.766033 7.026914
-2.964765 1.743375 1.613341
-2.919163 1.716063 1.954751
-2.848607 1.673799 2.129574
-2.665082 1.563870 2.845039
-2.590752 1.519343 2.793625
-2.422568 1.418596 2.994306
-2.311944 1.352331 3.299438
-2.219019 1.296673 3.831434
-2.626335 1.869068 0.924574
-2.721255 1.937884 1.817623
-2.798693 1.994015 1.849425
-2.757988 1.964516 2.189996
-2.646791 1.883921 2.488843
-2.441740 1.735297 2.811516
-2.283189 1.620376 3.012072
-2.179013 1.544869 3.317035
-2.036024 1.441232 3.750907
-1.534159 1.077508 6.794400
-2.506808 2.113774 1.036298
-2.574869 2.172178 1.759288
-2.602776 2.196124 1.914145
-2.543735 2.145477 2.316096
-2.526323 2.130540 2.366027
-2.333308 1.964950 2.686872
-2.163588 1.819345 2.948925
-1.975511 1.657992 3.277902
-1.931135 1.619926 3.685598
-1.445458 1.203304 7.140909
-2.199141 2.211175 1.358784
-2.390882 2.407466 1.708987
-2.334539 2.349795 2.111632
-2.258095 2.271544 2.348200
-2.105591 2.115434 2.836278
-2.007014 2.014523 2.909981
-1.916572 1.921942 3.213746
-1.745515 1.746837 3.544973
-1.772354 1.774320 3.989553
-1.706821 1.707239 4.232734
-1.463060 1.457702 4.307431
-1.765572 1.767423 6.451457
-1.367409 1.359833 6.970452
-1.264363 1.254348 7.126500
-1.052075 1.037028 7.099751
-2.143411 2.573079 1.570756
-2.184980 2.623841 1.664526
-2.151907 2.583462 2.005305
-2.045731 2.453820 2.366210
-1.924978 2.306378 2.791910
-1.749853 2.092544 3.181577
-1.660940 1.983975 3.257763
-1.614111 1.926797 3.436729
-1.458306 1.736570 4.625076
-1.746145 2.088056 5.134680
-2.005999 2.405367 5.476197
-1.562709 1.864089 6.325168
-1.296981 1.539619 6.676747
-1.226519 1.453580 6.700725
-0.990492 1.165383 7.289162
-0.725412 0.841697 7.305734
-1.832317 2.629667 1.183808
-1.884981 2.706692 1.906567
-1.889726 2.713634 2.123512
-1.827964 2.623328 2.360368
-1.668641 2.390369 2.745829
-1.640561 2.349312 2.859733
-1.500041 2.143844 3.188192
-1.405888 2.006172 3.328873
-1.316394 1.875327 3.994875
-1.305053 1.858744 4.046874
-1.198204 1.702516 4.550825
-1.426610 2.036510 4.901789
-1.595201 2.283046 5.562832
-1.710370 2.451459 5.898071
-1.516664 2.168215 5.982106
-1.322936 1.884939 6.069991
-1.203440 1.710215 6.414983
-1.151097 1.633684 6.726697
-0.896993 1.262133 7.218857
-0.746178 1.041601 7.058254
-1.610803 2.777436 1.397962
-1.672812 2.886550 1.827069
-1.676778 2.893532 2.043552
-1.636684 2.822994 2.217417
-1.527791 2.631414 2.704244
-1.390730 2.390273 3.092572
-1.321376 2.268249 3.167831
-1.200186 2.055031 3.499918
-1.210403 2.073014 3.716650
-1.067969 1.822419 4.182526
-1.045364 1.782659 4.592817
-1.176598 2.013570 5.037351
-1.379062 2.369802 5.380672
-1.193159 2.042739 6.203357
-1.042081 1.776931 6.518695
-0.977542 1.663381 6.607135
-0.837724 1.417385 6.865435
-1.387689 2.963713 1.272808
-1.451278 3.102617 1.642308
-1.453695 3.107903 1.860529
-1.395316 2.980400 2.157708
-1.276825 2.721602 2.540418
-1.244359 2.650695 2.716094
-1.124529 2.388966 2.876265
-1.032187 2.187279 3.143092
-0.936442 1.978170 3.708389
-0.896516 1.890969 3.953724
-0.877916 1.850347 4.070104
-0.926602 1.956704 4.614687
-1.046696 2.219027 4.994139
-1.129213 2.399272 5.335355
-1.099197 2.333727 5.862981
-0.995890 2.108085 5.980170
-0.924049 1.951177 6.194520
-0.892696 1.882702 6.440016
-0.743173 1.556128 6.956954
-1.109283 3.028466 1.143430
-1.170229 3.199460 1.680470
-1.192357 3.261540 1.773929
-1.087042 2.966121 2.444640
-1.067845 2.912263 2.328824
-0.954412 2.594066 2.842128
-0.879733 2.384577 3.108175
-0.805860 2.177350 3.377510
-0.767645 2.070146 3.391785
-0.677513 1.817312 3.795739
-0.668568 1.792230 4.144500
-0.763528 2.058638 4.531002
-0.860004 2.329300 4.911519
-0.847928 2.295439 5.315392
-0.798724 2.157421 5.751371
-0.765300 2.063668 6.060421
-0.707514 1.901567 6.276460
-0.643744 1.722682 6.559964
-0.568426 1.511407 6.977891
-0.460268 1.207991 7.016706
-0.880981 3.210162 1.611928
-0.867444 3.159173 1.953637
-0.854940 3.112080 2.294930
-0.820048 2.980629 2.594950
-0.774593 2.809357 2.501286
-0.681795 2.459746 3.082535
-0.632062 2.272372 3.287508
-0.569422 2.036375 3.624086
-0.503249 1.787053 3.733197
-0.472246 1.670258 4.047519
-0.550718 1.965938 4.370970
-0.624561 2.244196 5.044874
-0.634537 2.281808 5.546758
-0.624611 2.244418 5.662798
-0.593531 2.127333 6.036495
-0.568722 2.033873 6.346997
-0.515245 1.832402 6.695382
-0.438102 1.541759 7.020799
-0.355448 1.230338 7.060592
-0.584251 3.190063 1.107697
-0.625583 3.427319 1.522189
-0.596159 3.258482 2.111147
-0.566611 3.088907 2.244629
-0.538311 2.926506 2.609062
-0.502995 2.723809 2.579650
-0.445710 2.395065 3.101099
-0.426099 2.282506 3.115055
-0.370460 1.963211 3.646973
-0.317451 1.658988 3.889030
-0.329122 1.726002 4.275457
-0.394076 2.098831 4.695934
-0.427491 2.290641 5.042868
-0.429070 2.299723 5.320931
-0.411136 2.196814 5.630855
-0.389339 2.071767 6.359631
-0.373534 1.981050 6.318779
-0.321174 1.680559 6.641138
-0.278997 1.438493 6.771339
-0.191208 0.934661 7.119072
-0.305012 3.227674 0.888110
-0.320113 3.403788 1.428090
-0.310326 3.289766 1.893957
-0.303625 3.211716 2.297847
-0.296310 3.126435 2.244629
-0.267282 2.788143 2.757431
-0.250501 2.592563 2.959692
-0.225039 2.295739 2.893560
-0.209431 2.113862 3.332139
-0.186419 1.845678 3.737019
-0.168736 1.639553 3.717138
-0.164288 1.587768 4.134384
-0.202545 2.033797 4.655340
-0.223396 2.276928 5.163834
-0.215159 2.181001 5.762789
-0.213715 2.164174 5.814709
-0.201814 2.025518 6.254927
-0.183906 1.816811 6.603829
-0.171132 1.667935 6.759507
-0.138805 1.291137 6.995418
-0.096836 0.801952 7.280206
-0.016879 3.102288 1.165827
-0.015896 3.374828 1.517518
-0.016725 3.142309 2.003033
-0.017423 2.946343 2.429550
-0.017604 2.895354 2.543333
-0.018837 2.550950 2.831005
-0.019964 2.236099 3.060917
-0.020469 2.095201 3.139274
-0.021440 1.823264 3.544373
-0.022275 1.590466 3.589620
-0.022710 1.468136 3.906741
-0.021616 1.770644 4.528457
-0.020239 2.152689 4.944623
-0.020021 2.211858 5.384877
-0.020759 2.004135 6.019376
-0.020617 2.042941 6.230614
-0.021158 1.891767 6.383170
-0.022311 1.568933 6.772000
-0.023254 1.305693 6.968944
-0.025038 0.809002 6.889192
0.230497 3.038593 1.277047
0.246118 3.222080 1.583580
0.231762 3.053321 2.175687
0.222544 2.944970 2.414084
0.218235 2.894322 2.527347
0.191372 2.578659 2.750657
0.171589 2.346211 2.786472
0.144863 2.032158 3.018179
0.109383 1.615207 3.517669
0.091045 1.399695 3.798256
0.071332 1.168071 3.846886
0.095124 1.447562 4.239239
0.135427 1.920991 4.987475
0.150419 2.097078 5.396459
0.134588 1.910985 5.967662
0.128039 1.834003 6.215435
0.124997 1.798244 6.333050
0.107319 1.590475 6.685078
0.073639 1.194700 6.987804
0.509493 3.089552 1.107736
0.499411 3.031603 1.683293
0.505703 3.067731 1.838902
0.466808 2.844307 2.328405
0.442380 2.704000 2.401043
0.394074 2.426529 2.793449
0.358767 2.223751 2.765883
0.286283 1.807404 3.259461
0.225848 1.460294 3.331414
0.197317 1.296418 3.480182
0.142913 0.983916 4.032244
0.187810 1.241766 4.189570
0.269207 1.709204 4.940707
0.304566 1.912241 5.578457
0.305299 1.916453 5.565496
0.286777 1.810020 6.234560
0.267627 1.700033 6.257711
0.235013 1.512694 6.544663
0.186356 1.233219 6.807464
0.111288 0.802068 6.887873
0.667603 2.619873 1.069688
0.768330 2.998679 1.635154
0.770012 3.004996 1.853797
0.726470 2.841215 2.218011
0.682411 2.675503 2.353827
0.616940 2.429253 2.682427
0.521776 2.071323 3.041259
0.475686 1.897985 2.951757
0.371098 1.504620 3.152281
0.266756 1.112180 3.359986
0.197695 0.852422 3.779754
0.196443 0.847684 4.373759
0.361044 1.466730 4.661578
0.448368 1.795130 5.206138
0.453829 1.815640 5.777413
0.449560 1.799581 5.829130
0.413929 1.665552 6.273327
0.365147 1.482070 6.559863
0.272439 1.133387 6.728436
0.170461 0.749833 7.037516
1.007951 2.866413 1.523270
1.009832 2.871600 1.742970
0.992383 2.823391 2.087461
0.863838 2.468313 2.435346
0.764987 2.195264 2.598623
0.675791 1.948886 2.701027
0.522327 1.524972 3.265114
0.433815 1.280484 3.376982
0.359570 1.075395 3.661323
0.294755 0.896356 3.881669
0.261456 0.804359 4.442226
0.439511 1.296163 4.763179
0.558452 1.624667 5.602586
0.577708 1.677849 5.752360
0.543734 1.583997 6.067946
0.517617 1.511848 6.318742
0.426864 1.261165 6.514049
0.336738 1.012213 6.710816
0.175038 0.565563 6.926378
1.118952 2.512125 0.975921
1.206094 2.702501 1.687969
1.196640 2.681835 1.970725
1.136738 2.550953 2.043389
0.982197 2.213278 2.627029
0.896332 2.025671 2.599993
0.775694 1.762084 2.768636
0.583132 1.341344 3.100999
0.474551 1.104102 3.213500
0.400448 0.942179 3.669497
0.310750 0.746189 3.958653
0.349785 0.831468 4.284833
0.576894 1.327660 4.840400
0.652818 1.493526 5.549984
0.632904 1.450001 6.029033
0.642991 1.472043 5.951402
0.577675 1.329317 6.467177
0.475043 1.105073 6.598420
0.356977 0.847102 6.866839
0.142208 0.377852 6.857821
1.281067 2.311368 1.193867
1.387142 2.498041 1.904325
1.360987 2.452006 2.018216
1.219225 2.202495 2.408879
1.107355 2.005599 2.676426
0.964629 1.754398 2.843648
0.817122 1.494791 2.779685
0.608225 1.127121 3.285364
0.479834 0.901151 3.399290
0.440482 0.831865 4.471984
0.653858 1.207389 5.056612
0.778142 1.426114 5.566417
