31.500000 -29.994141 1.495356
32.000000 -29.463867 1.495356
32.600000 -28.433594 1.495356
33.300000 -28.028320 1.495356
33.900000 -27.373047 1.495356
34.600000 -22.967773 1.495356
35.300000 -26.312500 1.495356
36.100000 -25.657227 1.495356
36.900000 -20.876953 1.495356
37.700000 -20.221680 1.495356
38.700000 -19.441406 1.495356
39.600000 -18.911133 1.495356
40.600000 -18.005859 1.495356
31.200000 -29.754883 1.634202
31.800000 -29.225098 1.634202
32.300000 -29.195312 1.634202
33.000000 -28.540527 1.634202
33.600000 -27.885742 1.634202
34.200000 -26.980957 1.634202
34.900000 -22.826172 1.634202
35.600000 -25.921387 1.634202
36.400000 -21.266602 1.634202
37.200000 -20.861816 1.634202
38.100000 -19.832031 1.634202
39.100000 -19.052246 1.634202
32.000000 -29.238281 1.776290
32.600000 -28.833008 1.776290
33.200000 -28.302734 1.776290
33.800000 -27.647461 1.776290
34.400000 -26.992188 1.776290
35.100000 -26.211914 1.776290
35.900000 -21.681641 1.776290
36.700000 -21.276367 1.776290
37.500000 -20.246094 1.776290
38.400000 -19.840820 1.776290
39.300000 -19.060547 1.776290
40.400000 -18.030273 1.776290
31.000000 -29.977539 1.915904
31.600000 -29.570312 1.915904
32.100000 -29.038086 1.915904
32.700000 -28.380859 1.915904
33.300000 -28.098633 1.915904
34.000000 -27.316406 1.915904
34.600000 -26.909180 1.915904
35.400000 -22.251953 1.915904
36.100000 -21.594727 1.915904
36.900000 -24.937500 1.915904
37.800000 -20.029297 1.915904
38.700000 -19.246094 1.915904
39.600000 -18.587891 1.915904
31.200000 -29.875000 2.047043
31.700000 -29.468750 2.047043
32.200000 -28.937500 2.047043
32.800000 -28.656250 2.047043
33.400000 -27.875000 2.047043
34.100000 -27.341309 2.047043
34.800000 -26.807617 2.047043
35.500000 -26.023926 2.047043
36.200000 -25.490234 2.047043
37.100000 -20.831543 2.047043
38.000000 -19.797852 2.047043
39.000000 -19.139160 2.047043
31.800000 -29.062500 2.185478
32.300000 -29.031250 2.185478
33.000000 -28.125000 2.185478
33.600000 -27.718750 2.185478
34.200000 -27.062500 2.185478
34.900000 -26.406250 2.185478
35.600000 -22.125000 2.185478
36.400000 -21.218750 2.185478
37.200000 -20.562500 2.185478
38.100000 -19.906250 2.185478
39.100000 -19.000000 2.185478
40.000000 -18.218750 2.185478
31.900000 -29.732422 2.349488
32.400000 -28.703125 2.349488
33.000000 -28.548828 2.349488
33.600000 -27.519531 2.349488
34.300000 -23.365234 2.349488
34.900000 -26.335938 2.349488
35.600000 -22.056641 2.349488
36.400000 -21.152344 2.349488
37.300000 -20.373047 2.349488
38.200000 -19.718750 2.349488
39.100000 -19.064453 2.349488
40.100000 -18.160156 2.349488
32.000000 -29.490234 2.483469
32.600000 -28.834473 2.483469
33.200000 -28.178711 2.483469
33.900000 -27.397949 2.483469
34.600000 -26.742188 2.483469
35.200000 -22.336426 2.483469
36.000000 -21.805664 2.483469
36.800000 -20.899902 2.483469
37.600000 -20.369141 2.483469
38.600000 -19.338379 2.483469
39.600000 -18.682617 2.483469
40.600000 -17.901855 2.483469
31.000000 -29.853027 2.622684
31.600000 -29.570312 2.622684
32.100000 -29.287598 2.622684
32.600000 -28.504883 2.622684
33.300000 -24.347168 2.622684
34.000000 -27.564453 2.622684
34.600000 -26.656738 2.622684
35.400000 -26.124023 2.622684
36.100000 -21.466309 2.622684
36.900000 -21.058594 2.622684
37.700000 -20.150879 2.622684
38.700000 -19.243164 2.622684
31.700000 -29.343262 2.750703
32.200000 -29.313477 2.750703
32.900000 -28.783691 2.750703
33.500000 -28.128906 2.750703
34.100000 -23.599121 2.750703
34.800000 -26.444336 2.750703
35.500000 -22.289551 2.750703
36.200000 -21.634766 2.750703
37.100000 -20.854980 2.750703
38.000000 -20.075195 2.750703
38.900000 -19.295410 2.750703
31.300000 -29.795410 2.903068
31.800000 -29.641602 2.903068
32.300000 -28.737793 2.903068
33.000000 -28.333984 2.903068
33.600000 -27.680176 2.903068
34.200000 -27.151367 2.903068
34.900000 -26.622559 2.903068
35.600000 -21.968750 2.903068
36.400000 -21.187988 2.903068
37.200000 -24.657227 2.903068
38.100000 -19.876465 2.903068
39.100000 -19.095703 2.903068
40.100000 -18.189941 2.903068
31.400000 -29.873047 3.030072
32.000000 -29.217773 3.030072
32.500000 -29.062500 3.030072
33.200000 -27.909668 3.030072
33.700000 -27.381836 3.030072
34.400000 -23.229004 3.030072
35.100000 -22.451172 3.030072
35.900000 -25.673340 3.030072
36.700000 -21.020508 3.030072
37.400000 -20.617676 3.030072
38.300000 -19.839844 3.030072
39.300000 -18.687012 3.030072
40.400000 -18.284180 3.030072
31.200000 -29.911133 3.180150
31.700000 -29.257324 3.180150
32.300000 -28.728516 3.180150
32.900000 -28.074707 3.180150
33.500000 -27.670898 3.180150
34.200000 -27.392090 3.180150
34.900000 -26.488281 3.180150
35.500000 -26.084473 3.180150
36.300000 -21.305664 3.180150
37.100000 -20.901855 3.180150
38.000000 -19.873047 3.180150
38.900000 -19.094238 3.180150
31.400000 -29.543457 3.320605
31.900000 -29.511719 3.320605
32.500000 -28.729980 3.320605
33.100000 -28.073242 3.320605
33.700000 -27.291504 3.320605
34.400000 -26.759766 3.320605
35.100000 -26.353027 3.320605
35.900000 -25.821289 3.320605
36.600000 -21.164551 3.320605
37.500000 -20.257812 3.320605
38.400000 -19.851074 3.320605
39.300000 -18.694336 3.320605
40.400000 -18.037598 3.320605
31.600000 -29.958984 3.462031
32.100000 -29.174316 3.462031
32.800000 -28.764648 3.462031
33.400000 -27.854980 3.462031
34.000000 -27.570312 3.462031
34.700000 -22.910645 3.462031
35.400000 -26.000977 3.462031
36.100000 -21.591309 3.462031
37.000000 -24.931641 3.462031
37.900000 -20.271973 3.462031
38.800000 -19.362305 3.462031
31.600000 -29.638672 3.602214
32.200000 -29.230469 3.602214
32.800000 -28.572266 3.602214
33.400000 -27.789062 3.602214
34.100000 -27.505859 3.602214
34.800000 -22.972656 3.602214
35.400000 -25.939453 3.602214
36.200000 -25.531250 3.602214
37.000000 -20.873047 3.602214
37.900000 -20.214844 3.602214
38.900000 -19.431641 3.602214
31.800000 -29.369141 3.739351
32.300000 -28.711914 3.739351
33.000000 -28.179688 3.739351
33.600000 -27.522461 3.739351
34.200000 -26.865234 3.739351
35.000000 -26.583008 3.739351
35.700000 -22.050781 3.739351
36.500000 -21.268555 3.739351
37.300000 -20.736328 3.739351
38.200000 -20.079102 3.739351
39.100000 -19.046875 3.739351
40.100000 -18.517578 3.739351
31.700000 -29.533203 3.877740
32.300000 -28.624023 3.877740
32.800000 -28.464844 3.877740
33.500000 -27.930664 3.877740
34.100000 -27.146484 3.877740
34.800000 -26.737305 3.877740
35.500000 -25.953125 3.877740
36.300000 -25.298340 3.877740
37.100000 -20.518555 3.877740
38.000000 -19.863770 3.877740
38.900000 -19.333984 3.877740
39.900000 -18.554199 3.877740
31.100000 -29.910645 4.016352
31.600000 -29.502930 4.016352
32.200000 -28.970215 4.016352
32.800000 -28.437500 4.016352
33.400000 -28.029785 4.016352
34.000000 -27.122070 4.016352
34.700000 -26.589355 4.016352
35.400000 -22.181641 4.016352
36.200000 -21.398926 4.016352
37.000000 -20.616211 4.016352
37.900000 -19.958496 4.016352
38.900000 -19.300781 4.016352
31.600000 -29.655273 4.156354
32.100000 -29.248535 4.156354
32.800000 -28.466797 4.156354
33.400000 -27.685059 4.156354
34.000000 -27.278320 4.156354
34.700000 -22.996582 4.156354
35.400000 -22.214844 4.156354
36.100000 -21.683105 4.156354
37.000000 -20.901367 4.156354
37.900000 -20.244629 4.156354
38.900000 -19.212891 4.156354
31.900000 -29.734375 4.299437
32.400000 -29.203125 4.299437
33.000000 -28.171875 4.299437
33.700000 -27.640625 4.299437
34.400000 -23.359375 4.299437
35.100000 -26.453125 4.299437
35.800000 -22.046875 4.299437
36.600000 -21.140625 4.299437
37.400000 -20.359375 4.299437
38.200000 -19.953125 4.299437
39.200000 -18.921875 4.299437
40.300000 -18.390625 4.299437
31.900000 -29.240234 4.437152
32.400000 -28.960938 4.437152
33.000000 -28.556641 4.437152
33.600000 -27.652344 4.437152
34.300000 -27.123047 4.437152
35.000000 -22.718750 4.437152
35.700000 -25.814453 4.437152
36.600000 -21.285156 4.437152
37.400000 -20.630859 4.437152
38.200000 -19.976562 4.437152
39.200000 -19.072266 4.437152
40.200000 -18.417969 4.437152
31.500000 -29.795898 4.578040
32.100000 -29.015625 4.578040
32.600000 -28.485352 4.578040
33.300000 -28.330078 4.578040
33.900000 -27.424805 4.578040
34.600000 -26.644531 4.578040
35.200000 -26.239258 4.578040
36.000000 -21.708984 4.578040
36.800000 -25.053711 4.578040
37.600000 -20.148438 4.578040
38.600000 -19.618164 4.578040
39.600000 -18.837891 4.578040
40.600000 -18.182617 4.578040
31.700000 -29.183594 4.719777
32.200000 -29.026367 4.719777
32.800000 -28.244141 4.719777
33.500000 -27.961914 4.719777
34.100000 -27.429688 4.719777
34.800000 -26.647461 4.719777
35.500000 -25.865234 4.719777
36.200000 -21.333008 4.719777
37.100000 -24.800781 4.719777
37.900000 -19.893555 4.719777
38.900000 -19.361328 4.719777
39.900000 -18.329102 4.719777
31.900000 -29.588379 4.858290
32.400000 -29.055664 4.858290
33.000000 -28.522949 4.858290
33.600000 -23.990234 4.858290
34.300000 -23.207520 4.858290
35.000000 -22.674805 4.858290
35.800000 -22.017090 4.858290
36.600000 -25.109375 4.858290
37.400000 -20.575684 4.858290
38.400000 -19.666992 4.858290
39.300000 -19.133301 4.858290
40.300000 -18.349609 4.858290
31.400000 -29.417480 4.997235
31.900000 -29.262695 4.997235
32.500000 -28.982910 4.997235
33.100000 -27.953125 4.997235
33.700000 -27.545410 4.997235
34.400000 -27.012695 4.997235
35.200000 -22.604980 4.997235
35.900000 -21.947266 4.997235
36.600000 -21.039551 4.997235
37.500000 -20.506836 4.997235
38.400000 -19.599121 4.997235
39.300000 -19.066406 4.997235
31.400000 -29.862305 5.138610
32.000000 -29.332520 5.138610
32.500000 -28.427734 5.138610
33.100000 -28.397949 5.138610
33.700000 -27.368164 5.138610
34.500000 -23.213379 5.138610
35.200000 -26.433594 5.138610
35.900000 -21.778809 5.138610
36.700000 -20.999023 5.138610
37.600000 -20.469238 5.138610
38.500000 -19.814453 5.138610
39.400000 -19.034668 5.138610
40.400000 -18.129883 5.138610
31.400000 -29.473633 5.279652
32.000000 -28.945312 5.279652
32.600000 -28.916992 5.279652
33.100000 -27.888672 5.279652
33.800000 -27.360352 5.279652
34.500000 -27.082031 5.279652
35.200000 -26.428711 5.279652
35.900000 -25.775391 5.279652
36.700000 -25.122070 5.279652
37.600000 -24.468750 5.279652
38.500000 -19.565430 5.279652
39.400000 -18.912109 5.279652
40.400000 -18.133789 5.279652
32.000000 -28.937500 5.431345
32.600000 -28.406250 5.431345
33.100000 -28.375000 5.431345
33.800000 -27.593750 5.431345
34.500000 -26.812500 5.431345
35.200000 -22.281250 5.431345
36.000000 -21.750000 5.431345
36.800000 -20.968750 5.431345
37.600000 -20.312500 5.431345
38.500000 -19.656250 5.431345
39.500000 -19.000000 5.431345
40.400000 -18.093750 5.431345
31.400000 -29.788574 5.559580
31.900000 -29.256836 5.559580
32.500000 -28.475098 5.559580
33.100000 -28.443359 5.559580
33.700000 -27.661621 5.559580
34.400000 -27.129883 5.559580
35.200000 -26.473145 5.559580
35.900000 -21.941406 5.559580
36.700000 -21.034668 5.559580
37.500000 -20.627930 5.559580
38.400000 -19.596191 5.559580
39.400000 -19.064453 5.559580
40.400000 -18.157715 5.559580
31.300000 -29.689453 5.699538
31.900000 -29.286133 5.699538
32.500000 -28.632812 5.699538
33.100000 -28.354492 5.699538
33.700000 -27.451172 5.699538
34.400000 -26.797852 5.699538
35.100000 -26.269531 5.699538
35.900000 -21.741211 5.699538
36.600000 -21.337891 5.699538
37.500000 -20.434570 5.699538
38.400000 -20.031250 5.699538
39.300000 -18.875488 5.699538
40.400000 -18.469727 5.699538
30.900000 -29.963867 5.842950
31.400000 -29.686035 5.842950
32.000000 -29.533203 5.842950
32.600000 -28.880371 5.842950
33.200000 -27.977539 5.842950
33.800000 -27.574707 5.842950
34.500000 -26.796875 5.842950
35.200000 -26.142578 5.842950
36.000000 -21.613281 5.842950
36.800000 -21.208984 5.842950
37.600000 -20.304688 5.842950
38.500000 -19.525391 5.842950
39.400000 -18.871094 5.842950
40.400000 -18.341797 5.842950
31.600000 -29.578125 5.982202
32.100000 -29.174805 5.982202
32.800000 -28.646484 5.982202
33.400000 -27.743164 5.982202
34.000000 -27.089844 5.982202
34.800000 -26.811523 5.982202
35.500000 -25.908203 5.982202
36.200000 -25.379883 5.982202
37.100000 -24.851562 5.982202
37.900000 -19.948242 5.982202
38.900000 -19.419922 5.982202
31.400000 -29.707031 6.122446
32.000000 -29.051758 6.122446
32.600000 -28.896484 6.122446
33.200000 -27.991211 6.122446
33.800000 -23.835938 6.122446
34.500000 -26.805664 6.122446
35.200000 -26.150391 6.122446
36.000000 -21.745117 6.122446
36.800000 -21.089844 6.122446
37.600000 -20.434570 6.122446
38.500000 -19.404297 6.122446
39.500000 -18.999023 6.122446
40.400000 -17.968750 6.122446
31.500000 -29.741211 6.263044
32.000000 -29.458984 6.263044
32.600000 -28.676758 6.263044
33.200000 -28.019531 6.263044
33.900000 -27.612305 6.263044
34.600000 -23.080078 6.263044
35.300000 -26.297852 6.263044
36.100000 -21.515625 6.263044
36.800000 -20.983398 6.263044
37.700000 -20.326172 6.263044
38.700000 -19.418945 6.263044
39.600000 -19.011719 6.263044
40.700000 -18.104492 6.263044
31.100000 -29.977539 6.403417
31.600000 -29.318359 6.403417
32.200000 -28.909180 6.403417
32.800000 -28.500000 6.403417
33.500000 -27.840820 6.403417
34.100000 -23.556641 6.403417
34.800000 -26.772461 6.403417
35.500000 -22.238281 6.403417
36.300000 -21.454102 6.403417
37.100000 -20.794922 6.403417
38.000000 -19.885742 6.403417
39.000000 -19.101562 6.403417
40.000000 -18.442383 6.403417
31.700000 -29.603027 6.542129
32.300000 -28.697266 6.542129
32.900000 -28.541504 6.542129
33.500000 -27.635742 6.542129
34.200000 -23.479980 6.542129
35.000000 -22.824219 6.542129
35.700000 -22.043457 6.542129
36.400000 -21.262695 6.542129
37.200000 -20.856934 6.542129
38.200000 -20.201172 6.542129
39.100000 -19.045410 6.542129
40.000000 -18.389648 6.542129
31.300000 -29.932617 6.682516
31.900000 -29.398438 6.682516
32.500000 -28.739258 6.682516
33.100000 -28.080078 6.682516
33.700000 -27.295898 6.682516
34.400000 -26.761719 6.682516
35.100000 -26.227539 6.682516
35.800000 -21.943359 6.682516
36.700000 -21.159180 6.682516
37.500000 -20.250000 6.682516
38.400000 -19.596191 6.682516
39.400000 -19.067383 6.682516
40.300000 -18.288574 6.682516
31.600000 -29.484375 6.819387
32.200000 -29.199219 6.819387
32.800000 -28.789062 6.819387
33.400000 -27.878906 6.819387
34.000000 -27.218750 6.819387
34.700000 -26.439941 6.819387
35.400000 -22.161133 6.819387
36.300000 -21.632324 6.819387
37.000000 -20.603516 6.819387
37.900000 -20.074707 6.819387
38.800000 -19.545898 6.819387
39.800000 -18.892090 6.819387
31.800000 -29.797363 6.958230
32.300000 -28.641602 6.958230
32.900000 -27.985840 6.958230
33.500000 -27.830078 6.958230
34.200000 -27.299316 6.958230
35.000000 -22.768555 6.958230
35.600000 -22.112793 6.958230
36.400000 -21.332031 6.958230
37.200000 -20.426270 6.958230
38.200000 -19.770508 6.958230
39.200000 -19.114746 6.958230
40.100000 -18.458984 6.958230
32.100000 -29.034180 7.100745
32.700000 -28.253418 7.100745
33.400000 -24.347656 7.100745
34.000000 -27.316895 7.100745
34.600000 -26.911133 7.100745
35.300000 -26.255371 7.100745
36.100000 -25.474609 7.100745
36.900000 -20.818848 7.100745
37.800000 -20.163086 7.100745
38.700000 -19.257324 7.100745
39.600000 -18.476562 7.100745
40.800000 -17.945801 7.100745
31.200000 -29.888184 7.256518
31.700000 -29.608398 7.256518
32.300000 -28.953613 7.256518
32.800000 -28.548828 7.256518
33.500000 -28.019043 7.256518
34.200000 -27.114258 7.256518
34.900000 -26.709473 7.256518
35.600000 -22.054688 7.256518
36.400000 -21.274902 7.256518
37.200000 -20.745117 7.256518
38.100000 -19.965332 7.256518
39.000000 -19.310547 7.256518
39.900000 -18.405762 7.256518
31.600000 -29.678711 7.395256
32.200000 -28.772949 7.395256
32.800000 -28.242188 7.395256
33.400000 -27.836426 7.395256
34.000000 -27.305664 7.395256
34.700000 -26.649902 7.395256
35.400000 -22.369141 7.395256
36.200000 -21.588379 7.395256
37.000000 -20.807617 7.395256
37.800000 -20.401855 7.395256
38.800000 -19.371094 7.395256
39.800000 -18.590332 7.395256
31.400000 -29.562500 7.535403
31.900000 -29.531250 7.535403
32.500000 -28.500000 7.535403
33.100000 -28.468750 7.535403
33.700000 -27.437500 7.535403
34.400000 -26.906250 7.535403
35.100000 -26.375000 7.535403
35.800000 -21.843750 7.535403
36.600000 -21.187500 7.535403
37.500000 -20.656250 7.535403
38.400000 -19.750000 7.535403
39.300000 -19.093750 7.535403
40.300000 -18.187500 7.535403
31.600000 -29.767578 7.675194
32.100000 -29.109375 7.675194
32.800000 -28.576172 7.675194
33.400000 -28.042969 7.675194
34.000000 -27.509766 7.675194
34.700000 -26.726562 7.675194
35.400000 -22.318359 7.675194
36.200000 -21.660156 7.675194
37.000000 -21.001953 7.675194
37.800000 -20.343750 7.675194
38.800000 -19.436523 7.675194
39.800000 -18.529297 7.675194
31.200000 -29.950684 7.813606
31.700000 -29.294922 7.813606
32.200000 -28.764160 7.813606
32.800000 -28.233398 7.813606
33.400000 -27.577637 7.813606
34.100000 -27.171875 7.813606
34.900000 -26.512695 7.813606
35.500000 -22.228516 7.813606
36.300000 -21.319336 7.813606
37.200000 -20.660156 7.813606
38.100000 -20.250977 7.813606
39.000000 -19.466797 7.813606
39.900000 -18.557617 7.813606
31.700000 -29.343262 7.940132
32.300000 -28.686523 7.940132
32.900000 -28.279785 7.940132
33.500000 -27.623047 7.940132
34.200000 -23.466309 7.940132
34.900000 -26.684570 7.940132
35.600000 -26.027832 7.940132
36.400000 -21.246094 7.940132
37.200000 -24.714355 7.940132
38.100000 -20.057617 7.940132
39.100000 -19.025879 7.940132
40.000000 -18.244141 7.940132
31.300000 -29.541016 8.096572
31.900000 -29.386719 8.096572
32.500000 -28.357422 8.096572
33.100000 -28.328125 8.096572
33.700000 -27.548828 8.096572
34.400000 -26.894531 8.096572
35.100000 -26.240234 8.096572
35.800000 -25.710938 8.096572
36.600000 -21.056641 8.096572
37.500000 -20.402344 8.096572
38.400000 -19.748047 8.096572
39.300000 -18.843750 8.096572
40.300000 -18.439453 8.096572
30.900000 -29.955078 8.234624
31.500000 -29.800781 8.234624
32.000000 -29.396484 8.234624
32.600000 -28.992188 8.234624
33.200000 -27.837891 8.234624
33.900000 -27.183594 8.234624
34.500000 -26.779297 8.234624
35.200000 -26.375000 8.234624
36.000000 -21.845703 8.234624
36.800000 -21.066406 8.234624
37.600000 -20.537109 8.234624
38.600000 -19.382812 8.234624
39.500000 -18.603516 8.234624
40.400000 -18.074219 8.234624
31.100000 -29.883789 8.376175
31.600000 -29.852051 8.376175
32.200000 -29.195312 8.376175
32.800000 -28.288574 8.376175
33.400000 -27.631836 8.376175
34.100000 -23.600098 8.376175
34.800000 -26.693359 8.376175
35.500000 -22.286621 8.376175
36.300000 -25.504883 8.376175
37.100000 -24.848145 8.376175
38.100000 -20.316406 8.376175
39.000000 -19.159668 8.376175
31.200000 -29.615234 8.516225
31.700000 -29.710938 8.516225
32.300000 -29.181641 8.516225
32.900000 -28.652344 8.516225
33.500000 -27.748047 8.516225
34.200000 -27.093750 8.516225
35.000000 -22.814453 8.516225
35.700000 -22.035156 8.516225
36.400000 -25.255859 8.516225
37.300000 -24.726562 8.516225
38.200000 -19.947266 8.516225
39.100000 -19.417969 8.516225
40.000000 -18.388672 8.516225
31.300000 -29.554688 8.654669
31.900000 -29.403320 8.654669
32.500000 -28.751953 8.654669
33.100000 -28.225586 8.654669
33.700000 -27.574219 8.654669
34.300000 -26.797852 8.654669
35.100000 -22.646484 8.654669
35.800000 -21.995117 8.654669
36.700000 -21.218750 8.654669
37.500000 -20.563477 8.654669
38.400000 -19.783203 8.654669
39.300000 -18.877930 8.654669
40.300000 -18.097656 8.654669
31.100000 -29.994141 8.785007
31.600000 -29.589355 8.785007
32.200000 -29.184570 8.785007
32.800000 -28.779785 8.785007
33.400000 -28.000000 8.785007
34.100000 -27.222168 8.785007
34.700000 -26.444336 8.785007
35.400000 -22.041504 8.785007
36.200000 -25.513672 8.785007
37.000000 -20.985840 8.785007
37.900000 -20.208008 8.785007
38.900000 -19.180176 8.785007
39.800000 -18.777344 8.785007
31.300000 -29.705078 8.934057
31.900000 -29.425781 8.934057
32.500000 -28.646484 8.934057
33.000000 -28.367188 8.934057
33.700000 -23.962891 8.934057
34.400000 -26.933594 8.934057
35.100000 -26.404297 8.934057
35.800000 -22.000000 8.934057
36.600000 -21.345703 8.934057
37.500000 -20.441406 8.934057
38.400000 -19.912109 8.934057
39.300000 -19.007812 8.934057
40.300000 -18.103516 8.934057
31.400000 -29.893555 9.075949
32.000000 -29.362793 9.075949
32.600000 -28.582031 9.075949
33.200000 -27.926270 9.075949
33.800000 -27.645508 9.075949
34.600000 -26.864746 9.075949
35.300000 -26.083984 9.075949
36.000000 -25.678223 9.075949
36.900000 -20.897461 9.075949
37.700000 -20.491699 9.075949
38.600000 -19.335938 9.075949
39.500000 -18.805176 9.075949
40.500000 -18.024414 9.075949
31.900000 -29.507812 9.219687
32.500000 -28.474609 9.219687
33.100000 -28.316406 9.219687
33.700000 -27.283203 9.219687
34.400000 -26.875000 9.219687
35.100000 -26.341797 9.219687
35.900000 -25.808594 9.219687
36.700000 -21.275391 9.219687
37.500000 -20.617188 9.219687
38.400000 -19.458984 9.219687
39.300000 -19.050781 9.219687
40.400000 -18.017578 9.219687
31.300000 -29.835938 9.353386
31.900000 -29.053223 9.353386
32.500000 -29.020508 9.353386
33.100000 -28.237793 9.353386
33.700000 -27.455078 9.353386
34.400000 -26.922363 9.353386
35.100000 -26.389648 9.353386
35.900000 -21.731934 9.353386
36.700000 -21.074219 9.353386
37.500000 -20.416504 9.353386
38.400000 -20.008789 9.353386
39.300000 -18.976074 9.353386
40.400000 -18.068359 9.353386
31.900000 -29.468750 9.493305
32.400000 -28.812500 9.493305
33.000000 -28.281250 9.493305
33.700000 -27.750000 9.493305
34.300000 -27.093750 9.493305
35.100000 -22.562500 9.493305
35.800000 -25.906250 9.493305
36.600000 -21.250000 9.493305
37.500000 -20.343750 9.493305
38.300000 -19.937500 9.493305
39.300000 -19.281250 9.493305
40.300000 -18.125488 9.493305
31.300000 -29.592773 9.631524
31.900000 -29.059082 9.631524
32.400000 -28.650391 9.631524
33.000000 -28.366699 9.631524
33.700000 -27.708008 9.631524
34.300000 -23.299316 9.631524
35.100000 -22.515625 9.631524
35.900000 -21.861328 9.631524
36.700000 -21.082031 9.631524
37.400000 -20.427734 9.631524
38.400000 -19.773438 9.631524
39.300000 -18.994141 9.631524
40.300000 -18.214844 9.631524
30.900000 -29.909180 9.774541
31.400000 -29.501465 9.774541
32.000000 -28.843750 9.774541
32.600000 -28.562500 9.774541
33.200000 -28.156250 9.774541
33.900000 -23.750000 9.774541
34.600000 -26.718750 9.774541
35.300000 -26.062500 9.774541
36.000000 -25.656250 9.774541
36.900000 -21.000000 9.774541
37.800000 -20.218750 9.774541
38.700000 -19.437500 9.774541
39.500000 -18.906250 9.774541
31.100000 -29.721680 9.916565
31.600000 -29.816406 9.916565
32.200000 -29.161133 9.916565
32.800000 -28.755859 9.916565
33.400000 -28.100586 9.916565
34.100000 -23.570312 9.916565
34.800000 -26.790039 9.916565
35.500000 -26.134766 9.916565
36.200000 -21.479492 9.916565
37.100000 -20.949219 9.916565
38.000000 -19.918945 9.916565
38.900000 -19.138672 9.916565
31.800000 -29.102539 10.059597
32.400000 -28.572266 10.059597
33.000000 -28.416992 10.059597
33.700000 -27.761719 10.059597
34.300000 -23.356445 10.059597
35.100000 -22.701172 10.059597
35.800000 -21.920898 10.059597
36.600000 -21.140625 10.059597
37.400000 -20.735352 10.059597
38.300000 -19.705078 10.059597
39.300000 -19.049805 10.059597
40.300000 -18.144531 10.059597
