3.726153 -0.223305 -1.598303
3.242004 -0.260888 -0.704216
2.579997 -0.312216 -0.236519
1.797483 -0.372880 0.246123
2.062839 -0.352542 2.898491
4.381359 0.264209 -2.657753
3.446535 0.097166 -2.031001
3.310193 0.072738 -1.169362
2.604753 -0.053331 -0.526457
1.574097 -0.237471 -0.160897
2.254496 -0.116148 2.439619
1.729217 -0.210049 3.252209
0.889995 -0.360005 3.767575
3.161259 0.359938 -1.597600
2.647912 0.215307 -0.831510
2.062672 0.050445 -0.224764
1.101096 -0.220367 0.012109
1.914047 0.008332 2.770141
1.340566 -0.153219 3.378484
3.121893 0.676747 -1.806888
2.747896 0.529907 -0.930451
2.177543 0.306048 -0.444109
1.359458 -0.015039 0.207273
1.839776 0.173220 2.737634
2.709665 0.812674 -1.205451
2.219215 0.561738 -0.601916
1.557223 0.223070 -0.176094
1.717604 0.304852 2.586288
1.382600 0.133437 3.135273
0.583283 -0.275475 3.540610
3.624760 1.706321 -1.918918
2.694391 1.112915 -1.351226
2.187040 0.789283 -0.688496
1.619449 0.427256 -0.274620
0.849384 -0.063888 0.020375
1.323556 0.238224 3.027195
0.911802 -0.024421 3.489427
2.526067 1.346020 -1.989107
2.248666 1.126681 -1.248929
1.761934 0.741884 -0.511582
1.117479 0.232433 0.109536
1.405046 0.459453 2.728547
1.084201 0.205794 3.288700
0.374053 -0.355541 3.530380
3.099942 2.279901 -1.887382
2.380902 1.586557 -1.480864
1.947091 1.168211 -0.899128
1.425891 0.665617 -0.422858
0.648507 -0.084004 0.179507
1.170884 0.419355 2.922205
0.643094 -0.089609 3.529956
2.226494 1.822671 -1.890855
1.927125 1.471766 -1.055790
1.445041 0.906792 -0.480308
1.014417 0.402129 0.018089
0.959368 0.337467 1.232866
1.149280 0.559858 2.380234
0.960896 0.339017 3.118059
0.399903 -0.318406 3.570605
2.513526 2.761498 -1.715290
1.937129 1.921286 -1.474523
1.617396 1.455159 -0.977209
1.184162 0.823560 -0.282476
0.672412 0.077549 0.173032
0.987830 0.536908 2.939477
1.654446 1.915723 -1.269104
1.343089 1.358053 -0.711840
0.816636 0.414877 1.702991
0.815047 0.411805 3.034724
0.512239 -0.130543 3.525269
1.630714 2.472697 -2.108864
1.442971 2.040357 -1.228744
1.166305 1.403380 -0.598851
0.756654 0.459929 1.755787
0.753423 0.452221 3.052526
0.511654 -0.104404 3.568182
1.300955 2.354974 -1.388372
1.080825 1.676507 -0.742372
0.856651 0.985634 -0.295898
0.638943 0.314607 0.440160
0.703923 0.514554 1.475409
0.731274 0.598488 2.753995
0.559995 0.070547 3.410332
0.256366 -0.865111 3.697010
1.120949 2.726035 -2.052829
0.991104 2.134203 -1.282905
0.872732 1.594698 -0.670816
0.619834 0.441581 1.896563
0.586674 0.290115 2.925413
0.442703 -0.365996 3.497813
0.819783 2.650468 -1.452706
0.731436 1.884530 -0.737108
0.646382 1.147307 -0.270304
0.602957 0.770568 0.444098
0.579410 0.565676 1.673472
0.580505 0.574503 2.585607
0.541395 0.235133 3.324824
0.431967 -0.713228 3.750117
0.558898 2.557231 -1.297910
0.548914 2.026912 -0.839279
0.533936 1.231818 -0.265569
0.522172 0.606232 0.446142
0.521475 0.564956 1.445613
0.521005 0.534494 2.723413
0.514655 0.195410 3.418118
0.497183 -0.730814 3.802556
0.270252 3.016289 -2.533873
0.285803 2.823141 -1.686732
0.321583 2.377510 -0.943470
0.381156 1.634910 -0.320863
0.483153 0.364944 2.155493
0.494516 0.224285 3.221393
0.551268 -0.483196 3.772866
0.051395 2.601555 -1.159908
0.160062 1.996864 -0.470465
0.286529 1.292870 -0.198289
0.475542 0.240799 0.402409
0.423621 0.530926 2.643015
0.507278 0.065537 3.451932
0.674478 -0.865131 3.967488
-0.235194 2.697958 -1.055158
-0.076639 2.139601 -0.408614
0.171537 1.265434 -0.089258
0.415382 0.406525 0.231163
0.380863 0.528878 2.706887
0.490741 0.142016 3.408873
0.756586 -0.794324 3.967488
-0.509969 2.698521 -1.023597
-0.383696 2.376676 -0.473002
0.007186 1.380116 0.011686
0.277014 0.692244 0.588123
0.263624 0.726587 1.481233
0.301322 0.630707 2.554590
0.472148 0.195319 3.352257
0.817646 -0.685504 3.912379
-1.033198 3.146042 -2.597667
-0.859268 2.805586 -1.452953
-0.804078 2.697652 -0.553189
-0.491981 2.086447 -0.127666
0.276118 0.582451 2.233213
0.320165 0.496327 3.050256
-1.622288 3.450306 -1.884264
-1.256137 2.883901 -1.241548
-1.142372 2.708047 -0.190487
-0.647984 1.943185 0.122314
-0.131826 1.144673 0.638621
0.263023 0.533831 1.047108
0.454241 0.238303 3.162896
0.783915 -0.271695 3.600794
-1.436754 2.630949 -1.686393
-1.503640 2.715380 -0.399425
0.306079 0.436031 2.861970
0.606979 0.057054 3.468263
-1.786946 2.579365 -1.855316
-1.764495 2.556331 -0.561493
0.263951 0.461577 1.400629
0.270620 0.454849 2.745444
0.598449 0.116352 3.468263
-1.990430 2.361302 -1.795771
-1.980767 2.353251 -0.324184
0.276703 0.435187 2.576381
0.691585 0.082700 3.270832
-2.290524 2.195602 -0.803097
0.315870 0.402558 1.178361
0.304833 0.410283 2.485398
0.552496 0.239947 3.077864
-3.090696 2.306362 -1.897102
-2.372402 1.906227 -1.076694
-2.241722 1.833508 -0.095120
-1.549715 1.447957 0.066085
-0.189505 0.690105 0.264181
0.700846 0.194059 0.609028
0.332019 0.399804 3.192386
1.133491 -0.046732 3.420547
-2.501169 1.641920 -1.640476
-2.525658 1.652637 -0.650083
-2.003490 1.426077 -0.054969
-0.918545 0.955237 0.048716
0.408575 0.379292 0.112808
0.138265 0.496825 2.576381
0.772603 0.221599 3.315126
-2.779328 1.433703 -1.881380
-2.570831 1.366487 -0.754462
-2.061262 1.202020 -0.162314
-0.939610 0.839912 0.142656
0.359193 0.420576 0.054835
0.034681 0.525559 2.490506
0.720770 0.304122 3.317652
-2.948993 1.159545 -1.930952
-2.594508 1.083015 -0.986264
-1.981670 0.950628 -0.280629
-1.133639 0.767376 -0.013814
0.404537 0.434959 0.137647
0.080592 0.505182 2.640870
0.776224 0.354897 3.274777
-3.798938 0.962012 -1.893529
-2.856571 0.850899 -1.548676
-2.192953 0.772704 -0.688496
-1.504628 0.691571 -0.125638
-0.115913 0.527980 2.195417
0.139943 0.497871 2.986742
-3.799898 0.580913 -1.806119
-2.890809 0.564095 -1.544746
-2.303613 0.553281 -0.785175
-1.605148 0.540394 -0.177271
-0.146793 0.513575 2.181364
0.068557 0.509647 2.908339
-3.150185 0.254822 -1.921042
-2.669314 0.294157 -1.224535
-1.944644 0.353410 -0.475633
-0.508924 0.470870 1.814652
-0.158907 0.499536 2.731600
-3.310590 -0.081104 -2.407188
-2.886051 -0.004122 -1.628710
-2.213669 0.117758 -0.910018
-1.566979 0.234974 -0.314947
-0.557413 0.417907 -0.035315
-3.780175 -0.559691 -1.741190
-2.902722 -0.306450 -1.668640
-2.140787 -0.086483 -0.854319
-1.651733 0.054697 -0.408031
-0.581818 0.363511 -0.014046
-2.887450 -0.588863 -1.780529
-2.360428 -0.381200 -1.251386
-1.772957 -0.149716 -0.619360
-0.953561 0.173110 -0.252407
-3.564788 -1.243687 -1.764025
-2.659056 -0.782108 -1.488671
-2.042445 -0.467824 -0.793115
-1.366479 -0.123305 -0.224826
-0.399985 0.369207 -0.280208
-2.741227 -1.189350 -1.830351
-2.456606 -1.002393 -1.184347
-1.813019 -0.579713 -0.419258
-1.211886 -0.184963 -0.180996
-2.738677 -1.535126 -2.281527
-2.502889 -1.346626 -1.496819
-1.868368 -0.839501 -0.731831
-1.385181 -0.453351 -0.385649
-0.358071 0.367445 -0.050774
-2.391716 -1.673141 -1.668640
-1.952246 -1.232885 -1.067906
-1.573777 -0.853743 -0.593670
-0.814702 -0.093363 -0.009486
-2.224687 -1.871708 -1.223665
-1.812997 -1.377743 -0.827288
-1.278931 -0.736954 -0.370413
-0.502854 0.194136 -0.258784
-2.229951 -2.398284 -2.095576
-1.949922 -1.982204 -1.145394
-1.565147 -1.410587 -0.485507
-2.051376 -2.658952 -1.615903
-1.848392 -2.291253 -0.992971
-1.460093 -1.587982 -0.510844
-0.980039 -0.718564 -0.124064
-0.787529 -0.369776 0.834373
-0.994934 -0.745130 2.260551
-0.826114 -0.439249 3.174602
-1.843524 -3.055233 -1.285903
-1.542786 -2.342524 -0.660229
-1.241794 -1.629285 -0.367970
-0.801804 -0.586700 -0.082452
-1.075903 -1.235497 3.012060
-1.554158 -3.297875 -1.572122
-1.455221 -2.977789 -1.016734
-1.198094 -2.146173 -0.497929
-0.953166 -1.354071 -0.207731
-1.091897 -1.801918 2.528688
-0.916972 -1.236112 3.077076
-1.287359 -3.608578 -1.329246
-1.143896 -2.932058 -0.692205
-0.956143 -2.046812 -0.198723
-0.792903 -1.277187 0.127645
-0.918069 -1.866112 2.874017
-0.758927 -1.115749 3.333329
-0.890807 -3.581165 -1.082633
-0.840910 -3.107401 -0.583628
-0.757058 -2.311541 -0.141613
-0.765367 -2.388514 2.209836
-0.721873 -1.975148 3.147095
-0.635338 -1.153888 3.520872
-0.534787 -3.955175 -1.325958
-0.530976 -3.325152 -0.609343
-0.525970 -2.505740 -0.267495
-0.526263 -2.518991 2.288470
-0.523158 -2.005012 2.929124
-0.520276 -1.530015 3.358441
-0.151861 -4.132502 -1.839861
-0.192776 -3.664404 -0.901351
-0.231701 -3.218762 -0.315272
-0.317072 -2.240467 -0.000023
-0.286933 -2.588453 2.630912
-0.321465 -2.193162 3.197601
0.243785 -3.937238 -1.232266
0.154770 -3.478603 -0.711556
0.028159 -2.826206 -0.086163
0.013876 -2.753083 1.072582
0.040526 -2.890925 2.140494
-0.069422 -2.324568 3.079765
-0.164795 -1.833132 3.546550
0.602162 -3.882065 -1.212872
0.498285 -3.526629 -0.612582
0.398248 -3.184425 0.268992
0.415097 -3.242505 1.623955
0.362946 -3.064207 2.421545
0.193977 -2.485974 3.139154
0.034579 -1.940474 3.750344
1.236688 -4.441345 -2.269140
1.038721 -3.949418 -1.665312
0.925715 -3.668723 -0.805435
0.797973 -3.351445 0.249369
0.674335 -3.044309 1.039691
0.655859 -2.998839 3.087217
0.271117 -2.042640 3.566130
1.311945 -3.642508 -1.144922
1.145039 -3.320388 -0.669992
0.946250 -2.936805 0.266614
1.736946 -3.564310 -1.717927
1.556149 -3.289998 -0.943102
1.310475 -2.917224 -0.078739
2.153257 -3.506083 -1.891964
1.911862 -3.204715 -0.898649
1.545216 -2.746883 -0.100016
2.321606 -3.102228 -1.342235
2.067818 -2.842975 -0.634500
1.650876 -2.417022 0.269098
1.666288 -2.432914 1.473254
3.048072 -3.202980 -2.130680
2.614413 -2.841867 -1.403757
2.357016 -2.627572 -0.573363
2.189827 -2.488437 0.497066
2.511415 -2.756403 1.589948
2.732916 -2.448712 -0.901351
2.073497 -2.006581 2.789381
1.344981 -1.517766 3.304249
3.207137 -2.308887 -1.510516
2.810924 -2.095379 -0.543926
2.516262 -1.936618 0.434171
2.606144 -1.985173 1.489858
2.349951 -1.847132 2.258859
1.843091 -1.573939 2.848558
1.234976 -1.246177 3.635543
4.006529 -2.257242 -2.331011
3.434515 -2.014205 -1.737301
3.139234 -1.888787 -0.972429
2.590651 -1.655727 -0.162374
1.752974 -1.299756 0.066050
2.431691 -1.588444 2.848341
1.764834 -1.305097 3.406809
1.034189 -0.994634 3.873549
4.068858 -1.814616 -2.168917
3.513971 -1.640181 -1.423188
3.117214 -1.515473 -0.691907
2.667027 -1.373972 0.134072
2.370761 -1.280844 0.614677
2.103213 -1.196800 1.696268
2.240936 -1.240201 2.736023
1.665454 -1.059305 3.654451
0.723045 -0.762963 3.925999
3.732806 -1.275604 -1.617481
3.151639 -1.158161 -0.715959
2.769770 -1.081000 -0.033039
2.299425 -0.985964 0.831048
2.294285 -0.985007 1.800457
2.179271 -0.961843 2.909286
3.688233 -0.911470 -1.406952
3.214313 -0.860378 -0.757512
2.403913 -0.772968 -0.181450
2.351970 -0.767562 2.215412
2.013171 -0.731046 2.782189
3.669935 -0.542150 -1.416469
3.173908 -0.537940 -0.583628
2.381592 -0.531141 -0.151725
2.430810 -0.531760 2.195213
2.018622 -0.528259 2.863806
1.306730 -0.522167 3.465221
3.778260 -0.161977 -2.115611
3.402738 -0.196895 -1.287634
2.737334 -0.258704 -0.590109
1.958894 -0.330976 -0.204288
2.264210 -0.302863 2.443937
1.926867 -0.334227 3.147919
1.111508 -0.409936 3.650069
3.402013 0.119762 -2.017758
3.010792 0.046184 -1.036902
2.340035 -0.079878 -0.427726
1.580033 -0.222673 -0.207152
2.089112 -0.127268 2.549100
1.560829 -0.226571 3.240428
0.530711 -0.420134 3.739203
3.242985 0.436035 -1.706419
2.774774 0.296100 -0.920439
2.077179 0.087657 -0.326987
1.397846 -0.115312 0.062659
1.861492 0.022962 2.717084
2.893661 0.616903 -1.247664
2.277084 0.368090 -0.422917
1.626147 0.105462 -0.130502
1.781763 0.167992 2.649722
1.375112 0.003880 3.336815
0.595263 -0.310748 3.567830
2.771668 0.880535 -1.694650
2.344135 0.655685 -0.948036
1.867293 0.404924 -0.347509
1.205080 0.056710 0.179939
1.620640 0.274964 2.650662
2.560047 1.076510 -1.298952
2.030590 0.727362 -0.792623
1.255120 0.215982 -0.042848
1.106023 0.117580 0.911645
1.320037 0.258554 2.275913
1.144578 0.142774 3.204803
0.557494 -0.244350 3.499779
2.438325 1.323671 -2.115840
2.115631 1.061359 -1.221003
1.783593 0.791487 -0.644965
1.128251 0.258919 -0.205359
1.282652 0.384088 2.548962
0.978748 0.137059 3.306971
0.335451 -0.385699 3.524818
2.941787 2.175315 -2.429755
2.471366 1.712961 -1.814255
2.063869 1.312433 -1.122071
1.505263 0.763428 -0.577947
1.092877 0.358078 0.263716
1.156112 0.420076 1.499512
1.228679 0.491247 2.706124
0.867220 0.135953 3.461990
0.206014 -0.513825 3.559849
2.745809 2.481624 -1.676260
2.126920 1.743131 -1.422642
1.716268 1.253078 -0.952046
1.222085 0.663333 -0.292057
0.666694 0.000576 0.194317
0.985812 0.380997 2.918536
1.953549 1.969032 -1.842954
1.752011 1.672027 -1.091733
1.364114 1.100529 -0.624453
0.862995 0.362236 -0.116926
0.690287 0.107700 0.637169
0.789220 0.253210 2.208200
0.761041 0.211542 3.267401
0.381314 -0.347887 3.527357
1.713289 2.088434 -1.362454
1.386361 1.485513 -0.911714
1.038933 0.844777 -0.384085
0.540583 -0.074252 0.135937
0.850866 0.497434 2.817061
1.912317 3.209157 -1.832383
1.543707 2.338055 -1.564707
1.300720 1.763743 -0.997574
0.963580 0.966952 -0.461824
0.771461 0.512801 0.317185
0.813055 0.610830 1.534383
0.843729 0.683088 2.603212
0.650921 0.227314 3.342982
0.214488 -0.804114 3.888338
1.610264 3.430790 -1.819276
1.278484 2.372273 -1.824870
1.087656 1.763268 -1.163462
0.925481 1.245693 -0.556559
0.816970 0.899192 0.544387
0.768083 0.742924 1.623739
0.692797 0.502471 2.557319
0.603027 0.215854 3.323186
0.338858 -0.627095 3.821256
1.089580 2.702582 -1.740630
0.945948 2.018842 -0.966320
0.808202 1.363189 -0.397228
0.713738 0.913384 0.417674
0.555258 0.159154 0.795844
0.557895 0.170732 3.208982
0.404790 -0.557996 3.766794
0.772730 2.411124 -1.151157
0.711858 1.844621 -0.557668
0.633652 1.117051 -0.099699
0.508463 -0.047169 0.050033
0.547243 0.311266 2.851890
0.495500 -0.170283 3.362634
0.386544 -1.183749 3.758738
0.528867 2.815421 -1.680714
0.525153 2.238442 -0.975685
0.520432 1.508708 -0.371607
0.512418 0.250186 2.216188
0.513181 0.355710 3.091566
0.508127 -0.424972 3.701501
0.261191 2.650793 -1.276293
0.319074 2.041479 -0.634268
0.394343 1.248749 -0.259873
0.489711 0.244295 0.172120
0.474441 0.407545 2.862552
0.526125 -0.136444 3.516585
0.606454 -0.982506 3.881866
0.018353 2.637978 -1.046514
0.115457 2.127208 -0.516109
0.286094 1.229401 -0.150785
0.475091 0.234994 0.247128
0.422513 0.512801 2.766662
0.513174 0.035950 3.322273
0.690121 -0.894999 3.837705
-0.219443 2.554620 -2.210630
-0.160837 2.355657 -1.293039
-0.101307 2.153564 -0.347205
0.459245 0.248571 1.675809
0.705980 -0.590123 1.938159
0.882902 -1.191353 2.665631
0.946332 -1.406725 3.538345
-0.656094 2.987793 -1.213863
-0.458577 2.498941 -0.201620
-0.101767 1.615480 0.008087
0.112907 1.084108 0.861232
0.170735 0.941109 1.721195
0.373805 0.438476 2.598735
0.457070 0.232435 3.206723
0.762513 -0.523761 3.740882
-1.138993 3.277244 -2.286174
-0.909643 2.839097 -1.666476
-0.889155 2.800162 -0.469275
0.106538 0.898036 2.381218
0.385973 0.364170 2.918648
-1.214819 2.795753 -1.863994
-1.293413 2.916373 -0.706143
0.371561 0.365335 2.799087
-1.501082 2.688033 -0.765262
-0.379412 1.289476 1.113240
0.140292 0.641412 1.458653
0.265673 0.485191 2.500190
0.515156 0.174171 3.286793
1.238004 -0.727237 3.569442
-2.084170 2.847179 -2.354897
-1.834026 2.592917 -1.551815
-1.734439 2.491813 -0.193552
0.395979 0.325885 2.932848
0.779400 -0.063937 3.410067
-2.000612 2.334541 -0.521772
0.272806 0.437641 2.576381
0.674665 0.102354 3.284333
-2.189258 2.101719 -1.536558
-2.291769 2.171345 -0.585431
0.233947 0.458536 2.587124
0.776295 0.090767 3.502412
-3.120404 2.283717 -1.871043
-2.439325 1.912226 -1.263530
-2.230962 1.798657 -0.217194
-1.555680 1.430299 0.076286
-0.389201 0.793948 0.050237
0.921479 0.078951 0.231737
0.296525 0.420134 2.908339
1.164327 -0.053224 3.475759
-2.537237 1.637852 -1.752224
-2.407585 1.582605 -0.795927
-1.896353 1.364468 -0.218678
-0.850906 0.918302 -0.011508
0.488952 0.346464 -0.018666
0.247089 0.449939 2.759281
0.752056 0.234468 3.236092
-2.711422 1.372810 -2.162359
-2.445642 1.290713 -1.007816
-1.865052 1.111220 -0.285841
-1.085205 0.870061 -0.045049
0.240123 0.460184 -0.023743
0.116708 0.498578 2.583992
0.583101 0.354384 3.099570
-3.508078 1.248796 -2.200691
-2.792092 1.100347 -1.768304
-2.255331 0.989109 -0.824750
-1.671558 0.868096 -0.188672
-0.157997 0.554386 1.974591
0.055321 0.510200 2.608616
-2.899118 0.776304 -2.540238
-2.801730 0.767519 -1.612703
-2.401497 0.731159 -0.885337
-1.656920 0.663451 -0.300969
-0.136373 0.525271 1.964253
0.026808 0.510486 2.743826
-3.714845 0.529089 -1.851883
-2.857947 0.524797 -1.730650
-2.232884 0.521716 -1.047607
-1.485394 0.518029 -0.258295
-0.261815 0.512062 1.846548
0.132121 0.510177 2.970134
-3.713228 0.180070 -1.695779
-2.712228 0.269708 -1.392558
-2.098572 0.324688 -0.869887
-1.337689 0.392855 -0.256059
-0.143666 0.499766 -0.031912
-3.187932 -0.096612 -2.186738
-2.682318 0.001230 -1.378329
-2.044512 0.124622 -0.731831
-2.916037 -0.344088 -1.806573
-2.381096 -0.183138 -1.287401
-1.663952 0.032644 -0.464662
-0.856345 0.275596 -0.100259
-2.747111 -0.563434 -1.528728
-2.213522 -0.346946 -0.940528
-1.618842 -0.105679 -0.366682
-0.782077 0.233753 -0.128446
-2.777468 -0.889754 -1.976846
-2.467045 -0.725733 -1.319504
-1.865904 -0.408166 -0.711840
-1.143058 -0.026324 -0.184398
-2.746918 -1.194375 -2.148709
-2.444472 -0.995534 -1.246137
-1.887150 -0.629229 -0.614064
-0.899305 0.020176 1.862144
-2.944869 -1.728636 -2.489357
-2.551625 -1.409984 -1.468918
-2.012776 -0.973435 -0.894413
-1.555150 -0.602691 -0.428693
-0.853193 -0.034054 -0.191935
-2.532762 -1.783833 -1.651972
-2.239481 -1.494130 -1.035081
-1.618322 -0.880630 -0.419161
-0.996036 -0.266060 -0.181666
-2.516388 -2.232578 -2.430270
-2.283878 -1.952312 -1.343276
-1.963727 -1.566550 -0.967168
-1.343208 -0.818867 -0.258295
-0.804683 -0.170046 -0.139033
-2.250623 -2.417746 -2.397317
-2.121344 -2.226349 -1.233736
-1.827715 -1.791965 -0.828237
-1.407609 -1.170492 -0.362701
-0.744268 -0.189257 -0.043674
-1.145502 -0.782335 2.738092
-2.349999 -3.278504 -2.064910
-2.026701 -2.679508 -1.228539
-1.723456 -2.117694 -0.605752
-1.303085 -1.338974 -0.250064
-0.848261 -0.496485 -0.190707
-1.230009 -1.203083 2.797906
-1.939185 -3.291112 -2.236050
-1.804559 -2.971082 -1.213659
-1.557552 -2.384185 -0.674552
-1.180144 -1.487531 -0.209202
-0.902544 -0.827925 0.487679
-1.064009 -1.210956 3.008305
-1.596006 -3.408797 -1.403646
-1.470682 -3.006105 -0.741663
-1.236974 -2.255387 -0.323297
-0.948829 -1.329859 -0.012595
-1.101598 -1.819712 2.847474
-0.922989 -1.245937 3.326914
-1.258077 -3.612775 -1.167428
-1.105882 -2.866566 -0.638492
-0.938596 -2.046419 -0.188561
-0.984155 -2.268629 2.474527
-0.897277 -1.842515 3.139190
-0.712727 -0.937835 3.389355
-0.907543 -3.838928 -1.617481
-0.872583 -3.498000 -0.823115
-0.819065 -2.976658 -0.298611
-0.724425 -2.055072 0.193288
-0.758483 -2.384587 2.647952
-0.707426 -1.887189 3.190315
-0.526656 -4.641300 -2.299989
-0.524145 -3.906177 -1.536464
-0.522589 -3.446406 -0.873381
-0.520637 -2.873080 -0.206049
-0.519787 -2.605125 0.871399
-0.520362 -2.747080 1.807755
-0.519578 -2.499874 2.790770
-0.517145 -1.787145 3.560501
-0.082121 -4.611226 -2.233465
-0.131819 -4.079374 -1.700966
-0.172035 -3.649331 -0.881805
-0.225798 -3.074092 -0.172307
-0.278051 -2.515189 0.709982
-0.265342 -2.653257 2.887355
-0.328240 -1.980090 3.513890
0.227059 -3.913769 -1.203171
0.165187 -3.589739 -0.651766
0.070189 -3.092218 0.176097
0.051602 -2.995722 2.248901
-0.094606 -2.229793 3.043078
-0.149704 -1.941251 3.561344
0.817175 -4.509895 -2.276279
0.632061 -3.891725 -1.384269
0.573532 -3.696362 -0.792178
0.468798 -3.346783 0.292882
0.500116 -3.451756 1.497133
0.465288 -3.335645 2.326977
0.264072 -2.663645 3.089865
0.073229 -2.026166 3.393759
1.258581 -4.449171 -2.171656
1.053124 -3.944160 -1.548765
0.857596 -3.463600 -0.738635
0.813597 -3.355638 0.239538
0.800598 -3.323984 1.630200
1.342755 -3.641555 -1.504188
1.127023 -3.232531 -0.481117
0.975036 -2.944396 0.407766
1.010897 -3.012597 1.414441
1.785434 -3.635303 -1.779008
1.702829 -3.510118 -1.102983
1.349154 -2.973819 -0.283912
2.111167 -3.414832 -1.776021
2.013376 -3.294295 -1.054421
1.693562 -2.899891 -0.240909
1.623194 -2.813217 0.746275
2.811923 -3.578681 -2.202499
2.372894 -3.133513 -1.562421
2.084221 -2.840862 -0.644312
2.072542 -2.829113 0.170778
2.252503 -3.011794 1.630033
2.440668 -2.700912 -0.826733
3.093051 -2.708164 -2.116068
2.897507 -2.576014 -1.073852
2.468711 -2.286062 -0.447656
1.801235 -1.834663 0.001835
2.000544 -1.969728 2.642221
1.534921 -1.654860 3.181289
1.087781 -1.352506 3.845550
3.137406 -2.282260 -1.154635
2.728178 -2.060389 -0.435821
2.300142 -1.828296 0.052236
2.166798 -1.756094 1.273142
2.060317 -1.698436 2.237256
1.635776 -1.468269 3.049187
1.353348 -1.315152 3.608933
4.088389 -2.267133 -2.416554
3.525540 -2.031264 -1.762648
3.041783 -1.828579 -0.754543
2.671363 -1.673363 -0.180788
1.833273 -1.322105 0.289782
2.149157 -1.454732 2.730329
1.695342 -1.264559 3.305704
0.822247 -0.898640 3.913342
3.413654 -1.591593 -1.367994
3.085278 -1.489959 -0.642746
2.402829 -1.278656 -0.072503
2.299813 -1.246952 2.228064
2.003239 -1.155175 3.055362
1.597352 -1.029515 3.543657
3.618872 -1.260060 -1.445873
3.105163 -1.155219 -0.621234
2.721875 -1.076984 -0.135039
2.272118 -0.985204 0.699871
2.148807 -0.960102 1.662054
1.948820 -0.919357 2.806696
3.633163 -0.895678 -1.338752
3.025633 -0.831798 -0.601180
2.292409 -0.754658 -0.238470
2.057475 -0.730019 0.807244
2.231365 -0.748435 2.172750
1.914917 -0.715199 3.014873
1.347031 -0.655471 3.499929
4.224423 -0.530850 -2.396784
3.515693 -0.527473 -1.734487
3.281272 -0.526407 -0.909793
2.610927 -0.523196 -0.479704
1.497370 -0.517825 -0.232719
2.197902 -0.521456 2.654054
1.634500 -0.518788 3.383338
0.704947 -0.514306 3.608738
4.308457 -0.101374 -2.643236
3.350796 -0.192859 -1.922714
3.224393 -0.205007 -0.953601
2.662599 -0.258675 -0.535488
1.509985 -0.368740 -0.191292
2.129061 -0.309874 2.637224
1.547618 -0.365435 3.264775
0.717968 -0.444664 3.570835
3.407988 0.149558 -1.756554
2.860375 0.041867 -0.928914
2.177877 -0.092302 -0.459559
1.330580 -0.258873 0.171417
1.941841 -0.138966 2.808912
3.063752 0.379990 -1.677974
2.551138 0.227230 -0.909989
1.974731 0.055484 -0.311722
1.129124 -0.196444 0.227812
1.760622 -0.008560 2.781190
1.163226 -0.186552 3.298824
2.967430 0.657115 -2.008110
2.472282 0.455424 -1.049050
1.923480 0.231910 -0.342419
1.310089 -0.017869 -0.012703
1.618280 0.107366 2.772125
2.816014 0.912585 -1.990634
2.486749 0.738279 -1.149842
1.921726 0.439263 -0.711655
1.185287 0.049534 -0.164702
1.517254 0.224936 2.554895
1.189950 0.051687 3.187284
0.371397 -0.381474 3.549542
3.497004 1.698625 -1.818947
2.662353 1.147150 -1.448955
2.153236 0.810727 -0.857747
1.563026 0.420741 -0.402645
0.758563 -0.110809 0.168644
1.261826 0.221407 2.995595
0.703246 -0.147691 3.552540
2.280783 1.198732 -2.148220
1.763932 0.777881 -1.655627
0.932587 0.101005 -1.353559
0.412653 -0.322409 -0.350574
1.253775 0.362075 2.646560
0.870920 0.050312 3.199734
0.000534 -0.658366 3.644635
3.032370 2.272208 -2.314585
2.406653 1.655422 -1.904712
2.071409 1.324904 -1.178244
1.478618 0.740549 -0.572645
1.070113 0.337804 0.305655
1.057884 0.325619 1.433290
1.080401 0.347675 2.610434
0.837244 0.107928 3.298115
0.122406 -0.596688 3.606239
1.932523 1.523217 -1.378438
1.605491 1.130356 -0.701411
0.853183 0.226488 1.847832
0.940249 0.330921 2.887140
0.408159 -0.308218 3.559849
2.532104 2.819880 -1.819276
2.051991 2.112892 -1.544746
1.589512 1.431814 -0.890282
1.164728 0.806261 -0.369690
0.894915 0.408865 0.351214
0.878900 0.385096 1.629161
0.979911 0.533682 2.641898
0.686679 0.101801 3.377946
0.075868 -0.797646 3.730596
1.679097 2.014965 -1.343933
1.355373 1.420659 -0.701411
0.968239 0.709986 -0.185637
0.352048 -0.421061 -0.003148
0.801668 0.403722 2.838415
0.463168 -0.217683 3.365845
1.926301 3.240112 -1.718523
1.569161 2.396670 -1.680714
1.284637 1.724599 -1.064842
1.002767 1.058817 -0.550589
0.857283 0.715034 0.398390
0.807371 0.596917 1.555431
0.731909 0.418466 2.669981
0.637402 0.195121 3.396182
0.265482 -0.683297 3.772866
1.600800 3.492490 -1.841883
1.272958 2.419381 -1.520538
1.053425 1.700673 -0.870795
0.888501 1.160782 -0.514528
0.767141 0.763243 0.661482
0.773576 0.784046 1.571236
0.676360 0.465551 2.666564
0.587364 0.174023 3.534724
0.349189 -0.605574 3.742584
1.029808 2.473794 -1.414298
0.897262 1.828902 -0.757559
0.726155 0.996545 -0.273978
0.600153 0.383459 0.440160
0.587829 0.323044 1.601223
0.623071 0.494037 2.582176
0.520610 -0.004606 3.395871
0.342218 -0.872323 3.716652
0.894691 3.637561 -1.959332
0.787793 2.617863 -1.520538
0.721377 1.983974 -0.813525
0.647680 1.280918 -0.436915
0.622601 1.040792 0.800662
0.617848 0.994877 1.547786
0.567744 0.516479 2.324739
0.531664 0.171555 3.431728
0.450509 -0.602662 3.862506
0.518773 2.491627 -1.207266
0.516981 1.936154 -0.552473
0.514299 1.117245 -0.062538
0.511434 0.247946 0.227095
0.512362 0.466716 2.656972
0.510655 -0.062224 3.276348
0.507436 -1.044717 3.846632
0.146651 3.797310 -1.946137
0.241355 2.815531 -1.476816
0.273196 2.485895 -0.793464
0.355127 1.636695 -0.192501
0.472990 0.416300 2.091492
0.494830 0.190704 3.148180
0.575192 -0.642253 3.712611
-0.223603 3.799521 -2.334056
-0.029454 2.807863 -1.728766
-0.020679 2.763379 -0.926178
0.134571 1.970528 -0.148024
0.421051 0.507858 2.109118
0.441528 0.403595 2.937241
0.553131 -0.166343 3.508647
0.781148 -1.331127 3.898491
-0.359634 2.997392 -1.906189
-0.342795 2.941113 -0.895700
-0.164382 2.341926 -0.193129
0.156189 1.265038 0.121765
0.519893 0.043164 0.164612
0.424435 0.364636 2.836058
0.528814 0.014117 3.349081
0.789596 -0.861875 3.765068
-0.949155 3.658291 -1.845321
-0.666198 2.968719 -1.311377
-0.622792 2.863105 -0.459301
-0.263957 1.988581 0.056172
0.397081 0.377805 2.163286
0.450152 0.248630 3.001498
-1.165589 3.312537 -2.335274
-0.912814 2.832071 -1.620556
-0.971712 2.944262 -0.434960
0.007735 1.082579 2.431186
0.297319 0.532087 2.905220
-1.699046 3.499004 -1.935961
-1.226928 2.784198 -1.311377
-1.203406 2.748761 -0.108329
-0.095248 1.071135 2.487344
0.350983 0.395501 2.929372
0.794155 -0.275463 3.622678
-1.814581 3.057459 -2.538275
-1.505780 2.675466 -1.540417
-1.506642 2.676698 -0.278744
-0.101596 0.938386 2.444683
0.390120 0.329967 2.846718
0.764965 -0.133805 3.445326
-1.878711 2.618648 -0.943709
-0.545421 1.274886 0.923196
0.101643 0.622676 1.301439
0.275291 0.447760 2.362817
-1.919819 2.261246 -2.036676
-2.090847 2.403666 -0.858554
0.467034 0.275780 1.394178
0.293054 0.420652 2.527099
0.556044 0.201912 3.137604
-2.192965 2.098802 -1.654285
-2.185853 2.094113 -0.462124
0.221366 0.466925 2.565640
0.846344 0.044469 3.402633
-3.127017 2.278282 -1.835276
-2.453110 1.912489 -1.472489
-2.192357 1.771030 -0.517534
-1.440621 1.363011 0.086879
-0.311066 0.749841 0.130524
1.014888 0.030052 0.122693
0.290019 0.423814 2.989666
1.152977 -0.044608 3.314299
-2.514601 1.616126 -1.088533
-1.913148 1.362185 -0.356232
-1.106463 1.021530 -0.082805
0.245474 0.450600 0.172435
0.649549 0.280026 1.003460
0.263991 0.442971 2.294087
0.602660 0.300022 3.170220
-3.469492 1.605872 -1.858208
-2.596919 1.336394 -1.397096
-2.134403 1.193593 -0.722753
-1.358179 0.953884 -0.171843
0.070998 0.512635 2.021825
0.293845 0.443876 2.864198
-2.722593 1.074794 -1.678616
-2.400652 1.009361 -0.924499
-1.826680 0.892641 -0.347525
-0.373790 0.597239 1.747219
0.011187 0.518986 2.544163
-3.577175 0.882765 -2.269433
-2.733298 0.795600 -1.814824
-2.185584 0.739072 -0.985835
-1.811301 0.700438 -0.470539
-0.290876 0.543527 1.949538
-0.008967 0.514460 2.725398
-2.589042 0.525520 -1.328084
-2.011819 0.522221 -0.690611
-3.127215 0.222521 -2.045266
-2.584246 0.272949 -1.313743
-2.035031 0.323939 -0.788221
-2.695961 0.000721 -1.316469
-2.189489 0.098291 -0.797435
-3.153642 -0.401811 -2.557844
-2.934883 -0.336939 -1.672553
-2.255482 -0.135636 -0.924907
-1.617786 0.053294 -0.402645
-0.725311 0.317671 -0.086078
-3.568165 -0.900136 -1.728272
-2.672422 -0.535805 -1.392558
-2.156079 -0.325756 -0.823183
-1.313104 0.017137 -0.223860
-0.242287 0.452652 -0.097824
-3.192665 -1.101813 -2.522170
-2.807900 -0.899454 -1.626616
-2.102330 -0.528466 -0.967023
-1.591012 -0.259621 -0.556970
-0.685695 0.216368 0.005103
-2.983934 -1.351550 -2.594325
-2.621033 -1.112770 -1.424937
-2.107375 -0.774917 -0.986655
-1.444350 -0.338813 -0.380796
-0.686758 0.159459 -0.009790
-3.354724 -2.062338 -1.724550
-2.583176 -1.436854 -1.283511
-2.119793 -1.061179 -0.867065
-1.536664 -0.588437 -0.479978
-0.701986 0.088220 -0.056576
-2.718525 -1.979702 -2.276166
-2.410196 -1.673501 -1.452953
-2.077551 -1.343202 -0.998571
-1.460873 -0.730895 -0.341072
-0.822667 -0.097280 -0.232523
-2.539079 -2.273798 -1.945882
-2.342077 -2.035063 -1.110481
-1.845167 -1.433106 -0.662794
-1.224728 -0.681529 -0.266466
-0.369988 0.353836 -0.015781
-0.978153 -0.382435 2.974539
-2.320556 -2.516394 -2.155184
-2.163085 -2.283746 -1.358872
-1.716597 -1.624335 -0.657370
-1.279358 -0.978608 -0.145700
-0.738463 -0.179858 0.096487
-1.148258 -0.784561 2.954286
-2.499165 -3.521977 -2.428173
-2.161828 -2.902435 -1.848661
-2.053879 -2.704064 -0.998498
-1.693267 -2.041810 -0.586806
-1.249245 -1.226414 -0.295658
-1.046670 -0.854269 0.637983
-1.186009 -1.109878 2.112890
-1.146835 -1.037793 2.976390
-2.218044 -3.971069 -2.462047
-1.878248 -3.160292 -1.646964
-1.728960 -2.803984 -0.834692
-1.436540 -2.106301 -0.374481
-1.076817 -1.248108 -0.115305
-1.293794 -1.765158 2.496367
-1.031984 -1.140441 3.212435
-1.642526 -3.593082 -1.662853
-1.568358 -3.352470 -1.056824
-1.315027 -2.531037 -0.440643
-1.049166 -1.669035 -0.020270
-1.159617 -2.026369 2.587264
-1.005662 -1.527095 3.208256
-1.285804 -3.755774 -1.377748
-1.155109 -3.113690 -0.631102
-1.014292 -2.422050 -0.231092
-0.907074 -1.895169 0.711684
-0.951073 -2.110720 1.928347
-0.923630 -1.975577 2.855682
-0.805131 -1.393462 3.413770
