29.600000 -43.320801 0.294239
30.000000 -42.468750 0.294239
30.200000 -41.367188 0.294239
30.500000 -41.515625 0.294239
30.900000 -41.039062 0.294239
31.100000 -40.312500 0.294239
29.600000 -42.681641 0.349224
29.900000 -42.704102 0.349224
30.200000 -41.976562 0.349224
30.500000 -41.499023 0.349224
30.800000 -41.146484 0.349224
30.900000 -40.543945 0.349224
29.700000 -43.194336 0.439202
30.000000 -42.343262 0.439202
30.300000 -41.367188 0.439202
30.600000 -40.891113 0.439202
30.900000 -40.790039 0.439202
31.300000 -40.313965 0.439202
26.700000 -44.748047 0.592233
29.700000 -43.110352 0.592233
30.100000 -41.882812 0.592233
30.300000 -41.905273 0.592233
30.600000 -41.552734 0.592233
31.000000 -40.325195 0.592233
31.300000 -39.972656 0.592233
29.700000 -42.475098 0.748233
30.000000 -42.250000 0.748233
30.300000 -41.399902 0.748233
30.600000 -41.049805 0.748233
31.000000 -40.199707 0.748233
31.300000 -39.974609 0.748233
26.700000 -44.838867 0.906232
29.500000 -42.813477 0.906232
29.800000 -42.963379 0.906232
30.100000 -42.488281 0.906232
30.400000 -41.263184 0.906232
30.700000 -40.663086 0.906232
27.000000 -44.862305 1.050204
29.600000 -42.594727 1.050204
30.000000 -42.621582 1.050204
30.200000 -42.148438 1.050204
30.500000 -41.425293 1.050204
30.900000 -40.827148 1.050204
31.200000 -39.979004 1.050204
29.500000 -43.137695 1.206234
29.800000 -42.537109 1.206234
30.000000 -42.561523 1.206234
30.400000 -41.710938 1.206234
27.000000 -43.913086 1.364234
29.700000 -42.262695 1.364234
30.000000 -42.412598 1.364234
30.300000 -41.937500 1.364234
30.600000 -41.462402 1.364234
30.900000 -40.362305 1.364234
31.300000 -40.137207 1.364234
26.900000 -44.258789 1.518239
29.600000 -43.354492 1.518239
29.900000 -42.878418 1.518239
30.200000 -41.527344 1.518239
30.500000 -41.051270 1.518239
30.900000 -41.200195 1.518239
31.100000 -40.099121 1.518239
26.500000 -44.634766 1.667236
29.500000 -42.636719 1.667236
29.800000 -42.287109 1.667236
30.100000 -41.937500 1.667236
30.400000 -41.587891 1.667236
30.800000 -41.363281 1.667236
26.500000 -44.868652 1.821235
26.700000 -44.393555 1.821235
29.500000 -42.743164 1.821235
29.800000 -42.518066 1.821235
30.000000 -42.042969 1.821235
30.300000 -41.567871 1.821235
30.700000 -41.342773 1.821235
31.000000 -40.742676 1.821235
31.400000 -40.142578 1.821235
26.600000 -44.660645 1.976232
26.900000 -44.684570 1.976232
29.600000 -42.530273 1.976232
30.000000 -42.179199 1.976232
30.200000 -42.078125 1.976232
30.500000 -41.227539 1.976232
30.900000 -41.126953 1.976232
31.200000 -40.526367 1.976232
29.600000 -43.215820 2.131233
29.800000 -42.865234 2.131233
30.100000 -42.139648 2.131233
30.400000 -41.539062 2.131233
30.800000 -40.938477 2.131233
26.600000 -44.832031 2.280233
26.900000 -44.605957 2.280233
29.600000 -43.201660 2.280233
29.900000 -42.475586 2.280233
30.200000 -41.999512 2.280233
30.500000 -41.273438 2.280233
30.900000 -40.672363 2.280233
31.200000 -39.946289 2.280233
26.600000 -44.843750 2.435232
26.900000 -44.991699 2.435232
29.600000 -42.583496 2.435232
29.900000 -42.356445 2.435232
30.200000 -41.504395 2.435232
30.500000 -41.402344 2.435232
30.900000 -40.550293 2.435232
31.200000 -40.448242 2.435232
27.000000 -43.828125 2.592233
29.700000 -43.046875 2.592233
30.000000 -42.445312 2.592233
30.300000 -41.968750 2.592233
30.600000 -40.994141 2.592233
30.900000 -40.644531 2.592233
31.300000 -40.169922 2.592233
29.600000 -43.454102 2.746228
29.800000 -42.729004 2.746228
30.100000 -41.753906 2.746228
30.400000 -41.403809 2.746228
30.800000 -40.928711 2.746228
26.700000 -44.483398 2.892233
29.500000 -43.083008 2.892233
29.800000 -42.232910 2.892233
30.000000 -42.382812 2.892233
30.300000 -41.782715 2.892233
30.700000 -40.932617 2.892233
27.000000 -44.505859 3.048233
29.700000 -43.111328 3.048233
30.000000 -42.387695 3.048233
30.300000 -41.914062 3.048233
30.600000 -41.440430 3.048233
30.900000 -40.591797 3.048233
31.300000 -40.118164 3.048233
26.700000 -44.497559 3.205232
27.000000 -44.897461 3.205232
29.700000 -43.122070 3.205232
30.000000 -42.146973 3.205232
30.300000 -41.921875 3.205232
30.600000 -41.322754 3.205232
30.900000 -40.473633 3.205232
31.300000 -40.124512 3.205232
26.900000 -44.215820 3.360233
29.600000 -42.444336 3.360233
29.900000 -42.345215 3.360233
30.200000 -41.871094 3.360233
30.500000 -41.271973 3.360233
30.900000 -40.797852 3.360233
31.200000 -39.948730 3.360233
26.600000 -44.710938 3.508234
26.900000 -44.234375 3.508234
29.600000 -43.328125 3.508234
29.900000 -42.226562 3.508234
30.200000 -42.000000 3.508234
30.500000 -41.273438 3.508234
30.900000 -40.796875 3.508234
31.200000 -40.445312 3.508234
26.600000 -44.617188 3.662203
26.900000 -44.015625 3.662203
29.700000 -42.484375 3.662203
30.000000 -42.507812 3.662203
30.300000 -41.781250 3.662203
30.600000 -41.304687 3.662203
30.900000 -40.453125 3.662203
31.200000 -40.476562 3.662203
26.300000 -44.937500 3.819202
29.600000 -43.328125 3.819202
29.900000 -42.476562 3.819202
30.200000 -42.250000 3.819202
30.500000 -41.523437 3.819202
30.900000 -40.921875 3.819202
31.100000 -40.070312 3.819202
26.900000 -44.861328 3.974233
29.600000 -43.083984 3.974233
29.900000 -42.483398 3.974233
30.200000 -41.507812 3.974233
30.500000 -41.532227 3.974233
30.900000 -41.056641 3.974233
31.100000 -40.081055 3.974233
29.700000 -43.067383 4.123233
30.000000 -42.467285 4.123233
30.300000 -41.367188 4.123233
30.600000 -41.017090 4.123233
30.900000 -40.791992 4.123233
31.200000 -39.691895 4.123233
26.400000 -44.937500 4.278241
26.600000 -44.463379 4.278241
26.900000 -44.114258 4.278241
29.700000 -43.217773 4.278241
30.000000 -42.493652 4.278241
30.300000 -41.769531 4.278241
30.600000 -41.420410 4.278241
30.900000 -40.446289 4.278241
31.200000 -39.722168 4.278241
29.600000 -42.421875 4.433233
29.900000 -42.320313 4.433233
30.200000 -41.468750 4.433233
30.500000 -41.243652 4.433233
30.900000 -40.393555 4.433233
31.200000 -40.543457 4.433233
29.600000 -43.480469 4.591233
29.800000 -42.880859 4.591233
30.100000 -42.406250 4.591233
30.400000 -41.056641 4.591233
30.800000 -40.832031 4.591233
29.700000 -42.507813 4.735232
30.000000 -42.156250 4.735232
30.300000 -41.304688 4.735232
30.600000 -41.453125 4.735232
31.000000 -40.976563 4.735232
31.300000 -40.000000 4.735232
29.500000 -42.599609 4.893234
29.800000 -42.125000 4.893234
30.100000 -41.775391 4.893234
30.400000 -41.300781 4.893234
30.800000 -41.326172 4.893234
26.500000 -44.968750 5.047233
29.500000 -42.710938 5.047233
29.800000 -42.359375 5.047233
30.100000 -41.633789 5.047233
30.400000 -41.408203 5.047233
30.800000 -40.807617 5.047233
29.500000 -43.130859 5.202204
29.800000 -42.156250 5.202204
30.100000 -42.056641 5.202204
30.400000 -41.582031 5.202204
30.700000 -40.482422 5.202204
29.500000 -43.263184 5.349228
29.800000 -42.539063 5.349228
30.000000 -42.064941 5.349228
30.300000 -41.465820 5.349228
26.900000 -44.240234 5.506233
29.600000 -43.214844 5.506233
29.900000 -42.739746 5.506233
30.200000 -41.389648 5.506233
30.500000 -41.664551 5.506233
30.900000 -40.939453 5.506233
31.100000 -39.839355 5.506233
26.900000 -44.142578 5.660236
29.600000 -42.859375 5.660236
30.000000 -42.008789 5.660236
30.200000 -41.533203 5.660236
30.500000 -41.432617 5.660236
30.900000 -40.332031 5.660236
31.200000 -40.356445 5.660236
29.500000 -42.831543 5.817233
29.800000 -42.855469 5.817233
30.100000 -41.879395 5.817233
30.400000 -41.528320 5.817233
30.800000 -40.927246 5.817233
26.600000 -44.770508 5.964232
29.600000 -43.390137 5.964232
29.900000 -42.164062 5.964232
30.200000 -41.687988 5.964232
30.500000 -41.461914 5.964232
30.800000 -41.110840 5.964232
30.900000 -40.134766 5.964232
26.400000 -44.852051 6.121233
26.600000 -44.500977 6.121233
26.900000 -44.274902 6.121233
29.600000 -43.120605 6.121233
30.000000 -42.019531 6.121233
30.200000 -41.668457 6.121233
30.500000 -41.567383 6.121233
30.900000 -40.466309 6.121233
31.200000 -39.740234 6.121233
29.700000 -42.476074 6.275233
30.000000 -42.000000 6.275233
30.300000 -41.399414 6.275233
30.600000 -41.298828 6.275233
30.900000 -40.198242 6.275233
31.300000 -40.222656 6.275233
27.000000 -44.641602 6.430233
29.600000 -42.497070 6.430233
30.000000 -42.773438 6.430233
30.200000 -42.174805 6.430233
30.500000 -41.326172 6.430233
30.900000 -40.977539 6.430233
31.200000 -40.378906 6.430233
27.000000 -44.299805 6.579233
29.700000 -43.022461 6.579233
30.000000 -42.421875 6.579233
30.300000 -41.446289 6.579233
30.600000 -40.970703 6.579233
30.900000 -40.620117 6.579233
31.300000 -39.769531 6.579233
26.500000 -44.773437 6.734233
29.500000 -42.765625 6.734233
29.800000 -42.164062 6.734233
30.100000 -42.062500 6.734233
30.400000 -41.460938 6.734233
30.700000 -40.609375 6.734233
26.900000 -44.383789 6.889235
29.600000 -42.471680 6.889235
30.000000 -42.618652 6.889235
30.300000 -41.890625 6.889235
30.600000 -41.413574 6.889235
30.900000 -40.311523 6.889235
31.300000 -40.459473 6.889235
26.700000 -44.493164 7.044235
29.500000 -43.090820 7.044235
29.800000 -42.365234 7.044235
30.100000 -42.514648 7.044235
30.400000 -41.664062 7.044235
30.700000 -40.938477 7.044235
29.700000 -42.567383 7.191203
30.000000 -42.467285 7.191203
30.300000 -41.742188 7.191203
30.600000 -40.892090 7.191203
31.000000 -40.166992 7.191203
31.400000 -39.691895 7.191203
29.500000 -42.746094 7.348204
29.800000 -42.898438 7.348204
30.100000 -42.300781 7.348204
30.400000 -41.578125 7.348204
30.700000 -41.230469 7.348204
29.500000 -43.429687 7.503235
29.800000 -42.453125 7.503235
30.100000 -41.476563 7.503235
30.400000 -41.250000 7.503235
30.800000 -41.149414 7.503235
29.600000 -43.033203 7.661232
29.900000 -42.808594 7.661232
30.200000 -41.708984 7.661232
30.500000 -40.984375 7.661232
30.800000 -41.134766 7.661232
30.900000 -40.410156 7.661232
26.600000 -44.609375 7.809233
26.900000 -44.880859 7.809233
29.600000 -43.341797 7.809233
29.900000 -42.488281 7.809233
30.200000 -42.009766 7.809233
30.500000 -41.281250 7.809233
30.900000 -40.552734 7.809233
31.200000 -40.449219 7.809233
29.500000 -43.386719 7.962239
29.800000 -42.409180 7.962239
30.100000 -41.681641 7.962239
30.400000 -41.704102 7.962239
30.800000 -41.226562 7.962239
29.500000 -43.434570 8.117227
29.800000 -42.082031 8.117227
30.100000 -41.604492 8.117227
30.400000 -41.376953 8.117227
30.700000 -40.774414 8.117227
29.500000 -43.294922 8.272204
29.800000 -42.695312 8.272204
30.100000 -42.345703 8.272204
30.400000 -41.871094 8.272204
30.700000 -40.521484 8.272204
29.500000 -43.356934 8.421233
29.800000 -42.255859 8.421233
30.000000 -42.279785 8.421233
30.400000 -41.928711 8.421233
30.700000 -41.202637 8.421233
26.400000 -44.996094 8.576234
26.600000 -44.646484 8.576234
29.600000 -43.275391 8.576234
30.000000 -42.301270 8.576234
30.200000 -41.702148 8.576234
30.500000 -40.978027 8.576234
30.900000 -40.628906 8.576234
31.200000 -40.404785 8.576234
26.900000 -44.671875 8.732233
29.600000 -42.390625 8.732233
30.000000 -42.289062 8.732233
30.200000 -41.562500 8.732233
30.500000 -41.085938 8.732233
30.900000 -40.859375 8.732233
31.200000 -40.508789 8.732233
26.700000 -44.973633 8.888233
29.700000 -42.980469 8.888233
30.000000 -42.131836 8.888233
30.300000 -41.783203 8.888233
30.700000 -41.059570 8.888233
31.000000 -40.335938 8.888233
31.300000 -40.237305 8.888233
29.500000 -43.419434 9.035235
29.800000 -42.693359 9.035235
30.100000 -42.217285 9.035235
30.400000 -41.616211 9.035235
30.700000 -41.265137 9.035235
29.500000 -42.635742 9.191236
29.800000 -42.285156 9.191236
30.100000 -42.059570 9.191236
30.400000 -41.333984 9.191236
30.700000 -40.483398 9.191236
26.400000 -44.861816 9.345232
26.600000 -44.510742 9.345232
26.900000 -44.909668 9.345232
29.600000 -43.255371 9.345232
30.000000 -42.154297 9.345232
30.200000 -41.553223 9.345232
30.500000 -40.827148 9.345232
30.900000 -40.726074 9.345232
31.200000 -40.375000 9.345232
26.700000 -44.377930 9.502233
27.000000 -44.778809 9.502233
29.700000 -43.132324 9.502233
30.000000 -42.158203 9.502233
30.300000 -41.684082 9.502233
30.600000 -41.209961 9.502233
30.900000 -40.485840 9.502233
31.300000 -40.136719 9.502233
27.000000 -44.997070 9.649233
29.700000 -42.852539 9.649233
30.000000 -42.003906 9.649233
30.200000 -41.530273 9.649233
30.500000 -41.431641 9.649233
30.900000 -40.958008 9.649233
31.200000 -40.359375 9.649233
26.700000 -44.295898 9.804233
27.000000 -44.319824 9.804233
29.700000 -43.168457 9.804233
30.000000 -42.443359 9.804233
30.300000 -41.968262 9.804233
30.600000 -40.868164 9.804233
30.900000 -40.518066 9.804233
31.300000 -39.792969 9.804233
26.400000 -44.805176 9.960236
29.700000 -42.812012 9.960236
30.000000 -42.333984 9.960236
30.300000 -41.480957 9.960236
30.600000 -41.127930 9.960236
31.000000 -40.774902 9.960236
31.300000 -40.171875 9.960236
