43.800000 -49.682617 1.563722
44.100000 -49.127441 1.563722
44.400000 -48.572266 1.563722
44.800000 -47.892090 1.563722
45.200000 -47.336914 1.563722
45.500000 -46.656738 1.563722
45.800000 -46.101562 1.563722
46.100000 -45.546387 1.563722
46.500000 -44.866211 1.563722
46.800000 -44.311035 1.563722
47.300000 -44.005859 1.563722
47.700000 -43.200684 1.563722
43.900000 -49.613281 1.735598
44.200000 -48.934570 1.735598
44.500000 -48.505859 1.735598
44.900000 -47.952148 1.735598
45.200000 -47.398438 1.735598
45.500000 -46.844727 1.735598
45.800000 -46.166016 1.735598
46.100000 -45.612305 1.735598
46.500000 -44.808594 1.735598
46.900000 -44.254883 1.735598
47.400000 -43.826172 1.735598
47.800000 -43.272461 1.735598
43.700000 -49.984375 1.907471
44.000000 -49.184570 1.907471
44.300000 -48.509766 1.907471
44.700000 -48.334961 1.907471
45.100000 -47.785156 1.907471
45.400000 -47.110352 1.907471
45.700000 -46.685547 1.907471
46.100000 -45.760742 1.907471
46.400000 -45.335938 1.907471
46.700000 -44.786133 1.907471
47.000000 -43.986328 1.907471
43.700000 -49.808594 2.063722
44.000000 -49.382812 2.063722
44.300000 -48.832031 2.063722
44.700000 -48.031250 2.063722
45.000000 -47.730469 2.063722
45.400000 -47.179688 2.063722
45.700000 -46.503906 2.063722
46.000000 -45.953125 2.063722
46.300000 -45.402344 2.063722
46.700000 -44.726562 2.063722
47.000000 -44.050781 2.063722
43.800000 -49.631836 2.235602
44.100000 -49.078613 2.235602
44.400000 -48.650391 2.235602
44.800000 -47.972168 2.235602
45.100000 -47.543945 2.235602
45.400000 -46.990723 2.235602
45.700000 -46.312500 2.235602
46.100000 -45.637207 2.235602
46.400000 -45.086914 2.235602
46.700000 -44.661621 2.235602
47.100000 -44.111328 2.235602
46.900000 -43.561035 2.235602
43.800000 -49.892578 2.407472
44.100000 -49.090820 2.407472
44.500000 -48.539062 2.407472
44.900000 -47.862305 2.407472
45.200000 -47.185547 2.407472
45.500000 -46.758789 2.407472
45.800000 -46.332031 2.407472
46.100000 -45.780273 2.407472
46.500000 -45.103516 2.407472
46.800000 -44.301758 2.407472
47.100000 -43.750000 2.407472
47.500000 -43.198242 2.407472
44.000000 -49.508789 2.563722
44.300000 -48.955078 2.563722
44.700000 -48.276367 2.563722
45.000000 -47.472656 2.563722
45.400000 -46.918945 2.563722
45.700000 -46.490234 2.563722
46.000000 -46.061523 2.563722
46.300000 -45.257812 2.563722
46.700000 -44.704102 2.563722
47.000000 -44.025391 2.563722
43.700000 -49.796875 2.736492
44.000000 -49.496094 2.736492
44.300000 -48.820312 2.736492
44.600000 -48.269531 2.736492
45.000000 -47.468750 2.736492
45.400000 -47.166504 2.736492
45.700000 -46.489258 2.736492
46.000000 -46.062012 2.736492
46.300000 -45.509766 2.736492
46.600000 -44.957520 2.736492
47.000000 -44.280273 2.736492
44.000000 -49.479492 3.064964
44.300000 -48.800293 3.064964
44.600000 -48.246094 3.064964
45.000000 -47.816895 3.064964
45.400000 -46.887695 3.064964
45.700000 -46.458496 3.064964
46.100000 -45.779297 3.064964
46.400000 -45.350098 3.064964
46.700000 -44.795898 3.064964
47.000000 -44.366699 3.064964
43.800000 -49.635254 3.236837
44.100000 -49.083008 3.236837
44.400000 -48.655762 3.236837
44.800000 -47.853516 3.236837
45.100000 -47.301270 3.236837
45.400000 -46.749023 3.236837
45.700000 -46.446777 3.236837
46.100000 -45.769531 3.236837
46.400000 -45.092285 3.236837
46.700000 -44.415039 3.236837
47.100000 -44.112793 3.236837
47.000000 -43.560547 3.236837
44.000000 -49.326172 3.408896
44.300000 -49.023926 3.408896
44.600000 -48.346680 3.408896
45.000000 -47.669434 3.408896
45.300000 -46.992188 3.408896
45.600000 -46.689941 3.408896
46.000000 -46.012695 3.408896
46.200000 -45.335449 3.408896
46.600000 -44.908203 3.408896
47.000000 -44.230957 3.408896
43.800000 -49.776367 3.565146
44.100000 -49.097168 3.565146
44.500000 -48.542969 3.565146
44.900000 -47.863770 3.565146
45.200000 -47.309570 3.565146
45.500000 -47.005371 3.565146
45.800000 -46.076172 3.565146
46.100000 -45.521973 3.565146
46.500000 -45.217773 3.565146
46.800000 -44.288574 3.565146
47.100000 -43.859375 3.565146
47.600000 -43.180176 3.565146
43.900000 -49.462402 3.737022
44.300000 -49.034180 3.737022
44.600000 -48.230957 3.737022
45.000000 -47.802734 3.737022
45.300000 -47.249512 3.737022
45.600000 -46.571289 3.737022
46.000000 -46.018066 3.737022
46.200000 -45.339844 3.737022
46.600000 -44.911621 3.737022
47.000000 -44.358398 3.737022
43.700000 -49.945801 3.893271
44.000000 -49.267578 3.893271
44.300000 -48.839355 3.893271
44.600000 -48.036133 3.893271
45.000000 -47.607910 3.893271
45.300000 -47.179688 3.893271
45.600000 -46.626465 3.893271
46.000000 -45.823242 3.893271
46.300000 -45.145020 3.893271
46.700000 -44.716797 3.893271
47.000000 -44.038574 3.893271
43.700000 -49.958008 4.065312
44.000000 -49.527832 4.065312
44.300000 -48.972656 4.065312
44.600000 -48.292480 4.065312
45.000000 -47.737305 4.065312
45.300000 -47.057129 4.065312
45.600000 -46.626953 4.065312
45.900000 -46.071777 4.065312
46.200000 -45.516602 4.065312
46.600000 -44.711426 4.065312
47.000000 -44.281250 4.065312
43.800000 -49.618652 4.237182
44.100000 -49.440430 4.237182
44.400000 -48.637207 4.237182
44.800000 -48.208984 4.237182
45.100000 -47.405762 4.237182
45.400000 -46.852539 4.237182
45.700000 -46.174316 4.237182
46.100000 -45.871094 4.237182
46.400000 -45.317871 4.237182
46.800000 -44.514648 4.237182
47.100000 -43.836426 4.237182
47.100000 -43.408203 4.237182
43.900000 -49.679688 4.393822
44.100000 -49.001953 4.393822
44.400000 -48.324219 4.393822
44.900000 -47.896484 4.393822
45.200000 -47.218750 4.393822
45.500000 -46.791016 4.393822
45.900000 -46.113281 4.393822
46.200000 -45.560547 4.393822
46.600000 -45.007812 4.393822
47.000000 -44.455078 4.393822
43.800000 -49.682617 4.565697
44.100000 -49.253418 4.565697
44.400000 -48.699219 4.565697
44.700000 -48.020020 4.565697
45.100000 -47.340820 4.565697
45.400000 -47.036621 4.565697
45.700000 -46.232422 4.565697
46.100000 -45.803223 4.565697
46.400000 -45.249023 4.565697
46.700000 -44.694824 4.565697
47.000000 -44.015625 4.565697
46.800000 -43.587891 4.565697
43.800000 -49.727539 4.737572
44.100000 -49.048828 4.737572
44.400000 -48.495117 4.737572
44.800000 -48.066406 4.737572
45.100000 -47.512695 4.737572
45.400000 -46.958984 4.737572
45.800000 -46.405273 4.737572
46.100000 -45.726562 4.737572
46.400000 -45.297852 4.737572
46.800000 -44.494141 4.737572
47.100000 -44.065430 4.737572
47.300000 -43.386719 4.737572
43.800000 -49.640625 4.893819
44.100000 -49.335938 4.893819
44.400000 -48.531250 4.893819
44.700000 -47.976562 4.893819
45.100000 -47.546875 4.893819
45.400000 -46.867188 4.893819
45.700000 -46.187500 4.893819
46.100000 -45.757812 4.893819
46.400000 -45.203125 4.893819
46.700000 -44.648438 4.893819
47.100000 -44.093750 4.893819
47.200000 -43.664062 4.893819
43.700000 -49.843750 5.065658
44.000000 -49.164062 5.065658
44.300000 -48.734375 5.065658
44.700000 -48.054688 5.065658
45.100000 -47.750000 5.065658
45.400000 -46.945312 5.065658
45.700000 -46.390625 5.065658
46.100000 -45.710938 5.065658
46.400000 -45.156250 5.065658
46.700000 -44.601562 5.065658
47.000000 -44.046875 5.065658
46.800000 -43.742188 5.065658
43.900000 -49.618164 5.237535
44.100000 -49.064453 5.237535
44.500000 -48.385742 5.237535
45.000000 -47.832031 5.237535
45.300000 -47.028320 5.237535
45.600000 -46.724609 5.237535
45.900000 -45.920898 5.237535
46.200000 -45.367188 5.237535
46.600000 -45.063477 5.237535
46.900000 -44.384766 5.237535
43.900000 -49.644043 5.397524
44.100000 -49.091797 5.397524
44.500000 -48.414551 5.397524
44.900000 -47.987305 5.397524
45.200000 -47.560059 5.397524
45.500000 -47.007812 5.397524
45.800000 -46.330566 5.397524
46.100000 -45.778320 5.397524
46.400000 -45.226074 5.397524
46.800000 -44.423828 5.397524
47.100000 -43.746582 5.397524
47.600000 -43.194336 5.397524
43.900000 -49.521484 5.565934
44.100000 -48.967773 5.565934
44.500000 -48.539062 5.565934
44.900000 -47.985352 5.565934
45.300000 -47.181641 5.565934
45.600000 -46.752930 5.565934
45.900000 -45.949219 5.565934
46.200000 -45.270508 5.565934
46.500000 -44.841797 5.565934
46.900000 -44.163086 5.565934
44.000000 -49.354004 5.737827
44.300000 -48.926758 5.737827
44.600000 -48.249512 5.737827
45.000000 -47.822266 5.737827
45.300000 -47.270020 5.737827
45.600000 -46.592773 5.737827
45.900000 -46.165527 5.737827
46.200000 -45.613281 5.737827
46.500000 -44.936035 5.737827
46.900000 -44.133789 5.737827
44.000000 -49.763184 5.894060
44.200000 -49.083984 5.894060
44.500000 -48.529785 5.894060
44.900000 -47.975586 5.894060
45.200000 -47.421387 5.894060
45.500000 -46.867188 5.894060
45.800000 -46.312988 5.894060
46.100000 -45.508789 5.894060
46.400000 -45.079590 5.894060
46.800000 -44.400391 5.894060
47.100000 -43.721191 5.894060
47.600000 -43.166992 5.894060
43.700000 -49.830566 6.065934
44.000000 -49.526367 6.065934
44.300000 -48.847168 6.065934
44.600000 -48.292969 6.065934
45.000000 -47.738770 6.065934
45.300000 -47.184570 6.065934
45.600000 -46.630371 6.065934
45.900000 -45.951172 6.065934
46.200000 -45.271973 6.065934
46.600000 -44.592773 6.065934
47.000000 -44.038574 6.065934
43.900000 -49.671875 6.238109
44.200000 -48.993652 6.238109
44.500000 -48.315430 6.238109
44.900000 -47.637207 6.238109
45.200000 -47.333984 6.238109
45.500000 -46.655762 6.238109
45.900000 -46.227539 6.238109
46.200000 -45.424316 6.238109
46.500000 -44.871094 6.238109
46.900000 -44.442871 6.238109
43.900000 -49.638672 6.394361
44.200000 -48.960938 6.394361
44.500000 -48.658203 6.394361
44.900000 -47.855469 6.394361
45.200000 -47.427734 6.394361
45.500000 -46.625000 6.394361
45.800000 -46.322266 6.394361
46.100000 -45.644531 6.394361
46.400000 -45.091797 6.394361
46.800000 -44.414062 6.394361
47.100000 -43.861328 6.394361
47.600000 -43.183594 6.394361
43.600000 -49.958008 6.566235
43.900000 -49.402832 6.566235
44.200000 -49.097656 6.566235
44.500000 -48.292480 6.566235
44.900000 -47.987305 6.566235
45.200000 -47.182129 6.566235
45.500000 -46.501953 6.566235
45.900000 -46.071777 6.566235
46.200000 -45.391602 6.566235
46.500000 -44.711426 6.566235
46.900000 -44.156250 6.566235
43.800000 -49.603516 6.738113
44.100000 -49.300781 6.738113
44.400000 -48.748047 6.738113
44.700000 -48.070312 6.738113
45.100000 -47.392578 6.738113
45.400000 -46.839844 6.738113
45.700000 -46.162109 6.738113
46.100000 -45.609375 6.738113
46.400000 -45.306641 6.738113
46.800000 -44.503906 6.738113
47.100000 -43.951172 6.738113
47.100000 -43.523438 6.738113
44.000000 -49.498047 6.896091
44.300000 -48.695801 6.896091
44.600000 -48.268555 6.896091
45.000000 -47.716309 6.896091
45.300000 -47.164062 6.896091
45.600000 -46.361816 6.896091
46.000000 -45.809570 6.896091
46.300000 -45.507324 6.896091
46.700000 -44.580078 6.896091
47.000000 -44.277832 6.896091
43.700000 -49.807129 7.052267
44.100000 -49.253906 7.052267
44.400000 -48.575684 7.052267
44.700000 -48.147461 7.052267
45.100000 -47.344238 7.052267
45.400000 -46.791016 7.052267
45.700000 -46.237793 7.052267
46.000000 -45.684570 7.052267
46.400000 -45.131348 7.052267
46.700000 -44.453125 7.052267
47.000000 -44.148926 7.052267
46.900000 -43.594727 7.052267
43.700000 -49.888672 7.239805
44.000000 -49.335938 7.239805
44.300000 -48.908203 7.239805
44.600000 -47.980469 7.239805
45.000000 -47.802734 7.239805
45.400000 -47.250000 7.239805
45.700000 -46.447266 7.239805
46.000000 -46.019531 7.239805
46.300000 -45.216797 7.239805
46.700000 -44.789062 7.239805
47.000000 -43.986328 7.239805
46.600000 -43.683594 7.239805
43.900000 -49.562500 7.396058
44.200000 -48.885742 7.396058
44.500000 -48.333984 7.396058
44.900000 -47.782227 7.396058
45.200000 -47.105469 7.396058
45.500000 -46.928711 7.396058
45.900000 -46.251953 7.396058
46.200000 -45.700195 7.396058
46.500000 -45.023438 7.396058
46.900000 -44.471680 7.396058
47.300000 -43.669922 7.396058
48.100000 -43.243164 7.396058
44.000000 -49.476562 7.552308
44.300000 -48.671875 7.552308
44.600000 -48.367188 7.552308
45.000000 -47.437500 7.552308
45.300000 -47.132812 7.552308
45.600000 -46.578125 7.552308
46.000000 -46.024414 7.552308
46.300000 -45.095703 7.552308
46.700000 -44.666992 7.552308
47.000000 -44.238281 7.552308
43.600000 -49.958984 7.724180
43.900000 -49.780762 7.724180
44.200000 -49.102539 7.724180
44.500000 -48.424316 7.724180
44.900000 -47.996094 7.724180
45.200000 -47.192871 7.724180
45.600000 -46.764648 7.724180
45.900000 -46.211426 7.724180
46.200000 -45.533203 7.724180
46.500000 -44.979980 7.724180
46.900000 -44.176758 7.724180
43.800000 -49.753906 7.896056
44.100000 -49.203125 7.896056
44.400000 -48.777344 7.896056
44.700000 -47.976562 7.896056
45.100000 -47.425781 7.896056
45.500000 -46.750000 7.896056
45.800000 -46.324219 7.896056
46.100000 -45.773438 7.896056
46.400000 -45.222656 7.896056
46.700000 -44.546875 7.896056
47.100000 -43.871094 7.896056
47.100000 -43.445312 7.896056
44.000000 -49.455078 8.068409
44.200000 -49.153809 8.068409
44.500000 -48.602539 8.068409
44.900000 -47.926270 8.068409
45.200000 -47.250000 8.068409
45.500000 -46.573730 8.068409
45.900000 -46.022461 8.068409
46.000000 -45.471191 8.068409
48.000000 -43.141113 8.068409
44.000000 -49.487305 8.225126
44.300000 -48.811035 8.225126
44.600000 -48.259766 8.225126
45.000000 -47.833496 8.225126
45.300000 -47.032227 8.225126
45.600000 -46.480957 8.225126
45.900000 -46.179688 8.225126
46.200000 -45.628418 8.225126
46.500000 -44.952148 8.225126
46.900000 -44.400879 8.225126
43.700000 -49.839844 8.396965
44.000000 -49.162109 8.396965
44.400000 -48.859375 8.396965
44.700000 -48.306641 8.396965
45.100000 -47.503906 8.396965
45.400000 -46.951172 8.396965
45.700000 -46.398438 8.396965
46.000000 -45.720703 8.396965
46.300000 -45.292969 8.396965
46.700000 -44.740234 8.396965
47.000000 -44.062500 8.396965
46.800000 -43.508789 8.396965
44.000000 -49.220703 8.568841
44.300000 -48.791992 8.568841
44.600000 -48.113281 8.568841
45.000000 -47.434570 8.568841
45.400000 -47.005859 8.568841
45.700000 -46.702148 8.568841
46.000000 -45.898438 8.568841
46.300000 -45.344727 8.568841
46.700000 -44.791016 8.568841
47.000000 -44.112305 8.568841
44.000000 -49.335938 8.725127
44.300000 -48.908203 8.725127
44.600000 -48.480469 8.725127
45.000000 -47.927734 8.725127
45.300000 -47.000000 8.725127
45.600000 -46.447266 8.725127
45.900000 -46.144531 8.725127
46.200000 -45.341797 8.725127
46.500000 -44.789062 8.725127
46.900000 -44.111328 8.725127
43.800000 -49.557617 8.896977
44.100000 -49.128418 8.896977
44.400000 -48.699219 8.896977
44.800000 -47.895020 8.896977
45.200000 -47.590820 8.896977
45.500000 -46.661621 8.896977
45.800000 -46.107422 8.896977
46.100000 -45.553223 8.896977
46.400000 -45.249023 8.896977
46.800000 -44.569824 8.896977
47.200000 -43.890625 8.896977
47.500000 -43.462402 8.896977
43.700000 -49.902344 9.068840
44.100000 -49.101562 9.068840
44.400000 -48.550781 9.068840
44.700000 -48.250000 9.068840
45.100000 -47.574219 9.068840
45.400000 -46.898438 9.068840
45.700000 -46.347656 9.068840
46.000000 -45.921875 9.068840
46.300000 -45.246094 9.068840
46.700000 -44.695312 9.068840
47.100000 -44.019531 9.068840
46.800000 -43.468750 9.068840
44.000000 -49.492676 9.225089
44.300000 -48.815430 9.225089
44.600000 -48.263184 9.225089
45.000000 -47.460938 9.225089
45.300000 -46.908691 9.225089
45.600000 -46.481445 9.225089
46.000000 -45.804199 9.225089
46.300000 -45.251953 9.225089
46.700000 -44.949707 9.225089
47.000000 -44.272461 9.225089
43.600000 -49.940918 9.396967
44.000000 -49.636719 9.396967
44.200000 -48.957520 9.396967
44.500000 -48.153320 9.396967
44.900000 -47.724121 9.396967
45.300000 -47.294922 9.396967
45.600000 -46.615723 9.396967
45.900000 -45.936523 9.396967
46.200000 -45.507324 9.396967
46.500000 -44.828125 9.396967
46.900000 -44.397461 9.396967
44.100000 -49.246582 9.569239
44.400000 -48.818359 9.569239
44.700000 -47.890137 9.569239
45.100000 -47.711914 9.569239
45.400000 -47.033691 9.569239
45.700000 -46.230469 9.569239
46.000000 -45.677246 9.569239
46.400000 -45.374023 9.569239
46.700000 -44.820801 9.569239
47.000000 -44.017578 9.569239
46.900000 -43.589355 9.569239
43.900000 -49.373535 9.725496
44.200000 -49.069336 9.725496
44.600000 -48.515137 9.725496
45.000000 -47.835938 9.725496
45.300000 -47.281738 9.725496
45.600000 -46.727539 9.725496
45.900000 -46.173340 9.725496
46.200000 -45.494141 9.725496
46.500000 -44.939941 9.725496
46.900000 -44.385742 9.725496
43.700000 -49.992188 9.897364
44.000000 -49.187500 9.897364
44.300000 -48.632812 9.897364
44.600000 -47.953125 9.897364
45.100000 -47.523438 9.897364
45.400000 -46.968750 9.897364
45.700000 -46.539062 9.897364
46.000000 -45.984375 9.897364
46.300000 -45.429688 9.897364
46.700000 -44.500000 9.897364
47.000000 -44.073242 9.897364
43.700000 -49.927734 10.069246
44.100000 -49.375977 10.069246
44.400000 -48.699219 10.069246
44.700000 -48.272461 10.069246
45.100000 -47.595703 10.069246
45.400000 -47.043945 10.069246
45.700000 -46.367188 10.069246
46.000000 -45.815430 10.069246
46.300000 -45.388672 10.069246
46.700000 -44.586914 10.069246
47.100000 -44.160156 10.069246
46.800000 -43.483398 10.069246
