2.657928 0.542819 2.161311
2.720844 0.664828 2.674994
2.438081 0.254338 4.190767
2.526746 0.410309 4.471564
2.460852 0.322337 5.038069
2.355003 0.166803 5.553517
2.261721 0.024014 5.849109
2.169578 -0.116855 6.145976
1.981574 -0.410846 6.569420
1.634725 -0.967828 6.945708
2.794862 1.169675 0.526772
2.863531 1.332840 0.964949
2.759057 1.142033 1.617836
2.641984 0.912605 1.990848
2.465796 0.560519 2.395670
2.472913 0.589313 2.714084
2.335238 0.320638 3.178593
1.843939 -0.712965 3.117074
2.450963 0.630899 4.727723
2.396504 0.541159 5.291448
2.331614 0.423609 5.719073
2.195450 0.152238 6.048784
2.038372 -0.159080 6.468995
1.926471 -0.382988 6.719456
1.681895 -0.887447 6.920474
2.684085 1.444783 0.493525
2.715572 1.558614 1.013653
2.629750 1.360620 1.665509
2.513561 1.069444 2.121776
2.413332 0.809650 2.356514
2.292672 0.499089 2.679540
2.192383 0.305770 4.142719
2.306457 0.656240 4.885475
2.251039 0.528876 5.315384
2.263363 0.579144 5.624289
2.163220 0.332139 6.090469
2.053499 0.051944 6.424933
1.962482 -0.181929 6.675799
1.747564 -0.750594 6.965460
2.502831 1.647310 0.754348
2.507159 1.709675 1.357247
2.487254 1.651707 1.618488
2.349940 1.158839 2.187915
2.288112 0.918406 2.198917
2.218825 0.676679 2.578610
2.157657 0.552621 4.098330
2.241419 0.945885 4.978789
2.185396 0.766154 5.494221
2.185966 0.781466 5.667723
2.084321 0.433078 6.307361
1.982949 0.059311 6.596395
1.921779 -0.177058 6.627227
1.730910 -0.896509 6.963251
2.346725 2.008092 0.421564
2.333852 2.008757 1.106638
2.300338 1.857396 1.673677
2.243178 1.499373 1.847056
2.187241 1.167702 2.165306
2.121641 0.783143 2.573537
2.021286 0.188060 3.144132
2.119816 2.256266 1.076709
2.098924 2.019594 1.586820
2.076842 1.681676 1.901831
2.059127 1.403184 2.135706
2.029838 0.929793 2.489239
2.009139 0.570606 2.676212
1.995215 1.213514 5.060669
1.983113 1.201580 5.675744
1.966371 0.947290 5.919493
1.942448 0.558951 6.204003
1.914013 0.165877 6.717065
1.887304 -0.347314 6.831376
1.934106 2.130391 0.144262
1.907352 2.366445 1.010788
1.916823 2.020988 1.326240
1.925098 1.736376 1.560970
1.924765 1.560869 1.995741
1.935502 1.110350 2.493278
1.947170 0.804899 2.596454
1.884531 1.209214 4.977765
1.877788 1.156894 5.461849
1.876164 0.974497 5.981833
1.877486 0.855406 6.194231
1.894610 0.331307 6.525848
1.905792 -0.008238 6.735976
1.947268 -1.065557 7.035193
1.660977 2.600273 0.427096
1.654448 2.574418 0.973001
1.679881 2.335513 1.485759
1.716731 2.055002 1.718593
1.773226 1.636797 1.983536
1.822874 1.246238 2.395392
1.858763 0.970894 2.638865
1.907247 0.587018 3.060272
1.929083 0.399614 3.362906
1.923765 0.383287 3.770770
1.753293 1.319966 5.498836
1.764531 1.187879 5.931532
1.783318 1.021802 6.229466
1.834267 0.638224 6.518333
1.890018 0.209914 6.901103
1.981442 -0.432667 7.064157
1.389430 2.738306 0.619716
1.419000 2.577685 1.190643
1.471692 2.357939 1.338078
1.549616 2.025349 1.655784
1.617965 1.719539 2.118838
1.727954 1.257031 2.476503
1.803372 0.933315 2.807857
1.634373 1.433772 5.008930
1.648543 1.334197 5.578336
1.672736 1.205391 6.011290
1.730305 0.958526 6.261119
1.839914 0.488987 6.730437
1.973757 -0.056430 6.938002
1.086800 2.991318 0.422791
1.095027 2.945396 0.826015
1.231131 2.525503 1.447910
1.292853 2.334647 1.737742
1.411048 1.990261 1.917170
1.535163 1.616133 2.328021
1.623490 1.352677 2.570682
1.745185 0.984855 2.991083
1.527960 1.475598 5.192431
1.595211 1.251224 5.800529
1.601240 1.219508 6.061579
1.724411 0.842195 6.576657
1.877998 0.393672 6.827902
2.105860 -0.265269 7.085171
0.877643 2.885768 1.053168
0.958154 2.699313 1.340268
1.083707 2.408105 1.797871
1.220284 2.099223 2.118316
1.346969 1.821611 2.215680
1.482054 1.515615 2.543565
1.659526 1.110206 3.050677
1.395107 1.582744 5.248525
1.424866 1.503097 5.595607
1.547826 1.212929 6.155451
1.649793 0.981723 6.408121
1.807129 0.629158 6.703958
2.057850 0.074996 7.003195
0.483956 3.128193 0.785439
0.613283 2.897199 1.155016
0.840640 2.497177 1.639163
0.965616 2.273244 2.015708
1.132238 1.981211 2.339661
1.341268 1.619712 2.613415
1.451317 1.428887 2.771344
1.624117 1.087873 4.148862
1.376954 1.474303 4.944857
1.259557 1.648406 5.580703
1.364875 1.457199 5.966190
1.582634 1.077140 6.345910
1.707190 0.858325 6.602037
1.945471 0.448314 6.857455
2.460670 -0.417600 6.847583
0.127794 3.227747 0.672638
0.264852 3.025532 1.183488
0.297793 2.972551 1.444978
0.495324 2.694393 1.760711
0.839068 2.211263 2.280924
1.018681 1.964253 2.380564
1.243384 1.645995 2.797913
1.516560 1.263415 3.168008
1.183718 1.650099 5.233587
1.232653 1.565558 5.806873
1.380349 1.357058 6.059326
1.554184 1.110196 6.402750
1.832535 0.724264 6.656537
2.243283 0.158370 6.916784
1.251444 1.472866 6.090885
1.479086 1.208109 6.522743
1.762279 0.889219 6.685558
2.255514 0.331980 7.034552
-0.434197 3.126524 0.634249
-0.425147 3.104503 1.177663
-0.463106 3.127504 1.635776
-0.237134 2.909992 2.088581
-0.035251 2.720078 2.319047
0.308811 2.397538 2.667491
0.696523 2.042126 2.742515
1.101421 1.665085 3.052733
1.356084 1.398071 4.426667
1.030775 1.678131 5.079895
1.030480 1.662620 5.702593
1.185086 1.511835 6.090016
1.302724 1.396948 6.391003
1.584208 1.132754 6.688588
2.029954 0.718682 6.990379
2.741214 0.066752 7.125011
-0.737196 3.067332 0.637495
-0.791639 3.093883 1.239560
-0.786123 3.077127 1.780648
-0.697309 3.002864 2.123317
-0.388143 2.762898 2.522257
0.009429 2.461392 2.732299
0.586193 2.026530 2.928330
1.163435 1.590996 3.137931
0.802244 1.813341 5.154578
0.765231 1.828417 5.691248
0.972881 1.662372 6.167780
1.281225 1.425411 6.464352
1.587918 1.189553 6.766383
2.072817 0.820629 7.073553
-1.103784 3.028005 1.019725
-1.115989 3.020493 1.701590
-1.043084 2.965466 2.183479
-0.975083 2.913447 2.664623
-0.624579 2.693997 2.925044
-0.104898 2.376700 2.943007
0.535245 1.985045 3.002035
1.639427 1.285753 4.185636
0.666577 1.847043 5.642728
0.848528 1.727554 6.031891
1.138210 1.546355 6.239309
1.354463 1.403881 6.722774
1.717285 1.178925 6.891740
2.195098 0.882723 7.111991
-1.392568 2.894186 1.039158
-1.456451 2.912317 1.637521
-1.527505 2.933955 2.232056
-1.530433 2.924258 2.766737
-1.360938 2.837300 3.051171
-0.590854 2.464636 3.263149
0.390680 1.998481 3.107640
1.369467 1.513238 3.935105
0.554564 1.872795 5.387206
0.678165 1.799921 6.050458
0.862225 1.708441 6.217159
1.336127 1.470030 6.784939
1.678511 1.304625 6.865533
2.184338 1.058130 7.087271
-1.578026 2.698723 1.190656
-1.807299 2.773983 1.541883
-1.824552 2.766667 2.220760
-1.825315 2.756273 2.757054
-1.674750 2.693833 3.180648
0.453363 1.883057 5.560809
0.491520 1.859649 6.049426
0.684442 1.787104 6.217159
1.092885 1.632829 6.606913
1.538505 1.467783 6.867653
-1.772061 2.531487 1.087117
-1.974165 2.572451 1.661457
-2.047779 2.579903 2.256914
-2.102149 2.585151 2.709957
-1.841032 2.506492 3.298744
-1.335254 2.374838 3.368226
-0.261154 2.096803 3.435604
0.332186 1.904869 5.455895
0.504906 1.850146 5.984566
0.533123 1.837777 6.248273
0.998712 1.708562 6.727185
1.542896 1.564186 6.942920
-2.086980 2.347573 1.164024
-2.211583 2.356699 1.680549
-2.285650 2.356656 2.276292
-2.148373 2.325159 2.839379
-1.961025 2.291305 3.125731
-1.139807 2.166829 3.117924
0.044793 1.986657 3.139143
0.965642 1.824940 4.299305
0.574356 1.874546 4.815396
0.239729 1.909700 5.640507
0.356338 1.887975 5.853257
0.566995 1.848598 6.244439
1.000486 1.771148 6.860377
1.420723 1.704144 7.030932
1.974470 1.615888 7.253869
-2.164397 2.119118 1.029692
-2.114816 2.102305 1.796643
-2.165609 2.096246 2.252908
-2.111152 2.088715 2.511908
-1.615019 2.053666 3.081658
-0.867709 2.015950 3.135574
-0.058456 1.980254 2.919488
0.798032 1.915319 4.139252
0.406575 1.924804 4.658930
-0.062718 1.933041 5.449016
0.253346 1.906862 6.017386
0.466446 1.889006 6.411521
0.717246 1.871813 6.671521
1.283304 1.835701 7.114774
1.705915 1.815881 7.064796
-2.130097 1.924025 0.822669
-2.371031 1.907038 1.173062
-2.159108 1.904000 1.824174
-2.102518 1.901590 2.083317
-1.655638 1.911806 2.569444
-1.186132 1.925486 2.922917
-0.715956 1.945950 2.915978
0.005770 1.973241 3.125259
0.128908 1.937982 5.290672
-0.098983 1.920444 5.700539
0.117163 1.922462 6.091606
0.512087 1.929724 6.615443
0.802312 1.939971 6.738411
1.274686 1.955487 7.000575
2.285450 1.994822 7.234183
-2.199366 1.715044 0.813172
-2.238450 1.700606 1.274969
-2.201862 1.698344 1.676472
-1.891770 1.734901 2.134055
-1.421883 1.796766 2.485569
-1.065725 1.845190 2.671045
-0.571516 1.913024 2.894538
-0.077925 1.980632 3.125273
0.286974 2.007585 4.512710
-0.210753 1.917430 5.441663
-0.350411 1.890253 5.801668
-0.136545 1.914049 6.192171
0.295354 1.969680 6.580415
0.765127 2.033279 6.839416
1.368009 2.115265 7.152450
-2.389030 1.475310 0.609009
-2.229263 1.504823 1.182873
-2.111404 1.528058 1.530504
-1.860196 1.584611 1.907505
-1.501961 1.664992 2.458957
-1.206220 1.738191 2.560173
-0.719855 1.857434 2.785483
-0.208942 1.978320 3.248597
0.150077 2.042626 4.642394
-0.301866 1.912487 5.433815
-0.437110 1.871124 5.795864
-0.225897 1.917199 6.189175
0.067030 1.984905 6.537702
0.442970 2.074522 6.843978
1.034732 2.218851 7.157147
-2.301252 1.318392 0.924121
-2.206161 1.342445 1.412725
-1.828455 1.468494 1.817992
-1.587203 1.546608 2.197533
-1.378164 1.617767 2.351451
-0.930348 1.769528 2.715500
-0.565142 1.890761 3.139795
0.111995 2.107654 4.323563
-0.256597 1.966524 4.840093
-0.663328 1.809214 5.489389
-0.445112 1.874449 6.105487
-0.114799 1.983081 6.540502
0.160191 2.078268 6.663646
0.607988 2.232049 6.925668
1.519194 2.552803 7.064766
-2.483377 1.051700 0.830979
-2.262055 1.145908 1.347857
-2.078684 1.226794 1.639487
-1.844631 1.329894 2.018543
-1.359749 1.550510 2.464737
-0.981069 1.724233 2.744324
-0.857710 1.778285 2.957978
-0.151823 2.086544 4.230644
-0.502788 1.909430 4.748757
-0.752854 1.771898 5.664924
-0.677396 1.800380 6.016693
-0.314500 1.961531 6.541903
-0.049897 2.084387 6.666466
0.380664 2.283038 6.929947
-2.544971 0.816653 0.713272
-2.435991 0.874990 1.061147
-2.138660 1.047918 1.381274
-1.843484 1.219452 1.705505
-1.522094 1.401747 2.262847
-1.281999 1.541677 2.508073
-0.946259 1.735557 2.932933
-0.637154 1.918251 3.132371
-0.503048 1.968621 4.538978
-0.852465 1.737892 5.419597
-0.895737 1.704859 5.732417
-0.580709 1.881031 6.393633
-0.212599 2.100133 6.561114
-0.036910 2.202657 6.734598
0.639894 2.607324 6.958940
-2.487423 0.667839 0.753338
-2.238394 0.837789 1.359547
-2.186870 0.869691 1.625012
-1.862528 1.099808 2.037907
-1.588007 1.295002 2.369137
-1.315614 1.488529 2.704429
-0.979095 1.730653 2.988204
-0.756975 1.888967 3.239983
-0.310129 2.211501 3.572586
-0.434859 2.107386 4.084634
-0.936765 1.715540 4.980954
-1.060653 1.607062 5.707143
-0.992857 1.649004 6.057955
-0.707908 1.849490 6.492914
-0.394386 2.074152 6.796650
0.131166 2.458567 6.970061
-2.476037 0.469425 0.877174
-2.291581 0.623996 1.398327
-1.990598 0.887315 1.810139
-1.797191 1.053473 2.195149
-1.544922 1.274469 2.528641
-1.232629 1.551300 2.813029
-0.983940 1.768816 3.155416
-0.940500 1.777175 4.386060
-1.159648 1.551016 5.446648
-1.222141 1.482766 5.897543
-1.131594 1.559644 6.113817
-0.701966 1.939396 6.548110
-0.310969 2.286027 6.902853
0.102965 2.662569 6.900043
-2.405920 0.335883 0.756748
-2.346441 0.384417 1.391305
-2.154437 0.591889 1.628667
-1.923617 0.840136 1.955643
-1.733719 1.045089 2.199048
-1.522756 1.267004 2.675296
-1.279773 1.532476 2.871753
-1.017709 1.812617 3.303912
-0.739057 2.115078 3.599878
-1.274922 1.474052 5.147596
-1.352221 1.371346 5.735880
-1.169117 1.562034 6.217762
-1.055543 1.680124 6.523353
-0.735112 2.030223 6.782049
-2.405965 0.133117 0.972720
-2.414130 0.112079 1.292080
-2.134427 0.473493 1.786158
-1.928857 0.740252 2.113119
-1.759416 0.960925 2.357281
-1.605642 1.155943 2.745991
-1.354286 1.485696 3.031904
-1.187955 1.701887 3.285311
-0.737125 2.294769 3.752326
-1.514722 1.200507 5.227067
-1.500788 1.199609 5.853257
-1.367040 1.367538 6.245135
-1.139290 1.672144 6.318955
-0.792704 2.125367 6.759692
-0.378176 2.682737 6.799937
-2.469296 -0.209967 0.806643
-2.347952 -0.030335 1.469269
-2.168768 0.258873 1.793588
-2.021544 0.497419 2.034840
-1.844564 0.782654 2.366540
-1.698963 1.018253 2.613803
-1.524266 1.299383 2.952824
-1.364527 1.550047 3.437486
-1.020432 2.122985 3.580696
-1.625118 1.046234 5.238480
-1.620468 1.039371 5.639327
-1.495072 1.227447 6.257305
-1.273344 1.594005 6.421499
-1.000397 2.039771 6.772858
-0.529078 2.830135 6.816356
-2.320294 -0.166984 0.357517
-2.342907 -0.247258 1.110825
-2.285292 -0.141601 1.462194
-2.141591 0.139658 1.931205
-2.042971 0.339887 2.087582
-1.841385 0.740903 2.597105
-1.743753 0.938834 2.758665
-1.534900 1.360803 3.137393
-1.399456 1.623865 3.626186
-1.278890 1.865654 3.886261
-1.689801 0.931689 5.524027
-1.671652 0.958364 5.786457
-1.506060 1.277251 6.446754
-1.341383 1.619648 6.522998
-1.073597 2.168415 6.831026
-2.339357 -0.552012 0.653396
-2.275295 -0.404887 1.232824
-2.181194 -0.162624 1.614226
-2.088293 0.076143 1.998118
-1.989965 0.337872 2.242504
-1.851164 0.702943 2.666317
-1.754056 0.960885 2.917321
-1.597567 1.369948 3.440588
-1.473881 1.704757 3.647752
-1.766080 0.789926 5.383199
-1.796872 0.691212 5.607517
-1.709753 0.900727 6.226013
-1.562607 1.303599 6.390581
-1.397894 1.750312 6.651244
-2.218687 -0.594507 0.937145
-2.236577 -0.696722 1.314954
-2.152447 -0.391647 1.781093
-2.050540 -0.010412 2.196272
-1.964598 0.312464 2.528981
-1.879229 0.632695 2.865706
-1.775002 1.033271 3.154201
-1.719968 1.243787 3.319214
-1.635920 1.557772 3.667266
-1.834434 0.616124 5.400183
-1.828422 0.609178 5.800667
-1.783043 0.769651 6.104220
-1.645595 1.283005 6.674927
-1.532839 1.738087 6.709530
-2.165444 -0.867110 0.340409
-2.162898 -0.950147 1.093753
-2.140333 -0.856225 1.587252
-2.096488 -0.577248 1.827371
-2.053849 -0.326253 2.212152
-1.990191 0.088080 2.491511
-1.907862 0.610284 2.954565
-1.874307 0.826451 3.118488
-1.792789 1.341194 3.594206
-1.805855 1.179600 4.107228
-1.895560 0.446358 4.826458
-1.895934 0.334136 5.642786
-1.886626 0.364892 5.905849
-1.821330 0.758004 6.429975
-1.758508 1.181416 6.597481
-2.067713 -1.034895 0.727498
-2.059394 -1.099781 1.336396
-2.044271 -0.898944 1.632035
-2.026291 -0.617088 1.873837
-2.006944 -0.363467 2.260418
-1.971776 0.137830 2.860649
-1.950881 0.497282 3.060494
-1.929946 0.856005 3.264312
-1.894119 1.493815 3.552284
-1.928210 0.087342 5.313115
-1.912850 0.181833 5.892005
-1.899859 0.387976 6.060382
-1.871654 0.825118 6.452429
-1.840104 1.347512 6.805961
-1.943811 -1.305418 0.981469
-1.938269 -1.266119 1.390036
-1.945067 -1.007150 1.772315
-1.951619 -0.751886 2.157081
-1.963464 -0.416399 2.490253
-1.980642 0.000846 2.774243
-1.997619 0.416353 3.063905
-2.014392 0.830051 3.359232
-2.008603 0.897937 3.863219
-1.955495 0.164972 4.587289
-1.922178 -0.164071 5.417640
-1.920070 -0.080537 5.770293
-1.932770 0.368282 6.383852
-1.952722 0.796796 6.552289
-2.001612 1.716063 6.588956
-1.828504 -1.423177 0.714074
-1.807953 -1.484354 1.323999
-1.818792 -1.365412 1.676569
-1.855819 -1.053408 2.147212
-1.898608 -0.749453 2.250860
-1.941258 -0.416534 2.587122
-2.015951 0.162152 3.142147
-2.070765 0.572493 3.437966
-2.119058 0.927548 3.648329
-1.895075 -0.373963 5.358363
-1.906331 -0.240733 5.800011
-1.930571 -0.025386 6.194387
-1.984791 0.352677 6.270539
-2.092733 1.142719 6.712959
-1.647725 -1.692234 0.927213
-1.628654 -1.732176 1.391639
-1.663763 -1.560020 1.827865
-1.706740 -1.367487 2.123505
-1.804530 -0.959747 2.398808
-1.925952 -0.444627 2.856501
-2.044213 0.041070 3.092590
-2.140201 0.443178 3.387500
-2.091913 0.291523 3.902025
-1.909729 -0.366893 4.714184
-1.846026 -0.552635 5.580525
-1.837305 -0.556579 5.980431
-1.894932 -0.309187 6.235842
-2.029683 0.239480 6.442587
-1.398175 -2.048353 0.802314
-1.413249 -1.972175 1.437879
-1.476770 -1.781607 1.732553
-1.593550 -1.430500 2.288122
-1.714223 -1.088676 2.478684
-1.869673 -0.641461 2.849934
-1.989434 -0.301619 3.050033
-2.173233 0.221349 3.382905
-1.786804 -0.754075 4.950611
-1.703088 -0.961321 5.364593
-1.756207 -0.786584 5.891941
-1.868848 -0.453530 6.325342
-2.012741 -0.049292 6.491198
-1.173943 -2.227385 0.882492
-1.183719 -2.188946 1.287616
-1.274839 -1.973409 1.806610
-1.390352 -1.718576 2.044569
-1.573284 -1.309528 2.546506
-1.723807 -0.982650 2.738132
-1.873987 -0.656324 2.933693
-2.104984 -0.153240 3.260794
-1.991283 -0.369080 3.825212
-1.648495 -1.056599 4.686910
-1.568517 -1.194100 5.410766
-1.636470 -1.027425 5.933287
-1.797655 -0.673582 6.225442
-1.996465 -0.241948 6.476117
-2.330736 0.464527 6.458206
-0.805833 -2.568203 0.674306
-0.850570 -2.476311 1.164862
-0.907009 -2.370183 1.513229
-1.034045 -2.146020 1.891290
-1.231163 -1.804529 2.303093
-1.370840 -1.564312 2.546252
-1.581599 -1.204992 2.826342
-1.890087 -0.679006 3.237722
-2.008153 -0.469021 3.634617
-1.322336 -1.548265 5.206736
-1.385001 -1.428644 5.642814
-1.537183 -1.164216 5.982400
-1.757427 -0.785396 6.367006
-2.022645 -0.341696 6.485834
-0.552591 -2.609722 1.060043
-0.704626 -2.395724 1.436919
-0.854421 -2.184627 1.816318
-1.067662 -1.883666 2.370978
-1.230962 -1.658813 2.615294
-1.477003 -1.322731 2.896791
-1.805490 -0.875649 3.220640
-1.840009 -0.814134 3.721082
-1.420674 -1.346531 4.537668
-1.182699 -1.640004 5.279155
-1.200004 -1.608804 5.541620
-1.325739 -1.429440 5.929805
-1.609614 -1.044109 6.176581
-1.947248 -0.581439 6.610198
-0.441908 -2.495758 1.350514
-0.497565 -2.420786 1.839894
-0.719571 -2.167132 2.162610
-0.866154 -2.001310 2.316259
-1.158143 -1.665484 2.820147
-1.432412 -1.355372 3.102048
-1.624369 -1.130438 3.582576
-0.863969 -1.927419 5.054415
-0.917090 -1.859205 5.401496
-1.150331 -1.590369 5.824783
-1.317957 -1.398611 6.076942
-0.241662 -2.475533 1.460204
-0.283040 -2.431653 1.725103
-0.592525 -2.137268 2.363718
-0.714661 -2.025671 2.433865
-0.935397 -1.815254 2.907238
-1.383091 -1.402402 3.314877
-0.581854 -2.089034 4.660137
-0.616722 -2.045449 5.145834
-0.849200 -1.822311 5.705054
-0.971042 -1.705171 6.005824
-1.222866 -1.473529 6.211918
0.092531 -2.546481 1.489662
-0.066611 -2.423421 1.783781
-0.291076 -2.245356 2.392391
-0.513073 -2.077561 2.635843
-0.733881 -1.910572 2.882019
-1.247677 -1.529101 3.148796
-0.327032 -2.163851 4.774734
-0.395896 -2.105464 5.123560
-0.579573 -1.957181 5.732608
-0.674411 -1.882959 5.946099
0.289275 -2.507208 1.375092
0.239915 -2.471947 1.639527
-0.073453 -2.272688 2.190818
-0.190469 -2.198185 2.401122
-0.520645 -1.991801 2.818673
-0.920432 -1.744854 3.189013
-0.783633 -1.815404 3.701805
-0.197863 -2.147548 4.520020
0.056255 -2.284356 5.208863
-0.130806 -2.164259 5.590717
-0.423950 -1.984770 5.789657
-0.645878 -1.841850 6.262749
0.651158 -2.515987 1.376613
0.494583 -2.433870 1.810610
0.215741 -2.293993 2.275574
0.016133 -2.197540 2.430455
-0.332783 -2.025908 2.847954
-0.502520 -1.940403 3.148354
-0.300386 -2.018492 3.939059
0.350475 -2.302885 4.890874
0.430133 -2.330866 5.337597
0.075229 -2.159269 5.618002
-0.155010 -2.046583 5.865984
-0.426994 -1.912534 6.203955
0.961189 -2.459126 1.286933
0.742155 -2.372476 1.805287
0.557173 -2.302158 2.098773
0.189388 -2.165738 2.511446
0.197336 -2.157680 3.057549
-0.109984 -2.043946 3.389355
0.972375 -2.393660 4.784878
0.842710 -2.339965 5.212730
0.296633 -2.141634 5.612612
-0.117745 -1.989755 5.985604
1.177266 -2.361664 1.120860
1.142545 -2.345249 1.525207
0.945822 -2.283739 2.183607
0.812987 -2.246788 2.390629
0.302440 -2.111556 2.834506
0.231894 -2.084580 3.325541
0.649815 -2.137893 5.936626
1.378356 -2.224702 1.167509
1.424110 -2.222500 1.628913
1.392408 -2.210354 2.032052
0.950002 -2.137960 2.523693
0.706362 -2.096024 2.903773
0.879501 -2.115341 3.187975
1.666458 -2.074939 1.242312
1.571316 -2.061939 1.732156
1.456024 -2.050781 2.080535
1.204000 -2.033560 2.459464
0.984362 -2.014966 2.981056
0.964557 -2.006605 3.384788
1.941901 -2.007593 5.426156
1.364656 -1.977040 5.819683
0.539140 -1.943213 5.855933
0.420263 -1.934451 6.068772
0.254622 -1.922158 6.369862
1.902032 -1.907940 1.343107
1.865555 -1.902272 1.746988
1.807556 -1.900383 2.009225
1.525301 -1.903827 2.611494
1.333720 -1.908326 2.905058
1.065227 -1.910963 3.512074
2.262587 -1.682781 1.088969
2.107710 -1.695941 1.660526
1.878978 -1.721599 2.176167
1.742146 -1.738883 2.382526
1.523885 -1.762897 2.899366
1.474988 -1.765536 3.159814
2.387084 -1.449412 1.311774
2.405740 -1.438351 1.631771
2.123667 -1.500328 2.232253
1.878753 -1.556916 2.610162
1.772351 -1.577926 2.959040
1.481190 -1.644847 3.426515
2.036574 -1.455129 5.742118
1.404989 -1.617368 5.873850
1.109867 -1.687862 6.210119
2.771873 -1.151630 1.249028
2.657673 -1.184991 1.592383
2.436954 -1.252483 2.104324
2.090768 -1.363489 2.647824
1.962201 -1.404630 2.853899
2.046810 -1.363087 3.447183
1.449794 -1.568120 3.699427
2.473270 -1.178880 5.168574
2.052461 -1.319848 5.525264
1.646796 -1.459746 5.667463
1.347687 -1.553970 6.222011
1.228632 -1.587281 6.654007
2.873664 -0.834887 1.605760
2.588024 -0.963093 2.059893
2.255268 -1.112140 2.603639
2.131431 -1.167521 2.810228
2.239215 -1.057168 5.620513
1.806667 -1.260852 5.849215
1.687984 -1.309095 6.279708
1.503124 -1.394820 6.441198
2.923587 -0.562090 1.125617
2.936950 -0.546870 1.444978
2.832591 -0.603353 1.790113
2.463587 -0.816105 2.417299
2.273794 -0.929275 2.569531
2.708350 -0.611329 4.898388
2.367255 -0.814748 5.170586
1.984230 -1.041901 5.534129
1.910011 -1.079869 5.879806
1.648454 -1.233085 6.214557
1.430663 -1.361269 6.465737
3.070842 -0.217750 0.772388
3.129467 -0.168318 1.008456
3.044943 -0.220283 1.493296
2.787366 -0.402565 1.948148
2.626810 -0.516052 2.237493
2.376257 -0.692932 2.698361
2.196871 -0.815164 3.216711
1.797929 -1.108785 3.438314
2.650336 -0.435746 4.916905
2.384258 -0.622290 5.461782
2.175963 -0.772623 5.704496
1.998007 -0.897007 6.085089
1.714266 -1.099673 6.506299
1.402429 -1.326415 6.797905
3.121359 0.137637 0.857849
3.232782 0.247823 1.154061
3.034879 0.074954 1.524893
2.769972 -0.151720 2.206814
2.561494 -0.337746 2.443457
2.452813 -0.423258 3.017134
2.168235 -0.684264 3.062276
1.738693 -1.075655 3.231420
2.500394 -0.330576 4.935878
2.330673 -0.477325 5.312918
2.226735 -0.562151 5.741959
2.062713 -0.703563 6.122422
1.801410 -0.933554 6.543622
1.621933 -1.098153 6.572538
3.237430 0.614474 0.727919
3.162130 0.543168 1.213313
3.023527 0.394787 1.500135
2.822184 0.184321 2.096770
2.633648 -0.021902 2.331623
1.794354 -0.946272 3.152661
2.621046 0.035875 4.881297
2.466060 -0.128449 5.258554
2.370163 -0.224586 5.688066
2.186990 -0.418210 6.154653
1.925306 -0.705549 6.441537
1.722523 -0.924896 6.781234
1.347436 -1.342607 6.985194
3.158861 0.855901 0.599836
3.027779 0.705190 1.391138
2.987953 0.659996 1.650603
2.864962 0.504315 1.936851
2.553670 0.105455 2.507080
1.948740 -0.673680 3.486136
2.560046 0.186530 4.825573
2.419669 0.010387 5.201642
2.270860 -0.170053 5.801206
2.217743 -0.230412 6.144585
2.003453 -0.504136 6.564174
1.798320 -0.772387 6.766895
1.459924 -1.219060 6.968576
2.962820 1.055745 0.487701
2.982322 1.111253 1.090366
2.924918 1.031379 1.574478
2.788822 0.813255 1.944705
2.643605 0.574497 2.177133
2.616700 0.556956 2.941942
2.332889 0.084596 3.241133
1.729436 -0.955992 2.897601
2.450304 0.344841 4.870074
2.442878 0.346757 5.263869
2.351438 0.201803 5.555853
2.234917 0.017348 5.934949
2.094558 -0.204435 6.402545
1.869313 -0.574199 6.778503
1.582378 -1.055480 6.980346
2.843344 1.363525 0.639768
2.773274 1.242396 1.349427
2.769499 1.242088 1.525870
2.630804 0.959585 1.980334
2.477172 0.631987 2.157594
1.870098 -0.645386 3.238727
2.424188 0.634673 4.790067
2.336476 0.466171 5.303248
2.317579 0.436484 5.560858
2.234009 0.277080 6.075160
2.024934 -0.159010 6.532762
1.880792 -0.464697 6.736281
1.664898 -0.931137 6.850268
2.663083 1.527987 1.122911
2.622100 1.438468 1.609024
2.504203 1.119613 1.925238
2.360596 0.724397 2.189930
2.317465 0.620987 2.539192
2.136275 0.177531 3.847024
2.243197 0.525317 4.594545
2.225432 0.509727 5.214891
2.226866 0.523710 5.389336
2.139665 0.308842 5.993209
2.079301 0.153280 6.290879
1.963334 -0.166469 6.494043
1.785034 -0.656715 6.830579
2.501719 1.817529 1.083214
2.467034 1.700497 1.428334
2.366691 1.313854 1.828590
2.267203 0.931241 2.234544
2.201742 0.688581 2.614802
2.155744 0.531678 3.051366
2.002607 -0.086630 3.310826
1.986842 -0.131089 3.576355
2.147312 0.608683 4.447451
2.188387 0.842273 5.220805
2.129865 0.628537 5.600595
2.104490 0.550339 5.945402
2.047551 0.343441 6.328091
1.939585 -0.076880 6.705145
2.304283 1.962111 0.866529
2.282037 1.887140 1.494287
2.258753 1.746844 1.698523
2.206402 1.412069 2.016171
2.134557 0.941184 2.368256
2.081555 0.583789 2.554686
2.084651 0.941968 5.014004
2.068736 0.892806 5.495890
2.048274 0.773620 5.705462
2.011386 0.559486 6.088628
1.955674 0.215024 6.513147
1.897294 -0.166441 6.807792
1.793838 -0.897954 6.923373
2.101504 2.186449 1.023173
2.086078 2.005856 1.452673
2.066206 1.665032 1.770111
2.052636 1.466881 2.062268
2.030467 1.047601 2.331269
2.000437 0.518257 2.779881
1.990370 1.228029 4.864138
1.978118 1.211773 5.482520
1.958404 0.943714 5.950114
1.939772 0.641567 6.285744
1.914910 0.207063 6.665275
1.891705 -0.307732 6.781356
1.856463 -1.136009 6.856421
1.869376 2.369852 1.049255
1.870283 2.249182 1.392776
1.888972 1.793424 1.876599
1.897346 1.540304 2.252200
1.914027 1.236763 2.348726
1.934267 0.820612 2.621219
1.859995 1.268781 5.124950
1.858742 1.183528 5.468572
1.860036 1.003312 5.984872
1.861924 0.934746 6.106895
1.882642 0.452360 6.568994
1.913011 -0.107892 6.769550
1.950608 -0.803199 7.023350
1.685618 2.350104 0.281929
1.638958 2.563693 1.004597
1.679595 2.244470 1.460395
1.711148 2.021758 1.609411
1.749847 1.742093 1.845220
1.809589 1.294091 2.341826
1.847493 1.018685 2.584923
1.891982 0.689547 2.918208
1.942675 0.308876 3.343831
1.887929 0.577190 4.047434
1.769325 1.245808 4.860302
1.740125 1.363165 5.445379
1.752395 1.230583 5.877896
1.798155 0.882197 6.300894
1.840587 0.592894 6.418165
1.899665 0.162850 6.803491
2.015720 -0.614762 7.013110
1.425491 2.545369 0.566768
1.399444 2.600780 1.170048
1.458120 2.346928 1.541611
1.537638 2.016751 1.859481
1.616443 1.689020 2.181415
1.681917 1.418808 2.421013
1.746993 1.149931 2.663308
1.773762 0.936798 4.138112
1.633287 1.425399 4.846483
1.659543 1.275266 5.502845
1.673963 1.193852 5.849370
1.721027 0.983741 6.234528
1.802666 0.653868 6.438709
1.937696 0.101508 6.866978
2.134236 -0.654934 6.852812
1.045836 2.971413 0.812378
1.169493 2.609345 1.349777
1.282799 2.287031 1.666615
1.395150 1.967070 1.987541
1.494671 1.673868 2.453575
1.616925 1.334382 2.641581
1.756678 0.942814 2.921284
1.516560 1.464097 5.255962
1.571087 1.289225 5.775730
1.608597 1.176835 5.986286
1.706228 0.883568 6.548159
1.820184 0.565403 6.755359
2.075179 -0.127848 6.871647
0.732229 3.141518 0.514282
0.830151 2.915504 1.025454
0.877176 2.802643 1.370862
1.056422 2.418165 1.630566
1.244882 2.004443 2.122851
1.384731 1.699097 2.449681
1.523363 1.396113 2.780561
1.638381 1.145918 3.027724
1.389354 1.565468 5.316508
1.420170 1.486238 5.664752
1.585599 1.119568 6.177917
1.710023 0.845639 6.521017
1.853384 0.537984 6.732187
2.132639 -0.050745 6.899466
0.416193 3.182561 0.708267
0.548380 2.953401 1.076002
0.634936 2.796653 1.503457
0.778159 2.554367 1.734440
0.993486 2.193125 1.997553
1.191658 1.854641 2.407527
1.387532 1.519713 2.823099
1.544115 1.260143 2.927458
1.349563 1.491625 5.335648
1.319286 1.521967 5.868855
1.447835 1.302981 6.118682
1.622188 1.010780 6.323321
1.865789 0.595697 6.799573
2.132627 0.155325 6.922450
0.308855 2.901270 1.407171
0.290804 2.915143 1.725323
0.524445 2.595908 2.126097
0.858328 2.148246 2.422526
1.106772 1.813510 2.695766
1.289505 1.570310 2.799665
1.716990 0.965747 4.195148
1.418956 1.339607 4.763132
1.176066 1.635844 5.499414
1.220311 1.567021 5.846073
1.453979 1.244252 6.360027
1.683486 0.933684 6.656014
1.966176 0.554527 6.911354
-0.074805 3.054256 0.982120
-0.014401 2.975058 1.468158
0.098633 2.840158 1.896951
0.322296 2.587908 2.215043
0.564401 2.319362 2.396641
0.937059 1.905323 2.700846
1.308409 1.492442 3.014639
1.473459 1.279399 4.221200
1.151131 1.608213 5.016968
1.118666 1.628670 5.554561
1.233080 1.489597 6.079906
1.432325 1.263229 6.423139
1.690049 0.974396 6.723472
2.006948 0.628546 6.756761
2.750618 -0.185864 6.936056
-0.503778 3.142517 0.755270
-0.539327 3.162600 1.213637
-0.431610 3.052818 1.778708
-0.308817 2.933155 2.203784
0.040253 2.614630 2.547810
0.369285 2.319362 2.673519
0.843045 1.892473 2.924137
1.300197 1.485792 2.956598
0.941188 1.745060 5.331513
0.938630 1.731780 5.952534
1.089799 1.593486 6.115592
1.410954 1.298774 6.498344
1.796334 0.948020 6.842103
2.213534 0.572196 7.058767
-0.648471 2.976018 0.831329
-0.797854 3.075647 1.268090
-0.904263 3.141836 1.784821
-0.791362 3.045721 2.350603
-0.525927 2.843325 2.666201
-0.058456 2.496180 2.821650
0.590003 2.016312 2.964949
1.152958 1.603029 2.946934
1.450174 1.347087 4.561733
0.875037 1.756333 5.138769
0.908195 1.720642 5.626088
1.155190 1.525975 6.192277
1.393169 1.343063 6.537722
1.700743 1.109993 6.840698
2.114774 0.802790 6.967286
-1.024984 2.942941 0.705061
-1.133011 2.995240 1.224005
-1.196719 3.019732 1.822328
-1.243726 3.037504 2.277584
-1.056099 2.916068 2.784708
-0.749675 2.731900 2.961325
-0.012268 2.293158 3.181269
0.687500 1.886072 2.963702
1.147253 1.587728 4.242240
0.860314 1.738477 5.075979
0.746710 1.792554 5.664154
0.930477 1.675918 6.054887
1.030020 1.612654 6.270406
1.404416 1.378957 6.885538
1.886678 1.090444 7.101948
2.445753 0.762479 7.053582
-1.443684 2.881949 0.684620
-1.524090 2.903559 1.427253
-1.591798 2.922336 2.024481
-1.666736 2.944512 2.617813
-1.646190 2.926923 3.013725
0.527339 1.884356 5.187411
0.531805 1.869411 5.813220
0.768569 1.750845 6.292608
1.034048 1.626467 6.414254
1.509660 1.396317 6.987705
2.018841 1.158009 7.209203
-1.684246 2.726002 0.884524
-1.692465 2.715332 1.567691
-1.789000 2.734666 2.303433
-1.843243 2.744745 2.756409
-1.692677 2.683417 3.179351
-0.412632 2.216891 4.011322
0.555373 1.857765 4.959223
0.469655 1.878970 5.409129
0.462433 1.873598 5.807682
0.752491 1.760380 6.374244
1.115180 1.626937 6.673319
1.516510 1.482507 6.841505
-1.643485 2.471656 0.639051
-1.864169 2.511010 1.357670
-2.150228 2.567847 1.986753
-2.147534 2.556872 2.522859
-2.151449 2.547535 3.056586
0.295929 1.919429 5.038139
0.352100 1.892118 5.753087
0.475288 1.853951 6.192968
0.719932 1.790028 6.450056
1.094712 1.693855 6.752905
1.685768 1.545441 7.061260
2.449957 1.356780 7.292496
-1.967643 2.295941 1.039472
-2.311636 2.332283 1.589035
-2.190307 2.302489 2.293522
-2.108145 2.282243 2.774311
-1.699740 2.221844 3.034838
-0.958821 2.120258 3.084781
0.007021 1.988243 3.128164
1.206355 1.813151 3.772692
0.027067 1.940394 5.516167
0.107995 1.922761 5.867513
0.542548 1.856453 6.252785
0.839156 1.809562 6.602131
1.401127 1.724855 7.045137
1.912132 1.652912 7.179052
-1.942950 2.101985 0.670638
-2.123591 2.101545 1.106027
-2.109408 2.090777 1.648198
-2.184679 2.082819 2.244433
-1.823740 2.057304 2.782811
-1.383176 2.036128 2.908109
-0.773987 2.009670 2.930744
0.086746 1.968357 3.172453
0.241764 1.923788 5.197016
-0.035401 1.929593 5.519215
0.181872 1.912997 5.909310
0.579050 1.886213 6.432771
0.740609 1.873572 6.738867
1.394603 1.838172 7.136446
1.952357 1.814391 7.133510
-2.313597 1.875880 1.123004
-2.157638 1.874367 1.693277
-2.041429 1.874728 2.038842
-1.788740 1.882578 2.413658
-1.233154 1.909684 2.712763
-0.790028 1.933254 2.847354
-0.096915 1.967479 3.198702
0.443275 1.975128 4.486802
-0.036348 1.936252 5.053648
-0.160985 1.917853 5.643266
0.105349 1.924502 6.124925
0.406526 1.935702 6.473328
0.704775 1.946659 6.825487
1.177963 1.969547 7.090828
2.007431 2.016613 7.185693
-2.148647 1.687220 1.095812
-2.247443 1.664035 1.474196
-2.072178 1.684239 1.906123
-1.655820 1.746648 2.172357
-1.350194 1.787301 2.639766
-0.938540 1.848746 2.916658
-0.416012 1.931728 3.005192
0.232175 2.008911 4.472801
-0.240231 1.921594 5.040849
-0.410834 1.884421 5.543320
-0.193211 1.912220 5.936661
0.155058 1.960350 6.374072
0.498732 2.007638 6.816681
0.921613 2.072832 6.991837
1.876982 2.224921 7.134364
-2.346494 1.476767 0.678400
-2.245074 1.493498 1.168684
-2.013034 1.543454 1.686649
-1.763085 1.600732 2.065348
-1.380881 1.691536 2.478024
-1.030208 1.778496 2.668062
-0.572085 1.889744 3.038265
-0.194862 1.986119 3.096317
0.082104 2.029851 4.536526
-0.452311 1.875476 5.376669
-0.311921 1.898887 6.042349
-0.150874 1.934638 6.346037
0.225063 2.025974 6.647444
0.553387 2.106655 6.863508
1.098519 2.243269 7.084906
-2.411141 1.252759 0.957402
-2.161443 1.337652 1.333913
-1.915165 1.421228 1.712962
-1.672330 1.503480 2.094514
-1.354708 1.614449 2.424005
-0.960828 1.754631 2.703843
-0.516173 1.911721 3.078088
-0.158738 2.016142 4.473501
-0.557543 1.855445 5.129798
-0.672085 1.801273 5.719870
-0.465677 1.869796 6.113817
-0.180387 1.968410 6.462837
0.274084 2.126869 6.950393
0.670837 2.274720 6.899434
-2.423994 1.055638 0.773758
-2.330527 1.091271 1.263247
-2.094823 1.199027 1.639487
-1.735871 1.366539 2.048951
-1.483766 1.485159 2.289979
-1.206027 1.611520 2.762688
-0.932597 1.743424 2.868295
-0.382742 2.004500 3.280907
-0.250394 2.040109 4.685908
-0.712963 1.798623 5.386665
-0.747556 1.770438 5.924542
-0.552134 1.858097 6.317144
-0.245336 2.004156 6.528739
0.225854 2.227934 6.879816
1.179237 2.688785 7.203208
-2.343470 0.903540 1.233738
-2.220396 0.975716 1.440215
-1.948212 1.135153 1.905168
-1.610150 1.336787 2.319184
-1.301606 1.524954 2.509444
-0.945320 1.740845 2.792248
-0.709824 1.882118 3.043757
-0.530912 1.960747 4.535476
-0.964773 1.674761 5.237442
-0.836189 1.740227 5.903680
-0.808560 1.751666 6.165900
-0.353013 2.023125 6.735008
-0.030145 2.222661 6.814808
0.680486 2.658716 7.131892
-2.351451 0.742660 0.835621
-2.314481 0.761164 1.243366
-2.102853 0.913043 1.623499
-1.875304 1.080299 1.864217
-1.602378 1.279922 2.194908
-1.240227 1.543106 2.705978
-0.995961 1.726152 2.815444
-0.684365 1.952746 3.248827
-0.308435 2.229297 3.636756
-0.474325 2.093266 4.060635
-1.079524 1.613139 4.920766
-1.240233 1.475968 5.560542
-0.982357 1.658527 6.130479
-0.668792 1.889719 6.431942
-0.434156 2.065059 6.557937
0.094566 2.457369 6.960737
-2.396135 0.539035 0.692041
-2.524024 0.410634 1.130119
-2.221809 0.677388 1.538286
-1.966208 0.903451 1.865569
-1.712513 1.127663 2.196954
-1.418234 1.386748 2.620517
-1.168994 1.606650 2.960769
-0.942690 1.811295 3.073699
-0.864599 1.864274 3.806905
-0.536815 2.160821 3.965202
-1.240830 1.477046 5.469338
-1.164751 1.532075 6.049284
-0.973974 1.700428 6.308438
-0.546982 2.080798 6.748074
-0.264745 2.337444 6.832988
-2.485745 0.243024 0.594457
-2.558676 0.146332 1.117512
-2.339263 0.379835 1.581516
-2.147931 0.588100 1.821243
-1.746200 1.024446 2.357789
-1.635108 1.147256 2.430024
-1.408540 1.392340 2.768357
-1.146005 1.675212 3.200132
-1.035101 1.760276 4.604867
-1.302133 1.435422 5.484120
-1.391805 1.324495 5.844610
-1.185717 1.546389 6.189186
-0.865279 1.899315 6.444003
-0.480488 2.319213 6.888713
-2.350504 0.193132 0.602778
-2.389488 0.115156 1.353866
-2.231984 0.320997 1.734396
-2.028557 0.592082 2.062355
-1.826626 0.860966 2.394385
-1.694534 1.038694 2.554089
-1.461042 1.348209 2.981605
-1.180779 1.723941 3.362905
-1.017692 1.941416 3.621252
-1.089935 1.817625 4.365487
-1.432025 1.319961 5.121200
-1.497400 1.210615 5.710951
-1.444869 1.272042 6.063851
-1.212006 1.584750 6.364326
-0.980244 1.895758 6.670267
-0.566387 2.460053 6.937397
-2.327344 0.003736 0.685894
-2.349868 -0.057967 1.293521
-2.214096 0.162695 1.673814
-2.039251 0.452924 2.001517
-1.865667 0.740820 2.333280
-1.663964 1.073899 2.757627
-1.493331 1.356359 3.098168
-1.352714 1.590111 3.352718
-1.170652 1.897377 3.558767
-1.605110 1.085920 5.157509
-1.642791 1.003866 5.608208
-1.501915 1.229578 6.089605
-1.345683 1.486847 6.437550
-1.103544 1.896052 6.697004
-0.636484 2.693952 6.967946
-2.374713 -0.370101 0.820862
-2.226973 -0.056182 1.145079
-2.146342 0.103127 1.585088
-2.017794 0.361047 2.200364
-1.923906 0.562691 2.359338
-1.781194 0.864821 2.696739
-1.616008 1.212788 3.125389
-1.428909 1.605137 3.649818
-1.337677 1.800476 3.817433
-1.748489 0.815523 5.369067
-1.708669 0.888081 5.720299
-1.535578 1.249312 6.243607
-1.413640 1.515034 6.366144
-1.193200 1.989449 6.718087
-2.223475 -0.244323 0.289231
-2.329576 -0.594279 0.986415
-2.263552 -0.426793 1.422916
-2.173105 -0.184860 1.804734
-2.017656 0.239727 2.308913
-1.903466 0.553662 2.643939
-1.809621 0.813115 2.894141
-1.689523 1.152064 3.094690
-1.558019 1.510651 3.531491
-1.555094 1.487232 4.084634
-1.736079 0.915122 4.843916
-1.838133 0.582514 5.445227
-1.770222 0.750155 5.974414
-1.666125 1.033963 6.321002
-1.490204 1.527334 6.668853
-1.247444 2.228412 6.798217
-2.233060 -0.695517 0.654711
-2.251780 -0.819001 1.175110
-2.171424 -0.511903 1.639108
-2.106812 -0.265615 2.019962
-2.039419 0.004145 2.261442
-1.939816 0.409314 2.539943
-1.858749 0.729962 2.876969
-1.764204 1.100801 3.307773
-1.665861 1.499226 3.602359
-1.864835 0.507998 5.246089
-1.864649 0.464446 5.782732
-1.808890 0.671879 6.173194
-1.715637 1.048080 6.471909
-1.571858 1.641130 6.774994
-2.160976 -1.003481 0.706552
-2.148485 -0.987043 1.257034
-2.108536 -0.730467 1.637424
-2.051422 -0.365350 2.192770
-2.002986 -0.035025 2.523841
-1.962521 0.266326 2.628655
-1.897095 0.702196 3.145639
-1.849396 1.024857 3.489492
-1.782028 1.515930 3.735894
-1.900501 0.331039 5.476258
-1.899451 0.313580 5.650049
-1.856971 0.575157 6.130675
-1.812515 0.871928 6.477870
-1.726795 1.518468 6.644664
-2.059299 -1.198625 0.706217
-2.048347 -1.180640 1.257369
-2.026772 -0.888227 1.866738
-2.008888 -0.550877 2.195829
-1.991020 -0.216201 2.528984
-1.974820 0.144763 2.724408
-1.953364 0.530132 3.155067
-1.929943 0.996788 3.539967
-1.917195 1.299750 3.658646
-1.932433 0.014307 5.228579
-1.912779 0.246471 5.847126
-1.904606 0.365048 6.063512
-1.882077 0.802302 6.455242
-1.858423 1.366668 6.671388
-1.927890 -1.302497 1.021692
-1.918553 -1.287656 1.572155
-1.928571 -1.030781 1.954118
-1.936127 -0.834382 2.251626
-1.958880 -0.416225 2.530012
-1.979347 -0.055483 2.725446
-1.999048 0.384877 3.245578
-2.021055 0.796682 3.541027
-2.016009 0.862356 4.044037
-1.955035 0.177714 4.852265
-1.915495 -0.206490 5.589484
-1.921087 -0.038239 5.891313
-1.936365 0.311806 6.325191
-1.961846 0.739149 6.490897
-1.776101 -1.583459 0.714580
-1.762415 -1.586490 1.408026
-1.790576 -1.387833 1.702786
-1.834327 -1.077917 2.172282
-1.868649 -0.858410 2.329257
-1.949037 -0.334290 2.786374
-2.013313 0.076126 3.074445
-2.077183 0.484788 3.368170
-2.117935 0.753577 3.627534
-1.872111 -0.492128 5.424256
-1.879546 -0.409088 5.775823
-1.917638 -0.156392 6.031253
-1.990155 0.323924 6.510843
-2.102669 1.015138 6.771592
-1.622487 -1.740877 0.713911
-1.581148 -1.857987 1.235363
-1.618839 -1.685066 1.670215
-1.664521 -1.492404 1.964390
-1.758274 -1.110745 2.378995
-1.873556 -0.651848 2.745700
-1.962671 -0.303442 2.942023
-2.064049 0.097747 3.231995
-2.129495 0.361774 3.488418
-1.794688 -0.766505 5.237460
-1.786705 -0.767425 5.636717
-1.869973 -0.424002 6.066155
-1.977650 -0.008538 6.227525
-2.106478 0.499764 6.575125
-1.349867 -2.137186 0.525620
-1.347350 -2.114849 1.074197
-1.364276 -2.056328 1.336882
-1.536569 -1.571229 1.916991
-1.551471 -1.517979 2.180918
-1.682516 -1.150343 2.596984
-1.855746 -0.681420 2.824019
-2.015406 -0.240416 3.200132
-2.236393 0.357319 3.480975
-1.660063 -1.071963 5.202067
-1.683725 -0.991153 5.550360
-1.817300 -0.611556 6.066501
-1.902357 -0.373721 6.321669
-2.018970 -0.054988 6.532599
-1.121204 -2.301530 0.620150
-1.157482 -2.206369 1.111450
-1.228424 -2.042728 1.545740
-1.321027 -1.831069 2.066938
-1.486121 -1.475683 2.481023
-1.641217 -1.150278 2.671628
-1.856972 -0.699097 2.901772
-2.011320 -0.374828 3.101688
-2.017247 -0.335352 3.743127
-1.683741 -0.986639 4.469292
-1.505382 -1.319922 5.210076
-1.597292 -1.105835 5.821447
-1.724620 -0.830818 6.162568
-1.909568 -0.435969 6.549640
-2.193090 0.151098 6.715444
-0.787560 -2.558403 0.537874
-0.864475 -2.414240 1.114195
-0.967002 -2.238940 1.406861
-1.052927 -2.085264 1.842772
-1.238457 -1.767160 2.397342
-1.381072 -1.529095 2.641502
-1.568359 -1.220973 2.834929
-1.828638 -0.794015 3.068490
-1.904458 -0.656164 3.516527
-1.587691 -1.130398 4.511966
-1.279446 -1.604322 5.129641
-1.344224 -1.484654 5.565798
-1.501966 -1.210930 6.129322
-1.678829 -0.919077 6.336846
-1.949906 -0.478864 6.454377
-0.598137 -2.501851 1.435264
-0.767815 -2.274960 1.671537
-0.952535 -2.021538 2.138259
-1.152419 -1.752728 2.466424
-1.350616 -1.485979 2.798620
-1.632089 -1.110207 3.170609
-1.826658 -0.847864 3.512338
-1.108169 -1.728623 5.123531
-1.184443 -1.616556 5.558646
-1.283362 -1.479334 5.857949
-0.354131 -2.558708 1.411399
-0.524750 -2.365224 1.787784
-0.730517 -2.131582 2.252655
-0.953484 -1.883250 2.580175
-1.211120 -1.595188 2.999300
-1.416212 -1.372104 3.106187
-1.375119 -1.397314 3.794196
-0.961889 -1.819905 4.557723
-0.873405 -1.898758 5.144741
-0.986557 -1.769136 5.441932
-1.162702 -1.567053 5.915428
-1.363991 -1.341631 6.256045
-0.077534 -2.595613 1.381250
-0.309437 -2.381056 1.842519
-0.600678 -2.115814 2.252482
-0.783664 -1.946051 2.635132
-0.987484 -1.761491 2.879238
-1.399748 -1.392558 3.197280
-0.627456 -2.033263 4.627047
-0.699042 -1.956367 5.197910
-0.721992 -1.929802 5.457761
-0.952518 -1.714044 6.015734
0.137146 -2.553438 1.469423
-0.068709 -2.398526 1.846526
-0.271558 -2.245693 2.226098
-0.540386 -2.047178 2.553732
-0.807003 -1.850141 2.885390
-1.254833 -1.524656 3.204209
-0.321902 -2.150255 4.823906
-0.349743 -2.124499 5.084092
-0.495376 -2.009098 5.603739
-0.701310 -1.857076 5.852552
-0.944487 -1.676517 6.191827
0.415640 -2.556427 1.396157
0.217566 -2.430398 1.916170
-0.023271 -2.285657 2.155896
-0.285673 -2.123433 2.626031
-0.449242 -2.022171 2.925496
-0.999748 -1.697438 3.190758
0.101800 -2.301333 4.780326
0.016790 -2.239752 5.349666
-0.246618 -2.079896 5.683444
-0.507586 -1.921371 6.021041
-0.842496 -1.720954 6.314586
0.664415 -2.496651 1.410405
0.582567 -2.449687 1.901322
0.276897 -2.305286 2.225628
0.050522 -2.195413 2.608495
-0.072637 -2.135566 2.820293
-0.216111 -2.061881 3.260118
-0.199104 -2.058344 3.805447
0.642963 -2.405140 5.395374
0.162006 -2.181933 5.710844
-0.104637 -2.059498 5.821914
0.932859 -2.423264 1.381581
0.768358 -2.359864 1.814935
0.554978 -2.278460 2.334780
0.320451 -2.192745 2.715833
0.405556 -2.216542 2.947779
0.096090 -2.106863 3.277069
1.020324 -2.378052 5.149582
0.858360 -2.318302 5.440856
0.451105 -2.179704 5.583469
-0.002317 -2.023895 5.818199
1.300277 -2.369172 0.987415
1.150161 -2.323054 1.561632
0.901415 -2.257679 1.938839
0.873978 -2.243492 2.343226
0.496676 -2.147416 2.754913
0.371414 -2.107050 3.332054
0.855452 -2.206320 4.051203
1.180976 -2.270723 4.657494
0.193728 -2.021987 5.596586
1.442615 -2.224292 1.263792
1.432941 -2.212673 1.807789
1.126484 -2.161651 2.267861
0.770051 -2.108976 2.450212
0.831096 -2.108763 2.907468
0.729141 -2.088108 3.255242
1.687561 -2.177811 5.512496
1.129572 -2.097508 5.683733
0.263826 -1.975680 5.803125
0.147770 -1.955677 6.013342
-0.108975 -1.911247 6.487882
1.774387 -2.056210 1.128444
1.712549 -2.049644 1.391631
1.644412 -2.036042 2.021464
1.475139 -2.023464 2.453788
1.087294 -2.005517 2.863827
1.066389 -1.997408 3.267162
2.083751 -1.878904 0.948059
2.065671 -1.869841 1.494577
1.972131 -1.866850 1.982554
1.661971 -1.878643 2.443821
1.412835 -1.887951 2.823090
1.335616 -1.883866 3.312110
2.362380 -1.653892 1.302578
2.186515 -1.673799 1.731740
2.015287 -1.692950 2.161791
1.796458 -1.724998 2.311997
1.493663 -1.764493 2.775635
1.388322 -1.774684 3.124067
1.812100 -1.662533 5.474739
0.725985 -1.833741 5.579838
0.692834 -1.834065 5.841535
2.495148 -1.391476 1.354696
2.378580 -1.416866 1.701138
2.209321 -1.455129 2.132375
1.964482 -1.515272 2.509303
1.857721 -1.537925 2.857568
1.810012 -1.538893 3.484539
1.874410 -1.512339 3.938108
2.352884 -1.366661 4.650539
2.543656 -1.301812 5.282948
2.162460 -1.401564 5.555010
1.436990 -1.595624 5.855644
1.106039 -1.682928 6.055798
1.112998 -1.673312 6.452120
2.756058 -1.098142 1.483834
2.403564 -1.220597 2.024425
2.218340 -1.284812 2.315064
1.982178 -1.366547 2.692506
2.171019 -1.237722 5.561109
1.862109 -1.355095 5.532347
1.608828 -1.441513 5.999272
1.315627 -1.541222 6.556181
2.791588 -0.845460 1.408807
2.756258 -0.854692 1.810416
2.577274 -0.938008 2.098727
2.121781 -1.153363 2.673494
2.023290 -1.195253 3.021209
1.777277 -1.313025 3.261976
1.937598 -1.219485 3.907338
2.409892 -0.965985 4.754456
2.358208 -0.981807 5.231300
2.157672 -1.074064 5.606449
1.883000 -1.204320 5.934278
1.567007 -1.353314 6.352458
1.384075 -1.441253 6.514015
3.024318 -0.461846 1.142770
2.868688 -0.550918 1.570787
2.766467 -0.608010 1.915652
2.381241 -0.841161 2.403305
2.167133 -0.968375 2.781312
2.191886 -0.945678 3.098089
1.723757 -1.235341 3.404792
2.565671 -0.662622 5.188980
2.417233 -0.750186 5.479557
2.155523 -0.908670 5.806836
1.781119 -1.137609 6.175307
1.524146 -1.292893 6.511633
1.350758 -1.399046 6.676416
3.093054 -0.148628 1.243961
3.088628 -0.147845 1.421375
2.944022 -0.249236 1.848893
2.692170 -0.432630 2.305541
2.489795 -0.579797 2.680924
2.245716 -0.757042 3.144174
1.651134 -1.214046 3.205539
2.582213 -0.456564 4.878986
2.507952 -0.505728 5.221369
2.368243 -0.606549 5.513294
2.190440 -0.734690 5.892038
2.015525 -0.860554 6.272884
1.598060 -1.174728 6.599120
3.141113 0.178998 1.154933
3.048555 0.101698 1.498181
2.855258 -0.068590 1.868747
2.750337 -0.160941 2.073054
2.639382 -0.249559 2.642745
2.514873 -0.354352 3.072887
1.802168 -1.016253 3.108241
2.533257 -0.296176 4.679350
2.486962 -0.326983 5.158313
2.382151 -0.413524 5.585811
2.254603 -0.524653 5.878666
2.055934 -0.697491 6.344860
1.805242 -0.925514 6.544980
1.420114 -1.275176 6.877463
3.264110 0.704190 0.819979
3.111739 0.545846 1.469899
3.029589 0.460281 1.813523
2.843255 0.250464 2.044615
2.741980 0.149162 2.613999
2.322084 -0.300577 3.938676
2.418845 -0.173718 4.442481
2.574330 0.022725 4.994012
2.478173 -0.076691 5.421929
2.362523 -0.202619 5.715071
2.182565 -0.398284 6.181170
1.957746 -0.653706 6.380898
3.126916 0.908425 0.462167
3.068807 0.847001 1.088745
3.028616 0.798924 1.348900
2.803031 0.499274 1.886455
2.650083 0.296400 2.259938
2.709298 0.391633 2.632101
2.479096 0.115971 4.113308
2.484843 0.141293 4.647300
2.476137 0.141819 5.042386
2.439408 0.105670 5.521274
2.227517 -0.178704 5.935955
2.097179 -0.349533 6.317819
1.947540 -0.551771 6.567044
1.669389 -0.934735 6.812163
2.784840 0.795857 0.108862
2.958146 1.132536 0.949049
2.970851 1.172283 1.408286
2.767331 0.829291 1.804193
2.576380 0.513944 2.346169
2.545425 0.469403 2.607707
2.303030 0.097388 4.042401
2.416232 0.317473 4.595707
2.422874 0.349265 5.126454
2.390911 0.311140 5.604119
2.209755 0.008176 6.018208
2.173751 -0.050532 6.140255
1.945694 -0.429164 6.734608
2.721178 1.163951 0.488263
2.791476 1.350326 1.067603
2.743422 1.263853 1.553248
2.690082 1.158846 1.897923
2.524242 0.801265 2.299569
2.449550 0.651861 2.731335
2.293098 0.355726 3.997879
2.416128 0.663042 4.605477
2.341529 0.524034 5.256590
2.322595 0.493098 5.515492
2.185384 0.207450 6.067606
2.058070 -0.065829 6.402573
1.931819 -0.336520 6.741295
1.722349 -0.806428 6.855462
2.575703 1.346156 0.754516
2.609541 1.486317 1.415610
2.565737 1.375749 1.760654
2.472433 1.110593 1.993431
2.340466 0.740080 2.399173
2.254588 0.505803 2.778985
2.223412 0.492045 4.124832
2.318226 0.811248 4.731359
2.213532 0.538842 5.418136
2.180705 0.461107 5.763567
2.115117 0.295622 6.281394
2.030689 0.057995 6.531066
1.875983 -0.389948 6.776445
2.465947 1.724869 1.234674
2.429603 1.586659 1.437611
2.363893 1.337209 1.809800
2.281007 1.010219 2.128723
2.166066 0.549541 2.482845
2.084229 0.227809 2.811373
2.021321 -0.008604 3.197031
1.903659 -0.490951 3.428117
2.201579 0.916067 5.109354
2.168630 0.821994 5.674407
2.105811 0.574418 5.919156
2.018107 0.235252 6.340029
1.950597 -0.013581 6.813338
1.818863 -0.558206 7.016015
2.280947 1.898487 0.640032
2.268353 1.901406 1.327062
2.255652 1.841557 1.588456
2.178502 1.309569 2.018449
2.147047 1.089260 2.170355
2.089037 0.702134 2.582198
2.021600 0.235380 2.946110
1.983003 -0.005517 3.334765
1.981987 0.033079 3.653790
2.087682 1.074388 5.212122
2.052056 0.855190 5.592535
1.990819 0.457021 6.099439
1.971743 0.340861 6.311441
1.919207 -0.001739 6.739370
