1.899210 -0.825566 3.719285
2.057042 -0.895533 6.155236
1.710833 -0.742541 6.025459
1.631877 -0.707675 6.260649
2.956487 -1.045534 2.065586
3.035097 -1.073676 1.915707
2.700166 -0.953772 2.569951
2.692846 -0.951132 2.371256
2.259384 -0.795939 3.045271
2.332356 -0.822061 2.890837
2.107198 -0.741480 3.607327
1.982098 -0.696656 3.420990
2.835490 -1.002488 5.310579
2.598701 -0.917708 5.661115
2.278638 -0.803099 5.981328
2.071466 -0.728872 5.718183
1.820412 -0.638989 6.139823
1.651204 -0.578402 6.341573
1.338968 -0.466598 6.684370
1.031269 -0.356391 6.714441
3.079730 -0.858899 1.955264
3.016373 -0.840970 2.073730
2.731729 -0.760422 2.623397
2.613222 -0.726869 2.643220
2.494649 -0.693297 2.663605
2.413825 -0.670446 3.049355
2.114074 -0.585608 3.458882
2.083340 -0.576953 4.000022
2.871029 -0.800107 5.375475
2.539921 -0.706383 5.691259
2.288137 -0.635077 5.537487
2.020518 -0.559315 5.698029
1.933713 -0.534757 5.933527
1.719108 -0.474020 6.248089
3.334088 -0.685326 1.792879
3.327864 -0.684024 1.804033
3.032319 -0.622159 2.138939
2.799862 -0.573515 2.580720
2.596627 -0.530968 2.763173
2.509092 -0.512651 2.938530
2.212936 -0.450682 3.555609
2.016743 -0.409612 3.747181
2.744057 -0.562040 5.028382
3.009447 -0.617630 5.157340
2.675537 -0.547750 5.723701
2.575353 -0.526745 5.442143
2.190744 -0.446213 5.616574
1.939057 -0.393563 6.296107
1.764231 -0.356968 6.498288
1.668043 -0.336822 6.476279
1.271133 -0.253721 6.731999
3.285491 -0.452561 1.947020
3.192290 -0.439376 2.115857
2.984429 -0.409952 2.291252
2.808871 -0.385117 2.624243
2.549454 -0.348401 2.914387
2.544632 -0.347719 2.924000
2.431166 -0.331669 3.152913
2.241023 -0.304774 3.548688
2.367853 -0.322794 4.223597
2.828158 -0.388088 5.417954
2.710677 -0.371451 5.443741
2.414357 -0.329502 5.652028
2.108614 -0.286246 6.179211
2.125459 -0.288628 6.133355
1.775190 -0.239054 6.523174
1.737961 -0.233765 6.330322
1.277494 -0.168587 6.754675
3.510864 -0.244261 1.792247
3.385904 -0.235135 2.013162
3.323103 -0.230531 1.921118
2.966343 -0.204460 2.363712
2.786839 -0.191334 2.488830
2.551544 -0.174135 2.725123
2.334986 -0.158343 3.384584
2.329997 -0.157978 3.394934
2.452132 -0.166934 3.601958
2.622319 -0.179459 4.424308
2.890901 -0.199126 4.556977
2.927427 -0.201834 4.971098
2.808841 -0.193179 5.251354
2.442727 -0.166418 5.622612
2.352711 -0.159850 5.853151
2.048708 -0.137647 6.383431
1.991648 -0.133460 6.248016
1.620813 -0.106360 6.698970
1.334108 -0.085370 6.612438
3.508037 -0.008764 1.811984
3.177640 -0.006781 2.197080
2.824966 -0.004667 2.643693
2.702703 -0.003923 2.661916
2.502632 -0.002736 3.054496
2.308742 -0.001586 3.450165
2.410816 -0.002191 3.239909
2.288189 -0.001525 4.205576
2.788620 -0.004587 4.312472
2.869175 -0.005105 4.621109
2.771091 -0.004569 5.358277
2.700955 -0.004156 5.529962
2.489912 -0.002867 5.518583
2.399295 -0.002334 5.747242
2.154517 -0.000871 6.107724
1.800682 0.001255 6.496306
1.585707 0.002540 6.812339
1.184247 0.004994 6.751196
3.478643 0.227565 1.850455
3.325258 0.218065 2.123632
3.262569 0.214200 2.030838
2.994480 0.197614 2.312453
2.818019 0.186684 2.645174
2.529421 0.168826 2.989847
2.442914 0.163467 3.163645
2.357608 0.158182 3.338038
2.364133 0.158527 4.026769
2.739817 0.181704 4.407002
2.845656 0.188221 4.660173
2.815667 0.186341 4.979720
2.630415 0.174858 5.423603
2.410881 0.161249 5.980683
2.251528 0.151392 6.120186
2.072590 0.140321 6.317179
2.016236 0.136851 6.180525
1.683709 0.116279 6.516075
1.263672 0.090331 6.508322
3.506200 0.465125 1.963395
3.267642 0.434325 2.188721
3.088442 0.411193 2.310623
2.995854 0.399250 2.272997
2.619549 0.350653 2.777656
2.449919 0.328737 3.116225
2.444850 0.328082 3.126521
2.448455 0.328528 3.345690
2.470122 0.331248 4.239651
2.660215 0.355727 4.794495
2.817286 0.376003 4.681934
2.718946 0.363273 5.165277
2.559446 0.342660 5.556915
2.490664 0.333771 5.731396
2.372963 0.318581 5.760148
1.935293 0.262058 6.366993
1.685028 0.229758 6.479373
3.479146 0.705517 1.940397
3.446351 0.699001 1.797180
3.121737 0.634324 2.391647
3.114899 0.632979 2.195413
2.768117 0.563902 2.643693
2.537409 0.517951 2.881716
2.176694 0.446093 3.399934
2.144923 0.439763 3.467556
2.391882 0.488893 3.871298
2.520245 0.514368 4.800827
2.604461 0.531107 5.109533
2.758677 0.561819 4.994949
2.469408 0.504168 5.712556
2.402781 0.490889 5.886605
2.286889 0.467814 5.915227
2.109426 0.432467 6.110981
1.796945 0.370206 6.702233
1.608246 0.332644 6.646669
3.305435 0.929330 2.147410
2.962797 0.834333 2.380268
2.707439 0.763524 2.666536
2.757080 0.777293 2.568262
2.476999 0.699625 2.912892
2.201484 0.623224 3.263437
2.180860 0.617483 3.538309
2.554152 0.720840 4.863864
2.704705 0.762560 5.007008
2.678384 0.755258 5.071154
2.522067 0.711894 5.461968
2.454682 0.693200 5.635970
2.196664 0.621643 6.050140
1.873823 0.532124 6.381003
1.669387 0.475455 6.380193
3.329104 1.184826 1.969146
3.211906 1.143566 2.190956
2.903468 1.035017 2.372106
2.787507 0.994211 2.389573
2.567850 0.916879 2.833538
2.504894 0.894734 2.744650
2.130211 0.762839 3.315528
2.085287 0.747002 3.647177
2.543540 0.908151 4.755591
2.689809 0.959607 4.900678
2.641409 0.942566 5.020128
2.529373 0.903117 5.302913
2.358961 0.843112 5.751312
2.246639 0.803586 5.781234
1.907355 0.684164 6.165681
1.536435 0.553600 6.673258
3.226454 1.374901 2.016008
2.870355 1.224640 2.301429
2.598718 1.110009 2.642002
2.593423 1.107774 2.652998
2.218509 0.949569 3.009789
2.130929 0.912623 2.976301
1.972365 0.845651 3.794922
2.513089 1.073695 4.682319
2.549390 1.088995 4.842124
2.398961 1.025471 5.490757
2.354308 1.006621 5.611388
2.192970 0.938513 6.061981
2.102807 0.900477 6.038040
1.887895 0.809803 6.090420
1.488201 0.641120 6.710278
3.152051 1.627957 1.944503
3.173448 1.638916 1.902232
2.907143 1.502563 2.025646
2.693200 1.393007 2.254960
2.481108 1.284399 2.487983
2.092109 1.085202 2.899111
1.732884 0.901253 3.266461
1.794372 0.932703 3.587080
2.286693 1.184644 4.793565
2.527792 1.308068 4.923069
2.282392 1.182366 5.586389
2.337437 1.210563 5.433192
2.255409 1.168545 5.662487
2.073315 1.075293 5.911776
1.791557 0.931014 6.185546
1.476986 0.769924 6.579351
2.761575 1.674371 2.102959
2.656443 1.611166 2.326927
2.451012 1.487704 2.350141
2.220585 1.349214 2.429946
1.773765 1.080625 3.012286
1.575431 0.961406 3.259600
1.848761 1.125669 3.288835
2.052394 1.247983 3.955968
2.290000 1.390720 4.556120
2.341434 1.421596 4.918674
2.203433 1.338595 5.567165
2.275665 1.382026 5.359504
2.116519 1.286363 5.551382
1.823621 1.110304 5.876218
1.643358 1.001914 6.445837
1.376913 0.841757 6.729570
0.982679 0.604818 6.842327
2.767163 1.945483 1.830071
2.472855 1.740137 2.481473
2.252441 1.586392 2.561721
2.055222 1.448830 2.590257
1.742730 1.230837 2.898267
1.618907 1.144463 2.977677
1.598303 1.130063 3.257706
2.170547 1.529059 4.610811
2.126295 1.498155 4.987487
2.105029 1.483289 5.308909
2.101788 1.481028 5.318521
1.860372 1.312593 5.786207
1.736712 1.226300 6.184429
1.529367 1.081667 6.293356
1.305832 0.925736 6.462119
0.895670 0.639628 6.686167
2.696035 2.178266 1.885666
2.738996 2.212729 1.789164
2.550468 2.061515 2.013189
2.272161 1.838303 2.247029
1.976149 1.600862 2.752917
1.877847 1.522050 2.560773
1.538124 1.249565 2.979426
1.336848 1.088119 3.282825
1.432770 1.165021 3.490630
1.824198 1.478862 4.072872
1.934465 1.567218 4.739771
1.878262 1.522071 5.430574
2.035140 1.647903 5.203701
1.944803 1.575427 5.486444
1.784275 1.446666 5.734140
1.593031 1.293259 6.096743
1.379610 1.122089 6.261751
2.531044 2.342742 1.915958
2.441059 2.260060 1.928991
2.263832 2.097192 2.156302
2.109145 1.955066 2.123627
1.783226 1.655555 2.529832
1.693129 1.572770 2.548675
1.544791 1.436428 2.946759
1.228620 1.145872 3.374995
1.358396 1.265102 3.470193
1.708853 1.587038 4.108444
1.813494 1.683108 4.775573
1.793828 1.664972 5.356896
1.826510 1.694983 5.513868
1.627980 1.512520 5.928359
1.540869 1.432477 5.958205
1.446768 1.345974 6.303105
1.188158 1.108312 6.697419
2.403545 2.547023 1.822472
2.360251 2.501486 1.730967
2.070806 2.196904 2.279081
1.965683 2.086325 2.140934
1.621224 1.723869 2.659312
1.497674 1.593870 2.791442
1.374548 1.464318 2.925449
1.158576 1.237050 3.343591
0.974895 1.043793 3.441142
1.591687 1.692522 4.873915
1.683979 1.789594 5.071028
1.667026 1.771719 5.393187
1.529655 1.627133 5.899341
1.498192 1.594017 6.019608
1.416877 1.508465 6.049443
1.242366 1.324856 6.157588
0.975171 1.043726 6.349304
0.537521 0.583253 6.659537
2.176909 2.647279 1.751594
2.079508 2.529711 1.817596
1.850379 2.253128 2.051092
1.530696 1.867212 2.566147
1.359597 1.660689 2.650761
1.245545 1.523015 2.783190
1.118718 1.369789 3.898401
1.413321 1.725276 4.583854
1.540984 1.879322 4.877955
1.509127 1.840821 5.256721
1.439525 1.756741 5.800690
1.369806 1.672554 6.087964
1.247891 1.525414 6.027957
1.068491 1.308820 6.510768
0.971452 1.191720 6.340813
0.601861 0.745574 6.797158
1.862405 2.604697 1.946725
1.738475 2.432784 2.123139
1.632418 2.285698 2.037886
1.440033 2.018838 2.226419
1.266824 1.778550 2.577603
1.178233 1.655665 2.654716
1.057830 1.488507 3.772216
1.297335 1.820578 4.571729
1.427761 2.001441 4.812041
1.371266 1.923013 5.301940
1.253212 1.759201 5.811265
1.201315 1.687188 6.045085
1.095715 1.540694 6.245505
1.014546 1.428101 6.335396
0.776593 1.098031 6.588907
0.509425 0.727506 6.379780
1.578363 2.556512 2.096890
1.374043 2.228611 2.392404
1.231571 1.999985 2.475559
1.196720 1.944076 2.385564
0.996834 1.623252 2.909135
0.961154 1.565865 3.747805
1.116090 1.814348 4.563366
1.160409 1.885370 5.135736
1.135858 1.845915 5.517397
1.125542 1.829308 5.842756
1.067791 1.736595 6.132512
1.005072 1.635949 6.165023
0.828410 1.352420 6.504069
0.684681 1.121762 6.678813
0.390784 0.650158 6.763926
1.569679 2.992784 1.835652
1.485616 2.833970 1.747063
1.234585 2.359566 2.307830
1.150094 2.199906 2.435628
1.024284 1.962183 2.519501
0.913849 1.753481 2.763505
0.885249 1.699422 2.886333
0.824881 1.585141 4.101582
1.011171 1.937013 4.688530
1.040442 1.992253 5.054323
1.007883 1.930657 5.490921
0.925171 1.774295 5.947508
0.830776 1.595898 6.204255
0.765840 1.473192 6.294116
0.656925 1.267395 6.351761
1.298385 2.985644 1.648874
1.128613 2.599248 2.201351
1.020094 2.352318 2.281096
0.888377 2.052584 2.474671
0.827260 1.913509 2.551388
0.709838 1.646264 2.910429
0.611292 1.421783 4.148132
0.754357 1.747205 4.584861
0.825660 1.909312 5.198168
0.897857 2.073616 5.025335
0.770786 1.784325 5.816679
0.760476 1.760853 5.884155
0.670631 1.556363 6.198984
0.544321 1.268910 6.485232
0.444937 1.042827 6.282712
0.211062 0.510595 6.750510
1.144508 3.135160 1.707281
1.019356 2.796264 1.941038
0.905036 2.486706 2.127496
0.851990 2.343070 2.201341
0.718287 1.981006 2.507418
0.626506 1.732441 2.810308
0.476837 1.326943 3.964740
0.597688 1.653966 4.668841
0.715673 1.973282 5.152010
0.738412 2.034819 5.255887
0.698372 1.926343 5.544836
0.681828 1.881522 5.667071
0.582008 1.611151 6.148592
0.508387 1.411829 6.147662
0.339257 0.953803 6.634980
0.172829 0.503169 6.813319
0.921138 3.250875 1.836686
0.912333 3.220281 1.690717
0.812810 2.873919 1.922336
0.730072 2.585924 2.262943
0.655771 2.327368 2.343197
0.573522 2.041135 2.482185
0.516074 1.841186 2.670463
0.359421 1.295812 3.622579
0.559112 1.990312 4.709409
0.539118 1.920528 5.410231
0.582190 2.070432 5.290196
0.538408 1.917968 5.690671
0.476221 1.701492 6.002484
0.372351 1.339934 6.456595
0.271110 0.987617 6.600044
0.138412 0.525837 6.777291
0.697369 3.295793 1.854469
0.690527 3.264107 1.709352
0.626745 2.968019 2.044228
0.563722 2.675536 2.174995
0.476528 2.270808 2.530548
0.419880 2.007925 2.616761
0.369171 1.772620 2.649715
0.262985 1.279487 3.707341
0.401493 1.921770 4.698610
0.390856 1.872153 5.346497
0.418947 2.002523 5.282734
0.390041 1.868260 5.629573
0.336040 1.617412 6.317587
0.282755 1.370121 6.432888
0.218017 1.069744 6.402972
0.129106 0.657197 6.399947
0.482034 3.378301 1.777599
0.451257 3.168074 1.950265
0.374268 2.642101 2.511429
0.327238 2.320896 2.703482
0.279564 1.995408 2.688770
0.248842 1.785668 2.665124
0.217705 1.572265 4.058373
0.272115 1.943373 4.700798
0.284750 2.029461 5.010204
0.265186 1.895532 5.615541
0.267881 1.913961 5.567767
0.238224 1.711328 5.821760
0.192298 1.397604 6.101976
0.135286 1.008054 6.620913
0.085723 0.669797 6.383861
0.251706 3.437437 1.919875
0.224369 3.081502 2.358714
0.203857 2.814727 2.434658
0.187731 2.605085 2.404346
0.156333 2.196435 2.761953
0.124717 1.785180 2.917037
0.106347 1.546295 2.951868
0.104732 1.524196 3.946122
0.122611 1.755863 4.665312
0.123984 1.773183 5.146155
0.137921 1.954308 5.230407
0.132903 1.888580 5.669053
0.120525 1.727472 5.811603
0.089923 1.329024 6.321795
0.076766 1.158074 6.206858
0.018351 3.648488 2.378461
0.017560 3.555619 2.339789
0.016022 3.375126 2.252943
0.012363 2.910726 5.544873
0.012695 2.950834 5.446964
0.011508 2.810028 5.527035
0.008910 2.498554 6.045504
0.007064 2.277799 6.351190
0.005250 2.060733 6.661097
-0.219826 3.646310 2.164874
-0.214555 3.553490 2.126215
-0.202618 3.343677 2.299077
-0.180756 2.959061 2.380110
-0.142544 2.287239 2.806195
-0.123866 1.958533 2.793254
-0.106746 1.657149 2.726463
-0.101074 1.558332 3.391864
-0.096707 1.482078 3.796894
-0.096744 1.483469 4.287929
-0.111806 1.749109 4.682958
-0.106334 1.653960 5.447906
-0.105177 1.634097 5.777976
-0.108643 1.694860 5.618625
-0.093381 1.426908 6.049246
-0.072026 1.051804 6.511640
-0.522557 3.870499 2.124141
-0.510424 3.778364 2.085273
-0.486767 3.598975 2.408933
-0.459335 3.390706 2.376040
-0.382600 2.808321 2.625934
-0.328097 2.394512 2.561418
-0.254929 1.839192 2.781079
-0.197228 1.401291 3.001081
-0.210736 1.504153 3.483497
-0.209399 1.494327 3.988415
-0.219549 1.571589 4.308140
-0.238852 1.718570 4.985327
-0.244309 1.760103 5.147478
-0.226872 1.628126 5.761138
-0.194750 1.384514 6.136852
-0.190130 1.349311 5.942365
-0.155698 1.088199 6.381257
-0.306427 1.508023 2.974773
-0.272330 1.332985 3.115172
-0.251020 1.223975 4.081129
-0.327232 1.615615 4.672832
-0.335123 1.656445 5.364929
-0.356251 1.764947 5.357402
-0.326108 1.610328 5.763354
-0.287172 1.410495 6.023342
-0.230709 1.120635 6.253355
-0.164213 0.779191 6.339361
-0.075762 0.325010 6.457284
-0.381766 1.374783 2.748240
-0.286467 1.019914 4.016644
-0.396013 1.428485 4.551955
-0.454114 1.645168 4.792472
-0.434991 1.574024 5.237478
-0.417826 1.510178 5.682124
-0.383668 1.382949 6.034953
-0.301853 1.078030 6.323380
-0.262611 0.931676 6.151698
-0.352715 0.976717 3.815935
-0.389779 1.083537 4.564950
-0.517210 1.450159 4.673599
-0.530964 1.489905 5.367031
-0.545486 1.531723 5.528548
-0.515451 1.445381 5.767494
-0.455316 1.272436 5.972825
-0.344596 0.954008 6.321157
-0.210643 0.568723 6.587247
-0.034068 0.060761 6.621264
-0.485543 1.111445 3.915957
-0.539078 1.237712 4.870174
-0.627851 1.446797 5.108173
-0.627077 1.445035 5.383465
-0.593814 1.366819 5.885719
-0.539038 1.237858 5.976409
-0.447609 1.022579 6.034234
-0.324057 0.731714 6.327925
-1.916806 3.747866 2.811012
-1.892012 3.699087 3.123141
-0.538283 1.032868 4.533357
-0.703443 1.358218 4.697625
-0.660726 1.274222 5.466945
-0.694397 1.340613 5.833373
-0.650339 1.253827 5.808138
-0.544479 1.045321 5.863336
-0.379595 0.720680 6.595734
-0.243013 0.451584 6.241356
0.027938 -0.082078 6.450471
-0.721839 1.189034 4.257123
-0.798573 1.318084 4.670041
-0.738596 1.217406 5.496428
-0.681043 1.120714 5.792847
-0.690143 1.136003 5.745299
-0.554087 0.907378 6.182427
-0.393532 0.637548 6.476731
-0.215955 0.339072 6.568432
0.028400 -0.071690 6.421179
-0.701984 0.994537 3.184003
-0.588891 0.830901 4.110944
-0.778417 1.105435 4.603875
-0.827579 1.176676 4.917839
-0.827778 1.177044 5.457567
-0.715492 1.014517 5.982458
-0.636521 0.900169 6.072442
-0.515946 0.725559 6.071735
-0.302916 0.417132 6.544005
-0.750360 0.922251 3.010310
-0.574132 0.701010 3.621725
-0.668868 0.820112 4.528705
-0.822867 1.013580 4.979593
-0.907261 1.119598 5.178963
-0.865612 1.067352 5.626123
-0.744229 0.914979 6.154076
-0.657628 0.806229 6.246773
-0.450078 0.545616 6.601028
-0.246075 0.289415 6.635307
0.088804 -0.131155 6.671431
-2.586163 2.805253 2.080400
-2.617004 2.838945 2.202688
-0.720608 0.768305 3.062809
-0.645340 0.686239 4.035765
-0.788366 0.842514 4.821569
-0.941503 1.009760 5.060893
-1.001017 1.074751 5.109791
-0.803917 0.859626 5.867846
-0.815394 0.872152 5.821858
-0.642603 0.683489 5.938732
-0.414392 0.434342 6.294299
-0.138416 0.133027 6.567101
0.160997 -0.193904 6.636517
-2.580712 2.454825 2.328708
-2.618468 2.490984 2.234427
-2.446396 2.326170 2.460321
-2.232423 2.121203 2.589627
-1.765195 1.673627 2.749812
-1.439440 1.361536 2.533841
-1.033901 0.973065 2.762538
-0.819316 0.767516 2.917096
-0.698217 0.651633 4.005742
-0.867813 0.814189 4.733380
-1.015166 0.955352 4.763177
-1.028813 0.968484 5.249772
-0.945221 0.888439 5.547454
-0.864068 0.810732 5.846427
-0.575339 0.534197 6.371851
-0.392438 0.358997 6.495249
-0.127071 0.104799 6.650412
0.150254 -0.160885 6.537936
-2.724180 2.231131 1.788958
-2.786837 2.282832 1.848326
-2.555439 2.091981 2.385682
-2.416976 1.977759 2.507867
-2.166964 1.771514 2.693624
-1.845306 1.506131 2.629170
-1.435652 1.168173 2.792944
-1.155377 0.936922 2.625303
-0.798045 0.642169 3.124467
-0.672187 0.538398 3.722275
-0.923938 0.746154 4.223649
-0.948206 0.766253 4.926599
-1.054454 0.853962 5.392738
-0.983302 0.795286 5.633033
-0.833065 0.671395 6.163406
-0.684783 0.549052 6.107075
-0.410820 0.323072 6.522743
-0.157891 0.114403 6.557980
0.153323 -0.142363 6.504468
-2.556520 1.823852 2.057443
-2.361480 1.683546 2.288752
-1.954742 1.390934 2.595820
-1.661542 1.179961 2.423545
-1.370061 0.970248 2.466975
-0.986060 0.693991 2.744952
-0.485212 0.333698 3.352294
-0.911665 0.640691 4.919145
-1.058475 0.746329 5.005405
-0.965774 0.679691 5.571694
-0.916663 0.644403 6.022482
-0.769626 0.538633 6.232655
-0.486683 0.335067 6.321723
-0.296947 0.198560 6.387506
-2.591876 1.596068 2.025361
-2.662611 1.640017 1.875754
-2.233331 1.373258 2.385581
-1.953665 1.199436 2.367201
-1.624405 0.994800 2.463845
-1.246698 0.760066 2.680600
-0.946653 0.573607 2.950097
-0.526128 0.312297 3.544951
-0.961227 0.582859 4.894737
-1.075485 0.653894 5.096389
-1.035905 0.629333 5.490122
-1.013402 0.615354 5.559520
-0.838149 0.506455 5.825959
-0.567444 0.338234 6.121216
-0.232140 0.129886 6.661842
-2.504425 1.318318 1.998757
-2.344601 1.233267 1.912947
-1.975615 1.036962 2.268663
-1.582388 0.827744 2.477122
-1.420120 0.741393 2.397372
-1.106076 0.574314 2.662121
-0.947490 0.489944 2.802749
-0.722412 0.370326 4.340687
-1.061753 0.550928 4.718280
-0.995795 0.515875 5.171110
-1.176258 0.611902 5.197983
-0.958597 0.496146 5.843458
-0.910103 0.470328 5.703835
-0.554537 0.281181 6.232340
-0.348138 0.171361 6.296885
0.047151 -0.038935 6.693333
0.453102 -0.254963 6.490315
-2.639527 1.171656 1.689166
-2.282692 1.011414 1.983622
-2.143202 0.948770 2.056511
-1.735403 0.765629 2.261015
-1.462370 0.643013 2.406248
-1.138048 0.497371 2.670893
-0.848329 0.367286 3.102005
-0.782242 0.337663 3.743044
-0.946502 0.411518 4.591708
-1.088204 0.475201 5.005222
-1.168920 0.511458 5.053240
-1.046085 0.456346 5.676843
-1.022671 0.445836 5.745522
-0.693580 0.298066 6.154419
-0.370149 0.152838 6.573074
-0.139830 0.049405 6.701000
0.281190 -0.139681 6.831393
-2.581079 0.943237 1.734203
-2.409131 0.879513 1.859092
-2.211370 0.806206 1.827909
-1.956286 0.711682 2.123343
-1.429601 0.516496 2.560046
-1.230219 0.442590 2.538336
-1.008767 0.360528 2.793239
-0.434245 0.147671 3.893957
-1.018643 0.364388 4.999890
-1.083040 0.388292 5.371671
-1.125647 0.404099 5.532248
-1.020756 0.365247 5.830558
-0.889651 0.316659 5.921669
-0.611912 0.213731 6.156630
-0.335985 0.111476 6.397039
-2.360649 0.681663 2.056955
-2.273355 0.655947 1.805290
-1.787406 0.512964 2.333021
-1.584461 0.453228 2.307146
-1.325652 0.377060 2.396711
-1.044261 0.294270 2.764945
-0.416920 0.109707 3.706481
-1.052124 0.296780 4.971607
-1.226656 0.348157 5.055262
-1.098101 0.310374 5.677294
-1.032960 0.291218 5.860209
-0.799298 0.222477 6.243347
-0.537061 0.145309 6.422747
-0.275845 0.068440 6.606342
-2.654683 0.562343 1.591081
-2.356476 0.497749 1.936597
-2.178801 0.459238 1.852305
-1.912575 0.401571 2.150795
-1.562553 0.325740 2.408911
-1.242453 0.256390 2.616707
-1.121529 0.230186 2.641757
-1.069426 0.219098 4.975453
-1.246366 0.257450 5.061329
-1.243991 0.256959 5.339625
-1.110498 0.228061 5.697168
-0.828944 0.167089 6.197896
-0.681173 0.135051 6.025635
-0.332802 0.059592 6.444254
-2.656013 0.398070 1.437292
-2.176817 0.323978 1.900188
-2.025318 0.300547 1.974479
-1.641283 0.241163 2.285887
-1.232735 0.177992 2.663695
-1.110938 0.159152 2.688061
-0.886999 0.124549 3.163505
-0.741334 0.102084 3.979767
-1.116921 0.160221 4.362209
-1.197438 0.172727 4.949568
-1.171938 0.168811 5.285496
-1.036575 0.147901 5.643304
-0.905994 0.127731 6.002927
-0.613510 0.082504 6.240169
-0.362621 0.043701 6.363795
0.059596 -0.021588 6.700415
0.478119 -0.086333 6.711723
-2.676600 0.202218 1.439844
-2.522538 0.189853 1.510111
-2.069364 0.153517 2.135977
-1.858057 0.136547 2.109411
-1.500832 0.107884 2.368131
-1.202640 0.083953 2.518623
-1.056562 0.072248 2.818602
-0.913878 0.060817 3.120220
-0.948175 0.063647 4.016658
-1.019913 0.069481 4.879924
-1.339318 0.095129 4.888099
-1.130230 0.078385 5.417283
-1.067631 0.073397 5.868586
-0.948877 0.063864 5.903245
-0.632357 0.038473 6.198503
-0.338860 0.014926 6.440997
-2.590416 0.020159 1.402397
-2.399887 0.017773 1.743520
-2.157317 0.014701 1.770353
-1.648101 0.008292 2.306924
-1.581902 0.007445 2.216911
-1.309971 0.004007 2.309993
-0.874250 -0.001459 2.973756
-0.876841 -0.001407 3.204086
-0.911707 -0.000889 4.105877
-1.267880 0.003663 4.545902
-1.146177 0.002192 5.382958
-1.190398 0.002766 5.546897
-1.049624 0.000989 5.636506
-0.866213 -0.001318 5.843939
-0.561523 -0.005132 6.407516
-0.389228 -0.007325 6.293170
-2.504935 -0.149301 1.546287
-2.376804 -0.142293 1.777946
-1.986724 -0.120992 2.082115
-1.657866 -0.103038 2.281681
-1.330263 -0.085153 2.486975
-1.178552 -0.076872 2.568204
-0.915046 -0.062473 2.883279
-0.473425 -0.038304 3.856213
-0.661687 -0.048522 4.436507
-1.070030 -0.070744 5.023657
-1.251324 -0.080625 5.108305
-1.249747 -0.080515 5.385706
-1.042401 -0.069184 5.649649
-0.713169 -0.051175 6.268596
-0.656174 -0.048078 6.128803
-0.207007 -0.023547 6.517529
0.255004 0.001663 6.645787
-2.421769 -0.310929 1.462631
-2.176719 -0.280738 1.701784
-1.816401 -0.236336 2.169414
-1.663653 -0.217541 2.032058
-1.452631 -0.191544 2.225348
-1.068756 -0.144254 2.550219
-0.868110 -0.119515 2.969422
-0.729202 -0.102324 4.007501
-1.130608 -0.151717 4.333072
-1.187207 -0.158630 4.979530
-1.095115 -0.147248 5.490281
-1.090578 -0.146688 5.502266
-0.935996 -0.127621 5.920759
-0.723994 -0.101519 5.923295
-0.428921 -0.065169 6.163930
-0.021798 -0.015021 6.438551
0.552586 0.055710 6.600528
-2.378118 -0.469678 1.493992
-1.961411 -0.389607 1.851777
-1.839946 -0.366275 1.870950
-1.430402 -0.287560 2.458631
-1.249703 -0.252859 2.379370
-0.960714 -0.197318 2.750676
-0.962325 -0.197608 2.978976
-0.603423 -0.128623 3.533436
-0.136176 -0.038868 3.620608
-1.128436 -0.229377 4.564950
-1.168003 -0.236917 5.265660
-1.119787 -0.227645 5.391989
-1.050589 -0.214337 5.576485
-0.786168 -0.163510 6.018912
-0.528974 -0.114070 6.467764
-0.339186 -0.077621 6.414945
0.134992 0.013474 6.600870
-2.511876 -0.692289 1.375936
-2.417327 -0.666709 1.549500
-2.210077 -0.610657 1.730757
-1.890033 -0.524107 1.923496
-1.571095 -0.437855 2.121961
-1.283979 -0.360193 2.485855
-1.134336 -0.319745 2.348700
-0.803266 -0.230168 3.055926
-0.733625 -0.211283 3.696105
-1.000980 -0.283515 4.313608
-1.259472 -0.353372 4.709249
-1.187594 -0.333898 5.159366
-1.011682 -0.286293 5.631748
-0.925018 -0.262840 5.874139
-0.709608 -0.204569 6.201170
-0.523950 -0.154376 6.145250
-0.148016 -0.052712 6.355724
0.485935 0.118730 6.757273
-2.138198 -0.750110 1.780030
-1.964932 -0.690397 1.908663
-1.793408 -0.631305 1.823770
-1.425735 -0.504571 2.352989
-1.224931 -0.435384 2.329742
-0.946367 -0.339368 2.699812
-0.758380 -0.274558 3.118088
-0.792273 -0.286155 4.014232
-1.128984 -0.402134 4.453091
-1.098446 -0.391557 5.058442
-1.096764 -0.390953 5.336015
-1.050991 -0.375170 5.461570
-0.774956 -0.280014 5.960389
-0.603675 -0.220978 6.171812
-0.268976 -0.105617 6.591890
0.130853 0.032150 6.598030
-2.146116 -0.918838 1.655005
-1.948814 -0.835611 1.838587
-1.589456 -0.684026 2.147483
-1.422000 -0.613390 2.281792
-1.226256 -0.530839 2.258189
-0.901765 -0.393942 2.743862
-0.694125 -0.306328 3.221306
-0.689747 -0.304480 3.231615
-0.275952 -0.129964 3.252161
-1.080044 -0.468944 4.763815
-1.225572 -0.530306 4.906028
-1.053816 -0.457826 5.375734
-0.889788 -0.388605 5.848682
-0.761055 -0.334304 5.940283
-0.594282 -0.263950 6.150650
-0.180601 -0.089447 6.538103
0.103068 0.030186 6.513814
-2.218914 -1.129660 1.377037
-1.943977 -0.991413 1.724774
-1.727953 -0.882813 1.751008
-1.353026 -0.694277 2.336516
-1.215158 -0.624982 2.198824
-0.899435 -0.466218 2.683927
-0.819856 -0.426195 2.868934
-0.707367 -0.369527 4.117078
-1.045392 -0.539395 4.766521
-1.124274 -0.579045 4.814798
-0.959741 -0.496262 5.554754
-0.975867 -0.504373 5.507242
-0.753329 -0.392464 5.890041
-0.628150 -0.329527 5.983856
-0.309114 -0.169104 6.401922
0.104566 0.038870 6.526583
-2.074440 -1.240854 1.712129
-1.890033 -1.131836 1.896070
-1.759411 -1.054642 1.756173
-1.422179 -0.855280 2.067026
-1.239672 -0.747384 2.259932
-0.931910 -0.565445 2.526685
-0.752178 -0.459189 2.726815
-0.558348 -0.344499 3.941198
-0.980872 -0.594183 4.576237
-1.115263 -0.673606 4.721816
-0.973318 -0.589637 5.404183
-0.937327 -0.568324 5.797979
-0.761927 -0.464622 6.065809
-0.695373 -0.425292 5.985073
-0.422612 -0.264037 6.283439
-2.012107 -1.392275 1.453399
-1.905613 -1.319375 1.685420
-1.753010 -1.214932 1.815542
-1.357666 -0.944342 2.295851
-1.183804 -0.825344 2.490321
-0.936968 -0.656414 2.643563
-0.742152 -0.523070 2.902638
-0.760963 -0.535948 2.854821
-0.568508 -0.404220 3.115337
-0.302270 -0.221955 3.835529
-0.967693 -0.677195 5.021003
-1.003119 -0.701421 5.183672
-0.966194 -0.676112 5.576204
-0.796479 -0.559946 5.841410
-0.646100 -0.457017 6.051393
-0.447024 -0.320745 6.440982
-0.226258 -0.169685 6.295756
0.300294 0.190680 6.632581
-2.036272 -1.623985 1.377643
-1.842599 -1.471035 1.612975
-1.674214 -1.338059 1.796418
-1.275878 -1.023477 2.331294
-1.154915 -0.927979 2.193462
-0.896734 -0.724098 2.400588
-0.732481 -0.594383 2.598814
-0.973691 -0.784654 4.330637
-1.001314 -0.806418 4.763574
-0.998814 -0.804385 5.308398
-0.925911 -0.746795 5.549151
-0.730934 -0.592801 5.930541
-0.540261 -0.442204 6.317253
-0.357177 -0.297635 6.381103
-0.115471 -0.106787 6.355256
-1.910531 -1.765910 1.382763
-1.727835 -1.598659 1.619870
-1.502646 -1.392501 1.972298
-1.280173 -1.188852 2.115479
-1.015267 -0.946351 2.377468
-0.860210 -0.804403 2.574968
-0.660518 -0.621612 2.673483
-0.492681 -0.467934 3.154381
-0.294432 -0.286462 3.260884
-0.867791 -0.811093 4.738564
-1.000572 -0.932619 4.826727
-0.913360 -0.852728 5.392902
-0.797148 -0.746311 5.809290
-0.646702 -0.608574 6.078118
-0.498476 -0.472870 6.349402
-0.356029 -0.342493 6.295930
0.000740 -0.015918 6.478568
-1.809253 -1.888078 1.359300
-1.573863 -1.644755 1.760790
-1.425180 -1.491070 1.946136
-1.277305 -1.338219 2.134459
-1.008125 -1.059985 2.451046
-0.800294 -0.845174 2.602937
-0.694617 -0.735948 2.686196
-0.473760 -0.507641 3.122225
-0.261684 -0.288469 3.067029
-0.910690 -0.959047 4.416592
-0.983925 -1.034671 4.944191
-0.823405 -0.868703 5.529770
-0.840107 -0.885938 5.749329
-0.772033 -0.815586 5.725634
-0.520882 -0.555974 6.134719
-0.343909 -0.373059 6.257077
0.033937 0.017487 6.619955
-1.651380 -1.998256 1.399195
-1.392746 -1.688323 1.922739
-1.313486 -1.593361 1.941777
-1.121072 -1.362787 2.298898
-0.910888 -1.110943 2.503270
-0.701558 -0.860123 2.713376
-0.640470 -0.786938 2.680750
-0.495091 -0.612700 3.158575
-0.264989 -0.337012 3.221451
-0.792989 -0.969417 4.582769
-0.892201 -1.088225 4.994915
-0.801819 -0.979894 5.350187
-0.742382 -0.908652 5.591764
-0.739702 -0.905439 5.602816
-0.554097 -0.683005 6.102058
-0.326407 -0.410159 6.518121
-0.068097 -0.100692 6.462354
-1.445407 -2.013547 1.601357
-1.335733 -1.862350 1.942036
-1.245829 -1.738438 2.015873
-1.156002 -1.614630 2.090859
-0.944779 -1.323526 2.131271
-0.751323 -1.056884 2.336251
-0.545240 -0.772798 2.823421
-0.440307 -0.628164 2.966525
-0.181131 -0.270943 3.206057
-0.816210 -1.145999 4.473636
-0.811039 -1.138795 5.017496
-0.715658 -1.007285 5.428894
-0.674736 -0.950863 5.611388
-0.634556 -0.895461 5.794360
-0.515268 -0.731025 6.060339
-0.378155 -0.542053 6.120296
-0.117917 -0.183396 6.176526
-1.381746 -2.231014 1.343096
-1.265080 -2.044595 1.735563
-1.167956 -1.889434 1.862267
-1.008559 -1.634767 2.214750
-0.850032 -1.381521 2.357892
-0.598890 -0.980318 2.633855
-0.456118 -0.752246 2.730008
-0.322341 -0.538472 3.267294
-0.277514 -0.466839 3.453807
-0.784264 -1.276123 4.515409
-0.780036 -1.269283 5.057402
-0.741747 -1.208094 5.237928
-0.611834 -1.000474 5.879348
-0.576556 -0.944094 6.062040
-0.430960 -0.711500 6.237178
-0.296581 -0.496831 6.357459
-0.022155 -0.058483 6.325433
-1.278918 -2.411932 1.359532
-1.191297 -2.248503 1.483586
-1.031984 -1.951282 2.099765
-0.932013 -1.764846 2.071844
-0.750630 -1.426483 2.599882
-0.621392 -1.185485 2.475992
-0.480367 -0.922453 2.628591
-0.317139 -0.617953 3.121766
-0.216140 -0.429600 3.107474
-0.701608 -1.334721 4.491800
-0.675711 -1.286306 5.149054
-0.620623 -1.183517 5.445615
-0.597916 -1.141147 5.570803
-0.575490 -1.099301 5.696219
-0.498930 -0.956494 5.845043
-0.348704 -0.676280 6.137467
-0.119947 -0.249628 6.313009
-1.048524 -2.345368 1.644469
-1.084183 -2.424119 1.490486
-0.884427 -1.983002 2.167864
-0.882389 -1.978544 1.964182
-0.722127 -1.624688 2.273107
-0.588605 -1.329842 2.692426
-0.489196 -1.110381 2.729412
-0.310042 -0.714791 3.177113
-0.233129 -0.545014 3.103659
-0.591033 -1.334860 4.349917
-0.653581 -1.472857 4.761269
-0.623208 -1.405714 5.206635
-0.612302 -1.381625 5.273176
-0.502863 -1.139885 5.970311
-0.471371 -1.070381 5.887919
-0.298726 -0.689132 6.471232
-0.862720 -2.397595 1.477384
-0.869775 -2.416857 1.645323
-0.836768 -2.326496 1.819350
-0.743745 -2.071934 1.899105
-0.600991 -1.681167 2.478003
-0.529548 -1.485628 2.669573
-0.485933 -1.366330 2.476259
-0.316593 -0.902820 3.033294
-0.206004 -0.600157 3.252104
-0.248530 -0.716472 3.462826
-0.462180 -1.300951 4.031162
-0.542811 -1.521405 4.751732
-0.509657 -1.430562 5.254475
-0.547950 -1.535345 5.244570
-0.476313 -1.339259 5.502907
-0.354990 -1.007112 6.169293
-0.293396 -0.838521 6.379096
-0.716491 -2.495203 1.596212
-0.739315 -2.573236 1.655700
-0.653987 -2.281342 2.001790
-0.602729 -2.106022 2.131417
-0.494211 -1.734841 2.441664
-0.442612 -1.558414 2.361883
-0.336429 -1.195150 2.900423
-0.245622 -0.884561 3.115666
-0.218697 -0.792498 3.084713
-0.413601 -1.458494 4.730118
-0.463985 -1.630680 5.082531
-0.437246 -1.539173 5.320415
-0.372640 -1.318151 5.637762
-0.353309 -1.251988 5.821122
-0.278891 -0.997377 6.260375
-0.230581 -0.832211 6.146995
-0.093375 -0.362868 6.651105
-0.567813 -2.562533 1.750247
-0.539959 -2.439544 1.980194
-0.499749 -2.262161 1.896050
-0.413613 -1.881989 2.203136
-0.335472 -1.537030 2.677569
-0.294594 -1.356694 2.600268
-0.192141 -0.904454 3.101549
-0.159000 -0.758193 3.186727
-0.324514 -1.487899 4.713647
-0.400482 -1.823104 4.670455
-0.343219 -1.570203 5.302222
-0.332452 -1.522650 5.426124
-0.312171 -1.433073 5.664354
-0.257674 -1.192472 6.041420
-0.215273 -1.005410 5.983696
-0.406711 -2.780936 1.420211
-0.382881 -2.622812 1.703587
-0.355343 -2.440199 1.831147
-0.314652 -2.170297 2.126863
-0.261193 -1.815782 2.381815
-0.242685 -1.693083 2.404847
-0.211389 -1.485523 2.599235
-0.128632 -0.936681 3.057174
-0.140468 -1.014832 3.602304
-0.213637 -1.499637 3.975278
-0.244757 -1.705484 4.753590
-0.257762 -1.791661 4.804355
-0.232886 -1.626533 5.212218
-0.213283 -1.496238 5.829142
-0.192287 -1.357009 5.920871
-0.148001 -1.063315 6.153218
-0.104001 -0.771511 6.391076
-0.067107 -0.527069 6.187975
-0.220021 -2.805536 1.413864
-0.209340 -2.676543 1.642514
-0.186632 -2.402516 1.934232
-0.169041 -2.190269 2.119708
-0.142054 -1.864529 2.532314
-0.112772 -1.511272 2.794538
-0.100252 -1.360264 2.877059
-0.080961 -1.127457 3.133968
-0.129616 -1.712825 4.258209
-0.143916 -1.884842 4.614695
-0.135666 -1.784875 5.115309
-0.120496 -1.601533 5.579997
-0.117873 -1.570114 5.385242
-0.097885 -1.328502 6.025712
-0.075155 -1.054318 6.199868
-0.048043 -0.727468 6.228225
-0.013083 -0.306039 6.227013
-0.029004 -2.587273 1.817657
-0.028907 -2.581161 1.828760
-0.026437 -2.427355 1.901563
-0.020244 -2.039822 2.419618
-0.017806 -1.887938 2.496751
-0.013024 -1.590054 2.643595
-0.008818 -1.327121 2.953242
-0.007172 -1.222468 3.409532
-0.011551 -1.491273 4.028064
-0.015419 -1.729165 4.482870
-0.017537 -1.858318 4.948557
-0.016004 -1.761853 5.184734
-0.014861 -1.689853 5.365150
-0.012019 -1.510815 5.830478
-0.008442 -1.286925 6.150465
-0.004365 -1.032996 6.267857
0.157777 -2.804391 1.423174
0.143318 -2.525734 1.922813
0.133889 -2.343695 2.049613
0.118461 -2.046063 2.401079
0.110632 -1.894865 2.477005
0.092323 -1.541406 2.736244
0.083090 -1.363161 2.873476
0.080896 -1.321683 3.427931
0.100053 -1.692601 3.817328
0.108307 -1.853151 4.440784
0.108938 -1.866147 4.922199
0.105131 -1.792855 5.100772
0.093354 -1.566166 5.676791
0.088715 -1.476893 5.914471
0.084789 -1.400872 5.832280
0.068351 -1.083612 6.119041
0.048231 -0.695061 6.321386
0.339514 -2.716156 1.549044
0.306405 -2.441297 2.050732
0.277674 -2.202647 2.289887
0.256063 -2.023107 2.420927
0.237940 -1.872517 2.497629
0.193082 -1.500019 3.029516
0.171907 -1.324104 3.168495
0.189684 -1.471978 3.321547
0.221438 -1.736365 3.938539
0.235126 -1.850670 4.672871
0.228795 -1.798320 5.059382
0.228530 -1.796307 5.331645
0.228079 -1.792566 5.341110
0.192923 -1.500682 5.824689
0.178755 -1.382936 5.856431
0.131053 -0.986794 6.375403
0.096799 -0.701993 6.286954
0.548275 -2.728685 1.468056
0.517820 -2.573583 1.749394
0.487978 -2.421607 2.032498
0.447334 -2.214531 2.215429
0.407529 -2.011825 2.614144
0.351635 -1.727100 2.972137
0.317540 -1.553384 3.108212
0.273216 -1.327582 3.360696
0.297389 -1.451094 4.050797
0.379830 -1.871401 4.318748
0.377320 -1.858842 4.856353
0.385562 -1.901036 5.278570
0.376175 -1.853250 5.400452
0.305825 -1.494859 5.790634
0.305116 -1.491245 5.800426
0.278156 -1.353873 5.889539
0.194977 -0.930064 6.201717
0.109752 -0.495706 6.256152
0.701626 -2.585501 1.858675
0.692529 -2.551364 1.922957
0.615332 -2.261603 2.269453
0.545968 -2.001172 2.353127
0.471742 -1.722644 2.924087
0.440226 -1.604309 2.946821
0.417754 -1.519984 3.127309
0.412008 -1.498502 3.407867
0.474447 -1.733179 4.079115
0.540876 -1.982838 4.737744
0.575080 -2.111336 4.936915
0.485984 -1.776977 5.524321
0.472435 -1.726054 5.385152
0.391424 -1.422041 5.926956
0.334140 -1.207045 6.247092
0.300730 -1.081515 6.016833
0.200347 -0.704646 6.218136
0.881548 -2.545967 1.831032
0.812680 -2.344062 2.012770
0.744213 -2.143332 2.197264
0.667975 -1.919886 2.653407
0.619088 -1.776546 2.731887
0.563540 -1.613747 3.081625
0.488917 -1.394982 3.334253
0.549327 -1.572214 3.642964
0.627577 -1.801923 4.573238
0.737269 -2.123652 4.795671
0.743387 -2.141717 5.269560
0.646193 -1.856754 5.482825
0.521890 -1.492357 5.928593
0.507184 -1.449264 6.051945
0.412037 -1.170307 6.280154
1.119556 -2.650599 1.504865
1.035676 -2.449631 1.893998
0.987964 -2.335321 2.121907
0.929447 -2.195076 2.194067
0.804506 -1.895691 2.601064
0.757363 -1.782697 2.621377
0.712212 -1.674525 2.855834
0.585198 -1.370234 3.545857
0.613494 -1.438129 3.866516
0.812799 -1.915915 4.178336
0.921417 -2.176454 5.036275
0.946579 -2.236789 5.139308
0.821617 -1.937322 5.405420
0.628576 -1.474720 5.869328
0.627168 -1.471349 5.879091
0.545419 -1.275400 5.876115
0.384140 -0.888955 6.453776
0.244979 -0.555358 6.274946
1.292290 -2.557137 1.729682
1.235751 -2.444066 1.957637
1.167167 -2.306867 2.030010
1.046324 -2.065160 2.324021
0.992234 -1.956989 2.556999
0.871816 -1.716091 2.645257
0.806652 -1.585776 2.938189
0.742980 -1.458447 3.232757
0.738647 -1.449871 3.726250
1.195819 -2.364730 4.873233
0.955268 -1.883620 5.658208
0.732907 -1.438843 6.126260
0.646975 -1.266912 6.069574
0.427773 -0.828458 6.559306
0.308001 -0.588809 6.415347
1.423500 -2.394066 1.873050
1.376379 -2.313986 1.834433
1.209620 -2.030713 2.446904
1.162019 -1.949818 2.410636
1.027346 -1.721015 2.709737
0.917143 -1.533858 3.382391
0.895929 -1.497786 3.237571
0.904333 -1.512139 3.672482
1.409284 -2.370452 5.130493
1.126201 -1.889503 5.708644
0.891039 -1.489904 5.800124
0.750831 -1.251674 5.968440
0.549307 -0.909309 6.488082
0.365721 -0.597309 6.310825
1.638620 -2.375677 1.692541
1.550325 -2.246503 1.974403
1.530166 -2.217010 2.039830
1.410708 -2.042212 2.222131
1.243474 -1.797521 2.573482
1.129580 -1.630899 2.975054
1.126420 -1.626276 2.986423
0.920201 -1.324558 3.518530
1.491079 -2.160241 4.931611
1.579918 -2.290315 5.330946
0.953410 -1.373527 5.970746
0.740529 -1.062047 6.428133
0.631681 -0.902742 6.374020
0.381978 -0.537313 6.430750
1.814777 -2.292133 1.625934
1.808637 -2.284340 1.847849
1.713802 -2.163498 1.918822
1.421591 -1.791217 2.595535
1.416137 -1.784239 2.395073
1.165801 -1.465308 2.974967
1.251770 -1.574853 2.918678
1.074707 -1.349266 3.280175
1.632940 -2.060900 5.177907
1.844137 -2.330066 5.396912
0.958731 -1.201853 6.046606
0.776586 -0.969772 6.275430
0.478744 -0.590245 6.445115
1.978533 -2.147834 1.631832
1.892194 -2.053344 2.068154
1.730595 -1.876414 2.302470
1.707691 -1.851341 2.366647
1.509813 -1.634698 2.716019
1.412727 -1.528420 3.003573
1.372610 -1.484505 3.124810
1.164024 -1.256145 3.541239
1.842331 -1.999139 5.223861
1.050491 -1.132132 6.027480
0.824145 -0.884315 6.370868
0.617144 -0.657634 6.340124
2.259136 -2.143850 1.694777
2.040075 -1.934334 2.242801
1.930542 -1.829551 2.314003
1.758902 -1.665368 2.551102
1.573460 -1.488012 3.058684
1.406914 -1.328703 3.304123
1.242033 -1.170988 3.553171
1.968927 -1.866617 5.237029
1.135422 -1.069278 5.986130
1.043294 -0.981178 6.338584
0.806942 -0.755059 6.364523
2.354031 -1.967093 1.777408
2.281503 -1.905996 1.947133
2.097706 -1.751146 2.178179
1.961296 -1.636238 2.514096
1.738776 -1.448769 2.862604
1.651040 -1.374864 3.093429
1.524076 -1.267917 3.437112
2.129878 -1.778608 5.349166
1.283575 -1.065541 5.980926
1.161298 -0.962520 6.126282
0.864292 -0.712270 6.322024
2.457080 -1.775163 1.842368
2.238393 -1.615829 2.337260
2.118659 -1.528592 2.618584
2.043082 -1.473506 2.581694
1.808511 -1.302580 2.931417
1.294130 -0.928055 6.485422
2.712027 -1.691128 1.753520
2.733164 -1.704420 1.709592
2.477199 -1.543433 2.045404
2.299910 -1.431944 2.434036
2.099976 -1.306195 2.670613
1.907888 -1.185403 3.121511
2.732766 -1.704481 4.815034
2.613012 -1.629205 5.398134
2.687856 -1.676292 5.445935
1.524728 -0.944677 6.219451
1.209637 -0.746508 6.674092
1.113817 -0.686201 6.389529
2.806270 -1.487795 1.788528
2.617634 -1.386860 2.174000
2.716872 -1.439960 1.969434
2.376695 -1.257920 2.472291
2.321536 -1.228406 2.591720
2.217439 -1.172707 2.820972
2.043529 -1.079655 3.215931
1.829126 -0.964939 3.725386
2.546427 -1.349001 4.841152
2.785386 -1.476947 5.223427
2.803799 -1.486823 5.431757
1.520358 -0.799923 6.430318
1.469798 -0.772846 6.293452
1.076315 -0.562259 6.661972
2.685162 -1.205459 2.208921
2.653399 -1.191042 2.273365
2.595462 -1.164745 2.391958
2.176644 -0.974627 3.066572
2.303194 -1.032087 3.012101
2.223735 -0.996022 3.187479
1.884334 -0.841933 3.498958
3.051777 -1.372197 5.027043
2.901373 -1.303913 5.157318
2.710731 -1.217367 5.396912
2.497851 -1.120704 5.439497
1.937878 -0.866471 5.908392
1.744537 -0.778676 5.904324
1.535518 -0.683822 6.535539
1.396615 -0.620732 6.366619
1.026252 -0.452578 6.623998
3.041384 -1.128750 1.871821
2.896889 -1.074508 2.149398
2.728469 -1.011285 2.482625
2.640432 -0.978218 2.446503
2.211118 -0.817043 3.122342
2.315441 -0.856223 3.122660
2.085437 -0.769887 3.630280
1.837797 -0.676890 3.723906
3.007083 -1.116160 5.095240
2.768639 -1.026639 5.442125
2.641919 -0.979078 5.776902
2.418108 -0.895003 5.566525
1.991526 -0.734824 5.908392
1.860997 -0.685809 5.994498
1.560072 -0.572845 6.589977
1.449967 -0.531497 6.624055
1.055678 -0.383414 6.619479
3.186440 -0.919288 1.947227
3.184237 -0.918626 1.748305
2.866546 -0.825713 2.345638
2.778753 -0.800038 2.516988
2.606971 -0.749780 2.642795
2.408882 -0.691830 2.825256
2.305739 -0.661686 3.264424
2.061335 -0.590193 3.563066
2.131124 -0.610643 3.879872
2.763694 -0.795883 5.366231
2.802955 -0.807363 5.267974
2.561181 -0.736644 5.619284
2.124597 -0.608917 5.959989
1.961904 -0.561298 5.843154
1.778964 -0.507810 6.357719
1.551971 -0.441419 6.730457
3.359302 -0.730438 1.733441
3.035618 -0.658842 2.119283
3.001778 -0.651359 2.182464
2.685031 -0.581300 2.576567
2.488574 -0.537860 2.968031
2.483734 -0.536789 2.977869
2.355386 -0.508430 3.471099
2.084025 -0.448410 3.825779
2.994064 -0.649890 4.923906
3.034397 -0.658829 5.080349
2.851517 -0.618376 5.265867
2.430294 -0.525209 5.799093
2.286937 -0.493470 5.625820
1.944723 -0.417796 6.267248
1.909846 -0.410061 6.074783
1.524603 -0.324854 6.582038
1.224964 -0.258544 6.551709
3.260730 -0.483530 1.982892
3.109610 -0.460553 2.259452
3.046234 -0.450899 2.168230
2.701218 -0.398442 2.826108
2.691502 -0.396946 2.627503
2.493059 -0.366776 3.020021
2.389783 -0.351095 3.459061
2.140274 -0.313144 3.758219
2.985377 -0.441882 5.029974
2.688980 -0.396808 5.487686
2.501774 -0.368309 5.422430
2.170791 -0.317981 6.002693
2.125794 -0.311143 6.124013
1.888631 -0.275077 6.491212
1.698645 -0.246155 6.434736
1.282316 -0.182788 6.426561
3.389975 -0.268017 2.001593
3.357594 -0.265323 1.855710
3.001971 -0.235934 2.504973
2.852140 -0.223534 2.575230
2.759063 -0.215824 2.537976
2.530626 -0.196948 2.983430
2.373605 -0.183994 3.531333
2.316815 -0.179302 3.651145
2.521191 -0.196267 4.159134
2.708560 -0.211850 4.970896
2.980670 -0.234369 4.843240
2.638782 -0.206132 5.664844
2.456621 -0.191065 5.856563
2.381383 -0.184829 5.774779
2.179053 -0.168098 6.025031
1.938793 -0.148236 6.390637
1.609438 -0.120995 6.729127
1.303700 -0.095678 6.699455
3.514517 -0.041041 1.800264
3.125937 -0.035147 2.291401
3.062176 -0.034166 2.199425
2.714505 -0.028911 2.856896
2.565005 -0.026634 2.930196
2.532547 -0.026144 2.994554
2.206179 -0.021216 3.665813
2.524911 -0.026086 3.693368
2.698425 -0.028806 4.512533
2.829069 -0.030818 4.711526
2.777932 -0.030091 5.341326
2.620133 -0.027714 5.731755
2.387165 -0.024159 5.778006
2.383394 -0.024102 5.787691
2.180769 -0.021029 6.037396
1.805907 -0.015341 6.481335
1.496064 -0.010632 6.765171
1.153495 -0.005380 6.530500
3.260204 0.182670 2.245181
3.167856 0.177857 2.205836
2.816479 0.159491 2.651306
2.695046 0.153156 2.668292
2.606377 0.148516 2.840748
2.383100 0.136832 3.288520
2.323201 0.133657 3.879929
2.845186 0.160817 4.665032
2.770278 0.156896 4.836403
2.542306 0.144936 5.646661
2.495576 0.142488 5.765236
2.420649 0.138587 5.682748
2.217159 0.127952 5.931824
1.954985 0.114241 6.352110
1.605212 0.095963 6.746427
1.260443 0.077973 6.831510
3.498220 0.436030 1.983939
3.436380 0.428555 1.891023
3.023918 0.378597 2.437024
2.846137 0.357073 2.560874
2.696956 0.339015 2.632175
2.608346 0.328277 2.804929
2.253140 0.285233 3.528796
2.506373 0.315882 3.459664
2.630686 0.330867 4.131613
2.724919 0.342205 4.902126
2.789091 0.349961 5.005104
2.739450 0.343944 5.122860
2.623474 0.329886 5.404217
2.354115 0.297256 5.815245
2.194579 0.277939 5.954789
2.015203 0.256216 6.151931
1.684007 0.216110 6.487331
1.359950 0.176894 6.512089
3.507748 0.681335 1.899361
3.126842 0.608721 2.182699
3.034993 0.591220 2.145214
2.663969 0.520452 2.857533
2.598541 0.507991 2.768284
2.315286 0.453980 3.118034
2.283249 0.447869 3.184213
2.449864 0.479572 3.753969
2.717325 0.530491 4.356537
2.771647 0.540790 4.974856
2.767639 0.540025 4.984373
2.541797 0.496938 5.537914
2.431571 0.475908 5.821389
2.191883 0.430199 6.181644
2.137017 0.419755 6.045423
1.867880 0.368451 6.209091
1.540754 0.306080 6.547375
1.068885 0.216113 7.035986
3.313866 0.884851 1.949367
3.024652 0.808736 2.282628
2.963489 0.792636 2.399528
2.459453 0.659987 2.967176
2.395001 0.643039 2.877328
2.178929 0.586156 3.328505
2.209389 0.594114 3.964766
2.525141 0.677137 4.455860
2.832602 0.758020 4.480074
2.755530 0.737707 4.908282
2.662008 0.713084 5.134946
2.595806 0.695630 5.563549
2.438911 0.654343 5.700356
2.090432 0.562634 6.080148
1.916406 0.516834 6.278834
1.595163 0.432294 6.616546
1.317490 0.359252 6.528879
3.331208 1.150901 1.783410
2.880132 0.996808 2.436605
2.873428 0.994537 2.239236
2.704137 0.936697 2.573541
2.350412 0.815861 3.083851
2.098025 0.729668 3.172172
2.026310 0.705144 3.560242
2.210393 0.767935 4.334518
2.643991 0.916004 4.291511
2.651820 0.918636 4.763560
2.474355 0.857972 5.466232
2.475205 0.858238 5.733034
2.322088 0.805939 5.872226
2.249879 0.781288 5.792426
1.909663 0.665076 6.177032
1.701690 0.594029 6.491462
1.392611 0.488483 6.516297
0.848096 0.302528 6.654040
3.214016 1.358272 2.047895
2.992504 1.265600 2.067611
2.798560 1.184427 2.453163
2.685001 1.136918 2.471457
2.416142 1.024408 2.813881
2.043739 0.868579 3.173471
1.843017 0.784564 3.628136
2.032772 0.863902 4.138515
2.426858 1.028745 4.407686
2.609347 1.105063 4.701378
2.582211 1.093681 5.020763
2.538169 1.075221 5.393678
2.287905 0.970485 5.802094
2.120370 0.900378 5.995494
1.867632 0.794630 6.156733
1.758928 0.749150 6.187382
1.401527 0.599613 6.377746
0.976112 0.421629 6.485364
3.114648 1.573875 1.844075
2.846062 1.439342 2.175823
2.555983 1.294040 2.567629
2.576899 1.304518 2.523315
2.187180 1.109317 2.931601
1.924250 0.977635 3.073448
1.975785 1.003432 3.183003
2.128163 1.079685 3.752813
2.416505 1.224034 4.246413
2.548352 1.290021 4.650246
2.500424 1.265984 5.024572
2.292052 1.161608 5.322367
2.233872 1.132432 5.752811
1.977894 1.004200 6.223441
1.716007 0.873032 6.444084
1.610682 0.820284 6.476932
1.318778 0.674103 6.501137
0.735218 0.381834 6.871713
3.066670 1.816774 1.914950
2.987094 1.770015 1.874956
2.728486 1.618011 2.207087
2.449221 1.453863 2.599308
2.218668 1.318371 2.679832
2.036614 1.211390 2.653067
1.757414 1.047299 2.850149
1.573628 0.939231 3.520531
1.993725 1.186064 3.895462
2.253080 1.338420 4.441787
2.382931 1.414687 4.844455
2.318948 1.377070 5.017426
2.197637 1.305749 5.354848
2.050791 1.219385 6.060474
2.003094 1.191370 5.924715
1.660503 0.989998 6.421956
1.593530 0.950649 6.342337
2.677387 1.841990 2.066364
2.528027 1.740072 2.187280
2.331325 1.605844 2.418165
1.947009 1.343587 2.881663
1.795588 1.240284 2.800986
1.491370 1.032669 3.325802
1.496547 1.036179 3.546927
1.899618 1.311146 3.920712
2.128757 1.467421 4.520727
2.064262 1.423346 5.210875
2.193888 1.511799 5.094633
1.917638 1.323234 5.926657
2.021162 1.393900 5.605441
1.852153 1.278563 5.854108
1.489783 1.031264 6.464606
1.233545 0.856410 6.748686
0.869807 0.608234 6.803628
2.534549 2.012605 2.090480
2.484242 1.972964 2.206670
2.252146 1.790097 2.544834
2.041941 1.624504 2.624770
1.898468 1.511494 2.542507
1.647997 1.314146 2.950023
1.573713 1.255634 2.915621
1.357134 1.084966 3.487798
1.640343 1.307988 4.140887
2.112539 1.679886 4.759629
1.948364 1.550477 5.518369
1.928015 1.534441 5.583125
1.684280 1.342386 6.109678
1.640601 1.307993 5.973222
1.450506 1.158210 6.340579
1.225868 0.981265 6.249228
0.906004 0.729270 6.502744
2.593777 2.357037 1.817742
2.525376 2.295333 1.777393
2.301695 2.093498 2.110085
1.951946 1.777915 2.565296
1.882398 1.715175 2.528634
1.683877 1.536066 2.610228
1.510082 1.379247 2.851458
1.217915 1.115597 3.435421
1.233570 1.129670 3.867758
1.759294 1.603833 4.995364
1.876909 1.709954 4.877993
1.840234 1.676825 5.253937
1.627202 1.484551 5.979712
1.586866 1.448177 5.841453
1.491168 1.361802 6.184454
1.200294 1.099328 6.689217
0.929714 0.855204 6.830386
0.604418 0.561763 6.564195
2.312898 2.432672 1.875777
2.269870 2.387767 1.782729
2.041842 2.149710 1.961639
1.835034 1.933783 2.302510
1.649107 1.739685 2.382975
1.407482 1.487398 2.846224
1.528632 1.613651 4.601179
1.714837 1.807981 4.988896
1.696038 1.788349 5.053434
1.663328 1.754157 5.431004
1.482369 1.565173 6.104466
1.443979 1.525114 5.967781
1.304765 1.379759 6.222470
1.064732 1.129182 6.300119
0.729198 0.778861 6.786870
1.638606 1.972702 2.494434
