26.500000 -44.981445 0.159039
26.800000 -44.226074 0.159039
29.600000 -42.829590 0.159039
29.900000 -41.949219 0.159039
30.200000 -41.443848 0.159039
30.600000 -41.438477 0.159039
29.700000 -42.250977 0.235039
30.000000 -41.622559 0.235039
30.400000 -41.494141 0.235039
30.700000 -40.615723 0.235039
31.100000 -40.237305 0.235039
26.400000 -44.785156 0.380039
29.800000 -42.651367 0.380039
30.100000 -41.524902 0.380039
30.500000 -41.648438 0.380039
30.800000 -40.521973 0.380039
31.200000 -39.895508 0.380039
30.900000 -36.513184 0.380039
26.500000 -44.839844 0.530039
29.600000 -42.565430 0.530039
29.900000 -42.560547 0.530039
30.200000 -41.305664 0.530039
30.600000 -40.800781 0.530039
26.400000 -44.832520 0.677039
26.600000 -44.703125 0.677039
29.700000 -42.426270 0.677039
30.000000 -42.045898 0.677039
30.400000 -41.790527 0.677039
30.800000 -41.285156 0.677039
31.100000 -40.654785 0.677039
26.500000 -44.542480 0.814038
29.500000 -42.640625 0.814038
29.800000 -42.136230 0.814038
30.200000 -42.131836 0.814038
30.500000 -41.127441 0.814038
30.900000 -40.748047 0.814038
31.400000 -40.118652 0.814038
29.700000 -43.138672 0.964039
30.000000 -42.385254 0.964039
30.400000 -41.631836 0.964039
30.700000 -40.503418 0.964039
31.000000 -40.625000 0.964039
30.800000 -35.082031 0.964039
26.700000 -44.609863 1.109039
29.700000 -42.472656 1.109039
30.100000 -41.595215 1.109039
30.400000 -41.217773 1.109039
30.800000 -40.965332 1.109039
31.100000 -39.962891 1.109039
29.600000 -42.500488 1.258039
29.900000 -42.248047 1.258039
30.200000 -41.745605 1.258039
30.600000 -41.493164 1.258039
30.900000 -40.990723 1.258039
31.400000 -40.363281 1.258039
26.500000 -44.709961 1.405039
29.600000 -43.197754 1.405039
29.900000 -42.320313 1.405039
30.200000 -42.067871 1.405039
30.600000 -40.690430 1.405039
29.700000 -43.076172 1.551039
30.000000 -42.195313 1.551039
30.400000 -41.564453 1.551039
30.700000 -41.183594 1.551039
31.000000 -40.177734 1.551039
29.700000 -42.518066 1.700039
30.100000 -41.886719 1.700039
30.400000 -41.130371 1.700039
30.800000 -40.624023 1.700039
31.100000 -40.242676 1.700039
29.500000 -42.742188 1.839039
29.800000 -42.113281 1.839039
30.100000 -41.984375 1.839039
30.500000 -41.230469 1.839039
30.800000 -40.351562 1.839039
31.300000 -39.722656 1.839039
31.100000 -36.828125 1.839039
26.900000 -44.310547 1.985039
29.600000 -43.166016 1.985039
29.900000 -42.411133 1.985039
30.200000 -41.406250 1.985039
30.600000 -41.152344 1.985039
26.900000 -44.706055 2.133039
29.600000 -42.692383 2.133039
29.900000 -41.938965 2.133039
30.200000 -41.685547 2.133039
30.600000 -41.432129 2.133039
26.900000 -44.190430 2.280039
29.600000 -42.430664 2.280039
29.900000 -42.678223 2.280039
30.200000 -42.050781 2.280039
30.600000 -41.173340 2.280039
29.800000 -42.297363 2.428039
30.100000 -42.044922 2.428039
30.500000 -40.917480 2.428039
30.800000 -40.540039 2.428039
31.200000 -40.037598 2.428039
26.600000 -44.814453 2.575038
29.700000 -42.799805 2.575038
30.000000 -41.671875 2.575038
30.400000 -41.293945 2.575038
30.700000 -41.041016 2.575038
31.000000 -40.288086 2.575038
29.500000 -42.794922 2.722038
29.800000 -42.039063 2.722038
30.200000 -41.658203 2.722038
30.500000 -41.277344 2.722038
30.900000 -40.771484 2.722038
31.400000 -39.765625 2.722038
29.500000 -43.095703 2.871039
29.800000 -42.093750 2.871039
30.100000 -42.091797 2.871039
30.500000 -41.589844 2.871039
30.800000 -40.462891 2.871039
31.300000 -40.335938 2.871039
31.100000 -37.076172 2.871039
29.500000 -43.361816 3.018039
29.800000 -42.607422 3.018039
30.100000 -41.478027 3.018039
30.500000 -40.848633 3.018039
30.800000 -40.844238 3.018039
31.300000 -40.464844 3.018039
31.100000 -36.942871 3.018039
26.400000 -44.801758 3.158039
29.800000 -42.156250 3.158039
30.100000 -41.652832 3.158039
30.500000 -40.899414 3.158039
30.800000 -40.770996 3.158039
31.200000 -40.517578 3.158039
31.100000 -37.250488 3.158039
29.700000 -42.742188 3.305038
30.000000 -42.240234 3.305038
30.400000 -41.738281 3.305038
30.700000 -40.486328 3.305038
31.100000 -40.734375 3.305038
26.600000 -44.956543 3.453039
29.700000 -43.074219 3.453039
30.000000 -42.197754 3.453039
30.400000 -41.446289 3.453039
30.700000 -40.694824 3.453039
26.900000 -44.765625 3.599038
29.600000 -42.625000 3.599038
29.900000 -42.121094 3.599038
30.300000 -41.492188 3.599038
30.600000 -40.988281 3.599038
29.500000 -42.968750 3.748039
29.800000 -42.839844 3.748039
30.200000 -41.960938 3.748039
30.500000 -41.582031 3.748039
30.900000 -40.578125 3.748039
31.300000 -40.324219 3.748039
26.400000 -44.984863 3.893039
29.700000 -42.583496 3.893039
30.000000 -41.829102 3.893039
30.400000 -41.824707 3.893039
30.700000 -41.070313 3.893039
31.100000 -40.190918 3.893039
26.900000 -44.719727 4.041039
29.600000 -42.208008 4.041039
29.900000 -42.580078 4.041039
30.300000 -41.327148 4.041039
30.600000 -40.949219 4.041039
29.600000 -42.589844 4.189039
29.900000 -42.335938 4.189039
30.300000 -41.707031 4.189039
30.600000 -41.078125 4.189039
29.600000 -42.402832 4.330039
29.900000 -42.024414 4.330039
30.300000 -41.770996 4.330039
30.600000 -40.892578 4.330039
29.700000 -42.389648 4.477041
30.100000 -42.259766 4.477041
30.400000 -41.129883 4.477041
30.700000 -40.625000 4.477041
31.100000 -40.370117 4.477041
29.700000 -42.636719 4.623039
30.100000 -42.007812 4.623039
30.400000 -41.003906 4.623039
30.800000 -40.500000 4.623039
31.100000 -40.246094 4.623039
26.600000 -44.304688 4.769039
29.700000 -42.657715 4.769039
30.100000 -41.903320 4.769039
30.400000 -41.273926 4.769039
30.800000 -41.019531 4.769039
31.100000 -40.390137 4.769039
26.600000 -44.912109 4.917039
29.600000 -42.645020 4.917039
30.000000 -42.516602 4.917039
30.400000 -41.638184 4.917039
30.700000 -41.259766 4.917039
31.000000 -40.131348 4.917039
26.600000 -44.925781 5.065039
29.600000 -42.658691 5.065039
30.000000 -42.030273 5.065039
30.400000 -41.401855 5.065039
30.700000 -41.148438 5.065039
31.000000 -40.270020 5.065039
29.600000 -43.056152 5.212039
29.900000 -42.303711 5.212039
30.200000 -42.051270 5.212039
30.600000 -40.923828 5.212039
29.500000 -43.342285 5.358039
29.800000 -42.588867 5.358039
30.100000 -41.710449 5.358039
30.500000 -40.957031 5.358039
30.900000 -40.578613 5.358039
31.300000 -39.825195 5.358039
26.400000 -44.980469 5.499039
26.700000 -44.602539 5.499039
29.400000 -43.090820 5.499039
29.700000 -42.337891 5.499039
30.100000 -41.584961 5.499039
30.400000 -41.207031 5.499039
30.800000 -40.954102 5.499039
31.100000 -40.451172 5.499039
29.500000 -42.750488 5.646039
29.800000 -42.245117 5.646039
30.100000 -42.239746 5.646039
30.500000 -41.484375 5.646039
30.800000 -40.479492 5.646039
31.300000 -40.474609 5.646039
31.100000 -36.825195 5.646039
26.900000 -44.996582 5.794039
29.600000 -42.350098 5.794039
29.900000 -41.844727 5.794039
30.200000 -41.714355 5.794039
30.600000 -41.458984 5.794039
29.800000 -42.538086 5.941039
30.100000 -42.158203 5.941039
30.500000 -41.028320 5.941039
30.800000 -40.398438 5.941039
31.200000 -40.393555 5.941039
31.100000 -36.869141 5.941039
26.600000 -44.732910 6.089038
26.900000 -44.728516 6.089038
29.600000 -42.335938 6.089038
30.000000 -42.206543 6.089038
30.300000 -41.327148 6.089038
30.600000 -40.697754 6.089038
29.700000 -42.736328 6.235038
30.100000 -41.983887 6.235038
30.400000 -41.356445 6.235038
30.800000 -40.854004 6.235038
31.100000 -40.101562 6.235038
26.700000 -44.657715 6.383039
29.700000 -42.535156 6.383039
30.100000 -41.535645 6.383039
30.400000 -41.536133 6.383039
30.800000 -41.161621 6.383039
31.100000 -40.287109 6.383039
26.900000 -43.843750 6.530039
29.600000 -43.085938 6.530039
30.000000 -42.083984 6.530039
30.300000 -41.957031 6.530039
30.700000 -40.705078 6.530039
26.700000 -44.666016 6.670039
29.700000 -42.279785 6.670039
30.000000 -42.278320 6.670039
30.400000 -41.776855 6.670039
30.700000 -40.900391 6.670039
31.100000 -39.898926 6.670039
26.600000 -44.691406 6.818039
26.900000 -44.062012 6.818039
29.600000 -42.544434 6.818039
29.900000 -41.915039 6.818039
30.200000 -42.035645 6.818039
30.600000 -40.781250 6.818039
26.900000 -44.866211 6.964038
29.600000 -43.096680 6.964038
29.900000 -42.216797 6.964038
30.200000 -42.086914 6.964038
30.600000 -41.332031 6.964038
26.700000 -44.757813 7.113039
29.700000 -42.860840 7.113039
30.100000 -41.481445 7.113039
30.400000 -41.602051 7.113039
30.800000 -41.097656 7.113039
31.100000 -39.968262 7.113039
26.900000 -44.207031 7.259039
29.600000 -42.562500 7.259039
29.900000 -42.182617 7.259039
30.200000 -41.927734 7.259039
30.600000 -41.047852 7.259039
26.600000 -44.578613 7.409039
29.600000 -42.806641 7.409039
30.000000 -42.052246 7.409039
30.400000 -41.422852 7.409039
30.700000 -40.918457 7.409039
29.800000 -42.257812 7.554039
30.100000 -42.004883 7.554039
30.500000 -40.876953 7.554039
30.800000 -41.124023 7.554039
31.200000 -40.496094 7.554039
31.000000 -36.856445 7.554039
29.700000 -42.914063 7.701039
30.000000 -41.537109 7.701039
30.400000 -41.535156 7.701039
30.700000 -40.658203 7.701039
31.100000 -40.531250 7.701039
26.600000 -44.610840 7.841040
26.900000 -44.107422 7.841040
29.600000 -42.968750 7.841040
29.900000 -42.466309 7.841040
30.200000 -41.963867 7.841040
30.600000 -41.086426 7.841040
29.700000 -42.311523 7.989039
30.000000 -41.806641 7.989039
30.400000 -41.301758 7.989039
30.700000 -40.546875 7.989039
31.100000 -40.294434 7.989039
26.600000 -44.603516 8.134039
29.700000 -42.836426 8.134039
30.000000 -41.708008 8.134039
30.400000 -41.829590 8.134039
30.700000 -40.826172 8.134039
31.100000 -40.572754 8.134039
26.900000 -44.223145 8.283039
29.600000 -42.459473 8.283039
30.000000 -42.081055 8.283039
30.300000 -41.827637 8.283039
30.700000 -40.574219 8.283039
26.900000 -43.983887 8.429038
29.600000 -42.724121 8.429038
30.000000 -42.221680 8.429038
30.300000 -41.469238 8.429038
30.700000 -41.091797 8.429038
26.600000 -44.386719 8.577039
29.600000 -42.249512 8.577039
29.900000 -42.247070 8.577039
30.300000 -41.869629 8.577039
30.600000 -40.867188 8.577039
26.600000 -44.800781 8.727039
29.600000 -42.536133 8.727039
30.000000 -42.158203 8.727039
30.300000 -41.280273 8.727039
30.700000 -40.777344 8.727039
31.000000 -40.149414 8.727039
26.600000 -44.343750 8.872039
29.700000 -42.946777 8.872039
30.000000 -42.442383 8.872039
30.400000 -41.062988 8.872039
30.700000 -40.683594 8.872039
31.100000 -40.304199 8.872039
26.700000 -44.632812 9.011038
29.700000 -42.854492 9.011038
30.100000 -41.974609 9.011038
30.400000 -41.469727 9.011038
30.800000 -40.339844 9.011038
31.100000 -40.209961 9.011038
26.200000 -44.991211 9.160039
29.500000 -42.458984 9.160039
29.800000 -42.328613 9.160039
30.200000 -42.198242 9.160039
30.500000 -41.317871 9.160039
30.900000 -40.812500 9.160039
31.300000 -40.183594 9.160039
29.500000 -43.324219 9.306039
29.800000 -42.320801 9.306039
30.200000 -41.942383 9.306039
30.500000 -41.438965 9.306039
30.900000 -40.685547 9.306039
31.300000 -39.932129 9.306039
29.500000 -43.357422 9.454039
29.800000 -42.229980 9.454039
30.100000 -41.477539 9.454039
30.500000 -41.100098 9.454039
30.800000 -40.347656 9.454039
31.300000 -40.345215 9.454039
26.400000 -44.712891 9.600039
26.700000 -44.210937 9.600039
29.700000 -42.326172 9.600039
30.100000 -42.324219 9.600039
30.500000 -40.947266 9.600039
30.800000 -40.820312 9.600039
31.100000 -40.443359 9.600039
29.500000 -43.154297 9.748039
29.800000 -41.902832 9.748039
30.200000 -42.151367 9.748039
30.500000 -41.524902 9.748039
30.900000 -40.398437 9.748039
31.300000 -40.146973 9.748039
29.600000 -42.582031 9.898039
29.900000 -42.076660 9.898039
30.200000 -41.821289 9.898039
30.600000 -40.940918 9.898039
