31.200000 -29.794922 1.433882
31.700000 -29.766602 1.433882
32.300000 -28.738281 1.433882
32.900000 -28.584961 1.433882
33.500000 -27.806641 1.433882
34.200000 -27.403320 1.433882
34.900000 -26.625000 1.433882
35.500000 -22.096680 1.433882
36.300000 -21.318359 1.433882
37.100000 -20.790039 1.433882
38.000000 -20.136719 1.433882
38.900000 -19.483398 1.433882
32.000000 -29.390625 1.560863
32.600000 -28.609375 1.560863
33.200000 -28.203125 1.560863
33.800000 -27.546875 1.560863
34.500000 -27.140625 1.560863
35.200000 -26.234375 1.560863
35.900000 -21.703125 1.560863
36.700000 -21.296875 1.560863
37.500000 -20.390625 1.560863
38.400000 -19.859375 1.560863
39.400000 -18.828125 1.560863
40.400000 -18.421875 1.560863
31.500000 -29.921875 1.702476
32.000000 -28.890625 1.702476
32.600000 -28.984375 1.702476
33.200000 -28.328125 1.702476
33.900000 -27.421875 1.702476
34.500000 -23.015625 1.702476
35.200000 -22.484375 1.702476
36.000000 -21.578125 1.702476
36.800000 -21.046875 1.702476
37.600000 -20.140625 1.702476
38.600000 -19.359375 1.702476
39.500000 -18.701660 1.702476
40.500000 -18.043945 1.702476
31.400000 -29.818359 1.833275
32.000000 -29.289551 1.833275
32.500000 -28.760742 1.833275
33.100000 -28.106934 1.833275
33.800000 -27.578125 1.833275
34.400000 -26.921387 1.833275
35.100000 -26.389648 1.833275
35.800000 -21.982910 1.833275
36.700000 -21.201172 1.833275
37.400000 -20.669434 1.833275
38.400000 -20.012695 1.833275
39.300000 -18.855957 1.833275
40.400000 -18.449219 1.833275
31.200000 -29.927734 1.970458
31.700000 -29.399414 1.970458
32.200000 -29.121094 1.970458
32.800000 -28.592773 1.970458
33.500000 -27.939453 1.970458
34.200000 -27.286133 1.970458
34.800000 -22.882812 1.970458
35.500000 -22.104492 1.970458
36.300000 -25.326172 1.970458
37.100000 -20.672852 1.970458
38.000000 -19.894531 1.970458
38.900000 -19.491211 1.970458
39.900000 -18.462891 1.970458
40.900000 -17.809570 1.970458
31.600000 -29.503906 2.124480
32.100000 -28.976562 2.124480
32.800000 -28.824219 2.124480
33.400000 -28.046875 2.124480
34.000000 -27.269531 2.124480
34.600000 -26.742188 2.124480
35.400000 -26.214844 2.124480
36.100000 -25.437500 2.124480
36.900000 -20.910156 2.124480
37.700000 -20.132812 2.124480
38.800000 -19.355469 2.124480
39.700000 -18.828125 2.124480
40.700000 -17.800781 2.124480
31.200000 -29.919922 2.266577
31.700000 -29.639648 2.266577
32.300000 -28.609375 2.266577
32.900000 -28.329102 2.266577
33.500000 -27.798828 2.266577
34.200000 -27.393555 2.266577
34.800000 -26.488281 2.266577
35.500000 -21.958008 2.266577
36.300000 -25.427734 2.266577
37.100000 -24.772461 2.266577
38.000000 -19.867188 2.266577
38.900000 -19.086914 2.266577
39.800000 -18.681641 2.266577
31.700000 -29.916016 2.398932
32.200000 -28.636719 2.398932
32.800000 -28.357422 2.398932
33.500000 -27.578125 2.398932
34.100000 -27.048828 2.398932
34.800000 -22.894531 2.398932
35.500000 -21.990234 2.398932
36.300000 -21.585938 2.398932
37.100000 -20.556641 2.398932
37.900000 -20.277344 2.398932
38.900000 -19.123047 2.398932
39.800000 -18.468750 2.398932
40.900000 -17.937988 2.398932
31.800000 -29.675293 2.535933
32.400000 -28.521484 2.535933
33.000000 -28.367676 2.535933
33.600000 -27.713867 2.535933
34.300000 -27.310059 2.535933
35.000000 -26.531250 2.535933
35.500000 -25.876953 2.535933
36.400000 -21.347656 2.535933
37.200000 -20.818359 2.535933
38.100000 -19.914062 2.535933
39.100000 -19.259766 2.535933
31.900000 -29.486816 2.680449
32.400000 -28.833008 2.680449
33.000000 -28.179199 2.680449
33.700000 -27.900391 2.680449
34.300000 -23.246582 2.680449
35.000000 -22.717773 2.680449
35.600000 -25.813965 2.680449
36.400000 -21.410156 2.680449
37.300000 -24.631348 2.680449
38.200000 -19.727539 2.680449
39.100000 -18.948730 2.680449
31.400000 -29.838867 2.832818
32.000000 -29.187012 2.832818
32.600000 -28.785156 2.832818
33.200000 -28.258301 2.832818
33.800000 -27.606445 2.832818
34.500000 -23.204590 2.832818
35.200000 -26.302734 2.832818
35.900000 -21.900879 2.832818
36.700000 -21.124023 2.832818
37.500000 -20.597168 2.832818
38.400000 -19.820312 2.832818
39.400000 -18.793457 2.832818
40.400000 -18.016602 2.832818
31.800000 -29.722168 2.961474
32.400000 -29.067383 2.961474
33.000000 -28.162598 2.961474
33.600000 -27.507812 2.961474
34.300000 -27.353027 2.961474
34.900000 -22.823242 2.961474
35.500000 -22.043457 2.961474
36.400000 -21.263672 2.961474
37.200000 -20.733887 2.961474
38.100000 -19.829102 2.961474
39.100000 -19.299316 2.961474
31.500000 -29.478027 3.101475
32.100000 -29.072266 3.101475
32.600000 -28.291504 3.101475
33.200000 -27.760742 3.101475
33.900000 -27.479980 3.101475
34.600000 -26.824219 3.101475
35.300000 -22.168457 3.101475
36.100000 -25.512695 3.101475
36.800000 -20.731934 3.101475
37.700000 -20.201172 3.101475
38.600000 -19.295410 3.101475
39.600000 -18.639648 3.101475
40.600000 -17.858887 3.101475
31.500000 -29.661621 3.241614
32.100000 -29.131836 3.241614
32.600000 -28.602051 3.241614
33.200000 -28.197266 3.241614
33.900000 -27.542480 3.241614
34.500000 -23.137695 3.241614
35.300000 -26.232910 3.241614
36.000000 -21.578125 3.241614
36.800000 -21.045410 3.241614
37.700000 -20.262695 3.241614
38.600000 -19.729980 3.241614
39.500000 -18.822266 3.241614
40.500000 -17.789551 3.241614
31.800000 -29.734375 3.383642
32.400000 -28.956055 3.383642
33.000000 -28.302734 3.383642
33.600000 -27.774414 3.383642
34.300000 -23.371094 3.383642
35.000000 -22.717773 3.383642
35.700000 -25.939453 3.383642
36.400000 -21.411133 3.383642
37.300000 -24.632812 3.383642
38.200000 -19.979492 3.383642
39.100000 -19.326172 3.383642
31.800000 -29.629883 3.525616
32.400000 -28.727051 3.525616
33.000000 -27.949219 3.525616
33.600000 -27.546387 3.525616
34.300000 -27.018555 3.525616
35.000000 -26.615723 3.525616
35.700000 -22.087891 3.525616
36.400000 -21.310059 3.525616
37.300000 -20.782227 3.525616
38.200000 -19.879395 3.525616
39.100000 -19.226562 3.525616
31.200000 -29.895996 3.666336
31.700000 -29.490234 3.666336
32.300000 -29.084473 3.666336
32.900000 -28.178711 3.666336
33.600000 -27.647949 3.666336
34.200000 -26.992188 3.666336
34.900000 -22.836426 3.666336
35.600000 -22.055664 3.666336
36.400000 -25.274902 3.666336
37.200000 -20.619141 3.666336
38.100000 -20.213379 3.666336
39.100000 -19.432617 3.666336
31.100000 -29.891602 3.808507
31.600000 -29.361328 3.808507
32.100000 -28.831055 3.808507
32.800000 -28.425781 3.808507
33.400000 -24.270508 3.808507
34.100000 -23.615234 3.808507
34.700000 -26.834961 3.808507
35.400000 -26.054688 3.808507
36.200000 -25.399414 3.808507
36.900000 -20.994141 3.808507
37.800000 -20.213867 3.808507
38.800000 -19.433594 3.808507
39.700000 -18.903320 3.808507
40.800000 -17.873047 3.808507
32.100000 -29.232910 3.949462
32.600000 -28.829102 3.949462
33.200000 -28.300293 3.949462
33.900000 -27.146484 3.949462
34.500000 -26.867676 3.949462
35.300000 -26.088867 3.949462
36.000000 -21.685059 3.949462
36.800000 -21.156250 3.949462
37.700000 -20.127441 3.949462
38.600000 -19.473633 3.949462
39.500000 -18.944824 3.949462
40.500000 -18.166016 3.949462
31.200000 -29.835938 4.088948
31.800000 -29.183594 4.088948
32.300000 -28.781250 4.088948
32.900000 -28.502930 4.088948
33.600000 -27.849609 4.088948
34.200000 -27.071289 4.088948
34.900000 -26.417969 4.088948
35.600000 -22.139648 4.088948
36.400000 -21.486328 4.088948
37.200000 -20.708008 4.088948
38.100000 -20.054688 4.088948
39.100000 -19.026367 4.088948
31.200000 -29.876953 4.230252
31.800000 -29.100098 4.230252
32.400000 -29.073242 4.230252
33.000000 -28.046387 4.230252
33.600000 -27.769531 4.230252
34.300000 -23.367676 4.230252
35.000000 -26.465820 4.230252
35.700000 -25.938965 4.230252
36.400000 -21.412109 4.230252
37.200000 -20.510254 4.230252
38.200000 -19.983398 4.230252
39.100000 -19.206543 4.230252
31.100000 -29.733398 4.369860
31.600000 -29.328613 4.369860
32.100000 -29.173828 4.369860
32.800000 -28.269043 4.369860
33.500000 -24.239258 4.369860
34.100000 -27.084473 4.369860
34.800000 -22.929688 4.369860
35.500000 -22.274902 4.369860
36.200000 -21.370117 4.369860
37.100000 -20.715332 4.369860
37.900000 -19.810547 4.369860
38.900000 -19.280762 4.369860
39.800000 -18.500977 4.369860
40.800000 -17.721191 4.369860
31.700000 -29.756348 4.512829
32.300000 -29.223633 4.512829
32.900000 -28.315918 4.512829
33.500000 -28.033203 4.512829
34.100000 -27.250488 4.512829
34.800000 -26.592773 4.512829
35.600000 -26.060059 4.512829
36.300000 -21.402344 4.512829
37.100000 -24.744629 4.512829
38.000000 -20.086914 4.512829
39.000000 -19.304199 4.512829
39.900000 -18.521484 4.512829
31.600000 -29.477539 4.654004
32.200000 -29.070312 4.654004
32.800000 -28.288086 4.654004
33.500000 -28.130859 4.654004
34.100000 -27.223633 4.654004
34.800000 -26.691406 4.654004
35.500000 -22.159180 4.654004
36.200000 -21.501953 4.654004
37.100000 -24.844727 4.654004
37.900000 -20.312500 4.654004
38.900000 -19.404785 4.654004
39.800000 -18.497070 4.654004
41.000000 -17.589355 4.654004
31.400000 -29.714355 4.795996
32.000000 -29.059570 4.795996
32.600000 -28.904785 4.795996
33.200000 -28.250000 4.795996
33.800000 -27.222656 4.795996
34.500000 -26.945312 4.795996
35.200000 -22.417969 4.795996
36.000000 -21.765625 4.795996
36.800000 -21.238281 4.795996
37.600000 -20.335938 4.795996
38.400000 -19.558594 4.795996
39.400000 -18.906250 4.795996
40.400000 -18.253906 4.795996
31.100000 -29.822754 4.937694
31.600000 -29.419922 4.937694
32.200000 -29.267090 4.937694
32.800000 -28.739258 4.937694
33.500000 -27.836426 4.937694
34.100000 -27.433594 4.937694
34.800000 -22.905762 4.937694
35.500000 -26.002930 4.937694
36.200000 -21.350098 4.937694
37.100000 -20.947266 4.937694
37.900000 -20.044434 4.937694
38.900000 -19.141602 4.937694
39.800000 -18.613770 4.937694
40.900000 -17.710938 4.937694
32.000000 -28.927734 5.084906
32.500000 -28.523438 5.084906
33.100000 -27.994141 5.084906
33.800000 -27.464844 5.084906
34.500000 -23.185547 5.084906
35.200000 -22.531250 5.084906
36.000000 -21.876953 5.084906
36.700000 -21.222656 5.084906
37.600000 -24.443359 5.084906
38.500000 -19.414062 5.084906
39.400000 -18.759766 5.084906
40.400000 -18.230469 5.084906
31.900000 -29.507324 5.221877
32.500000 -28.600586 5.221877
33.100000 -28.068848 5.221877
33.800000 -27.787109 5.221877
34.500000 -26.880371 5.221877
35.200000 -26.348633 5.221877
35.900000 -25.566895 5.221877
36.700000 -21.285156 5.221877
37.600000 -20.503418 5.221877
38.400000 -19.721680 5.221877
39.400000 -18.939941 5.221877
40.400000 -18.158203 5.221877
31.300000 -29.772461 5.361906
31.900000 -29.243652 5.361906
32.400000 -28.464844 5.361906
33.000000 -28.061035 5.361906
33.600000 -27.407227 5.361906
34.200000 -26.878418 5.361906
35.000000 -22.724609 5.361906
35.800000 -25.945801 5.361906
36.600000 -21.166992 5.361906
37.400000 -20.763184 5.361906
38.300000 -19.734375 5.361906
39.200000 -19.204590 5.361906
40.100000 -18.299805 5.361906
31.400000 -29.632812 5.490789
31.900000 -29.103516 5.490789
32.500000 -28.574219 5.490789
33.100000 -28.169922 5.490789
33.800000 -27.390625 5.490789
34.400000 -26.986816 5.490789
35.200000 -26.208008 5.490789
35.900000 -25.679199 5.490789
36.700000 -21.275391 5.490789
37.500000 -20.496582 5.490789
38.400000 -19.592773 5.490789
39.400000 -18.938965 5.490789
40.400000 -18.160156 5.490789
31.400000 -29.958984 5.630789
31.900000 -29.305664 5.630789
32.500000 -28.527344 5.630789
33.100000 -24.499023 5.630789
33.800000 -27.720703 5.630789
34.400000 -26.942383 5.630789
35.200000 -26.289062 5.630789
35.900000 -25.760742 5.630789
36.700000 -25.107422 5.630789
37.600000 -20.579102 5.630789
38.500000 -19.550781 5.630789
39.400000 -18.897461 5.630789
40.400000 -17.994141 5.630789
35.400000 -22.509766 5.784750
35.900000 -25.731445 5.784750
36.700000 -25.203125 5.784750
37.500000 -20.674805 5.784750
38.300000 -19.771484 5.784750
39.300000 -18.868164 5.784750
40.400000 -18.214844 5.784750
31.600000 -29.391602 5.927056
32.200000 -29.234375 5.927056
32.800000 -28.452148 5.927056
33.500000 -28.044922 5.927056
34.200000 -27.387695 5.927056
34.900000 -26.730469 5.927056
35.500000 -22.073242 5.927056
36.300000 -21.541016 5.927056
37.200000 -20.758789 5.927056
38.100000 -20.101562 5.927056
39.000000 -19.444336 5.927056
31.500000 -29.770508 6.067751
32.000000 -28.865234 6.067751
32.600000 -28.959961 6.067751
33.200000 -28.054688 6.067751
33.800000 -27.274414 6.067751
34.600000 -26.994141 6.067751
35.300000 -26.213867 6.067751
36.000000 -21.558594 6.067751
36.900000 -21.028320 6.067751
37.800000 -20.248047 6.067751
38.700000 -19.592773 6.067751
39.600000 -18.812500 6.067751
40.700000 -17.906250 6.067751
31.700000 -29.308594 6.208018
32.300000 -29.028320 6.208018
32.900000 -28.623047 6.208018
33.500000 -27.717773 6.208018
34.200000 -26.937500 6.208018
35.000000 -26.659180 6.208018
35.600000 -22.005859 6.208018
36.400000 -21.227539 6.208018
37.200000 -20.699219 6.208018
38.100000 -19.795898 6.208018
39.100000 -19.142578 6.208018
31.300000 -29.976562 6.337455
31.800000 -29.574219 6.337455
32.400000 -28.671875 6.337455
33.000000 -28.519531 6.337455
33.700000 -27.867188 6.337455
34.300000 -27.214844 6.337455
35.000000 -26.562500 6.337455
35.900000 -21.785156 6.337455
36.600000 -21.132812 6.337455
37.400000 -20.480469 6.337455
38.300000 -19.703125 6.337455
39.200000 -18.925781 6.337455
40.200000 -18.148438 6.337455
31.100000 -29.933594 6.490454
31.600000 -29.153809 6.490454
32.200000 -28.999023 6.490454
32.800000 -28.219238 6.490454
33.500000 -27.689453 6.490454
34.200000 -27.409668 6.490454
34.900000 -22.754883 6.490454
35.500000 -26.100098 6.490454
36.300000 -25.445312 6.490454
37.200000 -20.790527 6.490454
38.000000 -20.135742 6.490454
38.900000 -19.105957 6.490454
31.600000 -29.837402 6.630456
32.100000 -29.429688 6.630456
32.700000 -28.521973 6.630456
33.400000 -24.364258 6.630456
34.000000 -23.706543 6.630456
34.700000 -26.923828 6.630456
35.500000 -22.141113 6.630456
36.200000 -21.608398 6.630456
37.000000 -24.950684 6.630456
37.900000 -20.042969 6.630456
38.700000 -19.510254 6.630456
39.700000 -18.727539 6.630456
40.800000 -18.069824 6.630456
31.500000 -29.467773 6.772455
32.000000 -28.939453 6.772455
32.500000 -28.286133 6.772455
33.100000 -28.132812 6.772455
33.800000 -27.604492 6.772455
34.500000 -26.951172 6.772455
35.300000 -26.422852 6.772455
36.000000 -21.894531 6.772455
36.800000 -21.116211 6.772455
37.600000 -20.587891 6.772455
38.400000 -19.684570 6.772455
39.400000 -18.906250 6.772455
40.400000 -18.127441 6.772455
31.400000 -29.604492 6.902456
32.000000 -29.324219 6.902456
32.500000 -28.668945 6.902456
33.100000 -24.513672 6.902456
33.800000 -27.233398 6.902456
34.500000 -27.078125 6.902456
35.200000 -22.549805 6.902456
36.000000 -25.646484 6.902456
36.800000 -21.118164 6.902456
37.600000 -20.589844 6.902456
38.400000 -19.561523 6.902456
39.400000 -19.033203 6.902456
40.400000 -18.254883 6.902456
31.100000 -29.770996 7.042466
31.600000 -29.120117 7.042466
32.200000 -28.594238 7.042466
32.800000 -28.318359 7.042466
33.500000 -27.792480 7.042466
34.200000 -26.891602 7.042466
34.900000 -22.865723 7.042466
35.600000 -25.964844 7.042466
36.300000 -21.313965 7.042466
37.100000 -20.788086 7.042466
38.000000 -20.137207 7.042466
38.900000 -19.361328 7.042466
39.900000 -18.585449 7.042466
40.900000 -17.809570 7.042466
31.600000 -29.503906 7.198467
32.200000 -29.100098 7.198467
32.800000 -28.321289 7.198467
33.400000 -27.917480 7.198467
34.100000 -27.263672 7.198467
34.700000 -26.609863 7.198467
35.400000 -26.206055 7.198467
36.200000 -21.552246 7.198467
37.100000 -20.773438 7.198467
37.900000 -19.994629 7.198467
38.800000 -19.590820 7.198467
39.700000 -18.812012 7.198467
40.800000 -18.033203 7.198467
31.400000 -29.948242 7.326178
32.000000 -29.040527 7.326178
32.500000 -28.882812 7.326178
33.100000 -28.100098 7.326178
33.800000 -27.192383 7.326178
34.500000 -23.159668 7.326178
35.200000 -26.126953 7.326178
36.000000 -21.719238 7.326178
36.800000 -21.186523 7.326178
37.600000 -20.528809 7.326178
38.600000 -19.496094 7.326178
39.500000 -18.588379 7.326178
31.900000 -29.176758 7.468177
32.500000 -28.396484 7.468177
33.100000 -28.491211 7.468177
33.700000 -27.835938 7.468177
34.400000 -26.930664 7.468177
35.200000 -22.650391 7.468177
35.900000 -25.870117 7.468177
36.700000 -20.964844 7.468177
37.500000 -20.684570 7.468177
38.400000 -19.904297 7.468177
39.300000 -18.749023 7.468177
40.300000 -18.218750 7.468177
31.100000 -29.636719 7.607178
31.600000 -29.228516 7.607178
32.300000 -29.195312 7.607178
32.900000 -28.287109 7.607178
33.500000 -27.753906 7.607178
34.200000 -27.220703 7.607178
34.900000 -22.812500 7.607178
35.600000 -22.033203 7.607178
36.300000 -25.378906 7.607178
37.100000 -20.724609 7.607178
38.100000 -19.695312 7.607178
39.000000 -19.291016 7.607178
40.000000 -18.261719 7.607178
31.500000 -29.941895 7.750206
32.000000 -29.415039 7.750206
32.600000 -28.638184 7.750206
33.300000 -27.986328 7.750206
33.900000 -27.584473 7.750206
34.600000 -23.057617 7.750206
35.400000 -26.280762 7.750206
36.100000 -25.628906 7.750206
36.800000 -21.102051 7.750206
37.800000 -20.200195 7.750206
38.700000 -19.423340 7.750206
39.600000 -18.646484 7.750206
40.600000 -17.869629 7.750206
31.200000 -29.701172 7.895176
31.700000 -29.671875 7.895176
32.300000 -28.767578 7.895176
32.900000 -28.113281 7.895176
33.500000 -27.958984 7.895176
34.200000 -26.929688 7.895176
35.000000 -26.525391 7.895176
35.700000 -25.996094 7.895176
36.400000 -25.216797 7.895176
37.300000 -20.437500 7.895176
38.200000 -20.033203 7.895176
39.000000 -19.253906 7.895176
32.000000 -29.538574 8.034548
32.500000 -28.632812 8.034548
33.100000 -28.102051 8.034548
33.800000 -27.196289 8.034548
34.500000 -26.790527 8.034548
35.200000 -22.509766 8.034548
36.000000 -21.854004 8.034548
36.800000 -21.073242 8.034548
37.700000 -20.167480 8.034548
38.700000 -19.636719 8.034548
39.500000 -18.605957 8.034548
40.500000 -18.200195 8.034548
31.900000 -29.431152 8.174861
32.500000 -28.653320 8.174861
33.100000 -28.250488 8.174861
33.700000 -27.597656 8.174861
34.400000 -26.944824 8.174861
35.200000 -22.541992 8.174861
35.900000 -25.889160 8.174861
36.700000 -20.986328 8.174861
37.500000 -20.333496 8.174861
38.400000 -19.555664 8.174861
39.300000 -19.277832 8.174861
40.300000 -18.250000 8.174861
31.300000 -29.875000 8.316229
31.900000 -28.968750 8.316229
32.400000 -28.812500 8.316229
33.000000 -28.156250 8.316229
33.700000 -27.875000 8.316229
34.300000 -26.968750 8.316229
35.000000 -26.562500 8.316229
35.900000 -22.034180 8.316229
36.700000 -21.255859 8.316229
37.500000 -20.477539 8.316229
38.400000 -19.824219 8.316229
39.300000 -19.045898 8.316229
40.300000 -18.392578 8.316229
31.300000 -29.656250 8.457228
31.900000 -29.378906 8.457228
32.500000 -28.601562 8.457228
33.000000 -28.074219 8.457228
33.700000 -27.671875 8.457228
34.400000 -27.144531 8.457228
35.100000 -26.492188 8.457228
35.900000 -21.839844 8.457228
36.700000 -21.187500 8.457228
37.500000 -20.410156 8.457228
38.400000 -19.632812 8.457228
39.300000 -18.855469 8.457228
40.300000 -18.078125 8.457228
31.300000 -29.868164 8.600253
31.900000 -28.963379 8.600253
32.400000 -28.433594 8.600253
33.000000 -28.153809 8.600253
33.700000 -27.624023 8.600253
34.300000 -27.094238 8.600253
35.000000 -26.314453 8.600253
35.800000 -25.784668 8.600253
36.600000 -21.379883 8.600253
37.500000 -20.725098 8.600253
38.300000 -19.570312 8.600253
39.300000 -19.040527 8.600253
40.300000 -18.385742 8.600253
31.100000 -29.921875 8.742354
31.600000 -29.265625 8.742354
32.200000 -28.734375 8.742354
32.800000 -28.703125 8.742354
33.500000 -27.921875 8.742354
34.200000 -27.015625 8.742354
35.000000 -22.734375 8.742354
35.700000 -25.953125 8.742354
36.300000 -25.296875 8.742354
37.200000 -20.890625 8.742354
38.100000 -19.984375 8.742354
39.000000 -19.203125 8.742354
31.300000 -29.815430 8.881570
31.900000 -29.535156 8.881570
32.400000 -28.629883 8.881570
33.000000 -27.974609 8.881570
33.700000 -27.569336 8.881570
34.400000 -27.164062 8.881570
35.100000 -26.258789 8.881570
35.800000 -21.978516 8.881570
36.700000 -21.323242 8.881570
37.500000 -20.667969 8.881570
38.400000 -19.887695 8.881570
39.300000 -18.732422 8.881570
40.300000 -18.202148 8.881570
31.500000 -29.474609 9.021477
32.000000 -29.192383 9.021477
32.600000 -28.285156 9.021477
33.200000 -27.752930 9.021477
33.800000 -23.720703 9.021477
34.600000 -26.563477 9.021477
35.400000 -26.031250 9.021477
36.100000 -25.627930 9.021477
36.800000 -20.974609 9.021477
37.700000 -20.071289 9.021477
38.700000 -19.417969 9.021477
39.600000 -18.764648 9.021477
40.600000 -17.986328 9.021477
31.100000 -29.968750 9.150138
31.700000 -29.690918 9.150138
32.300000 -28.788086 9.150138
32.900000 -28.260254 9.150138
33.500000 -27.607422 9.150138
34.200000 -26.954590 9.150138
34.900000 -26.301758 9.150138
35.600000 -25.898926 9.150138
36.400000 -21.246094 9.150138
37.200000 -20.593262 9.150138
38.100000 -19.940430 9.150138
39.000000 -19.287598 9.150138
31.400000 -29.550293 9.302732
31.900000 -29.394531 9.302732
32.500000 -28.488770 9.302732
33.100000 -27.708008 9.302732
33.800000 -27.677246 9.302732
34.500000 -23.146484 9.302732
35.300000 -26.240723 9.302732
36.100000 -21.834961 9.302732
36.800000 -25.054199 9.302732
37.700000 -20.148438 9.302732
38.600000 -19.492676 9.302732
39.500000 -18.711914 9.302732
40.500000 -17.931152 9.302732
31.500000 -29.906250 9.442644
32.000000 -28.875000 9.442644
32.600000 -28.593750 9.442644
33.200000 -28.312500 9.442644
33.800000 -27.656250 9.442644
34.600000 -26.750000 9.442644
35.400000 -26.218750 9.442644
36.100000 -21.687500 9.442644
36.800000 -21.156250 9.442644
37.700000 -20.250000 9.442644
38.600000 -19.593750 9.442644
31.500000 -29.843262 9.583916
32.000000 -29.439453 9.583916
32.600000 -28.660645 9.583916
33.300000 -27.881836 9.583916
33.900000 -27.103027 9.583916
34.600000 -26.949219 9.583916
35.400000 -26.045410 9.583916
36.100000 -21.766602 9.583916
36.800000 -24.987793 9.583916
37.700000 -20.083984 9.583916
38.600000 -19.680176 9.583916
39.600000 -18.901367 9.583916
40.600000 -17.997559 9.583916
31.600000 -29.230957 9.722477
32.100000 -29.200195 9.722477
32.800000 -28.419434 9.722477
33.400000 -28.013672 9.722477
34.000000 -23.607910 9.722477
34.700000 -22.952148 9.722477
35.400000 -26.171387 9.722477
36.200000 -21.640625 9.722477
36.900000 -20.613281 9.722477
37.800000 -20.085938 9.722477
38.800000 -19.433594 9.722477
39.600000 -18.656250 9.722477
40.600000 -18.003906 9.722477
31.500000 -29.809570 9.864270
32.000000 -29.281250 9.864270
32.700000 -28.753906 9.864270
33.300000 -27.726562 9.864270
33.900000 -27.449219 9.864270
34.600000 -26.671875 9.864270
35.400000 -26.144531 9.864270
36.100000 -25.617188 9.864270
36.900000 -20.839844 9.864270
37.700000 -20.437500 9.864270
38.600000 -19.410156 9.864270
39.500000 -18.507812 9.864270
40.600000 -18.105469 9.864270
31.300000 -29.905273 10.003308
31.900000 -29.501953 10.003308
32.500000 -28.473633 10.003308
33.000000 -28.195312 10.003308
33.700000 -27.541992 10.003308
34.400000 -27.013672 10.003308
35.100000 -22.485352 10.003308
35.900000 -21.957031 10.003308
36.700000 -25.178711 10.003308
37.500000 -20.275391 10.003308
38.300000 -19.872070 10.003308
39.300000 -19.218750 10.003308
40.300000 -18.315430 10.003308
