34.100000 9.890625 1.445606
34.250000 11.531250 1.445606
33.150000 -0.250000 1.585512
33.225000 0.984375 1.585512
33.275000 2.453125 1.585512
33.325000 3.640625 1.585512
33.375000 4.703125 1.585512
33.500000 5.937500 1.585512
33.625000 7.343750 1.585512
33.800000 7.875000 1.585512
33.900000 9.484375 1.585512
33.975000 10.468750 1.585512
34.225000 11.843750 1.585512
33.050000 0.312500 1.755216
33.075000 1.484375 1.755216
33.125000 2.375000 1.755216
33.200000 4.031250 1.755216
33.275000 4.953125 1.755216
33.350000 6.078125 1.755216
33.450000 7.328125 1.755216
33.600000 8.281250 1.755216
33.700000 9.875000 1.755216
32.925000 2.062500 1.899231
32.950000 2.890625 1.899231
33.000000 4.312500 1.899231
33.125000 5.546875 1.899231
33.200000 6.312500 1.899231
33.300000 7.546875 1.899231
33.425000 9.046875 1.899231
33.525000 9.734375 1.899231
33.675000 11.265625 1.899231
32.575000 0.984375 2.054543
32.575000 1.984375 2.054543
32.600000 3.546875 2.054543
32.675000 4.234375 2.054543
32.750000 5.453125 2.054543
32.850000 6.625000 2.054543
33.000000 7.734375 2.054543
33.125000 8.984375 2.054543
33.250000 9.937500 2.054543
33.350000 11.250000 2.054543
32.125000 1.093750 2.240443
32.175000 2.171875 2.240443
32.225000 3.125000 2.240443
32.275000 4.281250 2.240443
32.350000 5.656250 2.240443
32.500000 6.796875 2.240443
32.575000 7.765625 2.240443
32.675000 9.406250 2.240443
32.800000 10.312500 2.240443
32.950000 11.406250 2.240443
31.600000 1.187500 2.403443
31.650000 2.062500 2.403443
31.725000 2.953125 2.403443
31.800000 4.609375 2.403443
31.875000 5.859375 2.403443
31.950000 7.062500 2.403443
32.025000 7.687500 2.403443
32.150000 9.031250 2.403443
32.250000 10.000000 2.403443
30.575000 0.953125 2.523443
31.000000 2.000000 2.523443
31.025000 3.000000 2.523443
31.050000 4.109375 2.523443
31.075000 4.921875 2.523443
31.150000 6.640625 2.523443
31.250000 7.734375 2.523443
31.325000 9.125000 2.523443
31.450000 10.031250 2.523443
31.550000 11.218750 2.523443
31.700000 12.125000 2.523443
30.925000 0.796875 2.678442
30.975000 2.093750 2.678442
31.025000 3.234375 2.678442
31.075000 4.640625 2.678442
31.125000 5.281250 2.678442
31.225000 6.484375 2.678442
31.300000 8.312500 2.678442
31.400000 9.000000 2.678442
31.500000 10.125000 2.678442
31.650000 11.046875 2.678442
31.850000 12.453125 2.678442
31.350000 0.859375 2.845446
31.350000 2.171875 2.845446
31.375000 3.203125 2.845446
31.425000 4.890625 2.845446
31.500000 5.578125 2.845446
31.575000 6.906250 2.845446
31.675000 8.406250 2.845446
31.775000 9.187500 2.845446
31.900000 10.609375 2.845446
32.050000 11.828125 2.845446
31.625000 1.640625 3.007446
31.650000 2.578125 3.007446
31.675000 3.531250 3.007446
31.725000 5.062500 3.007446
31.800000 6.140625 3.007446
31.925000 6.734375 3.007446
32.025000 8.593750 3.007446
32.150000 9.453125 3.007446
32.275000 10.609375 3.007446
32.400000 11.656250 3.007446
31.850000 1.562500 3.150445
31.850000 2.421875 3.150445
31.875000 3.984375 3.150445
31.975000 5.250000 3.150445
32.075000 6.312500 3.150445
32.175000 7.359375 3.150445
32.300000 8.156250 3.150445
32.425000 9.703125 3.150445
32.550000 10.953125 3.150445
32.650000 12.203125 3.150445
32.050000 1.265625 3.305443
32.075000 2.750000 3.305443
32.150000 3.765625 3.305443
32.225000 4.921875 3.305443
32.300000 5.703125 3.305443
32.400000 6.875000 3.305443
32.475000 8.375000 3.305443
32.575000 9.437500 3.305443
32.725000 10.421875 3.305443
32.850000 11.859375 3.305443
32.175000 0.453125 3.470470
32.200000 1.593750 3.470470
32.200000 3.296875 3.470470
32.250000 3.937500 3.470470
32.350000 5.296875 3.470470
32.450000 6.390625 3.470470
32.500000 7.687500 3.470470
32.625000 8.703125 3.470470
32.775000 9.781250 3.470470
32.875000 11.015625 3.470470
33.175000 11.921875 3.470470
32.200000 0.968750 3.619461
32.225000 1.687500 3.619461
32.275000 3.343750 3.619461
32.325000 4.562500 3.619461
32.400000 5.578125 3.619461
32.500000 6.718750 3.619461
32.600000 7.734375 3.619461
32.725000 8.484375 3.619461
32.850000 9.781250 3.619461
32.300000 1.328125 3.801444
32.325000 2.281250 3.801444
32.350000 3.203125 3.801444
32.400000 4.687500 3.801444
32.475000 5.468750 3.801444
32.575000 6.906250 3.801444
32.650000 7.859375 3.801444
32.750000 9.125000 3.801444
32.875000 10.406250 3.801444
33.000000 11.500000 3.801444
32.275000 1.015625 3.936455
32.275000 2.656250 3.936455
32.350000 3.734375 3.936455
32.425000 4.656250 3.936455
32.475000 5.625000 3.936455
32.500000 6.921875 3.936455
32.600000 8.546875 3.936455
32.800000 9.468750 3.936455
32.925000 10.390625 3.936455
33.050000 11.593750 3.936455
32.175000 0.828125 4.108443
32.200000 1.921875 4.108443
32.250000 3.203125 4.108443
32.300000 3.921875 4.108443
32.375000 5.046875 4.108443
32.450000 6.093750 4.108443
32.550000 7.812500 4.108443
32.675000 8.765625 4.108443
32.800000 10.265625 4.108443
32.900000 10.812500 4.108443
33.275000 11.828125 4.108443
32.125000 0.500000 4.250444
32.150000 1.765625 4.250444
32.175000 3.046875 4.250444
32.200000 4.125000 4.250444
32.325000 5.453125 4.250444
32.400000 6.546875 4.250444
32.450000 7.531250 4.250444
32.550000 8.828125 4.250444
32.725000 9.453125 4.250444
32.850000 10.812500 4.250444
33.025000 11.796875 4.250444
31.975000 1.734375 4.406443
32.000000 2.859375 4.406443
32.050000 4.000000 4.406443
32.100000 5.500000 4.406443
32.200000 7.015625 4.406443
32.300000 7.781250 4.406443
32.400000 8.734375 4.406443
32.500000 10.359375 4.406443
32.625000 11.437500 4.406443
31.750000 1.968750 4.562447
31.775000 3.156250 4.562447
31.775000 4.031250 4.562447
31.850000 5.296875 4.562447
31.950000 6.171875 4.562447
32.075000 7.609375 4.562447
32.175000 8.750000 4.562447
32.275000 9.937500 4.562447
32.400000 10.781250 4.562447
32.650000 12.375000 4.562447
31.375000 1.671875 4.715443
31.425000 2.843750 4.715443
31.475000 4.296875 4.715443
31.550000 5.328125 4.715443
31.600000 6.375000 4.715443
31.700000 7.546875 4.715443
31.825000 8.515625 4.715443
31.950000 10.203125 4.715443
32.075000 11.421875 4.715443
32.200000 12.203125 4.715443
30.575000 0.796875 4.878443
31.050000 2.109375 4.878443
31.075000 2.671875 4.878443
31.125000 3.859375 4.878443
31.175000 5.515625 4.878443
31.275000 6.218750 4.878443
31.350000 7.968750 4.878443
31.425000 8.656250 4.878443
31.500000 9.843750 4.878443
31.600000 11.484375 4.878443
31.775000 12.093750 4.878443
30.575000 0.296875 5.033409
30.975000 1.765625 5.033409
30.975000 2.531250 5.033409
31.025000 3.687500 5.033409
31.100000 5.359375 5.033409
31.175000 6.140625 5.033409
31.250000 7.234375 5.033409
31.375000 8.406250 5.033409
31.475000 9.687500 5.033409
31.625000 11.343750 5.033409
31.775000 12.265625 5.033409
31.525000 1.765625 5.178408
31.575000 2.656250 5.178408
31.600000 3.875000 5.178408
31.700000 5.218750 5.178408
31.800000 6.343750 5.178408
31.875000 7.546875 5.178408
31.975000 8.359375 5.178408
32.100000 9.625000 5.178408
32.225000 10.812500 5.178408
32.400000 11.859375 5.178408
32.025000 0.218750 5.338409
32.050000 1.906250 5.338409
32.100000 2.750000 5.338409
32.125000 4.203125 5.338409
32.175000 5.046875 5.338409
32.250000 6.515625 5.338409
32.350000 7.718750 5.338409
32.500000 8.687500 5.338409
32.600000 10.156250 5.338409
32.750000 10.906250 5.338409
33.075000 12.187500 5.338409
32.425000 0.140625 5.494409
32.450000 1.515625 5.494409
32.475000 2.937500 5.494409
32.525000 3.515625 5.494409
32.600000 5.265625 5.494409
32.675000 6.421875 5.494409
32.775000 7.078125 5.494409
32.900000 8.328125 5.494409
33.050000 9.515625 5.494409
33.175000 11.015625 5.494409
33.375000 12.156250 5.494409
32.675000 0.156250 5.651434
32.725000 1.046875 5.651434
32.750000 2.406250 5.651434
32.800000 3.546875 5.651434
32.875000 4.765625 5.651434
32.950000 5.796875 5.651434
33.050000 6.828125 5.651434
33.175000 7.968750 5.651434
33.275000 9.359375 5.651434
33.400000 10.453125 5.651434
33.600000 11.828125 5.651434
32.850000 0.078125 5.802408
32.975000 0.812500 5.802408
33.000000 2.093750 5.802408
33.075000 3.125000 5.802408
33.150000 4.265625 5.802408
33.200000 6.015625 5.802408
33.250000 6.656250 5.802408
33.350000 8.140625 5.802408
33.475000 9.515625 5.802408
33.650000 10.593750 5.802408
33.825000 11.734375 5.802408
33.125000 0.968750 5.966409
33.150000 2.062500 5.966409
33.200000 2.640625 5.966409
33.250000 4.390625 5.966409
33.325000 5.109375 5.966409
33.425000 6.531250 5.966409
33.525000 7.906250 5.966409
33.625000 8.578125 5.966409
33.775000 10.015625 5.966409
33.925000 11.406250 5.966409
33.300000 0.234375 6.121408
33.275000 1.484375 6.121408
33.300000 2.843750 6.121408
33.400000 3.796875 6.121408
33.475000 4.906250 6.121408
33.575000 5.968750 6.121408
33.725000 7.562500 6.121408
33.825000 8.234375 6.121408
33.900000 9.484375 6.121408
34.050000 10.671875 6.121408
33.325000 -0.234375 6.280408
33.425000 1.156250 6.280408
33.475000 2.046875 6.280408
33.525000 3.406250 6.280408
33.575000 4.484375 6.280408
33.675000 5.500000 6.280408
33.775000 7.328125 6.280408
33.850000 8.000000 6.280408
33.975000 9.187500 6.280408
34.100000 10.234375 6.280408
34.375000 11.343750 6.280408
33.475000 2.375000 6.428407
33.525000 3.078125 6.428407
33.625000 4.250000 6.428407
33.700000 5.671875 6.428407
33.750000 6.812500 6.428407
33.875000 8.078125 6.428407
34.000000 8.875000 6.428407
34.125000 10.234375 6.428407
34.275000 11.015625 6.428407
33.525000 0.218750 6.593412
33.550000 1.437500 6.593412
33.575000 2.906250 6.593412
33.625000 3.781250 6.593412
33.700000 5.140625 6.593412
33.775000 6.546875 6.593412
33.875000 7.437500 6.593412
34.025000 8.796875 6.593412
34.150000 9.578125 6.593412
34.300000 10.781250 6.593412
33.500000 1.078125 6.748412
33.500000 2.171875 6.748412
33.550000 3.500000 6.748412
33.625000 4.140625 6.748412
33.725000 5.796875 6.748412
33.825000 6.468750 6.748412
33.950000 7.828125 6.748412
34.075000 9.406250 6.748412
34.200000 10.187500 6.748412
34.375000 11.125000 6.748412
33.475000 0.578125 6.919409
33.475000 1.687500 6.919409
33.500000 2.546875 6.919409
33.550000 3.984375 6.919409
33.650000 5.046875 6.919409
33.725000 6.328125 6.919409
33.775000 7.578125 6.919409
33.875000 8.671875 6.919409
34.050000 9.328125 6.919409
34.250000 10.781250 6.919409
33.400000 2.281250 7.068408
33.400000 3.250000 7.068408
33.475000 4.078125 7.068408
33.600000 5.250000 7.068408
33.725000 6.781250 7.068408
33.850000 7.421875 7.068408
33.975000 8.609375 7.068408
34.075000 10.109375 7.068408
34.225000 10.890625 7.068408
33.225000 0.031250 7.220408
33.300000 1.000000 7.220408
33.300000 2.531250 7.220408
33.350000 3.171875 7.220408
33.425000 4.781250 7.220408
33.475000 5.593750 7.220408
33.625000 6.656250 7.220408
33.775000 8.203125 7.220408
33.900000 9.546875 7.220408
34.000000 10.437500 7.220408
34.175000 11.390625 7.220408
33.100000 0.765625 7.385408
33.075000 1.843750 7.385408
33.125000 2.437500 7.385408
33.200000 3.875000 7.385408
33.250000 5.156250 7.385408
33.350000 6.265625 7.385408
33.450000 7.328125 7.385408
33.600000 8.406250 7.385408
33.700000 9.843750 7.385408
33.825000 10.968750 7.385408
32.850000 1.968750 7.529409
32.900000 3.390625 7.529409
32.975000 4.171875 7.529409
33.075000 5.406250 7.529409
33.175000 6.703125 7.529409
33.225000 8.093750 7.529409
33.350000 9.015625 7.529409
33.475000 10.453125 7.529409
33.625000 11.609375 7.529409
32.500000 0.890625 7.687409
32.550000 2.046875 7.687409
32.575000 3.812500 7.687409
32.675000 4.687500 7.687409
32.775000 6.031250 7.687409
32.850000 7.312500 7.687409
32.950000 7.875000 7.687409
33.075000 9.109375 7.687409
33.200000 10.437500 7.687409
33.325000 11.875000 7.687409
32.050000 1.484375 7.841409
32.075000 2.406250 7.841409
32.125000 3.765625 7.841409
32.175000 4.796875 7.841409
32.275000 6.406250 7.841409
32.375000 7.156250 7.841409
32.500000 8.562500 7.841409
32.625000 9.859375 7.841409
32.775000 10.781250 7.841409
32.950000 11.562500 7.841409
31.450000 1.687500 8.022410
31.500000 3.265625 8.022410
31.550000 4.328125 8.022410
31.600000 5.171875 8.022410
31.675000 6.500000 8.022410
31.800000 7.265625 8.022410
31.950000 8.359375 8.022410
32.050000 9.734375 8.022410
32.150000 10.640625 8.022410
32.350000 11.718750 8.022410
30.500000 0.187500 8.175409
30.600000 0.875000 8.175409
30.650000 2.156250 8.175409
30.675000 3.281250 8.175409
30.750000 4.265625 8.175409
30.875000 5.640625 8.175409
30.925000 7.015625 8.175409
31.000000 8.140625 8.175409
31.100000 8.953125 8.175409
31.200000 9.953125 8.175409
31.350000 11.718750 8.175409
31.525000 12.781250 8.175409
30.275000 -0.156250 8.327409
30.300000 1.296875 8.327409
30.325000 2.703125 8.327409
30.400000 3.140625 8.327409
30.475000 4.687500 8.327409
30.500000 5.625000 8.327409
30.575000 7.359375 8.327409
30.675000 7.703125 8.327409
30.775000 9.062500 8.327409
30.850000 10.078125 8.327409
31.000000 11.718750 8.327409
31.175000 13.000000 8.327409
30.675000 0.078125 8.464250
30.675000 1.375000 8.464250
30.725000 2.453125 8.464250
30.750000 3.937500 8.464250
30.825000 5.062500 8.464250
30.925000 6.062500 8.464250
31.000000 7.312500 8.464250
31.100000 8.781250 8.464250
31.250000 9.843750 8.464250
31.350000 10.593750 8.464250
31.450000 12.375000 8.464250
30.575000 0.421875 8.622584
30.975000 1.515625 8.622584
31.050000 2.828125 8.622584
31.125000 4.187500 8.622584
31.175000 5.234375 8.622584
31.250000 5.968750 8.622584
31.300000 7.609375 8.622584
31.375000 8.859375 8.622584
31.525000 9.468750 8.622584
31.600000 10.765625 8.622584
31.700000 12.187500 8.622584
31.225000 0.734375 8.774618
31.225000 2.125000 8.774618
31.275000 3.640625 8.774618
31.350000 4.312500 8.774618
31.400000 5.375000 8.774618
31.475000 6.859375 8.774618
31.550000 7.828125 8.774618
31.650000 9.468750 8.774618
31.775000 10.250000 8.774618
31.950000 11.203125 8.774618
32.350000 12.359375 8.774618
31.400000 1.046875 8.949599
31.425000 1.921875 8.949599
31.450000 3.390625 8.949599
31.500000 4.234375 8.949599
31.550000 5.562500 8.949599
31.625000 6.453125 8.949599
31.725000 7.796875 8.949599
31.825000 9.015625 8.949599
32.000000 9.953125 8.949599
31.525000 1.703125 9.091595
31.525000 3.171875 9.091595
31.550000 3.828125 9.091595
31.650000 5.140625 9.091595
31.725000 6.562500 9.091595
31.775000 7.375000 9.091595
31.900000 9.031250 9.091595
32.025000 10.125000 9.091595
32.150000 11.265625 9.091595
32.350000 12.187500 9.091595
31.575000 1.468750 9.258594
31.575000 2.250000 9.258594
31.625000 3.625000 9.258594
31.675000 4.859375 9.258594
31.750000 5.468750 9.258594
31.825000 7.109375 9.258594
31.900000 8.078125 9.258594
32.050000 9.171875 9.258594
32.225000 10.125000 9.258594
32.350000 11.750000 9.258594
31.575000 1.578125 9.412593
31.600000 2.328125 9.412593
31.625000 3.359375 9.412593
31.700000 4.640625 9.412593
31.775000 6.031250 9.412593
31.875000 7.296875 9.412593
31.975000 8.031250 9.412593
32.100000 8.984375 9.412593
32.275000 10.343750 9.412593
32.375000 11.312500 9.412593
31.500000 1.906250 9.591594
31.575000 2.546875 9.591594
31.625000 3.828125 9.591594
31.650000 4.968750 9.591594
31.775000 6.343750 9.591594
31.825000 7.312500 9.591594
31.900000 8.359375 9.591594
32.100000 9.531250 9.591594
32.250000 10.765625 9.591594
32.375000 12.156250 9.591594
31.375000 1.328125 9.709594
31.425000 2.281250 9.709594
31.500000 3.671875 9.709594
31.525000 4.750000 9.709594
31.600000 6.078125 9.709594
31.675000 7.140625 9.709594
31.825000 8.515625 9.709594
31.950000 9.593750 9.709594
32.025000 10.750000 9.709594
32.225000 11.390625 9.709594
31.275000 2.062500 9.896593
31.300000 3.140625 9.896593
31.350000 3.984375 9.896593
31.400000 5.109375 9.896593
31.450000 6.421875 9.896593
31.550000 7.187500 9.896593
31.650000 8.812500 9.896593
31.750000 10.093750 9.896593
31.900000 11.109375 9.896593
32.050000 11.796875 9.896593
31.025000 1.109375 10.029595
31.050000 2.562500 10.029595
31.100000 2.953125 10.029595
31.125000 4.843750 10.029595
31.200000 5.500000 10.029595
31.300000 6.500000 10.029595
31.350000 7.734375 10.029595
31.425000 9.437500 10.029595
31.550000 10.000000 10.029595
31.700000 11.312500 10.029595
32.025000 12.328125 10.029595
30.700000 0.296875 10.217594
30.700000 2.156250 10.217594
30.725000 3.078125 10.217594
30.775000 3.859375 10.217594
30.825000 5.625000 10.217594
30.900000 5.968750 10.217594
31.000000 7.453125 10.217594
31.100000 8.703125 10.217594
31.200000 10.015625 10.217594
31.300000 11.375000 10.217594
31.450000 12.328125 10.217594
30.250000 0.171875 10.352592
30.275000 1.484375 10.352592
30.300000 2.484375 10.352592
30.350000 3.406250 10.352592
30.400000 4.421875 10.352592
30.425000 5.468750 10.352592
30.500000 6.656250 10.352592
30.600000 8.218750 10.352592
30.700000 9.062500 10.352592
30.800000 10.234375 10.352592
30.900000 11.859375 10.352592
31.100000 12.921875 10.352592
30.650000 0.828125 10.507594
30.650000 1.718750 10.507594
30.650000 3.093750 10.507594
30.675000 4.015625 10.507594
30.775000 5.281250 10.507594
30.850000 6.093750 10.507594
30.925000 7.015625 10.507594
31.025000 8.687500 10.507594
31.150000 9.890625 10.507594
31.275000 11.218750 10.507594
31.375000 12.343750 10.507594
31.300000 1.906250 10.666593
31.350000 2.968750 10.666593
31.400000 4.671875 10.666593
31.450000 5.609375 10.666593
31.525000 6.875000 10.666593
31.650000 7.750000 10.666593
31.775000 9.187500 10.666593
31.875000 10.281250 10.666593
31.975000 11.609375 10.666593
32.375000 12.093750 10.666593
31.800000 1.500000 10.820593
31.850000 2.593750 10.820593
31.925000 4.125000 10.820593
31.975000 4.890625 10.820593
32.050000 6.281250 10.820593
32.150000 7.218750 10.820593
32.250000 8.734375 10.820593
32.350000 9.593750 10.820593
32.525000 10.578125 10.820593
32.675000 11.765625 10.820593
32.225000 1.734375 10.978593
32.275000 3.437500 10.978593
32.350000 4.375000 10.978593
32.425000 5.640625 10.978593
32.525000 6.328125 10.978593
32.675000 7.984375 10.978593
32.750000 8.921875 10.978593
32.850000 10.468750 10.978593
33.000000 11.343750 10.978593
32.575000 1.546875 11.139593
32.625000 2.296875 11.139593
32.675000 3.312500 11.139593
32.750000 4.937500 11.139593
32.825000 5.609375 11.139593
32.925000 7.000000 11.139593
33.025000 7.953125 11.139593
33.150000 9.328125 11.139593
33.275000 10.828125 11.139593
33.425000 11.734375 11.139593
32.875000 1.687500 11.279594
32.900000 3.203125 11.279594
32.975000 4.281250 11.279594
33.050000 5.781250 11.279594
33.150000 6.343750 11.279594
33.250000 7.625000 11.279594
33.375000 8.765625 11.279594
33.500000 10.203125 11.279594
33.625000 11.093750 11.279594
33.000000 0.156250 11.438595
33.075000 1.625000 11.438595
33.100000 2.781250 11.438595
33.150000 3.375000 11.438595
33.250000 4.531250 11.438595
33.300000 6.062500 11.438595
33.400000 7.375000 11.438595
33.525000 8.625000 11.438595
33.650000 9.265625 11.438595
33.775000 10.515625 11.438595
34.150000 11.593750 11.438595
33.225000 1.906250 11.595594
33.250000 3.281250 11.595594
33.350000 4.265625 11.595594
33.425000 5.625000 11.595594
33.500000 6.859375 11.595594
33.625000 8.078125 11.595594
33.750000 8.937500 11.595594
33.900000 10.250000 11.595594
34.025000 11.375000 11.595594
33.425000 0.609375 11.748593
33.325000 1.250000 11.748593
33.400000 2.718750 11.748593
33.425000 3.859375 11.748593
33.475000 5.093750 11.748593
33.575000 6.453125 11.748593
33.675000 7.484375 11.748593
33.800000 8.390625 11.748593
33.950000 9.890625 11.748593
34.075000 10.687500 11.748593
33.600000 0.187500 11.901594
33.525000 1.328125 11.901594
33.450000 2.375000 11.901594
33.500000 3.718750 11.901594
33.575000 4.515625 11.901594
33.675000 6.000000 11.901594
33.775000 6.828125 11.901594
33.850000 8.328125 11.901594
33.975000 9.296875 11.901594
34.100000 10.296875 11.901594
34.425000 11.281250 11.901594
33.600000 0.859375 12.084593
33.475000 2.093750 12.084593
33.500000 2.609375 12.084593
33.575000 4.046875 12.084593
33.650000 5.484375 12.084593
33.775000 6.625000 12.084593
33.875000 7.687500 12.084593
33.950000 8.843750 12.084593
34.075000 9.703125 12.084593
34.200000 11.390625 12.084593
33.600000 0.109375 12.212624
33.500000 1.140625 12.212624
33.450000 2.218750 12.212624
33.525000 3.296875 12.212624
33.575000 4.437500 12.212624
33.675000 5.859375 12.212624
33.825000 6.921875 12.212624
33.900000 8.359375 12.212624
34.000000 9.656250 12.212624
34.125000 10.515625 12.212624
34.525000 11.312500 12.212624
32.950000 -0.203125 12.381115
33.275000 0.953125 12.381115
33.325000 2.390625 12.381115
33.450000 2.937500 12.381115
33.550000 4.109375 12.381115
33.650000 5.765625 12.381115
33.775000 6.937500 12.381115
33.875000 8.187500 12.381115
33.975000 9.093750 12.381115
34.100000 9.921875 12.381115
34.250000 11.250000 12.381115
33.150000 -0.015625 12.528803
33.325000 0.859375 12.528803
33.425000 2.343750 12.528803
33.425000 3.500000 12.528803
33.500000 4.828125 12.528803
33.600000 6.031250 12.528803
33.700000 7.234375 12.528803
33.825000 8.453125 12.528803
33.950000 9.515625 12.528803
34.075000 10.609375 12.528803
34.300000 11.890625 12.528803
33.125000 0.828125 12.703748
33.175000 1.437500 12.703748
33.225000 2.843750 12.703748
33.275000 3.781250 12.703748
33.375000 5.125000 12.703748
33.475000 6.187500 12.703748
33.600000 7.281250 12.703748
33.675000 8.671875 12.703748
33.775000 9.796875 12.703748
33.950000 10.781250 12.703748
33.025000 1.953125 12.845750
33.075000 2.921875 12.845750
33.125000 4.031250 12.845750
33.175000 5.375000 12.845750
33.300000 6.640625 12.845750
33.400000 8.062500 12.845750
33.550000 9.000000 12.845750
33.700000 10.171875 12.845750
33.825000 11.328125 12.845750
32.775000 0.906250 12.992750
32.750000 1.546875 12.992750
32.775000 2.796875 12.992750
32.850000 4.234375 12.992750
32.925000 5.062500 12.992750
33.000000 6.406250 12.992750
33.125000 7.765625 12.992750
33.250000 8.421875 12.992750
33.375000 9.765625 12.992750
33.500000 10.640625 12.992750
32.400000 1.234375 13.150750
32.425000 2.031250 13.150750
32.475000 3.546875 13.150750
32.550000 4.625000 13.150750
32.625000 6.156250 13.150750
32.775000 6.953125 13.150750
32.875000 8.296875 13.150750
32.975000 9.203125 13.150750
33.125000 10.203125 13.150750
33.250000 11.421875 13.150750
31.975000 2.031250 13.313764
32.025000 2.984375 13.313764
32.050000 4.234375 13.313764
32.100000 5.484375 13.313764
32.200000 6.437500 13.313764
32.325000 7.453125 13.313764
32.450000 8.656250 13.313764
32.550000 10.187500 13.313764
32.650000 11.359375 13.313764
32.950000 12.218750 13.313764
31.400000 1.390625 13.477750
31.425000 2.593750 13.477750
31.425000 3.921875 13.477750
31.475000 4.687500 13.477750
31.575000 5.765625 13.477750
31.650000 7.000000 13.477750
31.775000 8.140625 13.477750
31.925000 9.640625 13.477750
32.000000 10.500000 13.477750
32.100000 11.671875 13.477750
30.800000 1.265625 13.616747
30.825000 2.343750 13.616747
30.850000 2.937500 13.616747
30.900000 4.531250 13.616747
30.975000 5.718750 13.616747
31.050000 6.750000 13.616747
31.125000 7.921875 13.616747
31.200000 9.359375 13.616747
31.300000 9.968750 13.616747
31.425000 11.234375 13.616747
31.600000 12.312500 13.616747
31.150000 0.921875 13.798748
31.150000 2.265625 13.798748
31.175000 3.937500 13.798748
31.225000 4.656250 13.798748
31.300000 6.218750 13.798748
31.375000 6.718750 13.798748
31.475000 7.984375 13.798748
31.575000 9.171875 13.798748
31.725000 10.125000 13.798748
31.850000 11.765625 13.798748
31.475000 1.468750 13.932787
31.500000 2.578125 13.932787
31.525000 4.046875 13.932787
31.575000 5.312500 13.932787
31.650000 6.328125 13.932787
31.750000 7.296875 13.932787
31.850000 8.750000 13.932787
32.000000 10.125000 13.932787
32.125000 11.156250 13.932787
32.250000 12.390625 13.932787
31.700000 1.218750 14.114775
31.750000 1.953125 14.114775
31.800000 3.093750 14.114775
31.850000 4.250000 14.114775
31.900000 5.375000 14.114775
31.975000 6.906250 14.114775
32.100000 7.734375 14.114775
32.225000 9.046875 14.114775
32.325000 10.000000 14.114775
31.950000 1.140625 14.248747
31.975000 2.671875 14.248747
32.000000 3.671875 14.248747
32.075000 4.687500 14.248747
32.175000 5.921875 14.248747
32.300000 7.125000 14.248747
32.375000 8.531250 14.248747
32.500000 9.640625 14.248747
32.625000 11.062500 14.248747
32.725000 12.093750 14.248747
32.100000 1.109375 14.418774
32.125000 2.343750 14.418774
32.125000 3.390625 14.418774
32.200000 4.593750 14.418774
32.325000 5.328125 14.418774
32.425000 6.406250 14.418774
32.475000 7.937500 14.418774
32.550000 8.828125 14.418774
32.700000 10.281250 14.418774
32.850000 11.406250 14.418774
32.175000 0.640625 14.561749
32.225000 1.312500 14.561749
32.225000 2.484375 14.561749
32.300000 3.734375 14.561749
32.375000 5.328125 14.561749
32.425000 6.109375 14.561749
32.550000 7.500000 14.561749
32.650000 8.171875 14.561749
32.750000 9.687500 14.561749
32.875000 10.890625 14.561749
33.050000 12.156250 14.561749
32.300000 1.312500 14.721784
32.300000 2.250000 14.721784
32.350000 3.078125 14.721784
32.425000 4.640625 14.721784
32.475000 5.515625 14.721784
32.550000 6.984375 14.721784
32.675000 7.796875 14.721784
32.775000 8.812500 14.721784
32.875000 10.312500 14.721784
33.000000 11.734375 14.721784
32.225000 0.687500 14.874782
32.225000 2.000000 14.874782
32.300000 3.156250 14.874782
32.400000 4.078125 14.874782
32.450000 5.406250 14.874782
32.525000 6.421875 14.874782
32.600000 7.265625 14.874782
32.750000 8.953125 14.874782
32.875000 9.609375 14.874782
33.000000 10.890625 14.874782
33.350000 11.984375 14.874782
32.300000 1.078125 15.051747
32.325000 2.609375 15.051747
32.325000 3.843750 15.051747
32.400000 4.562500 15.051747
32.475000 5.578125 15.051747
32.550000 7.203125 15.051747
32.625000 7.968750 15.051747
32.775000 9.578125 15.051747
32.900000 10.343750 15.051747
33.025000 11.734375 15.051747
32.175000 0.671875 15.183748
32.200000 1.796875 15.183748
32.225000 2.750000 15.183748
32.275000 3.703125 15.183748
32.350000 5.265625 15.183748
32.425000 5.843750 15.183748
32.525000 7.421875 15.183748
32.625000 8.609375 15.183748
32.725000 10.015625 15.183748
32.850000 11.015625 15.183748
33.025000 12.312500 15.183748
32.075000 0.750000 15.354747
32.100000 1.593750 15.354747
32.150000 2.687500 15.354747
32.150000 4.140625 15.354747
32.225000 5.171875 15.354747
32.350000 5.968750 15.354747
32.400000 7.140625 15.354747
32.500000 8.453125 15.354747
32.675000 9.890625 15.354747
32.800000 10.687500 15.354747
32.975000 12.093750 15.354747
31.850000 1.500000 15.497747
31.850000 2.359375 15.497747
31.875000 3.562500 15.497747
31.975000 4.343750 15.497747
32.075000 5.703125 15.497747
32.150000 7.171875 15.497747
32.225000 7.937500 15.497747
32.350000 9.390625 15.497747
32.450000 10.140625 15.497747
32.575000 11.843750 15.497747
31.600000 1.984375 15.654778
31.600000 3.203125 15.654778
31.650000 4.437500 15.654778
31.725000 5.265625 15.654778
31.825000 6.375000 15.654778
31.900000 7.812500 15.654778
32.025000 8.562500 15.654778
32.150000 9.906250 15.654778
32.275000 10.750000 15.654778
32.425000 12.046875 15.654778
31.275000 1.468750 15.806778
31.275000 2.765625 15.806778
31.325000 3.484375 15.806778
31.375000 4.671875 15.806778
31.425000 5.718750 15.806778
31.525000 6.812500 15.806778
31.625000 8.390625 15.806778
31.725000 9.156250 15.806778
31.825000 10.375000 15.806778
31.975000 11.812500 15.806778
30.475000 -0.171875 15.968749
30.775000 0.562500 15.968749
30.775000 2.171875 15.968749
30.825000 3.406250 15.968749
30.875000 4.187500 15.968749
30.925000 5.796875 15.968749
31.025000 6.500000 15.968749
31.100000 7.718750 15.968749
31.200000 8.796875 15.968749
31.300000 9.953125 15.968749
31.400000 11.234375 15.968749
31.525000 12.093750 15.968749
31.225000 1.921875 16.120964
31.250000 3.093750 16.120964
31.325000 3.859375 16.120964
31.400000 4.984375 16.120964
31.450000 6.218750 16.120964
31.550000 7.171875 16.120964
31.650000 8.093750 16.120964
31.800000 9.906250 16.120964
31.925000 11.109375 16.120964
32.050000 11.718750 16.120964
31.800000 1.843750 16.282298
31.850000 3.125000 16.282298
31.875000 4.015625 16.282298
31.950000 4.984375 16.282298
32.050000 6.203125 16.282298
32.125000 7.859375 16.282298
32.250000 8.734375 16.282298
32.375000 10.218750 16.282298
32.525000 10.890625 16.282298
32.825000 12.296875 16.282298
32.225000 0.921875 16.434098
32.250000 2.468750 16.434098
32.300000 3.750000 16.434098
32.350000 4.828125 16.434098
32.425000 5.812500 16.434098
32.550000 7.312500 16.434098
32.625000 8.406250 16.434098
32.750000 9.515625 16.434098
32.925000 10.781250 16.434098
33.050000 11.625000 16.434098
32.575000 0.640625 16.609329
32.575000 2.312500 16.609329
32.600000 3.046875 16.609329
32.725000 4.156250 16.609329
32.750000 5.859375 16.609329
32.800000 6.656250 16.609329
32.950000 7.546875 16.609329
33.100000 9.171875 16.609329
33.225000 10.046875 16.609329
33.350000 11.687500 16.609329
32.825000 0.500000 16.759329
32.850000 1.484375 16.759329
32.850000 2.203125 16.759329
32.925000 3.296875 16.759329
33.000000 4.468750 16.759329
33.100000 6.062500 16.759329
33.175000 6.781250 16.759329
33.250000 8.046875 16.759329
33.350000 9.703125 16.759329
33.500000 10.281250 16.759329
33.725000 11.734375 16.759329
33.075000 0.765625 16.903329
33.100000 2.390625 16.903329
33.125000 3.328125 16.903329
33.175000 4.703125 16.903329
33.250000 5.265625 16.903329
33.350000 6.734375 16.903329
33.450000 7.687500 16.903329
33.600000 8.750000 16.903329
33.725000 10.421875 16.903329
33.875000 11.375000 16.903329
33.200000 0.281250 17.054330
33.250000 1.421875 17.054330
33.300000 2.453125 17.054330
33.350000 3.828125 17.054330
33.375000 4.750000 17.054330
33.450000 6.375000 17.054330
33.575000 7.187500 17.054330
33.700000 8.250000 17.054330
33.825000 9.500000 17.054330
33.375000 1.953125 17.225329
33.425000 3.296875 17.225329
33.500000 4.328125 17.225329
33.550000 5.703125 17.225329
33.650000 6.968750 17.225329
33.800000 7.781250 17.225329
33.900000 9.250000 17.225329
34.000000 10.046875 17.225329
34.150000 11.578125 17.225329
33.375000 0.171875 17.366330
33.450000 1.015625 17.366330
33.475000 2.453125 17.366330
33.550000 3.187500 17.366330
33.625000 4.640625 17.366330
33.675000 5.640625 17.366330
33.800000 6.671875 17.366330
33.925000 8.156250 17.366330
34.025000 9.531250 17.366330
34.175000 10.500000 17.366330
34.400000 11.375000 17.366330
33.475000 0.218750 17.540328
33.500000 1.515625 17.540328
33.550000 2.437500 17.540328
33.625000 4.062500 17.540328
33.675000 5.140625 17.540328
33.725000 6.375000 17.540328
33.875000 7.265625 17.540328
34.000000 8.687500 17.540328
34.100000 9.437500 17.540328
34.225000 10.906250 17.540328
33.525000 0.484375 17.693332
33.525000 1.656250 17.693332
33.575000 2.875000 17.693332
33.650000 3.875000 17.693332
33.725000 5.312500 17.693332
33.825000 6.390625 17.693332
33.925000 7.453125 17.693332
34.025000 8.609375 17.693332
34.150000 9.984375 17.693332
34.275000 11.171875 17.693332
33.475000 0.390625 17.844329
33.500000 1.546875 17.844329
33.500000 2.734375 17.844329
33.575000 3.546875 17.844329
33.650000 5.078125 17.844329
33.750000 5.718750 17.844329
33.850000 7.093750 17.844329
33.925000 8.250000 17.844329
34.100000 9.265625 17.844329
33.400000 0.500000 17.994329
33.450000 2.015625 17.994329
33.500000 2.671875 17.994329
33.600000 3.968750 17.994329
33.675000 5.125000 17.994329
33.725000 6.593750 17.994329
33.825000 7.218750 17.994329
33.975000 8.656250 17.994329
34.125000 9.515625 17.994329
34.250000 10.906250 17.994329
33.225000 -0.046875 18.155336
33.350000 1.468750 18.155336
33.350000 2.140625 18.155336
33.375000 3.750000 18.155336
33.475000 4.453125 18.155336
33.600000 5.609375 18.155336
33.675000 6.921875 18.155336
33.800000 8.390625 18.155336
33.950000 8.968750 18.155336
34.075000 10.656250 18.155336
34.250000 11.203125 18.155336
33.150000 0.843750 18.311329
33.200000 1.906250 18.311329
33.250000 3.156250 18.311329
33.275000 4.203125 18.311329
33.325000 5.468750 18.311329
33.450000 6.375000 18.311329
33.600000 7.250000 18.311329
33.700000 9.000000 18.311329
33.825000 9.546875 18.311329
33.975000 10.890625 18.311329
32.775000 0.187500 18.467361
33.000000 0.906250 18.467361
33.025000 2.140625 18.467361
33.075000 3.093750 18.467361
33.125000 4.468750 18.467361
33.200000 5.687500 18.467361
33.300000 6.781250 18.467361
33.400000 7.953125 18.467361
33.525000 9.343750 18.467361
33.700000 10.078125 18.467361
33.825000 11.062500 18.467361
32.675000 0.515625 18.624597
32.675000 1.171875 18.624597
32.725000 2.546875 18.624597
32.800000 3.859375 18.624597
32.875000 4.781250 18.624597
32.950000 6.296875 18.624597
33.050000 7.343750 18.624597
33.150000 8.312500 18.624597
33.275000 9.453125 18.624597
33.400000 10.750000 18.624597
33.650000 12.062500 18.624597
32.250000 1.546875 18.779288
32.300000 2.968750 18.779288
32.350000 3.562500 18.779288
32.450000 5.312500 18.779288
32.550000 6.515625 18.779288
32.675000 7.062500 18.779288
32.775000 8.718750 18.779288
32.900000 9.937500 18.779288
33.050000 10.750000 18.779288
33.275000 12.250000 18.779288
31.775000 0.718750 18.959934
31.825000 1.890625 18.959934
31.875000 3.234375 18.959934
31.925000 4.890625 18.959934
32.000000 5.593750 18.959934
32.075000 6.953125 18.959934
32.200000 8.187500 18.959934
32.300000 9.359375 18.959934
32.425000 10.609375 18.959934
32.600000 11.343750 18.959934
30.600000 -0.250000 19.118937
31.100000 1.468750 19.118937
31.150000 2.546875 19.118937
31.200000 3.234375 19.118937
31.275000 5.140625 19.118937
31.325000 6.093750 19.118937
31.425000 6.718750 19.118937
31.525000 8.093750 19.118937
31.650000 9.156250 19.118937
31.800000 10.765625 19.118937
31.950000 11.390625 19.118937
30.275000 0.062500 19.262934
30.325000 1.125000 19.262934
30.350000 2.625000 19.262934
30.375000 3.281250 19.262934
30.400000 4.453125 19.262934
30.475000 5.718750 19.262934
30.550000 6.984375 19.262934
30.650000 7.718750 19.262934
30.750000 9.468750 19.262934
30.850000 10.046875 19.262934
31.000000 11.718750 19.262934
31.200000 12.515625 19.262934
30.475000 0.578125 19.404934
30.500000 2.000000 19.404934
30.575000 3.234375 19.404934
30.600000 4.468750 19.404934
30.675000 4.968750 19.404934
30.775000 6.750000 19.404934
30.850000 7.796875 19.404934
30.925000 9.031250 19.404934
31.050000 9.531250 19.404934
31.200000 10.859375 19.404934
31.350000 12.328125 19.404934
30.775000 -0.046875 19.566935
30.825000 1.515625 19.566935
30.850000 2.390625 19.566935
30.900000 3.390625 19.566935
31.000000 4.937500 19.566935
31.050000 6.093750 19.566935
31.075000 6.765625 19.566935
31.175000 8.484375 19.566935
31.325000 9.390625 19.566935
31.425000 10.812500 19.566935
31.575000 11.687500 19.566935
31.950000 12.703125 19.566935
31.125000 1.343750 19.725935
31.175000 2.390625 19.725935
31.225000 4.156250 19.725935
31.250000 4.781250 19.725935
31.325000 5.968750 19.725935
31.400000 7.375000 19.725935
31.525000 8.187500 19.725935
31.650000 9.609375 19.725935
31.750000 10.640625 19.725935
31.875000 12.171875 19.725935
31.325000 2.031250 19.869960
31.350000 2.781250 19.869960
31.400000 4.093750 19.869960
31.475000 5.062500 19.869960
31.550000 6.609375 19.869960
31.625000 8.062500 19.869960
31.725000 8.937500 19.869960
31.850000 10.093750 19.869960
31.975000 11.546875 19.869960
32.150000 12.078125 19.869960
31.450000 1.734375 20.022864
31.475000 3.250000 20.022864
31.550000 4.156250 20.022864
31.575000 5.015625 20.022864
31.625000 6.312500 20.022864
31.750000 7.781250 20.022864
31.875000 8.953125 20.022864
31.975000 9.625000 20.022864
32.125000 10.859375 20.022864
32.300000 12.062500 20.022864
31.525000 1.484375 20.182863
31.600000 3.218750 20.182863
31.600000 3.781250 20.182863
31.675000 5.468750 20.182863
31.750000 6.687500 20.182863
31.775000 7.828125 20.182863
31.875000 8.609375 20.182863
32.000000 10.062500 20.182863
32.125000 10.828125 20.182863
32.300000 12.437500 20.182863
31.575000 0.734375 20.337864
31.625000 2.343750 20.337864
31.650000 3.484375 20.337864
31.675000 4.156250 20.337864
31.750000 5.796875 20.337864
31.775000 7.062500 20.337864
31.875000 7.812500 20.337864
32.050000 9.093750 20.337864
32.200000 10.203125 20.337864
32.325000 11.296875 20.337864
31.525000 1.765625 20.493863
31.600000 2.968750 20.493863
31.600000 3.609375 20.493863
31.700000 4.859375 20.493863
31.850000 6.500000 20.493863
31.900000 7.437500 20.493863
31.950000 8.406250 20.493863
32.175000 9.656250 20.493863
32.225000 10.593750 20.493863
32.325000 12.359375 20.493863
31.450000 1.640625 20.662864
31.475000 2.171875 20.662864
31.525000 3.906250 20.662864
31.600000 5.078125 20.662864
31.675000 5.765625 20.662864
31.750000 6.656250 20.662864
31.850000 8.328125 20.662864
32.000000 9.593750 20.662864
32.125000 10.500000 20.662864
32.200000 11.828125 20.662864
31.400000 1.687500 20.825863
31.400000 2.859375 20.825863
31.450000 4.296875 20.825863
31.500000 4.953125 20.825863
31.550000 6.140625 20.825863
31.675000 7.437500 20.825863
31.800000 9.171875 20.825863
31.925000 10.140625 20.825863
32.050000 11.328125 20.825863
32.200000 12.515625 20.825863
31.175000 1.531250 20.966865
31.250000 2.593750 20.966865
31.250000 3.890625 20.966865
31.275000 4.937500 20.966865
31.325000 6.406250 20.966865
31.425000 7.390625 20.966865
31.550000 8.906250 20.966865
31.625000 9.718750 20.966865
31.750000 11.156250 20.966865
31.950000 11.671875 20.966865
30.475000 -0.093750 21.141863
30.850000 1.296875 21.141863
30.875000 2.578125 21.141863
30.900000 4.031250 21.141863
30.975000 4.609375 21.141863
31.075000 6.015625 21.141863
31.150000 6.937500 21.141863
31.225000 8.468750 21.141863
31.325000 9.359375 21.141863
31.450000 10.390625 21.141863
31.550000 11.968750 21.141863
30.525000 0.500000 21.289864
30.525000 2.468750 21.289864
30.550000 2.875000 21.289864
30.575000 4.640625 21.289864
30.650000 5.046875 21.289864
30.725000 6.359375 21.289864
30.825000 7.640625 21.289864
30.900000 9.109375 21.289864
30.975000 10.109375 21.289864
31.125000 11.250000 21.289864
31.275000 12.609375 21.289864
30.300000 0.062500 21.436864
30.300000 1.437500 21.436864
30.325000 2.343750 21.436864
30.325000 3.296875 21.436864
30.350000 4.937500 21.436864
30.450000 5.531250 21.436864
30.500000 7.031250 21.436864
30.550000 7.859375 21.436864
30.675000 8.984375 21.436864
30.800000 10.468750 21.436864
30.900000 12.046875 21.436864
31.175000 12.703125 21.436864
30.525000 0.640625 21.601863
30.975000 1.343750 21.601863
31.050000 2.765625 21.601863
31.100000 4.343750 21.601863
31.150000 5.390625 21.601863
31.250000 6.343750 21.601863
31.350000 7.531250 21.601863
31.400000 8.750000 21.601863
31.550000 9.625000 21.601863
31.650000 10.765625 21.601863
31.775000 11.671875 21.601863
31.525000 1.671875 21.748868
31.575000 2.781250 21.748868
31.650000 4.296875 21.748868
31.725000 5.468750 21.748868
31.825000 6.406250 21.748868
31.925000 7.796875 21.748868
32.025000 8.890625 21.748868
32.125000 10.125000 21.748868
32.275000 11.078125 21.748868
32.650000 12.546875 21.748868
32.025000 0.718750 21.899864
32.050000 1.890625 21.899864
32.125000 3.015625 21.899864
32.175000 4.765625 21.899864
32.225000 5.484375 21.899864
32.325000 7.218750 21.899864
32.450000 7.921875 21.899864
32.550000 8.953125 21.899864
32.675000 10.343750 21.899864
32.800000 11.703125 21.899864
32.375000 1.562500 22.056863
32.425000 2.281250 22.056863
32.475000 3.562500 22.056863
32.550000 5.000000 22.056863
32.650000 5.781250 22.056863
32.775000 7.437500 22.056863
32.900000 8.218750 22.056863
33.025000 9.187500 22.056863
33.125000 10.578125 22.056863
33.325000 12.062500 22.056863
32.725000 1.781250 22.251863
32.775000 3.078125 22.251863
32.850000 4.406250 22.251863
32.950000 5.281250 22.251863
33.075000 6.687500 22.251863
33.150000 7.890625 22.251863
33.225000 8.921875 22.251863
33.350000 10.359375 22.251863
33.500000 11.062500 22.251863
32.900000 0.546875 22.398863
32.925000 1.609375 22.398863
32.975000 2.390625 22.398863
33.050000 4.031250 22.398863
33.125000 5.093750 22.398863
33.200000 5.765625 22.398863
33.300000 6.921875 22.398863
33.425000 8.062500 22.398863
33.575000 9.375000 22.398863
33.725000 10.531250 22.398863
34.125000 11.750000 22.398863
32.850000 -0.062500 22.532863
33.100000 0.906250 22.532863
33.175000 2.515625 22.532863
33.200000 3.093750 22.532863
33.275000 4.328125 22.532863
33.350000 5.421875 22.532863
33.450000 6.859375 22.532863
33.575000 7.812500 22.532863
33.700000 9.281250 22.532863
33.800000 10.500000 22.532863
33.950000 11.578125 22.532863
33.200000 0.375000 22.692863
33.275000 1.906250 22.692863
33.325000 3.015625 22.692863
33.400000 4.312500 22.692863
33.475000 5.593750 22.692863
33.550000 6.234375 22.692863
33.675000 7.625000 22.692863
33.800000 8.671875 22.692863
33.925000 9.593750 22.692863
34.075000 10.765625 22.692863
33.550000 0.296875 22.842864
33.400000 1.750000 22.842864
33.400000 2.843750 22.842864
33.475000 3.875000 22.842864
33.550000 4.625000 22.842864
33.675000 5.843750 22.842864
33.750000 7.078125 22.842864
33.850000 8.671875 22.842864
33.950000 9.328125 22.842864
33.450000 2.125000 23.005867
33.500000 2.890625 23.005867
33.575000 4.000000 23.005867
33.675000 5.468750 23.005867
33.775000 6.656250 23.005867
33.875000 8.109375 23.005867
33.975000 9.015625 23.005867
34.100000 10.093750 23.005867
34.250000 11.046875 23.005867
33.600000 0.234375 23.155865
33.475000 1.578125 23.155865
33.500000 2.812500 23.155865
33.575000 4.000000 23.155865
33.650000 4.953125 23.155865
33.750000 6.375000 23.155865
33.850000 7.140625 23.155865
33.975000 8.343750 23.155865
34.025000 9.546875 23.155865
34.175000 10.781250 23.155865
33.475000 -0.296875 23.311867
33.400000 1.453125 23.311867
33.450000 2.203125 23.311867
33.500000 3.656250 23.311867
33.575000 4.531250 23.311867
33.700000 5.640625 23.311867
33.800000 7.078125 23.311867
33.900000 7.968750 23.311867
34.025000 9.062500 23.311867
34.150000 10.281250 23.311867
34.450000 11.890625 23.311867
33.350000 0.203125 23.470864
33.325000 1.671875 23.470864
33.325000 2.625000 23.470864
33.400000 3.765625 23.470864
33.550000 5.109375 23.470864
33.650000 6.296875 23.470864
33.750000 7.625000 23.470864
33.875000 8.640625 23.470864
33.975000 9.843750 23.470864
34.100000 11.140625 23.470864
33.125000 0.000000 23.638863
33.225000 1.453125 23.638863
33.275000 2.296875 23.638863
33.325000 3.468750 23.638863
33.400000 4.890625 23.638863
33.525000 5.515625 23.638863
33.625000 6.812500 23.638863
33.725000 8.328125 23.638863
33.825000 9.562500 23.638863
33.975000 10.234375 23.638863
34.200000 11.421875 23.638863
33.075000 0.718750 23.789865
33.100000 2.046875 23.789865
33.150000 3.265625 23.789865
33.225000 3.875000 23.789865
33.275000 5.250000 23.789865
33.375000 6.109375 23.789865
33.500000 7.250000 23.789865
33.625000 8.984375 23.789865
33.725000 9.906250 23.789865
33.875000 10.734375 23.789865
32.875000 0.343750 23.936863
32.875000 1.609375 23.936863
32.900000 2.484375 23.936863
32.950000 3.953125 23.936863
33.050000 4.718750 23.936863
33.150000 5.796875 23.936863
33.225000 7.296875 23.936863
33.325000 8.687500 23.936863
33.450000 9.906250 23.936863
33.625000 10.515625 23.936863
33.975000 11.515625 23.936863
32.575000 1.312500 24.087863
32.600000 2.437500 24.087863
32.625000 3.375000 24.087863
32.725000 4.500000 24.087863
32.850000 5.578125 24.087863
32.950000 7.078125 24.087863
33.050000 7.906250 24.087863
33.175000 9.265625 24.087863
33.275000 10.093750 24.087863
33.400000 11.500000 24.087863
32.175000 1.859375 24.257864
32.250000 2.718750 24.257864
32.350000 4.390625 24.257864
32.400000 5.421875 24.257864
32.475000 6.859375 24.257864
32.600000 7.640625 24.257864
32.700000 8.765625 24.257864
32.825000 10.156250 24.257864
31.700000 1.656250 24.401604
31.750000 2.625000 24.401604
31.825000 3.796875 24.401604
31.900000 5.406250 24.401604
31.975000 6.140625 24.401604
32.075000 7.625000 24.401604
32.175000 8.578125 24.401604
32.275000 10.015625 24.401604
32.375000 11.375000 24.401604
32.600000 12.140625 24.401604
30.475000 0.265625 24.564474
30.975000 1.093750 24.564474
31.050000 2.468750 24.564474
31.075000 3.609375 24.564474
31.150000 4.312500 24.564474
31.225000 5.484375 24.564474
31.300000 6.765625 24.564474
31.375000 7.765625 24.564474
31.500000 9.109375 24.564474
31.600000 10.265625 24.564474
30.525000 0.343750 24.713392
30.925000 1.984375 24.713392
30.950000 3.000000 24.713392
31.000000 3.750000 24.713392
31.050000 5.031250 24.713392
31.150000 6.484375 24.713392
31.250000 7.765625 24.713392
31.325000 8.968750 24.713392
31.425000 10.218750 24.713392
31.525000 11.234375 24.713392
31.675000 12.468750 24.713392
31.300000 0.859375 24.874809
31.325000 2.437500 24.874809
31.325000 3.640625 24.874809
31.400000 4.156250 24.874809
31.475000 6.046875 24.874809
31.550000 6.781250 24.874809
31.650000 8.421875 24.874809
31.725000 9.093750 24.874809
31.875000 10.062500 24.874809
31.625000 1.000000 25.028031
31.650000 2.140625 25.028031
31.650000 3.625000 25.028031
31.700000 4.421875 25.028031
31.775000 6.062500 25.028031
31.875000 6.875000 25.028031
31.950000 8.640625 25.028031
32.075000 9.234375 25.028031
32.225000 10.703125 25.028031
32.350000 12.109375 25.028031
31.875000 1.437500 25.188255
31.850000 2.890625 25.188255
31.900000 3.640625 25.188255
31.950000 5.375000 25.188255
32.050000 6.062500 25.188255
32.150000 7.328125 25.188255
32.250000 8.656250 25.188255
32.400000 10.171875 25.188255
32.525000 10.718750 25.188255
32.750000 12.265625 25.188255
32.000000 0.671875 25.340238
32.025000 2.125000 25.340238
32.075000 3.609375 25.340238
32.150000 4.828125 25.340238
32.250000 5.484375 25.340238
32.350000 6.875000 25.340238
32.425000 8.312500 25.340238
32.525000 8.828125 25.340238
32.650000 10.250000 25.340238
32.750000 11.531250 25.340238
32.150000 0.812500 25.500223
32.150000 1.515625 25.500223
32.175000 3.015625 25.500223
32.250000 3.921875 25.500223
32.375000 4.906250 25.500223
32.450000 6.765625 25.500223
32.550000 7.515625 25.500223
32.650000 8.437500 25.500223
32.725000 9.859375 25.500223
32.850000 11.187500 25.500223
33.250000 12.140625 25.500223
32.275000 1.203125 25.652535
32.275000 2.718750 25.652535
32.325000 3.906250 25.652535
32.425000 4.640625 25.652535
32.500000 6.421875 25.652535
32.575000 7.593750 25.652535
32.650000 8.531250 25.652535
32.750000 9.734375 25.652535
32.925000 10.781250 25.652535
33.100000 11.812500 25.652535
32.275000 1.468750 25.811421
32.275000 2.765625 25.811421
32.325000 3.703125 25.811421
32.425000 4.906250 25.811421
32.500000 6.171875 25.811421
32.575000 6.781250 25.811421
32.675000 8.140625 25.811421
32.825000 9.156250 25.811421
32.950000 10.250000 25.811421
33.050000 11.781250 25.811421
32.250000 1.453125 25.963547
32.275000 2.171875 25.963547
32.350000 3.093750 25.963547
32.425000 4.625000 25.963547
32.475000 6.000000 25.963547
32.575000 6.937500 25.963547
32.650000 7.781250 25.963547
32.800000 9.515625 25.963547
32.925000 10.125000 25.963547
33.050000 11.750000 25.963547
32.225000 0.718750 26.123754
32.250000 1.828125 26.123754
32.325000 3.078125 26.123754
32.375000 4.406250 26.123754
32.375000 5.703125 26.123754
32.450000 6.968750 26.123754
32.600000 7.687500 26.123754
32.700000 9.343750 26.123754
32.825000 10.390625 26.123754
32.975000 11.671875 26.123754
32.200000 1.328125 26.275782
32.225000 2.500000 26.275782
32.225000 3.312500 26.275782
32.300000 4.656250 26.275782
32.350000 5.359375 26.275782
32.425000 6.812500 26.275782
32.575000 8.187500 26.275782
32.675000 8.984375 26.275782
32.800000 9.953125 26.275782
32.875000 11.468750 26.275782
31.975000 1.046875 26.433161
32.000000 2.109375 26.433161
32.025000 3.578125 26.433161
32.075000 4.328125 26.433161
32.200000 5.859375 26.433161
32.300000 6.781250 26.433161
32.325000 8.390625 26.433161
32.425000 9.359375 26.433161
32.600000 10.187500 26.433161
32.700000 11.703125 26.433161
31.775000 1.250000 26.588719
31.800000 2.234375 26.588719
31.825000 3.218750 26.588719
31.850000 4.718750 26.588719
31.925000 5.625000 26.588719
32.025000 6.640625 26.588719
32.125000 7.687500 26.588719
32.250000 9.031250 26.588719
32.350000 10.046875 26.588719
32.475000 11.515625 26.588719
31.475000 1.750000 26.748305
31.525000 3.312500 26.748305
31.575000 4.765625 26.748305
31.625000 5.593750 26.748305
31.700000 6.921875 26.748305
31.775000 8.000000 26.748305
31.875000 9.203125 26.748305
31.975000 10.312500 26.748305
32.100000 11.296875 26.748305
32.525000 12.484375 26.748305
30.625000 0.140625 26.903274
31.100000 1.265625 26.903274
