44.125000 88.609375 19.638183
43.950000 87.546875 19.638183
43.550000 86.203125 19.638183
43.700000 85.375000 19.638183
44.000000 84.078125 19.638183
44.375000 80.656250 19.638183
44.950000 79.296875 19.638183
45.250000 78.140625 19.638183
44.000000 89.765625 19.796811
43.950000 88.656250 19.796811
43.675000 87.609375 19.796811
43.225000 86.234375 19.796811
43.600000 84.968750 19.796811
44.325000 83.921875 19.796811
44.675000 80.359375 19.796811
44.825000 79.468750 19.796811
45.300000 78.031250 19.796811
44.000000 89.609375 19.950586
43.925000 88.500000 19.950586
43.625000 87.437500 19.950586
43.225000 86.390625 19.950586
43.550000 84.984375 19.950586
43.950000 83.906250 19.950586
44.275000 82.656250 19.950586
45.075000 81.812500 19.950586
45.175000 80.609375 19.950586
44.825000 79.343750 19.950586
45.275000 78.000000 19.950586
44.200000 89.890625 20.107553
44.125000 88.875000 20.107553
43.625000 87.781250 20.107553
43.225000 86.531250 20.107553
43.375000 85.375000 20.107553
43.675000 83.984375 20.107553
44.125000 83.156250 20.107553
44.925000 81.953125 20.107553
45.125000 80.765625 20.107553
44.825000 79.375000 20.107553
45.125000 78.453125 20.107553
44.100000 90.109375 20.260512
44.000000 88.734375 20.260512
43.600000 87.593750 20.260512
43.200000 86.234375 20.260512
43.325000 85.171875 20.260512
43.525000 83.984375 20.260512
43.975000 83.093750 20.260512
44.600000 81.828125 20.260512
44.725000 80.546875 20.260512
44.725000 79.375000 20.260512
45.125000 78.187500 20.260512
43.975000 89.656250 20.420267
43.750000 88.500000 20.420267
43.575000 87.125000 20.420267
43.175000 86.234375 20.420267
43.250000 85.062500 20.420267
43.450000 83.828125 20.420267
43.675000 82.796875 20.420267
44.150000 81.546875 20.420267
44.600000 80.453125 20.420267
44.775000 79.343750 20.420267
45.275000 78.156250 20.420267
43.900000 90.437500 20.575382
44.050000 89.250000 20.575382
43.875000 88.218750 20.575382
43.650000 86.781250 20.575382
43.275000 85.500000 20.575382
43.275000 84.390625 20.575382
43.650000 83.421875 20.575382
44.200000 82.421875 20.575382
44.500000 81.109375 20.575382
44.575000 79.796875 20.575382
44.875000 78.687500 20.575382
44.075000 90.062500 20.729614
43.875000 88.718750 20.729614
43.825000 87.562500 20.729614
44.075000 86.343750 20.729614
43.775000 85.406250 20.729614
43.425000 84.156250 20.729614
43.825000 82.781250 20.729614
44.250000 81.968750 20.729614
44.525000 80.640625 20.729614
44.700000 79.578125 20.729614
45.100000 78.343750 20.729614
43.550000 90.125000 20.885192
43.700000 89.156250 20.885192
43.850000 87.921875 20.885192
43.650000 86.796875 20.885192
43.450000 85.593750 20.885192
43.550000 84.375000 20.885192
43.800000 83.203125 20.885192
44.125000 82.078125 20.885192
44.400000 81.125000 20.885192
44.575000 79.906250 20.885192
44.825000 78.546875 20.885192
43.750000 90.187500 21.039419
43.875000 89.312500 21.039419
43.825000 87.906250 21.039419
43.850000 86.812500 21.039419
43.975000 85.578125 21.039419
43.850000 84.343750 21.039419
43.925000 83.281250 21.039419
44.225000 82.218750 21.039419
44.350000 80.890625 21.039419
44.550000 79.875000 21.039419
44.800000 78.531250 21.039419
43.475000 90.296875 21.195990
43.450000 89.062500 21.195990
43.775000 87.750000 21.195990
43.900000 86.859375 21.195990
43.950000 85.593750 21.195990
43.975000 84.515625 21.195990
44.000000 83.234375 21.195990
44.075000 81.828125 21.195990
44.250000 80.968750 21.195990
44.475000 79.656250 21.195990
44.850000 78.640625 21.195990
43.875000 90.078125 21.349964
43.725000 89.031250 21.349964
43.800000 87.609375 21.349964
43.850000 86.343750 21.349964
43.825000 85.515625 21.349964
44.000000 84.078125 21.349964
44.075000 82.812500 21.349964
44.075000 81.781250 21.349964
44.300000 80.859375 21.349964
44.575000 79.437500 21.349964
44.900000 78.250000 21.349964
43.925000 89.812500 21.510710
43.700000 88.796875 21.510710
43.800000 87.671875 21.510710
43.825000 86.296875 21.510710
43.850000 85.187500 21.510710
44.150000 84.156250 21.510710
44.250000 82.875000 21.510710
44.150000 81.546875 21.510710
44.325000 80.703125 21.510710
44.550000 79.359375 21.510710
44.900000 78.062500 21.510710
44.225000 89.640625 21.661587
43.675000 88.468750 21.661587
43.800000 87.453125 21.661587
43.850000 86.140625 21.661587
43.875000 85.156250 21.661587
44.150000 84.218750 21.661587
44.150000 82.703125 21.661587
44.075000 81.781250 21.661587
44.300000 80.484375 21.661587
44.525000 79.328125 21.661587
44.950000 78.156250 21.661587
43.875000 87.234375 21.821593
43.900000 85.953125 21.821593
43.900000 84.968750 21.821593
43.975000 83.750000 21.821593
44.025000 82.468750 21.821593
44.125000 81.531250 21.821593
44.325000 80.156250 21.821593
44.525000 79.250000 21.821593
45.125000 77.953125 21.821593
43.550000 90.281250 21.974358
43.550000 89.359375 21.974358
43.825000 87.906250 21.974358
43.850000 86.718750 21.974358
43.950000 85.578125 21.974358
44.100000 84.359375 21.974358
44.100000 83.296875 21.974358
44.125000 82.375000 21.974358
44.300000 81.203125 21.974358
44.500000 80.000000 21.974358
44.750000 78.562500 21.974358
43.875000 87.234375 22.135099
43.900000 86.078125 22.135099
44.000000 85.093750 22.135099
44.075000 83.593750 22.135099
44.025000 82.640625 22.135099
44.125000 81.484375 22.135099
44.325000 80.187500 22.135099
44.525000 78.890625 22.135099
45.125000 78.078125 22.135099
43.900000 86.843750 22.287230
44.000000 85.640625 22.287230
44.125000 84.671875 22.287230
44.100000 83.343750 22.287230
44.100000 82.218750 22.287230
44.300000 80.968750 22.287230
44.500000 79.750000 22.287230
44.700000 78.765625 22.287230
43.725000 88.531250 22.445617
43.900000 87.437500 22.445617
43.875000 86.234375 22.445617
43.975000 85.000000 22.445617
44.125000 84.125000 22.445617
44.100000 82.718750 22.445617
44.125000 81.609375 22.445617
44.300000 80.375000 22.445617
44.500000 79.312500 22.445617
44.950000 78.109375 22.445617
44.025000 88.468750 22.596336
44.000000 87.171875 22.596336
44.000000 85.859375 22.596336
44.125000 84.562500 22.596336
44.150000 83.625000 22.596336
44.100000 82.390625 22.596336
44.200000 81.171875 22.596336
44.425000 80.171875 22.596336
44.400000 89.421875 22.757499
43.850000 88.234375 22.757499
43.900000 87.281250 22.757499
44.000000 86.218750 22.757499
44.100000 84.875000 22.757499
44.125000 83.609375 22.757499
44.150000 82.500000 22.757499
44.250000 81.156250 22.757499
44.475000 80.312500 22.757499
44.700000 78.984375 22.757499
45.350000 77.968750 22.757499
44.000000 89.515625 22.906348
43.700000 88.593750 22.906348
43.950000 87.421875 22.906348
44.050000 86.093750 22.906348
44.150000 84.984375 22.906348
44.150000 83.687500 22.906348
44.125000 82.453125 22.906348
44.225000 81.265625 22.906348
44.425000 80.093750 22.906348
44.625000 78.937500 22.906348
45.275000 78.000000 22.906348
44.000000 89.765625 23.067090
43.750000 88.500000 23.067090
43.975000 87.531250 23.067090
44.050000 86.328125 23.067090
44.150000 85.203125 23.067090
44.225000 83.875000 23.067090
44.225000 82.546875 23.067090
44.250000 81.687500 23.067090
44.450000 80.234375 23.067090
44.650000 79.203125 23.067090
45.150000 77.890625 23.067090
44.350000 89.828125 23.219383
43.950000 88.625000 23.219383
44.025000 87.812500 23.219383
44.100000 86.531250 23.219383
44.150000 85.203125 23.219383
44.350000 83.968750 23.219383
44.375000 83.046875 23.219383
44.300000 81.859375 23.219383
44.525000 80.656250 23.219383
44.675000 79.343750 23.219383
44.925000 78.156250 23.219383
43.950000 88.828125 23.381431
44.000000 87.546875 23.381431
44.100000 86.234375 23.381431
44.200000 85.234375 23.381431
44.325000 84.109375 23.381431
44.325000 82.859375 23.381431
44.250000 81.453125 23.381431
44.450000 80.515625 23.381431
44.650000 79.250000 23.381431
45.125000 78.218750 23.381431
43.825000 90.062500 23.530750
43.825000 89.171875 23.530750
44.000000 87.718750 23.530750
44.025000 86.656250 23.530750
44.075000 85.406250 23.530750
44.350000 84.421875 23.530750
44.350000 83.375000 23.530750
44.250000 81.828125 23.530750
44.475000 80.796875 23.530750
44.625000 79.812500 23.530750
44.950000 78.718750 23.530750
43.800000 89.875000 23.691475
43.700000 88.890625 23.691475
44.025000 87.843750 23.691475
44.125000 86.609375 23.691475
44.200000 85.437500 23.691475
44.375000 84.437500 23.691475
44.350000 83.171875 23.691475
44.250000 81.968750 23.691475
44.475000 80.968750 23.691475
44.650000 79.750000 23.691475
44.975000 78.593750 23.691475
44.000000 88.156250 23.841193
44.075000 86.953125 23.841193
44.200000 85.812500 23.841193
44.225000 84.500000 23.841193
44.325000 83.421875 23.841193
44.400000 82.515625 23.841193
44.475000 81.140625 23.841193
44.750000 80.062500 23.841193
44.950000 78.781250 23.841193
44.175000 90.015625 23.995521
43.950000 88.828125 23.995521
44.025000 87.375000 23.995521
44.125000 86.546875 23.995521
44.175000 85.296875 23.995521
44.275000 84.203125 23.995521
44.300000 82.953125 23.995521
44.375000 81.781250 23.995521
44.600000 80.390625 23.995521
44.825000 79.250000 23.995521
45.300000 78.281250 23.995521
44.075000 88.156250 24.150919
44.200000 86.765625 24.150919
44.225000 85.812500 24.150919
44.175000 84.500000 24.150919
44.450000 83.234375 24.150919
44.600000 82.250000 24.150919
44.575000 81.187500 24.150919
44.750000 79.953125 24.150919
45.075000 78.812500 24.150919
43.950000 90.140625 24.306235
43.825000 88.968750 24.306235
44.025000 87.859375 24.306235
44.100000 86.421875 24.306235
44.275000 85.375000 24.306235
44.250000 84.000000 24.306235
44.500000 83.031250 24.306235
44.750000 81.734375 24.306235
44.625000 80.515625 24.306235
44.850000 79.593750 24.306235
45.375000 78.546875 24.306235
44.500000 89.812500 24.463351
44.075000 88.421875 24.463351
44.150000 87.359375 24.463351
44.200000 86.078125 24.463351
43.975000 84.921875 24.463351
44.050000 83.796875 24.463351
44.675000 82.750000 24.463351
44.925000 81.578125 24.463351
44.800000 80.406250 24.463351
44.400000 89.718750 24.621014
44.025000 88.406250 24.621014
44.225000 87.359375 24.621014
44.725000 86.078125 24.621014
44.525000 84.812500 24.621014
44.050000 83.687500 24.621014
44.525000 82.609375 24.621014
44.775000 81.421875 24.621014
44.825000 80.078125 24.621014
45.125000 79.015625 24.621014
44.400000 89.625000 24.778690
44.025000 88.156250 24.778690
44.050000 84.906250 24.778690
44.025000 83.593750 24.778690
44.575000 82.296875 24.778690
44.975000 81.265625 24.778690
44.900000 80.281250 24.778690
45.150000 79.125000 24.778690
44.275000 89.500000 24.932974
44.000000 88.515625 24.932974
44.025000 84.968750 24.932974
44.000000 83.796875 24.932974
44.500000 82.500000 24.932974
44.875000 81.375000 24.932974
44.925000 80.281250 24.932974
45.175000 78.953125 24.932974
44.025000 89.296875 25.088465
44.300000 88.218750 25.088465
43.875000 86.843750 25.088465
43.575000 85.812500 25.088465
43.925000 84.546875 25.088465
44.600000 81.171875 25.088465
45.175000 79.953125 25.088465
45.450000 78.890625 25.088465
44.225000 89.406250 25.243447
44.100000 88.687500 25.243447
44.125000 84.828125 25.243447
44.050000 83.984375 25.243447
44.650000 82.750000 25.243447
45.500000 81.750000 25.243447
45.550000 80.250000 25.243447
45.375000 79.156250 25.243447
46.150000 78.203125 25.243447
43.725000 87.031250 25.389559
43.500000 85.890625 25.389559
44.025000 84.765625 25.389559
44.400000 83.375000 25.389559
45.225000 82.531250 25.389559
45.800000 81.328125 25.389559
45.550000 80.031250 25.389559
45.500000 78.937500 25.389559
44.350000 89.921875 25.554708
44.325000 88.609375 25.554708
44.250000 85.359375 25.554708
44.475000 84.234375 25.554708
44.975000 83.000000 25.554708
45.500000 81.812500 25.554708
45.625000 80.468750 25.554708
45.400000 79.281250 25.554708
45.800000 78.218750 25.554708
44.075000 89.187500 25.700952
44.425000 87.890625 25.700952
44.300000 86.796875 25.700952
44.025000 85.531250 25.700952
45.775000 81.171875 25.700952
45.600000 79.640625 25.700952
45.675000 78.796875 25.700952
44.100000 89.953125 25.864738
44.175000 88.765625 25.864738
44.450000 87.703125 25.864738
44.700000 86.687500 25.864738
44.475000 85.625000 25.864738
44.150000 84.312500 25.864738
44.675000 83.296875 25.864738
45.575000 82.140625 25.864738
45.775000 80.734375 25.864738
45.575000 79.687500 25.864738
45.800000 78.593750 25.864738
44.375000 90.015625 26.013429
44.350000 88.625000 26.013429
44.350000 85.328125 26.013429
44.700000 84.171875 26.013429
45.350000 82.828125 26.013429
45.750000 81.718750 26.013429
45.725000 80.703125 26.013429
45.625000 79.421875 26.013429
46.000000 78.375000 26.013429
44.675000 89.531250 26.177889
44.500000 88.453125 26.177889
44.375000 87.015625 26.177889
44.075000 86.015625 26.177889
44.350000 84.953125 26.177889
44.875000 83.859375 26.177889
45.450000 82.609375 26.177889
45.700000 81.531250 26.177889
45.650000 80.203125 26.177889
45.725000 79.187500 26.177889
44.250000 90.375000 26.323967
44.425000 88.921875 26.323967
44.450000 88.000000 26.323967
44.550000 86.781250 26.323967
44.250000 85.437500 26.323967
44.100000 84.421875 26.323967
44.700000 83.312500 26.323967
45.500000 82.250000 26.323967
45.550000 80.812500 26.323967
45.525000 79.921875 26.323967
45.800000 78.843750 26.323967
44.550000 90.078125 26.487621
44.600000 88.984375 26.487621
44.550000 87.609375 26.487621
45.250000 86.609375 26.487621
44.475000 84.281250 26.487621
45.300000 82.984375 26.487621
45.875000 82.109375 26.487621
45.775000 80.843750 26.487621
45.575000 79.703125 26.487621
45.800000 78.437500 26.487621
44.550000 89.453125 26.636490
44.425000 88.531250 26.636490
44.550000 87.390625 26.636490
44.375000 86.203125 26.636490
44.300000 85.156250 26.636490
44.675000 83.843750 26.636490
45.400000 82.906250 26.636490
45.650000 81.453125 26.636490
45.500000 80.234375 26.636490
45.675000 79.062500 26.636490
46.325000 78.156250 26.636490
44.750000 90.109375 26.787279
44.825000 88.953125 26.787279
44.350000 85.343750 26.787279
44.275000 84.187500 26.787279
45.075000 83.171875 26.787279
45.850000 82.078125 26.787279
45.750000 80.687500 26.787279
45.525000 79.625000 26.787279
45.800000 78.359375 26.787279
44.525000 89.500000 26.949859
44.450000 88.781250 26.949859
44.700000 87.375000 26.949859
44.475000 86.234375 26.949859
44.300000 85.093750 26.949859
44.650000 83.812500 26.949859
45.375000 82.750000 26.949859
45.600000 81.515625 26.949859
45.375000 80.406250 26.949859
45.525000 79.187500 26.949859
46.075000 78.062500 26.949859
44.650000 88.031250 27.097764
44.975000 87.078125 27.097764
44.775000 85.781250 27.097764
44.875000 82.421875 27.097764
45.275000 81.171875 27.097764
45.225000 79.968750 27.097764
45.600000 78.937500 27.097764
45.000000 90.109375 27.259950
44.950000 89.093750 27.259950
44.650000 87.828125 27.259950
44.800000 86.687500 27.259950
44.500000 85.484375 27.259950
44.275000 84.453125 27.259950
45.050000 83.046875 27.259950
45.750000 82.187500 27.259950
45.625000 80.718750 27.259950
45.475000 79.812500 27.259950
45.775000 78.656250 27.259950
45.450000 90.062500 27.411797
45.250000 88.546875 27.411797
44.700000 87.500000 27.411797
45.075000 86.546875 27.411797
44.875000 85.343750 27.411797
44.700000 83.984375 27.411797
45.325000 83.078125 27.411797
45.425000 81.796875 27.411797
45.300000 80.593750 27.411797
45.475000 79.531250 27.411797
45.950000 78.218750 27.411797
44.625000 89.593750 27.570184
44.475000 88.546875 27.570184
44.725000 87.640625 27.570184
45.050000 86.421875 27.570184
44.825000 85.218750 27.570184
44.900000 83.937500 27.570184
45.475000 82.734375 27.570184
45.300000 81.750000 27.570184
45.225000 80.500000 27.570184
45.500000 79.375000 27.570184
46.025000 78.218750 27.570184
44.650000 89.765625 27.720236
44.450000 88.515625 27.720236
44.725000 87.375000 27.720236
44.875000 86.234375 27.720236
44.875000 84.890625 27.720236
45.100000 84.062500 27.720236
45.475000 82.921875 27.720236
45.275000 81.390625 27.720236
45.175000 80.468750 27.720236
45.475000 79.156250 27.720236
46.150000 78.093750 27.720236
44.750000 89.921875 27.882736
44.550000 88.703125 27.882736
44.725000 87.296875 27.882736
44.775000 86.187500 27.882736
44.775000 85.000000 27.882736
45.100000 83.937500 27.882736
45.350000 82.906250 27.882736
45.175000 81.734375 27.882736
45.150000 80.421875 27.882736
45.425000 79.250000 27.882736
46.100000 78.296875 27.882736
45.525000 89.796875 28.031893
45.100000 88.531250 28.031893
44.700000 87.718750 28.031893
44.750000 86.437500 28.031893
44.850000 85.093750 28.031893
45.100000 84.156250 28.031893
45.175000 82.828125 28.031893
45.000000 81.515625 28.031893
45.075000 80.406250 28.031893
45.375000 79.484375 28.031893
45.900000 78.375000 28.031893
44.675000 89.562500 28.195769
44.500000 88.593750 28.195769
44.725000 87.328125 28.195769
44.825000 85.906250 28.195769
44.850000 84.984375 28.195769
45.150000 83.718750 28.195769
45.375000 82.562500 28.195769
45.125000 81.250000 28.195769
44.925000 79.968750 28.195769
45.325000 79.000000 28.195769
46.375000 78.078125 28.195769
45.675000 89.687500 28.343377
45.325000 88.781250 28.343377
44.700000 87.578125 28.343377
44.775000 86.453125 28.343377
44.800000 85.125000 28.343377
45.050000 83.906250 28.343377
45.175000 82.812500 28.343377
45.025000 81.609375 28.343377
45.100000 80.218750 28.343377
45.250000 79.171875 28.343377
45.800000 78.171875 28.343377
44.425000 90.156250 28.505761
44.475000 89.218750 28.505761
44.700000 87.828125 28.505761
44.775000 86.875000 28.505761
44.825000 85.531250 28.505761
44.875000 84.312500 28.505761
45.175000 83.218750 28.505761
45.750000 82.250000 28.505761
45.525000 81.093750 28.505761
45.025000 79.765625 28.505761
45.450000 78.734375 28.505761
44.575000 89.765625 28.655576
44.400000 88.484375 28.655576
44.650000 87.250000 28.655576
44.725000 86.359375 28.655576
44.750000 85.187500 28.655576
45.125000 83.890625 28.655576
45.375000 82.656250 28.655576
45.175000 81.609375 28.655576
45.075000 80.515625 28.655576
45.250000 79.218750 28.655576
45.950000 78.234375 28.655576
44.825000 90.203125 28.817098
44.850000 88.875000 28.817098
44.625000 87.859375 28.817098
44.850000 86.625000 28.817098
44.875000 85.421875 28.817098
44.675000 84.359375 28.817098
44.925000 83.000000 28.817098
45.550000 82.156250 28.817098
45.425000 80.921875 28.817098
45.075000 79.453125 28.817098
45.575000 78.296875 28.817098
44.600000 89.390625 28.966224
44.400000 88.390625 28.966224
44.700000 87.234375 28.966224
44.500000 86.062500 28.966224
44.350000 84.781250 28.966224
44.950000 83.890625 28.966224
45.325000 82.734375 28.966224
45.100000 81.437500 28.966224
45.000000 80.109375 28.966224
44.425000 88.234375 29.120101
44.350000 86.953125 29.120101
44.250000 85.843750 29.120101
44.550000 84.781250 29.120101
45.075000 83.531250 29.120101
45.250000 82.437500 29.120101
45.125000 81.281250 29.120101
45.050000 79.984375 29.120101
45.275000 78.890625 29.120101
43.850000 90.140625 29.275551
44.125000 89.281250 29.275551
44.350000 88.140625 29.275551
44.150000 86.765625 29.275551
44.050000 85.562500 29.275551
44.700000 82.250000 29.275551
45.075000 80.953125 29.275551
45.000000 79.968750 29.275551
45.425000 78.671875 29.275551
44.150000 89.546875 29.430639
44.075000 88.546875 29.430639
44.875000 87.671875 29.430639
44.050000 85.015625 29.430639
44.325000 83.796875 29.430639
44.675000 82.593750 29.430639
45.050000 81.765625 29.430639
45.000000 80.375000 29.430639
45.125000 79.250000 29.430639
45.675000 78.046875 29.430639
44.700000 90.171875 29.585794
44.725000 88.687500 29.585794
44.500000 87.687500 29.585794
44.175000 86.328125 29.585794
44.025000 85.234375 29.585794
45.100000 81.781250 29.585794
45.400000 80.796875 29.585794
45.075000 79.625000 29.585794
45.350000 78.234375 29.585794
44.800000 87.531250 29.741353
43.950000 85.109375 29.741353
44.250000 83.859375 29.741353
44.600000 82.640625 29.741353
45.075000 81.359375 29.741353
45.200000 80.406250 29.741353
45.200000 79.234375 29.741353
45.750000 77.984375 29.741353
43.725000 90.343750 29.896810
43.975000 88.984375 29.896810
43.950000 88.109375 29.896810
43.675000 86.750000 29.896810
43.650000 85.593750 29.896810
43.875000 84.359375 29.896810
44.350000 83.359375 29.896810
45.050000 82.281250 29.896810
45.175000 81.062500 29.896810
45.000000 79.906250 29.896810
45.150000 78.593750 29.896810
44.175000 89.828125 30.052521
44.150000 88.515625 30.052521
44.100000 87.796875 30.052521
43.850000 86.500000 30.052521
43.975000 85.140625 30.052521
44.050000 84.062500 30.052521
44.375000 82.953125 30.052521
45.525000 81.750000 30.052521
45.525000 80.671875 30.052521
44.950000 79.468750 30.052521
45.250000 78.421875 30.052521
44.025000 88.250000 30.206990
44.400000 87.171875 30.206990
44.100000 85.609375 30.206990
43.675000 84.625000 30.206990
44.200000 83.421875 30.206990
44.700000 79.875000 30.206990
44.975000 78.921875 30.206990
44.075000 90.171875 30.363533
44.050000 88.984375 30.363533
43.800000 87.609375 30.363533
43.375000 86.421875 30.363533
43.400000 85.296875 30.363533
44.150000 84.453125 30.363533
44.625000 83.046875 30.363533
45.200000 82.156250 30.363533
45.375000 80.640625 30.363533
44.925000 79.437500 30.363533
45.050000 78.406250 30.363533
44.125000 90.031250 30.517665
44.100000 88.828125 30.517665
43.625000 87.546875 30.517665
43.225000 86.640625 30.517665
43.400000 85.453125 30.517665
43.875000 84.281250 30.517665
44.500000 80.546875 30.517665
44.875000 79.515625 30.517665
45.100000 78.281250 30.517665
44.075000 90.109375 30.674447
44.050000 88.703125 30.674447
43.600000 87.671875 30.674447
43.200000 86.500000 30.674447
43.300000 85.156250 30.674447
43.625000 83.953125 30.674447
44.050000 82.828125 30.674447
44.750000 81.859375 30.674447
45.025000 80.640625 30.674447
44.850000 79.343750 30.674447
45.100000 78.218750 30.674447
44.000000 89.859375 30.827235
43.800000 88.640625 30.827235
43.450000 87.359375 30.827235
43.050000 86.140625 30.827235
43.250000 84.953125 30.827235
43.550000 83.937500 30.827235
44.000000 82.968750 30.827235
44.525000 81.640625 30.827235
44.700000 80.484375 30.827235
44.800000 79.531250 30.827235
45.175000 78.031250 30.827235
43.875000 88.406250 30.988394
43.700000 87.000000 30.988394
43.250000 86.031250 30.988394
43.250000 84.625000 30.988394
43.575000 83.593750 30.988394
44.300000 82.609375 30.988394
44.650000 81.421875 30.988394
44.600000 80.234375 30.988394
44.850000 78.828125 30.988394
43.850000 88.453125 31.143108
43.525000 87.078125 31.143108
43.100000 85.953125 31.143108
43.250000 84.484375 31.143108
43.575000 83.609375 31.143108
44.100000 82.390625 31.143108
44.450000 81.078125 31.143108
44.575000 80.093750 31.143108
44.825000 78.984375 31.143108
43.825000 90.281250 31.298502
43.750000 89.093750 31.298502
43.850000 87.906250 31.298502
43.800000 86.656250 31.298502
43.500000 85.312500 31.298502
43.400000 84.140625 31.298502
43.800000 83.203125 31.298502
44.250000 82.031250 31.298502
44.450000 80.890625 31.298502
44.650000 79.687500 31.298502
45.000000 78.562500 31.298502
43.750000 88.218750 31.451380
43.825000 86.937500 31.451380
44.150000 86.062500 31.451380
43.925000 84.515625 31.451380
43.700000 83.703125 31.451380
44.100000 82.375000 31.451380
44.325000 81.062500 31.451380
44.575000 80.140625 31.451380
44.750000 78.750000 31.451380
43.950000 89.937500 31.608567
43.800000 88.750000 31.608567
43.850000 87.656250 31.608567
43.825000 86.328125 31.608567
43.875000 85.390625 31.608567
43.875000 84.078125 31.608567
43.925000 82.781250 31.608567
44.150000 81.843750 31.608567
44.350000 80.609375 31.608567
44.575000 79.421875 31.608567
45.000000 78.187500 31.608567
43.750000 88.265625 31.760486
43.800000 86.953125 31.760486
43.825000 85.765625 31.760486
43.875000 84.828125 31.760486
43.975000 83.734375 31.760486
44.100000 82.406250 31.760486
44.300000 81.296875 31.760486
44.450000 80.203125 31.760486
43.450000 90.437500 31.918241
43.625000 88.968750 31.918241
43.775000 87.921875 31.918241
43.800000 86.859375 31.918241
43.825000 85.781250 31.918241
43.925000 84.578125 31.918241
43.900000 83.218750 31.918241
43.975000 82.000000 31.918241
44.200000 80.937500 31.918241
44.375000 79.968750 31.918241
44.675000 78.718750 31.918241
43.875000 90.187500 32.073049
43.725000 88.875000 32.073049
43.825000 87.687500 32.073049
43.800000 86.609375 32.073049
43.800000 85.515625 32.073049
44.025000 84.109375 32.073049
44.125000 83.234375 32.073049
44.075000 81.781250 32.073049
44.225000 80.578125 32.073049
44.450000 79.765625 32.073049
44.750000 78.515625 32.073049
43.825000 89.953125 32.228194
43.725000 88.718750 32.228194
43.775000 87.984375 32.228194
43.775000 86.703125 32.228194
43.800000 85.609375 32.228194
44.025000 84.171875 32.228194
44.125000 83.203125 32.228194
44.075000 81.890625 32.228194
44.225000 80.906250 32.228194
44.425000 79.718750 32.228194
44.750000 78.265625 32.228194
43.975000 90.078125 32.386543
43.750000 89.000000 32.386543
43.825000 87.812500 32.386543
43.850000 86.750000 32.386543
43.825000 85.250000 32.386543
44.150000 84.250000 32.386543
44.225000 83.031250 32.386543
44.100000 81.812500 32.386543
44.250000 80.796875 32.386543
44.425000 79.671875 32.386543
44.725000 78.171875 32.386543
44.075000 90.187500 32.540660
43.850000 89.031250 32.540660
43.825000 87.906250 32.540660
43.825000 86.406250 32.540660
43.825000 85.296875 32.540660
44.175000 84.406250 32.540660
44.225000 83.078125 32.540660
44.100000 82.031250 32.540660
44.275000 80.765625 32.540660
44.425000 79.562500 32.540660
44.725000 78.500000 32.540660
43.725000 90.359375 32.700587
43.625000 89.046875 32.700587
43.875000 87.843750 32.700587
43.900000 86.765625 32.700587
43.925000 85.453125 32.700587
44.225000 84.515625 32.700587
44.200000 83.156250 32.700587
44.050000 82.265625 32.700587
44.200000 80.765625 32.700587
44.375000 79.828125 32.700587
44.675000 78.437500 32.700587
44.000000 90.109375 32.852588
43.775000 88.843750 32.852588
43.900000 87.890625 32.852588
43.975000 86.843750 32.852588
44.000000 85.718750 32.852588
44.250000 84.593750 32.852588
44.250000 83.140625 32.852588
44.075000 82.203125 32.852588
44.225000 80.953125 32.852588
44.425000 79.906250 32.852588
44.700000 78.640625 32.852588
44.275000 89.640625 33.010618
43.800000 88.359375 33.010618
43.950000 87.109375 33.010618
44.000000 86.046875 33.010618
44.075000 85.078125 33.010618
44.150000 83.593750 33.010618
44.175000 82.453125 33.010618
44.275000 81.609375 33.010618
44.450000 80.265625 33.010618
44.600000 78.921875 33.010618
45.125000 78.046875 33.010618
43.975000 88.375000 33.163444
44.025000 87.203125 33.163444
44.050000 85.890625 33.163444
44.175000 84.859375 33.163444
44.175000 83.406250 33.163444
44.100000 82.265625 33.163444
44.300000 81.375000 33.163444
44.475000 79.843750 33.163444
44.650000 78.890625 33.163444
44.250000 90.265625 33.325174
43.950000 88.921875 33.325174
43.925000 87.640625 33.325174
43.950000 86.765625 33.325174
44.075000 85.328125 33.325174
44.475000 84.187500 33.325174
44.475000 83.031250 33.325174
44.200000 81.765625 33.325174
44.375000 80.703125 33.325174
44.600000 79.718750 33.325174
44.900000 78.390625 33.325174
44.150000 89.703125 33.476861
43.825000 88.531250 33.476861
43.975000 87.250000 33.476861
44.000000 86.203125 33.476861
44.100000 85.078125 33.476861
44.150000 83.890625 33.476861
44.175000 82.515625 33.476861
44.300000 81.234375 33.476861
44.475000 80.390625 33.476861
44.725000 78.875000 33.476861
45.350000 77.937500 33.476861
43.950000 90.218750 33.635330
43.950000 89.109375 33.635330
43.975000 87.812500 33.635330
44.000000 86.703125 33.635330
44.125000 85.796875 33.635330
44.425000 84.421875 33.635330
44.400000 83.468750 33.635330
44.250000 82.046875 33.635330
44.425000 80.984375 33.635330
44.625000 79.687500 33.635330
44.900000 78.562500 33.635330
44.250000 90.343750 33.787389
44.150000 89.109375 33.787389
44.000000 88.000000 33.787389
44.050000 86.750000 33.787389
44.125000 85.812500 33.787389
44.400000 84.484375 33.787389
44.375000 83.203125 33.787389
44.225000 82.250000 33.787389
44.425000 81.078125 33.787389
44.625000 79.671875 33.787389
44.900000 78.640625 33.787389
43.825000 90.046875 33.944808
43.850000 89.062500 33.944808
43.975000 87.796875 33.944808
44.000000 86.843750 33.944808
44.075000 85.328125 33.944808
44.425000 84.546875 33.944808
44.450000 83.171875 33.944808
44.275000 81.984375 33.944808
44.425000 80.734375 33.944808
44.625000 79.765625 33.944808
44.950000 78.640625 33.944808
44.050000 89.625000 34.098359
43.825000 88.562500 34.098359
44.050000 87.312500 34.098359
44.075000 86.031250 34.098359
44.150000 85.000000 34.098359
44.350000 83.625000 34.098359
44.325000 82.437500 34.098359
44.300000 81.515625 34.098359
44.500000 80.265625 34.098359
44.750000 79.265625 34.098359
45.450000 78.093750 34.098359
44.100000 89.640625 34.257732
43.950000 88.515625 34.257732
44.050000 87.250000 34.257732
44.125000 86.218750 34.257732
44.200000 84.968750 34.257732
44.500000 84.046875 34.257732
44.525000 82.890625 34.257732
44.450000 81.765625 34.257732
44.675000 80.265625 34.257732
44.800000 79.375000 34.257732
45.350000 78.171875 34.257732
43.975000 88.390625 34.411401
44.050000 86.921875 34.411401
44.150000 86.046875 34.411401
44.250000 84.578125 34.411401
44.500000 83.703125 34.411401
44.450000 82.218750 34.411401
44.325000 81.062500 34.411401
44.600000 80.000000 34.411401
44.900000 78.937500 34.411401
44.075000 89.890625 34.568217
43.925000 88.687500 34.568217
44.050000 87.593750 34.568217
44.200000 86.546875 34.568217
44.200000 85.281250 34.568217
44.200000 84.234375 34.568217
44.250000 82.890625 34.568217
44.400000 81.875000 34.568217
44.675000 80.656250 34.568217
44.875000 79.437500 34.568217
45.275000 78.328125 34.568217
44.125000 87.046875 34.720799
44.200000 85.703125 34.720799
44.200000 84.906250 34.720799
44.375000 83.437500 34.720799
44.475000 82.250000 34.720799
44.600000 81.421875 34.720799
44.750000 80.187500 34.720799
45.050000 78.875000 34.720799
43.825000 90.093750 34.881902
43.750000 88.875000 34.881902
44.100000 88.015625 34.881902
44.250000 86.687500 34.881902
44.550000 85.765625 34.881902
44.450000 84.265625 34.881902
44.325000 83.343750 34.881902
44.600000 81.921875 34.881902
44.725000 80.890625 34.881902
44.900000 79.609375 34.881902
45.250000 78.562500 34.881902
44.075000 89.875000 35.032377
43.925000 88.718750 35.032377
44.150000 87.921875 35.032377
43.850000 86.406250 35.032377
43.600000 85.296875 35.032377
43.925000 84.000000 35.032377
44.300000 83.031250 35.032377
44.575000 81.937500 35.032377
44.700000 80.828125 35.032377
44.900000 79.593750 35.032377
45.300000 78.593750 35.032377
44.475000 89.500000 35.192905
44.150000 88.593750 35.192905
44.275000 87.250000 35.192905
44.525000 86.296875 35.192905
44.275000 85.140625 35.192905
44.000000 83.781250 35.192905
44.425000 82.562500 35.192905
44.675000 81.687500 35.192905
44.825000 80.312500 35.192905
45.075000 79.046875 35.192905
45.850000 78.031250 35.192905
44.125000 88.437500 35.344037
44.100000 84.796875 35.344037
44.100000 83.468750 35.344037
44.725000 82.625000 35.344037
45.025000 81.375000 35.344037
44.975000 79.875000 35.344037
45.300000 79.015625 35.344037
44.075000 89.906250 35.503400
44.050000 88.687500 35.503400
44.300000 87.953125 35.503400
44.100000 86.718750 35.503400
43.825000 85.265625 35.503400
43.925000 84.109375 35.503400
44.575000 80.625000 35.503400
45.150000 79.406250 35.503400
45.575000 78.531250 35.503400
43.850000 87.062500 35.657536
43.600000 85.921875 35.657536
43.950000 84.531250 35.657536
44.625000 81.062500 35.657536
45.150000 79.906250 35.657536
45.375000 78.765625 35.657536
44.200000 90.031250 35.816006
44.175000 88.828125 35.816006
44.325000 87.656250 35.816006
44.550000 86.687500 35.816006
44.275000 85.281250 35.816006
43.925000 84.187500 35.816006
44.450000 83.125000 35.816006
45.450000 82.015625 35.816006
45.675000 80.921875 35.816006
45.250000 79.484375 35.816006
45.575000 78.296875 35.816006
44.600000 89.312500 35.967898
44.250000 88.265625 35.967898
43.975000 86.968750 35.967898
43.775000 86.078125 35.967898
44.050000 84.625000 35.967898
44.350000 83.640625 35.967898
45.000000 82.656250 35.967898
45.625000 81.265625 35.967898
45.525000 80.343750 35.967898
45.450000 78.953125 35.967898
44.175000 90.171875 36.124025
44.150000 88.812500 36.124025
44.325000 87.890625 36.124025
44.675000 86.640625 36.124025
44.400000 85.203125 36.124025
44.150000 84.187500 36.124025
44.775000 82.953125 36.124025
45.550000 81.953125 36.124025
45.750000 80.921875 36.124025
45.550000 79.468750 36.124025
45.800000 78.312500 36.124025
44.300000 90.000000 36.280439
44.300000 88.750000 36.280439
44.350000 87.625000 36.280439
45.000000 86.812500 36.280439
44.325000 84.046875 36.280439
44.800000 83.000000 36.280439
45.525000 81.812500 36.280439
45.750000 80.875000 36.280439
45.550000 79.609375 36.280439
45.775000 78.437500 36.280439
44.425000 89.921875 36.440542
44.375000 88.484375 36.440542
44.375000 85.015625 36.440542
44.700000 84.203125 36.440542
45.300000 82.796875 36.440542
45.700000 81.953125 36.440542
45.700000 80.671875 36.440542
45.525000 79.468750 36.440542
45.850000 78.140625 36.440542
44.500000 89.484375 36.592112
44.350000 88.453125 36.592112
44.550000 87.171875 36.592112
44.325000 85.953125 36.592112
44.275000 84.921875 36.592112
44.825000 83.828125 36.592112
45.350000 82.750000 36.592112
45.700000 81.593750 36.592112
45.650000 80.406250 36.592112
45.575000 79.125000 36.592112
44.425000 90.093750 36.734372
44.500000 88.765625 36.734372
44.575000 87.578125 36.734372
44.925000 86.500000 36.734372
44.650000 85.421875 36.734372
44.450000 84.281250 36.734372
45.150000 83.125000 36.734372
45.750000 82.031250 36.734372
45.725000 80.656250 36.734372
45.550000 79.734375 36.734372
45.775000 78.359375 36.734372
44.425000 89.890625 36.890946
44.475000 88.671875 36.890946
44.375000 85.359375 36.890946
44.700000 84.203125 36.890946
45.425000 83.046875 36.890946
45.800000 81.937500 36.890946
45.675000 80.468750 36.890946
45.550000 79.500000 36.890946
45.950000 78.406250 36.890946
44.600000 89.562500 37.049161
44.425000 88.437500 37.049161
44.450000 87.234375 37.049161
44.325000 85.968750 37.049161
44.375000 84.875000 37.049161
44.775000 83.640625 37.049161
45.450000 82.484375 37.049161
45.675000 81.515625 37.049161
45.500000 80.437500 37.049161
45.700000 79.078125 37.049161
44.575000 89.421875 37.200907
44.500000 88.671875 37.200907
44.425000 87.437500 37.200907
44.200000 86.031250 37.200907
44.325000 84.968750 37.200907
44.750000 83.703125 37.200907
45.450000 82.593750 37.200907
45.650000 81.546875 37.200907
45.475000 80.468750 37.200907
45.650000 79.015625 37.200907
46.425000 77.968750 37.200907
44.650000 89.875000 37.360955
44.600000 88.734375 37.360955
44.375000 85.359375 37.360955
44.550000 84.156250 37.360955
45.300000 83.078125 37.360955
45.625000 81.921875 37.360955
45.500000 80.578125 37.360955
45.525000 79.453125 37.360955
45.875000 78.437500 37.360955
44.625000 89.718750 37.512169
44.550000 88.765625 37.512169
44.700000 87.375000 37.512169
44.675000 86.468750 37.512169
44.500000 85.156250 37.512169
44.575000 84.125000 37.512169
45.225000 82.859375 37.512169
45.575000 81.828125 37.512169
45.450000 80.609375 37.512169
45.500000 79.468750 37.512169
45.975000 78.296875 37.512169
44.575000 89.703125 37.672979
44.525000 88.718750 37.672979
44.700000 87.531250 37.672979
44.475000 86.031250 37.672979
44.275000 85.187500 37.672979
44.850000 83.906250 37.672979
45.500000 82.703125 37.672979
45.400000 81.515625 37.672979
45.275000 80.390625 37.672979
45.575000 79.156250 37.672979
46.200000 78.125000 37.672979
44.600000 89.468750 37.824140
44.525000 88.625000 37.824140
44.800000 87.343750 37.824140
44.600000 86.281250 37.824140
44.225000 85.046875 37.824140
44.800000 83.906250 37.824140
45.600000 82.484375 37.824140
45.475000 81.421875 37.824140
45.300000 80.296875 37.824140
45.650000 79.281250 37.824140
46.450000 77.921875 37.824140
44.725000 88.281250 37.986287
44.875000 87.046875 37.986287
44.625000 85.812500 37.986287
44.525000 84.437500 37.986287
45.125000 83.500000 37.986287
45.875000 82.390625 37.986287
45.700000 81.203125 37.986287
45.300000 79.953125 37.986287
45.625000 78.750000 37.986287
45.175000 90.406250 38.138175
45.025000 89.031250 38.138175
44.675000 88.000000 38.138175
44.825000 86.578125 38.138175
44.800000 85.359375 38.138175
44.825000 84.390625 38.138175
45.300000 83.218750 38.138175
45.425000 82.171875 38.138175
45.375000 80.750000 38.138175
45.425000 79.593750 38.138175
45.700000 78.562500 38.138175
44.700000 89.359375 38.296493
44.550000 88.484375 38.296493
44.800000 87.406250 38.296493
44.950000 86.031250 38.296493
44.900000 84.984375 38.296493
45.125000 83.796875 38.296493
45.450000 82.718750 38.296493
45.300000 81.531250 38.296493
45.100000 80.171875 38.296493
45.475000 79.250000 38.296493
46.425000 78.171875 38.296493
44.700000 88.343750 38.447705
44.800000 86.890625 38.447705
44.800000 85.937500 38.447705
44.900000 84.843750 38.447705
45.250000 83.562500 38.447705
45.750000 82.312500 38.447705
45.550000 81.234375 38.447705
45.150000 79.953125 38.447705
45.550000 78.828125 38.447705
44.950000 90.390625 38.609946
44.800000 88.937500 38.609946
44.675000 87.984375 38.609946
44.825000 86.828125 38.609946
44.800000 85.437500 38.609946
44.850000 84.218750 38.609946
45.275000 83.140625 38.609946
45.200000 81.968750 38.609946
45.000000 80.937500 38.609946
45.350000 79.812500 38.609946
45.825000 78.500000 38.609946
45.325000 89.671875 38.757702
45.025000 88.390625 38.757702
44.700000 87.468750 38.757702
44.825000 86.343750 38.757702
44.900000 84.921875 38.757702
45.125000 83.781250 38.757702
45.325000 82.562500 38.757702
45.175000 81.375000 38.757702
45.100000 80.203125 38.757702
45.300000 79.109375 38.757702
46.000000 78.140625 38.757702
44.775000 89.687500 38.920673
44.625000 88.593750 38.920673
44.700000 87.421875 38.920673
44.800000 86.109375 38.920673
44.875000 85.015625 38.920673
45.125000 83.781250 38.920673
45.400000 82.562500 38.920673
45.250000 81.500000 38.920673
45.075000 80.265625 38.920673
45.300000 79.109375 38.920673
46.025000 78.109375 38.920673
44.625000 88.437500 39.073639
44.725000 87.093750 39.073639
44.850000 86.015625 39.073639
44.950000 84.953125 39.073639
45.150000 83.640625 39.073639
45.275000 82.421875 39.073639
45.150000 81.187500 39.073639
45.075000 80.171875 39.073639
45.300000 78.875000 39.073639
44.300000 90.453125 39.233311
44.425000 89.265625 39.233311
44.675000 88.203125 39.233311
44.800000 86.750000 39.233311
44.850000 85.500000 39.233311
44.775000 84.390625 39.233311
44.975000 83.265625 39.233311
45.700000 82.187500 39.233311
45.600000 81.062500 39.233311
45.075000 79.859375 39.233311
45.525000 78.796875 39.233311
44.525000 89.625000 39.384275
44.350000 88.531250 39.384275
44.600000 87.375000 39.384275
44.500000 86.187500 39.384275
44.475000 85.203125 39.384275
44.875000 84.000000 39.384275
44.750000 82.671875 39.384275
44.650000 81.640625 39.384275
44.975000 80.484375 39.384275
45.150000 79.375000 39.384275
45.700000 78.187500 39.384275
44.575000 89.734375 39.543607
44.350000 88.531250 39.543607
44.600000 87.406250 39.543607
44.475000 86.328125 39.543607
44.375000 84.937500 39.543607
44.750000 83.828125 39.543607
44.950000 82.750000 39.543607
44.975000 81.437500 39.543607
45.050000 80.218750 39.543607
45.150000 79.015625 39.543607
45.775000 78.031250 39.543607
44.450000 89.515625 39.699838
44.325000 88.500000 39.699838
44.800000 87.421875 39.699838
44.600000 86.281250 39.699838
44.250000 84.859375 39.699838
44.700000 83.812500 39.699838
45.000000 82.859375 39.699838
45.025000 81.687500 39.699838
45.025000 80.203125 39.699838
45.125000 79.203125 39.699838
45.775000 77.875000 39.699838
44.350000 88.109375 39.854352
44.150000 87.000000 39.854352
43.975000 85.906250 39.854352
44.250000 84.609375 39.854352
44.775000 83.484375 39.854352
45.125000 82.312500 39.854352
45.175000 81.406250 39.854352
45.100000 80.062500 39.854352
45.250000 78.734375 39.854352
43.925000 90.421875 40.010591
44.125000 88.875000 40.010591
44.175000 87.921875 40.010591
43.925000 86.812500 40.010591
43.900000 85.578125 40.010591
44.625000 81.968750 40.010591
45.100000 80.859375 40.010591
45.025000 79.781250 40.010591
45.275000 78.578125 40.010591
44.400000 90.125000 40.164869
44.450000 88.890625 40.164869
44.275000 87.703125 40.164869
44.000000 86.609375 40.164869
43.925000 85.531250 40.164869
44.000000 84.093750 40.164869
44.500000 83.062500 40.164869
45.300000 82.171875 40.164869
45.250000 80.640625 40.164869
45.100000 79.437500 40.164869
45.250000 78.515625 40.164869
44.150000 90.015625 40.323689
44.150000 88.750000 40.323689
44.625000 87.500000 40.323689
43.950000 85.187500 40.323689
44.100000 83.953125 40.323689
44.500000 82.718750 40.323689
45.350000 81.828125 40.323689
45.300000 80.468750 40.323689
45.025000 79.359375 40.323689
45.375000 78.281250 40.323689
44.650000 90.000000 40.475941
44.650000 88.859375 40.475941
44.200000 87.781250 40.475941
43.950000 86.625000 40.475941
43.950000 85.265625 40.475941
44.075000 84.125000 40.475941
44.475000 83.140625 40.475941
45.275000 81.812500 40.475941
45.225000 80.453125 40.475941
45.000000 79.500000 40.475941
45.275000 78.234375 40.475941
43.975000 89.906250 40.633537
43.975000 88.765625 40.633537
44.200000 87.718750 40.633537
43.800000 86.375000 40.633537
43.800000 85.187500 40.633537
44.075000 84.125000 40.633537
44.475000 82.890625 40.633537
45.325000 81.562500 40.633537
45.275000 80.546875 40.633537
44.975000 79.203125 40.633537
45.325000 78.406250 40.633537
44.200000 89.656250 40.786585
43.975000 88.250000 40.786585
44.350000 87.187500 40.786585
44.025000 85.765625 40.786585
43.425000 84.921875 40.786585
43.900000 83.531250 40.786585
44.650000 80.203125 40.786585
43.650000 90.328125 40.945386
43.825000 89.140625 40.945386
43.750000 85.734375 40.945386
43.700000 84.531250 40.945386
44.150000 83.156250 40.945386
44.625000 82.265625 40.945386
45.050000 81.046875 40.945386
45.125000 79.968750 40.945386
45.050000 78.687500 40.945386
44.175000 89.750000 41.099493
44.100000 88.734375 41.099493
43.600000 87.593750 41.099493
43.200000 86.546875 41.099493
43.375000 85.406250 41.099493
43.750000 84.281250 41.099493
44.200000 83.171875 41.099493
45.175000 81.750000 41.099493
45.400000 80.843750 41.099493
44.875000 79.671875 41.099493
45.150000 78.453125 41.099493
44.350000 89.500000 41.255420
43.925000 88.234375 41.255420
44.000000 87.000000 41.255420
43.550000 85.703125 41.255420
43.300000 84.609375 41.255420
43.725000 83.671875 41.255420
44.200000 82.453125 41.255420
44.650000 81.109375 41.255420
44.750000 80.000000 41.255420
44.825000 79.140625 41.255420
43.975000 90.187500 41.411314
43.900000 88.828125 41.411314
43.900000 87.765625 41.411314
44.550000 86.500000 41.411314
43.400000 84.218750 41.411314
43.875000 82.875000 41.411314
44.475000 81.828125 41.411314
44.650000 80.765625 41.411314
44.700000 79.500000 41.411314
45.050000 78.265625 41.411314
44.125000 90.015625 41.568970
43.950000 88.750000 41.568970
43.900000 87.609375 41.568970
44.550000 86.359375 41.568970
43.375000 83.859375 41.568970
43.825000 83.031250 41.568970
44.350000 81.859375 41.568970
44.550000 80.375000 41.568970
44.675000 79.484375 41.568970
45.150000 78.421875 41.568970
43.975000 89.531250 41.722396
43.650000 88.437500 41.722396
43.850000 87.531250 41.722396
44.225000 86.171875 41.722396
44.025000 84.843750 41.722396
43.550000 83.859375 41.722396
43.975000 82.765625 41.722396
44.400000 81.640625 41.722396
44.500000 80.218750 41.722396
44.675000 79.343750 41.722396
45.275000 78.015625 41.722396
44.075000 89.750000 41.864532
43.750000 88.578125 41.864532
43.825000 87.296875 41.864532
44.300000 86.187500 41.864532
44.100000 84.875000 41.864532
43.525000 83.843750 41.864532
43.950000 82.906250 41.864532
44.375000 81.515625 41.864532
44.500000 80.359375 41.864532
44.675000 79.312500 41.864532
45.225000 77.984375 41.864532
43.975000 90.031250 42.034649
43.850000 88.968750 42.034649
43.875000 87.671875 42.034649
43.725000 86.343750 42.034649
43.550000 85.234375 42.034649
43.575000 84.093750 42.034649
43.950000 83.171875 42.034649
44.250000 81.703125 42.034649
44.425000 80.890625 42.034649
44.675000 79.718750 42.034649
45.025000 78.500000 42.034649
43.800000 88.015625 42.190844
43.850000 87.140625 42.190844
43.875000 85.968750 42.190844
43.825000 84.703125 42.190844
44.025000 83.437500 42.190844
44.250000 82.500000 42.190844
44.300000 81.140625 42.190844
44.500000 80.171875 42.190844
44.775000 78.812500 42.190844
44.025000 89.640625 42.346129
43.750000 88.234375 42.346129
43.800000 87.156250 42.346129
43.850000 85.843750 42.346129
43.875000 84.812500 42.346129
44.075000 83.515625 42.346129
44.175000 82.437500 42.346129
44.200000 81.406250 42.346129
44.375000 79.984375 42.346129
44.625000 79.093750 42.346129
45.425000 78.031250 42.346129
43.775000 88.265625 42.501408
43.800000 87.265625 42.501408
43.825000 85.921875 42.501408
43.850000 84.593750 42.501408
43.925000 83.750000 42.501408
44.000000 82.500000 42.501408
44.175000 81.453125 42.501408
44.375000 80.046875 42.501408
44.625000 79.125000 42.501408
45.400000 77.828125 42.501408
43.775000 88.140625 42.654614
43.825000 86.953125 42.654614
43.875000 85.875000 42.654614
43.925000 84.859375 42.654614
43.925000 83.593750 42.654614
44.050000 82.218750 42.654614
44.275000 81.031250 42.654614
44.475000 80.140625 42.654614
43.625000 90.343750 42.811735
43.700000 89.296875 42.811735
43.825000 87.953125 42.811735
43.800000 86.812500 42.811735
43.825000 85.812500 42.811735
43.875000 84.515625 42.811735
43.900000 83.484375 42.811735
44.000000 82.375000 42.811735
44.225000 81.156250 42.811735
44.425000 79.703125 42.811735
44.675000 78.875000 42.811735
43.725000 88.734375 42.953165
43.875000 87.531250 42.953165
43.900000 86.375000 42.953165
43.925000 85.312500 42.953165
44.225000 84.109375 42.953165
44.300000 82.671875 42.953165
44.175000 81.656250 42.953165
44.375000 80.468750 42.953165
44.550000 79.250000 42.953165
44.875000 78.234375 42.953165
43.825000 87.109375 43.109117
43.850000 86.031250 43.109117
43.975000 84.921875 43.109117
44.025000 83.500000 43.109117
44.075000 82.515625 43.109117
44.225000 81.203125 43.109117
44.375000 80.109375 43.109117
44.600000 78.968750 43.109117
45.375000 77.796875 43.109117
44.150000 90.031250 43.264225
43.850000 88.890625 43.264225
43.875000 87.656250 43.264225
43.900000 86.484375 43.264225
44.000000 85.593750 43.264225
44.325000 84.312500 43.264225
44.275000 83.250000 43.264225
44.125000 82.093750 43.264225
44.400000 80.609375 43.264225
44.550000 79.437500 43.264225
44.750000 78.468750 43.264225
43.900000 87.421875 43.420206
43.950000 86.187500 43.420206
44.050000 85.140625 43.420206
44.050000 83.859375 43.420206
44.050000 82.546875 43.420206
44.150000 81.359375 43.420206
44.375000 80.453125 43.420206
44.650000 78.968750 43.420206
45.250000 77.875000 43.420206
44.350000 89.562500 43.575472
43.825000 88.390625 43.575472
43.900000 87.109375 43.575472
43.950000 86.156250 43.575472
44.075000 85.015625 43.575472
44.050000 83.578125 43.575472
44.025000 82.593750 43.575472
44.200000 81.359375 43.575472
44.425000 80.359375 43.575472
44.625000 78.984375 43.575472
45.325000 78.015625 43.575472
44.475000 90.343750 43.731075
44.200000 89.312500 43.731075
43.925000 87.921875 43.731075
43.950000 86.968750 43.731075
44.075000 85.609375 43.731075
44.325000 84.468750 43.731075
44.325000 83.203125 43.731075
44.125000 82.218750 43.731075
44.275000 80.796875 43.731075
44.450000 79.703125 43.731075
44.700000 78.703125 43.731075
43.800000 88.750000 43.887476
43.900000 87.578125 43.887476
44.000000 86.500000 43.887476
44.100000 85.265625 43.887476
44.275000 84.000000 43.887476
44.250000 82.718750 43.887476
44.175000 81.625000 43.887476
44.375000 80.578125 43.887476
44.550000 79.218750 43.887476
44.875000 78.375000 43.887476
43.925000 88.203125 44.043869
43.950000 87.015625 44.043869
44.100000 85.828125 44.043869
44.350000 84.656250 44.043869
44.325000 83.281250 44.043869
44.150000 82.406250 44.043869
44.250000 81.156250 44.043869
44.500000 79.890625 44.043869
44.775000 78.656250 44.043869
43.950000 90.390625 44.199770
43.975000 89.046875 44.199770
44.025000 88.109375 44.199770
44.050000 86.953125 44.199770
44.075000 85.718750 44.199770
