33.950000 90.921875 0.062613
36.300000 88.515625 0.201296
36.400000 88.078125 0.494734
33.750000 90.875000 0.494734
35.925000 88.937500 0.787833
35.900000 90.531250 0.787833
35.950000 88.156250 0.928993
36.100000 89.687500 0.928993
36.025000 91.062500 0.928993
35.900000 89.171875 1.082679
35.800000 90.203125 1.082679
36.225000 88.171875 1.223259
36.225000 89.562500 1.223259
36.250000 90.718750 1.223259
36.425000 87.953125 1.377272
36.025000 89.078125 1.377272
35.525000 90.406250 1.377272
36.425000 87.687500 1.518560
35.925000 88.609375 1.518560
35.450000 89.890625 1.518560
36.075000 88.531250 1.672852
36.050000 89.750000 1.672852
36.350000 87.859375 1.811930
36.000000 88.906250 1.811930
35.250000 90.359375 1.811930
35.850000 88.906250 1.953014
35.650000 89.984375 1.953014
36.300000 88.484375 2.105560
36.250000 89.640625 2.105560
36.450000 88.281250 2.258955
36.400000 89.578125 2.258955
36.250000 87.953125 2.397551
35.725000 89.421875 2.397551
34.825000 90.796875 2.397551
36.575000 88.359375 2.539030
35.150000 90.328125 2.695267
36.250000 87.781250 2.836642
35.850000 89.484375 2.836642
35.150000 90.703125 2.836642
36.625000 88.234375 2.991316
36.450000 89.906250 2.991316
36.225000 87.593750 3.129309
34.775000 90.328125 3.129309
36.475000 88.390625 3.269101
36.125000 89.968750 3.269101
36.325000 87.968750 3.427837
35.950000 89.140625 3.427837
35.275000 90.578125 3.427837
36.225000 88.750000 3.565542
35.950000 89.984375 3.565542
36.475000 88.046875 3.720277
36.225000 89.703125 3.720277
36.475000 87.734375 3.865371
35.275000 90.281250 3.865371
36.225000 88.843750 4.001717
35.950000 89.859375 4.001717
36.625000 87.953125 4.155209
36.400000 88.015625 4.293915
35.100000 90.296875 4.293915
36.400000 87.890625 4.447913
34.925000 90.281250 4.447913
36.425000 87.562500 4.727686
35.125000 90.281250 4.727686
36.675000 88.640625 4.881628
36.600000 87.703125 5.022641
35.575000 90.062500 5.022641
36.575000 87.796875 5.177457
35.550000 90.453125 5.177457
36.175000 90.968750 5.317168
35.700000 90.140625 5.470136
36.675000 87.750000 5.750291
35.575000 90.062500 5.750291
36.675000 87.437500 6.053560
35.600000 90.125000 6.053560
36.925000 88.140625 6.200814
36.625000 89.031250 6.341705
36.450000 90.062500 6.341705
36.875000 88.187500 6.498450
36.750000 87.890625 6.637493
36.025000 90.281250 6.637493
36.750000 88.703125 6.778044
36.625000 90.171875 6.778044
36.775000 88.000000 6.932693
37.050000 88.687500 7.070705
36.925000 89.921875 7.070705
36.675000 87.718750 7.226407
36.550000 89.265625 7.226407
35.950000 90.328125 7.226407
36.800000 88.359375 7.369017
36.650000 89.296875 7.369017
36.650000 90.859375 7.369017
36.925000 88.812500 7.507644
36.625000 90.281250 7.507644
37.025000 88.406250 7.660768
36.975000 89.828125 7.660768
36.800000 88.453125 7.806539
36.650000 89.390625 7.806539
36.725000 87.843750 7.942120
35.350000 90.781250 7.942120
37.025000 88.484375 8.095960
37.025000 89.609375 8.095960
36.700000 88.062500 8.242529
35.550000 90.437500 8.242529
37.025000 88.828125 8.378287
36.975000 90.187500 8.378287
36.725000 87.968750 8.532830
36.450000 89.218750 8.532830
36.025000 90.640625 8.532830
36.925000 88.765625 8.680754
36.975000 90.187500 8.680754
36.825000 88.078125 8.827669
36.650000 89.718750 8.827669
36.575000 87.921875 8.967957
36.300000 89.375000 8.967957
35.925000 90.390625 8.967957
36.875000 88.562500 9.122282
36.825000 89.953125 9.122282
36.675000 87.890625 9.275694
36.400000 89.234375 9.275694
35.800000 90.781250 9.275694
36.875000 88.187500 9.415028
36.800000 89.437500 9.415028
36.700000 87.937500 9.558665
36.375000 89.156250 9.558665
35.650000 90.531250 9.558665
36.275000 88.843750 9.694914
36.325000 89.890625 9.694914
36.725000 88.437500 9.849958
36.650000 89.734375 9.849958
36.675000 88.203125 9.995284
36.200000 89.515625 9.995284
35.850000 90.843750 9.995284
36.575000 88.234375 10.143947
36.100000 89.171875 10.143947
35.475000 90.515625 10.143947
36.650000 88.468750 10.431635
36.175000 89.515625 10.431635
35.850000 90.640625 10.431635
36.250000 89.046875 10.579204
36.300000 90.468750 10.579204
36.325000 88.437500 10.734635
36.375000 89.640625 10.734635
36.550000 87.968750 10.870487
36.075000 89.390625 10.870487
35.450000 90.734375 10.870487
36.000000 88.031250 11.156607
36.125000 89.328125 11.156607
35.550000 90.671875 11.156607
36.375000 87.687500 11.310747
35.950000 88.937500 11.310747
35.750000 90.218750 11.310747
36.125000 88.328125 11.450744
36.100000 89.703125 11.450744
36.300000 87.906250 11.605541
35.950000 89.468750 11.605541
35.525000 90.468750 11.605541
36.025000 88.187500 11.745746
36.100000 89.656250 11.745746
36.250000 90.734375 11.745746
36.425000 87.937500 11.885704
36.000000 89.140625 11.885704
35.275000 90.953125 11.885704
36.400000 87.890625 12.039974
35.950000 89.500000 12.039974
35.450000 90.781250 12.039974
36.150000 88.703125 12.184183
36.125000 89.859375 12.184183
36.400000 88.640625 12.335049
36.425000 87.859375 12.474702
35.975000 89.328125 12.474702
35.225000 90.765625 12.474702
35.850000 88.937500 12.619442
35.700000 90.453125 12.619442
36.400000 88.328125 12.768136
36.225000 89.687500 12.768136
36.000000 90.812500 12.768136
36.325000 87.890625 12.910236
35.775000 89.187500 12.910236
35.150000 90.843750 12.910236
36.500000 88.421875 13.057491
36.300000 88.250000 13.207283
34.975000 90.843750 13.207283
36.475000 88.296875 13.348016
36.275000 89.781250 13.348016
35.925000 91.265625 13.348016
36.300000 87.625000 13.498507
34.475000 90.890625 13.498507
36.500000 88.781250 13.643995
36.450000 89.875000 13.643995
36.275000 88.062500 13.800320
35.775000 89.328125 13.800320
34.950000 91.250000 13.800320
36.525000 88.984375 13.935843
36.150000 90.437500 13.935843
36.600000 88.453125 14.081444
36.600000 88.484375 14.237722
36.550000 88.375000 14.374114
35.650000 90.734375 14.374114
36.475000 87.984375 14.517279
36.300000 89.468750 14.517279
36.500000 89.156250 14.657480
36.225000 90.468750 14.657480
36.775000 88.812500 14.808035
36.475000 88.250000 15.259790
36.175000 89.687500 15.259790
35.275000 90.906250 15.259790
35.550000 90.671875 15.400151
36.700000 88.453125 15.540000
35.850000 91.078125 15.540000
35.500000 90.000000 15.686133
35.825000 91.171875 15.834369
35.650000 90.546875 15.990377
36.775000 88.015625 16.271170
35.575000 90.812500 16.271170
37.075000 89.156250 16.413145
36.700000 88.156250 16.708782
35.550000 91.250000 16.708782
37.075000 88.718750 16.849207
36.850000 88.546875 16.998846
36.700000 88.125000 17.145044
35.700000 90.968750 17.145044
36.725000 88.687500 17.285301
36.025000 91.171875 17.285301
36.625000 89.234375 17.435137
36.325000 90.500000 17.435137
37.125000 88.843750 17.579451
36.975000 90.250000 17.579451
36.850000 88.671875 17.733862
36.750000 87.968750 17.875390
36.525000 89.546875 17.875390
36.000000 90.640625 17.875390
36.975000 88.734375 18.028029
36.825000 90.078125 18.028029
36.775000 88.234375 18.168308
36.450000 89.500000 18.168308
36.025000 90.828125 18.168308
36.700000 88.093750 18.312586
36.450000 89.187500 18.312586
35.850000 90.687500 18.312586
37.100000 88.640625 18.462811
36.900000 90.015625 18.462811
37.000000 88.500000 18.602652
37.075000 90.125000 18.602652
36.850000 88.328125 18.749093
36.675000 89.796875 18.749093
36.800000 90.703125 18.749093
36.850000 88.390625 18.897341
36.675000 89.984375 18.897341
36.650000 91.078125 18.897341
36.725000 87.843750 19.050691
35.475000 90.671875 19.050691
37.025000 88.921875 19.188297
37.000000 90.171875 19.188297
36.800000 88.343750 19.331817
36.475000 89.875000 19.331817
35.975000 91.171875 19.331817
36.775000 88.218750 19.485659
35.725000 90.843750 19.485659
36.925000 89.000000 19.624466
36.875000 90.500000 19.624466
36.850000 88.859375 19.779931
36.725000 89.718750 19.779931
36.625000 89.109375 19.919626
36.650000 90.625000 19.919626
36.950000 88.406250 20.062696
36.700000 89.875000 20.062696
36.575000 91.046875 20.062696
36.650000 88.812500 20.215236
36.750000 90.078125 20.215236
36.800000 88.625000 20.354444
36.375000 89.703125 20.354444
35.625000 90.890625 20.354444
36.250000 89.421875 20.499141
36.275000 90.750000 20.499141
36.825000 88.921875 20.648291
36.650000 90.390625 20.648291
36.600000 88.093750 20.803381
36.200000 89.609375 20.803381
35.525000 91.171875 20.803381
36.600000 89.093750 20.936539
36.625000 90.296875 20.936539
36.600000 88.328125 21.083532
36.125000 89.687500 21.083532
35.800000 90.953125 21.083532
36.425000 89.031250 21.236560
36.500000 90.500000 21.236560
36.550000 88.187500 21.374946
36.100000 89.687500 21.374946
35.775000 91.125000 21.374946
36.275000 89.203125 21.534365
36.375000 90.390625 21.534365
36.300000 88.546875 21.673822
36.275000 90.375000 21.673822
36.200000 88.468750 21.814700
36.175000 89.750000 21.814700
35.400000 90.937500 21.814700
36.125000 88.953125 21.969113
36.175000 90.609375 21.969113
36.200000 88.468750 22.110045
36.150000 89.812500 22.110045
35.350000 91.328125 22.110045
36.200000 88.781250 22.250912
36.175000 90.328125 22.250912
36.375000 88.312500 22.406117
35.950000 89.406250 22.406117
35.750000 90.843750 22.406117
36.125000 88.625000 22.546247
36.175000 89.984375 22.546247
36.525000 88.531250 22.839647
36.025000 89.937500 22.839647
35.250000 90.812500 22.839647
36.075000 88.906250 22.839647
36.050000 90.203125 22.839647
36.450000 88.359375 22.994017
36.175000 90.156250 22.994017
35.850000 91.234375 22.994017
36.000000 89.109375 23.132425
35.900000 90.171875 23.132425
36.500000 88.312500 23.273660
36.025000 89.453125 23.273660
35.250000 91.140625 23.273660
36.400000 88.953125 23.428205
36.275000 90.250000 23.428205
36.350000 88.687500 23.566513
36.075000 89.734375 23.566513
35.525000 91.125000 23.566513
36.200000 88.859375 23.721413
36.025000 90.156250 23.721413
36.475000 88.437500 23.862281
36.400000 89.937500 23.862281
36.225000 91.406250 23.862281
35.200000 90.343750 24.016477
36.625000 88.765625 24.156523
36.525000 90.484375 24.156523
36.325000 88.171875 24.298933
34.500000 90.828125 24.298933
36.600000 88.765625 24.455211
36.500000 89.750000 24.455211
35.275000 90.515625 24.597925
36.425000 89.015625 24.739518
36.100000 90.406250 24.739518
36.600000 89.062500 24.894237
36.550000 88.187500 25.034859
36.300000 89.609375 25.034859
35.525000 91.437500 25.034859
36.400000 88.468750 25.178581
36.250000 89.546875 25.178581
36.225000 89.468750 25.332343
35.975000 90.500000 25.332343
36.525000 88.796875 25.471184
36.275000 90.218750 25.471184
36.750000 88.937500 25.610955
36.525000 88.250000 25.766351
35.200000 91.421875 25.766351
36.700000 88.890625 25.905482
36.675000 88.718750 26.059813
35.975000 90.875000 26.059813
36.050000 89.250000 26.200646
35.600000 90.734375 26.200646
36.600000 88.187500 26.494025
35.400000 91.140625 26.494025
36.275000 88.828125 26.634245
35.925000 90.296875 26.634245
36.125000 91.203125 26.790338
36.775000 88.296875 26.930064
36.125000 91.265625 26.930064
37.025000 88.937500 27.083862
36.875000 88.531250 27.223148
36.700000 88.203125 27.363438
35.650000 90.843750 27.363438
36.475000 89.234375 27.520009
36.050000 90.562500 27.520009
36.875000 89.109375 27.658872
36.650000 90.343750 27.658872
37.025000 89.046875 27.814039
36.875000 88.671875 27.954838
36.625000 89.500000 28.095579
36.325000 90.515625 28.095579
37.100000 88.625000 28.255844
36.675000 89.562500 28.392462
36.600000 90.593750 28.392462
36.925000 88.703125 28.533105
36.850000 88.375000 28.693350
36.750000 89.750000 28.693350
36.675000 90.671875 28.693350
37.175000 89.000000 28.829183
36.975000 90.218750 28.829183
36.750000 88.375000 28.972208
35.675000 91.453125 28.972208
37.150000 89.421875 29.129207
36.900000 90.750000 29.129207
36.950000 88.718750 29.271636
36.800000 88.703125 29.409567
35.300000 91.359375 29.409567
37.075000 89.234375 29.569057
36.875000 90.500000 29.569057
36.850000 88.828125 29.705333
36.700000 89.890625 29.705333
36.550000 91.265625 29.705333
36.775000 88.718750 29.844484
35.350000 90.890625 29.844484
36.750000 88.500000 29.999285
35.475000 90.843750 29.999285
36.700000 88.343750 30.140969
35.500000 91.265625 30.140969
37.075000 89.218750 30.294734
37.150000 90.593750 30.294734
36.775000 88.546875 30.436758
36.350000 89.890625 30.436758
35.675000 91.062500 30.436758
36.925000 88.890625 30.578734
36.825000 90.000000 30.578734
36.800000 88.984375 30.733400
36.800000 90.531250 30.733400
36.550000 88.406250 30.882950
36.350000 89.656250 30.882950
36.325000 91.125000 30.882950
37.000000 88.812500 31.016817
36.675000 90.093750 31.016817
36.525000 91.500000 31.016817
36.625000 88.796875 31.171275
36.225000 90.093750 31.171275
35.675000 91.421875 31.171275
36.675000 89.000000 31.309103
36.725000 90.656250 31.309103
36.800000 89.031250 31.462988
36.475000 89.953125 31.462988
36.575000 91.406250 31.462988
36.600000 88.578125 31.603151
36.150000 90.265625 31.603151
35.575000 91.359375 31.603151
36.550000 88.125000 31.743495
36.150000 89.750000 31.743495
35.950000 90.640625 31.743495
36.625000 88.265625 32.040058
36.100000 89.812500 32.040058
35.525000 91.015625 32.040058
36.375000 89.078125 32.194762
36.500000 90.406250 32.194762
36.325000 89.250000 32.335001
36.375000 90.515625 32.335001
36.125000 88.406250 32.474878
36.250000 89.687500 32.474878
35.825000 91.281250 32.474878
36.350000 88.250000 32.635518
35.950000 89.546875 32.635518
35.950000 90.843750 32.635518
36.175000 88.687500 32.772360
36.200000 90.375000 32.772360
36.350000 91.453125 32.772360
35.950000 89.718750 32.926991
35.950000 90.656250 32.926991
36.275000 88.687500 33.074545
36.225000 89.968750 33.074545
35.500000 91.625000 33.074545
36.150000 89.375000 33.211838
36.200000 90.296875 33.211838
36.225000 88.781250 33.350984
36.250000 90.359375 33.350984
36.375000 91.218750 33.350984
36.550000 88.390625 33.506960
36.075000 90.000000 33.506960
35.350000 91.343750 33.506960
36.500000 88.156250 33.645273
36.075000 89.671875 33.645273
35.675000 91.234375 33.645273
36.150000 89.484375 33.801532
36.025000 90.671875 33.801532
36.500000 89.093750 33.946839
36.475000 88.375000 34.082747
36.050000 89.921875 34.082747
36.400000 89.343750 34.236300
36.275000 90.453125 34.236300
36.450000 88.703125 34.390302
35.925000 89.765625 34.390302
35.100000 91.281250 34.390302
36.425000 88.296875 34.531122
35.000000 91.265625 34.531122
36.600000 89.109375 34.672713
36.450000 90.671875 34.672713
36.625000 88.843750 34.812326
36.475000 90.296875 34.812326
36.425000 91.546875 34.812326
36.400000 88.265625 34.964935
34.575000 91.375000 34.964935
36.725000 89.281250 35.105592
36.675000 90.359375 35.105592
36.350000 88.687500 35.263447
34.875000 91.296875 35.263447
36.475000 89.500000 35.402977
36.100000 90.625000 35.402977
36.600000 89.093750 35.543678
36.600000 88.546875 35.699056
36.400000 90.000000 35.699056
35.850000 91.562500 35.699056
36.525000 88.453125 35.837852
36.300000 90.265625 35.837852
35.350000 91.156250 35.837852
36.600000 89.125000 35.991661
36.325000 90.593750 35.991661
36.525000 88.625000 36.137521
36.275000 89.921875 36.137521
35.250000 91.656250 36.137521
36.825000 89.453125 36.274365
36.725000 88.734375 36.429654
35.975000 91.265625 36.429654
35.350000 90.828125 36.573194
36.600000 89.156250 36.711059
36.125000 90.765625 36.711059
35.975000 91.609375 36.867731
35.550000 91.015625 37.010776
36.200000 91.500000 37.162487
35.600000 90.687500 37.300611
35.950000 91.265625 37.447334
36.825000 88.640625 37.594420
35.600000 91.437500 37.594420
35.675000 91.093750 37.735378
36.950000 88.828125 38.029494
36.325000 91.656250 38.029494
36.750000 88.562500 38.169950
35.775000 91.156250 38.169950
36.950000 89.203125 38.325597
36.725000 90.531250 38.325597
37.100000 88.921875 38.464720
36.850000 88.500000 38.619725
36.625000 89.656250 38.761127
36.600000 90.562500 38.761127
37.175000 89.359375 38.899046
37.025000 90.390625 38.899046
36.825000 88.312500 39.052791
36.050000 91.000000 39.052791
36.700000 89.609375 39.200032
36.650000 90.750000 39.200032
37.175000 89.265625 39.350303
37.000000 90.453125 39.350303
36.900000 88.500000 39.490374
35.925000 91.203125 39.490374
36.825000 88.000000 39.637304
36.600000 89.734375 39.637304
35.925000 90.984375 39.637304
36.775000 88.218750 39.785414
35.600000 90.984375 39.785414
36.950000 88.437500 39.926390
36.925000 87.953125 40.074228
36.725000 87.875000 40.221287
36.425000 89.140625 40.221287
36.075000 90.562500 40.221287
36.725000 87.421875 40.359845
36.300000 88.953125 40.359845
35.550000 90.515625 40.359845
36.700000 87.640625 40.512934
36.425000 89.062500 40.512934
35.900000 90.109375 40.512934
36.975000 88.781250 40.658230
37.000000 89.796875 40.658230
36.925000 88.625000 40.799588
37.050000 89.609375 40.799588
36.850000 87.906250 40.951646
36.375000 89.593750 40.951646
35.900000 90.406250 40.951646
36.575000 87.796875 41.097364
36.300000 89.062500 41.097364
35.875000 90.156250 41.097364
36.900000 88.406250 41.385375
36.500000 89.593750 41.385375
35.800000 90.734375 41.385375
36.700000 88.593750 41.532121
36.800000 90.093750 41.532121
36.925000 88.625000 41.674032
36.625000 89.593750 41.674032
36.550000 90.984375 41.674032
36.750000 88.234375 41.824234
36.350000 89.843750 41.824234
35.625000 90.703125 41.824234
36.725000 88.015625 41.969563
36.325000 89.500000 41.969563
35.600000 91.171875 41.969563
36.700000 88.453125 42.123916
36.300000 89.640625 42.123916
35.925000 90.906250 42.123916
36.600000 88.281250 42.264489
36.175000 89.781250 42.264489
35.775000 90.687500 42.264489
36.625000 88.187500 42.403451
36.175000 89.671875 42.403451
35.500000 90.718750 42.403451
36.475000 88.750000 42.559672
36.550000 90.250000 42.559672
36.250000 88.375000 42.701660
36.325000 89.984375 42.701660
36.300000 88.500000 42.840826
36.150000 89.765625 42.840826
35.750000 91.078125 42.840826
36.325000 88.171875 42.995346
36.100000 89.656250 42.995346
35.400000 90.968750 42.995346
36.050000 88.578125 43.290234
36.175000 89.671875 43.290234
35.825000 90.953125 43.290234
36.075000 89.078125 43.431034
36.125000 90.171875 43.431034
36.100000 88.625000 43.577012
36.175000 90.171875 43.577012
36.300000 91.281250 43.577012
36.350000 87.890625 43.728230
35.975000 89.203125 43.728230
35.825000 90.796875 43.728230
36.150000 89.078125 43.869142
36.200000 90.312500 43.869142
36.200000 88.718750 44.016008
36.250000 90.046875 44.016008
36.350000 91.187500 44.016008
36.500000 88.218750 44.165937
36.025000 89.687500 44.165937
35.375000 91.218750 44.165937
36.450000 88.281250 44.305380
35.975000 89.578125 44.305380
35.625000 90.656250 44.305380
36.350000 88.046875 44.451126
35.850000 89.046875 44.451126
35.800000 90.281250 44.451126
35.900000 89.390625 44.600352
35.775000 90.109375 44.600352
36.500000 88.734375 44.742428
36.325000 89.859375 44.742428
36.175000 91.031250 44.742428
36.400000 88.062500 44.889012
36.000000 89.390625 44.889012
35.150000 90.906250 44.889012
35.850000 89.328125 45.036412
35.525000 90.843750 45.036412
36.375000 88.468750 45.176987
34.700000 91.265625 45.176987
36.450000 88.765625 45.326218
36.175000 90.593750 45.326218
36.625000 88.593750 45.470758
36.575000 90.046875 45.470758
36.375000 88.687500 45.626356
36.025000 90.093750 45.626356
35.300000 91.421875 45.626356
36.525000 88.375000 45.909907
36.425000 89.703125 45.909907
35.075000 90.515625 46.063447
36.450000 89.218750 46.202753
36.150000 90.375000 46.202753
36.525000 88.656250 46.495398
36.275000 89.875000 46.495398
35.400000 91.375000 46.495398
36.425000 89.265625 46.642334
35.675000 90.656250 46.642334
36.750000 88.703125 46.790950
36.650000 88.046875 46.930666
35.150000 91.000000 46.930666
36.700000 89.046875 47.075435
36.650000 88.562500 47.229146
35.550000 90.953125 47.229146
36.650000 88.390625 47.369698
35.400000 91.390625 47.369698
35.550000 90.734375 47.515404
36.275000 88.984375 47.664176
35.825000 90.578125 47.664176
36.250000 90.890625 47.806689
35.625000 90.578125 47.951392
36.750000 88.828125 48.100556
36.425000 90.171875 48.100556
36.750000 88.500000 48.255451
35.825000 91.296875 48.255451
35.575000 91.000000 48.389144
35.700000 91.093750 48.538155
36.875000 89.343750 48.691564
36.625000 90.421875 48.691564
36.750000 89.828125 48.971735
36.375000 90.984375 48.971735
37.000000 88.953125 49.265710
36.650000 89.937500 49.419649
36.200000 90.890625 49.419649
36.825000 89.515625 49.559326
36.725000 91.062500 49.559326
36.925000 88.734375 49.853777
36.725000 90.109375 49.853777
36.400000 91.375000 49.853777
37.225000 89.562500 50.005954
37.000000 90.875000 50.005954
36.900000 89.000000 50.141214
36.700000 90.328125 50.141214
36.400000 91.046875 50.141214
36.850000 89.656250 50.300130
36.675000 91.093750 50.300130
36.975000 89.234375 50.439097
36.775000 90.609375 50.439097
37.175000 89.312500 50.579624
37.050000 90.625000 50.579624
37.100000 89.000000 50.736129
37.225000 90.187500 50.736129
37.000000 88.625000 50.877085
36.825000 88.734375 51.018178
35.675000 90.937500 51.018178
36.850000 88.375000 51.173265
36.500000 89.578125 51.173265
35.850000 91.000000 51.173265
37.025000 89.234375 51.312609
37.050000 90.296875 51.312609
37.000000 88.859375 51.465976
37.125000 90.312500 51.465976
37.100000 88.640625 51.607619
36.925000 88.390625 51.749133
36.675000 89.921875 51.749133
36.575000 91.328125 51.749133
36.700000 88.000000 51.902746
36.475000 89.796875 51.902746
36.075000 90.750000 51.902746
36.725000 89.078125 52.043289
36.775000 90.640625 52.043289
36.950000 88.875000 52.183467
36.875000 90.296875 52.183467
37.075000 88.640625 52.338623
36.575000 89.703125 52.338623
36.100000 91.203125 52.338623
36.900000 88.640625 52.477635
36.450000 89.656250 52.477635
35.950000 91.265625 52.477635
36.950000 88.781250 52.632698
36.650000 90.015625 52.632698
36.600000 91.546875 52.632698
36.875000 89.093750 52.770612
36.775000 90.093750 52.770612
36.775000 88.859375 52.924844
36.625000 90.546875 52.924844
36.675000 89.125000 53.065575
36.425000 90.375000 53.065575
36.675000 88.546875 53.204515
36.275000 89.921875 53.204515
36.200000 91.375000 53.204515
36.225000 88.609375 53.360274
36.275000 90.421875 53.360274
36.225000 88.593750 53.499818
36.200000 89.796875 53.499818
36.000000 91.375000 53.499818
36.200000 88.671875 53.654651
36.175000 89.984375 53.654651
35.700000 91.328125 53.654651
36.400000 88.328125 53.794532
36.125000 89.468750 53.794532
35.350000 91.375000 53.794532
36.425000 87.953125 53.948631
35.975000 89.796875 53.948631
35.875000 90.546875 53.948631
36.175000 89.203125 54.086902
36.200000 90.578125 54.086902
36.150000 88.750000 54.228858
36.200000 89.953125 54.228858
36.200000 91.281250 54.228858
36.400000 88.406250 54.382824
36.150000 89.703125 54.382824
35.350000 91.312500 54.382824
36.500000 88.140625 54.522506
36.075000 89.562500 54.522506
35.650000 91.078125 54.522506
35.975000 89.468750 54.662897
35.850000 90.906250 54.662897
36.050000 89.468750 54.816623
35.850000 91.125000 54.816623
36.475000 88.281250 54.957823
36.000000 89.937500 54.957823
35.675000 91.000000 54.957823
36.000000 90.031250 55.112506
35.825000 90.953125 55.112506
35.925000 89.406250 55.252297
35.825000 90.750000 55.252297
36.500000 89.468750 55.408553
36.325000 90.546875 55.408553
36.575000 89.171875 55.547717
36.575000 89.343750 55.688439
36.400000 90.328125 55.688439
36.150000 89.281250 55.843333
36.025000 90.484375 55.843333
36.575000 88.921875 55.983754
36.400000 90.500000 55.983754
36.625000 88.765625 56.124506
36.525000 90.156250 56.124506
36.475000 91.546875 56.124506
36.400000 88.843750 56.279146
35.900000 89.843750 56.279146
34.925000 91.703125 56.279146
36.275000 89.562500 56.421684
35.975000 90.968750 56.421684
36.700000 88.781250 56.561063
36.600000 90.359375 56.561063
36.650000 88.531250 56.715333
36.525000 90.312500 56.715333
36.675000 88.734375 56.854727
36.500000 90.031250 56.854727
36.550000 88.656250 57.009112
36.275000 90.093750 57.009112
35.800000 91.531250 57.009112
36.500000 88.562500 57.148783
36.325000 89.828125 57.148783
35.500000 91.078125 57.148783
36.475000 88.218750 57.288772
36.300000 89.578125 57.288772
35.450000 91.125000 57.288772
36.475000 88.218750 57.442595
36.225000 89.875000 57.442595
35.300000 90.906250 57.442595
36.400000 89.343750 57.598242
35.975000 90.812500 57.598242
36.700000 89.171875 57.738383
36.200000 90.906250 58.172418
36.675000 88.218750 58.314792
35.625000 91.343750 58.314792
35.525000 91.078125 58.471565
36.125000 89.031250 58.611327
35.725000 90.250000 58.611327
36.725000 88.546875 58.773033
35.500000 91.343750 58.773033
35.800000 90.375000 58.908476
35.700000 90.765625 59.047633
36.475000 88.953125 59.202894
36.100000 90.359375 59.202894
37.100000 89.140625 59.344323
36.875000 88.625000 59.637644
36.200000 91.046875 59.637644
36.550000 89.718750 59.776886
36.025000 90.812500 59.776886
37.050000 88.953125 59.930704
36.925000 90.265625 59.930704
