38.975000 78.359375 34.432204
38.925000 76.984375 34.432204
39.225000 75.937500 34.432204
37.750000 87.718750 34.589409
37.900000 86.656250 34.589409
38.375000 85.546875 34.589409
37.475000 83.234375 34.589409
37.950000 82.171875 34.589409
38.250000 80.875000 34.589409
38.575000 79.656250 34.589409
38.900000 78.500000 34.589409
38.875000 77.343750 34.589409
39.125000 76.484375 34.589409
37.825000 89.078125 34.737517
37.725000 88.406250 34.737517
37.950000 86.937500 34.737517
38.050000 85.734375 34.737517
37.800000 84.562500 34.737517
37.550000 83.593750 34.737517
38.000000 82.218750 34.737517
38.525000 81.109375 34.737517
38.900000 80.343750 34.737517
38.975000 78.796875 34.737517
38.875000 77.781250 34.737517
39.000000 76.609375 34.737517
37.800000 89.656250 34.887308
37.800000 88.453125 34.887308
37.925000 87.312500 34.887308
37.700000 85.984375 34.887308
37.450000 85.187500 34.887308
37.575000 83.796875 34.887308
37.975000 82.578125 34.887308
38.625000 81.843750 34.887308
39.075000 80.562500 34.887308
38.950000 79.312500 34.887308
38.775000 78.031250 34.887308
38.950000 76.671875 34.887308
39.675000 75.734375 34.887308
37.825000 89.890625 35.042850
37.850000 88.515625 35.042850
37.975000 87.390625 35.042850
37.875000 86.437500 35.042850
37.600000 84.937500 35.042850
37.575000 83.781250 35.042850
37.925000 82.718750 35.042850
38.600000 81.796875 35.042850
39.075000 80.531250 35.042850
38.950000 79.453125 35.042850
38.750000 78.296875 35.042850
38.925000 76.750000 35.042850
39.550000 75.953125 35.042850
38.075000 89.812500 35.198905
38.075000 88.687500 35.198905
38.050000 87.515625 35.198905
38.175000 86.171875 35.198905
37.925000 85.265625 35.198905
37.575000 83.656250 35.198905
37.925000 82.828125 35.198905
38.525000 81.421875 35.198905
39.000000 80.609375 35.198905
38.950000 79.296875 35.198905
38.725000 78.187500 35.198905
38.925000 76.687500 35.198905
39.625000 75.625000 35.198905
38.100000 90.109375 35.353647
38.100000 89.015625 35.353647
38.050000 87.718750 35.353647
38.225000 86.500000 35.353647
38.100000 85.296875 35.353647
37.775000 83.921875 35.353647
38.850000 79.296875 35.353647
38.675000 78.140625 35.353647
38.875000 77.093750 35.353647
39.325000 75.968750 35.353647
37.875000 90.156250 35.508330
38.000000 88.937500 35.508330
38.075000 87.796875 35.508330
38.100000 86.593750 35.508330
38.275000 85.703125 35.508330
38.125000 84.421875 35.508330
37.975000 82.921875 35.508330
38.575000 81.843750 35.508330
39.000000 80.687500 35.508330
38.800000 79.671875 35.508330
38.700000 78.390625 35.508330
38.900000 77.265625 35.508330
39.300000 75.875000 35.508330
38.125000 89.875000 35.666553
38.150000 89.015625 35.666553
38.200000 87.906250 35.666553
38.225000 86.765625 35.666553
38.450000 85.656250 35.666553
38.400000 84.406250 35.666553
38.350000 83.234375 35.666553
38.775000 82.046875 35.666553
39.025000 80.531250 35.666553
38.825000 79.500000 35.666553
38.725000 78.250000 35.666553
38.925000 77.031250 35.666553
39.425000 76.015625 35.666553
38.600000 90.203125 35.822759
38.475000 88.687500 35.822759
38.075000 87.781250 35.822759
38.150000 86.187500 35.822759
38.350000 85.390625 35.822759
38.400000 84.218750 35.822759
38.500000 82.750000 35.822759
38.825000 81.562500 35.822759
39.050000 80.546875 35.822759
38.875000 79.171875 35.822759
38.700000 77.968750 35.822759
38.925000 77.140625 35.822759
39.625000 75.968750 35.822759
37.775000 89.406250 35.977534
38.075000 87.953125 35.977534
38.225000 86.875000 35.977534
38.325000 86.015625 35.977534
38.325000 84.546875 35.977534
38.350000 83.593750 35.977534
38.725000 82.390625 35.977534
39.075000 80.921875 35.977534
38.850000 79.750000 35.977534
38.625000 78.859375 35.977534
38.850000 77.531250 35.977534
39.275000 76.484375 35.977534
38.825000 89.906250 36.134870
38.575000 88.859375 36.134870
38.100000 87.484375 36.134870
38.225000 86.578125 36.134870
38.400000 84.984375 36.134870
38.375000 83.890625 36.134870
38.600000 82.703125 36.134870
38.925000 81.828125 36.134870
39.025000 80.546875 36.134870
38.825000 79.437500 36.134870
38.600000 78.031250 36.134870
38.850000 76.937500 36.134870
39.625000 75.843750 36.134870
37.750000 88.906250 36.275043
38.050000 87.921875 36.275043
38.250000 86.968750 36.275043
38.350000 85.875000 36.275043
38.325000 84.750000 36.275043
38.475000 83.562500 36.275043
38.825000 82.031250 36.275043
38.975000 80.953125 36.275043
38.775000 80.015625 36.275043
38.625000 78.437500 36.275043
38.850000 77.437500 36.275043
39.275000 76.406250 36.275043
39.075000 90.015625 36.432585
38.875000 88.781250 36.432585
38.300000 87.218750 36.432585
38.350000 86.265625 36.432585
38.425000 85.046875 36.432585
38.475000 83.859375 36.432585
38.825000 82.781250 36.432585
39.075000 81.796875 36.432585
38.850000 80.375000 36.432585
38.675000 79.156250 36.432585
38.800000 78.171875 36.432585
39.150000 89.734375 36.585695
38.350000 87.281250 36.585695
38.425000 86.000000 36.585695
38.475000 84.593750 36.585695
38.575000 83.718750 36.585695
38.800000 82.484375 36.585695
39.050000 81.546875 36.585695
38.875000 80.171875 36.585695
38.700000 79.171875 36.585695
38.850000 77.750000 36.585695
39.175000 76.625000 36.585695
38.175000 88.953125 36.745606
38.125000 87.984375 36.745606
38.325000 87.156250 36.745606
38.500000 85.937500 36.745606
38.600000 84.562500 36.745606
38.475000 83.203125 36.745606
38.700000 82.375000 36.745606
38.950000 80.921875 36.745606
38.775000 79.625000 36.745606
38.650000 78.890625 36.745606
38.850000 77.578125 36.745606
39.350000 76.421875 36.745606
38.900000 89.796875 36.898706
38.625000 88.500000 36.898706
38.300000 87.515625 36.898706
38.625000 86.343750 36.898706
38.525000 84.953125 36.898706
38.225000 83.953125 36.898706
38.625000 82.500000 36.898706
39.050000 81.265625 36.898706
38.975000 80.203125 36.898706
38.825000 79.093750 36.898706
38.875000 77.640625 36.898706
39.175000 76.906250 36.898706
38.475000 89.437500 37.057921
38.250000 88.375000 37.057921
38.325000 87.281250 37.057921
38.125000 85.781250 37.057921
37.825000 84.734375 37.057921
37.925000 83.484375 37.057921
38.475000 82.406250 37.057921
39.025000 81.375000 37.057921
39.000000 80.093750 37.057921
38.850000 79.000000 37.057921
38.850000 77.562500 37.057921
39.150000 76.468750 37.057921
38.425000 89.921875 37.208807
38.475000 88.906250 37.208807
38.250000 87.859375 37.208807
38.750000 86.484375 37.208807
39.175000 79.359375 37.208807
38.825000 78.093750 37.208807
38.975000 76.968750 37.208807
39.625000 75.796875 37.208807
38.175000 89.609375 37.369334
38.075000 88.578125 37.369334
38.125000 87.375000 37.369334
37.825000 85.875000 37.369334
37.550000 84.578125 37.369334
37.800000 83.484375 37.369334
38.325000 82.578125 37.369334
38.850000 81.562500 37.369334
39.125000 80.406250 37.369334
38.975000 78.953125 37.369334
38.900000 77.796875 37.369334
39.175000 76.640625 37.369334
38.125000 90.156250 37.519928
38.200000 88.781250 37.519928
38.125000 87.859375 37.519928
37.950000 86.656250 37.519928
39.025000 79.375000 37.519928
38.875000 78.375000 37.519928
38.950000 77.046875 37.519928
39.425000 76.250000 37.519928
38.200000 89.921875 37.679588
38.100000 88.562500 37.679588
37.975000 87.312500 37.679588
37.675000 86.218750 37.679588
37.550000 85.046875 37.679588
37.800000 83.484375 37.679588
38.175000 82.328125 37.679588
38.725000 81.390625 37.679588
39.375000 80.156250 37.679588
39.225000 79.015625 37.679588
38.900000 78.062500 37.679588
39.100000 76.546875 37.679588
38.250000 90.140625 37.830671
38.300000 88.828125 37.830671
38.100000 87.812500 37.830671
37.975000 86.625000 37.830671
37.700000 84.953125 37.830671
37.975000 84.000000 37.830671
38.875000 80.562500 37.830671
39.175000 79.406250 37.830671
39.050000 78.328125 37.830671
39.100000 76.968750 37.830671
39.550000 75.765625 37.830671
38.175000 89.953125 37.987583
38.175000 88.625000 37.987583
37.875000 87.281250 37.987583
37.600000 86.125000 37.987583
37.450000 85.171875 37.987583
37.575000 83.640625 37.987583
39.325000 79.312500 37.987583
39.000000 77.890625 37.987583
39.025000 76.828125 37.987583
38.175000 89.953125 38.141303
38.175000 88.468750 38.141303
38.050000 87.656250 38.141303
38.100000 86.453125 38.141303
38.125000 82.921875 38.141303
38.550000 81.859375 38.141303
39.300000 80.515625 38.141303
39.300000 79.484375 38.141303
39.000000 77.906250 38.141303
39.025000 77.156250 38.141303
38.050000 89.515625 38.299827
38.025000 88.625000 38.299827
37.675000 84.890625 38.299827
37.400000 83.656250 38.299827
37.900000 82.343750 38.299827
38.700000 81.312500 38.299827
39.350000 80.171875 38.299827
39.325000 79.000000 38.299827
39.025000 77.921875 38.299827
39.100000 76.812500 38.299827
38.075000 88.984375 38.453970
37.850000 87.859375 38.453970
37.650000 86.828125 38.453970
37.225000 85.593750 38.453970
37.275000 84.781250 38.453970
37.400000 83.421875 38.453970
37.850000 82.125000 38.453970
38.675000 81.406250 38.453970
39.225000 80.234375 38.453970
39.175000 79.062500 38.453970
38.975000 77.468750 38.453970
39.200000 76.468750 38.453970
38.425000 89.359375 38.594693
37.950000 88.078125 38.594693
37.525000 86.484375 38.594693
37.125000 85.609375 38.594693
37.250000 84.578125 38.594693
37.500000 83.406250 38.594693
37.925000 82.031250 38.594693
38.550000 80.750000 38.594693
39.125000 80.109375 38.594693
39.150000 78.750000 38.594693
38.950000 77.687500 38.594693
39.275000 76.531250 38.594693
38.075000 89.250000 38.763424
37.850000 88.296875 38.763424
37.600000 84.640625 38.763424
37.425000 83.453125 38.763424
39.150000 78.703125 38.763424
38.925000 77.406250 38.763424
39.150000 76.546875 38.763424
37.975000 89.796875 38.906157
37.925000 88.218750 38.906157
37.650000 84.828125 38.906157
37.350000 83.375000 38.906157
37.600000 82.687500 38.906157
38.950000 77.765625 38.906157
39.050000 76.562500 38.906157
38.100000 89.531250 39.060840
38.050000 88.531250 39.060840
38.000000 87.171875 39.060840
38.100000 86.078125 39.060840
37.675000 84.828125 39.060840
37.300000 83.781250 39.060840
37.575000 82.531250 39.060840
38.900000 77.875000 39.060840
38.925000 76.781250 39.060840
38.100000 89.265625 39.217877
37.925000 88.031250 39.217877
37.625000 84.156250 39.217877
37.400000 83.046875 39.217877
37.750000 81.921875 39.217877
38.450000 81.015625 39.217877
38.775000 79.531250 39.217877
38.675000 78.593750 39.217877
38.825000 77.484375 39.217877
39.250000 76.437500 39.217877
38.000000 89.046875 39.374214
37.750000 88.187500 39.374214
37.950000 87.250000 39.374214
38.125000 85.656250 39.374214
37.775000 84.671875 39.374214
37.350000 83.531250 39.374214
37.650000 82.421875 39.374214
38.150000 81.000000 39.374214
38.450000 79.796875 39.374214
38.575000 78.890625 39.374214
38.750000 77.531250 39.374214
39.100000 76.484375 39.374214
38.275000 89.281250 39.529977
37.850000 88.156250 39.529977
38.000000 87.218750 39.529977
37.775000 85.906250 39.529977
37.475000 84.703125 39.529977
37.450000 83.625000 39.529977
37.625000 82.593750 39.529977
38.100000 81.343750 39.529977
38.425000 80.140625 39.529977
38.575000 78.937500 39.529977
38.750000 77.578125 39.529977
39.025000 76.500000 39.529977
37.950000 87.375000 39.682529
37.750000 86.015625 39.682529
37.650000 84.578125 39.682529
37.700000 83.343750 39.682529
37.725000 82.203125 39.682529
38.100000 81.015625 39.682529
38.400000 80.250000 39.682529
38.475000 78.906250 39.682529
38.650000 77.546875 39.682529
39.000000 76.421875 39.682529
38.500000 89.312500 39.841927
37.900000 88.171875 39.841927
37.925000 87.296875 39.841927
37.950000 85.921875 39.841927
37.950000 84.906250 39.841927
37.800000 83.625000 39.841927
37.800000 82.546875 39.841927
38.025000 81.031250 39.841927
38.200000 79.968750 39.841927
38.425000 78.890625 39.841927
38.650000 77.812500 39.841927
38.975000 76.687500 39.841927
37.875000 89.765625 39.995595
37.750000 88.531250 39.995595
37.800000 87.718750 39.995595
37.875000 86.359375 39.995595
37.800000 84.937500 39.995595
37.775000 83.890625 39.995595
37.950000 82.875000 39.995595
38.025000 81.781250 39.995595
38.075000 80.578125 39.995595
38.275000 79.234375 39.995595
38.500000 78.203125 39.995595
37.750000 89.015625 40.150565
37.775000 87.968750 40.150565
37.875000 86.984375 40.150565
37.875000 85.796875 40.150565
37.875000 84.562500 40.150565
37.925000 83.250000 40.150565
37.975000 82.218750 40.150565
38.050000 80.656250 40.150565
38.175000 79.937500 40.150565
38.375000 78.484375 40.150565
38.600000 77.546875 40.150565
39.050000 76.046875 40.150565
38.100000 89.687500 40.306067
37.700000 88.531250 40.306067
37.800000 87.171875 40.306067
37.850000 86.250000 40.306067
37.850000 84.953125 40.306067
37.850000 83.750000 40.306067
38.050000 82.656250 40.306067
38.100000 81.546875 40.306067
38.050000 80.250000 40.306067
38.250000 78.796875 40.306067
38.425000 77.625000 40.306067
38.775000 76.625000 40.306067
37.800000 89.703125 40.461131
37.625000 88.968750 40.461131
37.725000 87.359375 40.461131
37.825000 86.578125 40.461131
37.775000 85.375000 40.461131
37.775000 84.156250 40.461131
38.050000 82.890625 40.461131
38.100000 81.734375 40.461131
38.000000 80.218750 40.461131
38.225000 79.359375 40.461131
38.475000 78.343750 40.461131
38.650000 76.890625 40.461131
39.250000 75.953125 40.461131
37.675000 89.812500 40.617247
37.525000 88.984375 40.617247
37.650000 87.765625 40.617247
37.750000 86.484375 40.617247
37.825000 85.406250 40.617247
37.825000 84.218750 40.617247
38.025000 82.953125 40.617247
38.025000 81.578125 40.617247
37.925000 80.421875 40.617247
38.125000 79.500000 40.617247
38.300000 78.187500 40.617247
38.550000 76.937500 40.617247
39.175000 76.093750 40.617247
37.475000 90.078125 40.773366
37.475000 88.765625 40.773366
37.650000 87.750000 40.773366
37.675000 86.656250 40.773366
37.750000 85.500000 40.773366
37.825000 84.312500 40.773366
38.000000 83.328125 40.773366
38.000000 81.984375 40.773366
37.850000 80.812500 40.773366
38.050000 79.328125 40.773366
38.300000 78.500000 40.773366
38.525000 77.234375 40.773366
39.000000 76.265625 40.773366
37.625000 89.828125 40.914820
37.500000 89.078125 40.914820
37.650000 87.562500 40.914820
37.675000 86.453125 40.914820
37.750000 85.437500 40.914820
37.825000 84.156250 40.914820
38.000000 83.125000 40.914820
38.000000 82.046875 40.914820
37.875000 80.781250 40.914820
38.050000 79.421875 40.914820
38.275000 78.125000 40.914820
38.500000 77.218750 40.914820
38.950000 75.890625 40.914820
37.675000 90.031250 41.083523
37.500000 89.015625 41.083523
37.650000 87.687500 41.083523
37.725000 86.390625 41.083523
37.800000 85.406250 41.083523
37.825000 84.187500 41.083523
38.025000 82.875000 41.083523
38.000000 81.656250 41.083523
37.900000 80.609375 41.083523
38.075000 79.265625 41.083523
38.250000 78.453125 41.083523
38.475000 77.218750 41.083523
38.925000 75.953125 41.083523
37.625000 89.984375 41.224799
37.500000 88.953125 41.224799
37.650000 87.812500 41.224799
37.675000 86.671875 41.224799
37.750000 85.375000 41.224799
37.825000 84.187500 41.224799
38.025000 83.031250 41.224799
38.000000 82.062500 41.224799
37.875000 80.656250 41.224799
38.050000 79.312500 41.224799
38.250000 78.296875 41.224799
38.475000 77.156250 41.224799
38.800000 76.046875 41.224799
37.775000 90.312500 41.378356
37.750000 89.062500 41.378356
37.650000 87.625000 41.378356
37.675000 86.640625 41.378356
37.725000 85.281250 41.378356
37.775000 84.515625 41.378356
38.025000 82.984375 41.378356
38.025000 82.093750 41.378356
37.850000 80.859375 41.378356
37.975000 79.609375 41.378356
38.200000 78.156250 41.378356
38.400000 77.203125 41.378356
38.750000 76.375000 41.378356
37.900000 90.093750 41.534802
37.750000 88.984375 41.534802
37.625000 87.656250 41.534802
37.675000 86.578125 41.534802
37.750000 85.328125 41.534802
37.825000 84.500000 41.534802
38.050000 83.031250 41.534802
38.025000 82.078125 41.534802
37.850000 80.937500 41.534802
38.025000 79.546875 41.534802
38.225000 78.531250 41.534802
38.425000 76.968750 41.534802
38.775000 76.281250 41.534802
37.975000 89.906250 41.689171
37.825000 88.796875 41.689171
37.625000 87.968750 41.689171
37.675000 86.828125 41.689171
37.750000 85.625000 41.689171
37.825000 84.234375 41.689171
38.050000 83.250000 41.689171
38.025000 81.703125 41.689171
37.850000 80.906250 41.689171
38.000000 79.562500 41.689171
38.200000 78.406250 41.689171
38.400000 77.078125 41.689171
38.750000 76.312500 41.689171
37.750000 89.187500 41.844990
37.450000 87.890625 41.844990
37.600000 86.906250 41.844990
37.650000 86.062500 41.844990
37.675000 84.453125 41.844990
37.850000 83.625000 41.844990
37.900000 82.453125 41.844990
37.800000 81.109375 41.844990
37.900000 80.187500 41.844990
38.100000 78.812500 41.844990
38.250000 77.515625 41.844990
38.525000 76.468750 41.844990
37.675000 89.406250 41.998860
37.400000 88.015625 41.998860
37.550000 87.234375 41.998860
37.675000 86.046875 41.998860
37.800000 84.609375 41.998860
37.875000 83.359375 41.998860
37.875000 82.296875 41.998860
37.775000 81.265625 41.998860
37.875000 80.250000 41.998860
38.075000 79.015625 41.998860
38.225000 77.890625 41.998860
38.525000 76.453125 41.998860
38.125000 90.281250 42.154764
37.825000 88.796875 42.154764
37.600000 87.906250 42.154764
37.600000 86.640625 42.154764
37.625000 85.250000 42.154764
37.700000 84.031250 42.154764
38.000000 82.796875 42.154764
37.950000 81.546875 42.154764
37.750000 80.359375 42.154764
37.975000 79.375000 42.154764
38.200000 78.484375 42.154764
38.400000 77.156250 42.154764
38.775000 76.156250 42.154764
38.200000 89.843750 42.307572
37.550000 88.390625 42.307572
37.525000 87.250000 42.307572
37.575000 86.218750 42.307572
37.600000 84.953125 42.307572
37.625000 83.562500 42.307572
37.775000 82.843750 42.307572
37.775000 81.406250 42.307572
37.775000 80.406250 42.307572
37.975000 78.890625 42.307572
38.200000 77.796875 42.307572
38.425000 76.703125 42.307572
39.025000 75.843750 42.307572
37.550000 87.078125 42.464733
37.575000 85.484375 42.464733
37.625000 84.468750 42.464733
37.800000 83.265625 42.464733
37.800000 82.265625 42.464733
37.725000 81.125000 42.464733
37.825000 79.875000 42.464733
38.050000 78.640625 42.464733
38.250000 77.578125 42.464733
38.525000 76.250000 42.464733
37.600000 89.953125 42.621527
37.225000 88.890625 42.621527
37.425000 87.843750 42.621527
37.525000 86.671875 42.621527
37.575000 85.421875 42.621527
37.550000 83.781250 42.621527
37.800000 83.031250 42.621527
37.850000 81.734375 42.621527
37.700000 80.421875 42.621527
37.925000 79.359375 42.621527
38.175000 78.140625 42.621527
38.375000 77.187500 42.621527
38.750000 75.812500 42.621527
37.500000 87.062500 42.776758
37.525000 85.468750 42.776758
37.575000 84.250000 42.776758
37.650000 83.031250 42.776758
37.775000 81.890625 42.776758
37.825000 81.140625 42.776758
37.850000 79.843750 42.776758
38.050000 78.859375 42.776758
38.275000 77.484375 42.776758
38.575000 76.468750 42.776758
37.375000 89.171875 42.933821
37.350000 88.046875 42.933821
37.475000 86.625000 42.933821
37.500000 85.359375 42.933821
37.550000 84.437500 42.933821
37.600000 83.265625 42.933821
37.925000 82.218750 42.933821
38.025000 80.671875 42.933821
37.875000 79.828125 42.933821
38.075000 78.468750 42.933821
38.325000 77.640625 42.933821
38.625000 76.421875 42.933821
37.450000 87.171875 43.088514
37.525000 85.859375 43.088514
37.525000 84.796875 43.088514
37.525000 83.312500 43.088514
37.575000 82.218750 43.088514
37.650000 81.093750 43.088514
37.850000 80.078125 43.088514
38.050000 78.625000 43.088514
38.225000 77.671875 43.088514
38.500000 76.343750 43.088514
37.700000 89.281250 43.242987
37.350000 88.343750 43.242987
37.425000 87.281250 43.242987
37.500000 85.968750 43.242987
37.525000 85.093750 43.242987
37.400000 83.390625 43.242987
37.425000 82.343750 43.242987
37.975000 81.250000 43.242987
38.125000 80.000000 43.242987
38.000000 78.890625 43.242987
38.175000 77.859375 43.242987
37.400000 89.859375 43.399184
37.375000 88.671875 43.399184
37.400000 87.828125 43.399184
37.475000 86.546875 43.399184
37.400000 85.078125 43.399184
37.150000 84.171875 43.399184
37.150000 82.687500 43.399184
37.450000 81.890625 43.399184
37.775000 80.406250 43.399184
38.000000 79.359375 43.399184
38.200000 78.390625 43.399184
38.400000 77.140625 43.399184
38.775000 75.843750 43.399184
37.625000 89.250000 43.557195
37.300000 88.234375 43.557195
37.450000 86.906250 43.557195
37.325000 83.515625 43.557195
37.300000 82.390625 43.557195
37.675000 81.328125 43.557195
37.950000 80.218750 43.557195
38.075000 79.062500 43.557195
38.225000 77.718750 43.557195
38.625000 76.765625 43.557195
37.225000 88.828125 43.706950
37.350000 87.750000 43.706950
37.475000 86.515625 43.706950
37.450000 85.703125 43.706950
37.175000 84.359375 43.706950
37.100000 82.937500 43.706950
37.425000 81.906250 43.706950
38.050000 80.859375 43.706950
38.250000 79.843750 43.706950
38.175000 78.218750 43.706950
38.375000 77.437500 43.706950
38.750000 76.046875 43.706950
37.625000 89.125000 43.865330
37.375000 88.015625 43.865330
37.500000 86.718750 43.865330
37.250000 85.984375 43.865330
36.950000 84.640625 43.865330
37.100000 83.281250 43.865330
37.425000 82.265625 43.865330
37.575000 81.218750 43.865330
37.875000 79.812500 43.865330
38.200000 78.812500 43.865330
38.375000 77.625000 43.865330
38.725000 76.203125 43.865330
37.550000 88.937500 44.017038
37.325000 87.875000 44.017038
37.525000 86.593750 44.017038
37.725000 85.828125 44.017038
37.450000 84.625000 44.017038
37.125000 83.296875 44.017038
37.450000 82.250000 44.017038
37.750000 80.812500 44.017038
38.025000 79.875000 44.017038
38.325000 78.578125 44.017038
38.450000 77.500000 44.017038
38.825000 76.468750 44.017038
37.500000 89.328125 44.176973
37.275000 87.828125 44.176973
37.500000 86.953125 44.176973
37.475000 85.859375 44.176973
37.200000 84.609375 44.176973
37.100000 83.609375 44.176973
37.500000 82.468750 44.176973
38.050000 80.890625 44.176973
38.450000 79.750000 44.176973
38.525000 78.828125 44.176973
38.500000 77.359375 44.176973
38.750000 76.687500 44.176973
37.500000 90.078125 44.329221
37.650000 89.203125 44.329221
37.450000 87.968750 44.329221
37.300000 84.125000 44.329221
37.150000 83.078125 44.329221
37.575000 81.765625 44.329221
38.000000 80.703125 44.329221
38.375000 79.781250 44.329221
38.625000 78.500000 44.329221
38.650000 77.203125 44.329221
39.050000 76.343750 44.329221
37.275000 89.875000 44.487888
37.325000 88.921875 44.487888
37.575000 87.453125 44.487888
37.475000 84.078125 44.487888
37.325000 82.703125 44.487888
37.775000 81.937500 44.487888
38.275000 80.406250 44.487888
38.550000 79.578125 44.487888
38.700000 78.406250 44.487888
38.725000 77.078125 44.487888
39.125000 76.093750 44.487888
37.550000 88.156250 44.641601
37.450000 84.187500 44.641601
38.750000 77.171875 44.641601
38.950000 76.234375 44.641601
37.575000 89.031250 44.783801
37.550000 87.921875 44.783801
37.825000 87.078125 44.783801
37.900000 85.656250 44.783801
37.600000 84.562500 44.783801
37.475000 83.578125 44.783801
38.025000 82.515625 44.783801
38.525000 78.718750 44.783801
38.700000 77.687500 44.783801
38.925000 76.312500 44.783801
37.775000 89.453125 44.938666
37.725000 88.343750 44.938666
37.775000 87.437500 44.938666
37.525000 86.218750 44.938666
37.175000 85.093750 44.938666
37.500000 83.671875 44.938666
38.075000 82.875000 44.938666
38.625000 78.890625 44.938666
38.900000 77.828125 44.938666
38.950000 76.796875 44.938666
37.625000 89.015625 45.094502
37.825000 87.578125 45.094502
37.675000 84.093750 45.094502
37.725000 83.031250 45.094502
38.150000 82.109375 45.094502
38.700000 80.781250 45.094502
39.050000 79.640625 45.094502
38.900000 78.250000 45.094502
38.950000 77.343750 45.094502
39.200000 76.046875 45.094502
37.825000 89.453125 45.245712
37.725000 88.265625 45.245712
37.900000 87.312500 45.245712
38.025000 85.843750 45.245712
37.800000 84.828125 45.245712
37.475000 83.406250 45.245712
37.950000 82.312500 45.245712
38.425000 81.234375 45.245712
38.825000 79.984375 45.245712
38.925000 78.796875 45.245712
38.800000 77.750000 45.245712
39.000000 76.593750 45.245712
37.850000 89.562500 45.407030
37.850000 88.703125 45.407030
37.900000 87.468750 45.407030
37.775000 86.093750 45.407030
37.575000 84.671875 45.407030
37.550000 83.953125 45.407030
37.975000 82.437500 45.407030
38.700000 81.265625 45.407030
39.125000 80.468750 45.407030
38.975000 79.062500 45.407030
38.825000 77.828125 45.407030
39.075000 76.656250 45.407030
37.900000 89.828125 45.557983
37.900000 88.640625 45.557983
37.950000 87.343750 45.557983
37.775000 86.406250 45.557983
37.550000 85.203125 45.557983
37.575000 84.062500 45.557983
37.900000 82.906250 45.557983
38.600000 81.859375 45.557983
39.100000 80.671875 45.557983
39.000000 79.468750 45.557983
38.800000 78.171875 45.557983
38.950000 77.046875 45.557983
39.600000 75.796875 45.557983
37.700000 88.812500 45.717865
37.925000 88.062500 45.717865
38.000000 86.843750 45.717865
38.200000 85.437500 45.717865
37.950000 84.500000 45.717865
37.850000 83.296875 45.717865
38.425000 82.234375 45.717865
39.050000 81.140625 45.717865
39.025000 79.593750 45.717865
38.750000 78.625000 45.717865
38.875000 77.343750 45.717865
39.175000 76.437500 45.717865
37.750000 90.234375 45.871597
37.925000 89.062500 45.871597
38.000000 88.031250 45.871597
38.075000 86.500000 45.871597
38.175000 85.390625 45.871597
37.950000 84.109375 45.871597
38.900000 79.859375 45.871597
38.700000 78.578125 45.871597
38.875000 77.468750 45.871597
39.275000 76.109375 45.871597
37.900000 89.828125 46.031949
37.950000 88.781250 46.031949
38.025000 87.765625 46.031949
38.075000 86.578125 46.031949
38.225000 85.734375 46.031949
38.075000 84.250000 46.031949
38.825000 79.687500 46.031949
38.675000 78.437500 46.031949
38.900000 77.312500 46.031949
39.300000 76.203125 46.031949
37.925000 89.953125 46.181643
37.750000 89.031250 46.181643
38.025000 87.734375 46.181643
38.125000 86.578125 46.181643
38.475000 85.796875 46.181643
38.375000 84.328125 46.181643
38.175000 83.093750 46.181643
38.600000 82.281250 46.181643
38.925000 81.031250 46.181643
38.850000 79.953125 46.181643
38.675000 78.437500 46.181643
38.850000 77.375000 46.181643
39.275000 76.343750 46.181643
38.075000 89.375000 46.329385
38.000000 88.156250 46.329385
38.200000 86.953125 46.329385
38.225000 85.875000 46.329385
38.275000 84.687500 46.329385
38.375000 83.484375 46.329385
38.675000 82.500000 46.329385
39.050000 81.468750 46.329385
38.875000 79.890625 46.329385
38.650000 78.671875 46.329385
38.800000 77.828125 46.329385
39.175000 76.656250 46.329385
38.575000 89.687500 46.495386
38.475000 88.171875 46.495386
38.150000 87.234375 46.495386
38.275000 86.203125 46.495386
38.325000 84.656250 46.495386
38.400000 83.875000 46.495386
38.725000 82.750000 46.495386
39.025000 81.156250 46.495386
38.850000 80.281250 46.495386
38.650000 79.078125 46.495386
38.925000 77.890625 46.495386
39.200000 76.640625 46.495386
38.875000 89.812500 46.642672
38.650000 88.671875 46.642672
38.150000 87.468750 46.642672
38.325000 86.593750 46.642672
38.400000 85.156250 46.642672
38.425000 84.218750 46.642672
38.675000 82.734375 46.642672
38.925000 81.765625 46.642672
38.925000 80.734375 46.642672
38.725000 79.203125 46.642672
38.600000 77.875000 46.642672
38.900000 77.218750 46.642672
39.650000 75.968750 46.642672
38.175000 87.046875 46.802063
38.300000 85.875000 46.802063
38.350000 85.109375 46.802063
38.400000 83.812500 46.802063
38.725000 82.687500 46.802063
39.025000 81.640625 46.802063
38.850000 80.187500 46.802063
38.650000 78.953125 46.802063
38.900000 77.687500 46.802063
39.275000 76.625000 46.802063
38.250000 87.171875 46.954061
38.375000 86.234375 46.954061
38.375000 85.156250 46.954061
38.425000 83.609375 46.954061
38.750000 82.812500 46.954061
39.025000 81.640625 46.954061
38.825000 80.421875 46.954061
38.625000 78.875000 46.954061
38.800000 78.093750 46.954061
39.175000 76.500000 46.954061
38.675000 89.781250 47.112694
38.500000 88.734375 47.112694
38.325000 87.734375 47.112694
38.375000 86.468750 47.112694
38.400000 85.203125 47.112694
38.425000 84.250000 47.112694
38.775000 83.109375 47.112694
39.025000 81.546875 47.112694
39.350000 80.781250 47.112694
39.150000 79.390625 47.112694
38.700000 78.312500 47.112694
39.000000 77.031250 47.112694
39.650000 75.890625 47.112694
38.125000 88.921875 47.266729
38.175000 87.828125 47.266729
38.350000 86.656250 47.266729
38.500000 85.859375 47.266729
38.575000 84.359375 47.266729
38.475000 83.343750 47.266729
38.700000 82.390625 47.266729
38.925000 80.906250 47.266729
38.725000 79.578125 47.266729
38.675000 78.734375 47.266729
38.850000 77.546875 47.266729
39.325000 76.500000 47.266729
38.150000 89.312500 47.426064
38.150000 88.062500 47.426064
38.325000 86.718750 47.426064
38.325000 85.640625 47.426064
38.300000 84.453125 47.426064
38.350000 83.328125 47.426064
38.675000 82.328125 47.426064
38.900000 81.203125 47.426064
38.725000 79.687500 47.426064
38.675000 78.671875 47.426064
38.850000 77.625000 47.426064
39.300000 76.578125 47.426064
38.400000 89.515625 47.577334
38.125000 88.109375 47.577334
38.175000 87.296875 47.577334
38.200000 86.031250 47.577334
38.075000 85.015625 47.577334
38.000000 83.750000 47.577334
38.475000 82.343750 47.577334
39.000000 81.390625 47.577334
39.000000 80.312500 47.577334
38.900000 78.921875 47.577334
38.900000 78.046875 47.577334
39.150000 76.562500 47.577334
38.525000 89.812500 47.732561
38.450000 88.406250 47.732561
38.175000 87.640625 47.732561
37.975000 86.312500 47.732561
37.700000 84.875000 47.732561
37.750000 84.062500 47.732561
38.100000 82.984375 47.732561
38.700000 81.390625 47.732561
39.400000 80.375000 47.732561
39.275000 79.250000 47.732561
38.825000 78.000000 47.732561
38.200000 89.718750 47.889043
38.150000 88.156250 47.889043
38.150000 87.500000 47.889043
37.825000 86.250000 47.889043
37.575000 84.828125 47.889043
37.800000 83.796875 47.889043
38.225000 82.437500 47.889043
38.800000 81.312500 47.889043
39.275000 80.343750 47.889043
39.150000 79.062500 47.889043
38.900000 77.671875 47.889043
39.150000 76.859375 47.889043
38.400000 89.859375 48.030947
38.425000 88.484375 48.030947
38.125000 87.843750 48.030947
37.850000 86.609375 48.030947
37.550000 85.093750 48.030947
39.200000 79.500000 48.030947
38.950000 78.125000 48.030947
39.125000 77.281250 48.030947
39.625000 75.921875 48.030947
37.975000 90.093750 48.185639
38.025000 88.937500 48.185639
37.750000 85.437500 48.185639
38.000000 84.453125 48.185639
38.750000 80.593750 48.185639
39.025000 79.578125 48.185639
39.025000 78.375000 48.185639
39.050000 77.062500 48.185639
39.425000 76.156250 48.185639
38.100000 90.046875 48.344323
38.175000 88.968750 48.344323
38.075000 87.875000 48.344323
38.450000 86.671875 48.344323
38.025000 84.359375 48.344323
38.975000 80.875000 48.344323
39.175000 79.656250 48.344323
38.975000 78.437500 48.344323
39.125000 77.281250 48.344323
39.625000 76.109375 48.344323
38.200000 89.593750 48.495493
38.225000 88.312500 48.495493
37.900000 87.562500 48.495493
37.650000 86.187500 48.495493
37.425000 84.906250 48.495493
37.650000 84.125000 48.495493
39.375000 79.187500 48.495493
38.975000 77.921875 48.495493
39.000000 76.734375 48.495493
38.175000 89.921875 48.653985
38.225000 88.921875 48.653985
38.050000 87.703125 48.653985
38.425000 86.468750 48.653985
38.375000 82.859375 48.653985
38.500000 81.515625 48.653985
39.250000 80.328125 48.653985
39.275000 79.562500 48.653985
39.100000 78.328125 48.653985
39.150000 76.953125 48.653985
38.100000 89.828125 48.807138
38.150000 88.843750 48.807138
38.050000 87.453125 48.807138
38.425000 86.750000 48.807138
37.600000 84.328125 48.807138
38.075000 83.000000 48.807138
38.425000 81.593750 48.807138
39.050000 80.562500 48.807138
39.250000 79.546875 48.807138
39.050000 78.484375 48.807138
37.925000 89.265625 48.965652
37.775000 88.281250 48.965652
37.625000 84.968750 48.965652
39.350000 80.437500 48.965652
39.325000 79.234375 48.965652
39.050000 77.781250 48.965652
39.200000 76.453125 48.965652
37.925000 89.609375 49.119532
37.775000 88.109375 49.119532
37.625000 84.546875 49.119532
37.475000 83.734375 49.119532
37.850000 82.718750 49.119532
38.425000 81.390625 49.119532
39.150000 80.281250 49.119532
39.250000 79.078125 49.119532
38.975000 77.687500 49.119532
39.125000 76.671875 49.119532
38.500000 89.375000 49.277841
37.975000 87.984375 49.277841
37.450000 86.625000 49.277841
37.025000 85.359375 49.277841
37.200000 84.484375 49.277841
37.350000 83.171875 49.277841
37.775000 82.234375 49.277841
38.450000 80.953125 49.277841
39.100000 79.671875 49.277841
39.075000 78.812500 49.277841
38.850000 77.593750 49.277841
39.275000 76.437500 49.277841
37.850000 90.078125 49.429212
37.925000 89.078125 49.429212
38.025000 87.765625 49.429212
37.575000 86.390625 49.429212
37.125000 85.593750 49.429212
37.200000 84.312500 49.429212
37.425000 83.171875 49.429212
37.825000 81.875000 49.429212
38.575000 81.031250 49.429212
39.150000 79.468750 49.429212
39.150000 78.625000 49.429212
39.025000 77.109375 49.429212
39.300000 76.281250 49.429212
37.950000 89.875000 49.574579
37.900000 89.000000 49.574579
38.000000 87.828125 49.574579
37.700000 86.531250 49.574579
37.250000 85.281250 49.574579
37.225000 84.171875 49.574579
37.425000 83.187500 49.574579
39.100000 78.343750 49.574579
39.000000 77.125000 49.574579
39.425000 75.843750 49.574579
37.725000 89.953125 49.729366
37.800000 88.765625 49.729366
37.975000 87.828125 49.729366
37.700000 86.671875 49.729366
37.625000 85.515625 49.729366
37.575000 84.265625 49.729366
37.400000 83.125000 49.729366
38.125000 79.406250 49.729366
38.750000 78.578125 49.729366
38.900000 77.312500 49.729366
39.400000 76.296875 49.729366
38.125000 89.062500 49.886490
37.875000 88.187500 49.886490
37.975000 86.843750 49.886490
38.475000 85.937500 49.886490
37.350000 83.031250 49.886490
37.700000 82.156250 49.886490
38.275000 80.875000 49.886490
38.575000 79.734375 49.886490
38.625000 78.531250 49.886490
38.825000 77.234375 49.886490
39.250000 76.109375 49.886490
38.225000 89.609375 50.049143
37.875000 88.468750 50.049143
37.950000 87.031250 50.049143
37.725000 85.828125 50.049143
37.450000 84.781250 50.049143
37.450000 83.578125 50.049143
37.675000 82.187500 50.049143
38.125000 81.093750 50.049143
38.500000 80.281250 50.049143
38.600000 79.156250 50.049143
38.700000 77.562500 50.049143
39.025000 76.859375 50.049143
37.850000 90.046875 50.198427
37.725000 88.734375 50.198427
37.850000 87.593750 50.198427
37.950000 86.656250 50.198427
38.200000 85.484375 50.198427
37.975000 84.109375 50.198427
37.650000 83.015625 50.198427
38.075000 81.578125 50.198427
38.375000 80.609375 50.198427
38.425000 79.234375 50.198427
38.575000 77.984375 50.198427
37.575000 90.187500 50.353305
37.525000 89.000000 50.353305
37.775000 88.015625 50.353305
37.900000 86.468750 50.353305
37.800000 85.578125 50.353305
37.700000 84.171875 50.353305
37.800000 83.218750 50.353305
38.075000 82.125000 50.353305
38.275000 80.750000 50.353305
38.325000 79.781250 50.353305
38.600000 78.312500 50.353305
38.850000 77.156250 50.353305
39.275000 76.375000 50.353305
37.675000 89.984375 50.510074
37.525000 88.671875 50.510074
37.800000 87.859375 50.510074
37.900000 86.484375 50.510074
37.825000 85.531250 50.510074
37.750000 84.093750 50.510074
37.850000 83.218750 50.510074
37.925000 82.015625 50.510074
38.075000 80.875000 50.510074
38.275000 79.453125 50.510074
38.525000 78.390625 50.510074
38.750000 77.281250 50.510074
39.350000 76.125000 50.510074
37.775000 89.265625 50.665210
37.700000 88.046875 50.665210
37.825000 86.546875 50.665210
37.850000 85.531250 50.665210
37.750000 84.515625 50.665210
37.925000 83.046875 50.665210
38.000000 82.062500 50.665210
38.000000 80.937500 50.665210
38.200000 79.656250 50.665210
38.400000 78.312500 50.665210
38.675000 77.218750 50.665210
39.150000 76.250000 50.665210
37.675000 89.875000 50.810556
37.525000 88.781250 50.810556
37.775000 87.546875 50.810556
37.875000 86.468750 50.810556
37.900000 85.453125 50.810556
37.825000 84.000000 50.810556
38.000000 82.781250 50.810556
38.075000 81.500000 50.810556
38.050000 80.796875 50.810556
38.200000 79.390625 50.810556
38.350000 78.093750 50.810556
38.650000 77.343750 50.810556
39.250000 75.781250 50.810556
37.800000 89.875000 50.976091
37.650000 88.750000 50.976091
37.775000 87.421875 50.976091
37.800000 86.406250 50.976091
37.775000 85.125000 50.976091
37.800000 84.078125 50.976091
38.000000 83.015625 50.976091
38.075000 81.437500 50.976091
38.025000 80.656250 50.976091
38.200000 79.546875 50.976091
38.375000 78.328125 50.976091
38.600000 76.968750 50.976091
39.200000 76.171875 50.976091
37.625000 89.781250 51.121266
37.475000 88.906250 51.121266
37.725000 87.968750 51.121266
37.725000 86.515625 51.121266
37.775000 85.265625 51.121266
37.825000 84.140625 51.121266
38.000000 83.296875 51.121266
38.075000 82.000000 51.121266
37.950000 80.562500 51.121266
38.100000 79.406250 51.121266
38.300000 78.468750 51.121266
38.475000 77.031250 51.121266
39.000000 76.171875 51.121266
37.700000 86.750000 51.274479
37.750000 85.484375 51.274479
37.850000 84.765625 51.274479
37.925000 83.531250 51.274479
37.925000 82.046875 51.274479
37.900000 80.984375 51.274479
38.025000 79.921875 51.274479
38.225000 78.546875 51.274479
38.400000 77.468750 51.274479
38.750000 76.468750 51.274479
37.825000 89.375000 51.434670
37.650000 88.546875 51.434670
37.700000 87.468750 51.434670
37.700000 85.937500 51.434670
37.775000 84.843750 51.434670
37.875000 83.921875 51.434670
37.875000 82.578125 51.434670
37.850000 81.171875 51.434670
37.950000 80.093750 51.434670
38.125000 78.734375 51.434670
38.325000 77.843750 51.434670
38.600000 76.562500 51.434670
38.000000 89.656250 51.597378
37.650000 88.843750 51.597378
37.675000 87.703125 51.597378
37.750000 86.531250 51.597378
37.775000 85.328125 51.597378
37.800000 83.812500 51.597378
38.025000 83.031250 51.597378
38.000000 81.843750 51.597378
37.900000 80.625000 51.597378
38.150000 79.343750 51.597378
38.275000 78.328125 51.597378
37.825000 89.093750 51.744828
37.575000 88.015625 51.744828
37.800000 87.156250 51.744828
37.850000 85.968750 51.744828
37.825000 84.843750 51.744828
37.900000 83.750000 51.744828
37.875000 82.218750 51.744828
37.850000 81.203125 51.744828
37.975000 79.984375 51.744828
38.125000 78.625000 51.744828
38.250000 77.609375 51.744828
38.575000 76.343750 51.744828
37.750000 89.484375 51.894130
37.575000 88.218750 51.894130
37.675000 86.859375 51.894130
37.750000 85.937500 51.894130
37.825000 84.703125 51.894130
37.900000 83.453125 51.894130
37.875000 82.375000 51.894130
37.850000 81.156250 51.894130
38.000000 79.765625 51.894130
38.150000 78.859375 51.894130
38.325000 77.625000 51.894130
38.625000 76.421875 51.894130
37.725000 89.578125 52.056307
37.550000 88.031250 52.056307
37.700000 86.921875 52.056307
37.750000 85.843750 52.056307
37.800000 84.531250 52.056307
37.875000 83.390625 52.056307
37.875000 82.578125 52.056307
37.850000 81.203125 52.056307
37.950000 80.000000 52.056307
38.125000 78.828125 52.056307
38.250000 77.625000 52.056307
38.525000 76.546875 52.056307
38.250000 89.781250 52.204699
37.775000 88.687500 52.204699
37.650000 87.703125 52.204699
37.725000 86.078125 52.204699
37.775000 85.328125 52.204699
37.800000 84.078125 52.204699
37.950000 82.734375 52.204699
37.925000 81.359375 52.204699
37.825000 80.625000 52.204699
38.000000 79.281250 52.204699
38.200000 78.171875 52.204699
38.400000 77.171875 52.204699
38.925000 76.000000 52.204699
37.925000 89.640625 52.365120
37.625000 88.531250 52.365120
37.650000 87.234375 52.365120
37.700000 86.156250 52.365120
37.775000 85.000000 52.365120
37.825000 83.859375 52.365120
37.825000 82.765625 52.365120
37.825000 81.484375 52.365120
37.900000 80.546875 52.365120
38.100000 79.328125 52.365120
38.225000 78.218750 52.365120
38.425000 76.625000 52.365120
39.050000 75.687500 52.365120
38.375000 89.562500 52.515820
37.750000 88.781250 52.515820
37.575000 87.328125 52.515820
37.625000 86.468750 52.515820
37.725000 85.046875 52.515820
37.775000 84.187500 52.515820
37.875000 82.671875 52.515820
37.825000 81.687500 52.515820
37.850000 80.406250 52.515820
38.025000 79.203125 52.515820
38.175000 77.843750 52.515820
38.400000 76.984375 52.515820
38.900000 75.906250 52.515820
38.150000 90.171875 52.679907
37.900000 88.750000 52.679907
37.525000 87.953125 52.679907
37.600000 86.531250 52.679907
37.650000 85.250000 52.679907
37.700000 84.453125 52.679907
37.975000 82.921875 52.679907
37.925000 81.812500 52.679907
37.700000 80.828125 52.679907
37.925000 79.671875 52.679907
38.200000 78.500000 52.679907
38.425000 77.156250 52.679907
38.725000 76.140625 52.679907
37.850000 88.703125 52.828188
37.450000 87.828125 52.828188
37.550000 86.875000 52.828188
37.600000 85.515625 52.828188
37.675000 84.375000 52.828188
37.925000 83.109375 52.828188
37.875000 81.906250 52.828188
37.675000 80.890625 52.828188
37.825000 79.546875 52.828188
38.125000 78.656250 52.828188
38.375000 77.453125 52.828188
38.650000 76.078125 52.828188
37.475000 87.187500 52.990047
37.525000 85.750000 52.990047
37.600000 84.703125 52.990047
37.700000 83.625000 52.990047
37.775000 82.453125 52.990047
37.750000 81.390625 52.990047
37.775000 80.171875 52.990047
38.025000 78.734375 52.990047
38.250000 77.796875 52.990047
38.500000 76.359375 52.990047
37.325000 88.875000 53.139493
37.500000 87.484375 53.139493
37.500000 86.218750 53.139493
37.525000 84.921875 53.139493
37.600000 83.750000 53.139493
37.900000 82.687500 53.139493
37.925000 81.609375 53.139493
37.800000 80.343750 53.139493
37.975000 79.562500 53.139493
38.150000 78.062500 53.139493
38.350000 76.734375 53.139493
38.875000 75.765625 53.139493
37.450000 88.968750 53.298941
37.425000 87.640625 53.298941
37.475000 86.656250 53.298941
37.550000 85.359375 53.298941
37.600000 84.187500 53.298941
37.650000 83.078125 53.298941
37.675000 81.750000 53.298941
37.700000 80.890625 53.298941
37.900000 79.500000 53.298941
38.175000 78.578125 53.298941
38.400000 77.390625 53.298941
38.700000 75.921875 53.298941
37.225000 88.734375 53.450885
37.350000 87.828125 53.450885
37.450000 86.875000 53.450885
37.525000 85.562500 53.450885
37.575000 84.109375 53.450885
37.600000 82.953125 53.450885
37.875000 82.078125 53.450885
37.925000 80.859375 53.450885
37.850000 79.781250 53.450885
38.125000 78.625000 53.450885
38.350000 77.203125 53.450885
38.625000 76.203125 53.450885
37.275000 89.234375 53.607776
37.300000 87.781250 53.607776
37.400000 87.000000 53.607776
37.500000 85.515625 53.607776
37.575000 84.484375 53.607776
37.525000 83.156250 53.607776
37.675000 82.015625 53.607776
37.800000 80.859375 53.607776
37.900000 80.000000 53.607776
38.150000 78.703125 53.607776
38.350000 77.609375 53.607776
38.725000 76.265625 53.607776
37.375000 89.062500 53.761385
37.400000 87.937500 53.761385
37.450000 86.890625 53.761385
37.500000 85.359375 53.761385
37.800000 84.437500 53.761385
37.700000 83.000000 53.761385
37.525000 81.765625 53.761385
37.725000 80.687500 53.761385
37.875000 79.656250 53.761385
38.125000 78.234375 53.761385
38.325000 77.296875 53.761385
38.625000 76.375000 53.761385
37.575000 89.609375 53.903561
37.350000 88.609375 53.903561
37.450000 87.140625 53.903561
37.500000 86.437500 53.903561
37.675000 85.281250 53.903561
37.450000 84.000000 53.903561
37.250000 82.390625 53.903561
37.575000 81.484375 53.903561
37.850000 80.515625 53.903561
38.075000 79.187500 53.903561
38.225000 77.828125 53.903561
37.700000 89.312500 54.060179
37.400000 88.218750 54.060179
37.450000 87.437500 54.060179
37.300000 83.687500 54.060179
37.275000 82.703125 54.060179
37.575000 81.531250 54.060179
37.900000 80.281250 54.060179
38.125000 78.921875 54.060179
38.325000 78.031250 54.060179
37.650000 89.250000 54.215134
37.400000 88.062500 54.215134
37.450000 87.140625 54.215134
37.275000 85.968750 54.215134
37.000000 84.484375 54.215134
37.075000 83.156250 54.215134
37.300000 82.468750 54.215134
37.550000 81.125000 54.215134
37.850000 79.953125 54.215134
38.125000 78.968750 54.215134
38.375000 77.812500 54.215134
38.675000 76.359375 54.215134
37.650000 89.093750 54.368819
37.400000 88.093750 54.368819
37.450000 87.218750 54.368819
37.175000 85.609375 54.368819
36.900000 84.500000 54.368819
37.125000 83.312500 54.368819
37.375000 82.281250 54.368819
37.575000 81.171875 54.368819
37.950000 79.875000 54.368819
38.225000 78.843750 54.368819
38.375000 77.375000 54.368819
38.650000 76.515625 54.368819
37.575000 89.359375 54.527519
37.400000 87.984375 54.527519
37.475000 87.125000 54.527519
37.175000 86.062500 54.527519
36.900000 84.937500 54.527519
37.200000 83.593750 54.527519
37.500000 82.390625 54.527519
37.900000 81.312500 54.527519
38.275000 80.015625 54.527519
38.400000 78.828125 54.527519
38.475000 77.703125 54.527519
38.675000 76.625000 54.527519
37.575000 89.812500 54.681446
37.450000 88.406250 54.681446
37.500000 87.593750 54.681446
37.050000 85.921875 54.681446
36.825000 85.171875 54.681446
37.325000 83.625000 54.681446
37.575000 82.625000 54.681446
38.025000 79.171875 54.681446
38.450000 78.125000 54.681446
38.650000 76.765625 54.681446
37.425000 89.968750 54.837593
37.375000 88.562500 54.837593
37.550000 87.343750 54.837593
37.225000 86.218750 54.837593
37.075000 85.218750 54.837593
37.350000 83.843750 54.837593
37.750000 82.718750 54.837593
38.325000 79.281250 54.837593
38.650000 78.171875 54.837593
37.425000 89.796875 54.994178
37.375000 88.687500 54.994178
37.550000 87.578125 54.994178
37.200000 86.031250 54.994178
37.050000 85.265625 54.994178
37.325000 83.875000 54.994178
37.775000 82.859375 54.994178
38.200000 81.421875 54.994178
38.750000 80.468750 54.994178
38.925000 79.125000 54.994178
38.650000 78.328125 54.994178
38.750000 77.062500 54.994178
39.300000 75.718750 54.994178
37.675000 89.609375 55.147458
37.600000 88.203125 55.147458
37.675000 87.281250 55.147458
37.450000 86.203125 55.147458
37.175000 84.984375 55.147458
37.475000 83.609375 55.147458
38.250000 82.656250 55.147458
38.775000 78.796875 55.147458
38.800000 77.953125 55.147458
38.900000 76.546875 55.147458
37.425000 88.953125 55.305234
37.650000 87.843750 55.305234
37.575000 83.953125 55.305234
37.400000 82.828125 55.305234
37.900000 81.843750 55.305234
38.275000 80.937500 55.305234
38.575000 79.390625 55.305234
38.875000 78.406250 55.305234
38.850000 77.140625 55.305234
39.150000 76.312500 55.305234
37.875000 90.328125 55.458959
37.800000 88.968750 55.458959
37.600000 88.156250 55.458959
37.800000 86.812500 55.458959
38.200000 85.843750 55.458959
38.775000 77.453125 55.458959
39.050000 76.109375 55.458959
37.650000 89.656250 55.616002
37.700000 88.843750 55.616002
37.825000 87.656250 55.616002
37.725000 86.250000 55.616002
37.550000 85.062500 55.616002
37.500000 83.875000 55.616002
37.900000 82.843750 55.616002
38.450000 81.796875 55.616002
39.000000 80.453125 55.616002
39.200000 79.140625 55.616002
38.950000 77.953125 55.616002
39.000000 76.718750 55.616002
39.475000 75.968750 55.616002
37.875000 89.390625 55.769909
37.700000 88.265625 55.769909
37.900000 86.828125 55.769909
38.350000 85.765625 55.769909
37.825000 81.109375 55.769909
38.625000 79.703125 55.769909
38.950000 78.718750 55.769909
38.875000 77.312500 55.769909
39.050000 76.593750 55.769909
37.550000 90.171875 55.926416
37.700000 88.921875 55.926416
37.950000 87.640625 55.926416
37.800000 86.718750 55.926416
37.625000 85.125000 55.926416
37.550000 84.078125 55.926416
37.700000 82.875000 55.926416
38.200000 81.703125 55.926416
38.900000 80.687500 55.926416
39.050000 79.671875 55.926416
38.850000 78.531250 55.926416
38.975000 77.156250 55.926416
39.225000 76.187500 55.926416
37.575000 90.187500 56.079504
37.700000 88.781250 56.079504
37.925000 87.453125 56.079504
37.775000 86.484375 56.079504
37.600000 85.390625 56.079504
37.550000 84.078125 56.079504
37.725000 82.812500 56.079504
38.325000 82.000000 56.079504
38.875000 80.531250 56.079504
38.900000 79.640625 56.079504
38.800000 78.359375 56.079504
38.950000 76.843750 56.079504
39.350000 75.812500 56.079504
37.700000 90.312500 56.221784
37.800000 88.640625 56.221784
37.875000 87.906250 56.221784
38.000000 86.593750 56.221784
37.875000 85.625000 56.221784
37.650000 84.390625 56.221784
