32.800000 86.656250 12.085017
32.850000 85.421875 12.085475
32.900000 84.265625 12.085903
33.050000 82.968750 12.086383
33.475000 82.343750 12.086615
32.650000 89.953125 12.234478
32.900000 88.203125 12.235126
32.925000 87.296875 12.235461
33.000000 86.250000 12.235849
33.050000 84.750000 12.236405
33.175000 83.671875 12.236804
33.400000 82.968750 12.237064
32.850000 89.593750 12.396775
33.000000 87.984375 12.397372
33.050000 87.328125 12.397615
33.100000 86.000000 12.398107
33.225000 84.578125 12.398633
33.375000 83.640625 12.398980
33.650000 82.781250 12.399299
33.050000 89.296875 12.545274
33.075000 88.109375 12.545714
33.125000 86.796875 12.546200
33.275000 86.031250 12.546484
33.425000 84.718750 12.546970
33.525000 83.359375 12.547473
33.925000 82.468750 12.547803
33.125000 87.515625 12.707127
33.175000 86.328125 12.707567
33.300000 85.593750 12.707839
33.550000 84.437500 12.708267
33.700000 83.187500 12.708730
32.950000 89.859375 12.857684
33.025000 88.359375 12.858239
33.075000 87.359375 12.858609
33.125000 85.906250 12.859148
33.300000 84.546875 12.859651
33.450000 83.843750 12.859911
33.775000 82.562500 12.860386
33.075000 87.750000 13.021940
33.125000 86.828125 13.022281
33.300000 85.406250 13.022808
33.500000 84.265625 13.023230
33.175000 87.968750 13.172918
33.250000 86.546875 13.173445
33.350000 85.687500 13.173763
33.450000 84.421875 13.174232
32.800000 89.859375 13.312996
33.100000 88.765625 13.313401
33.100000 87.187500 13.313985
33.150000 86.093750 13.314390
33.200000 84.906250 13.314830
33.375000 84.343750 13.315039
33.650000 82.765625 13.315623
32.750000 89.515625 13.469438
33.075000 88.562500 13.469791
33.075000 87.609375 13.470144
33.075000 86.562500 13.470532
33.100000 84.968750 13.471122
33.350000 84.015625 13.471475
33.625000 83.125000 13.471805
32.775000 89.562500 13.626207
33.000000 88.437500 13.626624
33.050000 87.656250 13.626913
33.050000 86.203125 13.627451
33.050000 85.140625 13.627845
33.125000 83.500000 13.628452
33.425000 82.468750 13.628834
32.625000 89.375000 13.775092
32.750000 88.468750 13.775428
32.825000 86.953125 13.775989
32.875000 85.734375 13.776441
32.975000 84.828125 13.776776
33.050000 83.625000 13.777222
33.300000 82.406250 13.777673
32.425000 89.187500 13.938580
32.575000 88.000000 13.939020
32.625000 87.171875 13.939327
32.675000 86.312500 13.939645
32.725000 84.453125 13.940334
32.800000 83.453125 13.940704
33.075000 82.546875 13.941040
32.325000 87.890625 14.086491
32.375000 86.921875 14.086850
32.425000 85.312500 14.087446
32.475000 84.187500 14.087862
32.550000 83.531250 14.088105
32.850000 81.984375 14.088678
32.475000 87.578125 14.237550
32.525000 86.375000 14.237996
32.600000 85.406250 14.238355
32.675000 84.156250 14.238818
32.550000 89.359375 14.396634
32.825000 88.421875 14.396982
32.825000 87.375000 14.397369
32.925000 86.343750 14.397751
33.000000 85.218750 14.398168
33.100000 83.562500 14.398781
33.300000 82.312500 14.399244
32.825000 89.609375 14.545584
33.050000 88.078125 14.546151
33.050000 86.765625 14.546637
33.100000 86.109375 14.546880
33.275000 84.937500 14.547314
33.450000 83.890625 14.547702
33.750000 82.203125 14.548327
33.075000 89.375000 14.697720
33.300000 88.296875 14.698119
33.425000 86.906250 14.698634
33.500000 86.093750 14.698935
33.550000 84.484375 14.699531
33.550000 87.718750 14.854718
33.575000 86.281250 14.855251
33.625000 85.156250 14.855668
33.675000 83.593750 14.856246
33.900000 83.062500 14.856443
33.675000 87.375000 15.009445
33.675000 86.296875 15.009844
33.725000 85.078125 15.010296
33.825000 83.734375 15.010793
34.175000 82.468750 15.011262
33.675000 87.328125 15.166858
33.725000 86.171875 15.167287
33.875000 85.218750 15.167639
33.975000 83.750000 15.168184
34.250000 83.031250 15.168450
33.775000 87.406250 15.327678
33.825000 86.515625 15.328008
33.875000 85.203125 15.328494
33.975000 84.093750 15.328905
34.250000 82.734375 15.329408
33.800000 87.062500 15.479429
33.900000 86.062500 15.479800
34.000000 84.765625 15.480280
34.100000 83.515625 15.480743
34.450000 82.937500 15.480957
33.925000 88.171875 15.620706
33.925000 86.578125 15.621296
33.950000 85.453125 15.621713
34.050000 84.687500 15.621997
33.825000 87.734375 15.777053
33.850000 87.156250 15.777267
33.925000 85.875000 15.777742
34.025000 84.375000 15.778297
33.825000 87.718750 15.932613
33.850000 86.328125 15.933128
33.950000 84.984375 15.933626
34.075000 84.062500 15.933968
34.250000 82.718750 15.934465
33.750000 87.281250 16.089498
33.800000 86.515625 16.089782
33.875000 85.234375 16.090256
33.975000 83.859375 16.090766
34.250000 83.093750 16.091049
33.675000 87.781250 16.244301
33.725000 86.218750 16.244880
33.850000 85.093750 16.245297
33.975000 83.984375 16.245708
34.200000 82.968750 16.246084
33.250000 89.640625 16.400872
33.550000 88.468750 16.401306
33.575000 87.484375 16.401671
33.600000 85.875000 16.402267
33.650000 84.906250 16.402626
33.775000 83.890625 16.403002
34.100000 82.296875 16.403592
33.200000 89.093750 16.553691
33.375000 87.937500 16.554119
33.400000 87.343750 16.554339
33.425000 85.609375 16.554981
33.475000 84.343750 16.555450
33.650000 83.812500 16.555647
34.050000 82.437500 16.556156
32.950000 89.937500 16.709577
33.175000 88.703125 16.710034
33.200000 87.593750 16.710445
33.225000 86.250000 16.710943
33.225000 85.078125 16.711377
33.350000 84.015625 16.711770
33.600000 82.968750 16.712158
33.150000 87.750000 16.851484
33.200000 86.531250 16.851936
33.250000 85.328125 16.852381
33.325000 83.968750 16.852885
33.450000 82.609375 16.853388
33.475000 87.468750 17.019900
33.525000 86.093750 17.020409
33.600000 85.484375 17.020635
33.675000 84.328125 17.021063
33.850000 82.578125 17.021711
33.525000 89.359375 17.161823
33.725000 88.390625 17.162182
33.775000 87.125000 17.162651
33.850000 85.796875 17.163143
33.875000 85.109375 17.163397
33.950000 83.703125 17.163918
34.225000 82.859375 17.164231
33.925000 88.140625 17.317043
33.950000 86.953125 17.317482
33.950000 85.453125 17.318038
34.075000 84.250000 17.318484
33.750000 89.859375 17.470166
34.100000 88.562500 17.470646
34.100000 87.312500 17.471109
34.125000 86.171875 17.471532
34.200000 84.875000 17.472012
34.300000 83.765625 17.472423
34.500000 82.750000 17.472799
34.125000 89.484375 17.626921
34.250000 87.765625 17.627558
34.250000 86.734375 17.627940
34.275000 85.640625 17.628345
34.350000 84.593750 17.628732
34.325000 87.875000 17.782458
34.350000 86.593750 17.782932
34.400000 85.500000 17.783338
34.500000 84.343750 17.783766
34.675000 82.906250 17.784298
34.100000 89.500000 17.941076
34.400000 88.296875 17.941521
34.400000 87.156250 17.941944
34.450000 86.031250 17.942360
34.500000 84.828125 17.942806
34.575000 83.859375 17.943165
35.000000 82.421875 17.943697
34.225000 89.500000 18.091434
34.425000 87.890625 18.092030
34.450000 87.265625 18.092261
34.500000 86.140625 18.092678
34.550000 84.812500 18.093170
34.350000 87.328125 18.237091
34.375000 86.390625 18.237438
34.400000 85.250000 18.237861
34.550000 84.281250 18.238220
34.825000 83.125000 18.238648
34.100000 89.890625 18.400054
34.450000 88.281250 18.400650
34.475000 87.109375 18.401083
34.500000 86.390625 18.401350
34.525000 85.218750 18.401784
34.600000 83.828125 18.402299
34.975000 82.453125 18.402808
34.475000 87.328125 18.548512
34.500000 86.140625 18.548952
34.550000 85.203125 18.549299
34.625000 83.640625 18.549878
34.950000 82.640625 18.550248
34.100000 89.937500 18.710157
34.400000 88.234375 18.710788
34.400000 87.015625 18.711240
34.450000 86.203125 18.711540
34.500000 85.265625 18.711888
34.600000 83.500000 18.712542
34.950000 82.515625 18.712906
34.075000 89.546875 18.860330
34.425000 88.562500 18.860695
34.425000 87.328125 18.861152
34.450000 86.234375 18.861557
34.500000 84.875000 18.862061
34.575000 83.578125 18.862541
34.925000 82.406250 18.862975
34.125000 89.187500 19.019249
34.325000 88.140625 19.019637
34.325000 86.812500 19.020128
34.400000 86.062500 19.020406
34.500000 84.937500 19.020823
34.525000 83.312500 19.021425
34.950000 82.625000 19.021679
34.225000 88.000000 19.169331
34.275000 86.484375 19.169892
34.350000 85.468750 19.170268
34.425000 84.546875 19.170610
34.550000 82.843750 19.171241
34.075000 87.781250 19.327665
34.100000 86.468750 19.328151
34.175000 85.171875 19.328632
34.250000 84.078125 19.329037
34.400000 83.265625 19.329338
33.500000 89.765625 19.480691
33.825000 88.187500 19.481276
33.850000 87.265625 19.481617
33.950000 86.078125 19.482057
34.025000 85.234375 19.482369
34.075000 84.109375 19.482786
34.275000 82.796875 19.483272
33.625000 88.156250 19.621720
33.650000 86.875000 19.622195
33.725000 85.468750 19.622715
33.825000 84.468750 19.623086
33.050000 89.328125 19.778548
33.300000 88.328125 19.778919
33.275000 87.390625 19.779266
33.325000 86.453125 19.779613
33.425000 84.875000 19.780198
33.525000 84.015625 19.780516
33.700000 82.953125 19.780910
33.125000 88.921875 19.935230
33.200000 88.296875 19.935462
33.225000 86.843750 19.936000
33.275000 86.046875 19.936295
33.375000 84.609375 19.936827
33.475000 83.390625 19.937279
33.850000 82.062500 19.937771
33.450000 88.000000 20.086718
33.500000 87.062500 20.087065
33.550000 85.640625 20.087592
33.600000 84.500000 20.088014
33.200000 89.546875 20.245574
33.600000 88.843750 20.245834
33.625000 87.593750 20.246297
33.650000 86.437500 20.246725
33.700000 84.906250 20.247293
33.775000 83.593750 20.247779
34.050000 82.843750 20.248056
33.450000 89.359375 20.396273
33.700000 88.453125 20.396609
33.725000 87.515625 20.396956
33.775000 86.187500 20.397448
33.850000 84.671875 20.398009
33.975000 83.812500 20.398327
34.350000 82.281250 20.398895
33.700000 89.156250 20.557391
33.800000 87.656250 20.557946
33.800000 86.937500 20.558212
33.875000 85.906250 20.558594
34.000000 84.765625 20.559017
33.850000 88.015625 20.699747
33.825000 87.000000 20.700123
33.925000 85.515625 20.700673
34.025000 84.453125 20.701067
33.825000 88.203125 20.869872
33.850000 87.140625 20.870265
33.925000 85.468750 20.870884
34.025000 84.640625 20.871191
33.925000 87.640625 21.010965
33.975000 86.734375 21.011301
34.075000 85.421875 21.011787
34.125000 84.156250 21.012256
34.225000 83.000000 21.012684
33.925000 87.890625 21.166956
34.000000 86.593750 21.167436
34.050000 85.375000 21.167887
34.075000 84.031250 21.168385
34.300000 82.734375 21.168865
33.500000 90.093750 21.320324
33.925000 88.781250 21.320811
33.975000 87.484375 21.321291
34.000000 86.328125 21.321719
33.975000 85.015625 21.322205
34.025000 83.953125 21.322599
34.350000 82.609375 21.323097
33.450000 89.718750 21.475743
33.725000 88.515625 21.476189
33.750000 87.265625 21.476652
33.825000 86.000000 21.477121
33.900000 84.671875 21.477612
34.025000 84.140625 21.477809
34.350000 82.437500 21.478440
33.725000 89.296875 21.633385
33.800000 88.125000 21.633819
33.800000 86.828125 21.634299
33.875000 85.578125 21.634762
33.975000 84.859375 21.635029
33.350000 89.531250 21.788498
33.650000 88.515625 21.788874
33.650000 87.500000 21.789250
33.675000 86.421875 21.789649
33.750000 85.078125 21.790147
33.800000 83.906250 21.790581
34.075000 82.531250 21.791090
33.350000 89.312500 21.929180
33.475000 88.156250 21.929608
33.525000 87.265625 21.929938
33.550000 85.859375 21.930459
33.600000 84.718750 21.930881
33.700000 83.281250 21.931414
34.150000 82.250000 21.931796
33.325000 87.750000 22.091480
33.325000 86.593750 22.091908
33.375000 85.296875 22.092388
33.450000 84.031250 22.092857
33.600000 82.625000 22.093378
32.850000 89.421875 22.238811
32.900000 88.390625 22.239193
32.925000 86.828125 22.239772
33.025000 86.125000 22.240032
33.150000 84.343750 22.240692
33.225000 83.265625 22.241091
33.525000 82.156250 22.241502
32.550000 87.593750 22.401744
32.600000 86.812500 22.402033
32.625000 85.437500 22.402543
32.700000 84.093750 22.403040
32.325000 87.593750 22.551013
32.350000 86.984375 22.551239
32.425000 85.671875 22.551725
32.500000 84.468750 22.552170
32.550000 83.046875 22.552697
32.800000 82.078125 22.553056
32.550000 87.765625 22.712120
32.600000 86.593750 22.712554
32.675000 85.500000 22.712960
32.725000 83.875000 22.713561
32.775000 89.421875 22.858750
32.825000 88.093750 22.859242
32.875000 86.843750 22.859705
32.875000 85.656250 22.860145
32.925000 84.687500 22.860504
33.075000 83.546875 22.860926
33.425000 82.265625 22.861401
32.850000 89.343750 23.021889
32.925000 88.031250 23.022375
32.925000 87.218750 23.022676
33.000000 85.656250 23.023255
33.150000 84.843750 23.023556
33.300000 83.578125 23.024024
33.650000 82.375000 23.024470
32.925000 89.640625 23.172076
33.050000 87.984375 23.172690
33.050000 86.718750 23.173158
33.075000 85.781250 23.173506
33.175000 84.656250 23.173922
33.300000 83.640625 23.174299
33.725000 82.281250 23.174802
32.975000 89.609375 23.330408
33.050000 88.218750 23.330923
33.050000 86.890625 23.331415
33.100000 86.218750 23.331664
33.200000 84.843750 23.332173
33.425000 83.406250 23.332706
33.825000 82.781250 23.332937
33.000000 89.734375 23.483846
33.075000 88.515625 23.484297
33.075000 87.218750 23.484777
33.175000 85.828125 23.485292
33.350000 84.609375 23.485744
33.525000 83.828125 23.486033
33.850000 82.359375 23.486577
33.000000 89.562500 23.623907
33.025000 88.437500 23.624323
33.150000 86.843750 23.624913
33.350000 85.984375 23.625232
33.425000 84.968750 23.625608
33.475000 83.578125 23.626123
33.925000 82.531250 23.626511
33.150000 89.187500 23.779406
33.175000 88.140625 23.779794
33.175000 86.609375 23.780361
33.375000 85.921875 23.780616
33.550000 84.421875 23.781171
33.150000 87.515625 23.935208
33.175000 86.421875 23.935613
33.300000 85.578125 23.935926
33.500000 84.453125 23.936343
33.100000 87.437500 24.091322
33.125000 86.406250 24.091704
33.275000 85.343750 24.092097
33.400000 84.250000 24.092502
33.050000 87.515625 24.245781
33.075000 86.437500 24.246181
33.100000 85.187500 24.246644
33.300000 84.109375 24.247043
33.575000 83.234375 24.247367
32.875000 89.437500 24.400727
32.925000 87.984375 24.401265
32.950000 87.265625 24.401531
33.000000 85.500000 24.402185
33.050000 84.921875 24.402399
33.150000 83.468750 24.402937
33.550000 82.375000 24.403342
32.750000 87.390625 24.556473
32.800000 86.484375 24.556808
32.850000 85.546875 24.557156
32.925000 84.265625 24.557630
32.500000 87.796875 24.713552
32.550000 86.515625 24.714026
32.625000 85.187500 24.714518
32.700000 84.265625 24.714859
32.075000 89.531250 24.865836
32.325000 88.609375 24.866177
32.275000 87.468750 24.866600
32.325000 86.093750 24.867109
32.425000 85.218750 24.867433
32.500000 84.078125 24.867856
32.600000 83.062500 24.868232
32.400000 89.750000 25.008613
32.600000 88.640625 25.009024
32.650000 87.468750 25.009458
32.650000 85.921875 25.010031
32.700000 84.531250 25.010546
32.825000 83.984375 25.010749
33.050000 82.812500 25.011183
32.825000 89.328125 25.176600
32.925000 88.109375 25.177052
32.925000 86.734375 25.177561
32.975000 85.406250 25.178053
33.050000 84.703125 25.178313
33.175000 83.265625 25.178846
33.575000 82.250000 25.179222
32.925000 88.953125 25.318235
33.100000 88.109375 25.318547
33.125000 87.234375 25.318871
33.250000 85.750000 25.319421
33.400000 84.562500 25.319861
33.500000 83.781250 25.320151
33.875000 82.125000 25.320764
33.375000 87.578125 25.473674
33.450000 86.984375 25.473894
33.550000 85.765625 25.474345
33.575000 83.968750 25.475010
33.700000 83.140625 25.475317
33.575000 87.296875 25.627546
33.600000 86.375000 25.627887
33.650000 85.203125 25.628322
33.725000 84.375000 25.628628
33.900000 82.765625 25.629224
33.675000 87.875000 25.784498
33.675000 86.859375 25.784874
33.750000 85.656250 25.785320
33.850000 84.484375 25.785754
33.775000 88.000000 25.939758
33.825000 86.765625 25.940215
33.875000 85.546875 25.940666
33.950000 84.546875 25.941037
34.100000 83.234375 25.941523
33.775000 87.671875 26.088394
33.850000 86.359375 26.088880
33.900000 85.218750 26.089303
33.950000 84.234375 26.089667
34.150000 83.093750 26.090090
33.700000 88.875000 26.250358
33.900000 87.812500 26.250751
33.900000 86.765625 26.251139
33.925000 85.421875 26.251637
34.025000 84.625000 26.251932
34.175000 83.437500 26.252372
33.825000 87.734375 26.398137
33.875000 86.843750 26.398466
33.900000 85.406250 26.398999
34.025000 84.484375 26.399340
34.150000 83.484375 26.399711
33.850000 87.625000 26.548965
33.900000 85.906250 26.549602
34.000000 85.093750 26.549903
34.100000 84.000000 26.550308
34.350000 82.437500 26.550887
33.775000 87.562500 26.709693
33.800000 86.906250 26.709936
33.875000 85.421875 26.710486
34.000000 84.156250 26.710954
34.150000 83.406250 26.711232
33.750000 87.406250 26.861361
33.775000 85.937500 26.861905
33.850000 85.046875 26.862235
34.000000 83.750000 26.862715
34.325000 82.703125 26.863103
33.600000 87.437500 27.022150
33.650000 86.671875 27.022434
33.725000 85.593750 27.022833
33.850000 84.453125 27.023255
34.075000 83.250000 27.023701
33.225000 89.359375 27.172398
33.475000 88.203125 27.172827
33.525000 87.218750 27.173191
33.575000 85.765625 27.173729
33.625000 85.015625 27.174007
33.750000 83.453125 27.174586
34.125000 82.750000 27.174846
33.325000 88.078125 27.328390
33.350000 86.812500 27.328859
33.425000 85.468750 27.329356
33.500000 84.546875 27.329698
33.625000 83.359375 27.330138
32.850000 90.078125 27.483721
33.100000 88.828125 27.484184
33.125000 87.781250 27.484571
33.175000 86.343750 27.485104
33.175000 85.187500 27.485532
33.275000 83.609375 27.486117
33.425000 83.015625 27.486336
33.100000 89.578125 27.638826
33.250000 88.343750 27.639283
33.275000 87.218750 27.639700
33.325000 85.968750 27.640163
33.350000 85.093750 27.640487
33.475000 83.921875 27.640921
33.725000 82.718750 27.641366
33.475000 89.062500 27.779343
33.625000 88.281250 27.779633
33.625000 87.203125 27.780032
33.675000 86.156250 27.780420
33.750000 84.312500 27.781103
33.825000 83.359375 27.781456
34.150000 82.531250 27.781762
33.600000 89.671875 27.935792
33.825000 88.265625 27.936313
33.850000 87.234375 27.936695
33.875000 86.218750 27.937071
33.950000 84.734375 27.937621
34.050000 83.734375 27.937991
34.350000 82.234375 27.938547
33.675000 89.609375 28.091120
33.900000 88.671875 28.091467
34.000000 86.984375 28.092092
34.075000 86.265625 28.092358
34.125000 84.859375 28.092879
34.225000 83.828125 28.093261
34.525000 82.390625 28.093793
33.825000 90.015625 28.248796
34.150000 88.812500 28.249241
34.150000 87.187500 28.249843
34.125000 86.515625 28.250092
34.225000 85.187500 28.250584
34.350000 83.828125 28.251087
34.600000 82.812500 28.251463
34.250000 87.546875 28.400257
34.275000 86.781250 28.400541
34.350000 85.625000 28.400969
34.425000 84.437500 28.401409
34.575000 83.218750 28.401860
34.300000 87.750000 28.562781
34.350000 86.718750 28.563163
34.350000 85.781250 28.563511
34.425000 84.156250 28.564112
34.575000 83.093750 28.564506
34.400000 88.046875 28.713065
34.350000 86.765625 28.713539
34.375000 85.343750 28.714066
34.500000 84.656250 28.714320
34.650000 82.968750 28.714946
34.425000 88.000000 28.860965
34.375000 86.890625 28.861376
34.400000 85.468750 28.861902
34.525000 84.375000 28.862307
34.650000 82.921875 28.862846
34.075000 89.718750 29.022302
34.475000 88.703125 29.022678
34.450000 87.046875 29.023292
34.450000 85.843750 29.023737
34.550000 84.781250 29.024131
34.625000 83.937500 29.024443
35.025000 82.437500 29.024999
34.450000 87.703125 29.172237
34.500000 86.781250 29.172578
34.500000 85.484375 29.173059
34.525000 84.500000 29.173423
34.675000 83.031250 29.173967
34.425000 87.609375 29.333191
34.475000 86.046875 29.333770
34.525000 85.140625 29.334105
34.625000 84.171875 29.334464
34.925000 82.625000 29.335037
34.125000 89.718750 29.483717
34.425000 88.140625 29.484302
34.400000 87.265625 29.484626
34.400000 86.187500 29.485025
34.500000 85.046875 29.485448
34.625000 83.937500 29.485859
35.025000 82.687500 29.486322
34.425000 87.843750 29.646234
34.475000 86.953125 29.646564
34.475000 85.687500 29.647032
34.525000 84.312500 29.647542
34.000000 89.750000 29.782019
34.225000 88.296875 29.782558
34.250000 87.234375 29.782951
34.325000 86.234375 29.783322
34.425000 84.703125 29.783889
34.525000 83.906250 29.784184
34.875000 82.515625 29.784699
34.025000 89.093750 29.937697
34.175000 88.390625 29.937957
34.225000 87.000000 29.938472
34.275000 85.812500 29.938912
34.325000 84.515625 29.939392
34.400000 83.750000 29.939676
34.825000 82.671875 29.940075
34.025000 87.906250 30.092004
34.050000 86.640625 30.092473
34.125000 85.265625 30.092982
34.200000 84.406250 30.093301
34.325000 82.875000 30.093868
33.775000 87.625000 30.247889
33.825000 86.437500 30.248328
33.900000 85.343750 30.248734
33.950000 84.093750 30.249197
34.100000 83.328125 30.249480
33.550000 87.234375 30.401567
33.550000 86.453125 30.401857
33.625000 85.250000 30.402302
33.725000 84.218750 30.402684
33.875000 82.968750 30.403147
32.925000 89.390625 30.558505
33.150000 88.812500 30.558719
33.175000 87.562500 30.559182
33.225000 86.078125 30.559731
33.275000 85.390625 30.559986
33.375000 83.812500 30.560570
33.500000 83.031250 30.560860
32.950000 89.515625 30.714204
33.250000 88.453125 30.714598
33.325000 87.265625 30.715038
33.350000 85.781250 30.715587
33.400000 84.937500 30.715900
33.500000 83.437500 30.716455
33.725000 82.328125 30.716866
33.200000 89.171875 30.868350
33.525000 88.359375 30.868651
33.575000 86.984375 30.869160
33.550000 85.531250 30.869699
33.600000 84.578125 30.870052
33.700000 83.500000 30.870451
34.100000 82.531250 30.870810
33.500000 89.453125 31.024197
33.625000 88.109375 31.024695
33.675000 86.984375 31.025112
33.725000 85.890625 31.025517
33.750000 84.484375 31.026037
33.725000 88.156250 31.178674
33.750000 86.984375 31.179108
33.825000 85.593750 31.179623
33.925000 84.562500 31.180005
34.075000 82.906250 31.180619
33.500000 89.765625 31.333678
33.825000 88.640625 31.334095
33.850000 87.562500 31.334494
33.900000 86.375000 31.334934
34.000000 84.984375 31.335449
34.075000 83.781250 31.335895
34.400000 82.437500 31.336392
33.700000 88.984375 31.489208
33.850000 88.234375 31.489485
33.875000 86.828125 31.490006
33.950000 85.515625 31.490492
34.000000 84.359375 31.490920
33.700000 89.531250 31.646367
33.900000 88.109375 31.646893
33.925000 87.390625 31.647160
33.950000 85.828125 31.647738
34.000000 84.671875 31.648166
34.125000 83.750000 31.648508
34.600000 82.375000 31.649017
33.825000 89.265625 31.783925
33.875000 88.203125 31.784318
33.875000 86.781250 31.784845
33.950000 85.656250 31.785262
34.050000 84.453125 31.785707
33.850000 87.890625 31.940271
33.925000 86.968750 31.940613
33.950000 85.500000 31.941157
34.075000 84.453125 31.941545
33.900000 87.828125 32.096645
33.925000 86.906250 32.096986
34.000000 85.703125 32.097432
34.125000 84.343750 32.097935
34.175000 83.125000 32.098387
33.800000 88.031250 32.253567
33.800000 86.968750 32.253961
33.850000 85.890625 32.254360
33.925000 84.281250 32.254956
33.750000 87.828125 32.402664
33.775000 86.906250 32.403005
33.800000 85.406250 32.403561
33.950000 84.218750 32.404001
34.125000 83.390625 32.404307
33.525000 88.921875 32.563289
33.600000 88.281250 32.563526
33.625000 87.140625 32.563949
33.675000 85.890625 32.564412
33.775000 84.828125 32.564805
33.350000 89.015625 32.715000
33.450000 87.906250 32.715411
33.475000 87.265625 32.715649
33.525000 85.812500 32.716187
33.550000 84.906250 32.716522
33.650000 83.625000 32.716997
34.050000 82.250000 32.717506
33.200000 89.046875 32.873555
33.200000 87.859375 32.873994
33.175000 86.625000 32.874452
33.250000 86.031250 32.874671
33.325000 84.671875 32.875175
33.375000 83.609375 32.875569
33.750000 82.281250 32.876060
32.825000 88.093750 33.022631
32.825000 86.500000 33.023221
32.875000 85.687500 33.023522
32.950000 84.625000 33.023916
33.050000 83.125000 33.024472
33.425000 82.078125 33.024859
32.425000 87.796875 33.171071
32.450000 86.375000 33.171597
32.475000 85.328125 33.171985
32.550000 83.781250 33.172558
32.075000 89.781250 33.332594
32.375000 88.734375 33.332982
32.425000 87.843750 33.333312
32.450000 86.250000 33.333902
32.525000 84.890625 33.334406
32.625000 84.140625 33.334683
32.400000 89.687500 33.480206
32.675000 88.359375 33.480698
32.700000 87.312500 33.481086
32.725000 85.953125 33.481589
32.800000 85.218750 33.481861
32.875000 84.203125 33.482237
33.025000 83.062500 33.482660
32.700000 89.468750 33.642159
32.850000 88.265625 33.642605
32.900000 87.078125 33.643045
32.950000 86.250000 33.643352
33.000000 84.671875 33.643936
33.075000 83.515625 33.644364
33.350000 82.500000 33.644741
32.900000 89.015625 33.791035
32.975000 88.421875 33.791255
33.025000 86.843750 33.791839
33.075000 85.625000 33.792290
33.125000 84.609375 33.792667
33.075000 87.843750 33.946834
33.100000 86.328125 33.947396
33.250000 85.750000 33.947610
33.425000 84.281250 33.948154
33.525000 82.859375 33.948680
32.950000 89.812500 34.103025
33.150000 88.562500 34.103488
33.150000 87.515625 34.103876
33.225000 86.218750 34.104356
33.350000 85.156250 34.104750
33.500000 83.531250 34.105351
33.750000 82.625000 34.105687
33.075000 89.234375 34.258673
33.075000 88.546875 34.258928
33.125000 87.203125 34.259426
33.250000 86.078125 34.259842
33.375000 84.546875 34.260410
33.525000 83.484375 34.260803
33.975000 82.515625 34.261162
33.125000 87.968750 34.401165
33.200000 86.546875 34.401692
33.250000 85.765625 34.401981
33.400000 84.078125 34.402606
33.050000 89.718750 34.555014
33.075000 87.984375 34.555656
33.125000 87.265625 34.555922
33.350000 86.109375 34.556350
33.525000 84.609375 34.556906
33.575000 83.750000 34.557224
33.900000 82.359375 34.557739
32.875000 89.687500 34.713695
33.175000 88.328125 34.714199
33.150000 87.218750 34.714610
33.175000 86.250000 34.714968
33.300000 85.171875 34.715368
33.475000 83.656250 34.715929
33.700000 82.656250 34.716299
32.775000 89.703125 34.866792
33.125000 88.968750 34.867064
33.100000 87.390625 34.867649
33.150000 86.671875 34.867915
33.200000 85.046875 34.868517
33.300000 83.968750 34.868916
33.600000 83.140625 34.869223
32.825000 89.546875 35.027105
32.975000 88.250000 35.027586
33.050000 87.531250 35.027852
33.100000 86.296875 35.028309
33.100000 84.609375 35.028934
33.175000 83.796875 35.029235
33.500000 82.687500 35.029646
32.825000 87.609375 35.179713
32.900000 86.578125 35.180095
32.950000 85.843750 35.180367
32.975000 84.421875 35.180893
32.675000 87.546875 35.321905
32.725000 86.500000 35.322293
32.750000 85.281250 35.322744
32.850000 84.609375 35.322993
32.425000 87.718750 35.479506
32.475000 86.359375 35.480010
32.525000 85.218750 35.480432
32.600000 84.390625 35.480739
32.125000 90.046875 35.633349
32.350000 88.406250 35.633957
32.375000 87.531250 35.634281
32.425000 85.953125 35.634866
32.475000 85.250000 35.635126
32.575000 83.625000 35.635728
32.700000 82.453125 35.636162
32.725000 87.671875 35.789378
32.750000 86.187500 35.789927
32.825000 85.515625 35.790176
32.900000 83.984375 35.790743
33.050000 82.625000 35.791247
33.000000 87.281250 35.943964
33.025000 86.375000 35.944300
33.100000 85.531250 35.944612
33.250000 84.375000 35.945040
33.400000 82.765625 35.945637
32.775000 89.906250 36.099643
33.150000 88.750000 36.100072
33.150000 87.484375 36.100540
33.250000 86.203125 36.101015
33.425000 84.750000 36.101553
33.525000 83.703125 36.101941
33.750000 82.500000 36.102386
33.500000 87.515625 36.255606
33.525000 86.484375 36.255988
33.575000 85.718750 36.256272
33.625000 84.125000 36.256862
33.725000 83.281250 36.257174
33.650000 87.218750 36.409458
33.675000 86.234375 36.409823
33.675000 85.078125 36.410251
33.775000 84.234375 36.410564
34.050000 82.781250 36.411102
33.725000 87.390625 36.567747
33.750000 86.265625 36.568164
33.825000 84.718750 36.568737
33.950000 83.906250 36.569038
34.325000 82.296875 36.569634
33.550000 89.515625 36.712921
33.750000 87.671875 36.713603
33.775000 87.218750 36.713771
33.875000 85.640625 36.714356
33.925000 84.843750 36.714651
33.550000 89.296875 36.863306
33.800000 88.250000 36.863694
33.825000 87.015625 36.864151
33.875000 85.859375 36.864579
33.950000 84.562500 36.865060
33.950000 88.046875 37.025296
33.950000 87.000000 37.025684
33.975000 85.390625 37.026280
34.050000 84.125000 37.026749
34.175000 83.078125 37.027137
33.900000 87.515625 37.175915
33.925000 87.000000 37.176106
33.950000 85.218750 37.176766
34.050000 84.468750 37.177044
34.175000 83.234375 37.177501
33.825000 87.593750 37.338048
33.900000 86.453125 37.338470
33.950000 85.203125 37.338933
34.025000 83.812500 37.339448
34.325000 82.937500 37.339772
33.400000 89.593750 37.487518
33.725000 88.421875 37.487952
33.725000 86.984375 37.488485
33.825000 85.953125 37.488867
33.950000 84.718750 37.489324
33.350000 89.437500 37.645780
33.675000 88.468750 37.646138
33.700000 87.312500 37.646567
33.725000 85.750000 37.647145
33.850000 84.703125 37.647533
34.025000 83.921875 37.647822
34.425000 82.375000 37.648395
33.600000 87.875000 37.800577
33.650000 86.718750 37.801006
33.675000 85.500000 37.801457
33.700000 84.187500 37.801943
33.450000 88.187500 37.959559
33.475000 87.031250 37.959987
33.525000 85.390625 37.960595
33.625000 84.390625 37.960965
33.225000 87.656250 38.110164
33.300000 86.500000 38.110592
33.350000 85.296875 38.111038
33.475000 84.437500 38.111356
33.600000 82.781250 38.111970
32.950000 89.125000 38.249967
33.050000 87.953125 38.250401
33.075000 87.156250 38.250696
33.150000 85.921875 38.251153
33.225000 84.546875 38.251663
33.300000 83.796875 38.251940
33.500000 82.343750 38.252479
33.275000 87.937500 38.407417
33.375000 86.640625 38.407897
33.500000 85.500000 38.408319
33.525000 84.078125 38.408846
33.700000 87.578125 38.561970
33.725000 86.093750 38.562519
33.800000 85.109375 38.562884
33.850000 83.875000 38.563341
34.000000 83.171875 38.563601
33.625000 89.765625 38.720336
33.825000 88.421875 38.720834
33.825000 87.531250 38.721164
33.900000 85.921875 38.721760
33.975000 84.703125 38.722211
34.025000 83.796875 38.722547
34.325000 82.593750 38.722993
33.950000 89.093750 38.874526
34.050000 88.265625 38.874832
34.075000 86.718750 38.875405
34.125000 85.781250 38.875752
34.225000 84.890625 38.876082
34.050000 88.937500 39.030933
34.125000 87.812500 39.031350
34.150000 86.828125 39.031714
34.225000 85.656250 39.032148
34.300000 84.718750 39.032495
34.275000 87.687500 39.173791
34.325000 86.500000 39.174231
34.325000 85.390625 39.174641
34.400000 84.671875 39.174908
34.575000 83.484375 39.175348
34.400000 87.281250 39.332577
34.425000 86.593750 39.332831
34.475000 85.234375 39.333335
34.550000 83.859375 39.333844
34.850000 82.968750 39.334174
34.125000 89.718750 39.483704
34.425000 88.187500 39.484271
34.425000 87.062500 39.484688
34.450000 85.890625 39.485122
34.500000 85.062500 39.485428
34.600000 83.687500 39.485938
35.000000 82.500000 39.486377
34.275000 89.468750 39.645674
34.375000 87.796875 39.646293
34.425000 86.859375 39.646641
34.500000 85.781250 39.647040
34.575000 84.812500 39.647399
34.425000 87.625000 39.797072
34.475000 86.734375 39.797401
34.525000 85.671875 39.797795
34.600000 84.750000 39.798136
34.675000 82.984375 39.798790
34.475000 87.906250 39.955693
34.475000 86.515625 39.956208
34.525000 85.437500 39.956608
34.600000 84.156250 39.957082
34.750000 83.359375 39.957377
34.400000 87.531250 40.111104
34.450000 86.421875 40.111515
34.525000 85.328125 40.111921
34.575000 84.046875 40.112395
34.925000 82.781250 40.112864
34.400000 87.359375 40.269128
34.450000 86.437500 40.269469
34.500000 85.375000 40.269863
34.575000 83.984375 40.270378
34.850000 82.546875 40.270910
33.900000 89.656250 40.402528
34.325000 88.656250 40.402899
34.375000 87.390625 40.403367
34.425000 86.156250 40.403824
34.500000 85.250000 40.404160
34.550000 83.750000 40.404716
34.825000 82.890625 40.405034
33.900000 89.546875 40.559125
34.250000 88.343750 40.559571
34.275000 87.593750 40.559848
34.375000 86.375000 40.560300
34.450000 84.921875 40.560838
34.500000 84.031250 40.561168
34.725000 82.437500 40.561758
33.800000 89.765625 40.714014
34.150000 88.671875 40.714419
34.175000 87.078125 40.715010
34.200000 86.453125 40.715241
34.250000 84.890625 40.715820
34.300000 83.578125 40.716306
34.525000 82.765625 40.716607
34.000000 87.843750 40.870976
34.025000 86.843750 40.871346
34.075000 85.687500 40.871774
34.150000 84.578125 40.872185
34.300000 83.343750 40.872642
33.525000 89.265625 41.025017
33.700000 88.031250 41.025474
33.725000 87.234375 41.025769
33.800000 85.875000 41.026273
33.875000 84.640625 41.026730
33.975000 83.718750 41.027071
34.275000 82.265625 41.027609
33.425000 87.906250 41.181881
33.450000 86.421875 41.182431
33.525000 85.593750 41.182738
33.625000 84.109375 41.183287
33.750000 82.765625 41.183785
33.000000 89.343750 41.338274
33.150000 88.437500 41.338609
33.175000 87.171875 41.339078
33.200000 85.906250 41.339547
33.275000 84.875000 41.339929
33.375000 83.750000 41.340345
33.550000 82.703125 41.340733
33.400000 87.718750 41.492157
33.450000 86.234375 41.492706
33.500000 85.546875 41.492961
33.575000 83.984375 41.493540
33.725000 82.890625 41.493945
33.325000 89.187500 41.646693
33.550000 88.171875 41.647070
33.575000 86.859375 41.647556
33.625000 85.921875 41.647903
33.675000 84.656250 41.648372
33.775000 83.281250 41.648881
34.200000 82.562500 41.649147
33.475000 89.515625 41.800420
33.675000 87.843750 41.801039
33.625000 86.765625 41.801438
33.650000 86.218750 41.801641
33.775000 84.718750 41.802196
33.850000 83.656250 41.802590
34.275000 82.390625 41.803058
33.775000 88.140625 41.941886
33.800000 86.406250 41.942528
33.875000 85.531250 41.942852
33.950000 84.046875 41.943402
34.075000 83.531250 41.943593
33.825000 87.390625 42.096252
33.875000 86.859375 42.096449
33.950000 85.562500 42.096929
34.050000 84.015625 42.097502
34.225000 82.796875 42.097953
33.525000 89.500000 42.250700
33.875000 88.281250 42.251152
33.925000 87.375000 42.251487
33.975000 86.281250 42.251892
34.000000 85.046875 42.252349
34.050000 83.500000 42.252922
34.400000 82.546875 42.253275
33.825000 89.046875 42.403948
33.925000 88.000000 42.404336
33.975000 86.703125 42.404816
34.025000 85.828125 42.405140
34.075000 84.390625 42.405673
33.850000 88.031250 42.560652
33.975000 86.765625 42.561121
34.025000 85.531250 42.561578
34.125000 84.265625 42.562047
34.250000 83.296875 42.562405
33.825000 87.546875 42.715613
33.925000 86.609375 42.715960
34.075000 85.453125 42.716388
34.075000 84.359375 42.716793
34.225000 83.218750 42.717216
33.800000 87.546875 42.871655
33.925000 86.234375 42.872141
33.975000 85.468750 42.872425
34.000000 84.187500 42.872899
34.200000 83.093750 42.873305
33.500000 89.812500 43.026123
33.775000 88.187500 43.026725
33.850000 87.468750 43.026991
33.850000 86.125000 43.027489
33.900000 84.781250 43.027986
34.025000 84.031250 43.028264
34.275000 82.921875 43.028675
33.700000 88.109375 43.181437
33.700000 86.906250 43.181882
33.725000 85.187500 43.182519
33.825000 84.546875 43.182756
33.975000 83.328125 43.183207
33.575000 88.031250 43.336910
33.650000 86.468750 43.337489
33.650000 85.484375 43.337854
33.675000 84.359375 43.338270
33.825000 83.078125 43.338745
33.425000 87.531250 43.490911
33.425000 86.750000 43.491200
33.425000 85.406250 43.491698
33.475000 84.328125 43.492097
33.050000 87.796875 43.646742
33.150000 86.703125 43.647147
33.225000 85.140625 43.647725
33.300000 84.328125 43.648026
33.375000 82.625000 43.648657
32.375000 89.796875 43.801423
32.650000 88.781250 43.801799
32.650000 87.218750 43.802378
32.675000 86.437500 43.802667
32.750000 85.437500 43.803038
32.850000 84.265625 43.803472
33.000000 83.015625 43.803935
32.225000 89.515625 43.942903
32.300000 88.671875 43.943215
32.300000 86.953125 43.943852
32.350000 85.781250 43.944286
32.425000 85.234375 43.944488
32.500000 83.406250 43.945165
32.650000 82.953125 43.945333
32.275000 89.156250 44.113464
32.475000 88.203125 44.113817
32.525000 87.406250 44.114112
32.575000 85.796875 44.114708
32.650000 84.812500 44.115073
32.700000 83.687500 44.115489
32.950000 82.796875 44.115819
32.750000 87.921875 44.257927
32.775000 87.093750 44.258234
32.850000 85.906250 44.258674
32.900000 84.687500 44.259125
32.700000 89.500000 44.414412
32.925000 88.671875 44.414719
32.950000 87.390625 44.415194
33.000000 86.234375 44.415622
33.050000 85.046875 44.416061
33.200000 83.984375 44.416455
33.425000 82.437500 44.417028
32.775000 89.875000 44.570014
32.975000 88.750000 44.570431
33.000000 87.484375 44.570899
33.050000 85.937500 44.571472
33.100000 84.937500 44.571842
33.225000 83.781250 44.572271
33.575000 82.546875 44.572728
32.875000 89.406250 44.714499
32.975000 88.234375 44.714933
33.075000 87.546875 44.715188
33.125000 85.843750 44.715819
33.200000 85.046875 44.716114
33.400000 83.812500 44.716571
33.725000 82.421875 44.717086
32.850000 89.609375 44.882747
33.125000 88.343750 44.883216
33.150000 87.343750 44.883586
33.275000 86.390625 44.883940
33.425000 85.375000 44.884316
33.500000 84.203125 44.884750
33.700000 82.531250 44.885369
33.125000 87.250000 45.028098
33.250000 86.421875 45.028404
33.325000 85.343750 45.028804
33.400000 84.109375 45.029261
33.625000 82.906250 45.029706
33.175000 88.093750 45.179012
33.225000 86.375000 45.179649
33.325000 85.609375 45.179932
33.500000 84.468750 45.180355
33.125000 87.453125 45.340225
33.175000 86.734375 45.340491
33.325000 85.609375 45.340908
33.500000 84.421875 45.341347
33.100000 88.828125 45.490940
33.100000 87.656250 45.491374
33.150000 86.359375 45.491855
33.225000 85.171875 45.492294
33.375000 83.796875 45.492804
33.625000 82.640625 45.493232
32.800000 89.718750 45.648972
33.025000 88.265625 45.649510
33.100000 87.046875 45.649961
33.075000 86.187500 45.650280
33.125000 85.000000 45.650719
33.375000 83.765625 45.651177
33.625000 82.781250 45.651541
32.925000 89.500000 45.802237
32.950000 88.218750 45.802712
32.975000 86.625000 45.803302
33.025000 86.109375 45.803493
33.075000 84.359375 45.804141
33.225000 83.281250 45.804540
33.675000 82.296875 45.804905
32.725000 89.296875 45.961330
32.775000 88.390625 45.961666
32.850000 87.125000 45.962134
32.875000 85.531250 45.962725
32.925000 84.671875 45.963043
33.025000 83.484375 45.963483
33.375000 82.125000 45.963986
32.375000 89.593750 46.098764
32.575000 88.015625 46.099349
32.650000 87.468750 46.099551
32.675000 86.093750 46.100060
32.725000 85.062500 46.100442
32.800000 84.031250 46.100824
33.025000 82.859375 46.101258
32.225000 89.125000 46.258140
32.325000 88.390625 46.258412
32.375000 87.218750 46.258846
32.425000 86.187500 46.259228
32.450000 84.500000 46.259853
32.525000 83.421875 46.260252
32.700000 82.359375 46.260645
32.375000 89.437500 46.413860
32.500000 88.078125 46.414364
32.550000 87.187500 46.414694
32.600000 86.125000 46.415087
32.650000 84.796875 46.415579
32.725000 83.437500 46.416083
33.050000 82.171875 46.416551
32.825000 87.390625 46.569228
32.850000 86.828125 46.569436
32.925000 85.375000 46.569974
33.000000 84.375000 46.570344
33.150000 88.296875 46.716022
33.200000 87.046875 46.716486
33.225000 85.296875 46.717134
33.350000 84.625000 46.717382
33.375000 87.453125 46.880321
33.425000 86.453125 46.880691
33.475000 84.859375 46.881281
33.500000 84.062500 46.881577
33.675000 82.656250 46.882097
33.575000 87.250000 47.029107
33.600000 86.359375 47.029437
33.650000 84.765625 47.030027
33.700000 84.140625 47.030259
33.975000 82.828125 47.030745
33.650000 87.703125 47.191387
33.650000 86.578125 47.191803
33.675000 84.828125 47.192451
33.800000 83.796875 47.192833
34.075000 83.031250 47.193117
33.375000 89.734375 47.336614
33.725000 88.578125 47.337043
33.750000 87.093750 47.337592
33.825000 86.281250 47.337893
33.925000 85.125000 47.338321
34.025000 83.468750 47.338935
34.400000 82.281250 47.339375
33.375000 89.437500 47.489278
33.750000 88.437500 47.489648
33.775000 86.968750 47.490192
33.825000 86.234375 47.490464
33.925000 85.156250 47.490863
34.025000 83.734375 47.491390
34.475000 82.875000 47.491708
33.900000 87.546875 47.649095
33.950000 86.328125 47.649547
33.975000 84.765625 47.650125
34.025000 83.546875 47.650577
34.400000 82.468750 47.650976
33.925000 86.859375 47.800792
33.900000 86.296875 47.801000
33.950000 84.843750 47.801538
33.575000 89.468750 47.959798
33.825000 87.718750 47.960446
33.850000 87.125000 47.960666
33.950000 85.531250 47.961257
34.050000 84.671875 47.961575
33.775000 87.718750 48.113383
33.825000 86.609375 48.113794
33.900000 85.812500 48.114089
34.025000 84.343750 48.114633
34.150000 83.156250 48.115073
33.750000 87.843750 48.272554
33.800000 86.453125 48.273069
33.875000 85.140625 48.273555
33.975000 84.250000 48.273885
34.125000 83.375000 48.274209
33.625000 87.609375 48.410650
33.625000 86.265625 48.411148
33.750000 85.218750 48.411536
33.925000 83.859375 48.412039
34.200000 83.015625 48.412352
33.350000 89.437500 48.565752
33.550000 87.859375 48.566336
33.600000 86.859375 48.566706
33.625000 86.171875 48.566961
33.650000 84.968750 48.567407
33.775000 83.312500 48.568020
34.250000 82.312500 48.568390
33.325000 89.125000 48.721207
33.425000 87.921875 48.721653
33.400000 86.828125 48.722058
33.425000 85.625000 48.722503
33.525000 84.812500 48.722805
33.725000 83.218750 48.723395
34.150000 82.187500 48.723777
33.175000 87.406250 48.877781
33.225000 86.703125 48.878042
33.250000 85.421875 48.878516
33.325000 83.984375 48.879049
33.450000 82.593750 48.879564
33.150000 87.921875 49.035574
33.200000 86.453125 49.036118
33.250000 85.093750 49.036621
33.300000 83.968750 49.037038
33.525000 87.531250 49.193327
33.600000 86.453125 49.193727
33.600000 85.109375 49.194224
33.650000 83.718750 49.194739
33.825000 82.593750 49.195156
33.725000 87.359375 49.339839
33.775000 86.453125 49.340175
33.875000 85.484375 49.340534
33.925000 84.031250 49.341072
34.075000 83.000000 49.341454
33.575000 89.734375 49.503775
33.925000 88.531250 49.504220
33.925000 87.750000 49.504509
34.000000 86.484375 49.504978
34.100000 85.359375 49.505395
34.175000 83.906250 49.505933
34.400000 82.828125 49.506332
33.725000 89.359375 49.649236
34.025000 88.687500 49.649485
34.100000 87.250000 49.650017
34.150000 86.359375 49.650347
34.225000 84.828125 49.650914
34.250000 83.671875 49.651342
34.500000 82.609375 49.651736
34.225000 88.000000 49.801385
34.275000 86.375000 49.801987
34.325000 85.250000 49.802403
34.400000 83.968750 49.802878
34.575000 83.218750 49.803156
34.350000 88.140625 49.961405
34.375000 86.968750 49.961839
34.425000 85.781250 49.962279
34.475000 84.687500 49.962684
34.600000 83.171875 49.963245
34.350000 87.812500 50.111956
34.375000 86.781250 50.112338
34.450000 85.515625 50.112807
34.500000 84.062500 50.113345
34.600000 83.000000 50.113739
34.400000 87.468750 50.269478
34.400000 86.906250 50.269686
34.450000 85.828125 50.270086
34.550000 84.312500 50.270647
34.650000 83.015625 50.271127
34.025000 89.812500 50.424640
34.400000 88.171875 50.425248
34.425000 87.125000 50.425636
34.500000 85.890625 50.426093
34.550000 85.187500 50.426353
34.625000 83.781250 50.426874
35.025000 82.750000 50.427256
34.425000 87.625000 50.565684
34.450000 86.765625 50.566002
34.450000 85.890625 50.566327
34.500000 84.734375 50.566755
34.650000 83.250000 50.567305
34.450000 87.531250 50.722135
34.500000 86.593750 50.722482
34.550000 85.187500 50.723003
34.600000 83.859375 50.723495
34.900000 83.062500 50.723790
34.150000 89.250000 50.877245
34.400000 88.265625 50.877610
34.425000 87.312500 50.877963
34.475000 85.937500 50.878472
34.550000 84.671875 50.878941
34.625000 83.546875 50.879358
35.050000 82.296875 50.879821
34.375000 87.890625 51.028987
34.400000 86.781250 51.029398
34.475000 85.765625 51.029774
34.550000 84.515625 51.030237
34.675000 83.343750 51.030671
34.050000 89.656250 51.186997
34.300000 88.484375 51.187431
34.375000 87.328125 51.187860
34.450000 85.750000 51.188444
34.500000 84.484375 51.188913
34.550000 83.875000 51.189138
34.900000 82.218750 51.189752
34.200000 87.906250 51.339088
34.225000 87.062500 51.339401
34.300000 85.375000 51.340026
34.350000 84.531250 51.340338
34.475000 83.515625 51.340714
34.950000 82.312500 51.341160
34.075000 87.546875 51.498910
34.100000 86.796875 51.499188
34.150000 85.187500 51.499784
34.225000 84.109375 51.500183
34.400000 82.906250 51.500629
33.475000 89.734375 51.650581
33.825000 88.703125 51.650963
33.900000 87.531250 51.651397
33.925000 86.062500 51.651941
33.975000 84.750000 51.652427
34.050000 83.718750 51.652809
34.250000 82.828125 51.653139
33.425000 89.562500 51.809412
33.600000 88.296875 51.809880
33.600000 87.062500 51.810338
33.675000 86.171875 51.810668
33.750000 84.531250 51.811275
33.825000 83.593750 51.811622
34.125000 82.218750 51.812132
33.300000 88.078125 51.964600
33.350000 86.968750 51.965010
33.350000 85.234375 51.965653
33.425000 84.578125 51.965896
33.275000 87.781250 52.106389
33.300000 86.203125 52.106973
33.350000 85.296875 52.107309
33.375000 83.953125 52.107807
33.500000 82.718750 52.108264
33.425000 87.093750 52.268858
33.500000 86.125000 52.269217
33.575000 85.390625 52.269489
33.625000 84.046875 52.269987
33.825000 82.640625 52.270508
33.275000 89.390625 52.417919
33.575000 88.187500 52.418365
33.600000 87.234375 52.418717
33.650000 86.421875 52.419018
33.650000 85.281250 52.419441
33.750000 84.093750 52.419881
34.100000 82.593750 52.420436
33.500000 89.265625 52.579525
33.650000 88.406250 52.579843
33.725000 86.718750 52.580468
33.800000 85.796875 52.580810
33.825000 84.453125 52.581307
33.800000 87.687500 52.729667
33.850000 86.765625 52.730009
33.900000 85.390625 52.730518
34.000000 84.000000 52.731033
34.200000 82.984375 52.731409
33.850000 87.468750 52.884894
33.900000 86.171875 52.885374
33.925000 85.343750 52.885681
34.000000 83.796875 52.886254
34.300000 82.828125 52.886613
33.575000 89.687500 53.028796
33.900000 88.593750 53.029201
33.925000 87.031250 53.029779
33.975000 86.046875 53.030144
34.025000 85.093750 53.030497
34.125000 83.718750 53.031006
34.500000 82.390625 53.031498
33.950000 88.140625 53.182576
33.975000 86.937500 53.183022
34.050000 86.000000 53.183369
34.075000 84.296875 53.184000
33.875000 87.468750 53.338058
33.975000 86.406250 53.338452
34.000000 85.250000 53.338880
34.000000 84.234375 53.339257
34.275000 82.718750 53.339818
33.700000 89.421875 53.492167
33.875000 88.468750 53.492520
33.850000 87.000000 53.493064
33.950000 86.203125 53.493359
34.075000 84.562500 53.493967
33.775000 87.625000 53.650502
33.800000 86.625000 53.650872
33.875000 85.921875 53.651133
34.000000 84.390625 53.651700
33.500000 89.468750 53.799876
33.725000 88.187500 53.800351
33.775000 87.171875 53.800727
33.800000 85.734375 53.801259
33.850000 84.703125 53.801641
33.900000 83.625000 53.802041
34.325000 82.828125 53.802336
33.550000 89.515625 53.958907
33.600000 88.171875 53.959404
33.625000 86.796875 53.959914
33.725000 85.765625 53.960296
33.825000 84.671875 53.960701
33.475000 87.562500 54.111409
33.550000 87.046875 54.111600
33.600000 85.718750 54.112092
33.625000 84.453125 54.112561
33.325000 87.656250 54.272462
33.325000 86.437500 54.272914
33.375000 85.500000 54.273261
33.425000 84.453125 54.273649
33.525000 82.671875 54.274308
32.900000 87.843750 54.423810
33.000000 86.609375 54.424267
33.100000 85.234375 54.424777
33.150000 84.437500 54.425072
33.250000 82.953125 54.425622
32.325000 90.171875 54.580583
32.550000 88.937500 54.581040
32.525000 87.359375 54.581625
32.575000 86.203125 54.582053
32.625000 84.843750 54.582556
32.675000 83.578125 54.583025
32.850000 82.906250 54.583274
32.225000 89.328125 54.734900
32.325000 88.015625 54.735386
32.375000 87.437500 54.735600
32.450000 86.171875 54.736069
32.475000 85.171875 54.736439
32.525000 83.437500 54.737082
32.700000 82.578125 54.737400
32.525000 89.296875 54.875655
32.600000 88.531250 54.875939
32.625000 86.750000 54.876599
32.675000 85.515625 54.877056
32.750000 84.906250 54.877281
32.725000 83.156250 54.877929
33.025000 82.421875 54.878201
32.850000 88.296875 55.031422
32.875000 86.750000 55.031995
32.925000 85.703125 55.032382
32.975000 84.328125 55.032892
33.050000 83.578125 55.033169
33.475000 82.375000 55.033615
32.975000 87.968750 55.189232
33.025000 86.468750 55.189787
33.075000 85.765625 55.190048
33.100000 84.062500 55.190678
32.850000 89.875000 55.337787
33.025000 88.125000 55.338436
33.075000 87.625000 55.338621
