35.750000 82.093750 27.007759
36.400000 80.750000 27.010558
36.775000 79.843750 27.012446
36.725000 78.515625 27.015213
36.650000 77.343750 27.017655
36.725000 76.171875 27.020096
36.975000 75.390625 27.021724
35.875000 89.812500 27.144308
35.900000 88.796875 27.146424
35.675000 87.640625 27.148833
35.500000 84.203125 27.155994
35.400000 82.843750 27.158826
35.875000 81.812500 27.160975
36.500000 80.671875 27.163351
36.850000 79.515625 27.165760
36.750000 78.390625 27.168103
36.600000 77.312500 27.170350
36.825000 76.015625 27.173051
37.325000 75.187500 27.174777
35.600000 89.671875 27.303255
35.700000 88.625000 27.305436
35.700000 87.718750 27.307324
35.750000 86.390625 27.310091
36.150000 85.562500 27.311816
35.425000 83.031250 27.317090
35.825000 81.687500 27.319890
36.475000 80.968750 27.321387
37.025000 79.937500 27.323535
36.875000 78.562500 27.326400
36.650000 77.343750 27.328939
36.825000 76.515625 27.330664
37.150000 75.328125 27.333138
36.175000 89.375000 27.461756
36.100000 88.531250 27.463513
35.800000 87.109375 27.466476
35.825000 86.046875 27.468689
36.125000 85.140625 27.470577
35.900000 83.953125 27.473051
36.900000 79.140625 27.483077
36.725000 78.203125 27.485030
36.650000 76.734375 27.488090
35.875000 88.734375 27.620059
35.725000 87.640625 27.622338
35.900000 86.625000 27.624454
36.025000 85.875000 27.626017
35.775000 84.218750 27.629467
35.450000 83.343750 27.631290
36.800000 79.000000 27.640339
36.625000 77.578125 27.643302
36.725000 76.671875 27.645190
37.125000 75.250000 27.648152
36.300000 89.718750 27.790135
36.225000 88.562500 27.792544
35.925000 87.328125 27.795115
35.975000 86.062500 27.797752
36.075000 84.968750 27.800031
35.825000 83.859375 27.802342
36.850000 79.203125 27.812043
36.700000 78.328125 27.813865
36.675000 77.000000 27.816633
36.925000 75.859375 27.819009
37.500000 75.000000 27.820799
35.800000 88.890625 27.934191
35.775000 87.640625 27.936795
35.900000 86.671875 27.938813
36.050000 85.515625 27.941222
35.875000 84.171875 27.944022
35.650000 83.218750 27.946007
35.900000 82.296875 27.947928
36.525000 80.984375 27.950662
37.125000 80.046875 27.952615
36.950000 78.515625 27.955806
36.650000 77.359375 27.958214
36.825000 76.265625 27.960493
37.225000 75.562500 27.961958
36.450000 89.515625 28.105046
36.275000 88.609375 28.106934
36.025000 87.531250 28.109180
36.050000 86.468750 28.111394
36.350000 85.343750 28.113738
36.175000 84.125000 28.116277
35.875000 82.562500 28.119532
36.475000 81.468750 28.121810
36.925000 80.593750 28.123633
36.800000 79.062500 28.126823
36.625000 78.375000 28.128256
36.750000 77.171875 28.130762
37.025000 75.984375 28.133236
37.725000 74.953125 28.135385
35.750000 88.937500 28.265306
35.825000 87.984375 28.267292
36.075000 86.765625 28.269831
36.125000 85.625000 28.272207
36.225000 84.609375 28.274323
36.075000 83.171875 28.277318
36.200000 82.546875 28.278620
36.750000 81.031250 28.281778
37.075000 80.000000 28.283926
36.875000 78.906250 28.286205
36.675000 77.609375 28.288907
36.875000 76.390625 28.291446
37.200000 75.453125 28.293399
35.800000 89.234375 28.416062
35.875000 87.562500 28.419545
36.075000 86.812500 28.421108
36.100000 85.343750 28.424168
36.250000 84.390625 28.426153
36.200000 83.312500 28.428399
36.300000 82.109375 28.430906
36.800000 81.296875 28.432599
37.325000 79.984375 28.435333
37.150000 78.687500 28.438035
36.650000 77.546875 28.440411
36.850000 76.515625 28.442559
37.225000 75.250000 28.445196
36.400000 89.531250 28.575249
36.325000 88.546875 28.577300
36.100000 87.718750 28.579026
36.100000 86.093750 28.582411
36.150000 85.109375 28.584462
36.225000 84.234375 28.586285
36.300000 83.078125 28.588693
36.650000 81.640625 28.591688
36.775000 80.609375 28.593837
36.625000 79.593750 28.595953
36.625000 78.265625 28.598720
36.800000 76.984375 28.601389
37.075000 75.984375 28.603472
37.650000 75.109375 28.605295
36.650000 89.593750 28.727595
36.400000 88.640625 28.729580
36.050000 87.359375 28.732249
36.075000 86.171875 28.734724
36.175000 85.046875 28.737067
36.250000 83.843750 28.739574
36.300000 82.937500 28.741462
36.625000 81.609375 28.744229
36.850000 80.625000 28.746279
36.700000 79.281250 28.749079
36.600000 78.156250 28.751423
36.825000 77.296875 28.753213
37.125000 75.734375 28.756468
37.750000 74.953125 28.758096
36.050000 89.343750 28.887633
35.925000 87.968750 28.890498
36.150000 86.875000 28.892777
36.175000 85.750000 28.895120
36.225000 84.500000 28.897725
36.325000 83.625000 28.899548
36.475000 82.203125 28.902510
36.750000 81.265625 28.904463
37.075000 79.812500 28.907490
36.900000 79.000000 28.909183
36.675000 77.546875 28.912210
36.850000 76.484375 28.914424
37.225000 75.312500 28.916865
36.375000 88.156250 29.043030
36.050000 87.218750 29.044983
36.150000 86.093750 29.047327
36.250000 85.187500 29.049215
36.225000 84.015625 29.051656
36.300000 82.796875 29.054196
36.650000 81.546875 29.056800
36.975000 80.765625 29.058427
36.800000 79.187500 29.061715
36.600000 78.140625 29.063896
36.750000 77.046875 29.066175
37.050000 75.953125 29.068453
37.750000 75.140625 29.070146
36.350000 89.296875 29.202170
36.250000 88.171875 29.204514
36.150000 86.703125 29.207574
36.200000 85.734375 29.209592
36.250000 84.593750 29.211969
36.325000 83.312500 29.214638
36.475000 82.406250 29.216526
36.775000 81.406250 29.218609
37.075000 80.234375 29.221051
36.900000 78.953125 29.223720
36.650000 77.578125 29.226584
36.825000 76.671875 29.228472
37.225000 75.500000 29.230914
36.350000 89.359375 29.367438
36.225000 88.218750 29.369814
36.150000 87.015625 29.372320
36.200000 85.843750 29.374762
36.250000 84.687500 29.377171
36.325000 83.625000 29.379384
36.500000 82.546875 29.381630
36.775000 80.984375 29.384886
37.150000 80.296875 29.386318
36.975000 79.062500 29.388889
36.675000 77.812500 29.391494
36.850000 76.562500 29.394098
37.225000 75.359375 29.396604
36.300000 88.781250 29.518527
36.100000 87.343750 29.521522
36.200000 86.187500 29.523931
36.225000 85.281250 29.525819
36.200000 84.062500 29.528358
36.300000 83.015625 29.530539
36.650000 81.562500 29.533566
36.975000 80.828125 29.535096
36.750000 79.250000 29.538384
36.525000 78.265625 29.540435
36.750000 77.078125 29.542909
37.075000 75.906250 29.545350
37.600000 74.890625 29.547466
35.675000 88.609375 29.679907
36.000000 87.921875 29.681339
36.175000 86.484375 29.684334
36.250000 85.453125 29.686482
36.300000 84.109375 29.689282
36.375000 83.125000 29.691333
36.750000 82.171875 29.693318
37.050000 81.125000 29.695499
36.950000 79.890625 29.698071
36.700000 78.625000 29.700707
36.650000 77.625000 29.702791
36.925000 76.406250 29.705330
37.375000 75.171875 29.707901
35.675000 89.109375 29.832629
36.000000 87.984375 29.834973
36.175000 86.890625 29.837251
36.275000 85.750000 29.839628
36.325000 84.281250 29.842687
36.375000 83.359375 29.844608
36.725000 82.140625 29.847147
37.050000 81.125000 29.849263
37.125000 79.640625 29.852355
36.850000 78.703125 29.854309
36.650000 77.406250 29.857010
36.900000 76.468750 29.858963
37.350000 75.343750 29.861307
35.950000 88.062500 29.993156
36.100000 86.828125 29.995728
36.175000 85.828125 29.997811
36.225000 84.453125 30.000675
36.300000 83.156250 30.003377
36.600000 82.437500 30.004875
36.900000 81.234375 30.007381
37.225000 80.250000 30.009432
37.025000 78.625000 30.012817
36.650000 77.734375 30.014673
36.825000 76.531250 30.017179
37.225000 75.265625 30.019816
35.625000 88.875000 30.146935
35.950000 87.906250 30.148953
36.125000 86.734375 30.151394
36.225000 85.703125 30.153543
36.250000 84.609375 30.155821
36.275000 83.187500 30.158784
36.600000 82.250000 30.160737
36.875000 80.953125 30.163439
37.200000 80.109375 30.165196
37.000000 78.453125 30.168647
36.625000 77.312500 30.171023
36.800000 76.312500 30.173106
37.250000 75.156250 30.175515
36.775000 89.609375 30.313460
36.125000 86.671875 30.319580
36.350000 85.687500 30.321631
36.100000 84.796875 30.323487
35.850000 83.234375 30.326742
36.075000 82.187500 30.328923
36.525000 81.500000 30.330355
36.950000 79.843750 30.333806
36.800000 79.000000 30.335563
36.650000 77.671875 30.338330
36.725000 76.500000 30.340772
37.075000 75.546875 30.342757
35.975000 87.015625 30.474619
36.225000 86.000000 30.476735
35.650000 83.437500 30.482074
36.400000 80.015625 30.489203
36.650000 79.265625 30.490765
36.500000 78.093750 30.493207
36.600000 76.593750 30.496332
36.950000 75.421875 30.498773
35.650000 88.890625 30.626663
35.750000 87.656250 30.629234
35.975000 86.765625 30.631090
35.675000 85.562500 30.633596
35.300000 84.343750 30.636135
35.400000 83.343750 30.638219
36.925000 78.687500 30.647919
36.525000 77.671875 30.650035
36.725000 76.453125 30.652574
37.175000 75.171875 30.655243
35.775000 88.828125 30.782658
35.750000 87.921875 30.784546
36.000000 86.468750 30.787574
35.150000 84.171875 30.792359
35.450000 82.906250 30.794995
35.925000 82.031250 30.796818
36.600000 80.750000 30.799488
37.100000 79.500000 30.802092
36.850000 78.671875 30.803817
36.550000 77.218750 30.806844
36.675000 76.156250 30.809058
37.200000 75.312500 30.810816
36.075000 88.750000 30.938217
35.700000 87.468750 30.940886
36.175000 86.562500 30.942775
35.075000 83.734375 30.948667
35.375000 82.625000 30.950978
35.900000 81.546875 30.953224
36.650000 80.500000 30.955405
36.925000 79.562500 30.957358
36.700000 78.140625 30.960320
36.525000 77.359375 30.961948
35.250000 85.203125 31.114220
35.175000 83.812500 31.117117
35.650000 82.812500 31.119200
36.075000 81.750000 31.121414
36.550000 80.375000 31.124279
36.800000 79.578125 31.125939
36.650000 78.109375 31.128999
36.550000 77.046875 31.131212
35.350000 88.000000 31.268664
35.375000 86.843750 31.271073
35.100000 85.390625 31.274100
34.900000 84.515625 31.275923
36.650000 78.593750 31.288260
36.475000 77.453125 31.290636
36.525000 76.515625 31.292589
36.725000 75.453125 31.294803
35.325000 87.921875 31.420504
35.325000 86.500000 31.423466
35.025000 85.625000 31.425289
34.775000 84.281250 31.428088
34.950000 83.031250 31.430692
36.650000 78.484375 31.440165
36.500000 77.671875 31.441858
36.525000 76.281250 31.444755
36.725000 75.390625 31.446610
35.250000 89.484375 31.577156
35.125000 88.375000 31.579467
35.325000 87.406250 31.581486
35.725000 86.125000 31.584155
34.750000 83.687500 31.589233
35.150000 82.515625 31.591674
35.550000 81.140625 31.594539
36.275000 80.359375 31.596166
36.675000 79.015625 31.598966
36.575000 77.828125 31.601440
36.425000 76.609375 31.603979
36.450000 75.953125 31.605346
35.350000 89.296875 31.728546
35.275000 88.390625 31.730434
35.275000 87.453125 31.732388
35.300000 85.953125 31.735512
34.875000 84.859375 31.737791
34.575000 83.859375 31.739875
34.850000 82.875000 31.741925
35.325000 81.703125 31.744367
36.075000 80.609375 31.746645
36.625000 79.406250 31.749152
36.550000 78.109375 31.751854
36.350000 76.953125 31.754262
34.950000 88.812500 31.893071
35.100000 87.515625 31.895773
35.025000 86.750000 31.897368
35.175000 85.359375 31.900265
34.925000 84.312500 31.902446
34.625000 82.921875 31.905343
34.925000 82.015625 31.907231
36.350000 77.609375 31.916411
36.200000 76.218750 31.919308
36.400000 75.171875 31.921489
35.050000 87.421875 32.059171
34.675000 84.390625 32.065486
34.375000 83.343750 32.067667
34.650000 81.765625 32.070955
36.275000 77.500000 32.079841
36.050000 76.015625 32.082934
36.250000 75.140625 32.084757
35.200000 89.609375 32.206694
35.050000 88.203125 32.209624
35.000000 87.109375 32.211903
34.225000 85.109375 32.216069
34.375000 84.062500 32.218250
34.375000 82.421875 32.221668
34.650000 81.765625 32.223035
36.200000 77.015625 32.232931
36.100000 75.937500 32.235177
36.450000 74.750000 32.237651
35.100000 89.750000 32.367329
35.025000 88.406250 32.370128
34.975000 87.515625 32.371984
34.650000 84.062500 32.379178
34.375000 82.546875 32.382335
34.625000 81.546875 32.384418
36.000000 77.109375 32.393663
35.975000 75.718750 32.396560
36.425000 74.656250 32.398774
34.875000 89.609375 32.520554
34.725000 88.343750 32.523191
34.800000 87.218750 32.525535
34.850000 86.375000 32.527293
35.250000 85.250000 32.529636
34.350000 82.968750 32.534389
34.600000 81.578125 32.537286
34.950000 80.328125 32.539890
35.500000 79.578125 32.541453
35.675000 78.046875 32.544643
35.625000 76.843750 32.547149
35.925000 75.750000 32.549428
36.300000 75.078125 32.550828
35.200000 89.140625 32.682069
34.775000 87.781250 32.684901
34.725000 87.343750 32.685813
34.725000 85.656250 32.689328
35.025000 85.046875 32.690598
34.900000 83.656250 32.693495
34.425000 82.046875 32.696848
34.650000 81.562500 32.697857
35.075000 80.187500 32.700722
35.325000 78.750000 32.703717
35.425000 77.765625 32.705767
35.600000 76.859375 32.707655
34.725000 89.390625 32.832624
34.500000 88.328125 32.834837
34.625000 87.265625 32.837051
34.675000 85.859375 32.839981
34.600000 85.046875 32.841673
34.575000 83.656250 32.844571
34.575000 82.843750 32.846263
34.600000 81.531250 32.848998
34.875000 80.437500 32.851276
35.100000 78.984375 32.854304
35.300000 78.046875 32.856257
35.450000 76.750000 32.858958
35.675000 75.593750 32.861367
36.175000 74.546875 32.863548
34.775000 89.250000 32.994706
34.550000 88.109375 32.997082
34.575000 87.000000 32.999393
34.625000 86.312500 33.000826
34.675000 85.093750 33.003365
34.650000 83.781250 33.006099
34.675000 82.625000 33.008508
34.850000 81.296875 33.011275
34.900000 80.359375 33.013228
34.875000 78.828125 33.016418
35.175000 78.281250 33.017558
35.400000 76.781250 33.020683
35.625000 75.859375 33.022603
36.075000 74.718750 33.024980
34.500000 86.468750 33.157804
34.550000 85.531250 33.159757
34.575000 84.703125 33.161482
34.575000 83.078125 33.164868
34.675000 82.437500 33.166202
34.675000 81.265625 33.168644
34.650000 79.968750 33.171345
34.900000 78.671875 33.174047
35.150000 77.671875 33.176131
35.325000 76.218750 33.179158
34.575000 89.093750 33.306911
34.400000 88.171875 33.308831
34.450000 86.765625 33.311761
34.475000 85.765625 33.313845
34.475000 84.375000 33.316742
34.500000 83.421875 33.318727
34.600000 82.671875 33.320290
34.600000 81.296875 33.323154
34.550000 80.015625 33.325824
34.725000 79.203125 33.327517
34.925000 77.671875 33.330707
35.125000 76.625000 33.332888
35.425000 75.765625 33.334678
35.950000 74.546875 33.337217
34.450000 89.046875 33.477854
34.375000 88.343750 33.479319
34.400000 87.359375 33.481369
34.450000 85.609375 33.485015
34.450000 84.656250 33.487001
34.550000 83.796875 33.488791
34.650000 82.671875 33.491135
34.575000 81.296875 33.493999
34.525000 80.125000 33.496441
34.650000 78.734375 33.499338
34.875000 78.171875 33.500510
35.125000 76.796875 33.503375
35.350000 75.437500 33.506207
35.725000 74.312500 33.508550
34.375000 89.296875 33.636689
34.225000 87.718750 33.639977
34.425000 86.937500 33.641604
34.500000 85.937500 33.643687
34.525000 84.468750 33.646747
34.525000 83.484375 33.648798
34.650000 82.171875 33.651532
34.575000 81.250000 33.653453
34.500000 79.984375 33.656090
34.725000 78.500000 33.659182
34.950000 77.843750 33.660549
35.100000 76.734375 33.662861
35.325000 75.437500 33.665562
35.900000 74.593750 33.667320
34.600000 89.781250 33.787277
34.300000 88.375000 33.790207
34.400000 87.703125 33.791607
34.425000 86.453125 33.794211
34.450000 85.328125 33.796555
34.500000 83.750000 33.799843
34.550000 82.734375 33.801959
34.625000 81.390625 33.804758
34.600000 80.812500 33.805963
34.625000 79.609375 33.808469
34.775000 78.265625 33.811269
34.975000 77.375000 33.813124
35.200000 76.218750 33.815533
35.475000 74.687500 33.818723
34.300000 88.140625 33.951878
34.375000 87.140625 33.953962
34.400000 86.234375 33.955850
34.425000 85.375000 33.957640
34.500000 83.890625 33.960733
34.550000 82.953125 33.962686
34.575000 81.843750 33.964997
34.550000 80.656250 33.967471
34.600000 79.437500 33.970010
34.725000 78.296875 33.972386
34.950000 77.062500 33.974958
35.175000 76.218750 33.976716
35.475000 75.062500 33.979125
34.275000 88.421875 34.103986
34.375000 87.046875 34.106850
34.375000 86.265625 34.108478
34.425000 85.328125 34.110431
34.500000 84.125000 34.112938
34.550000 82.546875 34.116225
34.575000 81.296875 34.118829
34.550000 80.578125 34.120327
34.600000 79.484375 34.122606
34.725000 78.328125 34.125014
34.950000 76.968750 34.127846
35.175000 75.796875 34.130288
35.450000 74.734375 34.132501
34.275000 88.328125 34.266815
34.375000 87.437500 34.268671
34.400000 86.437500 34.270754
34.425000 85.187500 34.273358
34.500000 83.718750 34.276418
34.575000 83.015625 34.277883
34.600000 81.421875 34.281203
34.675000 80.734375 34.282635
34.675000 79.359375 34.285500
34.750000 78.203125 34.287909
34.950000 77.000000 34.290416
35.200000 76.078125 34.292336
35.450000 75.015625 34.294549
35.000000 89.531250 34.428748
34.450000 88.562500 34.430766
34.375000 87.390625 34.433207
34.400000 86.375000 34.435323
34.450000 84.656250 34.438904
34.550000 83.906250 34.440466
34.650000 82.359375 34.443689
34.575000 81.734375 34.444991
34.550000 80.015625 34.448572
34.625000 79.000000 34.450688
34.750000 78.078125 34.452608
34.975000 77.031250 34.454789
35.225000 75.765625 34.457426
35.575000 74.359375 34.460356
34.400000 86.765625 34.583951
34.475000 85.531250 34.586523
34.500000 84.437500 34.588801
34.525000 83.500000 34.590754
34.750000 82.578125 34.592675
34.725000 80.859375 34.596256
34.550000 80.265625 34.597492
34.700000 78.656250 34.600845
34.925000 77.734375 34.602766
35.150000 76.750000 34.604817
35.400000 75.453125 34.607519
35.825000 74.359375 34.609797
34.450000 88.718750 34.741827
34.275000 87.515625 34.744334
34.425000 86.640625 34.746157
34.450000 85.546875 34.748435
34.525000 84.171875 34.751300
34.575000 82.906250 34.753937
34.825000 82.375000 34.755044
34.800000 80.578125 34.758787
34.600000 80.046875 34.759894
34.725000 78.734375 34.762628
34.900000 77.218750 34.765786
35.200000 76.281250 34.767739
34.350000 89.656250 34.892632
34.200000 88.656250 34.894716
34.375000 87.437500 34.897254
34.400000 86.265625 34.899696
34.425000 84.890625 34.902560
34.500000 84.312500 34.903765
34.575000 83.203125 34.906076
34.775000 81.515625 34.909592
34.825000 80.609375 34.911480
34.675000 79.593750 34.913596
34.800000 78.015625 34.916883
35.025000 77.218750 34.918544
35.225000 76.046875 34.920985
35.475000 74.718750 34.923752
34.425000 89.046875 35.053625
34.350000 87.843750 35.056131
34.450000 86.828125 35.058247
34.475000 85.703125 35.060591
34.525000 84.328125 35.063456
34.575000 83.328125 35.065539
34.725000 82.250000 35.067785
34.650000 80.609375 35.071203
34.550000 79.718750 35.073058
34.850000 78.734375 35.075109
35.100000 77.281250 35.078136
35.250000 76.656250 35.079438
34.425000 89.484375 35.204854
34.275000 88.500000 35.206905
34.375000 87.390625 35.209216
34.400000 86.000000 35.212113
34.500000 84.875000 35.214457
34.575000 84.078125 35.216117
34.575000 82.921875 35.218526
34.850000 81.906250 35.220642
34.850000 80.234375 35.224125
34.725000 79.500000 35.225655
34.950000 78.015625 35.228747
35.250000 77.171875 35.230505
35.425000 75.671875 35.233630
35.700000 74.968750 35.235095
34.525000 89.625000 35.363599
34.375000 87.937500 35.367115
34.425000 86.828125 35.369426
34.525000 86.156250 35.370826
34.650000 84.937500 35.373365
34.650000 83.640625 35.376067
34.650000 82.437500 35.378573
34.850000 81.281250 35.380982
34.800000 80.078125 35.383489
34.775000 79.281250 35.385149
35.125000 78.046875 35.387720
35.325000 76.609375 35.390715
35.500000 75.515625 35.392994
35.900000 74.703125 35.394686
34.500000 89.109375 35.533533
34.275000 87.984375 35.535877
34.550000 87.343750 35.537211
34.600000 86.296875 35.539392
34.675000 84.937500 35.542224
34.800000 84.062500 35.544047
34.775000 82.765625 35.546749
34.725000 81.750000 35.548865
35.000000 80.093750 35.552315
35.175000 79.500000 35.553552
35.200000 78.312500 35.556026
35.375000 76.843750 35.559086
35.550000 75.828125 35.561202
35.925000 74.640625 35.563676
34.700000 89.109375 35.695622
34.475000 88.484375 35.696924
34.650000 87.437500 35.699105
34.650000 85.921875 35.702262
34.475000 84.968750 35.704248
34.500000 83.531250 35.707243
34.650000 82.578125 35.709229
34.700000 81.234375 35.712028
35.100000 80.359375 35.713851
35.350000 79.296875 35.716064
35.300000 77.968750 35.718832
35.375000 76.968750 35.720915
35.675000 75.703125 35.723552
36.250000 74.718750 35.725602
34.775000 89.265625 35.847076
34.625000 87.796875 35.850136
34.725000 87.093750 35.851601
34.825000 85.593750 35.854726
34.975000 84.484375 35.857037
34.700000 83.625000 35.858828
34.425000 82.328125 35.861529
34.700000 81.359375 35.863548
35.150000 79.921875 35.866542
35.400000 78.843750 35.868788
35.450000 77.468750 35.871653
35.600000 76.781250 35.873085
35.900000 75.484375 35.875787
34.750000 89.546875 36.001532
34.575000 88.093750 36.004560
34.675000 86.859375 36.007131
34.825000 86.078125 36.008759
34.875000 85.078125 36.010842
34.550000 83.468750 36.014195
34.450000 82.734375 36.015725
34.675000 81.578125 36.018134
35.075000 80.046875 36.021324
35.650000 78.906250 36.023700
35.725000 78.265625 36.025035
35.650000 76.843750 36.027997
35.900000 75.593750 36.030601
36.450000 74.468750 36.032945
34.775000 88.375000 36.161283
34.800000 87.656250 36.162781
34.925000 86.437500 36.165320
34.725000 85.250000 36.167794
34.475000 83.953125 36.170496
34.550000 82.796875 36.172904
34.625000 81.453125 36.175704
35.200000 78.406250 36.182052
35.775000 77.015625 36.184949
35.925000 76.250000 36.186544
36.300000 75.046875 36.189050
34.950000 89.140625 36.314877
34.900000 88.281250 36.316668
35.000000 87.187500 36.318946
34.775000 83.187500 36.327280
34.600000 82.359375 36.329005
34.850000 81.281250 36.331251
35.450000 77.875000 36.338347
35.975000 76.937500 36.340301
36.150000 75.906250 36.342449
34.775000 89.843750 36.470281
34.825000 88.484375 36.473114
35.050000 87.609375 36.474936
35.125000 86.421875 36.477410
35.400000 85.203125 36.479949
35.075000 83.875000 36.482716
34.750000 82.656250 36.485255
35.000000 81.593750 36.487469
36.325000 77.062500 36.496909
36.200000 75.890625 36.499351
36.600000 75.156250 36.500880
35.175000 88.968750 36.626547
35.075000 87.921875 36.628728
35.175000 86.953125 36.630747
34.950000 83.359375 36.638234
34.625000 82.515625 36.639991
36.575000 78.187500 36.649008
36.350000 76.703125 36.652101
36.400000 75.437500 36.654737
34.850000 88.937500 36.795817
35.025000 87.859375 36.798064
35.250000 86.890625 36.800082
34.975000 85.171875 36.803663
34.675000 84.359375 36.805355
34.925000 83.109375 36.807959
35.325000 81.953125 36.810368
35.750000 80.828125 36.812712
36.400000 79.750000 36.814958
36.675000 78.671875 36.817204
36.450000 77.359375 36.819938
36.400000 76.281250 36.822185
36.650000 75.234375 36.824366
34.925000 89.000000 36.956279
35.200000 87.718750 36.958948
35.325000 86.718750 36.961031
35.125000 85.140625 36.964319
34.825000 84.093750 36.966500
34.975000 83.000000 36.968779
35.450000 82.265625 36.970309
35.850000 80.796875 36.973369
36.375000 79.984375 36.975061
36.675000 78.640625 36.977861
36.525000 77.390625 36.980465
36.475000 76.375000 36.982581
36.675000 75.171875 36.985087
35.050000 88.859375 37.109620
35.275000 87.843750 37.111736
35.400000 86.546875 37.114437
35.375000 85.468750 37.116683
35.100000 84.187500 37.119353
35.075000 83.046875 37.121729
35.550000 81.984375 37.123943
36.075000 81.125000 37.125733
36.525000 79.640625 37.128825
36.650000 78.640625 37.130909
36.500000 77.203125 37.133904
36.600000 76.031250 37.136345
36.825000 74.875000 37.138754
35.125000 88.656250 37.268660
35.300000 88.000000 37.270027
35.450000 86.781250 37.272566
35.400000 85.484375 37.275268
35.075000 84.546875 37.277221
35.150000 83.031250 37.280379
35.625000 82.250000 37.282007
36.050000 80.875000 37.284871
36.600000 80.078125 37.286531
36.750000 78.406250 37.290014
36.525000 77.281250 37.292358
36.650000 76.609375 37.293758
36.875000 75.015625 37.297078
35.600000 89.359375 37.418823
35.525000 88.437500 37.420744
35.575000 87.375000 37.422958
35.525000 86.109375 37.425594
35.575000 84.906250 37.428101
35.425000 83.640625 37.430737
35.300000 82.453125 37.433212
35.825000 81.203125 37.435816
36.575000 80.171875 37.437964
36.850000 79.093750 37.440210
36.675000 77.890625 37.442717
36.700000 76.750000 37.445093
36.950000 75.562500 37.447567
35.825000 88.390625 37.582463
35.625000 87.640625 37.584025
35.425000 83.687500 37.592261
36.900000 79.453125 37.601083
36.800000 78.296875 37.603491
36.650000 77.046875 37.606096
36.875000 76.125000 37.608016
37.350000 74.906250 37.610555
35.875000 89.656250 37.744542
36.000000 88.406250 37.747146
35.700000 87.109375 37.749848
35.450000 83.734375 37.756879
35.425000 82.515625 37.759418
36.000000 81.890625 37.760720
36.575000 80.640625 37.763324
36.875000 79.359375 37.765994
36.775000 78.000000 37.768826
36.625000 76.937500 37.771039
36.850000 75.875000 37.773253
37.350000 74.656250 37.775792
35.875000 89.625000 37.900303
35.975000 88.656250 37.902321
35.700000 87.343750 37.905055
35.475000 84.156250 37.911696
35.450000 82.687500 37.914756
35.975000 81.859375 37.916481
36.600000 80.765625 37.918760
37.025000 79.859375 37.920648
36.850000 78.093750 37.924326
36.600000 77.437500 37.925693
36.850000 76.000000 37.928688
37.275000 74.765625 37.931260
35.700000 87.828125 38.060039
35.875000 86.890625 38.061992
35.975000 85.359375 38.065182
35.750000 84.453125 38.067070
35.500000 83.312500 38.069446
36.750000 78.812500 38.078821
36.625000 77.875000 38.080774
36.750000 76.609375 38.083411
37.075000 75.593750 38.085527
35.775000 88.718750 38.213805
35.850000 87.531250 38.216279
35.925000 86.578125 38.218265
36.000000 85.234375 38.221064
35.750000 84.328125 38.222952
35.425000 83.156250 38.225394
35.875000 82.171875 38.227444
36.650000 80.953125 38.229984
37.150000 79.781250 38.232425
36.925000 78.265625 38.235583
36.625000 77.625000 38.236917
36.850000 76.015625 38.240270
37.250000 75.156250 38.242060
35.725000 89.250000 38.369838
35.800000 87.843750 38.372767
35.900000 86.468750 38.375632
35.975000 85.734375 38.377162
35.750000 84.265625 38.380222
35.500000 83.265625 38.382305
35.825000 82.062500 38.384811
36.525000 81.125000 38.386765
37.075000 80.140625 38.388815
36.900000 78.656250 38.391908
36.650000 77.765625 38.393763
36.850000 76.265625 38.396888
37.225000 75.156250 38.399199
35.900000 89.390625 38.540130
35.750000 88.140625 38.542734
36.000000 86.765625 38.545599
36.150000 85.828125 38.547552
35.975000 84.562500 38.550189
35.675000 83.468750 38.552468
35.850000 82.343750 38.554811
36.425000 81.265625 38.557057
36.875000 80.093750 38.559499
36.750000 78.765625 38.562266
36.625000 77.781250 38.564317
36.800000 76.468750 38.567051
37.150000 75.421875 38.569232
36.550000 89.875000 38.695787
36.400000 88.437500 38.698782
36.025000 87.218750 38.701321
36.075000 85.890625 38.704088
36.350000 85.031250 38.705878
36.150000 83.640625 38.708776
35.950000 82.906250 38.710305
36.575000 81.890625 38.712421
37.000000 80.562500 38.715188
36.850000 79.218750 38.717988
36.700000 78.281250 38.719941
36.800000 76.859375 38.722903
36.475000 89.656250 38.851074
36.075000 88.484375 38.853515
36.025000 87.500000 38.855566
36.100000 86.468750 38.857715
36.200000 85.531250 38.859668
36.125000 84.359375 38.862109
36.000000 83.000000 38.864941
36.400000 81.953125 38.867122
36.850000 80.750000 38.869629
36.850000 79.562500 38.872102
36.650000 78.296875 38.874739
36.650000 77.093750 38.877246
36.900000 75.968750 38.879590
37.350000 74.968750 38.881673
36.700000 89.656250 39.012250
36.400000 88.531250 39.014594
36.025000 87.484375 39.016775
36.125000 86.406250 39.019021
36.225000 85.140625 39.021658
36.175000 84.078125 39.023871
36.250000 82.843750 39.026443
36.675000 81.515625 39.029210
36.925000 80.484375 39.031358
36.750000 79.250000 39.033930
36.675000 77.875000 39.036795
36.800000 76.937500 39.038748
36.600000 89.859375 39.164385
36.425000 88.796875 39.166599
36.075000 87.609375 39.169073
36.125000 86.218750 39.171970
36.200000 85.296875 39.173891
36.175000 84.171875 39.176234
36.275000 83.000000 39.178676
36.675000 81.875000 39.181019
36.825000 80.765625 39.183331
36.675000 79.437500 39.186098
36.600000 78.218750 39.188637
36.825000 76.968750 39.191241
37.175000 75.750000 39.193780
37.725000 75.109375 39.195114
36.000000 88.859375 39.326643
36.025000 87.703125 39.329052
36.100000 86.406250 39.331754
36.175000 85.218750 39.334228
36.200000 84.296875 39.336149
36.300000 82.984375 39.338883
36.600000 81.734375 39.341487
36.850000 80.968750 39.343082
36.775000 79.609375 39.345914
36.575000 78.437500 39.348356
36.525000 77.000000 39.351351
36.850000 76.343750 39.352718
37.450000 75.265625 39.354964
36.075000 88.906250 39.479517
36.050000 87.375000 39.482707
36.100000 86.640625 39.484237
36.175000 85.453125 39.486711
36.200000 84.359375 39.488990
36.300000 83.187500 39.491431
36.650000 82.046875 39.493807
36.900000 80.609375 39.496802
36.725000 79.546875 39.499016
36.525000 78.656250 39.500871
36.450000 77.031250 39.504256
36.775000 75.906250 39.506600
37.475000 74.984375 39.508521
36.350000 88.718750 39.640508
36.125000 87.546875 39.642950
36.175000 86.156250 39.645847
36.200000 85.171875 39.647897
36.225000 84.265625 39.649786
36.300000 82.765625 39.652910
36.650000 81.875000 39.654766
36.950000 80.843750 39.656914
36.775000 79.328125 39.660072
36.550000 78.250000 39.662318
36.625000 77.046875 39.664824
36.925000 76.218750 39.666550
37.600000 75.031250 39.669024
35.900000 88.906250 39.791934
35.975000 87.921875 39.793985
36.175000 87.140625 39.795612
36.275000 85.812500 39.798379
36.275000 84.406250 39.801309
36.300000 83.296875 39.803620
36.525000 82.500000 39.805280
36.825000 80.968750 39.808470
37.150000 80.062500 39.810358
36.975000 79.062500 39.812442
36.625000 77.765625 39.815144
36.875000 76.781250 39.817194
37.300000 75.468750 39.819929
36.350000 88.281250 39.957689
36.100000 87.265625 39.959804
36.175000 86.125000 39.962181
36.225000 85.312500 39.963873
36.250000 84.156250 39.966282
36.350000 82.593750 39.969537
36.650000 81.484375 39.971849
36.950000 80.453125 39.973997
36.800000 79.078125 39.976862
36.575000 78.046875 39.979010
36.775000 77.156250 39.980865
36.350000 88.593750 40.107631
36.125000 87.671875 40.109552
36.175000 86.234375 40.112547
36.225000 85.015625 40.115086
36.250000 83.734375 40.117755
36.325000 82.593750 40.120131
36.650000 81.750000 40.121889
36.950000 80.609375 40.124265
36.775000 79.234375 40.127130
36.550000 77.984375 40.129734
36.750000 76.875000 40.132045
37.125000 76.046875 40.133770
37.675000 74.843750 40.136277
36.225000 88.859375 40.270403
36.125000 87.703125 40.272812
36.175000 86.578125 40.275156
36.225000 85.109375 40.278215
36.300000 84.031250 40.280462
36.375000 82.968750 40.282675
36.650000 81.546875 40.285637
36.950000 80.500000 40.287818
36.775000 79.578125 40.289739
36.550000 78.515625 40.291952
36.725000 77.031250 40.295045
37.050000 76.312500 40.296542
37.525000 75.125000 40.299016
36.150000 86.703125 40.438176
36.250000 85.859375 40.439934
36.275000 84.687500 40.442375
36.300000 83.671875 40.444491
36.525000 82.234375 40.447486
36.775000 81.343750 40.449341
36.975000 80.140625 40.451848
36.850000 79.171875 40.453866
36.600000 77.765625 40.456796
36.775000 76.718750 40.458977
37.150000 75.531250 40.461451
36.125000 87.296875 40.585395
36.225000 86.187500 40.587706
36.275000 84.937500 40.590310
36.300000 83.484375 40.593338
36.375000 82.234375 40.595942
36.625000 81.593750 40.597276
36.875000 80.078125 40.600434
36.750000 79.203125 40.602257
36.625000 77.859375 40.605056
36.725000 76.703125 40.607465
37.100000 75.390625 40.610200
36.125000 86.750000 40.747056
36.250000 86.140625 40.748326
36.100000 84.812500 40.751092
36.100000 83.703125 40.753404
36.250000 82.265625 40.756398
36.500000 81.531250 40.757928
36.850000 80.140625 40.760826
36.725000 79.171875 40.762844
36.600000 78.015625 40.765253
36.750000 76.843750 40.767694
37.125000 75.640625 40.770200
36.025000 87.453125 40.899998
36.250000 86.328125 40.902342
35.925000 84.656250 40.905825
35.700000 83.531250 40.908169
36.000000 82.734375 40.909829
36.400000 81.312500 40.912791
36.850000 80.484375 40.914516
36.750000 79.359375 40.916860
36.550000 77.875000 40.919952
36.650000 76.609375 40.922589
36.925000 75.796875 40.924282
36.650000 89.390625 41.053580
36.475000 88.312500 41.055826
35.975000 87.046875 41.058463
36.025000 86.062500 41.060513
35.675000 84.406250 41.063964
36.700000 78.781250 41.075683
36.575000 77.906250 41.077506
36.650000 76.421875 41.080598
37.025000 75.531250 41.082453
35.875000 87.406250 41.227015
36.075000 86.343750 41.229228
36.575000 80.625000 41.241142
36.725000 79.453125 41.243583
36.525000 78.000000 41.246611
36.600000 77.000000 41.248694
36.900000 75.875000 41.251038
35.750000 87.250000 41.391114
35.500000 85.796875 41.394141
35.150000 85.015625 41.395769
35.425000 83.578125 41.398764
36.375000 80.531250 41.405111
36.750000 79.250000 41.407781
36.525000 78.062500 41.410254
36.575000 76.859375 41.412761
36.850000 75.468750 41.415658
35.775000 89.046875 41.536475
35.525000 87.828125 41.539014
35.625000 86.609375 41.541553
35.275000 85.234375 41.544418
34.975000 84.250000 41.546468
36.800000 78.656250 41.558122
36.525000 77.609375 41.560303
36.600000 76.593750 41.562419
36.925000 75.296875 41.565121
35.625000 89.093750 41.691217
35.500000 87.703125 41.694114
35.600000 86.546875 41.696523
35.275000 85.625000 41.698444
34.975000 84.000000 41.701829
35.025000 82.984375 41.703945
36.750000 78.515625 41.713255
36.475000 77.203125 41.715990
36.575000 76.109375 41.718268
36.850000 74.968750 41.720644
35.400000 87.718750 41.849363
35.400000 86.656250 41.851577
35.075000 85.171875 41.854669
34.800000 84.500000 41.856069
34.925000 83.062500 41.859064
36.750000 78.828125 41.867885
36.500000 77.718750 41.870196
36.575000 76.546875 41.872638
36.825000 75.031250 41.875795
35.275000 88.671875 42.016579
35.300000 87.734375 42.018532
35.275000 86.390625 42.021332
34.950000 85.218750 42.023773
36.650000 78.562500 42.037640
36.475000 77.218750 42.040440
36.425000 76.125000 42.042719
36.625000 75.234375 42.044574
35.575000 89.750000 42.169152
35.600000 88.812500 42.171105
35.275000 87.250000 42.174360
35.325000 86.421875 42.176085
34.875000 84.890625 42.179275
34.550000 83.796875 42.181554
34.950000 82.609375 42.184028
36.600000 78.359375 42.192882
36.450000 77.156250 42.195388
36.400000 75.953125 42.197895
36.775000 75.078125 42.199718
35.275000 89.171875 42.331930
35.150000 88.000000 42.334371
35.200000 86.859375 42.336748
35.225000 85.984375 42.338571
34.800000 84.406250 42.341858
34.525000 83.640625 42.343453
34.850000 82.375000 42.346090
36.475000 77.781250 42.355660
36.300000 76.718750 42.357874
36.275000 75.406250 42.360608
35.125000 88.796875 42.482371
35.075000 87.328125 42.485431
34.900000 86.031250 42.488132
34.600000 84.937500 42.490411
34.425000 83.796875 42.492788
34.550000 82.875000 42.494708
34.850000 81.921875 42.496694
36.300000 77.078125 42.506785
36.125000 75.968750 42.509096
36.425000 75.000000 42.511114
35.075000 88.859375 42.642899
34.850000 88.062500 42.644559
35.075000 87.125000 42.646512
35.175000 86.062500 42.648726
34.250000 83.156250 42.654781
34.450000 82.343750 42.656473
36.300000 77.609375 42.666337
36.075000 76.609375 42.668420
36.175000 75.328125 42.671089
35.150000 89.390625 42.792749
35.025000 88.531250 42.794539
34.975000 87.187500 42.797339
34.550000 85.781250 42.800269
34.250000 85.015625 42.801864
34.350000 83.812500 42.804370
34.375000 82.781250 42.806519
34.625000 81.078125 42.810067
36.125000 76.968750 42.818628
36.075000 75.859375 42.820939
36.550000 74.625000 42.823511
35.100000 89.796875 42.954732
34.975000 88.234375 42.957987
34.925000 87.156250 42.960233
34.625000 83.515625 42.967818
34.350000 82.703125 42.969511
34.600000 81.156250 42.972733
35.225000 77.812500 42.979700
35.750000 76.828125 42.981750
35.975000 75.703125 42.984094
36.450000 74.718750 42.986145
34.925000 89.156250 43.117621
34.700000 88.000000 43.120030
34.800000 87.109375 43.121886
34.575000 83.453125 43.129503
34.425000 82.078125 43.132367
34.725000 81.375000 43.133832
35.175000 80.250000 43.136176
35.425000 78.531250 43.139757
35.525000 77.812500 43.141254
35.700000 76.437500 43.144119
35.925000 75.328125 43.146430
34.675000 86.578125 43.274252
34.725000 85.765625 43.275945
34.875000 84.375000 43.278842
34.675000 83.687500 43.280274
34.425000 82.343750 43.283073
34.700000 81.296875 43.285254
35.025000 80.015625 43.287924
35.250000 79.000000 43.290040
35.400000 77.625000 43.292904
35.575000 76.625000 43.294988
35.875000 75.593750 43.297136
35.075000 89.578125 43.428747
34.600000 88.437500 43.431123
34.600000 87.015625 43.434086
34.650000 85.562500 43.437113
34.600000 84.609375 43.439099
34.600000 83.453125 43.441508
34.575000 82.125000 43.444275
34.725000 81.406250 43.445772
34.925000 79.984375 43.448734
35.000000 78.703125 43.451404
35.250000 78.093750 43.452673
35.425000 76.750000 43.455472
35.700000 75.609375 43.457849
36.300000 74.781250 43.459574
34.950000 89.078125 43.585326
34.575000 88.187500 43.587182
34.575000 86.968750 43.589721
34.600000 85.968750 43.591804
34.575000 84.906250 43.594018
34.575000 83.671875 43.596589
34.625000 82.343750 43.599356
34.825000 81.078125 43.601993
34.925000 80.281250 43.603653
34.900000 78.921875 43.606485
35.125000 78.093750 43.608210
35.325000 76.765625 43.610977
35.525000 75.718750 43.613158
36.075000 74.796875 43.615079
34.250000 88.640625 43.756850
34.300000 87.593750 43.759031
34.450000 86.406250 43.761505
34.525000 85.765625 43.762840
34.550000 84.375000 43.765737
34.550000 83.015625 43.768569
34.725000 82.015625 43.770653
34.750000 80.937500 43.772898
34.675000 79.859375 43.775145
34.850000 78.750000 43.777456
35.100000 77.687500 43.779669
35.300000 76.234375 43.782697
35.575000 74.984375 43.785301
34.575000 89.187500 43.913409
34.375000 87.734375 43.916436
34.425000 86.859375 43.918259
34.475000 85.796875 43.920472
34.500000 84.843750 43.922458
34.550000 83.468750 43.925323
34.625000 82.375000 43.927601
34.575000 81.296875 43.929847
34.575000 80.140625 43.932256
34.750000 79.171875 43.934275
34.975000 77.578125 43.937595
35.200000 76.640625 43.939548
35.425000 75.234375 43.942478
35.925000 74.265625 43.944496
34.300000 89.781250 44.069802
34.375000 89.031250 44.071365
34.300000 87.890625 44.073741
34.425000 86.828125 44.075955
34.500000 85.171875 44.079405
34.525000 84.609375 44.080577
34.525000 83.203125 44.083507
34.700000 81.828125 44.086371
34.725000 80.718750 44.088683
34.650000 79.609375 44.090994
34.825000 78.562500 44.093175
35.050000 77.750000 44.094867
35.275000 76.546875 44.097374
35.475000 74.984375 44.100629
34.325000 88.984375 44.223713
34.225000 88.281250 44.225178
34.400000 86.937500 44.227978
34.425000 85.906250 44.230126
34.475000 84.265625 44.233544
34.500000 83.078125 44.236018
34.650000 82.265625 44.237711
34.575000 81.187500 44.239957
34.475000 80.218750 44.241975
34.725000 78.500000 44.245556
34.925000 77.546875 44.247541
35.125000 76.328125 44.250081
35.350000 75.218750 44.252392
35.800000 74.546875 44.253791
34.425000 88.984375 44.386801
34.300000 88.265625 44.388298
34.400000 87.015625 44.390902
34.450000 86.156250 44.392693
34.500000 84.671875 44.395785
34.550000 83.578125 44.398064
34.625000 82.531250 44.400245
34.575000 81.109375 44.403207
34.550000 79.843750 44.405844
34.700000 79.203125 44.407178
34.825000 77.750000 44.410206
35.025000 76.609375 44.412582
35.325000 75.640625 44.414600
35.675000 74.546875 44.416879
34.400000 86.953125 44.541968
34.425000 86.000000 44.543954
34.475000 84.859375 44.546330
34.550000 83.625000 44.548902
34.625000 82.640625 44.550952
34.550000 81.031250 44.554305
34.500000 80.390625 44.555640
34.675000 78.984375 44.558569
34.800000 78.015625 44.560588
35.000000 77.015625 44.562671
35.275000 75.703125 44.565405
35.650000 74.328125 44.568270
34.600000 88.609375 44.701689
34.275000 87.796875 44.703382
34.425000 86.843750 44.705368
34.475000 85.500000 44.708168
34.500000 84.093750 44.711097
34.525000 82.953125 44.713474
34.825000 81.921875 44.715622
34.825000 80.703125 44.718161
34.625000 79.843750 44.719951
34.725000 78.390625 44.722979
34.875000 77.171875 44.725518
35.100000 76.218750 44.727503
34.825000 89.265625 44.862498
34.375000 88.203125 44.864711
34.375000 87.343750 44.866502
34.425000 86.156250 44.868975
34.475000 85.031250 44.871319
34.550000 83.828125 44.873826
34.650000 82.453125 44.876690
34.550000 81.609375 44.878448
34.500000 79.984375 44.881834
34.675000 78.875000 44.884145
34.825000 78.234375 44.885479
35.025000 76.890625 44.888279
35.225000 75.500000 44.891176
35.575000 74.343750 44.893585
34.375000 88.234375 45.020510
34.375000 87.046875 45.022984
34.400000 86.281250 45.024579
34.425000 84.984375 45.027281
34.550000 83.906250 45.029527
34.700000 82.562500 45.032327
34.575000 81.187500 45.035191
34.575000 80.234375 45.037177
34.700000 79.062500 45.039618
34.800000 77.781250 45.042288
35.025000 76.875000 45.044176
35.275000 75.531250 45.046975
35.575000 74.734375 45.048635
34.575000 89.859375 45.174209
34.250000 88.718750 45.176586
34.400000 87.250000 45.179646
34.400000 86.140625 45.181957
34.475000 85.031250 45.184268
34.575000 84.125000 45.186156
34.700000 83.062500 45.188370
34.675000 81.625000 45.191364
34.600000 80.203125 45.194326
34.625000 79.281250 45.196247
34.825000 78.046875 45.198819
35.050000 76.859375 45.201293
35.225000 76.031250 45.203018
35.525000 74.781250 45.205622
34.150000 88.359375 45.330894
34.375000 87.500000 45.332684
34.400000 85.921875 45.335972
34.425000 85.171875 45.337534
34.525000 83.859375 45.340269
34.650000 82.750000 45.342580
34.650000 81.812500 45.344533
34.625000 80.187500 45.347918
34.675000 79.468750 45.349416
34.825000 78.296875 45.351857
35.075000 77.218750 45.354103
35.275000 76.125000 45.356382
35.550000 74.468750 45.359832
34.600000 88.968750 45.485896
34.350000 87.718750 45.488501
34.400000 86.515625 45.491007
34.425000 85.750000 45.492602
34.475000 84.328125 45.495564
34.525000 83.515625 45.497257
34.675000 82.328125 45.499731
34.600000 81.156250 45.502172
34.475000 80.078125 45.504419
34.750000 78.968750 45.506730
35.025000 77.687500 45.509399
35.225000 76.500000 45.511873
35.350000 75.296875 45.514380
35.850000 74.062500 45.516951
34.400000 89.343750 45.642415
34.300000 88.156250 45.644889
34.375000 87.203125 45.646875
34.425000 85.781250 45.649837
34.475000 84.843750 45.651790
34.550000 83.406250 45.654785
34.650000 82.640625 45.656380
34.800000 81.171875 45.659440
34.725000 79.937500 45.662012
34.750000 78.906250 45.664160
35.050000 78.015625 45.666016
35.300000 76.609375 45.668945
35.400000 75.500000 45.671257
35.775000 74.468750 45.673405
34.375000 89.468750 45.795783
34.325000 88.734375 45.797313
34.400000 87.359375 45.800177
34.475000 86.500000 45.801968
34.550000 85.000000 45.805093
34.575000 84.156250 45.806850
34.675000 82.640625 45.810008
34.875000 81.859375 45.811636
34.800000 80.406250 45.814663
34.725000 79.046875 45.817495
35.000000 78.390625 45.818862
35.250000 77.062500 45.821629
35.425000 75.890625 45.824071
35.750000 74.687500 45.826577
34.625000 89.062500 45.967584
34.400000 87.921875 45.969960
34.450000 87.171875 45.971523
34.600000 86.265625 45.973411
34.675000 84.859375 45.976340
34.725000 83.812500 45.978521
34.725000 82.515625 45.981223
34.800000 81.562500 45.983209
34.825000 79.953125 45.986562
34.850000 79.250000 45.988027
35.075000 77.906250 45.990826
35.300000 76.625000 45.993495
35.575000 75.906250 45.994993
36.075000 74.609375 45.997694
34.375000 88.375000 46.125102
34.425000 87.609375 46.126697
34.625000 86.578125 46.128846
34.725000 85.281250 46.131547
34.800000 84.046875 46.134119
34.650000 83.046875 46.136202
34.575000 81.625000 46.139165
34.825000 80.875000 46.140727
34.975000 79.562500 46.143461
35.125000 78.593750 46.145480
35.400000 77.609375 46.147531
35.550000 76.453125 46.149939
35.825000 74.937500 46.153097
34.725000 88.906250 46.272920
34.650000 87.796875 46.275231
34.725000 86.671875 46.277575
34.775000 85.906250 46.279170
34.900000 84.328125 46.282458
34.650000 83.390625 46.284411
34.425000 82.312500 46.286657
34.700000 81.281250 46.288806
35.200000 80.031250 46.291410
35.425000 78.890625 46.293786
35.425000 77.437500 46.296813
35.600000 76.703125 46.298343
35.875000 75.343750 46.301175
34.425000 89.156250 46.436410
34.575000 87.859375 46.439111
34.775000 86.593750 46.441748
34.575000 83.015625 46.449203
34.450000 81.953125 46.451416
35.050000 78.781250 46.458024
35.575000 77.406250 46.460889
35.750000 76.312500 46.463167
36.025000 75.218750 46.465446
34.925000 88.953125 46.591645
34.650000 87.703125 46.594249
34.825000 86.593750 46.596560
34.625000 83.484375 46.603038
34.425000 82.265625 46.605577
34.700000 80.843750 46.608540
35.275000 80.046875 46.610200
35.625000 79.062500 46.612250
35.650000 77.875000 46.614724
35.800000 76.750000 46.617068
36.050000 75.390625 46.619900
34.700000 87.781250 46.750117
34.975000 86.828125 46.752103
34.750000 83.015625 46.760045
34.525000 82.078125 46.761998
36.025000 77.625000 46.771276
35.875000 76.250000 46.774140
36.200000 75.593750 46.775508
34.800000 87.765625 46.920392
34.975000 86.468750 46.923094
34.500000 85.515625 46.925079
34.350000 84.156250 46.927911
34.700000 83.234375 46.929832
34.700000 82.187500 46.932013
36.325000 77.515625 46.941746
36.075000 76.421875 46.944024
36.325000 75.390625 46.946173
35.200000 89.156250 47.074859
35.025000 87.796875 47.077691
35.125000 87.078125 47.079189
34.950000 83.484375 47.086675
34.775000 82.500000 47.088726
36.425000 77.593750 47.098948
36.275000 76.640625 47.100933
36.425000 75.593750 47.103114
35.150000 89.718750 47.227124
35.100000 88.437500 47.229793
35.200000 87.265625 47.232234
35.000000 83.796875 47.239461
36.500000 79.484375 47.248446
36.700000 78.187500 47.251147
36.425000 76.828125 47.253979
36.400000 75.750000 47.256225
36.925000 74.984375 47.257821
35.150000 88.859375 47.389817
35.225000 87.453125 47.392747
35.350000 86.468750 47.394798
35.400000 85.000000 47.397858
35.125000 84.218750 47.399485
35.075000 83.203125 47.401601
35.675000 82.000000 47.404108
36.025000 80.765625 47.406679
36.400000 79.546875 47.409219
36.650000 78.218750 47.411985
36.475000 77.390625 47.413711
36.475000 76.203125 47.416185
36.775000 75.046875 47.418593
35.150000 88.609375 47.542799
35.250000 87.656250 47.544785
35.375000 86.140625 47.547942
35.575000 85.500000 47.549277
35.300000 83.921875 47.552565
35.125000 83.093750 47.554290
35.650000 81.671875 47.557252
36.175000 80.781250 47.559108
36.650000 79.593750 47.561582
36.725000 78.421875 47.564023
36.550000 77.203125 47.566562
36.575000 76.140625 47.568776
36.800000 75.156250 47.570827
35.325000 88.546875 47.706738
35.425000 87.250000 47.709440
35.500000 86.468750 47.711068
35.850000 84.953125 47.714225
35.175000 82.796875 47.718718
35.700000 81.421875 47.721582
36.300000 80.640625 47.723210
36.800000 79.578125 47.725423
36.725000 78.203125 47.728288
36.575000 76.890625 47.731022
36.700000 75.921875 47.733041
37.050000 74.937500 47.735091
35.575000 89.546875 47.853324
35.550000 88.390625 47.855733
35.500000 87.031250 47.858565
35.300000 83.578125 47.865759
36.775000 79.093750 47.875102
36.675000 77.796875 47.877804
36.575000 77.125000 47.879203
36.850000 75.828125 47.881905
37.400000 74.796875 47.884053
35.400000 87.750000 48.020422
35.600000 86.890625 48.022212
35.475000 85.781250 48.024523
35.275000 84.218750 48.027779
35.300000 83.500000 48.029276
35.650000 82.156250 48.032076
36.175000 81.109375 48.034256
36.600000 80.062500 48.036438
36.700000 78.546875 48.039595
36.650000 77.843750 48.041060
36.750000 76.281250 48.044315
36.950000 75.484375 48.045975
35.525000 87.515625 48.183588
35.675000 86.500000 48.185704
35.700000 85.593750 48.187592
35.425000 84.265625 48.190359
35.275000 83.140625 48.192702
35.700000 81.906250 48.195274
36.375000 81.296875 48.196543
36.775000 79.750000 48.199766
36.700000 78.687500 48.201980
36.600000 77.328125 48.204812
36.725000 76.234375 48.207090
36.975000 75.515625 48.208588
35.800000 89.843750 48.327812
35.925000 88.484375 48.330645
35.775000 87.531250 48.332630
35.525000 83.765625 48.340475
35.450000 82.953125 48.342168
