24.050000 89.625000 0.123461
24.200000 88.500000 0.123461
24.200000 85.406250 0.123461
24.425000 83.968750 0.123461
24.750000 81.656250 0.123461
24.850000 79.656250 0.123461
24.200000 89.500000 0.280013
24.200000 88.265625 0.280013
24.425000 84.968750 0.280013
24.675000 83.671875 0.280013
24.775000 82.843750 0.280013
24.900000 81.375000 0.280013
24.325000 88.796875 0.436940
24.475000 87.625000 0.436940
24.650000 83.531250 0.436940
24.850000 81.953125 0.436940
24.850000 82.890625 0.436940
24.875000 81.625000 0.436940
24.175000 85.937500 0.590194
24.425000 86.750000 0.590194
24.675000 85.750000 0.590194
24.750000 83.390625 0.590194
24.850000 82.359375 0.590194
24.850000 82.375000 0.590194
24.900000 81.015625 0.590194
25.050000 79.968750 0.590194
24.075000 87.859375 0.760537
24.200000 86.671875 0.760537
24.350000 86.625000 0.760537
24.575000 86.328125 0.760537
24.675000 85.250000 0.760537
24.675000 84.078125 0.760537
24.750000 81.984375 0.760537
24.850000 79.750000 0.760537
24.175000 89.484375 0.915621
24.200000 88.250000 0.915621
24.425000 82.937500 0.915621
24.650000 83.828125 0.915621
24.750000 81.812500 0.915621
24.850000 79.562500 0.915621
24.050000 89.593750 1.075227
24.200000 88.421875 1.075227
24.175000 87.250000 1.075227
24.175000 84.171875 1.075227
24.200000 83.000000 1.075227
24.425000 82.343750 1.075227
24.650000 81.093750 1.075227
24.650000 79.500000 1.075227
24.175000 87.796875 1.230464
24.200000 86.625000 1.230464
24.200000 85.515625 1.230464
24.425000 82.062500 1.230464
24.650000 80.390625 1.230464
24.675000 77.750000 1.230464
23.775000 88.000000 1.394420
23.900000 86.828125 1.394420
23.900000 85.656250 1.394420
24.025000 86.187500 1.394420
24.150000 85.125000 1.394420
24.150000 83.968750 1.394420
24.175000 82.968750 1.394420
24.200000 79.953125 1.394420
24.400000 79.703125 1.394420
24.600000 79.343750 1.394420
23.750000 88.375000 1.542423
23.900000 86.796875 1.542423
23.900000 85.625000 1.542423
23.900000 84.453125 1.542423
23.900000 83.375000 1.542423
23.900000 82.218750 1.542423
23.900000 81.046875 1.542423
23.900000 81.500000 1.542423
23.575000 89.546875 1.703085
23.625000 87.609375 1.703085
23.625000 86.390625 1.703085
23.625000 84.156250 1.703085
23.625000 83.328125 1.703085
23.625000 82.171875 1.703085
23.625000 82.468750 1.703085
23.650000 80.468750 1.703085
23.625000 86.156250 1.855123
23.625000 85.000000 1.855123
23.625000 83.906250 1.855123
23.725000 82.750000 1.855123
23.850000 81.578125 1.855123
23.875000 80.406250 1.855123
23.900000 79.250000 1.855123
23.725000 88.359375 2.016771
23.900000 86.937500 2.016771
23.900000 85.765625 2.016771
23.900000 84.593750 2.016771
23.900000 83.531250 2.016771
23.900000 82.359375 2.016771
24.025000 82.890625 2.016771
24.150000 81.625000 2.016771
24.350000 80.656250 2.016771
24.575000 79.078125 2.016771
24.025000 89.531250 2.169923
24.150000 88.359375 2.169923
24.150000 87.187500 2.169923
24.150000 86.015625 2.169923
24.175000 85.140625 2.169923
24.400000 79.703125 2.169923
24.200000 88.234375 2.331948
24.200000 87.062500 2.331948
24.200000 84.031250 2.331948
24.425000 80.531250 2.331948
24.650000 79.359375 2.331948
24.150000 85.984375 2.481454
24.400000 82.546875 2.481454
24.650000 83.250000 2.481454
24.750000 80.531250 2.481454
24.850000 81.171875 2.481454
25.025000 78.812500 2.481454
24.650000 87.578125 2.645591
24.675000 86.140625 2.645591
24.750000 84.218750 2.645591
24.850000 81.843750 2.645591
24.850000 80.937500 2.645591
24.875000 81.671875 2.645591
24.625000 89.453125 2.807078
24.675000 88.234375 2.807078
24.675000 86.828125 2.807078
24.750000 84.093750 2.807078
24.875000 84.937500 2.807078
24.925000 83.796875 2.807078
24.950000 82.734375 2.807078
24.975000 81.531250 2.807078
24.375000 88.890625 2.956963
24.525000 87.718750 2.956963
24.700000 87.406250 2.956963
24.900000 86.187500 2.956963
24.925000 84.921875 2.956963
24.925000 83.796875 2.956963
24.950000 82.718750 2.956963
24.975000 81.406250 2.956963
24.850000 85.578125 3.117280
24.875000 86.390625 3.117280
24.925000 85.250000 3.117280
24.875000 83.968750 3.117280
24.900000 82.859375 3.117280
24.950000 81.578125 3.117280
24.750000 87.640625 3.269596
24.750000 85.281250 3.269596
24.875000 85.812500 3.269596
24.925000 84.640625 3.269596
24.950000 83.546875 3.269596
24.975000 82.125000 3.269596
24.975000 81.000000 3.269596
25.125000 80.031250 3.269596
24.625000 89.265625 3.430147
24.675000 88.296875 3.430147
24.675000 86.906250 3.430147
24.750000 83.937500 3.430147
24.875000 84.796875 3.430147
24.925000 83.562500 3.430147
24.925000 82.375000 3.430147
24.950000 81.281250 3.430147
25.000000 79.078125 3.430147
24.650000 85.796875 3.584607
24.650000 86.718750 3.584607
24.750000 84.500000 3.584607
24.850000 84.562500 3.584607
24.900000 83.343750 3.584607
24.925000 82.062500 3.584607
24.950000 81.046875 3.584607
25.100000 79.343750 3.584607
24.075000 87.640625 3.742749
24.225000 86.484375 3.742749
24.450000 85.109375 3.742749
24.775000 83.093750 3.742749
24.875000 81.328125 3.742749
24.850000 81.687500 3.742749
24.200000 88.234375 3.897703
24.200000 87.000000 3.897703
24.200000 85.921875 3.897703
24.200000 82.859375 3.897703
24.425000 82.437500 3.897703
24.650000 80.515625 3.897703
24.650000 81.281250 3.897703
24.000000 87.968750 4.054369
24.025000 86.546875 4.054369
24.150000 85.453125 4.054369
24.150000 84.281250 4.054369
24.175000 83.187500 4.054369
24.200000 80.250000 4.054369
24.425000 80.671875 4.054369
24.650000 79.796875 4.054369
23.750000 88.406250 4.225061
23.900000 86.562500 4.225061
23.900000 85.640625 4.225061
23.900000 84.484375 4.225061
23.900000 83.328125 4.225061
23.900000 82.156250 4.225061
23.900000 82.828125 4.225061
24.000000 81.109375 4.225061
23.600000 88.656250 4.380765
23.625000 87.656250 4.380765
23.625000 85.531250 4.380765
23.625000 84.359375 4.380765
23.625000 83.171875 4.380765
23.625000 83.828125 4.380765
23.750000 80.843750 4.380765
23.875000 80.421875 4.380765
23.275000 87.718750 4.537264
23.450000 85.171875 4.537264
23.625000 84.078125 4.537264
23.700000 82.906250 4.537264
23.825000 81.750000 4.537264
23.875000 80.578125 4.537264
23.900000 79.421875 4.537264
23.875000 86.812500 4.704209
23.900000 85.093750 4.704209
23.900000 83.875000 4.704209
23.900000 82.703125 4.704209
23.900000 81.546875 4.704209
24.025000 82.078125 4.704209
23.750000 87.953125 4.850048
23.900000 86.781250 4.850048
23.900000 85.593750 4.850048
23.900000 84.437500 4.850048
23.900000 83.390625 4.850048
24.025000 83.921875 4.850048
24.175000 83.000000 4.850048
24.425000 79.343750 4.850048
24.025000 87.421875 5.012710
24.175000 86.484375 5.012710
24.200000 85.390625 5.012710
24.175000 84.203125 5.012710
24.400000 80.656250 5.012710
24.800000 78.906250 5.012710
24.175000 87.656250 5.162364
24.175000 86.484375 5.162364
24.200000 85.390625 5.162364
24.425000 81.859375 5.162364
24.750000 78.843750 5.162364
25.025000 78.468750 5.162364
24.175000 87.609375 5.315737
24.175000 84.500000 5.315737
24.200000 83.437500 5.315737
24.525000 82.078125 5.315737
24.850000 80.656250 5.315737
25.025000 78.640625 5.315737
24.200000 86.140625 5.473180
24.450000 84.546875 5.473180
24.750000 81.484375 5.473180
24.875000 82.203125 5.473180
24.950000 81.250000 5.473180
24.975000 78.937500 5.473180
24.050000 89.968750 5.629036
24.200000 86.859375 5.629036
24.425000 85.468750 5.629036
24.750000 82.984375 5.629036
24.875000 83.062500 5.629036
24.950000 81.984375 5.629036
24.975000 80.703125 5.629036
25.100000 78.312500 5.629036
24.075000 87.812500 5.785395
24.200000 88.515625 5.785395
24.525000 83.500000 5.785395
24.875000 84.140625 5.785395
24.925000 82.859375 5.785395
24.925000 81.625000 5.785395
24.425000 83.546875 5.956224
24.750000 82.375000 5.956224
24.900000 83.359375 5.956224
24.925000 81.937500 5.956224
24.950000 80.812500 5.956224
25.100000 78.937500 5.956224
24.075000 87.890625 6.109486
24.225000 86.734375 6.109486
24.425000 83.312500 6.109486
24.775000 82.406250 6.109486
24.900000 83.109375 6.109486
24.925000 81.812500 6.109486
24.950000 80.546875 6.109486
25.075000 79.687500 6.109486
24.050000 89.546875 6.268071
24.400000 84.218750 6.268071
24.625000 85.015625 6.268071
24.650000 81.890625 6.268071
24.750000 81.281250 6.268071
24.850000 81.703125 6.268071
24.200000 87.703125 6.420484
24.375000 86.187500 6.420484
24.600000 84.718750 6.420484
24.625000 83.125000 6.420484
24.625000 81.625000 6.420484
24.650000 81.937500 6.420484
24.675000 80.578125 6.420484
24.825000 79.750000 6.420484
24.150000 88.078125 6.579628
24.150000 86.906250 6.579628
24.175000 86.046875 6.579628
24.175000 84.625000 6.579628
24.175000 83.703125 6.579628
23.900000 85.953125 6.730953
23.900000 84.781250 6.730953
23.900000 83.687500 6.730953
23.900000 84.468750 6.730953
23.925000 82.906250 6.730953
24.275000 77.984375 6.730953
23.625000 87.703125 6.893863
23.750000 87.875000 6.893863
23.875000 85.359375 6.893863
23.875000 84.750000 6.893863
23.900000 83.171875 6.893863
23.900000 82.000000 6.893863
23.900000 80.843750 6.893863
23.900000 81.437500 6.893863
23.225000 88.109375 7.057129
23.250000 86.812500 7.057129
23.250000 85.125000 7.057129
23.425000 84.406250 7.057129
23.625000 83.046875 7.057129
23.625000 81.125000 7.057129
23.625000 80.531250 7.057129
23.225000 88.109375 7.205625
23.250000 86.750000 7.205625
23.250000 85.203125 7.205625
23.275000 84.109375 7.205625
23.450000 81.718750 7.205625
23.725000 81.125000 7.205625
23.825000 79.390625 7.205625
23.475000 88.718750 7.368942
23.700000 88.296875 7.368942
23.900000 86.203125 7.368942
23.900000 84.828125 7.368942
23.900000 83.937500 7.368942
23.900000 82.437500 7.368942
23.900000 81.265625 7.368942
23.900000 80.109375 7.368942
23.725000 88.125000 7.521230
23.900000 86.953125 7.521230
23.900000 85.781250 7.521230
23.900000 84.609375 7.521230
24.025000 85.156250 7.521230
24.025000 82.296875 7.521230
24.025000 82.828125 7.521230
24.175000 81.890625 7.521230
24.175000 87.859375 7.681129
24.175000 86.687500 7.681129
24.150000 85.562500 7.681129
24.175000 84.625000 7.681129
24.200000 83.468750 7.681129
24.175000 88.296875 7.833439
24.200000 87.125000 7.833439
24.200000 86.031250 7.833439
24.200000 84.859375 7.833439
24.425000 81.453125 7.833439
24.200000 87.828125 7.992667
24.200000 86.656250 7.992667
24.200000 85.578125 7.992667
24.200000 84.343750 7.992667
24.200000 81.328125 7.992667
24.450000 82.000000 7.992667
24.750000 79.781250 7.992667
24.900000 79.890625 7.992667
24.050000 89.843750 8.145462
24.200000 88.687500 8.145462
24.175000 87.515625 8.145462
24.175000 86.343750 8.145462
24.200000 85.203125 8.145462
24.525000 80.109375 8.145462
24.875000 80.640625 8.145462
25.050000 78.359375 8.145462
24.300000 88.171875 8.325594
24.300000 85.984375 8.325594
24.300000 84.000000 8.325594
24.325000 83.937500 8.325594
24.650000 82.625000 8.325594
24.850000 80.515625 8.325594
24.875000 81.437500 8.325594
24.050000 89.500000 8.474203
24.200000 88.328125 8.474203
24.200000 87.156250 8.474203
24.425000 83.734375 8.474203
24.750000 81.453125 8.474203
24.875000 81.593750 8.474203
24.175000 88.062500 8.636459
24.175000 86.921875 8.636459
24.500000 82.593750 8.636459
24.850000 80.984375 8.636459
24.900000 81.359375 8.636459
24.200000 87.875000 8.787607
24.200000 86.656250 8.787607
24.200000 85.546875 8.787607
24.200000 84.484375 8.787607
24.425000 83.296875 8.787607
24.675000 81.984375 8.787607
24.675000 80.593750 8.787607
24.800000 79.359375 8.787607
24.200000 87.828125 8.948830
24.200000 86.656250 8.948830
24.200000 85.562500 8.948830
24.200000 84.328125 8.948830
24.425000 78.968750 8.948830
24.775000 79.968750 8.948830
24.150000 88.031250 9.101241
24.175000 87.109375 9.101241
24.200000 85.984375 9.101241
24.200000 84.828125 9.101241
24.200000 83.593750 9.101241
23.950000 89.250000 9.262158
24.000000 86.546875 9.262158
23.900000 85.375000 9.262158
23.900000 84.203125 9.262158
24.025000 84.828125 9.262158
24.150000 83.671875 9.262158
24.150000 82.500000 9.262158
24.175000 81.484375 9.262158
24.375000 78.484375 9.262158
24.650000 78.734375 9.262158
23.900000 86.312500 9.413765
23.900000 85.265625 9.413765
23.900000 84.062500 9.413765
23.900000 82.890625 9.413765
23.900000 81.734375 9.413765
23.900000 80.562500 9.413765
23.900000 81.062500 9.413765
23.100000 90.046875 9.576471
23.250000 88.781250 9.576471
23.250000 87.531250 9.576471
23.250000 85.953125 9.576471
23.425000 83.781250 9.576471
23.625000 82.609375 9.576471
23.700000 82.078125 9.576471
23.825000 80.296875 9.576471
23.875000 80.000000 9.576471
23.225000 86.625000 9.724207
23.225000 87.218750 9.724207
23.250000 85.500000 9.724207
23.250000 84.359375 9.724207
23.425000 82.687500 9.724207
23.625000 81.453125 9.724207
23.625000 79.718750 9.724207
23.625000 79.062500 9.724207
23.800000 79.234375 9.724207
23.675000 85.890625 9.888803
23.850000 84.718750 9.888803
23.850000 83.593750 9.888803
23.875000 83.000000 9.888803
23.900000 81.265625 9.888803
23.900000 80.093750 9.888803
23.900000 78.921875 9.888803
24.100000 78.093750 9.888803
23.875000 85.937500 10.052824
23.850000 84.750000 10.052824
23.850000 83.687500 10.052824
23.875000 82.531250 10.052824
23.900000 81.359375 10.052824
24.025000 81.890625 10.052824
24.150000 87.218750 10.200578
24.150000 86.046875 10.200578
24.175000 85.000000 10.200578
24.150000 83.828125 10.200578
24.400000 80.609375 10.200578
24.775000 78.421875 10.200578
24.200000 88.062500 10.364228
24.200000 86.890625 10.364228
24.175000 85.765625 10.364228
24.175000 84.578125 10.364228
24.425000 79.640625 10.364228
24.625000 77.968750 10.364228
24.050000 89.609375 10.519429
24.200000 88.437500 10.519429
24.200000 87.265625 10.519429
24.200000 84.218750 10.519429
24.225000 83.046875 10.519429
24.425000 81.890625 10.519429
24.650000 82.593750 10.519429
24.675000 81.546875 10.519429
24.200000 87.937500 10.675558
24.425000 84.625000 10.675558
24.675000 83.281250 10.675558
24.750000 80.390625 10.675558
24.875000 81.296875 10.675558
25.000000 78.265625 10.675558
24.050000 89.828125 10.832504
24.300000 87.640625 10.832504
24.425000 86.468750 10.832504
24.550000 86.203125 10.832504
24.750000 84.359375 10.832504
24.850000 82.531250 10.832504
24.875000 83.140625 10.832504
24.900000 81.921875 10.832504
24.425000 86.859375 10.986261
24.450000 85.875000 10.986261
24.650000 84.359375 10.986261
24.850000 82.515625 10.986261
24.850000 81.343750 10.986261
24.850000 82.328125 10.986261
24.875000 81.062500 10.986261
25.000000 79.609375 10.986261
24.050000 87.656250 11.142135
24.300000 87.406250 11.142135
24.550000 87.218750 11.142135
24.675000 86.171875 11.142135
24.750000 84.265625 11.142135
24.850000 82.546875 11.142135
24.850000 81.000000 11.142135
24.850000 79.593750 11.142135
24.425000 85.515625 11.296160
24.675000 84.703125 11.296160
24.675000 83.406250 11.296160
24.750000 81.078125 11.296160
24.750000 79.218750 11.296160
24.775000 79.187500 11.296160
24.050000 87.984375 11.458484
24.200000 88.718750 11.458484
24.175000 85.640625 11.458484
24.400000 84.296875 11.458484
24.675000 83.140625 11.458484
24.675000 81.546875 11.458484
24.675000 80.781250 11.458484
24.925000 79.781250 11.458484
24.200000 88.031250 11.621014
24.200000 84.937500 11.621014
24.425000 81.296875 11.621014
24.650000 80.375000 11.621014
24.650000 81.203125 11.621014
24.675000 79.218750 11.621014
24.200000 87.750000 11.769557
24.200000 86.578125 11.769557
24.175000 85.515625 11.769557
24.375000 80.078125 11.769557
24.625000 80.781250 11.769557
24.675000 79.250000 11.769557
24.150000 87.437500 11.934328
24.150000 86.265625 11.934328
24.150000 85.171875 11.934328
24.150000 84.000000 11.934328
24.150000 82.765625 11.934328
24.150000 81.562500 11.934328
24.375000 80.875000 11.934328
24.625000 79.687500 11.934328
23.900000 86.734375 12.089312
23.900000 85.234375 12.089312
23.900000 84.078125 12.089312
23.900000 82.906250 12.089312
23.900000 81.750000 12.089312
23.900000 80.562500 12.089312
23.900000 80.718750 12.089312
23.600000 86.109375 12.244895
23.600000 86.187500 12.244895
23.625000 84.953125 12.244895
23.625000 83.359375 12.244895
23.625000 81.437500 12.244895
23.625000 80.265625 12.244895
23.725000 79.093750 12.244895
23.825000 78.890625 12.244895
23.600000 87.968750 12.401274
23.625000 86.796875 12.401274
23.625000 85.640625 12.401274
23.725000 84.593750 12.401274
23.850000 83.843750 12.401274
23.850000 82.171875 12.401274
23.875000 81.421875 12.401274
23.900000 79.843750 12.401274
23.900000 86.375000 12.556692
23.900000 85.203125 12.556692
23.900000 84.125000 12.556692
23.900000 82.968750 12.556692
24.025000 83.484375 12.556692
24.150000 82.328125 12.556692
24.175000 81.187500 12.556692
24.000000 89.218750 12.711855
24.125000 88.312500 12.711855
24.150000 87.140625 12.711855
24.175000 86.203125 12.711855
24.175000 84.859375 12.711855
24.375000 79.671875 12.711855
24.175000 87.656250 12.883763
24.175000 86.484375 12.883763
24.150000 83.500000 12.883763
24.400000 83.359375 12.883763
24.650000 80.906250 12.883763
24.625000 80.000000 12.883763
24.625000 80.312500 12.883763
24.875000 79.750000 12.883763
24.425000 83.984375 13.038842
24.650000 84.750000 13.038842
24.650000 83.453125 13.038842
24.750000 80.359375 13.038842
24.850000 81.328125 13.038842
24.925000 79.703125 13.038842
24.225000 87.500000 13.200363
24.350000 87.437500 13.200363
24.575000 87.078125 13.200363
24.750000 85.000000 13.200363
24.850000 83.546875 13.200363
24.850000 81.750000 13.200363
24.850000 80.593750 13.200363
24.875000 81.437500 13.200363
24.750000 86.796875 13.351234
24.850000 84.765625 13.351234
24.850000 83.656250 13.351234
24.850000 84.640625 13.351234
24.850000 83.468750 13.351234
24.900000 82.109375 13.351234
24.950000 80.875000 13.351234
25.100000 79.312500 13.351234
24.925000 86.609375 13.513455
24.925000 85.515625 13.513455
24.925000 82.250000 13.513455
24.950000 83.234375 13.513455
24.975000 81.921875 13.513455
24.975000 80.531250 13.513455
25.175000 78.078125 13.513455
24.850000 85.859375 13.661456
24.850000 86.875000 13.661456
24.875000 85.640625 13.661456
24.875000 84.312500 13.661456
24.900000 83.171875 13.661456
24.950000 82.062500 13.661456
24.950000 80.781250 13.661456
25.100000 78.609375 13.661456
24.675000 87.656250 13.827888
24.750000 85.312500 13.827888
24.875000 85.656250 13.827888
24.900000 84.187500 13.827888
24.950000 83.234375 13.827888
24.975000 81.921875 13.827888
24.975000 80.687500 13.827888
25.175000 79.718750 13.827888
24.475000 89.859375 13.975487
24.675000 88.828125 13.975487
24.675000 87.406250 13.975487
24.775000 84.593750 13.975487
24.900000 85.359375 13.975487
24.875000 84.281250 13.975487
24.900000 83.015625 13.975487
24.975000 81.812500 13.975487
24.475000 87.453125 14.142297
24.650000 86.531250 14.142297
24.650000 85.375000 14.142297
24.650000 86.062500 14.142297
24.750000 84.078125 14.142297
24.850000 84.109375 14.142297
24.850000 82.843750 14.142297
24.875000 81.546875 14.142297
24.425000 84.000000 14.289637
24.650000 84.890625 14.289637
24.675000 83.593750 14.289637
24.750000 81.187500 14.289637
24.875000 81.437500 14.289637
24.200000 88.015625 14.453543
24.200000 86.828125 14.453543
24.425000 82.671875 14.453543
24.650000 80.375000 14.453543
24.650000 81.265625 14.453543
23.900000 87.859375 14.605276
23.900000 86.687500 14.605276
24.025000 87.203125 14.605276
24.150000 86.031250 14.605276
24.150000 84.921875 14.605276
24.175000 83.984375 14.605276
24.200000 80.890625 14.605276
24.425000 81.843750 14.605276
24.600000 79.921875 14.605276
24.750000 78.343750 14.605276
23.900000 86.765625 14.766296
23.900000 85.671875 14.766296
23.900000 84.171875 14.766296
23.900000 83.000000 14.766296
23.900000 81.843750 14.766296
23.900000 82.359375 14.766296
23.625000 87.218750 14.917983
23.625000 86.000000 14.917983
23.625000 84.140625 14.917983
23.625000 82.968750 14.917983
23.625000 83.515625 14.917983
23.775000 80.750000 14.917983
23.875000 79.453125 14.917983
23.275000 87.812500 15.081995
23.450000 85.265625 15.081995
23.625000 84.156250 15.081995
23.725000 83.406250 15.081995
23.850000 81.828125 15.081995
23.875000 80.406250 15.081995
23.875000 79.484375 15.081995
23.700000 88.140625 15.243206
23.875000 87.296875 15.243206
23.900000 85.921875 15.243206
23.900000 84.609375 15.243206
23.900000 83.531250 15.243206
23.900000 82.343750 15.243206
23.900000 81.187500 15.243206
24.025000 81.703125 15.243206
23.900000 86.171875 15.394304
23.900000 85.000000 15.394304
23.900000 83.609375 15.394304
23.925000 83.906250 15.394304
24.050000 83.453125 15.394304
23.900000 87.687500 15.555972
24.025000 88.203125 15.555972
24.150000 87.046875 15.555972
24.175000 86.000000 15.555972
24.200000 84.921875 15.555972
24.425000 79.484375 15.555972
24.200000 88.125000 15.703892
24.200000 86.953125 15.703892
24.200000 83.906250 15.703892
24.425000 82.343750 15.703892
24.750000 79.812500 15.703892
24.050000 89.734375 15.869088
24.175000 88.562500 15.869088
24.150000 83.203125 15.869088
24.400000 83.968750 15.869088
24.750000 81.296875 15.869088
24.850000 81.859375 15.869088
24.900000 80.437500 15.869088
25.125000 79.343750 15.869088
24.425000 84.671875 16.023203
24.750000 83.968750 16.023203
24.850000 81.468750 16.023203
24.850000 82.312500 16.023203
24.850000 81.093750 16.023203
24.900000 78.937500 16.023203
24.050000 89.734375 16.180772
24.175000 88.562500 16.180772
24.400000 83.203125 16.180772
24.750000 82.718750 16.180772
24.850000 82.875000 16.180772
24.850000 81.703125 16.180772
24.425000 83.859375 16.336399
24.750000 83.453125 16.336399
24.850000 83.593750 16.336399
24.900000 80.500000 16.336399
24.950000 81.203125 16.336399
24.975000 77.781250 16.336399
24.450000 85.390625 16.491596
24.750000 82.468750 16.491596
24.900000 83.093750 16.491596
24.950000 81.906250 16.491596
24.975000 80.671875 16.491596
25.150000 79.484375 16.491596
24.200000 87.578125 16.646880
24.425000 84.125000 16.646880
24.650000 83.453125 16.646880
24.750000 81.906250 16.646880
24.875000 82.703125 16.646880
24.925000 81.437500 16.646880
24.400000 84.343750 16.818716
24.625000 84.609375 16.818716
24.650000 81.750000 16.818716
24.775000 82.781250 16.818716
24.900000 81.453125 16.818716
24.050000 89.484375 16.976286
24.200000 88.312500 16.976286
24.400000 84.500000 16.976286
24.625000 82.218750 16.976286
24.650000 80.640625 16.976286
24.650000 81.484375 16.976286
23.700000 88.218750 17.118949
24.000000 88.734375 17.118949
24.150000 87.578125 17.118949
24.150000 86.406250 17.118949
24.175000 85.562500 17.118949
24.200000 84.328125 17.118949
24.425000 80.359375 17.118949
24.675000 79.718750 17.118949
23.750000 87.906250 17.289260
23.900000 86.750000 17.289260
23.900000 85.578125 17.289260
23.900000 84.406250 17.289260
23.900000 83.312500 17.289260
23.900000 83.921875 17.289260
24.025000 82.671875 17.289260
24.175000 81.593750 17.289260
24.375000 80.453125 17.289260
24.600000 77.500000 17.289260
23.675000 88.375000 17.448731
23.725000 86.953125 17.448731
23.725000 85.906250 17.448731
23.850000 84.609375 17.448731
23.875000 83.781250 17.448731
23.900000 82.359375 17.448731
23.900000 81.187500 17.448731
23.900000 81.890625 17.448731
23.100000 89.734375 17.601364
23.250000 88.562500 17.601364
23.250000 87.171875 17.601364
23.250000 85.640625 17.601364
23.425000 83.859375 17.601364
23.600000 83.859375 17.601364
23.625000 81.625000 17.601364
23.625000 81.500000 17.601364
23.650000 80.062500 17.601364
23.725000 77.625000 17.601364
23.100000 88.296875 17.766151
23.225000 88.843750 17.766151
23.250000 87.593750 17.766151
23.250000 86.281250 17.766151
23.275000 85.312500 17.766151
23.450000 82.531250 17.766151
23.625000 81.359375 17.766151
23.700000 80.531250 17.766151
23.850000 80.046875 17.766151
23.750000 87.812500 17.912185
23.850000 86.656250 17.912185
23.875000 86.046875 17.912185
23.900000 84.312500 17.912185
23.900000 83.218750 17.912185
23.900000 82.046875 17.912185
23.900000 80.890625 17.912185
23.900000 79.734375 17.912185
24.025000 80.250000 17.912185
24.275000 79.484375 17.912185
23.900000 86.187500 18.077323
23.900000 85.015625 18.077323
23.900000 83.968750 18.077323
23.900000 82.796875 18.077323
24.025000 83.328125 18.077323
24.150000 82.156250 18.077323
24.175000 79.296875 18.077323
24.400000 78.890625 18.077323
24.700000 78.968750 18.077323
24.150000 87.375000 18.225813
24.175000 86.437500 18.225813
24.175000 85.125000 18.225813
24.175000 84.187500 18.225813
24.425000 80.765625 18.225813
24.650000 77.593750 18.225813
24.150000 87.656250 18.389069
24.175000 86.468750 18.389069
24.200000 85.343750 18.389069
24.425000 80.593750 18.389069
24.650000 78.734375 18.389069
24.650000 77.562500 18.389069
24.200000 88.125000 18.538306
24.200000 86.953125 18.538306
24.200000 85.875000 18.538306
24.425000 82.562500 18.538306
24.750000 80.375000 18.538306
24.025000 90.000000 18.700095
24.175000 88.828125 18.700095
24.150000 87.656250 18.700095
24.175000 86.437500 18.700095
24.200000 83.406250 18.700095
24.525000 79.906250 18.700095
24.875000 80.734375 18.700095
25.050000 78.437500 18.700095
24.300000 88.203125 18.862875
24.200000 87.031250 18.862875
24.425000 83.500000 18.862875
24.750000 80.468750 18.862875
24.875000 81.453125 18.862875
24.050000 89.609375 19.017903
24.200000 88.437500 19.017903
24.175000 87.265625 19.017903
24.400000 83.812500 19.017903
24.750000 81.312500 19.017903
24.850000 79.593750 19.017903
24.025000 89.921875 19.174130
24.200000 88.765625 19.174130
24.175000 87.562500 19.174130
24.175000 84.500000 19.174130
24.200000 85.421875 19.174130
24.425000 84.234375 19.174130
24.675000 83.000000 19.174130
24.750000 80.328125 19.174130
24.875000 80.890625 19.174130
25.050000 77.328125 19.174130
24.175000 87.765625 19.330625
24.200000 84.671875 19.330625
24.425000 83.375000 19.330625
24.675000 81.984375 19.330625
24.750000 79.828125 19.330625
24.850000 78.484375 19.330625
24.200000 88.031250 19.483545
24.200000 86.859375 19.483545
24.200000 85.796875 19.483545
24.425000 80.375000 19.483545
24.650000 78.953125 19.483545
24.650000 78.296875 19.483545
24.200000 88.156250 19.641021
24.175000 86.734375 19.641021
24.175000 85.937500 19.641021
24.200000 84.765625 19.641021
24.425000 80.968750 19.641021
24.025000 85.890625 19.795284
24.025000 86.406250 19.795284
24.150000 85.343750 19.795284
24.150000 84.171875 19.795284
24.150000 83.000000 19.795284
24.375000 79.046875 19.795284
23.725000 87.734375 19.955678
23.875000 86.890625 19.955678
23.900000 85.390625 19.955678
23.900000 84.218750 19.955678
23.900000 83.062500 19.955678
23.900000 81.890625 19.955678
23.900000 80.703125 19.955678
23.900000 81.265625 19.955678
23.100000 88.343750 20.107115
23.225000 88.640625 20.107115
23.250000 87.171875 20.107115
23.425000 84.812500 20.107115
23.625000 83.843750 20.107115
23.625000 82.546875 20.107115
23.625000 81.375000 20.107115
23.625000 80.203125 20.107115
23.725000 79.031250 20.107115
23.875000 79.796875 20.107115
23.225000 88.312500 20.268186
23.250000 86.937500 20.268186
23.250000 85.421875 20.268186
23.250000 84.078125 20.268186
23.425000 82.734375 20.268186
23.625000 80.875000 20.268186
23.625000 81.375000 20.268186
23.675000 86.500000 20.431351
23.850000 84.921875 20.431351
23.850000 84.156250 20.431351
23.875000 83.421875 20.431351
23.900000 81.843750 20.431351
23.900000 80.343750 20.431351
23.900000 79.171875 20.431351
23.750000 87.812500 20.585222
23.875000 86.640625 20.585222
23.900000 85.468750 20.585222
23.900000 84.312500 20.585222
23.900000 83.234375 20.585222
23.900000 82.062500 20.585222
23.900000 80.906250 20.585222
24.025000 81.437500 20.585222
24.150000 87.640625 20.742285
24.150000 86.468750 20.742285
24.150000 85.359375 20.742285
24.150000 84.187500 20.742285
24.175000 83.265625 20.742285
24.425000 78.343750 20.742285
24.150000 87.937500 20.897696
24.150000 86.765625 20.897696
24.175000 85.718750 20.897696
24.200000 82.640625 20.897696
24.425000 79.140625 20.897696
24.650000 77.968750 20.897696
24.050000 89.656250 21.058948
24.200000 88.484375 21.058948
24.200000 87.328125 21.058948
24.425000 81.687500 21.058948
24.650000 82.703125 21.058948
24.675000 81.296875 21.058948
24.175000 85.890625 21.212713
24.175000 84.718750 21.212713
24.400000 83.375000 21.212713
24.650000 82.453125 21.212713
24.650000 83.218750 21.212713
24.750000 80.375000 21.212713
24.750000 79.203125 21.212713
24.900000 79.828125 21.212713
24.200000 86.125000 21.369094
24.425000 84.500000 21.369094
24.750000 82.562500 21.369094
24.875000 82.546875 21.369094
24.900000 81.421875 21.369094
24.925000 78.937500 21.369094
24.425000 86.875000 21.523432
24.625000 83.171875 21.523432
24.850000 81.312500 21.523432
24.850000 82.203125 21.523432
24.850000 81.156250 21.523432
25.000000 79.187500 21.523432
24.025000 88.015625 21.680441
24.175000 86.843750 21.680441
24.400000 87.734375 21.680441
24.675000 86.531250 21.680441
24.675000 85.125000 21.680441
24.675000 84.031250 21.680441
24.675000 82.453125 21.680441
24.750000 82.031250 21.680441
24.875000 80.718750 21.680441
25.100000 79.765625 21.680441
24.650000 85.000000 21.852550
24.650000 85.968750 21.852550
24.675000 84.703125 21.852550
24.675000 83.453125 21.852550
24.675000 81.734375 21.852550
24.675000 81.296875 21.852550
24.825000 79.750000 21.852550
24.425000 83.921875 22.008824
24.650000 82.421875 22.008824
24.650000 83.281250 22.008824
24.675000 81.921875 22.008824
24.750000 79.953125 22.008824
24.925000 79.578125 22.008824
24.200000 88.078125 22.162483
24.200000 84.984375 22.162483
24.425000 81.953125 22.162483
24.650000 80.359375 22.162483
24.650000 81.218750 22.162483
24.700000 79.671875 22.162483
24.200000 88.031250 22.323822
24.200000 86.875000 22.323822
24.200000 85.734375 22.323822
24.400000 80.828125 22.323822
24.625000 79.156250 22.323822
24.650000 79.906250 22.323822
23.775000 88.031250 22.475203
24.025000 88.546875 22.475203
24.025000 85.687500 22.475203
24.025000 86.218750 22.475203
24.150000 85.156250 22.475203
24.150000 83.984375 22.475203
24.175000 83.000000 22.475203
24.350000 81.468750 22.475203
24.550000 80.468750 22.475203
24.600000 79.187500 22.475203
23.700000 88.265625 22.637645
23.875000 86.718750 22.637645
23.900000 85.796875 22.637645
23.900000 84.625000 22.637645
23.900000 83.531250 22.637645
23.900000 82.359375 22.637645
23.900000 81.203125 22.637645
23.900000 81.718750 22.637645
23.450000 87.484375 22.788558
23.625000 85.984375 22.788558
23.625000 84.906250 22.788558
23.625000 83.421875 22.788558
23.625000 81.625000 22.788558
23.625000 80.328125 22.788558
23.650000 80.609375 22.788558
23.625000 86.281250 22.948473
23.625000 85.109375 22.948473
23.625000 84.062500 22.948473
23.725000 82.640625 22.948473
23.875000 82.984375 22.948473
23.900000 81.125000 22.948473
23.900000 79.390625 22.948473
23.725000 88.218750 23.100091
23.900000 86.906250 23.100091
23.900000 85.734375 23.100091
23.900000 84.562500 23.100091
23.900000 83.484375 23.100091
23.900000 82.312500 23.100091
23.900000 81.906250 23.100091
24.025000 81.562500 23.100091
24.350000 80.515625 23.100091
24.600000 78.421875 23.100091
24.025000 87.796875 23.264142
24.150000 86.625000 23.264142
24.150000 85.468750 23.264142
24.175000 84.531250 23.264142
24.425000 81.187500 23.264142
24.650000 79.421875 23.264142
24.200000 87.687500 23.424583
24.200000 86.453125 23.424583
24.425000 81.734375 23.424583
24.650000 79.937500 23.424583
24.650000 80.078125 23.424583
24.850000 78.437500 23.424583
24.050000 89.562500 23.580956
24.200000 86.531250 23.580956
24.200000 87.406250 23.580956
24.425000 84.968750 23.580956
24.650000 85.109375 23.580956
24.650000 81.890625 23.580956
24.750000 81.828125 23.580956
24.850000 79.796875 23.580956
24.450000 86.203125 23.735554
24.650000 87.015625 23.735554
24.750000 85.203125 23.735554
24.750000 84.656250 23.735554
24.675000 83.078125 23.735554
24.750000 80.468750 23.735554
24.875000 81.375000 23.735554
24.950000 79.437500 23.735554
24.675000 87.875000 23.896414
24.750000 85.468750 23.896414
24.875000 85.843750 23.896414
24.875000 82.578125 23.896414
24.850000 83.546875 23.896414
24.875000 82.265625 23.896414
24.950000 81.187500 23.896414
25.100000 79.828125 23.896414
24.375000 88.968750 24.046739
24.675000 88.890625 24.046739
24.900000 87.625000 24.046739
24.900000 86.500000 24.046739
24.875000 85.437500 24.046739
24.900000 82.125000 24.046739
24.950000 83.140625 24.046739
24.975000 81.765625 24.046739
24.850000 86.765625 24.204424
24.850000 85.281250 24.204424
24.850000 86.062500 24.204424
24.900000 84.687500 24.204424
24.950000 83.687500 24.204424
24.975000 82.484375 24.204424
24.975000 81.187500 24.204424
25.100000 79.343750 24.204424
24.475000 89.812500 24.359114
24.675000 88.843750 24.359114
24.675000 87.625000 24.359114
24.775000 86.625000 24.359114
24.875000 85.468750 24.359114
24.900000 84.171875 24.359114
24.925000 82.906250 24.359114
24.950000 81.921875 24.359114
24.675000 87.875000 24.518351
24.675000 86.390625 24.518351
24.775000 85.750000 24.518351
24.875000 84.578125 24.518351
24.900000 83.171875 24.518351
24.950000 82.140625 24.518351
24.975000 80.859375 24.518351
25.125000 79.468750 24.518351
24.350000 89.500000 24.672515
24.450000 88.437500 24.672515
24.650000 85.171875 24.672515
24.650000 85.953125 24.672515
24.750000 83.093750 24.672515
24.850000 81.796875 24.672515
24.850000 82.703125 24.672515
24.850000 81.406250 24.672515
24.300000 87.328125 24.830951
24.650000 84.515625 24.830951
24.650000 83.390625 24.830951
24.650000 84.218750 24.830951
24.675000 82.906250 24.830951
24.750000 79.625000 24.830951
24.875000 80.640625 24.830951
25.075000 79.093750 24.830951
24.175000 88.093750 24.997054
24.200000 86.906250 24.997054
24.425000 82.375000 24.997054
24.650000 82.546875 24.997054
24.675000 81.281250 24.997054
23.900000 87.843750 25.146806
23.900000 86.671875 25.146806
23.900000 87.093750 25.146806
24.025000 86.031250 25.146806
24.175000 85.140625 25.146806
24.200000 83.828125 25.146806
24.425000 82.515625 25.146806
24.650000 81.843750 25.146806
24.650000 79.984375 25.146806
24.825000 79.250000 25.146806
23.900000 85.890625 25.309685
23.900000 84.718750 25.309685
23.900000 83.640625 25.309685
23.900000 82.468750 25.309685
23.900000 83.171875 25.309685
23.925000 80.937500 25.309685
23.575000 88.781250 25.457185
23.625000 87.328125 25.457185
23.625000 86.218750 25.457185
23.625000 84.484375 25.457185
23.625000 83.375000 25.457185
23.625000 83.828125 25.457185
23.750000 80.812500 25.457185
23.875000 81.203125 25.457185
23.900000 80.671875 25.457185
24.100000 79.328125 25.457185
23.425000 86.718750 25.620486
23.625000 84.984375 25.620486
23.625000 83.906250 25.620486
23.625000 82.734375 25.620486
23.725000 81.984375 25.620486
23.875000 80.656250 25.620486
23.900000 79.250000 25.620486
23.675000 88.000000 25.777462
23.850000 86.828125 25.777462
23.875000 86.078125 25.777462
23.900000 84.828125 25.777462
23.900000 83.406250 25.777462
23.900000 82.234375 25.777462
23.900000 81.078125 25.777462
24.025000 81.609375 25.777462
23.900000 87.687500 25.933072
23.900000 86.515625 25.933072
23.900000 85.343750 25.933072
23.900000 84.187500 25.933072
23.900000 83.109375 25.933072
24.025000 83.625000 25.933072
24.400000 79.140625 25.933072
24.825000 79.187500 25.933072
24.125000 87.875000 26.086319
24.150000 86.703125 26.086319
24.150000 85.656250 26.086319
24.175000 84.718750 26.086319
24.425000 79.296875 26.086319
24.200000 87.796875 26.257541
24.200000 86.625000 26.257541
24.200000 83.640625 26.257541
24.450000 82.000000 26.257541
24.750000 78.718750 26.257541
24.875000 79.687500 26.257541
24.050000 89.953125 26.413871
24.200000 86.859375 26.413871
24.425000 84.296875 26.413871
24.650000 84.312500 26.413871
24.675000 82.781250 26.413871
24.800000 81.968750 26.413871
24.925000 80.687500 26.413871
25.100000 79.859375 26.413871
24.050000 87.765625 26.569848
24.225000 86.593750 26.569848
24.425000 84.875000 26.569848
24.650000 83.734375 26.569848
24.775000 82.984375 26.569848
24.850000 81.687500 26.569848
24.175000 89.640625 26.724037
24.200000 86.531250 26.724037
24.425000 83.750000 26.724037
24.775000 83.984375 26.724037
24.875000 82.703125 26.724037
24.850000 81.390625 26.724037
24.650000 85.328125 26.885295
24.750000 82.015625 26.885295
24.875000 83.031250 26.885295
24.925000 81.921875 26.885295
24.925000 80.656250 26.885295
25.100000 79.609375 26.885295
24.175000 86.140625 27.040459
24.400000 87.031250 27.040459
24.750000 84.843750 27.040459
24.750000 84.468750 27.040459
24.775000 83.734375 27.040459
24.900000 82.390625 27.040459
24.950000 81.250000 27.040459
24.975000 78.890625 27.040459
24.425000 85.265625 27.202021
24.650000 84.687500 27.202021
24.675000 83.140625 27.202021
24.800000 82.390625 27.202021
24.950000 81.234375 27.202021
24.975000 79.062500 27.202021
24.200000 85.828125 27.353462
24.400000 85.156250 27.353462
24.625000 84.921875 27.353462
24.625000 82.421875 27.353462
24.650000 83.140625 27.353462
24.800000 82.218750 27.353462
24.875000 81.062500 27.353462
25.000000 79.093750 27.353462
24.175000 88.156250 27.517588
24.175000 86.984375 27.517588
24.375000 85.890625 27.517588
24.600000 80.484375 27.517588
24.650000 81.015625 27.517588
23.875000 87.859375 27.664730
24.025000 88.375000 27.664730
24.150000 87.203125 27.664730
24.150000 86.031250 27.664730
24.175000 85.062500 27.664730
24.200000 83.890625 27.664730
24.425000 79.593750 27.664730
24.800000 77.796875 27.664730
23.900000 86.421875 27.823945
23.900000 85.265625 27.823945
23.900000 85.890625 27.823945
23.900000 84.843750 27.823945
24.025000 83.500000 27.823945
24.375000 80.390625 27.823945
24.800000 78.093750 27.823945
23.850000 85.921875 27.976298
23.875000 85.437500 27.976298
23.900000 83.781250 27.976298
23.900000 82.500000 27.976298
23.900000 81.328125 27.976298
23.900000 81.906250 27.976298
23.100000 90.046875 28.140052
23.225000 87.078125 28.140052
23.225000 87.437500 28.140052
23.250000 85.812500 28.140052
23.425000 85.000000 28.140052
23.625000 83.859375 28.140052
23.625000 82.062500 28.140052
23.625000 81.734375 28.140052
23.650000 80.296875 28.140052
23.225000 88.359375 28.301878
23.250000 87.031250 28.301878
23.250000 85.500000 28.301878
23.425000 83.125000 28.301878
23.450000 83.140625 28.301878
23.450000 80.796875 28.301878
23.700000 80.187500 28.301878
23.825000 78.718750 28.301878
24.025000 77.859375 28.301878
23.850000 86.234375 28.456969
23.850000 85.062500 28.456969
23.875000 84.484375 28.456969
23.900000 82.828125 28.456969
23.900000 81.656250 28.456969
23.900000 80.500000 28.456969
23.900000 79.328125 28.456969
23.875000 86.156250 28.612437
23.875000 84.984375 28.612437
23.900000 83.921875 28.612437
23.900000 82.750000 28.612437
23.900000 81.578125 28.612437
24.050000 82.359375 28.612437
24.525000 78.156250 28.612437
23.875000 87.843750 28.766697
24.025000 88.359375 28.766697
24.150000 87.203125 28.766697
24.150000 86.031250 28.766697
24.175000 85.171875 28.766697
24.200000 84.000000 28.766697
24.425000 80.296875 28.766697
24.700000 79.156250 28.766697
24.200000 87.765625 28.936361
24.200000 86.593750 28.936361
24.200000 85.562500 28.936361
24.200000 84.390625 28.936361
24.425000 79.468750 28.936361
24.675000 79.640625 28.936361
24.050000 89.656250 29.080247
24.200000 88.484375 29.080247
24.200000 87.328125 29.080247
24.200000 86.156250 29.080247
24.200000 85.062500 29.080247
24.425000 79.625000 29.080247
24.650000 80.046875 29.080247
24.875000 79.312500 29.080247
24.200000 87.734375 29.234214
24.200000 86.562500 29.234214
24.200000 83.562500 29.234214
24.450000 84.531250 29.234214
24.675000 83.093750 29.234214
24.675000 81.921875 29.234214
24.800000 81.078125 29.234214
24.925000 77.859375 29.234214
24.300000 87.984375 29.397410
24.200000 86.812500 29.397410
24.525000 82.000000 29.397410
24.875000 80.390625 29.397410
24.900000 81.234375 29.397410
24.925000 79.921875 29.397410
24.200000 88.140625 29.559540
24.200000 86.968750 29.559540
24.425000 83.593750 29.559540
24.750000 80.656250 29.559540
24.850000 81.421875 29.559540
24.025000 89.859375 29.707352
24.175000 88.703125 29.707352
24.175000 87.468750 29.707352
24.425000 84.046875 29.707352
24.675000 82.921875 29.707352
24.775000 80.156250 29.707352
24.900000 80.750000 29.707352
25.075000 79.000000 29.707352
24.200000 87.906250 29.869621
24.200000 86.734375 29.869621
24.425000 83.375000 29.869621
24.675000 82.140625 29.869621
24.775000 79.718750 29.869621
24.900000 77.796875 29.869621
