23.650000 30.828125 9.868422
23.175000 32.328125 9.868422
23.000000 34.234375 9.868422
22.975000 35.453125 9.868422
48.625000 40.625000 9.868422
48.075000 41.953125 9.868422
47.700000 42.890625 9.868422
47.375000 44.406250 9.868422
18.050000 51.390625 9.868422
18.000000 52.609375 9.868422
17.825000 56.281250 9.868422
17.725000 57.500000 9.868422
17.750000 58.734375 9.868422
17.750000 62.406250 9.868422
17.775000 63.625000 9.868422
17.800000 64.843750 9.868422
17.850000 68.421875 9.868422
17.875000 69.625000 9.868422
17.825000 70.843750 9.868422
17.950000 73.296875 9.868422
18.150000 74.515625 9.868422
18.150000 75.718750 9.868422
18.125000 77.203125 9.868422
18.475000 83.031250 9.868422
19.500000 87.921875 9.868422
19.975000 91.046875 9.868422
20.200000 92.750000 9.868422
22.600000 106.156250 9.868422
43.925000 140.828125 9.868422
43.925000 141.859375 9.868422
23.275000 31.765625 10.020556
23.050000 33.859375 10.020556
22.975000 35.078125 10.020556
23.075000 35.250000 10.020556
48.225000 41.203125 10.020556
47.800000 42.625000 10.020556
47.450000 43.906250 10.020556
17.875000 55.843750 10.020556
17.750000 57.062500 10.020556
17.750000 58.281250 10.020556
17.725000 63.171875 10.020556
17.700000 64.390625 10.020556
17.750000 67.984375 10.020556
17.875000 69.203125 10.020556
17.850000 70.421875 10.020556
17.900000 74.078125 10.020556
18.100000 75.296875 10.020556
18.125000 76.515625 10.020556
18.375000 80.171875 10.020556
18.700000 81.390625 10.020556
18.700000 82.609375 10.020556
21.425000 102.125000 10.020556
33.775000 128.171875 10.020556
43.900000 140.093750 10.020556
44.000000 141.484375 10.020556
23.275000 32.593750 10.175264
23.025000 32.281250 10.175264
22.950000 34.125000 10.175264
23.025000 36.265625 10.175264
48.200000 41.296875 10.175264
47.800000 42.750000 10.175264
47.450000 43.687500 10.175264
17.875000 55.843750 10.175264
17.725000 57.062500 10.175264
17.725000 58.296875 10.175264
17.725000 63.187500 10.175264
17.700000 64.421875 10.175264
17.725000 68.015625 10.175264
17.850000 69.234375 10.175264
17.825000 70.468750 10.175264
17.925000 74.125000 10.175264
18.150000 75.218750 10.175264
18.175000 76.562500 10.175264
18.375000 80.218750 10.175264
18.625000 81.453125 10.175264
18.650000 82.671875 10.175264
20.125000 90.015625 10.175264
21.500000 102.250000 10.175264
43.875000 140.500000 10.175264
43.875000 141.828125 10.175264
23.650000 30.968750 10.317090
23.150000 33.031250 10.317090
22.975000 33.421875 10.317090
22.950000 34.656250 10.317090
48.625000 40.484375 10.317090
48.075000 41.859375 10.317090
47.700000 43.156250 10.317090
47.375000 44.421875 10.317090
18.050000 51.375000 10.317090
18.000000 52.593750 10.317090
17.850000 57.484375 10.317090
17.750000 58.703125 10.317090
17.725000 62.375000 10.317090
17.750000 63.593750 10.317090
17.775000 64.828125 10.317090
17.825000 68.484375 10.317090
17.875000 69.703125 10.317090
17.825000 70.937500 10.317090
17.900000 73.375000 10.317090
18.100000 74.593750 10.317090
18.150000 75.812500 10.317090
18.125000 77.031250 10.317090
19.075000 81.921875 10.317090
19.425000 88.031250 10.317090
21.200000 99.765625 10.317090
43.950000 140.984375 10.317090
44.025000 141.953125 10.317090
23.400000 32.265625 10.470896
23.075000 32.375000 10.470896
22.950000 33.562500 10.470896
23.000000 35.421875 10.470896
48.375000 40.828125 10.470896
47.975000 42.125000 10.470896
47.625000 43.468750 10.470896
18.050000 51.796875 10.470896
18.025000 53.000000 10.470896
17.700000 57.906250 10.470896
17.650000 61.562500 10.470896
17.700000 62.796875 10.470896
17.775000 64.015625 10.470896
17.750000 67.687500 10.470896
17.850000 68.921875 10.470896
17.900000 70.140625 10.470896
17.950000 73.812500 10.470896
18.125000 75.031250 10.470896
18.175000 76.250000 10.470896
18.400000 82.375000 10.470896
19.325000 86.031250 10.470896
19.425000 87.250000 10.470896
20.775000 97.031250 10.470896
21.125000 100.703125 10.470896
33.775000 127.781250 10.470896
43.900000 139.937500 10.470896
43.950000 141.218750 10.470896
23.350000 30.843750 10.628120
23.075000 32.062500 10.628120
22.950000 34.828125 10.628120
23.000000 34.593750 10.628120
48.275000 41.171875 10.628120
47.875000 42.281250 10.628120
47.500000 43.609375 10.628120
17.725000 56.890625 10.628120
17.725000 58.109375 10.628120
17.675000 61.781250 10.628120
17.725000 63.000000 10.628120
17.725000 64.234375 10.628120
17.750000 70.328125 10.628120
17.950000 74.000000 10.628120
18.100000 75.218750 10.628120
18.175000 76.437500 10.628120
18.375000 80.109375 10.628120
18.700000 81.328125 10.628120
18.750000 82.546875 10.628120
21.500000 101.296875 10.628120
43.900000 140.328125 10.628120
43.950000 141.515625 10.628120
23.275000 30.968750 10.778140
23.025000 32.578125 10.778140
22.950000 33.828125 10.778140
23.025000 34.468750 10.778140
48.250000 41.187500 10.778140
47.875000 42.531250 10.778140
47.500000 43.703125 10.778140
17.725000 57.015625 10.778140
17.725000 58.234375 10.778140
17.675000 61.906250 10.778140
17.750000 63.140625 10.778140
17.800000 64.609375 10.778140
17.775000 67.953125 10.778140
17.900000 69.187500 10.778140
17.925000 70.406250 10.778140
17.950000 74.062500 10.778140
18.100000 75.281250 10.778140
18.175000 76.750000 10.778140
18.375000 80.171875 10.778140
18.700000 81.390625 10.778140
18.750000 82.609375 10.778140
21.500000 102.093750 10.778140
43.900000 140.328125 10.778140
43.900000 141.359375 10.778140
23.375000 31.484375 10.919458
23.075000 33.375000 10.919458
22.950000 33.718750 10.919458
22.975000 35.937500 10.919458
48.350000 41.187500 10.919458
47.950000 42.218750 10.919458
47.525000 43.421875 10.919458
18.050000 51.890625 10.919458
18.075000 53.109375 10.919458
17.700000 58.015625 10.919458
17.650000 61.671875 10.919458
17.700000 63.156250 10.919458
17.775000 64.125000 10.919458
17.800000 70.203125 10.919458
17.950000 73.859375 10.919458
18.125000 75.093750 10.919458
18.175000 76.312500 10.919458
18.350000 79.984375 10.919458
18.625000 81.203125 10.919458
18.675000 82.421875 10.919458
19.325000 86.078125 10.919458
19.425000 87.296875 10.919458
33.750000 127.640625 10.919458
43.900000 140.109375 10.919458
43.925000 141.531250 10.919458
23.350000 31.328125 11.071410
23.075000 33.578125 11.071410
22.950000 34.796875 11.071410
22.975000 34.500000 11.071410
48.325000 41.218750 11.071410
47.925000 42.531250 11.071410
47.525000 43.703125 11.071410
18.050000 51.937500 11.071410
18.075000 53.156250 11.071410
17.725000 56.843750 11.071410
17.725000 58.062500 11.071410
17.650000 61.718750 11.071410
17.725000 62.953125 11.071410
17.775000 64.171875 11.071410
17.800000 70.218750 11.071410
17.950000 73.890625 11.071410
18.125000 75.093750 11.071410
18.175000 76.328125 11.071410
18.450000 82.421875 11.071410
33.750000 127.578125 11.071410
43.875000 140.015625 11.071410
43.925000 141.265625 11.071410
23.325000 31.187500 11.229385
23.050000 33.656250 11.229385
22.950000 33.281250 11.229385
23.000000 36.109375 11.229385
48.275000 41.062500 11.229385
47.875000 42.453125 11.229385
47.500000 43.500000 11.229385
17.725000 56.859375 11.229385
17.725000 58.093750 11.229385
17.650000 61.750000 11.229385
17.725000 62.968750 11.229385
17.725000 64.203125 11.229385
17.750000 70.281250 11.229385
17.950000 73.921875 11.229385
18.125000 75.156250 11.229385
18.175000 76.375000 11.229385
18.375000 80.031250 11.229385
18.700000 81.250000 11.229385
18.750000 82.468750 11.229385
43.900000 140.187500 11.229385
43.900000 141.578125 11.229385
23.675000 31.625000 11.390103
23.200000 31.484375 11.390103
23.025000 34.078125 11.390103
22.975000 35.296875 11.390103
23.075000 36.781250 11.390103
48.900000 40.281250 11.390103
48.125000 41.750000 11.390103
47.750000 42.687500 11.390103
47.400000 44.203125 11.390103
18.050000 51.187500 11.390103
17.900000 57.312500 11.390103
17.725000 58.531250 11.390103
17.725000 62.187500 11.390103
17.750000 63.421875 11.390103
17.775000 64.640625 11.390103
17.800000 68.250000 11.390103
17.925000 69.468750 11.390103
17.875000 70.687500 11.390103
17.950000 74.343750 11.390103
18.150000 75.562500 11.390103
18.125000 76.781250 11.390103
18.475000 82.875000 11.390103
19.475000 87.765625 11.390103
20.000000 91.468750 11.390103
20.200000 92.687500 11.390103
20.500000 96.359375 11.390103
43.900000 140.781250 11.390103
43.925000 142.015625 11.390103
23.625000 30.156250 11.525404
23.125000 33.125000 11.525404
22.975000 34.343750 11.525404
22.975000 35.562500 11.525404
48.575000 40.593750 11.525404
48.050000 41.812500 11.525404
47.675000 43.250000 11.525404
18.050000 51.468750 11.525404
18.025000 52.687500 11.525404
17.700000 57.578125 11.525404
17.775000 58.796875 11.525404
17.800000 62.468750 11.525404
17.750000 63.687500 11.525404
17.825000 64.906250 11.525404
17.825000 67.359375 11.525404
17.850000 68.578125 11.525404
17.950000 69.796875 11.525404
18.000000 71.015625 11.525404
18.150000 75.906250 11.525404
18.000000 77.125000 11.525404
19.325000 83.906250 11.525404
19.325000 85.687500 11.525404
19.350000 86.906250 11.525404
19.250000 88.125000 11.525404
20.675000 96.671875 11.525404
21.200000 100.343750 11.525404
44.025000 138.640625 11.525404
43.900000 139.625000 11.525404
43.950000 140.875000 11.525404
44.000000 142.296875 11.525404
23.375000 31.937500 11.680198
23.075000 32.203125 11.680198
22.950000 33.312500 11.680198
22.975000 35.937500 11.680198
48.350000 40.890625 11.680198
47.925000 42.093750 11.680198
47.500000 43.640625 11.680198
17.725000 56.750000 11.680198
17.725000 57.968750 11.680198
17.650000 61.640625 11.680198
17.700000 62.859375 11.680198
17.750000 64.078125 11.680198
17.800000 70.156250 11.680198
17.950000 73.812500 11.680198
18.125000 74.906250 11.680198
18.175000 76.265625 11.680198
18.450000 82.375000 11.680198
21.500000 101.859375 11.680198
43.875000 140.171875 11.680198
43.950000 141.140625 11.680198
23.450000 30.781250 11.834704
23.100000 33.343750 11.834704
22.975000 33.687500 11.834704
23.000000 35.781250 11.834704
48.375000 40.843750 11.834704
48.000000 42.046875 11.834704
47.625000 43.437500 11.834704
18.050000 51.750000 11.834704
18.025000 52.968750 11.834704
17.725000 57.875000 11.834704
17.675000 61.546875 11.834704
17.700000 62.765625 11.834704
17.775000 64.000000 11.834704
17.800000 70.046875 11.834704
17.925000 73.703125 11.834704
18.100000 74.921875 11.834704
18.175000 76.156250 11.834704
18.425000 82.250000 11.834704
19.325000 85.906250 11.834704
19.375000 87.125000 11.834704
19.275000 88.343750 11.834704
20.450000 95.625000 11.834704
20.775000 96.843750 11.834704
21.125000 100.000000 11.834704
33.825000 127.828125 11.834704
43.875000 140.015625 11.834704
43.925000 141.203125 11.834704
49.300000 40.453125 11.989269
48.500000 41.843750 11.989269
47.850000 43.265625 11.989269
18.050000 51.468750 11.989269
18.000000 52.687500 11.989269
17.700000 57.578125 11.989269
17.775000 58.796875 11.989269
17.800000 62.468750 11.989269
17.750000 63.703125 11.989269
17.825000 64.921875 11.989269
17.825000 67.312500 11.989269
17.850000 68.531250 11.989269
17.925000 69.765625 11.989269
17.950000 70.968750 11.989269
18.075000 75.859375 11.989269
18.100000 77.078125 11.989269
19.075000 81.953125 11.989269
19.250000 88.062500 11.989269
20.300000 92.890625 11.989269
43.900000 139.437500 11.989269
43.950000 140.937500 11.989269
44.000000 142.093750 11.989269
18.300000 51.640625 12.160570
17.700000 55.203125 12.160570
17.575000 56.390625 12.160570
19.225000 79.781250 12.160570
19.075000 80.953125 12.160570
20.425000 96.687500 12.160570
20.700000 100.140625 12.160570
23.725000 112.765625 12.160570
24.225000 113.156250 12.160570
24.350000 113.453125 12.160570
24.475000 113.468750 12.160570
25.650000 124.390625 12.160570
25.650000 129.375000 12.160570
44.925000 135.500000 12.160570
44.350000 136.687500 12.160570
43.775000 137.921875 12.160570
43.350000 138.890625 12.160570
42.825000 139.968750 12.160570
42.275000 141.203125 12.160570
41.775000 142.187500 12.160570
41.350000 143.250000 12.160570
40.850000 144.406250 12.160570
40.300000 145.718750 12.160570
39.825000 146.671875 12.160570
39.275000 147.687500 12.160570
38.750000 149.171875 12.160570
59.625000 93.906250 12.315246
13.950000 132.703125 12.315246
13.125000 135.546875 12.315246
12.750000 136.125000 12.315246
12.425000 140.015625 12.315246
12.125000 140.671875 12.315246
11.850000 142.578125 12.315246
11.575000 143.734375 12.315246
11.300000 145.812500 12.315246
11.050000 147.359375 12.315246
10.800000 148.421875 12.315246
10.600000 149.921875 12.315246
12.700000 140.578125 13.929485
12.350000 140.328125 13.929485
12.025000 142.125000 13.929485
11.750000 142.046875 13.929485
11.450000 144.937500 13.929485
11.175000 145.500000 13.929485
10.900000 147.937500 13.929485
10.675000 148.250000 13.929485
34.850000 96.531250 14.083479
30.175000 90.531250 15.290464
30.325000 92.109375 15.290464
30.425000 93.562500 15.290464
30.525000 94.578125 15.290464
30.675000 95.343750 15.290464
10.250000 127.031250 15.290464
10.200000 126.859375 15.442488
10.225000 122.171875 15.901703
28.550000 100.062500 16.506926
28.575000 91.359375 16.646513
28.700000 92.281250 16.646513
28.825000 93.421875 16.646513
28.925000 95.328125 16.646513
29.075000 96.062500 16.646513
29.300000 98.406250 16.646513
28.600000 93.078125 16.801043
28.725000 94.390625 16.801043
28.850000 95.062500 16.801043
28.950000 95.921875 16.801043
29.125000 97.796875 16.801043
28.800000 100.062500 16.801043
35.725000 87.656250 16.955581
35.825000 89.093750 16.955581
28.600000 93.515625 16.955581
28.725000 95.000000 16.955581
28.950000 96.187500 16.955581
29.050000 97.125000 16.955581
29.125000 98.562500 16.955581
29.275000 100.078125 16.955581
29.000000 100.593750 16.955581
35.550000 87.750000 17.110179
35.550000 89.156250 17.110179
28.475000 92.093750 17.110179
28.600000 93.546875 17.110179
28.725000 94.578125 17.110179
28.850000 96.000000 17.110179
28.950000 96.828125 17.110179
29.100000 97.937500 17.110179
29.300000 99.250000 17.110179
35.200000 86.468750 17.249967
33.875000 89.328125 17.249967
28.600000 93.171875 17.249967
28.625000 93.906250 17.249967
28.725000 94.750000 17.249967
28.900000 96.140625 17.249967
28.975000 97.250000 17.249967
29.075000 99.046875 17.249967
29.275000 99.875000 17.249967
35.275000 86.578125 17.405037
33.975000 89.250000 17.405037
28.600000 92.343750 17.405037
28.650000 93.687500 17.405037
28.775000 94.984375 17.405037
28.875000 96.078125 17.405037
28.975000 97.718750 17.405037
29.125000 98.531250 17.405037
29.325000 100.265625 17.405037
35.000000 84.906250 17.558070
35.425000 85.875000 17.558070
35.450000 87.218750 17.558070
28.375000 92.140625 17.558070
28.475000 93.359375 17.558070
28.650000 94.984375 17.558070
28.750000 95.750000 17.558070
28.900000 97.187500 17.558070
29.025000 98.328125 17.558070
28.800000 99.453125 17.558070
10.325000 125.968750 17.558070
35.475000 86.250000 17.700155
28.425000 92.562500 17.700155
28.475000 94.078125 17.700155
28.650000 95.140625 17.700155
28.850000 96.015625 17.700155
28.950000 97.718750 17.700155
29.075000 98.156250 17.700155
28.975000 99.875000 17.700155
10.375000 126.093750 17.700155
35.550000 85.921875 17.856695
35.125000 87.328125 17.856695
34.400000 88.453125 17.856695
28.675000 91.750000 17.856695
28.700000 93.750000 17.856695
28.775000 94.656250 17.856695
28.925000 95.562500 17.856695
29.075000 96.328125 17.856695
29.225000 97.953125 17.856695
29.325000 99.375000 17.856695
35.700000 85.953125 18.012304
35.575000 87.484375 18.012304
35.000000 89.093750 18.012304
28.800000 91.906250 18.012304
28.900000 93.546875 18.012304
28.975000 95.000000 18.012304
29.100000 96.062500 18.012304
29.275000 97.187500 18.012304
29.400000 97.750000 18.012304
29.500000 99.015625 18.012304
10.325000 125.890625 18.012304
35.375000 84.828125 18.168033
35.050000 86.078125 18.168033
34.800000 87.562500 18.168033
28.700000 90.453125 18.168033
28.750000 91.859375 18.168033
28.800000 93.203125 18.168033
28.925000 94.125000 18.168033
29.025000 95.546875 18.168033
29.100000 97.125000 18.168033
29.300000 98.250000 18.168033
35.250000 84.765625 18.321106
34.950000 85.484375 18.321106
34.725000 87.078125 18.321106
28.550000 90.296875 18.321106
28.600000 91.734375 18.321106
28.775000 92.765625 18.321106
28.900000 93.718750 18.321106
28.975000 94.968750 18.321106
29.125000 96.031250 18.321106
29.250000 97.312500 18.321106
35.425000 85.843750 18.460495
35.425000 86.796875 18.460495
28.650000 91.734375 18.460495
28.750000 92.609375 18.460495
28.925000 94.453125 18.460495
29.050000 94.953125 18.460495
29.125000 96.562500 18.460495
29.225000 97.718750 18.460495
29.000000 99.156250 18.460495
35.500000 84.953125 18.617957
35.325000 86.375000 18.617957
34.725000 87.671875 18.617957
28.675000 91.562500 18.617957
28.750000 92.578125 18.617957
28.875000 93.406250 18.617957
28.925000 95.250000 18.617957
29.000000 96.140625 18.617957
29.200000 97.343750 18.617957
29.375000 98.437500 18.617957
10.375000 124.546875 18.617957
28.625000 90.703125 18.761156
28.750000 91.546875 18.761156
28.850000 92.781250 18.761156
28.925000 93.859375 18.761156
29.025000 95.593750 18.761156
29.175000 96.593750 18.761156
29.150000 98.281250 18.761156
10.300000 123.968750 18.761156
35.175000 84.062500 18.920237
35.075000 85.000000 18.920237
35.100000 86.390625 18.920237
28.550000 89.468750 18.920237
28.675000 90.640625 18.920237
28.750000 92.750000 18.920237
28.875000 93.156250 18.920237
29.000000 94.218750 18.920237
29.075000 96.125000 18.920237
29.275000 97.171875 18.920237
35.500000 85.453125 19.061461
35.075000 86.906250 19.061461
35.050000 87.984375 19.061461
28.675000 91.625000 19.061461
28.750000 92.703125 19.061461
28.875000 93.640625 19.061461
29.000000 95.203125 19.061461
29.100000 95.703125 19.061461
29.200000 97.171875 19.061461
29.375000 98.656250 19.061461
35.150000 86.578125 19.216455
35.175000 88.296875 19.216455
34.825000 89.015625 19.216455
28.875000 93.125000 19.216455
28.975000 93.750000 19.216455
29.100000 94.781250 19.216455
29.150000 96.156250 19.216455
29.275000 97.421875 19.216455
29.475000 98.875000 19.216455
29.600000 99.546875 19.216455
10.375000 126.328125 19.216455
35.525000 89.515625 19.377213
35.400000 90.875000 19.377213
29.050000 93.859375 19.377213
29.125000 95.484375 19.377213
29.250000 96.406250 19.377213
29.325000 97.421875 19.377213
29.500000 99.218750 19.377213
29.700000 100.390625 19.377213
29.800000 101.453125 19.377213
35.450000 89.312500 19.514796
35.475000 90.812500 19.514796
35.275000 91.718750 19.514796
29.175000 94.843750 19.514796
29.250000 96.359375 19.514796
29.275000 97.312500 19.514796
29.425000 98.437500 19.514796
29.575000 100.328125 19.514796
29.700000 101.703125 19.514796
29.700000 102.609375 19.514796
35.675000 88.046875 19.669219
35.525000 89.312500 19.669219
35.500000 90.750000 19.669219
29.050000 94.515625 19.669219
29.100000 94.781250 19.669219
29.175000 96.140625 19.669219
29.275000 97.703125 19.669219
29.425000 99.250000 19.669219
29.575000 99.906250 19.669219
29.700000 101.281250 19.669219
35.975000 88.109375 19.816786
28.900000 93.890625 19.816786
29.000000 95.281250 19.816786
29.200000 96.406250 19.816786
29.275000 98.375000 19.816786
29.325000 98.765625 19.816786
29.525000 100.765625 19.816786
29.375000 102.125000 19.816786
35.725000 90.984375 19.963600
28.975000 93.765625 19.963600
29.100000 95.015625 19.963600
29.225000 96.531250 19.963600
29.250000 98.140625 19.963600
29.325000 99.140625 19.963600
29.475000 100.437500 19.963600
29.700000 100.953125 19.963600
28.925000 95.062500 20.119505
29.025000 96.046875 20.119505
29.200000 97.687500 20.119505
29.375000 98.593750 20.119505
29.450000 99.156250 20.119505
29.550000 100.890625 20.119505
35.100000 84.453125 20.273859
35.150000 85.625000 20.273859
34.625000 87.000000 20.273859
28.650000 90.656250 20.273859
28.775000 92.406250 20.273859
28.875000 92.765625 20.273859
29.000000 94.156250 20.273859
29.100000 95.625000 20.273859
29.175000 96.218750 20.273859
29.425000 98.015625 20.273859
35.350000 85.203125 20.430263
35.275000 86.734375 20.430263
34.750000 87.640625 20.430263
28.750000 91.796875 20.430263
28.775000 92.703125 20.430263
28.875000 94.031250 20.430263
29.025000 94.593750 20.430263
29.125000 96.453125 20.430263
29.225000 96.828125 20.430263
29.450000 98.250000 20.430263
28.900000 92.984375 20.570344
28.975000 93.828125 20.570344
29.050000 94.937500 20.570344
29.125000 95.921875 20.570344
29.250000 97.437500 20.570344
29.400000 98.625000 20.570344
29.200000 99.953125 20.570344
35.250000 86.890625 20.725300
34.450000 88.125000 20.725300
28.675000 91.265625 20.725300
28.750000 92.593750 20.725300
28.875000 93.390625 20.725300
29.025000 95.156250 20.725300
29.100000 96.734375 20.725300
29.175000 97.578125 20.725300
29.325000 98.609375 20.725300
35.100000 84.500000 20.878253
35.075000 85.625000 20.878253
34.550000 86.953125 20.878253
28.625000 90.109375 20.878253
28.725000 91.046875 20.878253
28.825000 92.312500 20.878253
28.925000 93.546875 20.878253
29.050000 95.296875 20.878253
29.100000 96.531250 20.878253
29.275000 97.687500 20.878253
35.175000 82.390625 21.033649
35.150000 83.625000 21.033649
28.475000 88.765625 21.033649
28.525000 89.531250 21.033649
28.625000 91.187500 21.033649
28.775000 92.421875 21.033649
28.875000 93.109375 21.033649
29.000000 94.046875 21.033649
29.075000 96.000000 21.033649
35.200000 86.015625 21.173898
35.225000 86.781250 21.173898
28.700000 90.671875 21.173898
28.775000 91.593750 21.173898
28.750000 93.312500 21.173898
28.875000 94.218750 21.173898
29.075000 95.578125 21.173898
29.175000 96.562500 21.173898
29.275000 97.328125 21.173898
34.925000 87.671875 21.330073
28.650000 91.640625 21.330073
28.750000 92.687500 21.330073
28.825000 93.390625 21.330073
28.925000 95.156250 21.330073
29.075000 95.656250 21.330073
29.150000 97.218750 21.330073
29.300000 98.218750 21.330073
35.600000 87.312500 21.483653
28.625000 91.359375 21.483653
28.725000 92.750000 21.483653
28.800000 93.015625 21.483653
28.925000 94.906250 21.483653
29.050000 96.359375 21.483653
29.175000 96.828125 21.483653
29.300000 98.500000 21.483653
28.675000 91.906250 21.638802
28.750000 92.437500 21.638802
28.875000 93.609375 21.638802
29.025000 95.343750 21.638802
29.100000 96.687500 21.638802
29.175000 97.312500 21.638802
29.325000 98.265625 21.638802
28.675000 91.046875 21.784143
28.725000 92.031250 21.784143
28.800000 93.468750 21.784143
28.950000 94.656250 21.784143
29.025000 95.359375 21.784143
29.125000 97.296875 21.784143
29.350000 97.640625 21.784143
28.775000 91.625000 21.934554
28.850000 92.687500 21.934554
28.900000 94.046875 21.934554
29.050000 95.531250 21.934554
29.150000 96.015625 21.934554
29.250000 98.046875 21.934554
29.300000 99.156250 21.934554
28.725000 91.281250 22.089159
28.850000 92.500000 22.089159
28.850000 93.640625 22.089159
29.000000 95.234375 22.089159
29.100000 96.125000 22.089159
29.150000 97.406250 22.089159
29.225000 98.937500 22.089159
35.600000 86.406250 22.229409
35.325000 87.875000 22.229409
28.650000 91.953125 22.229409
28.725000 92.765625 22.229409
28.875000 93.421875 22.229409
29.000000 95.093750 22.229409
29.075000 96.031250 22.229409
29.250000 97.437500 22.229409
29.400000 98.343750 22.229409
28.700000 92.296875 22.385545
28.750000 92.687500 22.385545
28.900000 93.718750 22.385545
29.000000 94.890625 22.385545
29.100000 96.406250 22.385545
29.250000 97.562500 22.385545
28.875000 99.296875 22.385545
10.275000 125.531250 22.385545
28.550000 90.812500 22.538478
28.675000 91.984375 22.538478
28.800000 93.359375 22.538478
28.900000 95.031250 22.538478
29.025000 96.078125 22.538478
29.150000 97.406250 22.538478
28.825000 99.109375 22.538478
28.500000 90.453125 22.679958
28.600000 91.937500 22.679958
28.775000 92.953125 22.679958
28.875000 94.140625 22.679958
28.925000 95.281250 22.679958
29.000000 96.421875 22.679958
10.300000 124.546875 22.679958
28.675000 90.984375 22.835272
28.700000 92.687500 22.835272
28.775000 93.296875 22.835272
28.975000 94.765625 22.835272
29.075000 96.546875 22.835272
29.150000 97.546875 22.835272
29.225000 99.031250 22.835272
28.575000 89.953125 22.988923
28.650000 91.718750 22.988923
28.750000 93.203125 22.988923
28.900000 93.546875 22.988923
29.050000 95.546875 22.988923
29.125000 96.390625 22.988923
29.050000 98.093750 22.988923
35.725000 85.843750 23.145149
35.575000 87.265625 23.145149
28.575000 90.265625 23.145149
28.725000 92.125000 23.145149
28.800000 92.703125 23.145149
28.875000 94.343750 23.145149
29.000000 95.703125 23.145149
29.075000 96.750000 23.145149
29.175000 97.437500 23.145149
10.350000 124.281250 23.145149
35.950000 85.140625 23.284992
35.750000 86.750000 23.284992
34.900000 87.500000 23.284992
28.675000 91.734375 23.284992
28.850000 92.203125 23.284992
28.900000 93.453125 23.284992
29.000000 94.296875 23.284992
29.100000 96.484375 23.284992
29.250000 96.937500 23.284992
29.425000 98.250000 23.284992
35.950000 85.968750 23.437804
35.650000 87.093750 23.437804
28.725000 92.250000 23.437804
28.850000 92.968750 23.437804
29.000000 94.296875 23.437804
29.125000 95.234375 23.437804
29.225000 96.703125 23.437804
29.400000 97.671875 23.437804
36.075000 85.203125 23.593945
28.900000 91.828125 23.593945
28.975000 92.765625 23.593945
29.075000 94.140625 23.593945
29.200000 95.093750 23.593945
29.325000 96.812500 23.593945
29.425000 97.921875 23.593945
29.275000 98.906250 23.593945
36.000000 85.109375 23.733879
34.975000 87.578125 23.733879
28.900000 90.812500 23.733879
29.000000 92.406250 23.733879
29.050000 93.375000 23.733879
29.125000 94.609375 23.733879
29.250000 95.953125 23.733879
29.375000 97.562500 23.733879
29.400000 98.671875 23.733879
36.050000 85.218750 23.889533
34.800000 87.937500 23.889533
28.900000 91.687500 23.889533
29.000000 93.015625 23.889533
29.050000 94.406250 23.889533
29.175000 95.687500 23.889533
29.300000 96.406250 23.889533
29.425000 97.890625 23.889533
29.475000 98.796875 23.889533
36.150000 86.109375 24.044076
28.925000 92.312500 24.044076
29.050000 93.125000 24.044076
29.150000 94.359375 24.044076
29.250000 96.046875 24.044076
29.325000 97.015625 24.044076
29.450000 97.875000 24.044076
29.250000 99.078125 24.044076
36.125000 86.406250 24.195248
28.850000 92.265625 24.195248
28.950000 93.437500 24.195248
29.125000 94.390625 24.195248
29.225000 96.000000 24.195248
29.325000 97.343750 24.195248
29.450000 98.421875 24.195248
29.225000 99.812500 24.195248
36.050000 86.375000 24.340317
34.875000 88.953125 24.340317
29.000000 92.718750 24.340317
29.125000 94.062500 24.340317
29.175000 95.093750 24.340317
29.250000 95.671875 24.340317
29.350000 97.203125 24.340317
29.475000 98.140625 24.340317
29.500000 99.609375 24.340317
35.800000 86.015625 24.496678
35.650000 87.218750 24.496678
35.300000 88.796875 24.496678
28.900000 91.921875 24.496678
29.050000 93.578125 24.496678
29.175000 94.890625 24.496678
29.250000 95.515625 24.496678
29.300000 96.984375 24.496678
29.500000 97.593750 24.496678
29.675000 99.687500 24.496678
10.275000 125.312500 24.496678
36.025000 87.125000 24.651653
35.725000 88.171875 24.651653
28.875000 91.906250 24.651653
28.975000 92.875000 24.651653
29.075000 94.015625 24.651653
29.200000 94.937500 24.651653
29.300000 96.218750 24.651653
29.425000 97.890625 24.651653
29.550000 98.515625 24.651653
36.225000 85.953125 24.805162
29.050000 92.312500 24.805162
29.125000 93.359375 24.805162
29.350000 94.484375 24.805162
29.450000 95.656250 24.805162
29.600000 96.640625 24.805162
29.750000 98.359375 24.805162
36.125000 86.140625 24.944186
35.825000 87.703125 24.944186
35.275000 89.000000 24.944186
29.200000 91.703125 24.944186
29.275000 93.343750 24.944186
29.375000 94.921875 24.944186
29.525000 95.390625 24.944186
29.650000 96.718750 24.944186
29.750000 98.656250 24.944186
29.625000 99.312500 24.944186
35.950000 85.875000 25.099370
35.600000 86.796875 25.099370
35.200000 88.203125 25.099370
29.175000 92.000000 25.099370
29.250000 93.156250 25.099370
29.325000 94.625000 25.099370
29.425000 95.000000 25.099370
29.550000 96.468750 25.099370
29.675000 97.859375 25.099370
36.450000 86.187500 25.241431
29.025000 91.718750 25.241431
29.075000 92.656250 25.241431
29.175000 93.656250 25.241431
29.375000 94.515625 25.241431
29.500000 96.437500 25.241431
29.675000 97.031250 25.241431
29.800000 98.812500 25.241431
36.350000 86.109375 25.395316
29.100000 92.359375 25.395316
29.225000 93.656250 25.395316
29.425000 95.078125 25.395316
29.550000 95.937500 25.395316
29.675000 96.968750 25.395316
29.750000 98.421875 25.395316
35.675000 86.421875 25.549508
35.300000 87.718750 25.549508
29.025000 91.312500 25.549508
29.075000 92.875000 25.549508
29.175000 93.515625 25.549508
29.375000 95.187500 25.549508
29.500000 96.078125 25.549508
29.650000 97.234375 25.549508
29.775000 98.265625 25.549508
35.900000 86.265625 25.704792
35.600000 87.734375 25.704792
29.025000 90.984375 25.704792
29.100000 92.531250 25.704792
29.225000 94.078125 25.704792
29.400000 94.781250 25.704792
29.500000 96.000000 25.704792
29.625000 97.343750 25.704792
29.750000 98.750000 25.704792
36.025000 86.625000 25.843994
35.675000 87.859375 25.843994
29.175000 92.218750 25.843994
29.275000 93.625000 25.843994
29.375000 94.500000 25.843994
29.500000 96.078125 25.843994
29.625000 97.406250 25.843994
29.750000 98.843750 25.843994
10.375000 124.296875 25.843994
36.100000 86.328125 26.000334
35.750000 87.625000 26.000334
28.875000 91.125000 26.000334
29.175000 92.421875 26.000334
29.275000 93.812500 26.000334
29.375000 94.859375 26.000334
29.500000 96.109375 26.000334
29.650000 97.234375 26.000334
36.200000 86.359375 26.156701
35.975000 87.453125 26.156701
35.275000 88.906250 26.156701
29.175000 92.078125 26.156701
29.275000 93.109375 26.156701
29.400000 95.078125 26.156701
29.500000 95.906250 26.156701
29.625000 97.500000 26.156701
29.750000 98.218750 26.156701
29.625000 100.000000 26.156701
36.350000 86.281250 26.296625
29.250000 92.343750 26.296625
29.350000 93.703125 26.296625
29.375000 95.296875 26.296625
29.500000 96.171875 26.296625
29.650000 97.484375 26.296625
29.800000 98.625000 26.296625
36.350000 86.953125 26.450528
29.150000 91.656250 26.450528
29.275000 93.281250 26.450528
29.300000 94.250000 26.450528
29.450000 95.156250 26.450528
29.575000 96.359375 26.450528
29.700000 97.093750 26.450528
35.925000 86.078125 26.599177
35.675000 87.140625 26.599177
35.450000 88.125000 26.599177
29.200000 91.890625 26.599177
29.275000 93.109375 26.599177
29.350000 94.515625 26.599177
29.425000 95.218750 26.599177
29.625000 96.796875 26.599177
29.750000 97.687500 26.599177
29.825000 98.968750 26.599177
10.225000 125.843750 26.599177
36.000000 86.203125 26.748622
35.000000 88.531250 26.748622
29.200000 91.890625 26.748622
29.250000 93.359375 26.748622
29.350000 94.687500 26.748622
29.450000 95.734375 26.748622
29.575000 97.265625 26.748622
29.725000 97.531250 26.748622
29.600000 99.093750 26.748622
35.900000 85.609375 26.904891
34.575000 88.187500 26.904891
29.200000 91.250000 26.904891
29.250000 93.156250 26.904891
29.300000 93.750000 26.904891
29.450000 94.953125 26.904891
29.575000 96.000000 26.904891
29.675000 97.781250 26.904891
35.950000 86.671875 27.060516
34.925000 89.140625 27.060516
29.125000 92.687500 27.060516
29.250000 93.828125 27.060516
29.350000 95.500000 27.060516
29.475000 96.375000 27.060516
29.650000 97.062500 27.060516
29.775000 98.265625 27.060516
29.750000 99.703125 27.060516
36.250000 87.031250 27.200582
29.125000 93.421875 27.200582
29.225000 93.812500 27.200582
29.400000 95.265625 27.200582
29.475000 97.000000 27.200582
29.550000 97.656250 27.200582
29.700000 99.328125 27.200582
36.100000 87.265625 27.359784
35.950000 88.718750 27.359784
29.125000 92.078125 27.359784
29.200000 93.125000 27.359784
29.325000 94.984375 27.359784
29.375000 96.218750 27.359784
29.475000 97.140625 27.359784
29.625000 98.015625 27.359784
29.800000 99.281250 27.359784
35.875000 86.515625 27.497687
35.625000 87.843750 27.497687
34.700000 89.546875 27.497687
29.125000 92.843750 27.497687
29.275000 94.328125 27.497687
29.375000 95.031250 27.497687
29.450000 96.093750 27.497687
29.550000 97.140625 27.497687
29.700000 98.953125 27.497687
29.850000 100.375000 27.497687
36.250000 86.968750 27.651642
36.025000 88.281250 27.651642
29.025000 91.859375 27.651642
29.225000 92.984375 27.651642
29.300000 94.125000 27.651642
29.375000 95.359375 27.651642
29.500000 96.578125 27.651642
29.700000 97.593750 27.651642
29.800000 99.718750 27.651642
35.900000 86.484375 27.801529
35.600000 88.328125 27.801529
35.000000 89.250000 27.801529
29.150000 92.921875 27.801529
29.275000 94.328125 27.801529
29.350000 94.734375 27.801529
29.475000 96.359375 27.801529
29.575000 97.312500 27.801529
29.700000 98.812500 27.801529
29.775000 99.703125 27.801529
36.175000 86.953125 27.963970
35.975000 88.203125 27.963970
29.175000 92.843750 27.963970
29.250000 94.078125 27.963970
29.400000 95.234375 27.963970
29.475000 96.484375 27.963970
29.600000 98.250000 27.963970
29.725000 99.468750 27.963970
35.850000 86.500000 28.104950
35.850000 87.703125 28.104950
35.600000 88.828125 28.104950
29.175000 92.328125 28.104950
29.275000 93.562500 28.104950
29.375000 94.531250 28.104950
29.475000 95.968750 28.104950
29.600000 97.671875 28.104950
29.675000 98.562500 28.104950
29.775000 99.718750 28.104950
36.225000 87.234375 28.244689
36.025000 88.750000 28.244689
29.200000 93.390625 28.244689
29.275000 94.531250 28.244689
29.375000 96.140625 28.244689
29.500000 96.421875 28.244689
29.675000 98.500000 28.244689
29.775000 98.953125 28.244689
35.925000 86.468750 28.400468
35.825000 87.468750 28.400468
35.375000 88.937500 28.400468
29.175000 92.093750 28.400468
29.275000 93.843750 28.400468
29.300000 95.296875 28.400468
29.400000 96.500000 28.400468
29.575000 97.734375 28.400468
29.750000 98.828125 28.400468
29.850000 100.015625 28.400468
36.300000 87.203125 28.563090
36.200000 88.453125 28.563090
29.100000 93.312500 28.563090
29.175000 94.703125 28.563090
29.350000 95.718750 28.563090
29.475000 96.703125 28.563090
29.650000 98.437500 28.563090
29.775000 98.921875 28.563090
36.050000 87.156250 28.712549
34.950000 89.546875 28.712549
29.200000 92.671875 28.712549
29.300000 94.343750 28.712549
29.375000 95.328125 28.712549
29.450000 96.968750 28.712549
29.600000 97.906250 28.712549
29.725000 98.843750 28.712549
29.700000 99.781250 28.712549
35.050000 89.140625 28.851871
29.150000 92.203125 28.851871
29.250000 93.625000 28.851871
29.325000 95.218750 28.851871
29.450000 96.312500 28.851871
29.550000 97.562500 28.851871
29.675000 98.500000 28.851871
29.775000 100.265625 28.851871
34.575000 90.140625 29.007685
29.150000 92.953125 29.007685
29.250000 94.140625 29.007685
29.400000 95.406250 29.007685
29.525000 96.531250 29.007685
29.650000 97.625000 29.007685
29.725000 99.156250 29.007685
29.800000 100.328125 29.007685
35.425000 89.921875 29.148638
29.300000 93.156250 29.148638
29.350000 94.250000 29.148638
29.400000 96.000000 29.148638
29.525000 97.140625 29.148638
29.625000 98.640625 29.148638
29.725000 99.093750 29.148638
29.625000 100.906250 29.148638
35.425000 89.921875 29.302096
29.250000 93.718750 29.302096
29.350000 94.703125 29.302096
29.375000 96.281250 29.302096
29.500000 97.484375 29.302096
29.625000 97.953125 29.302096
29.800000 99.171875 29.302096
29.675000 100.578125 29.302096
29.050000 92.562500 29.456864
29.225000 93.437500 29.456864
29.275000 95.140625 29.456864
29.400000 95.593750 29.456864
29.550000 96.906250 29.456864
29.650000 98.828125 29.456864
29.750000 100.062500 29.456864
29.075000 91.890625 29.611237
29.225000 93.078125 29.611237
29.325000 95.031250 29.611237
29.425000 95.890625 29.611237
29.500000 97.468750 29.611237
29.625000 98.750000 29.611237
29.750000 99.234375 29.611237
29.075000 92.328125 29.751249
29.225000 93.390625 29.751249
29.325000 94.625000 29.751249
29.450000 96.140625 29.751249
29.550000 96.921875 29.751249
29.675000 98.593750 29.751249
29.825000 99.953125 29.751249
35.225000 89.546875 29.905749
29.175000 93.000000 29.905749
29.250000 94.296875 29.905749
29.325000 94.890625 29.905749
29.425000 96.187500 29.905749
29.550000 97.578125 29.905749
29.675000 98.812500 29.905749
29.825000 100.062500 29.905749
29.250000 92.906250 30.060044
29.350000 94.359375 30.060044
29.375000 95.968750 30.060044
29.500000 96.671875 30.060044
29.625000 97.984375 30.060044
29.725000 99.218750 30.060044
29.475000 101.125000 30.060044
29.000000 92.812500 30.209783
29.125000 93.500000 30.209783
29.175000 94.750000 30.209783
29.375000 96.359375 30.209783
29.525000 97.609375 30.209783
29.650000 98.343750 30.209783
29.800000 99.718750 30.209783
29.150000 92.406250 30.356057
29.250000 94.015625 30.356057
29.325000 95.312500 30.356057
29.425000 96.578125 30.356057
29.525000 97.546875 30.356057
29.675000 98.968750 30.356057
29.825000 100.000000 30.356057
35.400000 89.718750 30.509895
29.200000 93.312500 30.509895
29.300000 94.671875 30.509895
29.350000 95.734375 30.509895
29.475000 97.250000 30.509895
29.625000 97.671875 30.509895
29.750000 99.437500 30.509895
29.875000 100.421875 30.509895
29.250000 93.703125 30.651324
29.325000 94.781250 30.651324
29.425000 96.640625 30.651324
29.525000 97.812500 30.651324
29.650000 98.406250 30.651324
29.825000 99.718750 30.651324
29.975000 100.656250 30.651324
35.950000 92.015625 30.805696
29.375000 94.984375 30.805696
29.475000 96.625000 30.805696
29.600000 97.875000 30.805696
29.725000 98.703125 30.805696
29.825000 100.234375 30.805696
30.000000 100.890625 30.805696
30.125000 102.703125 30.805696
29.200000 95.109375 30.967428
29.425000 96.312500 30.967428
29.525000 97.218750 30.967428
29.650000 99.000000 30.967428
29.825000 99.937500 30.967428
30.000000 100.953125 30.967428
30.075000 102.468750 30.967428
35.775000 92.843750 31.102336
29.575000 96.500000 31.102336
29.675000 97.843750 31.102336
29.700000 98.593750 31.102336
29.825000 100.156250 31.102336
29.950000 101.562500 31.102336
30.050000 102.171875 31.102336
29.925000 103.750000 31.102336
35.925000 94.234375 31.258048
29.725000 97.265625 31.258048
29.750000 98.859375 31.258048
29.800000 100.265625 31.258048
29.975000 100.796875 31.258048
30.075000 101.875000 31.258048
30.150000 103.890625 31.258048
29.900000 104.968750 31.258048
29.650000 96.671875 31.413050
29.725000 98.640625 31.413050
29.800000 99.234375 31.413050
30.000000 100.390625 31.413050
30.125000 102.125000 31.413050
30.225000 103.234375 31.413050
30.325000 104.437500 31.413050
35.900000 94.171875 31.568200
29.700000 97.671875 31.568200
29.750000 98.687500 31.568200
29.800000 100.140625 31.568200
29.950000 101.218750 31.568200
30.050000 102.406250 31.568200
30.150000 103.156250 31.568200
29.875000 104.484375 31.568200
35.775000 94.234375 31.710038
29.750000 96.875000 31.710038
29.875000 99.359375 31.710038
29.950000 101.265625 31.710038
30.050000 101.812500 31.710038
30.150000 103.218750 31.710038
30.050000 104.328125 31.710038
35.875000 93.250000 31.863570
29.525000 96.562500 31.863570
29.600000 98.187500 31.863570
29.725000 98.781250 31.863570
29.825000 100.203125 31.863570
29.950000 101.546875 31.863570
30.050000 102.906250 31.863570
30.200000 103.781250 31.863570
36.000000 92.734375 32.019444
29.500000 95.562500 32.019444
29.550000 97.078125 32.019444
29.650000 98.781250 32.019444
29.800000 99.406250 32.019444
29.975000 100.359375 32.019444
30.100000 101.875000 32.019444
30.200000 102.781250 32.019444
35.575000 91.781250 32.160773
29.475000 94.937500 32.160773
29.550000 96.453125 32.160773
29.600000 98.093750 32.160773
29.775000 98.687500 32.160773
29.875000 100.578125 32.160773
29.950000 101.343750 32.160773
29.850000 103.109375 32.160773
35.750000 90.640625 32.314943
29.325000 94.515625 32.314943
29.400000 95.171875 32.314943
29.500000 97.187500 32.314943
29.600000 97.531250 32.314943
29.775000 99.531250 32.314943
29.875000 99.921875 32.314943
29.950000 101.765625 32.314943
10.300000 128.250000 32.314943
35.375000 91.093750 32.470049
29.300000 94.000000 32.470049
29.350000 95.703125 32.470049
29.500000 96.578125 32.470049
29.625000 97.906250 32.470049
29.725000 98.890625 32.470049
29.875000 100.703125 32.470049
29.875000 101.687500 32.470049
35.350000 90.875000 32.615752
29.350000 94.093750 32.615752
29.375000 96.187500 32.615752
29.500000 96.546875 32.615752
29.625000 97.703125 32.615752
29.775000 99.328125 32.615752
29.925000 100.703125 32.615752
29.950000 101.656250 32.615752
29.400000 94.328125 32.767481
29.525000 95.593750 32.767481
29.575000 97.203125 32.767481
29.625000 97.843750 32.767481
29.725000 99.687500 32.767481
29.900000 100.953125 32.767481
29.875000 102.171875 32.767481
35.725000 90.921875 32.920280
29.400000 94.312500 32.920280
29.525000 96.062500 32.920280
29.600000 97.265625 32.920280
29.650000 98.078125 32.920280
29.800000 99.828125 32.920280
29.975000 100.468750 32.920280
30.050000 101.437500 32.920280
36.275000 89.640625 33.058903
36.275000 91.015625 33.058903
29.300000 94.828125 33.058903
29.475000 95.406250 33.058903
29.575000 97.234375 33.058903
29.650000 97.750000 33.058903
29.775000 99.625000 33.058903
29.875000 100.062500 33.058903
30.075000 101.156250 33.058903
29.500000 95.718750 33.216769
29.525000 96.984375 33.216769
29.600000 97.765625 33.216769
29.725000 98.812500 33.216769
29.850000 99.734375 33.216769
29.950000 101.218750 33.216769
29.600000 102.718750 33.216769
36.375000 90.234375 33.375810
36.200000 91.578125 33.375810
29.450000 95.578125 33.375810
29.575000 96.640625 33.375810
29.750000 97.921875 33.375810
29.925000 99.843750 33.375810
30.050000 101.656250 33.375810
30.200000 102.546875 33.375810
36.025000 92.656250 33.516033
29.550000 96.093750 33.516033
29.650000 96.968750 33.516033
29.775000 98.765625 33.516033
29.875000 99.875000 33.516033
29.950000 101.265625 33.516033
30.125000 102.546875 33.516033
30.225000 103.187500 33.516033
10.275000 131.609375 33.516033
36.425000 91.000000 33.670541
36.300000 91.968750 33.670541
29.450000 96.109375 33.670541
29.550000 96.593750 33.670541
29.650000 97.671875 33.670541
29.850000 99.031250 33.670541
29.950000 100.828125 33.670541
30.075000 102.031250 33.670541
30.275000 102.640625 33.670541
10.200000 132.468750 33.670541
35.950000 92.640625 33.819279
29.650000 96.234375 33.819279
29.750000 97.562500 33.819279
29.975000 99.828125 33.819279
30.050000 101.546875 33.819279
30.225000 102.687500 33.819279
30.400000 103.843750 33.819279
10.650000 132.031250 33.819279
10.350000 133.390625 33.819279
36.050000 92.375000 33.967398
29.600000 96.093750 33.967398
29.675000 97.421875 33.967398
29.775000 98.687500 33.967398
29.950000 100.031250 33.967398
30.125000 100.453125 33.967398
30.275000 101.687500 33.967398
30.425000 103.171875 33.967398
10.525000 133.421875 33.967398
10.250000 133.796875 33.967398
29.375000 95.750000 34.123136
29.625000 97.421875 34.123136
29.650000 98.265625 34.123136
29.850000 99.281250 34.123136
30.100000 100.312500 34.123136
30.250000 102.343750 34.123136
30.300000 102.937500 34.123136
10.600000 134.562500 34.123136
10.325000 135.781250 34.123136
29.575000 96.515625 34.276963
29.650000 97.640625 34.276963
29.825000 98.890625 34.276963
29.925000 100.093750 34.276963
30.075000 101.109375 34.276963
30.275000 102.562500 34.276963
30.425000 104.218750 34.276963
10.775000 135.093750 34.276963
10.500000 136.546875 34.276963
10.250000 137.578125 34.276963
36.775000 92.828125 34.418536
29.650000 96.390625 34.418536
29.775000 97.765625 34.418536
30.050000 100.359375 34.418536
30.150000 101.031250 34.418536
30.275000 103.000000 34.418536
30.450000 104.031250 34.418536
11.500000 132.750000 34.418536
10.825000 136.265625 34.418536
10.525000 137.781250 34.418536
10.300000 138.156250 34.418536
29.650000 98.000000 34.579753
29.800000 98.953125 34.579753
30.050000 100.703125 34.579753
30.175000 101.765625 34.579753
30.350000 102.531250 34.579753
30.575000 103.671875 34.579753
12.225000 131.312500 34.579753
11.875000 133.000000 34.579753
10.850000 137.156250 34.579753
10.575000 138.468750 34.579753
10.350000 140.234375 34.579753
10.175000 142.281250 34.579753
29.725000 98.046875 34.716595
29.850000 99.171875 34.716595
30.025000 100.312500 34.716595
30.200000 101.234375 34.716595
30.350000 102.859375 34.716595
30.425000 103.562500 34.716595
30.200000 105.078125 34.716595
11.775000 131.750000 34.716595
11.450000 135.453125 34.716595
11.150000 137.046875 34.716595
10.850000 137.890625 34.716595
10.575000 139.843750 34.716595
10.350000 140.171875 34.716595
10.175000 142.093750 34.716595
29.825000 97.812500 34.870711
30.050000 100.140625 34.870711
30.175000 101.640625 34.870711
30.275000 102.953125 34.870711
30.425000 104.015625 34.870711
30.175000 105.234375 34.870711
12.600000 130.109375 34.870711
11.850000 133.515625 34.870711
11.525000 133.750000 34.870711
11.200000 137.062500 34.870711
10.900000 137.453125 34.870711
10.600000 139.453125 34.870711
10.400000 141.421875 34.870711
10.225000 141.812500 34.870711
29.725000 98.531250 35.020915
29.975000 100.625000 35.020915
30.150000 101.671875 35.020915
30.350000 103.437500 35.020915
30.475000 103.968750 35.020915
12.175000 131.156250 35.020915
11.850000 133.046875 35.020915
11.525000 134.140625 35.020915
11.200000 136.875000 35.020915
10.900000 137.453125 35.020915
10.625000 139.078125 35.020915
10.400000 141.609375 35.020915
10.225000 142.828125 35.020915
29.675000 97.250000 35.179438
30.100000 100.812500 35.179438
30.250000 102.421875 35.179438
30.400000 103.109375 35.179438
30.550000 104.359375 35.179438
12.250000 132.796875 35.179438
11.925000 131.406250 35.179438
11.600000 134.390625 35.179438
11.275000 136.281250 35.179438
10.975000 139.015625 35.179438
10.725000 140.296875 35.179438
10.475000 141.406250 35.179438
10.300000 142.953125 35.179438
10.150000 144.093750 35.179438
29.725000 97.453125 35.318973
29.950000 100.125000 35.318973
30.100000 100.968750 35.318973
30.250000 102.078125 35.318973
30.400000 103.828125 35.318973
30.525000 105.015625 35.318973
12.375000 131.234375 35.318973
12.025000 132.203125 35.318973
11.700000 134.171875 35.318973
11.375000 135.796875 35.318973
11.075000 137.250000 35.318973
10.800000 139.593750 35.318973
10.550000 140.625000 35.318973
10.325000 142.703125 35.318973
10.175000 143.046875 35.318973
29.650000 97.921875 35.472347
29.875000 99.828125 35.472347
30.225000 102.296875 35.472347
30.450000 103.375000 35.472347
30.475000 105.312500 35.472347
12.450000 130.968750 35.472347
12.100000 131.468750 35.472347
11.775000 133.296875 35.472347
11.475000 134.796875 35.472347
11.150000 136.906250 35.472347
10.875000 138.640625 35.472347
10.625000 140.734375 35.472347
10.425000 142.328125 35.472347
10.250000 144.078125 35.472347
10.100000 145.562500 35.472347
29.775000 98.203125 35.629512
30.150000 101.578125 35.629512
30.450000 104.765625 35.629512
12.400000 129.890625 35.629512
12.050000 131.031250 35.629512
11.725000 134.203125 35.629512
11.400000 135.343750 35.629512
11.075000 137.562500 35.629512
10.775000 137.734375 35.629512
10.525000 140.453125 35.629512
10.325000 141.390625 35.629512
10.150000 143.156250 35.629512
29.975000 99.562500 35.786356
30.075000 101.203125 35.786356
30.250000 101.937500 35.786356
29.950000 104.781250 35.786356
12.575000 130.140625 35.786356
12.200000 130.281250 35.786356
11.875000 133.203125 35.786356
11.550000 134.796875 35.786356
11.200000 136.140625 35.786356
10.900000 137.437500 35.786356
10.650000 139.218750 35.786356
10.425000 140.968750 35.786356
10.250000 142.421875 35.786356
30.100000 100.187500 35.922580
30.325000 101.828125 35.922580
30.525000 102.718750 35.922580
30.725000 103.640625 35.922580
12.500000 129.140625 35.922580
12.150000 132.328125 35.922580
11.825000 132.250000 35.922580
11.500000 135.328125 35.922580
11.175000 135.437500 35.922580
10.900000 138.734375 35.922580
10.625000 138.968750 35.922580
10.400000 140.250000 35.922580
10.225000 142.265625 35.922580
30.075000 95.343750 36.078501
30.675000 101.234375 36.078501
30.775000 103.078125 36.078501
12.275000 129.312500 36.078501
11.925000 130.578125 36.078501
11.575000 132.109375 36.078501
10.925000 135.171875 36.078501
10.650000 136.171875 36.078501
10.400000 138.562500 36.078501
10.225000 139.671875 36.078501
30.275000 94.953125 36.224786
