25.800000 88.515625 2.480421
25.625000 87.078125 2.480421
25.725000 86.250000 2.480421
25.750000 85.031250 2.480421
25.825000 83.500000 2.480421
25.575000 79.781250 2.480421
25.400000 79.734375 2.480421
25.550000 78.062500 2.480421
26.850000 72.953125 2.480421
26.900000 71.703125 2.480421
27.075000 71.890625 2.480421
25.950000 89.046875 2.662524
25.875000 87.828125 2.662524
25.700000 87.015625 2.662524
25.800000 86.515625 2.662524
25.800000 84.140625 2.662524
25.825000 84.703125 2.662524
25.575000 82.593750 2.662524
25.400000 79.906250 2.662524
25.650000 78.609375 2.662524
27.000000 72.890625 2.662524
27.175000 71.062500 2.662524
25.700000 87.343750 2.833123
25.800000 85.453125 2.833123
25.800000 84.453125 2.833123
25.825000 84.453125 2.833123
25.725000 83.484375 2.833123
25.650000 78.687500 2.833123
25.875000 79.125000 2.833123
27.225000 71.843750 2.833123
27.300000 70.937500 2.833123
25.775000 88.140625 3.003434
25.725000 85.718750 3.003434
25.875000 86.281250 3.003434
25.900000 84.546875 3.003434
26.250000 76.609375 3.003434
27.450000 72.843750 3.003434
27.275000 71.359375 3.003434
27.400000 71.531250 3.003434
27.650000 69.734375 3.003434
25.900000 86.515625 3.174472
25.875000 84.671875 3.174472
25.875000 84.234375 3.174472
25.575000 83.093750 3.174472
25.675000 80.312500 3.174472
27.450000 72.531250 3.174472
27.375000 72.437500 3.174472
27.500000 70.984375 3.174472
27.675000 69.921875 3.174472
25.850000 87.828125 3.349758
25.850000 86.953125 3.349758
25.900000 85.937500 3.349758
25.950000 85.125000 3.349758
25.875000 81.875000 3.349758
25.800000 80.421875 3.349758
26.025000 79.671875 3.349758
26.375000 78.625000 3.349758
26.700000 77.984375 3.349758
27.275000 74.890625 3.349758
27.575000 72.906250 3.349758
27.500000 72.546875 3.349758
27.625000 71.718750 3.349758
25.925000 87.781250 3.515634
25.925000 86.796875 3.515634
25.975000 85.453125 3.515634
26.175000 84.093750 3.515634
26.125000 82.390625 3.515634
25.850000 81.437500 3.515634
25.825000 80.718750 3.515634
26.025000 80.421875 3.515634
27.675000 73.062500 3.515634
27.550000 72.265625 3.515634
27.600000 70.890625 3.515634
26.175000 89.937500 3.682394
26.200000 88.906250 3.682394
25.975000 87.562500 3.682394
25.950000 86.890625 3.682394
26.075000 85.828125 3.682394
26.275000 84.968750 3.682394
26.100000 81.265625 3.682394
25.975000 80.312500 3.682394
27.300000 75.640625 3.682394
27.675000 74.437500 3.682394
27.700000 74.437500 3.682394
27.600000 72.265625 3.682394
27.675000 71.812500 3.682394
27.775000 71.203125 3.682394
28.000000 70.250000 3.682394
26.025000 89.281250 3.842306
25.900000 87.765625 3.842306
26.025000 87.000000 3.842306
26.150000 85.265625 3.842306
26.300000 84.812500 3.842306
26.125000 81.234375 3.842306
25.900000 79.234375 3.842306
27.350000 74.000000 3.842306
27.625000 73.406250 3.842306
27.650000 72.171875 3.842306
27.825000 71.250000 3.842306
28.025000 69.578125 3.842306
26.275000 89.187500 4.012901
26.275000 89.093750 4.012901
26.175000 87.953125 4.012901
26.075000 86.000000 4.012901
26.175000 85.656250 4.012901
26.375000 84.234375 4.012901
26.300000 82.937500 4.012901
26.175000 82.109375 4.012901
26.025000 80.953125 4.012901
26.025000 80.156250 4.012901
27.825000 75.437500 4.012901
27.700000 74.437500 4.012901
27.600000 72.187500 4.012901
27.675000 71.812500 4.012901
27.925000 70.562500 4.012901
28.150000 70.031250 4.012901
26.000000 88.250000 4.182170
26.125000 87.140625 4.182170
26.300000 86.796875 4.182170
26.425000 85.234375 4.182170
26.450000 84.406250 4.182170
26.525000 82.828125 4.182170
26.275000 81.921875 4.182170
25.975000 81.265625 4.182170
27.750000 74.609375 4.182170
27.650000 73.828125 4.182170
27.625000 72.578125 4.182170
27.750000 71.578125 4.182170
28.025000 70.968750 4.182170
28.425000 69.390625 4.182170
26.100000 87.765625 4.353390
26.100000 87.062500 4.353390
26.350000 85.765625 4.353390
26.475000 85.062500 4.353390
26.225000 81.968750 4.353390
26.000000 80.171875 4.353390
27.325000 74.921875 4.353390
27.575000 72.656250 4.353390
27.600000 72.468750 4.353390
27.750000 71.140625 4.353390
26.250000 87.640625 4.524698
26.300000 85.859375 4.524698
26.450000 84.906250 4.524698
26.500000 84.359375 4.524698
26.550000 83.281250 4.524698
26.325000 81.156250 4.524698
26.050000 81.375000 4.524698
27.675000 74.796875 4.524698
27.575000 74.062500 4.524698
27.575000 72.187500 4.524698
27.650000 71.484375 4.524698
27.925000 70.359375 4.524698
28.325000 69.234375 4.524698
26.475000 88.796875 4.695262
26.500000 85.718750 4.695262
26.475000 84.531250 4.695262
26.525000 83.171875 4.695262
26.625000 82.390625 4.695262
26.400000 81.453125 4.695262
26.075000 81.046875 4.695262
27.875000 75.671875 4.695262
27.750000 73.890625 4.695262
27.500000 73.765625 4.695262
27.575000 72.109375 4.695262
27.725000 70.937500 4.695262
28.075000 70.406250 4.695262
26.700000 89.453125 4.867040
26.550000 87.437500 4.867040
26.475000 87.156250 4.867040
26.525000 85.265625 4.867040
26.525000 84.125000 4.867040
26.575000 82.859375 4.867040
26.500000 82.703125 4.867040
26.275000 80.859375 4.867040
26.200000 79.562500 4.867040
27.650000 76.562500 4.867040
27.700000 74.875000 4.867040
27.525000 73.421875 4.867040
27.525000 72.328125 4.867040
27.675000 71.781250 4.867040
27.925000 70.953125 4.867040
28.300000 70.093750 4.867040
26.750000 88.078125 5.039184
26.700000 86.640625 5.039184
26.475000 86.250000 5.039184
26.475000 85.000000 5.039184
26.500000 84.796875 5.039184
26.600000 83.171875 5.039184
26.575000 82.203125 5.039184
26.375000 80.812500 5.039184
27.750000 75.671875 5.039184
27.600000 75.265625 5.039184
27.450000 73.437500 5.039184
27.550000 72.625000 5.039184
27.750000 71.625000 5.039184
26.475000 86.281250 5.214510
26.475000 85.546875 5.214510
26.500000 84.781250 5.214510
26.550000 82.500000 5.214510
26.650000 81.484375 5.214510
26.550000 81.078125 5.214510
27.775000 75.656250 5.214510
27.600000 74.281250 5.214510
27.425000 73.953125 5.214510
27.550000 72.984375 5.214510
27.725000 71.937500 5.214510
18.825000 90.562500 5.379275
26.500000 89.765625 5.379275
26.250000 88.187500 5.379275
26.375000 86.843750 5.379275
26.500000 86.453125 5.379275
26.500000 85.406250 5.379275
26.550000 83.640625 5.379275
26.700000 82.796875 5.379275
26.850000 82.296875 5.379275
26.775000 81.078125 5.379275
26.775000 79.203125 5.379275
27.025000 78.546875 5.379275
27.375000 76.953125 5.379275
27.725000 77.078125 5.379275
27.875000 75.171875 5.379275
27.600000 74.015625 5.379275
27.425000 73.296875 5.379275
27.575000 71.937500 5.379275
27.750000 70.687500 5.379275
28.100000 70.703125 5.379275
18.775000 90.671875 5.545318
26.750000 87.031250 5.545318
26.525000 86.046875 5.545318
26.575000 85.625000 5.545318
26.600000 84.109375 5.545318
26.600000 82.687500 5.545318
26.700000 81.578125 5.545318
26.725000 80.937500 5.545318
26.775000 80.203125 5.545318
27.050000 79.156250 5.545318
27.400000 78.140625 5.545318
27.750000 76.671875 5.545318
27.825000 75.328125 5.545318
27.575000 74.093750 5.545318
27.425000 73.359375 5.545318
27.575000 72.531250 5.545318
27.800000 71.750000 5.545318
28.150000 69.765625 5.545318
26.675000 89.671875 5.723139
26.450000 87.984375 5.723139
26.400000 86.171875 5.723139
26.525000 85.046875 5.723139
26.575000 84.000000 5.723139
26.625000 83.843750 5.723139
26.650000 82.343750 5.723139
26.625000 81.171875 5.723139
26.750000 80.671875 5.723139
26.900000 78.843750 5.723139
27.125000 78.984375 5.723139
27.525000 77.937500 5.723139
27.800000 76.156250 5.723139
27.600000 75.437500 5.723139
27.300000 73.593750 5.723139
27.350000 73.390625 5.723139
27.525000 72.187500 5.723139
27.800000 71.109375 5.723139
28.175000 69.750000 5.723139
26.875000 88.843750 5.880354
26.750000 87.765625 5.880354
26.475000 85.828125 5.880354
26.525000 84.859375 5.880354
26.550000 85.140625 5.880354
26.700000 83.718750 5.880354
26.750000 83.093750 5.880354
26.675000 81.859375 5.880354
26.775000 80.171875 5.880354
26.900000 78.968750 5.880354
27.175000 78.765625 5.880354
27.525000 77.015625 5.880354
27.750000 75.968750 5.880354
27.525000 74.578125 5.880354
27.250000 74.046875 5.880354
27.325000 73.453125 5.880354
27.575000 72.343750 5.880354
27.900000 70.531250 5.880354
28.275000 70.171875 5.880354
26.875000 89.375000 6.051131
26.750000 87.937500 6.051131
26.475000 86.656250 6.051131
26.525000 86.296875 6.051131
26.550000 85.078125 6.051131
26.625000 83.000000 6.051131
26.675000 81.984375 6.051131
26.675000 81.796875 6.051131
26.775000 80.484375 6.051131
26.900000 78.625000 6.051131
27.175000 77.671875 6.051131
27.525000 76.828125 6.051131
27.725000 76.703125 6.051131
27.500000 74.437500 6.051131
27.250000 74.390625 6.051131
27.325000 73.265625 6.051131
27.575000 72.312500 6.051131
27.900000 71.015625 6.051131
28.275000 70.109375 6.051131
26.775000 89.484375 6.221802
26.575000 86.906250 6.221802
26.400000 85.875000 6.221802
26.525000 85.203125 6.221802
26.575000 85.281250 6.221802
26.625000 83.718750 6.221802
26.750000 83.093750 6.221802
26.725000 80.671875 6.221802
26.750000 80.109375 6.221802
27.275000 77.250000 6.221802
27.725000 76.109375 6.221802
27.525000 75.234375 6.221802
27.275000 74.390625 6.221802
27.350000 73.500000 6.221802
27.525000 71.390625 6.221802
26.750000 87.531250 6.391914
26.500000 85.234375 6.391914
26.500000 84.984375 6.391914
26.550000 84.421875 6.391914
26.625000 83.140625 6.391914
26.750000 81.312500 6.391914
26.850000 80.859375 6.391914
27.200000 77.828125 6.391914
27.700000 77.078125 6.391914
27.575000 75.609375 6.391914
27.300000 73.984375 6.391914
27.400000 73.593750 6.391914
27.550000 72.171875 6.391914
26.500000 86.781250 6.561421
26.500000 84.593750 6.561421
26.575000 84.265625 6.561421
26.625000 83.843750 6.561421
26.650000 82.078125 6.561421
26.750000 81.109375 6.561421
26.875000 80.265625 6.561421
27.050000 78.406250 6.561421
27.325000 77.562500 6.561421
27.625000 76.531250 6.561421
27.775000 76.234375 6.561421
27.525000 74.578125 6.561421
27.275000 73.093750 6.561421
27.375000 72.234375 6.561421
27.575000 71.703125 6.561421
26.750000 89.343750 6.736933
26.425000 88.250000 6.736933
26.375000 87.421875 6.736933
26.475000 85.750000 6.736933
26.500000 84.796875 6.736933
26.650000 83.531250 6.736933
26.725000 82.281250 6.736933
26.550000 81.031250 6.736933
26.575000 81.000000 6.736933
27.125000 78.046875 6.736933
27.700000 76.390625 6.736933
27.625000 75.406250 6.736933
27.350000 74.453125 6.736933
27.375000 73.593750 6.736933
27.450000 72.406250 6.736933
26.800000 88.890625 6.918277
26.550000 87.640625 6.918277
26.275000 87.468750 6.918277
26.425000 86.437500 6.918277
26.550000 85.218750 6.918277
26.625000 83.390625 6.918277
27.650000 76.093750 6.918277
27.525000 74.937500 6.918277
27.350000 74.281250 6.918277
27.325000 73.625000 6.918277
27.400000 72.312500 6.918277
26.250000 86.656250 7.076452
26.375000 85.343750 7.076452
26.525000 85.093750 7.076452
25.650000 81.531250 7.076452
25.750000 80.671875 7.076452
27.725000 76.640625 7.076452
27.575000 75.484375 7.076452
27.325000 73.156250 7.076452
27.325000 73.203125 7.076452
27.425000 71.687500 7.076452
26.525000 86.531250 7.242909
26.225000 86.171875 7.242909
26.250000 85.093750 7.242909
26.200000 83.781250 7.242909
25.825000 83.062500 7.242909
25.850000 78.875000 7.242909
27.800000 75.875000 7.242909
27.650000 75.078125 7.242909
27.350000 73.437500 7.242909
27.350000 72.312500 7.242909
27.450000 71.234375 7.242909
26.075000 87.953125 7.413065
26.075000 85.390625 7.413065
25.800000 82.000000 7.413065
25.475000 82.328125 7.413065
25.650000 81.359375 7.413065
25.800000 80.343750 7.413065
27.575000 74.546875 7.413065
27.350000 74.125000 7.413065
27.350000 73.218750 7.413065
27.450000 71.187500 7.413065
25.925000 86.765625 7.584269
25.700000 82.578125 7.584269
25.450000 81.625000 7.584269
25.625000 80.281250 7.584269
25.775000 80.093750 7.584269
27.475000 74.687500 7.584269
27.350000 74.031250 7.584269
27.350000 72.609375 7.584269
27.425000 71.859375 7.584269
27.625000 70.484375 7.584269
27.975000 70.000000 7.584269
25.950000 87.390625 7.754436
25.850000 86.671875 7.754436
25.900000 85.781250 7.754436
25.925000 83.515625 7.754436
25.725000 82.531250 7.754436
25.325000 82.031250 7.754436
27.500000 75.406250 7.754436
27.400000 73.375000 7.754436
27.300000 72.578125 7.754436
27.400000 71.812500 7.754436
27.500000 70.453125 7.754436
27.725000 70.250000 7.754436
26.100000 90.140625 7.925065
26.200000 88.359375 7.925065
26.025000 87.953125 7.925065
25.800000 85.750000 7.925065
25.850000 85.515625 7.925065
25.775000 84.937500 7.925065
25.675000 82.484375 7.925065
25.425000 80.609375 7.925065
27.400000 73.843750 7.925065
27.300000 73.156250 7.925065
27.325000 71.343750 7.925065
27.350000 71.234375 7.925065
27.575000 69.578125 7.925065
25.875000 89.031250 8.096682
25.675000 87.218750 8.096682
25.650000 87.140625 8.096682
25.800000 85.937500 8.096682
25.825000 83.890625 8.096682
25.875000 83.328125 8.096682
25.550000 81.984375 8.096682
25.200000 80.500000 8.096682
25.250000 79.296875 8.096682
27.275000 73.078125 8.096682
27.275000 71.890625 8.096682
27.275000 71.609375 8.096682
27.400000 69.906250 8.096682
25.900000 89.359375 8.273990
25.700000 86.500000 8.273990
25.650000 86.437500 8.273990
25.775000 85.500000 8.273990
25.825000 84.703125 8.273990
25.875000 83.906250 8.273990
25.525000 82.718750 8.273990
25.050000 80.328125 8.273990
25.100000 80.671875 8.273990
25.300000 79.656250 8.273990
27.275000 72.343750 8.273990
27.125000 71.250000 8.273990
27.150000 70.656250 8.273990
27.375000 70.468750 8.273990
25.900000 87.812500 8.436985
25.600000 86.062500 8.436985
25.475000 85.953125 8.436985
25.700000 86.046875 8.436985
25.825000 84.921875 8.436985
25.975000 84.062500 8.436985
24.950000 79.531250 8.436985
25.050000 80.578125 8.436985
25.200000 79.343750 8.436985
27.250000 73.375000 8.436985
27.100000 71.687500 8.436985
27.125000 70.640625 8.436985
27.350000 69.203125 8.436985
25.750000 88.515625 8.604638
25.450000 86.328125 8.604638
25.375000 87.296875 8.604638
25.600000 84.921875 8.604638
25.800000 84.734375 8.604638
25.575000 83.171875 8.604638
25.300000 81.828125 8.604638
25.025000 81.281250 8.604638
24.950000 79.796875 8.604638
25.150000 79.484375 8.604638
25.300000 77.921875 8.604638
27.175000 73.296875 8.604638
27.025000 72.359375 8.604638
27.025000 70.796875 8.604638
25.650000 88.031250 8.778723
25.450000 86.671875 8.778723
25.350000 85.718750 8.778723
25.500000 85.218750 8.778723
25.600000 83.484375 8.778723
25.725000 82.187500 8.778723
25.500000 80.656250 8.778723
25.050000 79.765625 8.778723
25.075000 79.453125 8.778723
25.200000 78.062500 8.778723
27.025000 72.671875 8.778723
26.725000 72.125000 8.778723
26.850000 71.328125 8.778723
25.650000 88.328125 8.949210
25.425000 87.343750 8.949210
25.325000 86.453125 8.949210
25.375000 84.875000 8.949210
25.475000 83.906250 8.949210
25.550000 82.421875 8.949210
25.500000 82.031250 8.949210
25.325000 81.125000 8.949210
25.175000 80.093750 8.949210
25.200000 78.421875 8.949210
25.400000 77.500000 8.949210
26.000000 74.328125 8.949210
26.525000 72.703125 8.949210
26.700000 71.968750 8.949210
26.850000 71.453125 8.949210
25.625000 87.875000 9.122535
25.400000 87.109375 9.122535
25.300000 85.906250 9.122535
25.325000 85.093750 9.122535
25.425000 83.718750 9.122535
25.375000 79.671875 9.122535
25.250000 78.906250 9.122535
25.275000 78.859375 9.122535
26.275000 74.734375 9.122535
26.425000 73.968750 9.122535
26.575000 72.843750 9.122535
26.725000 71.812500 9.122535
25.050000 88.406250 9.293646
25.125000 86.125000 9.293646
25.250000 85.000000 9.293646
25.275000 83.875000 9.293646
25.300000 82.796875 9.293646
25.400000 83.109375 9.293646
25.500000 81.046875 9.293646
25.500000 80.328125 9.293646
25.675000 77.281250 9.293646
25.900000 75.234375 9.293646
26.000000 75.000000 9.293646
26.200000 74.593750 9.293646
26.375000 72.593750 9.293646
26.525000 71.734375 9.293646
26.700000 70.968750 9.293646
25.075000 87.375000 9.450436
25.225000 85.781250 9.450436
25.250000 85.234375 9.450436
25.275000 84.218750 9.450436
25.300000 81.890625 9.450436
25.300000 82.640625 9.450436
25.300000 80.234375 9.450436
25.375000 79.734375 9.450436
25.500000 78.406250 9.450436
25.650000 77.734375 9.450436
25.800000 77.328125 9.450436
25.800000 75.171875 9.450436
25.925000 75.468750 9.450436
26.125000 73.625000 9.450436
26.300000 73.296875 9.450436
26.475000 71.656250 9.450436
26.675000 71.281250 9.450436
25.025000 87.968750 9.636677
25.200000 86.921875 9.636677
25.250000 84.531250 9.636677
25.250000 83.671875 9.636677
25.275000 84.046875 9.636677
25.300000 82.187500 9.636677
25.300000 79.921875 9.636677
25.300000 80.593750 9.636677
25.475000 76.984375 9.636677
25.675000 74.906250 9.636677
25.800000 75.109375 9.636677
26.025000 74.703125 9.636677
26.200000 73.578125 9.636677
26.425000 72.609375 9.636677
26.675000 71.125000 9.636677
25.350000 89.000000 9.792786
25.150000 88.062500 9.792786
25.225000 86.843750 9.792786
25.250000 86.078125 9.792786
25.275000 84.250000 9.792786
25.275000 82.515625 9.792786
25.275000 82.281250 9.792786
25.300000 80.875000 9.792786
25.375000 80.515625 9.792786
25.500000 78.015625 9.792786
25.725000 77.828125 9.792786
25.775000 77.312500 9.792786
25.700000 76.203125 9.792786
25.900000 75.078125 9.792786
26.100000 74.187500 9.792786
26.275000 72.656250 9.792786
26.400000 71.406250 9.792786
26.600000 70.578125 9.792786
25.700000 90.218750 9.962385
25.400000 87.687500 9.962385
25.225000 87.468750 9.962385
25.225000 86.218750 9.962385
25.250000 85.843750 9.962385
25.275000 84.187500 9.962385
25.275000 83.640625 9.962385
25.275000 82.500000 9.962385
25.300000 81.437500 9.962385
25.300000 79.546875 9.962385
25.425000 77.890625 9.962385
25.650000 77.484375 9.962385
25.700000 76.796875 9.962385
25.700000 76.375000 9.962385
25.875000 74.203125 9.962385
26.025000 74.234375 9.962385
26.150000 73.109375 9.962385
26.325000 70.953125 9.962385
26.525000 70.671875 9.962385
25.275000 88.468750 10.136359
25.150000 87.984375 10.136359
25.200000 86.421875 10.136359
25.250000 86.203125 10.136359
25.250000 84.281250 10.136359
25.275000 82.171875 10.136359
25.275000 83.031250 10.136359
25.300000 81.734375 10.136359
25.300000 79.234375 10.136359
25.450000 78.656250 10.136359
25.725000 78.718750 10.136359
25.775000 76.843750 10.136359
25.675000 75.312500 10.136359
25.775000 74.656250 10.136359
26.000000 74.093750 10.136359
26.175000 72.750000 10.136359
26.300000 71.375000 10.136359
26.475000 71.390625 10.136359
25.625000 89.781250 10.302663
25.325000 88.078125 10.302663
25.250000 85.687500 10.302663
25.250000 86.500000 10.302663
25.275000 84.781250 10.302663
25.300000 84.578125 10.302663
25.300000 83.140625 10.302663
25.300000 81.406250 10.302663
25.275000 79.546875 10.302663
25.425000 77.796875 10.302663
25.625000 76.109375 10.302663
25.725000 74.781250 10.302663
25.850000 74.015625 10.302663
26.000000 73.875000 10.302663
26.200000 72.812500 10.302663
26.375000 71.250000 10.302663
26.550000 70.265625 10.302663
25.400000 88.156250 10.471933
25.250000 87.875000 10.471933
25.250000 86.187500 10.471933
25.275000 84.906250 10.471933
25.275000 82.640625 10.471933
25.275000 83.359375 10.471933
25.300000 80.921875 10.471933
25.350000 81.125000 10.471933
25.475000 79.421875 10.471933
25.725000 78.968750 10.471933
25.750000 78.203125 10.471933
25.625000 76.250000 10.471933
25.725000 75.453125 10.471933
25.850000 74.828125 10.471933
26.000000 73.875000 10.471933
26.175000 72.359375 10.471933
26.375000 70.656250 10.471933
26.550000 70.546875 10.471933
26.850000 69.921875 10.471933
25.225000 87.453125 10.644016
25.225000 85.437500 10.644016
25.250000 85.593750 10.644016
25.275000 83.437500 10.644016
25.275000 83.937500 10.644016
25.275000 81.921875 10.644016
25.400000 81.968750 10.644016
25.500000 79.687500 10.644016
25.650000 79.187500 10.644016
25.775000 78.375000 10.644016
25.700000 76.828125 10.644016
25.675000 76.093750 10.644016
25.775000 74.578125 10.644016
25.975000 73.390625 10.644016
26.150000 72.140625 10.644016
26.275000 72.187500 10.644016
26.475000 71.156250 10.644016
25.250000 87.687500 10.814354
25.300000 86.406250 10.814354
25.300000 84.796875 10.814354
25.275000 83.937500 10.814354
25.300000 82.406250 10.814354
25.375000 80.906250 10.814354
25.400000 80.656250 10.814354
25.525000 79.500000 10.814354
25.900000 79.203125 10.814354
25.825000 76.953125 10.814354
25.675000 76.625000 10.814354
25.800000 75.328125 10.814354
25.900000 73.375000 10.814354
26.075000 73.578125 10.814354
26.275000 72.656250 10.814354
26.450000 70.640625 10.814354
26.625000 70.734375 10.814354
26.900000 69.484375 10.814354
25.650000 87.265625 10.984825
25.350000 86.093750 10.984825
25.250000 85.937500 10.984825
25.275000 84.718750 10.984825
25.275000 84.765625 10.984825
25.300000 82.812500 10.984825
25.300000 81.531250 10.984825
25.325000 80.656250 10.984825
25.525000 80.468750 10.984825
25.850000 79.531250 10.984825
25.800000 77.593750 10.984825
25.675000 77.343750 10.984825
25.750000 76.187500 10.984825
25.850000 74.640625 10.984825
25.975000 73.328125 10.984825
26.175000 72.859375 10.984825
26.375000 70.984375 10.984825
26.550000 70.421875 10.984825
25.250000 87.343750 11.154937
25.275000 85.921875 11.154937
25.275000 83.843750 11.154937
25.275000 84.375000 11.154937
25.275000 82.734375 11.154937
25.300000 82.281250 11.154937
25.325000 81.156250 11.154937
25.525000 79.578125 11.154937
25.875000 79.187500 11.154937
25.825000 76.812500 11.154937
25.650000 75.343750 11.154937
25.725000 75.375000 11.154937
25.850000 74.171875 11.154937
26.075000 73.796875 11.154937
26.300000 72.562500 11.154937
26.425000 71.734375 11.154937
26.600000 70.390625 11.154937
26.900000 69.140625 11.154937
25.800000 87.296875 11.325264
25.325000 87.765625 11.325264
25.250000 86.187500 11.325264
25.275000 84.453125 11.325264
25.275000 84.765625 11.325264
25.300000 82.953125 11.325264
25.375000 82.171875 11.325264
25.500000 80.593750 11.325264
25.550000 79.953125 11.325264
25.775000 79.515625 11.325264
25.800000 77.937500 11.325264
25.675000 75.796875 11.325264
25.750000 76.218750 11.325264
25.850000 74.515625 11.325264
25.975000 72.937500 11.325264
26.250000 72.937500 11.325264
26.450000 71.906250 11.325264
26.550000 70.953125 11.325264
25.275000 87.625000 11.494565
25.275000 85.968750 11.494565
25.275000 83.890625 11.494565
25.350000 83.046875 11.494565
25.450000 83.156250 11.494565
25.500000 81.562500 11.494565
25.525000 80.953125 11.494565
25.625000 79.906250 11.494565
25.875000 77.718750 11.494565
25.800000 76.375000 11.494565
25.650000 75.437500 11.494565
25.775000 75.296875 11.494565
25.925000 73.484375 11.494565
26.150000 73.421875 11.494565
26.350000 72.484375 11.494565
26.525000 70.828125 11.494565
26.750000 70.734375 11.494565
27.100000 69.265625 11.494565
25.400000 88.328125 11.671635
25.275000 86.078125 11.671635
25.250000 86.484375 11.671635
25.275000 84.625000 11.671635
25.275000 84.421875 11.671635
25.375000 83.250000 11.671635
25.475000 81.578125 11.671635
25.525000 81.140625 11.671635
25.600000 78.500000 11.671635
25.725000 78.906250 11.671635
25.850000 77.359375 11.671635
25.750000 75.531250 11.671635
25.725000 75.718750 11.671635
25.925000 74.562500 11.671635
26.150000 72.593750 11.671635
26.325000 71.781250 11.671635
26.525000 71.000000 11.671635
26.725000 70.859375 11.671635
27.050000 69.937500 11.671635
25.650000 89.468750 11.836488
25.300000 88.578125 11.836488
25.150000 86.953125 11.836488
25.250000 84.484375 11.836488
25.250000 84.796875 11.836488
25.275000 84.593750 11.836488
25.375000 83.218750 11.836488
25.475000 81.437500 11.836488
25.500000 81.093750 11.836488
25.550000 79.500000 11.836488
25.750000 78.484375 11.836488
25.950000 77.015625 11.836488
25.900000 77.062500 11.836488
25.800000 75.140625 11.836488
25.925000 73.984375 11.836488
26.175000 74.265625 11.836488
26.350000 72.359375 11.836488
26.525000 72.031250 11.836488
26.725000 70.750000 11.836488
25.525000 88.937500 12.006104
25.250000 87.859375 12.006104
25.200000 87.203125 12.006104
25.250000 85.031250 12.006104
25.250000 84.750000 12.006104
25.375000 83.343750 12.006104
25.500000 81.656250 12.006104
25.550000 81.484375 12.006104
25.600000 80.531250 12.006104
25.575000 78.203125 12.006104
25.725000 78.250000 12.006104
26.025000 76.718750 12.006104
26.000000 76.156250 12.006104
25.950000 75.296875 12.006104
26.175000 74.046875 12.006104
26.400000 72.687500 12.006104
26.550000 72.312500 12.006104
26.750000 71.359375 12.006104
25.625000 88.734375 12.177671
25.575000 88.156250 12.177671
25.425000 86.906250 12.177671
25.350000 85.687500 12.177671
25.350000 84.078125 12.177671
25.450000 83.812500 12.177671
25.475000 83.453125 12.177671
25.525000 81.390625 12.177671
25.600000 81.328125 12.177671
25.600000 79.078125 12.177671
25.675000 79.296875 12.177671
25.875000 74.765625 12.177671
26.100000 74.406250 12.177671
26.325000 73.375000 12.177671
26.525000 73.125000 12.177671
26.675000 71.265625 12.177671
26.875000 70.031250 12.177671
27.125000 69.593750 12.177671
25.400000 88.671875 12.348344
25.200000 87.875000 12.348344
25.225000 87.187500 12.348344
25.250000 84.687500 12.348344
25.400000 84.437500 12.348344
25.550000 82.812500 12.348344
25.600000 81.765625 12.348344
25.725000 80.984375 12.348344
25.575000 80.203125 12.348344
25.300000 78.328125 12.348344
25.525000 78.078125 12.348344
25.975000 74.468750 12.348344
26.325000 74.453125 12.348344
26.500000 72.312500 12.348344
26.625000 71.703125 12.348344
26.750000 71.406250 12.348344
25.725000 89.078125 12.519382
25.375000 88.203125 12.519382
25.200000 88.125000 12.519382
25.350000 86.625000 12.519382
25.500000 85.578125 12.519382
25.525000 84.296875 12.519382
25.675000 83.953125 12.519382
25.550000 80.093750 12.519382
25.275000 78.265625 12.519382
25.450000 78.015625 12.519382
25.975000 75.484375 12.519382
26.400000 74.250000 12.519382
26.525000 73.093750 12.519382
26.700000 71.781250 12.519382
26.950000 70.609375 12.519382
25.800000 89.750000 12.689694
25.725000 88.781250 12.689694
25.525000 87.015625 12.689694
25.525000 85.093750 12.689694
25.550000 84.671875 12.689694
25.725000 84.546875 12.689694
25.850000 82.296875 12.689694
26.000000 81.781250 12.689694
25.275000 79.593750 12.689694
25.300000 78.109375 12.689694
26.575000 73.750000 12.689694
26.700000 73.046875 12.689694
26.900000 71.078125 12.689694
25.750000 90.343750 12.863428
25.550000 88.046875 12.863428
25.375000 87.421875 12.863428
25.475000 86.796875 12.863428
25.550000 84.890625 12.863428
25.750000 84.250000 12.863428
25.850000 83.671875 12.863428
26.000000 82.343750 12.863428
25.275000 80.125000 12.863428
25.300000 78.921875 12.863428
26.650000 73.734375 12.863428
26.750000 72.609375 12.863428
26.900000 70.984375 12.863428
25.700000 88.812500 13.020303
25.650000 88.531250 13.020303
25.425000 86.500000 13.020303
25.525000 85.625000 13.020303
25.675000 85.046875 13.020303
25.800000 84.609375 13.020303
25.550000 80.734375 13.020303
25.275000 80.187500 13.020303
25.400000 78.125000 13.020303
26.875000 73.140625 13.020303
27.025000 71.671875 13.020303
27.275000 70.703125 13.020303
27.600000 70.109375 13.020303
25.825000 89.453125 13.197347
25.650000 88.265625 13.197347
25.625000 85.703125 13.197347
25.775000 85.828125 13.197347
25.825000 85.234375 13.197347
25.875000 84.250000 13.197347
26.025000 82.359375 13.197347
25.750000 80.609375 13.197347
25.350000 80.656250 13.197347
25.450000 78.671875 13.197347
25.700000 77.859375 13.197347
26.975000 72.687500 13.197347
27.050000 72.046875 13.197347
27.225000 71.203125 13.197347
25.975000 90.296875 13.362298
25.700000 87.468750 13.362298
25.675000 87.093750 13.362298
25.800000 86.703125 13.362298
25.800000 84.375000 13.362298
25.800000 83.921875 13.362298
25.550000 82.906250 13.362298
27.175000 73.296875 13.362298
27.300000 72.187500 13.362298
27.450000 70.921875 13.362298
27.700000 70.046875 13.362298
25.825000 87.031250 13.528536
25.850000 86.250000 13.528536
25.875000 85.125000 13.528536
25.925000 84.156250 13.528536
26.025000 82.703125 13.528536
25.850000 82.156250 13.528536
25.575000 81.109375 13.528536
25.725000 78.875000 13.528536
26.100000 79.093750 13.528536
27.550000 73.171875 13.528536
27.300000 72.000000 13.528536
27.400000 71.296875 13.528536
25.700000 87.109375 13.703598
25.650000 86.609375 13.703598
25.800000 85.734375 13.703598
25.850000 84.718750 13.703598
25.800000 81.062500 13.703598
25.775000 80.937500 13.703598
27.475000 73.343750 13.703598
27.350000 72.312500 13.703598
27.500000 71.171875 13.703598
27.725000 70.359375 13.703598
26.075000 90.218750 13.877080
25.975000 87.609375 13.877080
25.825000 87.421875 13.877080
25.875000 85.828125 13.877080
25.925000 85.640625 13.877080
25.950000 83.484375 13.877080
25.775000 80.281250 13.877080
25.750000 80.203125 13.877080
27.275000 73.750000 13.877080
27.500000 72.593750 13.877080
27.475000 72.093750 13.877080
25.800000 87.984375 14.048166
25.825000 87.093750 14.048166
25.925000 85.890625 14.048166
25.975000 84.156250 14.048166
26.100000 82.968750 14.048166
26.350000 82.484375 14.048166
26.150000 82.078125 14.048166
25.800000 80.703125 14.048166
27.275000 73.812500 14.048166
27.575000 72.734375 14.048166
27.550000 71.656250 14.048166
27.650000 71.671875 14.048166
25.925000 89.078125 14.219072
25.825000 88.046875 14.219072
25.900000 86.750000 14.219072
25.900000 85.593750 14.219072
26.075000 83.875000 14.219072
26.000000 81.015625 14.219072
25.850000 80.375000 14.219072
27.275000 74.203125 14.219072
27.650000 73.015625 14.219072
27.700000 72.250000 14.219072
27.750000 70.828125 14.219072
27.950000 69.343750 14.219072
26.000000 87.578125 14.376172
26.000000 86.078125 14.376172
26.125000 85.140625 14.376172
26.325000 84.265625 14.376172
26.300000 82.765625 14.376172
26.075000 82.171875 14.376172
26.300000 78.531250 14.376172
26.750000 78.312500 14.376172
27.325000 74.203125 14.376172
27.650000 73.968750 14.376172
27.600000 72.984375 14.376172
27.700000 71.140625 14.376172
27.875000 71.015625 14.376172
28.175000 69.937500 14.376172
26.325000 90.265625 14.545887
26.225000 89.000000 14.545887
26.125000 87.140625 14.545887
26.150000 85.937500 14.545887
26.275000 85.968750 14.545887
26.400000 83.796875 14.545887
26.175000 80.968750 14.545887
26.000000 79.890625 14.545887
27.725000 73.890625 14.545887
27.650000 73.218750 14.545887
27.700000 71.265625 14.545887
27.850000 71.375000 14.545887
28.100000 69.453125 14.545887
26.050000 87.687500 14.727113
26.050000 86.359375 14.727113
26.275000 85.625000 14.727113
26.400000 85.062500 14.727113
26.175000 81.609375 14.727113
25.950000 81.015625 14.727113
27.325000 73.750000 14.727113
27.575000 72.765625 14.727113
27.625000 72.468750 14.727113
27.825000 71.625000 14.727113
28.050000 70.609375 14.727113
26.075000 87.656250 14.888535
26.125000 86.656250 14.888535
26.300000 86.093750 14.888535
26.400000 85.218750 14.888535
26.175000 81.953125 14.888535
25.950000 80.468750 14.888535
27.325000 74.906250 14.888535
27.550000 72.812500 14.888535
27.600000 72.484375 14.888535
27.800000 71.625000 14.888535
28.050000 70.109375 14.888535
26.350000 87.000000 15.060399
26.375000 86.078125 15.060399
26.450000 85.234375 15.060399
26.450000 84.484375 15.060399
26.550000 83.703125 15.060399
26.325000 81.203125 15.060399
26.050000 81.015625 15.060399
27.700000 75.140625 15.060399
27.575000 74.031250 15.060399
27.575000 73.015625 15.060399
27.700000 71.093750 15.060399
26.500000 89.281250 15.228681
26.425000 88.125000 15.228681
26.450000 87.078125 15.228681
26.500000 86.203125 15.228681
26.525000 84.312500 15.228681
26.550000 83.140625 15.228681
26.550000 81.906250 15.228681
26.275000 81.546875 15.228681
27.600000 73.875000 15.228681
27.500000 72.265625 15.228681
27.625000 71.843750 15.228681
27.850000 71.328125 15.228681
28.225000 69.828125 15.228681
26.425000 89.000000 15.400421
26.300000 88.046875 15.400421
26.350000 87.000000 15.400421
26.500000 86.546875 15.400421
26.550000 84.968750 15.400421
26.600000 84.218750 15.400421
26.650000 82.875000 15.400421
26.450000 82.093750 15.400421
26.175000 80.015625 15.400421
26.300000 80.109375 15.400421
27.875000 75.562500 15.400421
27.700000 74.609375 15.400421
27.450000 73.687500 15.400421
27.600000 72.578125 15.400421
27.800000 71.734375 15.400421
28.125000 70.109375 15.400421
26.725000 89.296875 15.571074
26.650000 87.796875 15.571074
26.500000 86.828125 15.571074
26.525000 84.812500 15.571074
26.525000 84.078125 15.571074
26.600000 83.296875 15.571074
26.575000 81.953125 15.571074
26.375000 81.140625 15.571074
26.275000 79.843750 15.571074
27.650000 76.437500 15.571074
27.650000 75.515625 15.571074
27.475000 74.015625 15.571074
27.500000 73.312500 15.571074
27.650000 71.656250 15.571074
27.975000 70.796875 15.571074
28.350000 69.218750 15.571074
26.625000 87.671875 15.740360
26.525000 85.500000 15.740360
26.550000 85.562500 15.740360
26.575000 83.484375 15.740360
26.725000 82.812500 15.740360
26.750000 81.421875 15.740360
26.500000 80.156250 15.740360
26.450000 79.312500 15.740360
27.900000 76.000000 15.740360
27.650000 74.328125 15.740360
27.425000 73.000000 15.740360
27.575000 72.453125 15.740360
27.775000 71.453125 15.740360
26.675000 89.562500 15.909789
26.525000 87.640625 15.909789
26.450000 87.031250 15.909789
26.500000 85.437500 15.909789
26.525000 85.250000 15.909789
26.575000 81.625000 15.909789
26.650000 80.968750 15.909789
26.800000 79.312500 15.909789
27.125000 77.859375 15.909789
27.475000 77.578125 15.909789
27.825000 76.187500 15.909789
27.725000 75.562500 15.909789
27.425000 74.578125 15.909789
27.450000 73.093750 15.909789
27.650000 72.328125 15.909789
27.900000 71.218750 15.909789
28.275000 70.234375 15.909789
18.800000 90.609375 16.083232
26.600000 88.421875 16.083232
26.300000 88.640625 16.083232
26.450000 86.546875 16.083232
26.500000 85.921875 16.083232
26.550000 85.531250 16.083232
26.575000 83.203125 16.083232
26.600000 82.515625 16.083232
26.725000 82.265625 16.083232
26.725000 80.718750 16.083232
26.775000 80.218750 16.083232
27.825000 76.093750 16.083232
27.575000 73.781250 16.083232
27.425000 73.234375 16.083232
27.575000 72.343750 16.083232
26.650000 88.750000 16.257220
26.500000 87.468750 16.257220
26.450000 87.390625 16.257220
26.525000 85.390625 16.257220
26.575000 84.453125 16.257220
26.700000 84.140625 16.257220
26.725000 82.937500 16.257220
26.625000 81.812500 16.257220
26.750000 80.953125 16.257220
27.275000 78.000000 16.257220
27.825000 76.875000 16.257220
27.625000 75.125000 16.257220
27.325000 73.468750 16.257220
27.375000 73.015625 16.257220
27.550000 71.968750 16.257220
26.525000 86.546875 16.425410
26.550000 85.828125 16.425410
26.625000 84.125000 16.425410
26.725000 82.890625 16.425410
26.750000 82.296875 16.425410
26.675000 81.218750 16.425410
26.800000 80.140625 16.425410
27.075000 79.093750 16.425410
27.425000 78.453125 16.425410
27.700000 77.015625 16.425410
27.775000 75.890625 16.425410
27.525000 75.000000 16.425410
27.350000 73.812500 16.425410
26.500000 86.171875 16.589371
26.525000 85.000000 16.589371
26.525000 85.062500 16.589371
26.600000 83.359375 16.589371
26.675000 82.625000 16.589371
26.675000 80.531250 16.589371
26.750000 79.828125 16.589371
26.950000 78.765625 16.589371
27.250000 78.500000 16.589371
27.625000 76.890625 16.589371
27.775000 76.593750 16.589371
27.500000 75.046875 16.589371
27.275000 73.859375 16.589371
27.400000 73.078125 16.589371
27.700000 71.593750 16.589371
27.950000 70.406250 16.589371
28.300000 69.828125 16.589371
26.525000 86.093750 16.753652
26.550000 85.750000 16.753652
26.675000 83.500000 16.753652
26.800000 82.562500 16.753652
26.750000 81.890625 16.753652
26.650000 81.234375 16.753652
26.775000 79.890625 16.753652
27.100000 79.203125 16.753652
27.425000 77.390625 16.753652
27.725000 77.343750 16.753652
27.750000 75.234375 16.753652
27.500000 74.218750 16.753652
27.350000 73.906250 16.753652
27.500000 72.640625 16.753652
27.750000 71.328125 16.753652
26.500000 86.843750 16.921582
26.525000 85.968750 16.921582
26.625000 84.140625 16.921582
26.725000 82.781250 16.921582
26.725000 82.296875 16.921582
26.750000 81.656250 16.921582
27.200000 77.406250 16.921582
27.700000 76.984375 16.921582
27.775000 76.421875 16.921582
27.525000 74.312500 16.921582
27.325000 74.156250 16.921582
27.475000 72.156250 16.921582
26.725000 86.625000 17.095162
26.525000 85.312500 17.095162
26.575000 84.078125 17.095162
26.625000 83.609375 17.095162
26.650000 82.046875 17.095162
26.650000 81.078125 17.095162
26.750000 79.875000 17.095162
27.225000 77.937500 17.095162
27.675000 76.171875 17.095162
27.525000 74.765625 17.095162
27.300000 73.671875 17.095162
27.350000 73.671875 17.095162
27.450000 72.421875 17.095162
26.450000 86.234375 17.266178
26.525000 85.984375 17.266178
26.600000 84.843750 17.266178
26.725000 82.796875 17.266178
26.700000 82.078125 17.266178
26.650000 81.406250 17.266178
26.750000 80.328125 17.266178
27.825000 76.218750 17.266178
27.525000 75.312500 17.266178
27.275000 73.140625 17.266178
27.350000 72.750000 17.266178
27.100000 88.734375 17.438016
26.375000 86.640625 17.438016
26.500000 85.421875 17.438016
26.525000 84.453125 17.438016
26.600000 83.093750 17.438016
26.550000 79.812500 17.438016
27.750000 76.656250 17.438016
27.525000 75.218750 17.438016
27.275000 74.500000 17.438016
27.325000 72.906250 17.438016
26.250000 85.734375 17.610297
26.375000 85.125000 17.610297
26.500000 85.187500 17.610297
26.175000 82.390625 17.610297
25.750000 82.171875 17.610297
25.775000 81.375000 17.610297
27.675000 76.640625 17.610297
27.450000 74.890625 17.610297
27.275000 73.843750 17.610297
27.300000 72.453125 17.610297
27.400000 71.484375 17.610297
26.225000 85.921875 17.783318
26.300000 85.125000 17.783318
26.425000 83.796875 17.783318
25.900000 80.078125 17.783318
27.850000 75.546875 17.783318
27.600000 74.265625 17.783318
27.325000 73.187500 17.783318
27.350000 72.890625 17.783318
27.450000 71.765625 17.783318
26.000000 87.000000 17.952008
25.750000 82.843750 17.952008
25.475000 81.734375 17.952008
25.600000 81.062500 17.952008
27.550000 75.406250 17.952008
27.350000 73.734375 17.952008
27.325000 73.125000 17.952008
27.425000 71.656250 17.952008
25.800000 86.921875 18.117836
25.950000 86.375000 18.117836
25.700000 82.375000 18.117836
25.775000 79.453125 18.117836
27.575000 73.937500 18.117836
27.325000 72.890625 18.117836
27.350000 71.750000 18.117836
27.450000 71.281250 18.117836
26.250000 86.500000 18.293094
25.925000 85.703125 18.293094
25.675000 83.656250 18.293094
25.675000 80.015625 18.293094
27.475000 75.015625 18.293094
27.350000 73.234375 18.293094
27.325000 72.484375 18.293094
27.400000 72.171875 18.293094
26.250000 88.859375 18.450221
26.100000 87.906250 18.450221
25.825000 85.890625 18.450221
25.875000 86.203125 18.450221
25.775000 84.984375 18.450221
25.700000 83.500000 18.450221
25.450000 80.796875 18.450221
27.450000 73.421875 18.450221
27.300000 73.359375 18.450221
27.325000 72.296875 18.450221
27.375000 70.843750 18.450221
27.575000 70.015625 18.450221
25.950000 89.656250 18.635588
25.775000 88.312500 18.635588
25.700000 86.718750 18.635588
25.825000 86.375000 18.635588
25.500000 82.046875 18.635588
25.200000 81.796875 18.635588
25.375000 80.328125 18.635588
27.525000 74.375000 18.635588
27.325000 72.687500 18.635588
27.325000 72.468750 18.635588
27.300000 70.468750 18.635588
27.450000 70.125000 18.635588
25.775000 86.359375 18.805076
25.800000 86.531250 18.805076
25.850000 85.109375 18.805076
25.575000 83.562500 18.805076
25.300000 83.187500 18.805076
25.125000 81.343750 18.805076
25.075000 81.000000 18.805076
25.300000 79.437500 18.805076
25.550000 77.515625 18.805076
27.425000 73.171875 18.805076
27.250000 71.937500 18.805076
27.175000 70.656250 18.805076
25.675000 87.500000 18.962597
25.675000 86.515625 18.962597
25.800000 85.906250 18.962597
25.550000 83.859375 18.962597
24.875000 80.328125 18.962597
25.100000 80.312500 18.962597
25.275000 77.937500 18.962597
27.375000 73.000000 18.962597
27.150000 72.843750 18.962597
27.125000 71.890625 18.962597
25.700000 88.671875 19.132550
25.425000 87.968750 19.132550
25.350000 86.781250 19.132550
25.575000 86.484375 19.132550
25.775000 84.953125 19.132550
24.950000 80.640625 19.132550
25.100000 79.125000 19.132550
25.225000 76.968750 19.132550
27.300000 73.234375 19.132550
27.075000 71.468750 19.132550
27.050000 71.453125 19.132550
25.725000 88.828125 19.303342
25.425000 87.109375 19.303342
25.350000 86.656250 19.303342
25.475000 85.203125 19.303342
25.650000 83.859375 19.303342
25.325000 79.453125 19.303342
25.050000 80.656250 19.303342
25.175000 78.812500 19.303342
25.275000 77.453125 19.303342
27.075000 73.312500 19.303342
26.850000 72.312500 19.303342
26.950000 70.656250 19.303342
25.600000 89.703125 19.475743
25.675000 88.046875 19.475743
25.450000 86.625000 19.475743
25.325000 86.437500 19.475743
25.375000 85.765625 19.475743
25.575000 83.187500 19.475743
25.625000 82.562500 19.475743
25.650000 82.593750 19.475743
25.450000 80.234375 19.475743
25.175000 79.859375 19.475743
25.225000 77.156250 19.475743
26.550000 73.828125 19.475743
26.625000 72.406250 19.475743
26.775000 72.000000 19.475743
25.625000 88.953125 19.653801
25.425000 87.375000 19.653801
25.300000 85.953125 19.653801
25.325000 84.656250 19.653801
25.350000 83.953125 19.653801
25.325000 81.468750 19.653801
25.250000 80.296875 19.653801
25.250000 77.468750 19.653801
25.425000 78.359375 19.653801
25.750000 76.437500 19.653801
26.100000 75.531250 19.653801
26.300000 74.953125 19.653801
26.400000 72.796875 19.653801
26.575000 72.640625 19.653801
26.750000 70.875000 19.653801
25.575000 88.406250 19.814705
25.200000 87.437500 19.814705
25.200000 87.156250 19.814705
25.275000 86.390625 19.814705
25.300000 85.156250 19.814705
25.425000 84.000000 19.814705
25.450000 81.250000 19.814705
25.500000 81.812500 19.814705
25.450000 80.531250 19.814705
25.300000 79.546875 19.814705
25.425000 78.750000 19.814705
25.675000 77.031250 19.814705
25.875000 76.281250 19.814705
26.050000 74.656250 19.814705
26.200000 74.687500 19.814705
26.400000 73.500000 19.814705
26.550000 72.390625 19.814705
26.725000 71.156250 19.814705
25.450000 88.921875 19.980330
25.325000 87.031250 19.980330
25.275000 86.640625 19.980330
25.300000 84.046875 19.980330
25.300000 83.656250 19.980330
25.300000 83.359375 19.980330
25.400000 82.125000 19.980330
25.475000 80.890625 19.980330
25.500000 79.484375 19.980330
25.525000 79.171875 19.980330
25.675000 77.406250 19.980330
25.800000 77.171875 19.980330
25.850000 75.500000 19.980330
26.000000 74.421875 19.980330
26.200000 73.515625 19.980330
26.375000 72.390625 19.980330
26.600000 72.078125 19.980330
25.375000 87.531250 20.157347
25.250000 87.265625 20.157347
25.250000 84.437500 20.157347
25.250000 85.078125 20.157347
25.275000 84.453125 20.157347
25.275000 82.484375 20.157347
25.300000 82.328125 20.157347
25.325000 80.984375 20.157347
25.425000 79.515625 20.157347
25.600000 78.828125 20.157347
25.725000 77.515625 20.157347
25.725000 76.812500 20.157347
25.775000 74.421875 20.157347
25.975000 74.859375 20.157347
26.175000 72.921875 20.157347
26.350000 72.125000 20.157347
26.550000 71.281250 20.157347
25.425000 88.093750 20.327937
25.275000 87.109375 20.327937
25.250000 86.046875 20.327937
25.250000 85.515625 20.327937
25.275000 83.406250 20.327937
25.275000 83.718750 20.327937
25.300000 81.734375 20.327937
25.300000 81.484375 20.327937
25.325000 79.781250 20.327937
25.500000 78.312500 20.327937
25.725000 77.468750 20.327937
25.700000 76.421875 20.327937
25.725000 75.640625 20.327937
25.900000 75.187500 20.327937
26.075000 73.453125 20.327937
26.250000 72.375000 20.327937
26.400000 71.750000 20.327937
26.600000 70.171875 20.327937
26.900000 69.015625 20.327937
25.425000 89.750000 20.483650
25.350000 88.640625 20.483650
25.250000 86.281250 20.483650
25.250000 85.984375 20.483650
25.275000 85.781250 20.483650
25.275000 83.828125 20.483650
25.275000 83.421875 20.483650
25.300000 81.906250 20.483650
25.300000 80.968750 20.483650
25.325000 80.171875 20.483650
25.500000 79.421875 20.483650
25.700000 77.218750 20.483650
25.675000 77.265625 20.483650
25.700000 76.109375 20.483650
25.875000 74.609375 20.483650
26.050000 72.859375 20.483650
26.225000 72.687500 20.483650
26.400000 71.343750 20.483650
26.600000 70.296875 20.483650
26.875000 69.906250 20.483650
25.675000 88.984375 20.669483
25.475000 89.000000 20.669483
25.275000 86.796875 20.669483
25.250000 85.515625 20.669483
25.250000 85.593750 20.669483
25.275000 84.218750 20.669483
25.275000 83.734375 20.669483
25.300000 82.531250 20.669483
25.300000 81.250000 20.669483
25.325000 78.546875 20.669483
25.500000 78.218750 20.669483
25.650000 78.093750 20.669483
25.625000 77.062500 20.669483
25.700000 74.937500 20.669483
25.850000 73.812500 20.669483
26.025000 72.953125 20.669483
26.200000 72.531250 20.669483
26.375000 71.953125 20.669483
26.575000 70.390625 20.669483
25.550000 88.593750 20.826710
25.350000 87.812500 20.826710
25.250000 87.812500 20.826710
25.250000 86.578125 20.826710
25.275000 84.875000 20.826710
25.275000 83.359375 20.826710
25.275000 81.703125 20.826710
25.275000 81.453125 20.826710
25.350000 81.296875 20.826710
25.475000 79.625000 20.826710
25.675000 78.625000 20.826710
25.675000 77.578125 20.826710
25.650000 77.171875 20.826710
25.825000 74.562500 20.826710
25.900000 74.671875 20.826710
26.025000 73.171875 20.826710
26.200000 72.281250 20.826710
26.400000 71.890625 20.826710
26.575000 70.921875 20.826710
26.875000 69.750000 20.826710
25.825000 88.390625 20.998132
25.350000 88.875000 20.998132
25.250000 87.812500 20.998132
25.250000 86.750000 20.998132
25.275000 85.078125 20.998132
25.275000 82.750000 20.998132
25.275000 83.515625 20.998132
25.275000 81.218750 20.998132
25.325000 80.015625 20.998132
25.450000 77.531250 20.998132
25.650000 77.093750 20.998132
25.800000 74.500000 20.998132
25.875000 74.265625 20.998132
26.000000 72.781250 20.998132
26.175000 71.734375 20.998132
26.350000 71.625000 20.998132
26.550000 70.359375 20.998132
25.200000 86.187500 21.168495
25.250000 85.906250 21.168495
25.275000 83.953125 21.168495
25.300000 83.750000 21.168495
25.300000 82.125000 21.168495
25.375000 82.000000 21.168495
25.500000 79.781250 21.168495
25.650000 79.500000 21.168495
25.850000 78.203125 21.168495
25.850000 77.125000 21.168495
25.750000 76.343750 21.168495
25.800000 75.156250 21.168495
25.925000 74.281250 21.168495
26.075000 73.156250 21.168495
26.250000 71.546875 21.168495
26.450000 70.328125 21.168495
26.700000 69.390625 21.168495
27.075000 68.796875 21.168495
25.175000 87.359375 21.339028
25.250000 86.031250 21.339028
25.275000 84.156250 21.339028
25.275000 84.171875 21.339028
25.300000 82.203125 21.339028
25.300000 81.531250 21.339028
25.425000 81.031250 21.339028
25.625000 79.687500 21.339028
25.850000 78.078125 21.339028
25.825000 77.984375 21.339028
25.725000 76.312500 21.339028
25.775000 75.484375 21.339028
25.900000 74.046875 21.339028
26.075000 73.656250 21.339028
26.250000 72.093750 21.339028
26.425000 70.359375 21.339028
25.625000 88.031250 21.512054
25.350000 85.906250 21.512054
25.250000 86.468750 21.512054
25.250000 84.109375 21.512054
25.275000 84.796875 21.512054
25.275000 82.921875 21.512054
25.300000 80.937500 21.512054
25.300000 81.140625 21.512054
25.450000 80.343750 21.512054
25.725000 78.937500 21.512054
25.725000 77.890625 21.512054
25.625000 77.437500 21.512054
25.700000 76.296875 21.512054
25.850000 74.296875 21.512054
26.000000 73.093750 21.512054
26.200000 72.875000 21.512054
26.375000 72.093750 21.512054
26.550000 71.109375 21.512054
25.250000 87.468750 21.676729
25.250000 86.031250 21.676729
25.250000 84.453125 21.676729
25.275000 84.015625 21.676729
25.275000 82.015625 21.676729
25.300000 81.828125 21.676729
25.425000 81.140625 21.676729
25.625000 79.343750 21.676729
25.875000 78.328125 21.676729
25.825000 77.125000 21.676729
25.675000 76.046875 21.676729
25.775000 74.500000 21.676729
25.950000 74.046875 21.676729
26.150000 73.484375 21.676729
26.325000 72.437500 21.676729
26.475000 70.390625 21.676729
26.625000 70.031250 21.676729
26.900000 68.640625 21.676729
25.125000 87.515625 21.847523
25.200000 87.218750 21.847523
25.275000 85.171875 21.847523
