39.225000 81.812500 19.617963
39.475000 80.421875 19.617963
39.650000 79.015625 19.617963
39.800000 77.953125 19.617963
40.100000 76.750000 19.617963
38.950000 89.734375 19.765767
38.800000 88.578125 19.765767
39.050000 87.671875 19.765767
39.100000 86.593750 19.765767
39.075000 85.109375 19.765767
39.125000 84.156250 19.765767
39.300000 83.046875 19.765767
39.275000 81.640625 19.765767
39.325000 80.765625 19.765767
39.600000 79.609375 19.765767
39.800000 78.281250 19.765767
40.100000 77.156250 19.765767
38.700000 90.140625 19.927583
38.775000 88.968750 19.927583
39.025000 87.796875 19.927583
39.025000 86.515625 19.927583
39.050000 85.546875 19.927583
39.075000 84.296875 19.927583
39.325000 83.234375 19.927583
39.350000 81.828125 19.927583
39.325000 80.781250 19.927583
39.525000 79.390625 19.927583
39.625000 78.390625 19.927583
39.150000 88.890625 20.078219
39.050000 88.046875 20.078219
39.075000 86.640625 20.078219
39.075000 85.421875 20.078219
39.075000 84.390625 20.078219
39.275000 83.046875 20.078219
39.275000 82.281250 20.078219
39.250000 81.078125 20.078219
39.450000 79.921875 20.078219
39.575000 78.468750 20.078219
39.850000 77.640625 20.078219
40.550000 76.421875 20.078219
39.025000 87.750000 20.238531
39.050000 86.531250 20.238531
39.050000 85.156250 20.238531
39.075000 84.218750 20.238531
39.325000 83.140625 20.238531
39.350000 81.984375 20.238531
39.225000 80.546875 20.238531
39.475000 79.546875 20.238531
39.650000 78.187500 20.238531
39.875000 77.390625 20.238531
38.925000 89.687500 20.387028
38.875000 88.656250 20.387028
39.025000 87.406250 20.387028
39.075000 86.296875 20.387028
39.075000 85.187500 20.387028
39.125000 84.250000 20.387028
39.350000 82.953125 20.387028
39.350000 81.671875 20.387028
39.300000 80.781250 20.387028
39.525000 79.171875 20.387028
39.625000 78.250000 20.387028
39.875000 77.218750 20.387028
39.000000 88.703125 20.538714
39.125000 87.546875 20.538714
39.075000 86.203125 20.538714
39.100000 85.156250 20.538714
39.150000 83.843750 20.538714
39.200000 82.968750 20.538714
39.175000 81.640625 20.538714
39.300000 80.578125 20.538714
39.475000 79.312500 20.538714
39.600000 78.218750 20.538714
39.875000 77.140625 20.538714
39.125000 89.171875 20.697552
39.025000 88.046875 20.697552
39.075000 87.093750 20.697552
39.075000 85.796875 20.697552
39.100000 84.640625 20.697552
39.375000 83.578125 20.697552
39.375000 82.062500 20.697552
39.225000 80.703125 20.697552
39.400000 79.546875 20.697552
39.575000 78.703125 20.697552
39.750000 77.281250 20.697552
40.250000 76.078125 20.697552
39.050000 87.640625 20.849373
39.050000 86.359375 20.849373
39.050000 85.343750 20.849373
39.125000 83.937500 20.849373
39.225000 83.093750 20.849373
39.225000 81.812500 20.849373
39.300000 80.671875 20.849373
39.475000 79.500000 20.849373
39.600000 77.984375 20.849373
39.875000 77.296875 20.849373
39.000000 88.484375 21.008686
39.100000 87.718750 21.008686
39.100000 86.109375 21.008686
39.125000 84.921875 21.008686
39.225000 83.906250 21.008686
39.250000 82.609375 21.008686
39.200000 81.531250 21.008686
39.250000 80.234375 21.008686
39.425000 79.406250 21.008686
39.675000 77.828125 21.008686
39.950000 77.078125 21.008686
38.975000 88.484375 21.159586
39.100000 87.171875 21.159586
39.100000 86.125000 21.159586
39.175000 85.015625 21.159586
39.250000 84.046875 21.159586
39.225000 82.562500 21.159586
39.175000 81.640625 21.159586
39.250000 80.515625 21.159586
39.450000 79.250000 21.159586
39.700000 78.093750 21.159586
39.975000 76.875000 21.159586
39.075000 87.312500 21.314026
39.150000 86.093750 21.314026
39.200000 85.078125 21.314026
39.350000 83.625000 21.314026
39.250000 82.531250 21.314026
39.150000 81.203125 21.314026
39.350000 79.953125 21.314026
39.525000 79.203125 21.314026
39.700000 77.703125 21.314026
40.000000 76.609375 21.314026
39.075000 86.718750 21.468242
39.075000 85.703125 21.468242
39.175000 84.718750 21.468242
39.525000 83.218750 21.468242
39.475000 82.234375 21.468242
39.200000 81.031250 21.468242
39.375000 79.937500 21.468242
39.575000 78.500000 21.468242
39.750000 77.453125 21.468242
40.150000 76.421875 21.468242
39.025000 87.656250 21.624395
39.075000 86.375000 21.624395
39.100000 85.375000 21.624395
39.150000 84.046875 21.624395
39.225000 83.015625 21.624395
39.225000 81.640625 21.624395
39.250000 80.437500 21.624395
39.450000 79.296875 21.624395
39.625000 78.265625 21.624395
39.875000 77.281250 21.624395
39.025000 87.953125 21.768818
39.050000 86.437500 21.768818
39.075000 85.265625 21.768818
39.125000 84.046875 21.768818
39.200000 83.234375 21.768818
39.200000 81.812500 21.768818
39.225000 80.828125 21.768818
39.450000 79.343750 21.768818
39.625000 78.562500 21.768818
39.100000 87.531250 21.922758
39.125000 86.265625 21.922758
39.175000 85.250000 21.922758
39.250000 83.703125 21.922758
39.225000 82.421875 21.922758
39.200000 81.265625 21.922758
39.275000 80.265625 21.922758
39.475000 79.359375 21.922758
39.700000 77.937500 21.922758
39.975000 76.593750 21.922758
39.125000 87.343750 22.078590
39.150000 85.968750 22.078590
39.175000 84.937500 22.078590
39.375000 83.406250 22.078590
39.300000 82.265625 22.078590
39.175000 81.140625 22.078590
39.375000 80.125000 22.078590
39.575000 78.718750 22.078590
39.775000 77.531250 22.078590
40.125000 76.375000 22.078590
39.075000 87.390625 22.246626
39.150000 86.140625 22.246626
39.175000 84.875000 22.246626
39.325000 83.468750 22.246626
39.250000 82.468750 22.246626
39.150000 81.125000 22.246626
39.350000 79.953125 22.246626
39.550000 78.796875 22.246626
39.725000 77.562500 22.246626
40.075000 76.703125 22.246626
39.350000 89.906250 22.392807
38.950000 88.437500 22.392807
39.075000 87.375000 22.392807
39.100000 86.328125 22.392807
39.175000 85.140625 22.392807
39.250000 83.640625 22.392807
39.225000 82.609375 22.392807
39.175000 81.343750 22.392807
39.275000 80.468750 22.392807
39.475000 78.875000 22.392807
39.700000 77.921875 22.392807
40.000000 76.843750 22.392807
39.150000 89.562500 22.545338
38.950000 88.531250 22.545338
39.075000 87.359375 22.545338
39.100000 86.046875 22.545338
39.125000 85.281250 22.545338
39.200000 84.000000 22.545338
39.500000 82.593750 22.545338
39.450000 81.609375 22.545338
39.275000 80.156250 22.545338
39.450000 79.343750 22.545338
39.675000 78.046875 22.545338
40.025000 77.000000 22.545338
38.850000 89.953125 22.702634
38.725000 88.750000 22.702634
39.025000 87.656250 22.702634
39.075000 86.531250 22.702634
39.100000 84.937500 22.702634
39.175000 84.171875 22.702634
39.350000 82.671875 22.702634
39.350000 81.750000 22.702634
39.325000 80.687500 22.702634
39.575000 79.390625 22.702634
39.825000 77.968750 22.702634
40.075000 76.953125 22.702634
38.825000 89.718750 22.856533
38.725000 88.906250 22.856533
39.025000 87.359375 22.856533
39.075000 86.312500 22.856533
39.100000 85.343750 22.856533
39.250000 84.234375 22.856533
39.275000 82.781250 22.856533
39.175000 81.796875 22.856533
39.300000 80.640625 22.856533
39.575000 79.312500 22.856533
39.800000 78.265625 22.856533
40.050000 76.906250 22.856533
38.825000 89.562500 23.015942
38.750000 88.843750 23.015942
39.050000 87.703125 23.015942
39.075000 86.359375 23.015942
39.100000 85.031250 23.015942
39.025000 83.875000 23.015942
39.075000 82.843750 23.015942
39.350000 81.781250 23.015942
39.500000 80.250000 23.015942
39.575000 79.078125 23.015942
39.800000 78.359375 23.015942
40.075000 77.078125 23.015942
39.150000 89.687500 23.166307
39.000000 88.343750 23.166307
39.075000 87.031250 23.166307
39.125000 86.140625 23.166307
39.575000 85.171875 23.166307
39.450000 83.406250 23.166307
39.000000 82.609375 23.166307
39.325000 81.500000 23.166307
39.525000 80.156250 23.166307
39.575000 78.812500 23.166307
39.850000 77.968750 23.166307
40.200000 76.890625 23.166307
39.150000 90.281250 23.326913
39.225000 88.843750 23.326913
39.025000 87.843750 23.326913
39.050000 86.562500 23.326913
39.125000 85.484375 23.326913
38.925000 84.140625 23.326913
38.775000 83.078125 23.326913
39.125000 81.812500 23.326913
39.475000 80.843750 23.326913
39.650000 79.593750 23.326913
39.800000 78.421875 23.326913
38.825000 89.609375 23.480277
38.750000 88.843750 23.480277
39.050000 87.328125 23.480277
38.900000 83.953125 23.480277
38.875000 82.750000 23.480277
39.125000 81.531250 23.480277
39.375000 80.687500 23.480277
39.600000 79.515625 23.480277
39.875000 78.093750 23.480277
40.125000 76.765625 23.480277
39.050000 89.750000 23.637902
38.950000 88.578125 23.637902
39.075000 87.531250 23.637902
39.100000 86.156250 23.637902
39.625000 85.062500 23.637902
38.850000 82.718750 23.637902
39.125000 81.421875 23.637902
39.500000 80.484375 23.637902
39.800000 79.000000 23.637902
39.950000 77.906250 23.637902
40.250000 76.796875 23.637902
39.200000 89.500000 23.776419
39.050000 88.140625 23.776419
39.125000 87.281250 23.776419
38.900000 85.890625 23.776419
38.625000 84.640625 23.776419
38.725000 83.609375 23.776419
38.975000 82.218750 23.776419
39.350000 81.218750 23.776419
39.700000 79.875000 23.776419
39.875000 78.890625 23.776419
40.050000 77.546875 23.776419
40.475000 76.656250 23.776419
39.125000 89.390625 23.934078
39.000000 88.281250 23.934078
39.125000 87.203125 23.934078
39.075000 86.000000 23.934078
38.825000 84.656250 23.934078
38.750000 83.625000 23.934078
39.075000 82.484375 23.934078
39.425000 81.125000 23.934078
39.700000 80.281250 23.934078
39.900000 78.812500 23.934078
40.050000 77.765625 23.934078
40.475000 76.734375 23.934078
39.200000 89.250000 24.089020
39.100000 88.218750 24.089020
39.150000 87.343750 24.089020
39.200000 85.812500 24.089020
38.925000 84.421875 24.089020
38.725000 83.484375 24.089020
39.100000 82.140625 24.089020
39.475000 81.281250 24.089020
39.800000 79.953125 24.089020
40.000000 78.656250 24.089020
40.075000 77.781250 24.089020
40.500000 76.531250 24.089020
38.900000 89.703125 24.244728
38.950000 88.812500 24.244728
39.225000 87.531250 24.244728
38.725000 86.312500 24.244728
38.525000 85.453125 24.244728
38.975000 83.921875 24.244728
39.400000 82.953125 24.244728
39.850000 79.343750 24.244728
40.175000 78.281250 24.244728
40.425000 77.078125 24.244728
39.125000 88.812500 24.401101
39.225000 87.484375 24.401101
38.975000 86.625000 24.401101
38.775000 85.093750 24.401101
38.975000 84.187500 24.401101
39.475000 82.859375 24.401101
40.100000 79.656250 24.401101
40.325000 78.500000 24.401101
40.375000 77.156250 24.401101
39.025000 89.093750 24.555861
39.250000 87.609375 24.555861
39.175000 84.078125 24.555861
39.300000 83.156250 24.555861
39.775000 82.000000 24.555861
40.475000 81.015625 24.555861
40.725000 79.671875 24.555861
40.450000 78.343750 24.555861
40.375000 77.078125 24.555861
39.050000 89.156250 24.711671
39.250000 88.000000 24.711671
39.275000 86.656250 24.711671
39.575000 85.437500 24.711671
39.500000 84.171875 24.711671
39.325000 83.015625 24.711671
39.800000 81.843750 24.711671
40.475000 81.015625 24.711671
40.725000 79.453125 24.711671
40.450000 78.437500 24.711671
40.425000 77.343750 24.711671
39.250000 90.484375 24.868026
39.350000 89.109375 24.868026
39.175000 87.953125 24.868026
39.200000 84.218750 24.868026
39.175000 83.062500 24.868026
39.675000 82.171875 24.868026
40.425000 81.218750 24.868026
40.650000 79.906250 24.868026
40.475000 78.562500 24.868026
40.450000 77.578125 24.868026
40.900000 76.218750 24.868026
39.300000 89.625000 25.016503
39.300000 88.187500 25.016503
39.350000 87.281250 25.016503
39.275000 86.000000 25.016503
38.900000 84.718750 25.016503
38.750000 83.625000 25.016503
39.425000 82.812500 25.016503
40.100000 78.828125 25.016503
40.400000 77.671875 25.016503
40.675000 76.671875 25.016503
39.200000 90.031250 25.168844
39.275000 88.515625 25.168844
39.350000 87.421875 25.168844
39.225000 86.390625 25.168844
39.100000 84.921875 25.168844
39.150000 84.156250 25.168844
39.600000 82.812500 25.168844
40.275000 81.859375 25.168844
40.650000 80.531250 25.168844
40.575000 79.375000 25.168844
40.425000 77.906250 25.168844
40.500000 76.906250 25.168844
39.175000 90.015625 25.332336
39.250000 88.500000 25.332336
39.300000 87.406250 25.332336
39.125000 86.375000 25.332336
39.025000 85.328125 25.332336
39.100000 83.906250 25.332336
39.550000 82.890625 25.332336
40.275000 81.890625 25.332336
40.675000 80.687500 25.332336
40.575000 79.265625 25.332336
40.350000 78.250000 25.332336
40.450000 76.859375 25.332336
39.325000 89.093750 25.481360
39.175000 88.140625 25.481360
39.225000 84.859375 25.481360
40.575000 80.078125 25.481360
40.325000 78.890625 25.481360
40.375000 77.609375 25.481360
40.650000 76.718750 25.481360
39.075000 90.156250 25.640565
39.375000 89.015625 25.640565
39.475000 87.625000 25.640565
39.350000 86.390625 25.640565
39.150000 85.265625 25.640565
39.075000 84.203125 25.640565
39.300000 82.937500 25.640565
40.050000 81.781250 25.640565
40.625000 80.734375 25.640565
40.500000 79.453125 25.640565
40.325000 78.515625 25.640565
40.500000 77.156250 25.640565
39.825000 89.031250 25.791110
39.475000 88.265625 25.791110
39.550000 86.703125 25.791110
39.650000 85.890625 25.791110
39.425000 84.328125 25.791110
40.325000 79.984375 25.791110
40.200000 78.546875 25.791110
40.425000 77.359375 25.791110
40.975000 76.421875 25.791110
39.450000 89.390625 25.951677
39.325000 88.546875 25.951677
39.575000 87.406250 25.951677
39.650000 86.156250 25.951677
39.400000 84.734375 25.951677
39.275000 83.640625 25.951677
39.900000 82.390625 25.951677
40.550000 81.500000 25.951677
40.475000 80.171875 25.951677
40.200000 79.140625 25.951677
40.375000 77.828125 25.951677
40.650000 76.562500 25.951677
39.975000 89.906250 26.103526
39.925000 88.656250 26.103526
39.575000 87.296875 26.103526
39.750000 86.093750 26.103526
39.575000 85.250000 26.103526
40.350000 80.421875 26.103526
40.175000 79.187500 26.103526
40.275000 78.234375 26.103526
40.625000 76.968750 26.103526
40.125000 90.046875 26.261786
40.075000 88.562500 26.261786
39.575000 87.718750 26.261786
39.575000 86.250000 26.261786
39.600000 85.218750 26.261786
39.575000 83.734375 26.261786
39.875000 82.812500 26.261786
40.425000 81.765625 26.261786
40.275000 80.546875 26.261786
40.075000 79.437500 26.261786
40.250000 78.140625 26.261786
40.600000 76.890625 26.261786
39.775000 89.375000 26.414176
39.825000 88.515625 26.414176
39.625000 87.296875 26.414176
39.650000 85.890625 26.414176
39.725000 84.796875 26.414176
39.825000 83.859375 26.414176
40.100000 82.609375 26.414176
40.400000 81.281250 26.414176
40.250000 80.031250 26.414176
40.025000 78.750000 26.414176
40.275000 77.750000 26.414176
40.725000 76.796875 26.414176
39.600000 87.531250 26.573697
39.700000 86.421875 26.573697
39.750000 84.843750 26.573697
39.850000 83.953125 26.573697
40.150000 82.968750 26.573697
40.425000 81.625000 26.573697
40.250000 80.203125 26.573697
40.025000 79.359375 26.573697
40.350000 77.953125 26.573697
40.725000 77.093750 26.573697
39.600000 87.421875 26.725450
39.675000 86.375000 26.725450
39.700000 85.046875 26.725450
39.800000 84.000000 26.725450
40.125000 82.796875 26.725450
40.400000 81.609375 26.725450
40.225000 80.093750 26.725450
40.000000 79.156250 26.725450
40.250000 77.796875 26.725450
40.625000 76.640625 26.725450
40.500000 89.796875 26.883313
39.575000 87.484375 26.883313
39.650000 86.031250 26.883313
39.725000 85.015625 26.883313
39.825000 83.671875 26.883313
40.150000 82.828125 26.883313
40.425000 81.750000 26.883313
40.225000 80.437500 26.883313
40.025000 79.187500 26.883313
40.175000 78.046875 26.883313
40.575000 76.953125 26.883313
39.875000 90.078125 27.038120
39.775000 88.578125 27.038120
39.650000 87.750000 27.038120
39.700000 86.531250 27.038120
39.750000 85.218750 27.038120
39.800000 84.265625 27.038120
40.200000 83.078125 27.038120
40.525000 81.890625 27.038120
40.250000 80.421875 27.038120
39.975000 79.484375 27.038120
40.125000 78.093750 27.038120
40.475000 77.265625 27.038120
39.800000 89.593750 27.182085
39.575000 88.453125 27.182085
39.700000 87.250000 27.182085
39.775000 85.953125 27.182085
39.800000 84.515625 27.182085
39.900000 83.312500 27.182085
40.150000 82.546875 27.182085
40.350000 81.265625 27.182085
40.250000 80.062500 27.182085
40.100000 78.781250 27.182085
40.300000 77.593750 27.182085
40.775000 76.656250 27.182085
39.875000 90.125000 27.337232
39.775000 88.562500 27.337232
39.600000 87.703125 27.337232
39.675000 86.343750 27.337232
39.700000 85.406250 27.337232
39.700000 83.937500 27.337232
40.075000 82.906250 27.337232
40.400000 81.765625 27.337232
40.200000 80.453125 27.337232
40.050000 79.468750 27.337232
40.175000 78.000000 27.337232
40.425000 77.171875 27.337232
39.500000 89.375000 27.494326
39.425000 88.375000 27.494326
39.675000 86.984375 27.494326
39.475000 85.968750 27.494326
39.375000 84.734375 27.494326
39.400000 83.218750 27.494326
39.800000 82.125000 27.494326
40.350000 81.046875 27.494326
40.175000 79.843750 27.494326
40.050000 78.562500 27.494326
40.275000 77.765625 27.494326
40.775000 76.453125 27.494326
39.100000 90.187500 27.649852
39.375000 89.125000 27.649852
39.500000 87.843750 27.649852
39.850000 86.625000 27.649852
39.550000 85.546875 27.649852
39.100000 82.937500 27.649852
39.775000 82.265625 27.649852
40.625000 80.984375 27.649852
40.450000 79.484375 27.649852
40.050000 78.281250 27.649852
39.650000 89.625000 27.805954
39.625000 88.656250 27.805954
39.450000 87.218750 27.805954
39.125000 86.234375 27.805954
38.925000 85.000000 27.805954
39.225000 83.859375 27.805954
39.775000 82.546875 27.805954
40.250000 81.562500 27.805954
40.225000 80.328125 27.805954
40.025000 79.031250 27.805954
40.150000 77.937500 27.805954
40.525000 76.734375 27.805954
39.550000 90.000000 27.957028
39.625000 88.453125 27.957028
39.300000 87.531250 27.957028
39.025000 86.265625 27.957028
38.800000 84.921875 27.957028
38.950000 84.171875 27.957028
39.350000 82.796875 27.957028
39.975000 81.734375 27.957028
40.600000 80.437500 27.957028
40.450000 79.453125 27.957028
40.175000 78.343750 27.957028
40.425000 76.906250 27.957028
39.050000 90.171875 28.118785
39.200000 89.031250 28.118785
39.000000 85.453125 28.118785
39.175000 84.281250 28.118785
40.025000 81.140625 28.118785
40.175000 79.656250 28.118785
40.100000 78.484375 28.118785
40.300000 77.421875 28.118785
40.850000 76.375000 28.118785
39.000000 85.515625 28.269287
39.175000 84.453125 28.269287
40.000000 80.937500 28.269287
40.175000 79.500000 28.269287
40.100000 78.671875 28.269287
38.900000 89.968750 28.429558
39.050000 88.937500 28.429558
38.850000 85.453125 28.429558
38.950000 84.484375 28.429558
39.975000 80.781250 28.429558
40.375000 79.796875 28.429558
40.175000 78.406250 28.429558
39.425000 89.218750 28.580600
39.125000 88.031250 28.580600
39.350000 87.109375 28.580600
38.950000 85.500000 28.580600
38.700000 84.265625 28.580600
39.000000 83.421875 28.580600
39.375000 81.968750 28.580600
40.100000 81.171875 28.580600
40.375000 79.687500 28.580600
40.275000 78.687500 28.580600
40.200000 77.578125 28.580600
40.650000 76.468750 28.580600
39.175000 89.890625 28.742321
39.150000 88.484375 28.742321
38.875000 85.140625 28.742321
38.575000 83.781250 28.742321
39.050000 82.484375 28.742321
39.825000 81.734375 28.742321
40.375000 80.453125 28.742321
40.350000 79.125000 28.742321
40.050000 77.859375 28.742321
40.250000 76.843750 28.742321
39.125000 88.062500 28.887491
38.925000 86.859375 28.887491
38.525000 85.390625 28.887491
38.600000 84.156250 28.887491
39.200000 83.218750 28.887491
39.675000 82.234375 28.887491
40.175000 80.750000 28.887491
40.450000 79.734375 28.887491
40.250000 78.734375 28.887491
39.350000 89.265625 29.040182
39.050000 88.265625 29.040182
38.650000 86.984375 29.040182
38.275000 85.671875 29.040182
38.500000 84.656250 29.040182
38.775000 83.281250 29.040182
39.175000 82.125000 29.040182
39.625000 81.078125 29.040182
40.125000 80.031250 29.040182
40.250000 78.968750 29.040182
40.125000 77.671875 29.040182
40.500000 76.687500 29.040182
39.150000 90.046875 29.200490
39.125000 88.531250 29.200490
39.150000 87.734375 29.200490
39.325000 86.437500 29.200490
38.450000 84.109375 29.200490
38.775000 83.078125 29.200490
40.200000 78.234375 29.200490
40.250000 77.125000 29.200490
39.175000 90.109375 29.349657
39.125000 88.796875 29.349657
39.125000 87.687500 29.349657
39.150000 86.234375 29.349657
38.725000 85.171875 29.349657
38.400000 83.812500 29.349657
38.675000 82.953125 29.349657
39.450000 79.390625 29.349657
39.975000 78.359375 29.349657
40.100000 76.828125 29.349657
38.850000 90.000000 29.509312
38.975000 89.031250 29.509312
39.125000 87.656250 29.509312
38.850000 86.750000 29.509312
38.500000 85.546875 29.509312
38.475000 84.093750 29.509312
38.675000 82.968750 29.509312
39.100000 81.968750 29.509312
39.800000 80.750000 29.509312
39.950000 79.343750 29.509312
39.825000 78.453125 29.509312
40.100000 77.453125 29.509312
39.300000 89.062500 29.660432
39.075000 87.937500 29.660432
38.850000 84.328125 29.660432
38.650000 83.468750 29.660432
38.975000 81.953125 29.660432
39.500000 80.843750 29.660432
39.725000 79.953125 29.660432
39.800000 78.578125 29.660432
40.050000 77.500000 29.660432
40.625000 76.515625 29.660432
39.100000 89.015625 29.821725
38.950000 88.234375 29.821725
39.125000 86.718750 29.821725
39.225000 85.734375 29.821725
38.950000 84.296875 29.821725
38.650000 83.453125 29.821725
38.975000 82.234375 29.821725
39.400000 80.890625 29.821725
39.625000 79.843750 29.821725
39.775000 78.562500 29.821725
40.025000 77.406250 29.821725
40.475000 76.593750 29.821725
39.475000 89.453125 29.970683
39.075000 88.406250 29.970683
39.050000 86.968750 29.970683
38.950000 85.843750 29.970683
38.925000 84.750000 29.970683
38.950000 83.453125 29.970683
39.025000 82.468750 29.970683
39.300000 81.265625 29.970683
39.475000 80.140625 29.970683
39.625000 78.750000 29.970683
39.850000 77.656250 29.970683
40.250000 76.500000 29.970683
38.675000 89.921875 30.130070
38.775000 88.937500 30.130070
39.125000 87.734375 30.130070
39.100000 86.453125 30.130070
39.050000 85.359375 30.130070
39.025000 84.031250 30.130070
39.075000 83.093750 30.130070
39.225000 82.031250 30.130070
39.375000 80.687500 30.130070
39.500000 79.375000 30.130070
39.725000 78.453125 30.130070
40.075000 77.265625 30.130070
39.000000 89.562500 30.281861
38.825000 87.968750 30.281861
39.050000 87.093750 30.281861
39.075000 85.843750 30.281861
39.050000 84.750000 30.281861
39.075000 83.296875 30.281861
39.175000 82.203125 30.281861
39.250000 80.937500 30.281861
39.350000 79.796875 30.281861
39.600000 78.875000 30.281861
39.850000 77.890625 30.281861
40.300000 76.546875 30.281861
38.800000 89.859375 30.435695
38.750000 88.906250 30.435695
39.075000 87.671875 30.435695
39.100000 86.250000 30.435695
39.050000 85.234375 30.435695
39.075000 84.187500 30.435695
39.400000 83.187500 30.435695
39.450000 81.625000 30.435695
39.325000 80.765625 30.435695
39.475000 79.328125 30.435695
39.650000 78.062500 30.435695
40.000000 77.203125 30.435695
39.175000 89.437500 30.581631
39.025000 88.109375 30.581631
39.100000 87.046875 30.581631
39.075000 85.750000 30.581631
39.075000 84.750000 30.581631
39.250000 83.484375 30.581631
39.300000 82.250000 30.581631
39.250000 81.156250 30.581631
39.375000 80.000000 30.581631
39.550000 78.453125 30.581631
39.800000 77.703125 30.581631
40.325000 76.250000 30.581631
39.050000 89.531250 30.746003
38.800000 88.125000 30.746003
39.025000 87.125000 30.746003
39.050000 85.937500 30.746003
39.050000 84.828125 30.746003
39.075000 83.515625 30.746003
39.075000 82.500000 30.746003
39.125000 81.109375 30.746003
39.350000 79.875000 30.746003
39.575000 79.046875 30.746003
39.800000 77.953125 30.746003
40.225000 76.609375 30.746003
39.075000 89.703125 30.902613
38.925000 88.578125 30.902613
39.050000 87.078125 30.902613
39.075000 86.062500 30.902613
39.050000 84.843750 30.902613
39.100000 83.718750 30.902613
39.075000 82.375000 30.902613
39.100000 81.375000 30.902613
39.350000 80.187500 30.902613
39.525000 78.906250 30.902613
39.750000 78.015625 30.902613
40.150000 76.500000 30.902613
38.975000 89.734375 31.058191
38.925000 88.218750 31.058191
39.050000 87.125000 31.058191
39.075000 86.031250 31.058191
39.075000 85.015625 31.058191
39.125000 83.953125 31.058191
39.100000 82.640625 31.058191
39.100000 81.203125 31.058191
39.275000 80.000000 31.058191
39.475000 78.937500 31.058191
39.650000 77.796875 31.058191
40.025000 76.843750 31.058191
39.000000 89.421875 31.204810
38.850000 88.078125 31.204810
39.050000 87.078125 31.204810
39.075000 85.828125 31.204810
39.150000 85.015625 31.204810
39.300000 83.859375 31.204810
39.200000 82.625000 31.204810
39.125000 81.328125 31.204810
39.325000 80.125000 31.204810
39.550000 79.140625 31.204810
39.675000 77.937500 31.204810
40.000000 76.625000 31.204810
39.075000 87.968750 31.369063
39.125000 86.937500 31.369063
39.100000 85.828125 31.369063
39.150000 84.250000 31.369063
39.400000 83.375000 31.369063
39.400000 82.250000 31.369063
39.225000 80.656250 31.369063
39.350000 79.843750 31.369063
39.525000 78.453125 31.369063
39.775000 77.625000 31.369063
40.325000 76.468750 31.369063
39.275000 89.078125 31.516885
39.050000 88.093750 31.516885
39.075000 86.718750 31.516885
39.100000 85.984375 31.516885
39.100000 84.671875 31.516885
39.400000 83.390625 31.516885
39.450000 82.171875 31.516885
39.250000 81.031250 31.516885
39.350000 79.656250 31.516885
39.525000 78.734375 31.516885
39.775000 77.390625 31.516885
40.175000 76.468750 31.516885
39.125000 86.765625 31.678054
39.100000 85.562500 31.678054
39.150000 84.546875 31.678054
39.450000 83.218750 31.678054
39.450000 82.078125 31.678054
39.225000 80.781250 31.678054
39.350000 79.703125 31.678054
39.525000 78.343750 31.678054
39.750000 77.484375 31.678054
40.275000 76.234375 31.678054
39.050000 87.484375 31.826513
39.075000 85.921875 31.826513
39.100000 84.781250 31.826513
39.275000 83.656250 31.826513
39.225000 82.328125 31.826513
39.100000 81.359375 31.826513
39.300000 80.234375 31.826513
39.525000 78.968750 31.826513
39.675000 77.765625 31.826513
39.975000 76.500000 31.826513
39.100000 86.765625 31.974024
39.150000 85.593750 31.974024
39.175000 84.515625 31.974024
39.400000 83.312500 31.974024
39.425000 82.078125 31.974024
39.250000 80.859375 31.974024
39.400000 79.734375 31.974024
39.575000 78.609375 31.974024
39.775000 77.156250 31.974024
40.400000 76.437500 31.974024
39.125000 88.671875 32.136223
39.175000 87.578125 32.136223
39.200000 86.437500 32.136223
39.175000 84.921875 32.136223
39.275000 83.765625 32.136223
39.275000 82.703125 32.136223
39.200000 81.765625 32.136223
39.300000 80.296875 32.136223
39.450000 79.015625 32.136223
39.675000 78.156250 32.136223
39.975000 76.984375 32.136223
39.075000 86.984375 32.285656
39.100000 85.609375 32.285656
39.100000 84.546875 32.285656
39.400000 83.687500 32.285656
39.450000 82.250000 32.285656
39.225000 81.140625 32.285656
39.375000 79.671875 32.285656
39.550000 78.625000 32.285656
39.750000 77.640625 32.285656
40.150000 76.421875 32.285656
39.075000 87.359375 32.439886
39.125000 86.203125 32.439886
39.150000 85.187500 32.439886
39.225000 83.765625 32.439886
39.275000 82.656250 32.439886
39.200000 81.531250 32.439886
39.300000 80.375000 32.439886
39.475000 79.281250 32.439886
39.700000 78.125000 32.439886
39.975000 76.828125 32.439886
39.100000 86.921875 32.607687
39.100000 85.453125 32.607687
39.150000 84.562500 32.607687
39.425000 83.187500 32.607687
39.400000 81.828125 32.607687
39.225000 80.921875 32.607687
39.375000 79.796875 32.607687
39.525000 78.593750 32.607687
39.750000 77.265625 32.607687
40.275000 76.328125 32.607687
39.075000 87.062500 32.748178
39.100000 85.921875 32.748178
39.100000 84.515625 32.748178
39.250000 83.671875 32.748178
39.275000 82.375000 32.748178
39.200000 81.078125 32.748178
39.350000 80.109375 32.748178
39.525000 78.703125 32.748178
39.750000 77.625000 32.748178
40.150000 76.328125 32.748178
39.100000 86.703125 32.918442
39.125000 85.453125 32.918442
39.175000 84.312500 32.918442
39.450000 83.328125 32.918442
39.425000 81.812500 32.918442
39.300000 80.609375 32.918442
39.475000 79.406250 32.918442
39.700000 78.250000 32.918442
39.075000 86.875000 33.058826
39.100000 85.531250 33.058826
39.150000 84.531250 33.058826
39.300000 83.296875 33.058826
39.275000 82.109375 33.058826
39.225000 80.796875 33.058826
39.375000 79.687500 33.058826
39.550000 78.671875 33.058826
39.850000 77.593750 33.058826
40.375000 76.484375 33.058826
39.400000 89.593750 33.213970
38.950000 88.515625 33.213970
39.050000 87.031250 33.213970
39.100000 86.296875 33.213970
39.125000 84.875000 33.213970
39.250000 83.812500 33.213970
39.625000 82.468750 33.213970
39.550000 81.578125 33.213970
39.325000 80.062500 33.213970
39.500000 78.843750 33.213970
39.750000 78.046875 33.213970
40.075000 76.796875 33.213970
38.825000 90.218750 33.369465
38.900000 88.937500 33.369465
39.100000 87.781250 33.369465
39.100000 86.562500 33.369465
39.075000 85.125000 33.369465
39.200000 84.125000 33.369465
39.250000 82.953125 33.369465
39.200000 81.890625 33.369465
39.350000 80.421875 33.369465
39.475000 79.359375 33.369465
39.650000 78.421875 33.369465
40.000000 76.968750 33.369465
39.125000 89.375000 33.525395
38.975000 88.234375 33.525395
39.025000 87.031250 33.525395
39.100000 85.781250 33.525395
39.300000 84.593750 33.525395
39.225000 83.531250 33.525395
39.100000 82.375000 33.525395
39.225000 81.406250 33.525395
39.350000 80.046875 33.525395
39.550000 78.734375 33.525395
39.800000 77.765625 33.525395
40.175000 76.468750 33.525395
38.875000 89.937500 33.679934
38.850000 88.812500 33.679934
39.125000 87.546875 33.679934
39.175000 86.265625 33.679934
39.350000 85.343750 33.679934
39.200000 84.109375 33.679934
38.975000 82.500000 33.679934
39.475000 81.531250 33.679934
39.725000 80.656250 33.679934
39.675000 79.484375 33.679934
39.800000 78.265625 33.679934
40.075000 77.046875 33.679934
39.025000 90.312500 33.833876
39.150000 88.906250 33.833876
39.050000 87.703125 33.833876
39.100000 86.734375 33.833876
39.050000 85.390625 33.833876
38.800000 84.203125 33.833876
38.775000 83.296875 33.833876
39.150000 82.250000 33.833876
39.475000 81.062500 33.833876
39.575000 79.906250 33.833876
39.750000 78.562500 33.833876
39.150000 90.390625 33.991065
39.250000 89.000000 33.991065
39.075000 87.593750 33.991065
39.125000 86.640625 33.991065
39.375000 85.484375 33.991065
39.125000 84.250000 33.991065
38.775000 83.093750 33.991065
39.150000 81.875000 33.991065
39.525000 80.890625 33.991065
39.650000 79.453125 33.991065
39.725000 78.296875 33.991065
40.025000 77.234375 33.991065
39.150000 89.093750 34.142911
39.000000 88.421875 34.142911
39.100000 86.968750 34.142911
38.900000 86.031250 34.142911
38.625000 84.843750 34.142911
38.775000 83.453125 34.142911
39.050000 82.390625 34.142911
39.575000 81.015625 34.142911
39.875000 80.000000 34.142911
39.800000 79.000000 34.142911
40.000000 77.843750 34.142911
40.500000 76.375000 34.142911
39.125000 89.453125 34.299593
39.000000 88.312500 34.299593
39.150000 87.265625 34.299593
38.875000 85.796875 34.299593
38.500000 84.593750 34.299593
38.675000 83.593750 34.299593
39.025000 82.343750 34.299593
39.325000 81.546875 34.299593
39.650000 80.359375 34.299593
39.875000 79.234375 34.299593
40.050000 77.656250 34.299593
40.375000 76.656250 34.299593
39.025000 89.531250 34.453441
38.975000 88.625000 34.453441
39.125000 87.468750 34.453441
38.650000 86.343750 34.453441
38.350000 84.796875 34.453441
38.825000 83.859375 34.453441
39.125000 82.843750 34.453441
39.525000 81.578125 34.453441
39.925000 80.421875 34.453441
39.875000 79.109375 34.453441
39.950000 78.000000 34.453441
40.350000 76.718750 34.453441
39.200000 90.078125 34.612199
39.350000 89.046875 34.612199
39.075000 88.125000 34.612199
38.975000 84.218750 34.612199
39.050000 83.171875 34.612199
39.425000 82.281250 34.612199
40.050000 81.171875 34.612199
40.250000 79.953125 34.612199
40.125000 78.796875 34.612199
39.050000 89.140625 34.764904
38.925000 88.093750 34.764904
39.200000 87.109375 34.764904
39.600000 85.953125 34.764904
39.350000 84.546875 34.764904
39.125000 81.234375 34.764904
39.900000 80.203125 34.764904
40.225000 78.796875 34.764904
40.150000 77.562500 34.764904
40.525000 76.609375 34.764904
39.050000 89.562500 34.925457
39.000000 88.734375 34.925457
39.150000 87.359375 34.925457
38.850000 86.000000 34.925457
38.550000 85.000000 34.925457
39.000000 84.062500 34.925457
39.775000 82.796875 34.925457
40.175000 79.187500 34.925457
40.250000 78.078125 34.925457
40.450000 76.671875 34.925457
39.275000 89.546875 35.076221
39.250000 88.281250 35.076221
39.250000 87.234375 35.076221
39.400000 85.734375 35.076221
39.175000 84.500000 35.076221
40.350000 77.578125 35.076221
40.575000 76.609375 35.076221
39.125000 89.171875 35.235710
39.075000 88.109375 35.235710
39.300000 87.203125 35.235710
39.625000 85.968750 35.235710
39.400000 84.687500 35.235710
40.325000 77.515625 35.235710
40.675000 76.687500 35.235710
38.850000 89.921875 35.390815
38.900000 88.812500 35.390815
39.325000 87.812500 35.390815
39.100000 86.375000 35.390815
38.825000 85.062500 35.390815
39.075000 83.890625 35.390815
39.650000 82.890625 35.390815
40.025000 81.718750 35.390815
40.675000 80.687500 35.390815
40.750000 79.328125 35.390815
40.250000 78.156250 35.390815
40.375000 77.234375 35.390815
39.450000 89.265625 35.546313
39.175000 88.203125 35.546313
39.075000 84.468750 35.546313
39.075000 83.234375 35.546313
39.625000 82.359375 35.546313
40.300000 81.093750 35.546313
40.575000 79.734375 35.546313
40.425000 78.718750 35.546313
40.475000 77.750000 35.546313
40.875000 76.406250 35.546313
39.125000 89.203125 35.697326
39.075000 88.125000 35.697326
39.375000 87.296875 35.697326
39.725000 86.171875 35.697326
39.425000 84.703125 35.697326
40.375000 80.093750 35.697326
40.475000 79.125000 35.697326
40.425000 77.562500 35.697326
40.675000 76.687500 35.697326
39.250000 89.625000 35.845118
39.325000 88.578125 35.845118
39.425000 87.171875 35.845118
39.475000 85.984375 35.845118
39.250000 85.156250 35.845118
39.075000 83.703125 35.845118
39.650000 82.437500 35.845118
40.175000 81.453125 35.845118
40.400000 80.328125 35.845118
40.400000 79.265625 35.845118
40.325000 78.078125 35.845118
40.600000 76.859375 35.845118
39.275000 89.656250 36.000939
39.300000 88.671875 36.000939
39.425000 87.125000 36.000939
39.475000 86.015625 36.000939
39.225000 84.890625 36.000939
39.050000 83.828125 36.000939
39.650000 82.703125 36.000939
40.300000 81.625000 36.000939
40.500000 80.453125 36.000939
40.375000 79.140625 36.000939
40.325000 78.062500 36.000939
40.600000 76.828125 36.000939
39.375000 89.640625 36.153871
39.425000 88.484375 36.153871
39.525000 87.250000 36.153871
39.650000 86.078125 36.153871
39.325000 85.109375 36.153871
40.475000 80.421875 36.153871
40.350000 79.359375 36.153871
40.275000 77.812500 36.153871
40.550000 76.859375 36.153871
39.500000 89.484375 36.309692
39.400000 88.265625 36.309692
39.425000 87.312500 36.309692
39.550000 86.109375 36.309692
39.375000 84.750000 36.309692
40.400000 80.171875 36.309692
40.250000 79.187500 36.309692
40.300000 77.781250 36.309692
40.600000 77.000000 36.309692
39.525000 88.875000 36.464837
39.500000 87.828125 36.464837
39.650000 86.781250 36.464837
39.575000 85.640625 36.464837
39.275000 84.437500 36.464837
39.200000 83.234375 36.464837
39.850000 82.156250 36.464837
40.550000 80.734375 36.464837
40.425000 79.625000 36.464837
40.175000 78.515625 36.464837
39.400000 89.625000 36.621648
39.400000 88.328125 36.621648
39.550000 86.984375 36.621648
39.750000 85.859375 36.621648
39.600000 84.578125 36.621648
39.475000 83.687500 36.621648
40.100000 82.375000 36.621648
40.500000 81.125000 36.621648
40.350000 79.968750 36.621648
40.150000 78.796875 36.621648
40.300000 77.890625 36.621648
40.750000 76.765625 36.621648
39.775000 90.062500 36.778045
39.800000 88.843750 36.778045
39.575000 87.609375 36.778045
39.575000 86.343750 36.778045
39.850000 85.328125 36.778045
39.825000 83.968750 36.778045
39.850000 82.734375 36.778045
40.350000 81.875000 36.778045
40.250000 80.593750 36.778045
40.050000 79.437500 36.778045
40.175000 78.390625 36.778045
40.525000 77.171875 36.778045
39.425000 89.406250 36.932854
39.400000 88.171875 36.932854
39.625000 87.218750 36.932854
39.675000 86.062500 36.932854
39.675000 84.593750 36.932854
39.825000 83.500000 36.932854
40.200000 82.515625 36.932854
40.475000 81.265625 36.932854
40.325000 80.140625 36.932854
40.075000 78.640625 36.932854
40.225000 77.937500 36.932854
40.750000 76.593750 36.932854
39.750000 90.000000 37.083201
39.700000 89.062500 37.083201
39.575000 87.687500 37.083201
39.650000 86.593750 37.083201
39.750000 85.609375 37.083201
39.800000 84.453125 37.083201
40.050000 83.125000 37.083201
40.350000 81.890625 37.083201
40.225000 80.859375 37.083201
40.000000 79.656250 37.083201
40.125000 78.421875 37.083201
40.500000 77.015625 37.083201
39.600000 87.500000 37.243378
39.750000 85.921875 37.243378
39.750000 85.031250 37.243378
39.825000 83.609375 37.243378
40.175000 82.562500 37.243378
40.475000 81.453125 37.243378
40.250000 80.484375 37.243378
40.075000 78.843750 37.243378
40.275000 77.703125 37.243378
40.600000 76.984375 37.243378
39.775000 90.203125 37.392229
39.700000 88.671875 37.392229
39.575000 87.531250 37.392229
39.675000 86.703125 37.392229
39.750000 85.171875 37.392229
39.800000 83.984375 37.392229
40.050000 83.140625 37.392229
40.350000 81.687500 37.392229
40.200000 80.625000 37.392229
39.975000 79.484375 37.392229
40.125000 78.125000 37.392229
40.475000 77.062500 37.392229
39.675000 87.312500 37.555829
39.750000 86.250000 37.555829
39.750000 84.921875 37.555829
39.825000 83.921875 37.555829
40.100000 82.421875 37.555829
40.375000 81.437500 37.555829
40.150000 80.156250 37.555829
40.000000 79.109375 37.555829
40.275000 78.031250 37.555829
40.600000 76.609375 37.555829
39.300000 89.203125 37.705657
39.525000 88.125000 37.705657
39.650000 86.546875 37.705657
39.750000 85.562500 37.705657
39.800000 84.609375 37.705657
39.975000 83.125000 37.705657
40.225000 81.953125 37.705657
40.675000 81.015625 37.705657
40.550000 79.750000 37.705657
40.150000 78.359375 37.705657
40.375000 77.562500 37.705657
41.075000 76.218750 37.705657
39.525000 89.093750 37.866852
39.500000 87.875000 37.866852
39.650000 86.781250 37.866852
39.800000 85.640625 37.866852
39.875000 84.515625 37.866852
39.725000 83.375000 37.866852
39.975000 82.171875 37.866852
40.475000 81.046875 37.866852
40.275000 79.703125 37.866852
40.025000 78.578125 37.866852
40.350000 77.671875 37.866852
40.925000 76.515625 37.866852
39.850000 89.640625 38.013958
39.800000 88.640625 38.013958
39.575000 87.500000 38.013958
39.925000 86.484375 38.013958
39.725000 85.046875 38.013958
39.325000 83.890625 38.013958
39.825000 82.718750 38.013958
40.350000 81.671875 38.013958
40.250000 80.390625 38.013958
40.100000 79.406250 38.013958
40.200000 78.000000 38.013958
40.525000 77.015625 38.013958
39.425000 89.031250 38.166125
39.475000 88.078125 38.166125
39.750000 87.000000 38.166125
39.425000 85.406250 38.166125
40.275000 79.843750 38.166125
40.025000 78.375000 38.166125
40.325000 77.531250 38.166125
41.000000 76.546875 38.166125
39.400000 89.484375 38.327476
39.400000 88.250000 38.327476
39.400000 87.531250 38.327476
39.150000 86.109375 38.327476
38.900000 85.062500 38.327476
39.225000 83.625000 38.327476
39.825000 82.406250 38.327476
40.275000 81.578125 38.327476
40.275000 80.031250 38.327476
40.125000 79.125000 38.327476
40.175000 77.812500 38.327476
40.550000 76.812500 38.327476
39.050000 90.437500 38.476753
39.250000 88.937500 38.476753
39.350000 87.921875 38.476753
39.900000 86.796875 38.476753
39.175000 84.218750 38.476753
40.125000 80.953125 38.476753
40.350000 79.953125 38.476753
40.100000 78.343750 38.476753
40.300000 77.484375 38.476753
40.975000 76.484375 38.476753
39.275000 89.656250 38.639572
39.275000 88.437500 38.639572
39.375000 87.328125 38.639572
39.025000 85.937500 38.639572
38.775000 85.000000 38.639572
39.100000 83.500000 38.639572
39.675000 82.718750 38.639572
40.225000 81.281250 38.639572
40.350000 80.109375 38.639572
40.200000 79.062500 38.639572
40.175000 77.718750 38.639572
40.400000 76.937500 38.639572
38.975000 85.546875 38.787774
39.150000 84.609375 38.787774
39.950000 80.750000 38.787774
40.225000 79.625000 38.787774
40.225000 78.468750 38.787774
40.300000 77.343750 38.787774
40.750000 76.296875 38.787774
39.525000 89.281250 38.950004
39.175000 87.906250 38.950004
39.525000 86.796875 38.950004
38.900000 84.515625 38.950004
39.825000 81.156250 38.950004
40.300000 79.765625 38.950004
40.175000 78.578125 38.950004
40.200000 77.296875 38.950004
40.625000 76.265625 38.950004
39.125000 90.187500 39.099423
39.175000 88.593750 39.099423
39.175000 87.921875 39.099423
39.625000 86.734375 39.099423
38.825000 84.375000 39.099423
40.450000 79.546875 39.099423
40.275000 78.312500 39.099423
40.250000 77.000000 39.099423
39.050000 89.625000 39.260660
38.975000 88.468750 39.260660
39.100000 87.031250 39.260660
39.125000 85.859375 39.260660
38.925000 84.750000 39.260660
38.675000 83.531250 39.260660
39.200000 82.343750 39.260660
39.800000 81.578125 39.260660
40.225000 80.109375 39.260660
40.275000 78.796875 39.260660
40.100000 77.703125 39.260660
40.350000 76.828125 39.260660
38.950000 90.296875 39.412964
39.150000 88.921875 39.412964
39.125000 87.703125 39.412964
39.025000 86.593750 39.412964
38.600000 85.328125 39.412964
38.575000 84.421875 39.412964
39.125000 83.187500 39.412964
39.550000 82.109375 39.412964
40.125000 80.828125 39.412964
40.550000 79.921875 39.412964
40.375000 78.390625 39.412964
39.175000 90.000000 39.573111
39.125000 88.859375 39.573111
39.175000 87.796875 39.573111
39.350000 86.312500 39.573111
38.950000 85.187500 39.573111
38.575000 84.015625 39.573111
38.875000 82.781250 39.573111
40.250000 78.390625 39.573111
40.225000 76.890625 39.573111
39.175000 89.875000 39.722488
39.125000 88.890625 39.722488
39.150000 87.796875 39.722488
39.325000 86.484375 39.722488
38.900000 84.953125 39.722488
38.550000 84.000000 39.722488
38.800000 82.828125 39.722488
40.125000 78.015625 39.722488
40.150000 76.921875 39.722488
39.175000 89.937500 39.882689
39.100000 88.828125 39.882689
39.125000 87.531250 39.882689
39.025000 86.468750 39.882689
38.600000 85.187500 39.882689
38.400000 84.265625 39.882689
38.625000 83.062500 39.882689
39.350000 79.359375 39.882689
39.950000 78.359375 39.882689
40.100000 77.062500 39.882689
38.950000 90.109375 40.033124
38.900000 88.718750 40.033124
39.125000 87.734375 40.033124
38.725000 86.343750 40.033124
38.300000 85.187500 40.033124
38.475000 84.203125 40.033124
38.700000 82.859375 40.033124
39.100000 82.062500 40.033124
39.650000 80.734375 40.033124
39.875000 79.656250 40.033124
39.900000 78.484375 40.033124
40.075000 77.187500 40.033124
38.900000 89.156250 40.176976
39.100000 87.671875 40.176976
38.875000 84.437500 40.176976
38.700000 83.328125 40.176976
39.075000 82.109375 40.176976
39.475000 80.984375 40.176976
39.600000 79.906250 40.176976
39.750000 78.359375 40.176976
39.300000 89.843750 40.331980
39.025000 88.250000 40.331980
39.050000 87.312500 40.331980
38.825000 86.296875 40.331980
38.700000 84.812500 40.331980
38.800000 83.984375 40.331980
38.875000 82.406250 40.331980
39.225000 81.468750 40.331980
39.500000 80.203125 40.331980
39.675000 79.218750 40.331980
39.875000 77.765625 40.331980
40.175000 76.656250 40.331980
39.050000 89.718750 40.487427
38.925000 88.656250 40.487427
39.025000 87.515625 40.487427
39.050000 86.328125 40.487427
39.250000 85.031250 40.487427
39.125000 83.921875 40.487427
38.950000 82.718750 40.487427
39.225000 81.468750 40.487427
39.400000 80.718750 40.487427
39.600000 79.468750 40.487427
39.850000 78.328125 40.487427
40.125000 77.015625 40.487427
39.075000 88.937500 40.656512
38.975000 87.765625 40.656512
39.050000 86.812500 40.656512
39.050000 85.531250 40.656512
39.075000 84.609375 40.656512
39.100000 83.265625 40.656512
39.150000 81.875000 40.656512
39.300000 80.921875 40.656512
39.450000 79.656250 40.656512
39.725000 78.703125 40.656512
40.000000 77.562500 40.656512
40.500000 76.234375 40.656512
39.225000 89.718750 40.810660
38.900000 88.296875 40.810660
39.000000 87.000000 40.810660
39.050000 86.031250 40.810660
39.075000 85.031250 40.810660
39.100000 83.625000 40.810660
39.225000 82.562500 40.810660
39.275000 81.187500 40.810660
39.375000 80.203125 40.810660
39.575000 78.734375 40.810660
39.750000 77.609375 40.810660
40.200000 76.562500 40.810660
39.025000 89.921875 40.956767
38.925000 88.500000 40.956767
39.075000 87.640625 40.956767
39.075000 86.203125 40.956767
39.050000 85.203125 40.956767
39.075000 83.781250 40.956767
39.400000 83.125000 40.956767
39.425000 81.890625 40.956767
39.300000 80.625000 40.956767
39.500000 79.562500 40.956767
39.675000 78.296875 40.956767
40.000000 76.859375 40.956767
39.200000 89.734375 41.107973
38.925000 88.703125 41.107973
39.025000 87.437500 41.107973
39.050000 86.406250 41.107973
39.050000 84.859375 41.107973
39.100000 83.984375 41.107973
39.175000 82.906250 41.107973
39.175000 81.421875 41.107973
39.275000 80.468750 41.107973
39.475000 78.984375 41.107973
39.675000 77.843750 41.107973
40.050000 76.703125 41.107973
39.175000 89.781250 41.269899
38.900000 88.281250 41.269899
39.025000 87.109375 41.269899
39.075000 86.031250 41.269899
39.075000 85.125000 41.269899
39.100000 83.593750 41.269899
39.075000 82.687500 41.269899
39.100000 81.312500 41.269899
39.250000 80.250000 41.269899
39.450000 78.906250 41.269899
39.700000 77.671875 41.269899
40.075000 76.921875 41.269899
39.150000 89.687500 41.417998
38.925000 88.687500 41.417998
39.025000 87.343750 41.417998
39.050000 86.406250 41.417998
39.050000 85.109375 41.417998
39.100000 84.046875 41.417998
39.100000 82.859375 41.417998
39.100000 81.593750 41.417998
39.275000 80.437500 41.417998
39.475000 78.953125 41.417998
39.650000 77.843750 41.417998
40.000000 77.015625 41.417998
39.175000 89.390625 41.576915
38.975000 88.187500 41.576915
39.075000 86.921875 41.576915
39.125000 86.156250 41.576915
39.150000 84.875000 41.576915
39.225000 83.343750 41.576915
39.125000 82.234375 41.576915
39.075000 81.437500 41.576915
39.300000 79.828125 41.576915
39.500000 78.765625 41.576915
39.725000 77.781250 41.576915
40.050000 76.515625 41.576915
39.050000 89.312500 41.742462
39.050000 88.062500 41.742462
39.100000 86.765625 41.742462
39.150000 85.937500 41.742462
39.225000 84.687500 41.742462
39.425000 83.468750 41.742462
39.375000 82.375000 41.742462
39.225000 80.828125 41.742462
39.350000 80.015625 41.742462
39.500000 78.578125 41.742462
39.750000 77.578125 41.742462
40.200000 76.328125 41.742462
39.100000 88.046875 41.889945
39.125000 86.843750 41.889945
39.175000 85.453125 41.889945
39.225000 84.468750 41.889945
39.450000 83.000000 41.889945
39.500000 81.843750 41.889945
39.325000 80.906250 41.889945
39.450000 79.375000 41.889945
39.625000 78.265625 41.889945
39.800000 77.187500 41.889945
40.400000 76.343750 41.889945
38.925000 88.421875 42.038967
39.050000 87.468750 42.038967
39.050000 86.375000 42.038967
39.125000 85.312500 42.038967
39.200000 83.984375 42.038967
39.175000 82.593750 42.038967
39.175000 81.500000 42.038967
39.275000 80.671875 42.038967
39.475000 79.375000 42.038967
39.650000 78.015625 42.038967
39.975000 76.812500 42.038967
38.950000 88.562500 42.200858
39.050000 87.687500 42.200858
39.075000 86.203125 42.200858
39.150000 85.234375 42.200858
39.200000 83.812500 42.200858
39.175000 83.015625 42.200858
39.175000 81.437500 42.200858
39.275000 80.406250 42.200858
39.450000 79.484375 42.200858
39.625000 78.359375 42.200858
39.875000 76.937500 42.200858
39.025000 87.500000 42.350877
39.075000 86.296875 42.350877
39.175000 84.906250 42.350877
39.350000 83.703125 42.350877
39.250000 82.406250 42.350877
39.125000 81.187500 42.350877
39.275000 80.250000 42.350877
39.500000 79.109375 42.350877
39.700000 78.125000 42.350877
40.025000 76.843750 42.350877
39.050000 87.281250 42.513282
39.075000 86.125000 42.513282
39.150000 85.015625 42.513282
39.325000 83.531250 42.513282
39.325000 82.312500 42.513282
39.275000 81.468750 42.513282
39.350000 80.343750 42.513282
39.475000 79.140625 42.513282
39.700000 78.015625 42.513282
