34.675000 87.625000 25.986472
34.750000 86.406250 26.003399
34.800000 84.921875 26.024015
34.825000 84.359375 26.031828
34.875000 82.718750 26.054615
35.100000 82.015625 26.064380
35.175000 80.625000 26.083694
35.050000 79.421875 26.100404
35.225000 78.421875 26.114293
35.525000 76.890625 26.135561
35.650000 75.750000 26.151403
35.975000 74.718750 26.165725
34.650000 89.531250 26.109261
34.525000 88.343750 26.125754
34.725000 87.593750 26.136171
34.825000 86.406250 26.152664
34.900000 84.890625 26.173714
34.900000 83.484375 26.193246
34.950000 82.812500 26.202577
35.225000 81.265625 26.224061
35.175000 80.390625 26.236214
35.125000 79.406250 26.249886
35.425000 77.921875 26.270503
35.625000 77.187500 26.280702
35.825000 75.968750 26.297629
36.225000 74.656250 26.315858
34.775000 88.875000 26.282270
34.575000 87.484375 26.301585
34.725000 86.640625 26.313303
34.850000 85.515625 26.328928
34.900000 84.171875 26.347592
34.925000 83.156250 26.361697
35.050000 81.984375 26.377974
35.075000 80.921875 26.392730
35.075000 79.500000 26.412479
35.300000 78.296875 26.429189
35.575000 77.359375 26.442210
35.750000 76.187500 26.458486
36.050000 75.265625 26.471290
34.550000 89.265625 26.425332
34.525000 88.546875 26.435315
34.800000 87.296875 26.452676
34.825000 86.343750 26.465914
34.925000 85.156250 26.482407
34.925000 83.718750 26.502372
34.950000 82.625000 26.517563
35.050000 81.531250 26.532754
35.150000 80.359375 26.549030
35.325000 79.000000 26.567910
35.475000 77.843750 26.583969
35.675000 77.046875 26.595037
35.875000 75.921875 26.610662
36.300000 74.812500 26.626070
34.850000 88.687500 26.598872
34.750000 87.625000 26.613629
34.925000 86.375000 26.630990
35.050000 85.125000 26.648351
35.225000 84.125000 26.662240
35.075000 83.046875 26.677214
34.900000 81.906250 26.693056
35.250000 80.859375 26.707596
35.450000 79.531250 26.726042
35.525000 78.203125 26.744488
35.750000 77.515625 26.754037
35.950000 76.359375 26.770096
36.250000 75.015625 26.788759
34.875000 88.828125 26.744637
34.750000 87.453125 26.763734
34.950000 86.343750 26.779142
35.075000 85.406250 26.792163
35.475000 84.359375 26.806703
35.300000 83.046875 26.824932
34.850000 82.203125 26.836651
35.075000 80.921875 26.854446
35.400000 79.703125 26.871373
35.600000 78.500000 26.888083
35.750000 77.531250 26.901538
35.950000 76.265625 26.919116
36.225000 75.281250 26.932788
35.075000 88.796875 26.912057
34.875000 87.984375 26.923342
34.975000 86.906250 26.938316
34.850000 83.343750 26.987795
34.775000 82.265625 27.002769
35.300000 78.500000 27.055069
35.825000 77.687500 27.066354
36.000000 76.093750 27.088490
36.300000 74.968750 27.104115
35.200000 89.500000 27.049889
35.000000 88.187500 27.068119
35.100000 86.968750 27.085046
35.175000 85.750000 27.101973
35.575000 85.015625 27.112172
34.750000 82.484375 27.147329
35.000000 81.171875 27.165558
35.400000 80.312500 27.177494
35.725000 78.859375 27.197676
35.875000 77.796875 27.212433
36.000000 76.531250 27.230011
36.300000 75.703125 27.241513
35.175000 89.015625 27.222131
35.000000 88.187500 27.233633
35.100000 86.750000 27.253598
35.200000 85.656250 27.268789
35.625000 85.031250 27.277470
34.725000 82.593750 27.311324
35.000000 81.359375 27.328468
35.500000 80.296875 27.343225
36.050000 78.937500 27.362105
36.100000 77.781250 27.378164
36.025000 76.734375 27.392704
36.300000 75.640625 27.407895
35.100000 88.328125 27.380573
35.125000 87.234375 27.395764
35.250000 86.593750 27.404661
35.275000 85.062500 27.425929
34.950000 83.734375 27.444375
34.825000 83.109375 27.453055
35.025000 81.640625 27.473455
35.575000 78.296875 27.519896
36.100000 77.078125 27.536823
36.300000 75.953125 27.552448
36.725000 74.703125 27.569809
35.050000 87.875000 27.552023
35.275000 86.453125 27.571772
34.825000 85.515625 27.584793
34.600000 84.453125 27.599550
34.975000 83.062500 27.618864
35.175000 81.906250 27.634923
36.575000 77.203125 27.700244
36.375000 76.531250 27.709576
36.650000 75.000000 27.730843
34.975000 89.015625 27.698374
35.150000 87.531250 27.718990
35.300000 86.875000 27.728104
35.150000 85.578125 27.746117
34.900000 84.078125 27.766950
35.000000 82.937500 27.782792
35.400000 81.781250 27.798851
35.800000 81.015625 27.809485
36.350000 79.750000 27.827063
36.750000 78.593750 27.843122
36.525000 77.156250 27.863087
36.375000 76.312500 27.874806
36.725000 74.921875 27.894120
35.250000 88.828125 27.850343
35.075000 88.031250 27.861410
35.350000 86.671875 27.880291
34.975000 85.781250 27.892660
34.725000 84.187500 27.914796
35.050000 83.375000 27.926080
35.350000 82.187500 27.942574
35.725000 80.859375 27.961020
36.250000 79.671875 27.977513
36.650000 78.890625 27.988364
36.575000 77.359375 28.009631
36.500000 76.187500 28.025907
36.725000 75.531250 28.035022
35.200000 88.890625 27.996692
35.325000 87.453125 28.016657
35.375000 86.656250 28.027725
35.450000 85.203125 28.047907
35.175000 83.781250 28.067656
35.150000 83.250000 28.075034
35.775000 81.796875 28.095217
36.125000 80.453125 28.113880
36.550000 79.593750 28.125815
36.825000 78.406250 28.142308
36.575000 77.281250 28.157933
36.475000 76.046875 28.175077
36.750000 75.125000 28.187881
35.375000 89.578125 28.152812
35.350000 88.484375 28.168003
35.425000 87.312500 28.184279
35.300000 83.671875 28.234843
36.650000 79.359375 28.294739
36.775000 77.843750 28.315789
36.575000 76.640625 28.332500
35.550000 89.328125 28.315498
35.275000 87.656250 28.338718
35.500000 86.921875 28.348918
35.250000 85.328125 28.371053
34.975000 84.078125 28.388415
35.200000 83.218750 28.400350
35.575000 82.218750 28.414239
35.975000 81.015625 28.430949
36.550000 79.718750 28.448961
36.850000 78.984375 28.459161
36.700000 77.375000 28.481514
36.625000 76.156250 28.498441
36.825000 75.250000 28.511028
35.325000 89.015625 28.472376
35.475000 87.703125 28.490605
35.550000 86.578125 28.506230
35.550000 85.468750 28.521638
35.200000 83.984375 28.542255
35.250000 83.296875 28.551803
35.850000 81.734375 28.573505
36.300000 80.546875 28.589998
36.750000 79.687500 28.601933
36.825000 78.578125 28.617341
36.650000 77.109375 28.637741
36.800000 76.328125 28.648591
37.075000 74.984375 28.667255
35.200000 88.812500 28.633193
35.500000 87.953125 28.645128
35.550000 86.562500 28.664443
35.550000 85.687500 28.676595
35.400000 84.531250 28.692655
35.325000 83.187500 28.711318
35.800000 81.843750 28.729981
36.300000 80.937500 28.742568
36.700000 80.031250 28.755155
36.825000 78.828125 28.771865
36.675000 77.171875 28.794868
36.725000 76.484375 28.804417
36.925000 75.343750 28.820259
35.525000 89.343750 28.783807
35.575000 88.609375 28.794007
35.600000 87.453125 28.810066
35.475000 83.781250 28.861064
36.775000 79.437500 28.921394
36.775000 78.140625 28.939406
36.650000 77.000000 28.955248
36.900000 75.703125 28.973260
37.500000 74.968750 28.983460
35.600000 89.281250 28.935453
35.600000 88.171875 28.950861
35.625000 87.390625 28.961712
35.475000 83.937500 29.009672
36.775000 79.031250 29.077815
36.750000 78.281250 29.088231
36.625000 77.046875 29.105375
35.600000 89.875000 29.089515
35.600000 88.453125 29.109263
35.650000 87.312500 29.125105
35.475000 83.953125 29.171763
36.775000 79.468750 29.234046
36.725000 78.234375 29.251190
36.575000 76.921875 29.269419
36.825000 75.625000 29.287431
37.400000 74.687500 29.300452
35.725000 89.859375 29.240798
35.800000 88.578125 29.258593
35.700000 87.734375 29.270311
35.450000 84.078125 29.321093
36.850000 79.468750 29.385112
36.775000 77.984375 29.405728
36.525000 76.953125 29.420051
36.775000 75.859375 29.435242
37.350000 74.718750 29.451084
35.725000 89.828125 29.401240
35.800000 88.718750 29.416648
35.725000 87.468750 29.434010
35.750000 86.140625 29.452456
35.950000 84.984375 29.468515
35.675000 83.703125 29.486310
36.850000 79.656250 29.542516
36.775000 78.296875 29.561397
36.525000 77.234375 29.576154
36.775000 75.812500 29.595902
37.325000 74.921875 29.608272
36.075000 89.421875 29.564947
35.950000 88.328125 29.580138
35.725000 87.453125 29.592291
35.850000 85.921875 29.613558
35.900000 84.843750 29.628532
35.625000 83.546875 29.646544
35.550000 82.515625 29.660867
36.150000 81.531250 29.674539
36.700000 80.515625 29.688645
36.725000 79.546875 29.702100
36.525000 78.187500 29.720980
36.550000 77.031250 29.737039
35.425000 88.625000 29.730865
35.725000 87.671875 29.744103
35.850000 86.968750 29.753868
35.900000 85.687500 29.771663
35.725000 84.406250 29.789459
35.475000 83.343750 29.804216
35.725000 82.156250 29.820709
36.375000 81.062500 29.835900
36.825000 80.046875 29.850006
36.675000 78.453125 29.872141
36.425000 77.234375 29.889068
36.625000 76.125000 29.904476
37.050000 75.468750 29.913591
35.450000 88.828125 29.885691
35.650000 87.828125 29.899580
35.850000 86.937500 29.911950
35.900000 85.437500 29.932783
35.875000 84.250000 29.949276
35.575000 82.937500 29.967505
35.775000 82.109375 29.979007
36.475000 81.187500 29.991811
36.825000 79.796875 30.011125
36.650000 78.765625 30.025448
36.400000 77.265625 30.046282
36.625000 76.625000 30.055179
37.050000 75.375000 30.072540
36.350000 89.796875 30.027697
36.300000 88.390625 30.047228
35.800000 86.968750 30.066976
35.850000 86.187500 30.077827
36.075000 84.937500 30.095188
36.000000 83.500000 30.115153
35.950000 82.593750 30.127740
36.400000 81.421875 30.144016
36.775000 80.171875 30.161377
36.600000 79.281250 30.173747
36.350000 77.718750 30.195449
36.500000 76.671875 30.209989
36.850000 75.468750 30.226699
35.850000 89.640625 30.187858
35.800000 88.578125 30.202615
35.800000 87.421875 30.218674
35.825000 86.406250 30.232780
35.875000 85.078125 30.251226
35.950000 83.921875 30.267285
36.050000 82.953125 30.280740
36.350000 81.921875 30.295063
36.700000 80.609375 30.313292
36.600000 79.578125 30.327615
36.375000 78.625000 30.340853
36.450000 77.421875 30.357563
36.750000 75.890625 30.378830
37.225000 75.203125 30.388379
35.500000 88.984375 30.365100
35.700000 88.015625 30.378555
35.850000 86.812500 30.395265
35.900000 85.343750 30.415665
35.950000 84.687500 30.424779
36.025000 83.484375 30.441489
36.250000 82.281250 30.458200
36.550000 80.765625 30.479250
36.775000 79.765625 30.493139
36.600000 78.515625 30.510500
36.375000 77.500000 30.524606
36.600000 76.296875 30.541316
37.025000 75.156250 30.557158
36.125000 89.906250 30.507637
35.925000 88.390625 30.528687
35.800000 87.734375 30.537802
35.825000 86.265625 30.558201
35.925000 84.953125 30.576430
36.000000 84.046875 30.589017
36.050000 82.921875 30.604642
36.350000 81.781250 30.620484
36.625000 80.875000 30.633071
36.475000 79.312500 30.654772
36.275000 78.312500 30.668661
36.250000 77.281250 30.682984
36.575000 75.687500 30.705120
37.250000 74.859375 30.716621
36.275000 88.296875 30.684437
35.800000 87.562500 30.694637
35.825000 86.156250 30.714168
35.925000 85.218750 30.727189
35.925000 83.687500 30.748456
36.000000 82.421875 30.766034
36.325000 81.812500 30.774498
36.625000 80.359375 30.794680
36.475000 79.062500 30.812692
36.300000 78.140625 30.825496
36.500000 76.890625 30.842857
35.800000 86.671875 30.863079
35.875000 85.921875 30.873496
35.950000 84.750000 30.889772
35.950000 83.609375 30.905614
36.200000 82.250000 30.924494
36.500000 81.421875 30.935996
36.600000 80.125000 30.954008
36.450000 78.593750 30.975276
36.350000 77.546875 30.989815
36.500000 76.734375 31.001100
36.875000 75.609375 31.016725
35.525000 89.046875 30.986203
35.650000 87.656250 31.005517
35.825000 86.687500 31.018972
35.900000 85.703125 31.032644
35.925000 84.281250 31.052392
35.975000 83.031250 31.069753
36.325000 82.203125 31.081255
36.650000 80.984375 31.098182
36.900000 80.109375 31.110335
36.750000 78.796875 31.128564
36.375000 77.421875 31.147661
36.525000 76.281250 31.163503
36.950000 75.125000 31.179562
35.625000 89.015625 31.143492
35.775000 87.359375 31.166496
35.850000 86.765625 31.174742
35.900000 85.062500 31.198397
35.950000 84.046875 31.212503
36.025000 83.171875 31.224656
36.325000 81.687500 31.245272
36.650000 80.875000 31.256557
36.725000 79.734375 31.272399
36.500000 78.546875 31.288892
36.350000 77.156250 31.308206
36.550000 75.937500 31.325133
37.025000 75.031250 31.337720
36.225000 89.625000 31.290210
35.975000 88.140625 31.310827
35.750000 87.343750 31.321895
35.850000 86.500000 31.333613
35.950000 85.171875 31.352060
35.950000 83.781250 31.371374
35.925000 82.656250 31.386999
36.225000 81.406250 31.404360
36.600000 80.484375 31.417164
36.475000 79.359375 31.432789
36.250000 78.109375 31.450150
36.350000 77.234375 31.462303
36.675000 75.875000 31.481183
37.350000 74.703125 31.497459
35.725000 88.984375 31.452545
35.525000 87.703125 31.470340
35.800000 86.937500 31.480974
36.000000 85.562500 31.500071
35.850000 84.625000 31.513092
35.675000 83.343750 31.530887
35.950000 82.125000 31.547814
36.325000 81.109375 31.561920
36.800000 79.984375 31.577545
36.700000 78.515625 31.597944
36.350000 77.312500 31.614655
36.425000 76.296875 31.628761
36.850000 75.328125 31.642215
36.100000 89.750000 31.596858
35.975000 88.390625 31.615738
35.650000 87.375000 31.629844
35.850000 86.375000 31.643733
35.575000 85.062500 31.661962
35.425000 83.703125 31.680843
36.150000 80.546875 31.724679
36.400000 78.953125 31.746815
36.300000 77.843750 31.762223
36.325000 76.593750 31.779584
35.900000 89.500000 31.760598
35.875000 88.203125 31.778611
35.550000 87.078125 31.794236
35.875000 86.500000 31.802265
35.150000 83.718750 31.840894
35.675000 82.671875 31.855433
36.125000 81.468750 31.872144
36.425000 80.250000 31.889071
36.450000 79.390625 31.901006
36.325000 78.312500 31.915980
36.275000 77.203125 31.931388
36.450000 75.578125 31.953958
37.075000 74.546875 31.968281
35.725000 89.718750 31.913715
35.775000 88.531250 31.930208
35.475000 87.625000 31.942795
35.775000 86.187500 31.962760
34.950000 83.781250 31.996180
35.325000 82.593750 32.012673
35.875000 81.921875 32.022005
36.325000 80.453125 32.042404
36.700000 79.296875 32.058463
36.550000 78.421875 32.070616
36.225000 76.984375 32.090581
36.400000 75.671875 32.108811
36.975000 74.593750 32.123785
35.350000 89.437500 32.091531
35.150000 87.703125 32.115619
35.275000 86.687500 32.129725
34.950000 85.390625 32.147737
36.350000 78.703125 32.240619
36.275000 77.718750 32.254291
36.300000 76.312500 32.273822
36.550000 75.359375 32.287060
35.100000 89.890625 32.235752
35.225000 88.843750 32.250291
35.300000 87.750000 32.265482
35.500000 86.656250 32.280674
34.725000 83.796875 32.320387
35.075000 83.046875 32.330804
36.475000 78.625000 32.392219
36.325000 77.078125 32.413703
36.450000 75.906250 32.429979
36.750000 75.031250 32.442132
35.300000 89.187500 32.403978
35.200000 88.000000 32.420471
35.100000 86.765625 32.437615
34.850000 85.953125 32.448900
34.650000 84.359375 32.471035
35.000000 83.437500 32.483839
35.925000 79.921875 32.532667
36.400000 78.734375 32.549160
36.275000 77.500000 32.566304
36.275000 76.843750 32.575419
36.400000 75.734375 32.590827
35.275000 89.171875 32.558988
35.225000 88.468750 32.568754
35.175000 86.843750 32.591323
35.600000 85.812500 32.605646
34.700000 83.828125 32.633207
36.400000 79.187500 32.697660
36.450000 78.125000 32.712417
36.300000 76.937500 32.728910
36.325000 75.703125 32.746054
35.200000 89.515625 32.711226
35.150000 88.078125 32.731191
35.075000 86.812500 32.748769
35.300000 85.703125 32.764177
34.600000 83.843750 32.790002
35.000000 82.125000 32.813873
35.375000 81.171875 32.827111
35.825000 80.109375 32.841868
36.325000 79.156250 32.855106
36.400000 77.843750 32.873335
36.225000 76.703125 32.889177
36.225000 75.796875 32.901764
34.950000 87.734375 32.891180
34.700000 84.359375 32.938055
34.625000 83.453125 32.950642
35.200000 82.031250 32.970390
35.525000 80.593750 32.990356
35.975000 79.718750 33.002508
36.350000 78.750000 33.015963
36.200000 77.359375 33.035278
36.075000 76.062500 33.053290
36.250000 75.328125 33.063489
35.075000 89.546875 33.023521
35.025000 88.640625 33.036108
35.025000 87.515625 33.051733
34.700000 86.375000 33.067575
34.275000 85.031250 33.086238
34.300000 83.562500 33.106637
34.450000 82.375000 33.123130
34.775000 81.406250 33.136585
36.125000 76.703125 33.201906
36.050000 75.640625 33.216663
36.475000 74.531250 33.232071
35.150000 89.187500 33.182283
34.775000 87.562500 33.204852
34.975000 86.968750 33.213099
35.325000 85.843750 33.228724
34.250000 83.031250 33.267786
34.450000 81.828125 33.284496
34.825000 80.734375 33.299687
35.475000 77.546875 33.343958
35.975000 76.140625 33.363489
36.200000 75.468750 33.372821
34.725000 89.937500 33.331677
34.675000 88.906250 33.346000
34.875000 87.843750 33.360757
34.550000 84.109375 33.412623
34.300000 82.968750 33.428465
34.500000 81.515625 33.448648
36.150000 77.312500 33.507024
36.000000 76.265625 33.521564
36.250000 74.812500 33.541747
35.000000 89.031250 33.495586
34.750000 88.015625 33.509692
34.925000 87.031250 33.523364
34.675000 85.765625 33.540942
34.275000 84.687500 33.555916
34.250000 83.437500 33.573277
34.425000 82.406250 33.587600
35.050000 78.718750 33.638815
35.625000 77.468750 33.656176
35.775000 76.453125 33.670282
36.075000 75.203125 33.687643
34.600000 89.750000 33.648304
34.550000 88.875000 33.660456
34.800000 87.703125 33.676733
34.875000 86.171875 33.698000
34.875000 85.062500 33.713408
34.525000 83.906250 33.729467
34.300000 83.109375 33.740535
34.525000 81.484375 33.763104
34.850000 80.546875 33.776125
35.200000 79.140625 33.795656
35.425000 78.031250 33.811064
35.600000 77.359375 33.820396
35.825000 75.765625 33.842531
36.225000 74.734375 33.856854
34.800000 89.656250 33.799304
34.600000 88.515625 33.815146
34.700000 86.984375 33.836414
34.775000 86.250000 33.846613
34.800000 84.687500 33.868315
34.575000 83.500000 33.884808
34.425000 82.468750 33.899131
34.625000 81.468750 33.913020
35.000000 80.125000 33.931683
35.300000 79.328125 33.942751
35.425000 78.203125 33.958376
35.625000 76.843750 33.977256
35.900000 75.625000 33.994183
36.375000 74.546875 34.009157
34.850000 88.921875 33.970592
34.600000 87.625000 33.988604
34.700000 86.906250 33.998586
34.750000 85.359375 34.020071
34.775000 84.656250 34.029836
34.725000 82.984375 34.053057
34.675000 81.968750 34.067163
34.875000 80.968750 34.081052
35.100000 79.718750 34.098413
35.250000 78.687500 34.112736
35.450000 77.796875 34.125106
35.625000 76.125000 34.148326
35.950000 75.140625 34.161998
34.400000 89.531250 34.115713
34.425000 88.453125 34.130687
34.675000 87.671875 34.141537
34.700000 86.187500 34.162153
34.775000 85.453125 34.172353
34.750000 84.265625 34.188846
34.725000 83.125000 34.204688
34.900000 81.859375 34.222266
34.950000 80.562500 34.240278
34.975000 79.500000 34.255035
35.225000 78.187500 34.273265
35.425000 77.171875 34.287370
35.650000 76.187500 34.301042
36.050000 75.015625 34.317318
34.825000 89.015625 34.284064
34.600000 87.765625 34.301425
34.625000 86.906250 34.313361
34.675000 86.062500 34.325080
34.700000 84.703125 34.343960
34.750000 83.421875 34.361755
34.825000 82.375000 34.376295
34.850000 81.046875 34.394741
34.875000 79.906250 34.410583
35.025000 78.812500 34.425774
35.250000 77.828125 34.439446
35.475000 76.765625 34.454203
34.550000 87.968750 34.461217
34.650000 86.250000 34.485089
34.675000 85.500000 34.495505
34.700000 84.187500 34.513735
34.725000 83.031250 34.529794
34.950000 81.843750 34.546287
35.000000 80.734375 34.561695
34.900000 79.796875 34.574715
35.075000 78.546875 34.592077
35.325000 77.250000 34.610089
35.500000 75.859375 34.629403
35.775000 75.062500 34.640471
34.650000 89.234375 34.593601
34.600000 88.484375 34.604017
34.625000 87.093750 34.623331
34.650000 85.687500 34.642863
34.675000 84.687500 34.656752
34.725000 83.562500 34.672377
34.825000 82.531250 34.686699
34.725000 81.343750 34.703192
34.700000 80.093750 34.720554
34.950000 79.093750 34.734442
35.225000 78.062500 34.748765
35.450000 76.437500 34.771335
35.650000 75.796875 34.780232
36.100000 74.375000 34.799981
34.900000 89.437500 34.752070
34.575000 88.625000 34.763355
34.675000 87.656250 34.776810
34.650000 85.921875 34.800899
34.675000 85.218750 34.810664
34.725000 83.984375 34.827808
34.775000 82.984375 34.841697
34.825000 81.734375 34.859058
34.825000 80.593750 34.874900
34.900000 79.296875 34.892912
35.100000 78.218750 34.907887
35.350000 77.093750 34.923512
35.550000 75.656250 34.943477
35.875000 74.906250 34.953893
34.525000 88.937500 34.913808
34.475000 87.937500 34.927697
34.675000 86.968750 34.941152
34.700000 85.765625 34.957862
34.725000 84.156250 34.980215
34.775000 83.125000 34.994538
34.950000 82.078125 35.009078
34.950000 80.718750 35.027958
34.850000 80.062500 35.037072
35.000000 78.718750 35.055735
35.175000 77.484375 35.072880
35.375000 76.343750 35.088722
34.600000 88.765625 35.070426
34.575000 87.343750 35.090174
34.675000 86.796875 35.097769
34.700000 85.218750 35.119688
34.700000 84.109375 35.135096
34.725000 83.296875 35.146380
34.925000 81.812500 35.166997
35.000000 80.593750 35.183924
34.900000 79.828125 35.194558
35.050000 78.609375 35.211485
35.300000 77.468750 35.227327
35.475000 76.109375 35.246207
35.750000 75.218750 35.258577
34.400000 88.546875 35.228775
34.650000 87.781250 35.239409
34.675000 86.218750 35.261110
34.750000 85.281250 35.274131
34.825000 84.390625 35.286501
34.825000 82.921875 35.306900
34.825000 81.640625 35.324695
34.850000 80.500000 35.340537
34.950000 79.687500 35.351822
35.125000 78.421875 35.369400
35.300000 77.093750 35.387846
35.475000 76.062500 35.402169
35.750000 75.046875 35.416275
34.625000 86.984375 35.406943
34.650000 85.984375 35.420832
34.675000 84.593750 35.440146
34.725000 83.421875 35.456423
34.975000 82.390625 35.470745
34.900000 81.109375 35.488540
34.725000 79.953125 35.504600
34.975000 78.875000 35.519573
35.225000 78.015625 35.531509
35.425000 76.421875 35.553645
35.625000 75.718750 35.563410
36.075000 74.718750 35.577299
34.700000 88.171875 35.551996
34.675000 87.046875 35.567621
34.750000 85.953125 35.582812
34.775000 84.671875 35.600607
34.800000 84.125000 35.608203
34.925000 82.656250 35.628602
34.875000 81.500000 35.644661
34.800000 80.125000 35.663758
34.925000 78.984375 35.679600
35.125000 77.968750 35.693706
35.350000 77.062500 35.706293
35.550000 75.828125 35.723437
35.875000 74.593750 35.740581
34.650000 87.453125 35.725722
34.700000 86.265625 35.742215
34.800000 85.000000 35.759794
34.850000 83.890625 35.775202
35.000000 82.421875 35.795601
34.950000 81.312500 35.811009
34.775000 80.312500 35.824898
34.925000 78.906250 35.844429
35.175000 78.156250 35.854846
35.400000 77.062500 35.870037
35.600000 75.500000 35.891738
35.950000 74.625000 35.903891
34.650000 87.187500 35.875392
34.675000 85.609375 35.897310
34.700000 84.375000 35.914454
34.750000 83.734375 35.923352
35.025000 82.609375 35.938977
35.050000 81.296875 35.957206
34.875000 80.250000 35.971746
35.000000 78.703125 35.993231
35.225000 77.796875 36.005817
35.425000 76.546875 36.023178
35.650000 75.250000 36.041191
36.100000 74.421875 36.052692
34.675000 86.687500 36.046932
34.700000 85.328125 36.065812
34.800000 84.375000 36.079050
34.875000 83.171875 36.095760
35.125000 82.281250 36.108130
35.125000 80.890625 36.127444
34.925000 79.781250 36.142852
35.175000 78.359375 36.162601
35.400000 77.703125 36.171715
35.525000 76.281250 36.191463
35.775000 75.109375 36.207739
34.675000 86.531250 36.196745
34.700000 85.781250 36.207161
34.800000 84.250000 36.228429
34.875000 83.218750 36.242752
35.125000 82.281250 36.255773
35.125000 80.656250 36.278342
34.950000 80.000000 36.287457
35.075000 78.859375 36.303298
35.325000 77.328125 36.324566
35.500000 76.250000 36.339540
35.750000 75.171875 36.354514
34.675000 86.328125 36.360878
34.775000 85.562500 36.371512
34.850000 84.093750 36.391911
34.900000 83.062500 36.406234
35.150000 82.046875 36.420340
35.200000 81.015625 36.434663
35.025000 79.593750 36.454411
35.150000 78.656250 36.467432
35.400000 77.015625 36.490218
35.550000 76.031250 36.503890
35.825000 75.187500 36.515609
34.800000 89.203125 36.474056
34.625000 88.000000 36.490767
34.700000 86.812500 36.507260
34.750000 85.734375 36.522234
34.800000 84.484375 36.539595
34.875000 82.984375 36.560428
35.100000 82.109375 36.572581
35.125000 80.750000 36.591461
34.950000 79.828125 36.604265
35.175000 78.312500 36.625315
35.425000 77.671875 36.634213
35.625000 76.296875 36.653310
35.850000 75.078125 36.670237
34.700000 88.890625 36.639326
34.600000 87.718750 36.655602
34.725000 86.359375 36.674482
34.800000 85.531250 36.685984
34.850000 84.031250 36.706817
34.900000 83.031250 36.720706
35.125000 81.843750 36.737199
35.175000 80.921875 36.750003
35.100000 79.421875 36.770836
35.275000 78.218750 36.787546
35.425000 77.234375 36.801218
35.650000 76.421875 36.812503
36.000000 74.843750 36.834421
34.950000 89.046875 36.790917
34.675000 87.734375 36.809146
34.750000 87.046875 36.818694
34.900000 86.031250 36.832800
34.975000 84.390625 36.855587
34.975000 83.671875 36.865569
35.000000 82.062500 36.887922
35.325000 81.421875 36.896819
35.375000 80.062500 36.915699
35.275000 79.062500 36.929589
35.525000 77.687500 36.948686
35.750000 76.578125 36.964094
35.975000 75.531250 36.978634
34.775000 88.562500 36.953840
34.675000 87.968750 36.962086
34.875000 86.546875 36.981834
34.975000 85.140625 37.001366
34.950000 84.125000 37.015472
34.925000 82.796875 37.033918
35.000000 81.703125 37.049109
35.350000 80.984375 37.059091
35.450000 79.796875 37.075584
35.375000 78.765625 37.089907
35.625000 77.046875 37.113779
35.750000 76.421875 37.122459
36.100000 74.968750 37.142642
34.850000 88.500000 37.108355
34.750000 87.781250 37.118338
34.900000 86.218750 37.140039
35.000000 85.390625 37.151541
35.150000 84.046875 37.170204
35.025000 83.125000 37.183008
34.850000 81.734375 37.202322
35.175000 80.750000 37.215994
35.425000 79.281250 37.236393
35.475000 78.109375 37.252670
35.725000 77.015625 37.267861
35.950000 76.140625 37.280013
36.250000 75.140625 37.293902
35.175000 89.171875 37.258816
34.900000 88.281250 37.271186
34.975000 87.296875 37.284858
35.075000 85.671875 37.307427
35.025000 84.968750 37.317193
34.775000 83.609375 37.336073
34.700000 82.328125 37.353868
34.975000 81.359375 37.367323
35.500000 79.890625 37.387722
35.700000 78.906250 37.401394
35.700000 77.562500 37.420058
35.925000 76.625000 37.433078
36.150000 75.484375 37.448920
34.850000 88.890625 37.417662
34.825000 87.609375 37.435457
35.050000 86.296875 37.453687
34.950000 83.187500 37.496872
34.875000 82.093750 37.512063
35.125000 80.671875 37.531812
35.625000 79.640625 37.546134
35.875000 78.609375 37.560457
35.850000 77.140625 37.580857
35.975000 76.437500 37.590622
36.350000 74.843750 37.612758
34.800000 89.562500 37.565034
34.775000 88.656250 37.577621
35.075000 87.328125 37.596067
35.150000 85.937500 37.615381
35.050000 85.171875 37.626015
34.750000 83.875000 37.644027
34.675000 82.515625 37.662907
34.900000 81.328125 37.679400
35.350000 80.656250 37.688732
35.850000 79.078125 37.710650
35.975000 78.000000 37.725625
36.000000 77.078125 37.738428
36.200000 75.828125 37.755790
36.725000 74.703125 37.771415
35.000000 88.265625 37.738848
35.075000 87.468750 37.749915
35.175000 86.437500 37.764238
35.075000 85.234375 37.780948
34.800000 83.750000 37.801565
34.725000 82.796875 37.814802
34.900000 81.890625 37.827389
35.500000 78.375000 37.876217
36.025000 77.250000 37.891842
36.225000 76.187500 37.906599
36.750000 74.812500 37.925697
35.175000 89.125000 37.901636
35.075000 88.218750 37.914223
35.175000 87.281250 37.927244
34.975000 83.625000 37.978025
34.825000 82.406250 37.994952
35.025000 81.203125 38.011662
35.600000 78.109375 38.054631
36.125000 76.484375 38.077200
35.150000 89.718750 38.031336
35.050000 88.031250 38.054773
35.175000 87.437500 38.063020
35.000000 83.812500 38.113367
34.875000 82.390625 38.133115
35.150000 81.562500 38.144617
35.825000 78.078125 38.193011
36.375000 76.875000 38.209721
35.275000 89.125000 38.214708
35.175000 87.906250 38.231635
35.300000 87.109375 38.242703
35.150000 83.500000 38.292833
34.900000 82.453125 38.307373
35.225000 81.296875 38.323432
35.900000 80.015625 38.341227
36.500000 78.781250 38.358371
36.575000 77.937500 38.370090
36.400000 76.515625 38.389838
36.575000 75.312500 38.406549
35.375000 89.015625 38.366451
35.225000 88.187500 38.377953
35.375000 87.171875 38.392059
34.900000 85.687500 38.412675
34.700000 84.640625 38.427215
35.050000 83.531250 38.442623
35.150000 81.953125 38.464541
35.525000 81.390625 38.472354
36.125000 80.250000 38.488196
36.525000 79.046875 38.504906
36.575000 77.734375 38.523135
36.500000 76.703125 38.537458
36.675000 75.156250 38.558943
35.200000 88.500000 38.527901
35.325000 87.515625 38.541573
35.425000 86.671875 38.553291
35.500000 85.531250 38.569134
35.225000 84.171875 38.588014
35.200000 83.046875 38.603639
35.800000 81.984375 38.618396
36.150000 80.437500 38.639880
36.550000 79.421875 38.653986
36.825000 78.421875 38.667875
36.600000 77.312500 38.683283
36.550000 75.843750 38.703682
36.875000 75.281250 38.711494
35.425000 89.046875 38.677384
35.300000 87.718750 38.695830
35.375000 87.250000 38.702341
35.050000 85.703125 38.723825
34.825000 84.359375 38.742488
35.050000 83.109375 38.759849
35.300000 82.437500 38.769181
35.800000 81.390625 38.783721
36.425000 80.171875 38.800648
36.725000 79.109375 38.815405
36.650000 77.640625 38.835804
36.575000 76.390625 38.853165
36.775000 75.328125 38.867922
35.150000 89.140625 38.840187
35.425000 87.640625 38.861021
35.500000 86.671875 38.874475
35.475000 85.500000 38.890751
35.200000 84.171875 38.909198
35.225000 82.812500 38.928078
35.800000 81.828125 38.941750
36.200000 80.687500 38.957592
36.625000 79.953125 38.967791
36.800000 78.234375 38.991663
36.650000 77.500000 39.001863
36.700000 75.937500 39.023564
36.950000 75.343750 39.031810
35.500000 89.578125 38.984661
35.450000 88.562500 38.998767
35.500000 86.890625 39.021987
35.350000 83.687500 39.066475
36.625000 79.015625 39.131362
36.650000 78.156250 39.143298
36.650000 77.046875 39.158706
36.825000 75.656250 39.178020
35.250000 89.531250 39.146806
35.325000 88.359375 39.163082
35.525000 87.234375 39.178707
35.575000 86.406250 39.190209
36.000000 85.515625 39.202579
35.200000 82.984375 39.237735
35.650000 81.437500 39.259219
36.400000 80.562500 39.271372
37.000000 79.359375 39.288082
36.975000 78.234375 39.303707
36.650000 77.171875 39.318464
36.850000 76.187500 39.332136
37.250000 75.000000 39.348629
35.575000 89.343750 39.302109
35.500000 88.328125 39.316215
35.625000 87.296875 39.330538
35.475000 85.687500 39.352890
35.300000 84.953125 39.363090
35.250000 83.687500 39.380668
35.400000 82.562500 39.396293
35.900000 81.265625 39.414305
36.475000 80.265625 39.428194
36.775000 78.828125 39.448159
36.625000 77.640625 39.464653
36.650000 76.625000 39.478758
36.900000 75.421875 39.495468
35.600000 89.796875 39.456422
35.625000 88.406250 39.475736
35.575000 87.218750 39.492229
35.450000 83.968750 39.537368
36.800000 79.328125 39.601821
36.750000 78.109375 39.618748
36.525000 76.843750 39.636327
36.800000 76.000000 39.648045
37.475000 74.890625 39.663453
35.800000 89.078125 39.618676
35.500000 87.828125 39.636037
35.725000 87.093750 39.646236
35.625000 85.609375 39.666853
35.400000 84.484375 39.682478
35.325000 83.515625 39.695933
35.525000 82.046875 39.716332
36.100000 81.171875 39.728485
36.725000 79.906250 39.746063
36.750000 78.890625 39.760169
36.550000 77.578125 39.778398
36.650000 76.750000 39.789900
36.950000 75.359375 39.809214
35.775000 88.656250 39.795047
35.650000 87.406250 39.812408
35.725000 86.453125 39.825646
35.975000 85.500000 39.838884
35.700000 83.984375 39.859934
35.250000 82.968750 39.874040
35.675000 81.906250 39.888797
36.375000 80.734375 39.905073
36.875000 79.484375 39.922434
36.800000 78.609375 39.934587
36.575000 77.093750 39.955637
36.750000 75.937500 39.971696
37.175000 75.140625 39.982764
36.000000 89.312500 39.927933
35.850000 87.968750 39.946596
35.775000 86.937500 39.960919
35.900000 86.140625 39.971986
35.675000 84.812500 39.990433
35.375000 83.296875 40.011483
36.750000 79.015625 40.070945
36.475000 77.531250 40.091561
36.550000 76.468750 40.106318
36.900000 75.718750 40.116735
36.150000 89.375000 40.092080
36.050000 88.562500 40.103364
35.825000 87.421875 40.119207
35.925000 86.156250 40.136785
35.825000 84.562500 40.158920
35.550000 83.375000 40.175413
35.650000 82.796875 40.183443
36.225000 81.359375 40.203408
36.775000 80.234375 40.219033
36.725000 79.140625 40.234224
36.475000 78.093750 40.248764
36.625000 77.046875 40.263304
36.925000 75.828125 40.280231
36.125000 89.640625 40.233971
36.025000 88.343750 40.251983
35.800000 87.140625 40.268693
35.850000 86.375000 40.279327
36.125000 84.937500 40.299292
35.925000 83.718750 40.316219
35.650000 82.609375 40.331627
36.150000 81.843750 40.342261
36.625000 80.484375 40.361141
36.650000 79.500000 40.374813
36.475000 78.250000 40.392174
36.450000 77.234375 40.406280
36.775000 76.015625 40.423207
37.450000 74.656250 40.442087
35.775000 89.765625 40.397316
35.500000 88.859375 40.409903
35.775000 87.843750 40.424009
35.825000 86.500000 40.442672
35.900000 85.296875 40.459383
35.850000 84.265625 40.473706
36.975000 79.656250 40.537724
36.750000 78.437500 40.554651
36.500000 77.593750 40.566370
36.650000 76.062500 40.587638
37.025000 75.343750 40.597620
35.875000 89.687500 40.548397
35.600000 88.859375 40.559899
35.750000 87.421875 40.579865
35.825000 86.796875 40.588545
35.875000 85.296875 40.609378
35.975000 84.437500 40.621314
35.900000 83.015625 40.641062
36.125000 82.062500 40.654300
36.575000 80.609375 40.674483
36.800000 79.843750 40.685116
36.700000 78.687500 40.701175
36.525000 77.343750 40.719838
36.700000 75.906250 40.739804
37.100000 74.812500 40.754995
36.175000 88.468750 40.726760
35.825000 87.234375 40.743904
35.875000 86.421875 40.755189
35.925000 85.171875 40.772550
35.950000 84.000000 40.788826
36.025000 82.921875 40.803800
36.325000 81.578125 40.822464
36.650000 80.312500 40.840042
36.575000 79.500000 40.851326
36.375000 78.359375 40.867168
36.550000 76.843750 40.888219
35.775000 87.312500 40.890152
35.900000 86.125000 40.906646
35.975000 84.812500 40.924875
35.950000 83.531250 40.942670
36.050000 82.828125 40.952435
36.375000 81.343750 40.973052
36.700000 80.437500 40.985639
36.550000 78.875000 41.007340
36.375000 78.156250 41.017323
36.625000 76.656250 41.038156
36.950000 75.687500 41.051611
35.450000 88.703125 41.039559
35.700000 88.093750 41.048023
35.875000 86.703125 41.067337
35.950000 85.765625 41.080358
35.975000 84.296875 41.100757
36.025000 82.984375 41.118987
36.300000 82.062500 41.131790
36.600000 80.875000 41.148283
36.775000 80.078125 41.159351
36.550000 78.453125 41.181921
36.325000 77.437500 41.196027
36.550000 76.078125 41.214907
37.000000 75.046875 41.229230
35.850000 89.484375 41.183881
35.825000 87.890625 41.206017
35.750000 86.843750 41.220557
35.875000 85.734375 41.235965
35.950000 84.687500 41.250505
35.950000 83.312500 41.269602
36.175000 82.031250 41.287397
36.500000 81.093750 41.300418
36.675000 79.984375 41.315826
36.525000 78.953125 41.330149
36.350000 77.781250 41.346425
36.550000 76.250000 41.367692
36.950000 75.453125 41.378760
35.775000 87.109375 41.374267
35.875000 85.875000 41.391411
35.950000 85.062500 41.402696
35.925000 83.828125 41.419840
36.100000 82.671875 41.435899
36.425000 81.453125 41.452826
36.625000 80.390625 41.467583
36.475000 79.171875 41.484510
36.275000 77.968750 41.501220
36.450000 76.890625 41.516194
36.825000 75.828125 41.530951
36.550000 89.687500 41.492904
36.325000 88.328125 41.511784
35.775000 87.484375 41.523503
35.875000 86.328125 41.539562
35.950000 85.187500 41.555404
35.925000 83.984375 41.572114
36.100000 82.640625 41.590777
36.400000 81.468750 41.607053
36.600000 80.484375 41.620725
36.400000 79.046875 41.640691
36.200000 78.250000 41.651758
36.450000 76.718750 41.673026
36.175000 89.531250 41.655066
35.975000 88.546875 41.668738
35.825000 87.453125 41.683928
35.875000 86.468750 41.697600
35.925000 85.312500 41.713660
35.950000 83.734375 41.735578
36.025000 82.593750 41.751420
36.300000 81.937500 41.760535
36.650000 80.781250 41.776593
36.550000 79.484375 41.794606
36.350000 77.984375 41.815439
36.400000 76.875000 41.830847
36.000000 89.812500 41.801886
35.750000 88.687500 41.817511
35.725000 87.281250 41.837042
35.825000 86.078125 41.853752
35.900000 85.296875 41.864603
35.950000 84.125000 41.880879
36.000000 82.875000 41.898240
36.275000 81.687500 41.914733
36.525000 80.609375 41.929707
36.450000 79.281250 41.948153
36.325000 78.234375 41.962693
36.350000 77.187500 41.977233
36.600000 75.781250 41.996764
37.150000 74.937500 42.008483
35.675000 88.828125 41.975203
35.650000 87.734375 41.990394
35.750000 86.593750 42.006236
35.875000 85.343750 42.023597
35.900000 84.093750 42.040958
35.850000 82.734375 42.059838
36.125000 82.046875 42.069387
36.575000 80.437500 42.091739
36.700000 79.265625 42.108015
36.500000 78.390625 42.120168
36.300000 77.250000 42.136010
36.525000 75.718750 42.157277
37.075000 75.062500 42.166392
35.675000 88.875000 42.126967
35.450000 88.156250 42.136949
35.650000 87.000000 42.153008
35.700000 85.343750 42.176012
35.475000 84.296875 42.190552
35.375000 83.140625 42.206611
36.550000 78.453125 42.271715
36.300000 77.546875 42.284302
36.375000 76.125000 42.304050
36.750000 75.234375 42.316420
35.850000 89.500000 42.280626
35.725000 88.140625 42.299506
35.525000 87.218750 42.312310
35.900000 85.781250 42.332275
36.375000 80.421875 42.406711
36.400000 78.984375 42.426676
36.300000 77.828125 42.442735
36.300000 76.890625 42.455756
35.650000 89.593750 42.443366
35.700000 88.750000 42.455085
35.475000 87.328125 42.474833
35.750000 86.296875 42.489156
34.900000 83.875000 42.522793
35.250000 82.734375 42.538635
35.750000 81.781250 42.551873
36.275000 80.343750 42.571838
36.750000 79.296875 42.586378
36.575000 78.234375 42.601135
36.250000 76.937500 42.619147
36.425000 75.750000 42.635640
36.975000 74.609375 42.651482
35.625000 89.718750 42.589332
35.700000 88.718750 42.603221
35.075000 84.921875 42.655956
34.900000 84.078125 42.667674
35.275000 82.984375 42.682865
35.725000 81.375000 42.705218
36.225000 80.281250 42.720409
36.700000 79.593750 42.729957
36.525000 78.109375 42.750574
36.275000 77.265625 42.762292
36.475000 75.671875 42.784428
36.900000 74.937500 42.794627
35.475000 89.234375 42.746686
35.200000 87.984375 42.764047
35.250000 86.656250 42.782493
34.900000 85.656250 42.796382
34.650000 84.359375 42.814394
34.775000 83.390625 42.827849
36.300000 78.484375 42.895992
36.275000 77.265625 42.912919
36.350000 76.531250 42.923118
36.525000 74.890625 42.945905
35.300000 89.593750 42.904775
35.325000 88.625000 42.918230
35.225000 87.265625 42.937110
35.625000 86.406250 42.949046
34.775000 83.875000 42.984202
35.125000 82.828125 42.998742
35.450000 81.734375 43.013933
35.975000 80.765625 43.027388
36.550000 79.609375 43.043447
36.450000 77.921875 43.066884
36.225000 77.015625 43.079471
36.325000 76.000000 43.093577
36.725000 74.640625 43.112457
35.100000 87.937500 43.077898
35.000000 86.421875 43.098948
34.750000 85.656250 43.109582
36.300000 78.625000 43.207238
36.275000 77.328125 43.225250
36.250000 76.031250 43.243263
36.400000 75.343750 43.252811
35.250000 89.515625 43.215637
35.250000 88.562500 43.228875
35.125000 87.125000 43.248840
35.250000 86.203125 43.261644
34.475000 83.359375 43.301141
34.900000 82.828125 43.308519
35.300000 81.281250 43.330003
35.800000 80.093750 43.346497
36.400000 79.375000 43.356479
36.475000 78.250000 43.372104
36.250000 76.703125 43.393589
34.950000 87.609375 43.396818
34.725000 84.546875 43.439353
34.600000 83.093750 43.459535
35.200000 82.296875 43.470603
35.575000 81.171875 43.486228
35.975000 79.859375 43.504457
36.325000 78.796875 43.519214
36.275000 77.406250 43.538528
36.175000 76.187500 43.555455
36.275000 75.187500 43.569344
35.025000 89.671875 43.532233
34.975000 88.546875 43.547858
35.000000 87.140625 43.567389
34.625000 85.890625 43.584750
34.250000 85.140625 43.595167
34.325000 83.921875 43.612094
34.450000 82.765625 43.628153
34.750000 81.640625 43.643778
36.125000 76.875000 43.709967
36.000000 75.625000 43.727328
36.400000 74.765625 43.739264
35.050000 89.093750 43.689411
34.950000 87.890625 43.706121
34.950000 86.906250 43.719793
34.875000 85.656250 43.737154
34.450000 84.343750 43.755383
34.250000 83.140625 43.772093
34.400000 82.140625 43.785982
34.725000 80.984375 43.802041
35.375000 80.296875 43.811590
36.175000 78.812500 43.832206
36.275000 77.687500 43.847831
36.000000 76.796875 43.860201
36.125000 75.343750 43.880383
35.100000 89.218750 43.849090
34.925000 88.109375 43.864498
34.925000 86.796875 43.882727
34.675000 85.437500 43.901608
34.275000 84.359375 43.916581
34.225000 83.375000 43.930253
34.400000 82.484375 43.942623
34.700000 80.953125 43.963891
35.450000 77.843750 44.007076
35.925000 76.500000 44.025739
36.050000 75.187500 44.043969
35.050000 89.765625 43.992887
34.900000 88.140625 44.015456
34.825000 86.875000 44.033034
34.625000 85.734375 44.048876
34.775000 84.781250 44.062114
34.725000 83.500000 44.079909
34.350000 82.437500 44.094666
34.600000 81.484375 44.107904
35.075000 79.937500 44.129388
35.725000 79.171875 44.140022
35.850000 77.828125 44.158685
35.700000 76.812500 44.172791
35.925000 75.515625 44.190803
36.500000 74.421875 44.205994
35.125000 89.609375 44.155175
34.850000 88.203125 44.174706
34.800000 87.187500 44.188812
34.575000 83.812500 44.235687
34.350000 82.437500 44.254784
34.600000 81.078125 44.273664
35.050000 80.406250 44.282996
35.375000 79.125000 44.300791
35.500000 78.093750 44.315114
35.675000 76.828125 44.332692
35.150000 89.531250 44.308933
34.725000 87.781250 44.333239
34.725000 86.671875 44.348647
34.725000 85.500000 44.364923
35.050000 84.437500 44.379680
34.875000 83.328125 44.395088
34.425000 82.125000 44.411798
34.700000 81.453125 44.421130
35.150000 80.234375 44.438057
35.400000 79.125000 44.453465
35.475000 77.937500 44.469958
35.650000 76.843750 44.485149
34.875000 89.125000 44.484862
34.575000 87.671875 44.505044
34.725000 86.687500 44.518716
34.725000 85.546875 44.534558
34.825000 84.156250 44.553872
34.750000 82.937500 44.570799
34.600000 81.906250 44.585122
34.925000 80.843750 44.599879
35.175000 79.625000 44.616807
35.250000 78.359375 44.634385
35.425000 77.453125 44.646971
35.675000 76.187500 44.664549
36.050000 75.187500 44.678438
35.025000 89.703125 44.632556
34.675000 88.187500 44.653606
34.625000 87.437500 44.664023
34.700000 85.828125 44.686375
34.725000 84.984375 44.698094
34.725000 83.968750 44.712200
34.700000 82.390625 44.734118
34.900000 81.312500 44.749092
35.050000 80.515625 44.760160
35.075000 79.125000 44.779474
35.300000 78.187500 44.792495
35.525000 77.046875 44.808337
35.775000 75.859375 44.824830
36.250000 74.359375 44.845663
34.925000 89.312500 44.784178
34.575000 88.156250 44.800237
34.625000 87.359375 44.811305
34.675000 85.718750 44.834092
34.700000 84.421875 44.852104
34.700000 83.750000 44.861435
34.725000 82.687500 44.876192
34.825000 81.468750 44.893119
34.950000 80.359375 44.908527
35.100000 79.093750 44.926105
35.325000 77.578125 44.947156
35.475000 76.750000 44.958658
35.725000 75.328125 44.978406
36.300000 74.312500 44.992512
34.525000 88.953125 44.956637
34.600000 87.828125 44.972262
34.650000 86.406250 44.992010
34.675000 85.515625 45.004380
34.700000 84.359375 45.020439
34.725000 82.687500 45.043660
34.950000 81.828125 45.055595
35.000000 80.546875 45.073390
34.875000 79.234375 45.091620
35.075000 78.531250 45.101385
35.325000 77.421875 45.116793
35.550000 75.828125 45.138929
35.925000 74.796875 45.153252
34.725000 89.171875 45.109779
34.450000 88.156250 45.123885
34.625000 86.937500 45.140812
34.650000 85.359375 45.162731
34.650000 84.218750 45.178573
34.725000 83.312500 45.191159
34.900000 82.125000 45.207653
34.950000 81.187500 45.220673
34.850000 80.031250 45.236732
35.000000 78.375000 45.259736
35.250000 77.796875 45.267766
35.425000 76.109375 45.291203
35.700000 75.375000 45.301403
34.500000 88.656250 45.270130
34.575000 87.625000 45.284453
34.625000 86.578125 45.298993
34.650000 85.359375 45.315920
34.700000 83.796875 45.337621
34.725000 83.031250 45.348255
34.950000 81.906250 45.363880
34.950000 80.281250 45.386450
34.850000 79.343750 45.399471
35.025000 78.265625 45.414444
35.275000 77.093750 45.430721
35.475000 75.937500 45.446779
35.825000 75.156250 45.457630
34.625000 87.453125 45.436073
34.675000 86.265625 45.452566
34.700000 85.015625 45.469927
34.700000 83.437500 45.491846
34.800000 82.843750 45.500092
34.775000 81.375000 45.520492
34.725000 80.015625 45.539372
34.875000 78.859375 45.555431
35.075000 77.640625 45.572358
35.300000 76.656250 45.586030
35.500000 75.625000 45.600353
35.925000 74.406250 45.617280
34.625000 88.828125 45.581065
34.525000 87.875000 45.594303
34.625000 87.015625 45.606238
34.650000 85.843750 45.622514
34.675000 84.453125 45.641829
34.725000 83.062500 45.661143
35.000000 82.140625 45.673947
35.025000 80.843750 45.691959
34.850000 79.671875 45.708235
35.000000 78.890625 45.719086
35.225000 77.656250 45.736230
35.400000 76.593750 45.750987
35.675000 74.937500 45.773990
34.625000 86.890625 45.763547
34.675000 85.656250 45.780691
34.700000 84.578125 45.795665
34.700000 83.718750 45.807601
34.875000 82.531250 45.824094
34.850000 81.187500 45.842757
34.725000 79.937500 45.860118
34.900000 78.875000 45.874875
35.075000 77.734375 45.890717
35.300000 76.953125 45.901568
35.525000 75.765625 45.918061
35.950000 74.531250 45.935205
34.625000 87.093750 45.917129
34.675000 85.734375 45.936009
34.700000 84.921875 45.947294
34.725000 83.578125 45.965957
34.900000 82.656250 45.978761
34.850000 81.562500 45.993952
34.725000 80.109375 46.014134
34.925000 79.078125 46.028457
35.175000 78.078125 46.042346
35.425000 76.921875 46.058405
35.600000 75.453125 46.078804
35.975000 74.765625 46.088353
34.650000 86.328125 46.084503
34.675000 85.171875 46.100562
34.725000 84.343750 46.112064
34.825000 82.921875 46.131812
34.900000 81.703125 46.148739
34.950000 80.390625 46.166969
34.975000 79.515625 46.179121
35.050000 78.062500 46.199304
35.275000 76.828125 46.216448
35.450000 75.968750 46.228384
35.800000 75.078125 46.240753
34.775000 88.718750 46.207215
34.450000 87.562500 46.223274
34.625000 86.562500 46.237163
34.675000 85.578125 46.250835
34.750000 84.328125 46.268196
34.800000 83.218750 46.283604
35.025000 82.265625 46.296842
35.050000 80.765625 46.317675
34.850000 79.859375 46.330262
35.000000 78.609375 46.347623
35.225000 77.734375 46.359776
35.400000 76.140625 46.381912
35.675000 74.968750 46.398188
34.650000 86.703125 46.390710
34.675000 85.453125 46.408072
34.775000 84.468750 46.421743
34.825000 83.125000 46.440407
35.025000 82.281250 46.452125
35.050000 80.953125 46.470572
34.850000 79.843750 46.485979
35.000000 78.796875 46.500519
35.225000 77.265625 46.521787
35.400000 76.546875 46.531769
35.675000 75.281250 46.549347
34.700000 87.234375 46.540524
34.725000 85.656250 46.562443
34.775000 85.000000 46.571557
34.875000 83.828125 46.587833
35.075000 82.125000 46.611488
35.025000 80.968750 46.627547
34.825000 79.937500 46.641870
35.025000 79.000000 46.654890
35.350000 77.703125 46.672903
35.525000 76.703125 46.686791
35.700000 75.671875 46.701114
36.225000 74.562500 46.716522
34.475000 88.765625 46.672899
34.675000 87.187500 46.694818
34.725000 86.453125 46.705017
34.825000 85.406250 46.719557
34.875000 83.984375 46.739305
34.925000 82.828125 46.755364
34.950000 81.500000 46.773811
34.975000 80.687500 46.785095
35.050000 79.546875 46.800937
35.225000 78.468750 46.815911
35.400000 77.171875 46.833923
35.600000 75.750000 46.853672
35.900000 74.906250 46.865391
34.625000 87.078125 46.870159
34.675000 86.109375 46.883614
34.725000 84.687500 46.903363
34.825000 83.421875 46.920941
34.975000 82.796875 46.929621
34.850000 81.234375 46.951323
34.725000 80.000000 46.968467
34.975000 79.000000 46.982355
35.250000 77.640625 47.001236
35.400000 76.625000 47.015342
35.625000 75.656250 47.028796
36.150000 74.625000 47.043119
34.825000 88.671875 46.988730
34.625000 87.375000 47.006742
34.675000 86.421875 47.019980
34.775000 85.531250 47.032350
34.875000 83.812500 47.056222
34.925000 82.843750 47.069677
35.150000 81.671875 47.085953
