37.900000 87.312500 18.163156
37.550000 85.781250 18.163156
37.275000 84.921875 18.163156
37.575000 83.328125 18.163156
38.025000 82.671875 18.163156
38.650000 81.546875 18.163156
38.950000 79.984375 18.163156
38.750000 78.906250 18.163156
38.725000 77.890625 18.163156
39.025000 76.750000 18.163156
37.925000 89.781250 18.319661
37.900000 88.515625 18.319661
37.675000 87.296875 18.319661
37.350000 85.906250 18.319661
37.300000 84.671875 18.319661
37.375000 83.875000 18.319661
39.000000 79.234375 18.319661
38.725000 77.718750 18.319661
37.875000 89.375000 18.474264
37.850000 88.484375 18.474264
37.625000 87.250000 18.474264
37.325000 86.281250 18.474264
37.150000 85.125000 18.474264
37.250000 83.640625 18.474264
39.000000 79.000000 18.474264
38.725000 77.750000 18.474264
38.775000 76.812500 18.474264
37.625000 89.421875 18.629097
37.550000 88.468750 18.629097
37.575000 87.015625 18.629097
37.250000 86.015625 18.629097
37.150000 84.593750 18.629097
37.500000 83.484375 18.629097
38.025000 82.484375 18.629097
38.475000 81.250000 18.629097
39.000000 79.984375 18.629097
39.000000 79.203125 18.629097
38.800000 77.671875 18.629097
38.800000 76.515625 18.629097
37.775000 89.828125 18.783090
37.725000 88.859375 18.783090
37.650000 87.515625 18.783090
38.075000 86.453125 18.783090
37.300000 83.921875 18.783090
37.725000 82.687500 18.783090
38.200000 81.375000 18.783090
38.850000 80.687500 18.783090
38.925000 79.140625 18.783090
38.700000 78.109375 18.783090
37.750000 89.937500 18.939754
37.700000 88.609375 18.939754
37.625000 87.421875 18.939754
37.900000 86.296875 18.939754
37.250000 83.890625 18.939754
37.800000 82.828125 18.939754
38.100000 81.546875 18.939754
38.575000 80.562500 18.939754
38.925000 79.234375 18.939754
38.775000 78.343750 18.939754
37.750000 89.671875 19.094831
37.700000 88.421875 19.094831
37.600000 87.437500 19.094831
37.800000 86.265625 19.094831
37.025000 84.000000 19.094831
37.375000 82.765625 19.094831
37.775000 81.734375 19.094831
38.575000 80.343750 19.094831
38.950000 79.203125 19.094831
38.750000 77.953125 19.094831
38.625000 77.046875 19.094831
39.125000 76.140625 19.094831
37.675000 89.734375 19.251006
37.500000 88.343750 19.251006
37.175000 85.078125 19.251006
36.975000 83.625000 19.251006
37.275000 82.375000 19.251006
38.725000 78.140625 19.251006
38.750000 76.750000 19.251006
37.825000 89.000000 19.392244
37.375000 88.265625 19.392244
37.175000 84.359375 19.392244
36.925000 83.312500 19.392244
37.200000 82.078125 19.392244
37.975000 78.718750 19.392244
38.475000 77.546875 19.392244
38.625000 76.531250 19.392244
37.350000 90.296875 19.548057
37.350000 88.984375 19.548057
37.500000 88.015625 19.548057
37.175000 86.453125 19.548057
37.150000 85.515625 19.548057
37.225000 84.015625 19.548057
37.000000 83.031250 19.548057
37.300000 81.968750 19.548057
37.900000 80.750000 19.548057
38.550000 79.531250 19.548057
38.575000 78.484375 19.548057
38.425000 77.296875 19.548057
38.800000 76.187500 19.548057
37.675000 89.515625 19.703604
37.475000 88.437500 19.703604
37.500000 87.546875 19.703604
37.400000 86.265625 19.703604
37.025000 84.984375 19.703604
36.950000 83.437500 19.703604
37.150000 82.343750 19.703604
37.525000 81.640625 19.703604
38.075000 80.250000 19.703604
38.225000 78.984375 19.703604
38.250000 77.812500 19.703604
37.800000 89.562500 19.859047
37.400000 88.093750 19.859047
37.450000 87.343750 19.859047
37.200000 86.062500 19.859047
36.900000 84.656250 19.859047
36.975000 83.531250 19.859047
37.200000 82.375000 19.859047
37.575000 81.187500 19.859047
37.900000 80.234375 19.859047
38.025000 78.812500 19.859047
38.225000 77.812500 19.859047
38.550000 76.546875 19.859047
37.450000 87.171875 20.014604
37.325000 85.984375 20.014604
37.175000 84.562500 20.014604
37.175000 83.453125 20.014604
37.325000 82.468750 20.014604
37.650000 80.953125 20.014604
37.850000 79.781250 20.014604
38.025000 78.765625 20.014604
38.275000 77.453125 20.014604
38.600000 76.250000 20.014604
37.400000 89.281250 20.169991
37.275000 87.875000 20.169991
37.400000 86.968750 20.169991
37.300000 85.515625 20.169991
37.300000 84.203125 20.169991
37.300000 83.000000 20.169991
37.475000 82.343750 20.169991
37.675000 81.046875 20.169991
37.775000 79.968750 20.169991
37.975000 78.609375 20.169991
38.175000 77.328125 20.169991
38.525000 76.406250 20.169991
37.200000 89.046875 20.326121
37.250000 87.968750 20.326121
37.325000 86.437500 20.326121
37.350000 85.625000 20.326121
37.325000 84.359375 20.326121
37.350000 83.359375 20.326121
37.475000 82.171875 20.326121
37.600000 80.671875 20.326121
37.750000 79.671875 20.326121
37.975000 78.578125 20.326121
38.225000 77.343750 20.326121
38.600000 76.296875 20.326121
37.200000 88.703125 20.482303
37.250000 87.890625 20.482303
37.300000 86.859375 20.482303
37.350000 85.343750 20.482303
37.325000 84.281250 20.482303
37.375000 82.875000 20.482303
37.400000 81.781250 20.482303
37.475000 80.843750 20.482303
37.725000 79.656250 20.482303
37.925000 78.421875 20.482303
38.150000 77.140625 20.482303
38.550000 76.265625 20.482303
37.175000 88.968750 20.633335
37.200000 87.671875 20.633335
37.300000 86.625000 20.633335
37.350000 85.562500 20.633335
37.325000 84.031250 20.633335
37.375000 83.234375 20.633335
37.400000 82.156250 20.633335
37.450000 80.875000 20.633335
37.625000 79.609375 20.633335
37.850000 78.687500 20.633335
38.075000 77.515625 20.633335
38.475000 76.359375 20.633335
37.125000 90.062500 20.791878
37.025000 89.171875 20.791878
37.225000 87.796875 20.791878
37.275000 86.703125 20.791878
37.325000 85.546875 20.791878
37.300000 84.234375 20.791878
37.475000 83.281250 20.791878
37.500000 81.921875 20.791878
37.425000 80.609375 20.791878
37.575000 79.718750 20.791878
37.825000 78.500000 20.791878
38.075000 77.421875 20.791878
38.450000 75.890625 20.791878
37.375000 89.890625 20.948539
37.175000 88.562500 20.948539
37.250000 87.343750 20.948539
37.275000 86.375000 20.948539
37.325000 85.468750 20.948539
37.350000 83.843750 20.948539
37.575000 83.062500 20.948539
37.600000 81.593750 20.948539
37.450000 80.296875 20.948539
37.625000 79.234375 20.948539
37.875000 78.468750 20.948539
38.100000 76.984375 20.948539
38.500000 75.984375 20.948539
37.400000 89.484375 21.104348
37.200000 88.593750 21.104348
37.275000 87.406250 21.104348
37.300000 86.171875 21.104348
37.300000 84.953125 21.104348
37.350000 83.781250 21.104348
37.550000 82.687500 21.104348
37.600000 81.468750 21.104348
37.525000 80.437500 21.104348
37.650000 78.828125 21.104348
37.850000 77.984375 21.104348
38.100000 76.593750 21.104348
38.700000 75.906250 21.104348
37.250000 89.937500 21.257195
37.150000 88.625000 21.257195
37.225000 87.453125 21.257195
37.275000 86.515625 21.257195
37.325000 85.453125 21.257195
37.325000 84.109375 21.257195
37.550000 83.171875 21.257195
37.600000 81.859375 21.257195
37.450000 80.625000 21.257195
37.600000 79.484375 21.257195
37.825000 78.125000 21.257195
38.050000 77.140625 21.257195
38.425000 76.218750 21.257195
37.325000 89.609375 21.418815
37.100000 88.218750 21.418815
37.275000 87.312500 21.418815
37.300000 85.703125 21.418815
37.325000 85.062500 21.418815
37.375000 83.562500 21.418815
37.350000 82.437500 21.418815
37.400000 81.250000 21.418815
37.525000 80.203125 21.418815
37.725000 79.171875 21.418815
37.900000 77.593750 21.418815
37.375000 88.968750 21.567814
37.300000 87.781250 21.567814
37.325000 87.046875 21.567814
37.275000 85.687500 21.567814
37.325000 84.578125 21.567814
37.475000 83.500000 21.567814
37.500000 82.375000 21.567814
37.475000 80.812500 21.567814
37.550000 79.718750 21.567814
37.725000 78.656250 21.567814
37.925000 77.593750 21.567814
38.200000 76.328125 21.567814
37.375000 89.843750 21.731282
37.200000 88.234375 21.731282
37.275000 87.515625 21.731282
37.325000 86.281250 21.731282
37.325000 85.218750 21.731282
37.325000 83.953125 21.731282
37.450000 82.687500 21.731282
37.500000 81.265625 21.731282
37.500000 80.187500 21.731282
37.650000 79.140625 21.731282
37.850000 78.093750 21.731282
38.100000 77.015625 21.731282
38.575000 75.562500 21.731282
37.325000 86.671875 21.882614
37.325000 85.562500 21.882614
37.350000 84.406250 21.882614
37.575000 83.406250 21.882614
37.575000 82.203125 21.882614
37.425000 80.765625 21.882614
37.575000 79.484375 21.882614
37.725000 78.250000 21.882614
37.975000 77.171875 21.882614
38.275000 76.031250 21.882614
37.275000 87.359375 22.027732
37.300000 85.812500 22.027732
37.325000 85.031250 22.027732
37.450000 83.890625 22.027732
37.500000 82.437500 22.027732
37.475000 81.375000 22.027732
37.525000 79.890625 22.027732
37.700000 79.203125 22.027732
37.900000 77.593750 22.027732
37.200000 88.265625 22.192513
37.275000 87.437500 22.192513
37.325000 86.281250 22.192513
37.325000 85.062500 22.192513
37.400000 83.765625 22.192513
37.525000 82.390625 22.192513
37.500000 81.578125 22.192513
37.500000 80.281250 22.192513
37.625000 79.109375 22.192513
37.850000 77.843750 22.192513
38.100000 76.593750 22.192513
38.550000 75.625000 22.192513
37.275000 86.796875 22.338037
37.300000 85.781250 22.338037
37.350000 84.671875 22.338037
37.450000 83.703125 22.338037
37.475000 82.218750 22.338037
37.425000 81.328125 22.338037
37.525000 79.828125 22.338037
37.700000 78.921875 22.338037
37.950000 77.843750 22.338037
38.200000 76.703125 22.338037
37.250000 86.953125 22.500474
37.300000 85.890625 22.500474
37.350000 84.562500 22.500474
37.450000 83.640625 22.500474
37.475000 82.359375 22.500474
37.425000 81.390625 22.500474
37.525000 80.093750 22.500474
37.700000 78.937500 22.500474
37.950000 77.859375 22.500474
38.200000 76.546875 22.500474
37.200000 88.968750 22.649410
37.225000 88.093750 22.649410
37.275000 86.921875 22.649410
37.300000 85.609375 22.649410
37.350000 84.562500 22.649410
37.575000 83.062500 22.649410
37.575000 82.000000 22.649410
37.425000 80.718750 22.649410
37.600000 79.437500 22.649410
37.775000 78.515625 22.649410
37.975000 77.531250 22.649410
38.275000 76.406250 22.649410
37.125000 89.828125 22.813250
36.925000 88.937500 22.813250
37.225000 87.718750 22.813250
37.250000 86.484375 22.813250
37.300000 85.234375 22.813250
37.325000 83.968750 22.813250
37.550000 82.875000 22.813250
37.575000 81.781250 22.813250
37.450000 80.812500 22.813250
37.600000 79.515625 22.813250
37.825000 78.437500 22.813250
38.050000 77.343750 22.813250
38.400000 75.953125 22.813250
37.025000 90.218750 22.962268
36.925000 88.953125 22.962268
37.200000 87.484375 22.962268
37.250000 86.734375 22.962268
37.300000 85.359375 22.962268
37.325000 83.968750 22.962268
37.425000 83.125000 22.962268
37.450000 81.640625 22.962268
37.425000 80.890625 22.962268
37.600000 79.421875 22.962268
37.825000 78.343750 22.962268
38.025000 77.406250 22.962268
38.400000 76.171875 22.962268
37.200000 89.609375 23.117144
36.950000 88.812500 23.117144
37.200000 87.359375 23.117144
37.275000 86.125000 23.117144
37.325000 84.890625 23.117144
37.350000 84.140625 23.117144
37.400000 82.562500 23.117144
37.425000 81.765625 23.117144
37.475000 80.375000 23.117144
37.700000 79.187500 23.117144
37.950000 77.937500 23.117144
38.175000 77.125000 23.117144
38.575000 75.640625 23.117144
37.175000 89.859375 23.272397
37.025000 88.437500 23.272397
37.200000 87.343750 23.272397
37.275000 86.031250 23.272397
37.325000 84.890625 23.272397
37.400000 84.062500 23.272397
37.450000 82.828125 23.272397
37.700000 81.843750 23.272397
37.775000 80.578125 23.272397
37.725000 79.296875 23.272397
37.950000 78.250000 23.272397
38.175000 76.765625 23.272397
38.625000 75.562500 23.272397
37.275000 90.078125 23.425271
37.200000 88.968750 23.425271
37.200000 87.781250 23.425271
37.250000 86.750000 23.425271
37.300000 85.171875 23.425271
37.475000 84.187500 23.425271
37.475000 82.828125 23.425271
37.475000 81.609375 23.425271
37.675000 80.875000 23.425271
37.825000 79.453125 23.425271
38.050000 78.296875 23.425271
38.225000 77.156250 23.425271
38.575000 75.812500 23.425271
37.250000 90.046875 23.580953
37.200000 88.828125 23.580953
37.200000 87.781250 23.580953
37.250000 86.609375 23.580953
37.125000 85.484375 23.580953
37.000000 84.187500 23.580953
37.150000 83.140625 23.580953
37.450000 81.984375 23.580953
37.675000 80.484375 23.580953
37.850000 79.765625 23.580953
38.075000 78.328125 23.580953
38.225000 77.328125 23.580953
38.575000 76.109375 23.580953
37.175000 89.703125 23.736989
37.050000 88.640625 23.736989
37.250000 87.671875 23.736989
37.300000 86.515625 23.736989
37.525000 85.312500 23.736989
37.350000 83.718750 23.736989
37.075000 82.500000 23.736989
37.425000 81.828125 23.736989
37.800000 80.531250 23.736989
38.025000 79.484375 23.736989
38.200000 78.031250 23.736989
38.375000 76.875000 23.736989
38.900000 75.609375 23.736989
37.275000 89.109375 23.891084
37.175000 87.828125 23.891084
37.375000 86.765625 23.891084
37.100000 85.375000 23.891084
36.800000 84.437500 23.891084
36.975000 83.015625 23.891084
37.225000 81.859375 23.891084
37.650000 81.140625 23.891084
38.000000 79.703125 23.891084
38.100000 78.640625 23.891084
38.250000 77.312500 23.891084
38.625000 76.109375 23.891084
37.325000 90.093750 24.048677
37.225000 88.937500 24.048677
37.325000 87.890625 24.048677
37.450000 86.625000 24.048677
37.800000 85.390625 24.048677
37.550000 84.140625 24.048677
37.100000 82.968750 24.048677
37.700000 79.328125 24.048677
38.250000 78.187500 24.048677
38.400000 77.109375 24.048677
38.875000 76.171875 24.048677
37.450000 89.296875 24.202246
37.275000 88.046875 24.202246
37.375000 87.078125 24.202246
37.175000 86.093750 24.202246
36.900000 84.703125 24.202246
37.050000 83.718750 24.202246
37.325000 82.359375 24.202246
37.725000 81.406250 24.202246
38.250000 80.062500 24.202246
38.375000 79.218750 24.202246
38.300000 78.015625 24.202246
38.575000 76.875000 24.202246
37.175000 90.078125 24.356789
37.150000 88.546875 24.356789
37.400000 87.593750 24.356789
37.250000 84.250000 24.356789
37.225000 82.968750 24.356789
37.575000 81.921875 24.356789
38.225000 80.640625 24.356789
38.425000 79.546875 24.356789
38.325000 78.390625 24.356789
38.475000 77.218750 24.356789
38.875000 76.156250 24.356789
37.500000 89.234375 24.513791
37.225000 87.953125 24.513791
37.475000 87.234375 24.513791
37.525000 85.875000 24.513791
37.250000 84.421875 24.513791
37.075000 83.140625 24.513791
37.425000 82.515625 24.513791
38.025000 81.390625 24.513791
38.700000 80.171875 24.513791
38.750000 78.828125 24.513791
38.475000 77.515625 24.513791
38.775000 76.625000 24.513791
37.175000 90.078125 24.669426
37.150000 88.562500 24.669426
37.475000 87.828125 24.669426
37.425000 84.171875 24.669426
37.450000 83.031250 24.669426
37.850000 81.937500 24.669426
38.325000 80.812500 24.669426
38.675000 79.625000 24.669426
38.600000 78.531250 24.669426
38.575000 77.359375 24.669426
39.000000 75.781250 24.669426
37.600000 89.531250 24.819328
37.525000 88.250000 24.819328
37.600000 87.406250 24.819328
37.175000 86.046875 24.819328
36.925000 84.781250 24.819328
37.325000 83.531250 24.819328
37.975000 82.593750 24.819328
38.400000 81.703125 24.819328
38.800000 80.421875 24.819328
39.025000 79.031250 24.819328
38.775000 78.046875 24.819328
37.500000 89.171875 24.980904
37.425000 88.234375 24.980904
37.675000 86.750000 24.980904
37.850000 85.781250 24.980904
37.525000 84.656250 24.980904
38.900000 80.015625 24.980904
38.950000 78.656250 24.980904
38.700000 77.765625 24.980904
38.825000 76.390625 24.980904
37.525000 88.140625 25.133065
37.725000 86.921875 25.133065
38.350000 85.640625 25.133065
38.825000 77.484375 25.133065
39.050000 76.453125 25.133065
37.350000 89.203125 25.292522
37.700000 88.171875 25.292522
37.850000 86.734375 25.292522
38.325000 85.671875 25.292522
37.625000 80.828125 25.292522
38.500000 79.796875 25.292522
38.875000 78.359375 25.292522
38.800000 77.187500 25.292522
39.025000 76.125000 25.292522
37.525000 88.968750 25.443209
37.775000 87.734375 25.443209
37.575000 84.015625 25.443209
37.550000 83.375000 25.443209
38.050000 82.234375 25.443209
38.650000 80.671875 25.443209
39.000000 79.625000 25.443209
38.925000 78.562500 25.443209
38.875000 77.328125 25.443209
39.100000 76.218750 25.443209
37.425000 89.187500 25.603604
37.775000 88.140625 25.603604
37.625000 84.500000 25.603604
37.475000 83.031250 25.603604
37.925000 82.062500 25.603604
38.550000 81.140625 25.603604
38.875000 79.921875 25.603604
38.875000 78.484375 25.603604
38.825000 77.343750 25.603604
39.075000 76.156250 25.603604
37.725000 88.859375 25.756362
37.900000 87.781250 25.756362
37.950000 86.750000 25.756362
38.175000 85.343750 25.756362
37.950000 84.375000 25.756362
37.625000 82.859375 25.756362
38.025000 82.156250 25.756362
38.800000 80.718750 25.756362
39.050000 79.828125 25.756362
38.825000 78.671875 25.756362
38.925000 77.296875 25.756362
39.175000 76.125000 25.756362
37.800000 89.765625 25.900563
37.850000 88.359375 25.900563
37.950000 87.250000 25.900563
37.775000 86.109375 25.900563
37.525000 85.156250 25.900563
37.500000 84.046875 25.900563
37.950000 82.843750 25.900563
38.700000 81.578125 25.900563
39.125000 80.281250 25.900563
39.000000 79.156250 25.900563
38.775000 77.828125 25.900563
37.975000 89.812500 26.066815
37.875000 88.453125 26.066815
37.975000 87.046875 26.066815
38.150000 86.203125 26.066815
37.850000 84.593750 26.066815
37.475000 83.640625 26.066815
37.900000 82.468750 26.066815
38.625000 81.531250 26.066815
39.125000 80.281250 26.066815
38.975000 79.187500 26.066815
38.700000 78.078125 26.066815
38.950000 76.687500 26.066815
38.250000 89.484375 26.211172
37.950000 87.968750 26.211172
38.025000 87.078125 26.211172
38.175000 85.828125 26.211172
37.950000 84.343750 26.211172
37.750000 83.578125 26.211172
38.325000 82.203125 26.211172
38.950000 81.156250 26.211172
38.925000 79.750000 26.211172
38.675000 78.812500 26.211172
38.725000 77.578125 26.211172
39.100000 76.531250 26.211172
38.125000 89.843750 26.374051
38.125000 88.484375 26.374051
38.025000 87.390625 26.374051
38.200000 86.578125 26.374051
38.050000 85.125000 26.374051
37.725000 84.031250 26.374051
37.875000 82.890625 26.374051
38.425000 81.843750 26.374051
39.000000 80.593750 26.374051
38.900000 79.218750 26.374051
38.700000 78.187500 26.374051
38.950000 77.093750 26.374051
39.500000 76.140625 26.374051
38.050000 89.515625 26.525545
37.950000 88.421875 26.525545
38.050000 87.265625 26.525545
38.175000 86.203125 26.525545
38.075000 84.984375 26.525545
38.450000 81.281250 26.525545
38.850000 79.937500 26.525545
38.675000 78.859375 26.525545
38.750000 77.578125 26.525545
39.000000 76.468750 26.525545
38.000000 89.625000 26.688441
37.925000 88.468750 26.688441
38.050000 87.187500 26.688441
38.175000 85.828125 26.688441
38.200000 84.890625 26.688441
38.100000 83.281250 26.688441
38.450000 82.531250 26.688441
38.950000 81.421875 26.688441
38.825000 80.250000 26.688441
38.625000 78.875000 26.688441
38.725000 77.562500 26.688441
39.075000 76.781250 26.688441
37.750000 89.343750 26.838262
38.050000 88.265625 26.838262
38.100000 86.609375 26.838262
38.200000 85.421875 26.838262
38.250000 84.703125 26.838262
38.350000 83.343750 26.838262
38.625000 82.218750 26.838262
38.925000 81.250000 26.838262
38.825000 79.828125 26.838262
38.650000 78.593750 26.838262
38.825000 77.640625 26.838262
39.175000 76.265625 26.838262
30.875000 90.640625 26.998677
38.075000 87.500000 26.998677
38.150000 86.203125 26.998677
38.250000 85.265625 26.998677
38.350000 84.015625 26.998677
38.600000 82.890625 26.998677
38.900000 81.343750 26.998677
38.800000 80.406250 26.998677
38.575000 79.375000 26.998677
38.650000 78.062500 26.998677
39.000000 77.078125 26.998677
38.275000 89.343750 27.147008
38.175000 88.125000 27.147008
38.075000 87.078125 27.147008
38.175000 86.265625 27.147008
38.275000 84.703125 27.147008
38.325000 83.437500 27.147008
38.575000 82.500000 27.147008
38.900000 81.250000 27.147008
38.775000 80.000000 27.147008
38.600000 78.984375 27.147008
38.875000 77.718750 27.147008
39.150000 76.500000 27.147008
38.400000 89.906250 27.310120
38.250000 88.984375 27.310120
38.100000 87.546875 27.310120
38.150000 86.359375 27.310120
38.275000 85.281250 27.310120
38.275000 84.109375 27.310120
38.400000 83.031250 27.310120
38.775000 82.109375 27.310120
39.150000 80.937500 27.310120
38.925000 79.750000 27.310120
38.625000 78.578125 27.310120
38.850000 77.078125 27.310120
39.325000 76.125000 27.310120
38.225000 87.109375 27.461488
38.300000 85.984375 27.461488
38.250000 84.765625 27.461488
38.325000 83.562500 27.461488
38.675000 82.625000 27.461488
39.000000 81.359375 27.461488
38.775000 80.281250 27.461488
38.575000 79.187500 27.461488
38.700000 77.671875 27.461488
39.000000 76.656250 27.461488
37.725000 89.000000 27.617333
38.075000 88.140625 27.617333
38.225000 87.062500 27.617333
38.300000 85.640625 27.617333
38.350000 84.640625 27.617333
38.475000 83.203125 27.617333
38.650000 82.343750 27.617333
38.850000 80.937500 27.617333
38.800000 79.875000 27.617333
38.675000 78.484375 27.617333
38.825000 77.484375 27.617333
39.200000 76.343750 27.617333
38.625000 89.937500 27.775469
38.300000 88.562500 27.775469
38.125000 87.609375 27.775469
38.300000 86.562500 27.775469
38.350000 85.250000 27.775469
38.300000 84.015625 27.775469
38.500000 82.875000 27.775469
38.875000 81.718750 27.775469
39.250000 80.515625 27.775469
39.050000 79.625000 27.775469
38.650000 78.406250 27.775469
38.925000 77.062500 27.775469
39.425000 76.078125 27.775469
38.750000 90.078125 27.918583
38.400000 88.812500 27.918583
38.050000 87.765625 27.918583
38.200000 86.562500 27.918583
38.200000 85.265625 27.918583
38.150000 83.890625 27.918583
38.350000 83.031250 27.918583
38.675000 81.718750 27.918583
39.200000 80.718750 27.918583
39.075000 79.328125 27.918583
38.675000 78.343750 27.918583
38.900000 77.281250 27.918583
39.500000 75.953125 27.918583
38.475000 89.921875 28.072740
38.400000 88.781250 28.072740
38.050000 87.656250 28.072740
38.225000 86.312500 28.072740
38.025000 84.968750 28.072740
37.850000 84.062500 28.072740
38.100000 83.000000 28.072740
38.550000 82.015625 28.072740
39.250000 80.765625 28.072740
39.075000 79.484375 28.072740
38.650000 78.375000 28.072740
38.900000 76.953125 28.072740
39.500000 76.125000 28.072740
38.275000 90.281250 28.229910
38.275000 88.984375 28.229910
38.000000 87.781250 28.229910
38.375000 86.625000 28.229910
38.875000 79.609375 28.229910
38.625000 78.406250 28.229910
38.825000 76.968750 28.229910
39.400000 76.125000 28.229910
38.000000 87.625000 28.382876
38.000000 86.656250 28.382876
37.675000 84.953125 28.382876
38.975000 79.218750 28.382876
38.625000 78.031250 28.382876
38.875000 77.171875 28.382876
39.450000 75.843750 28.382876
38.025000 89.062500 28.539032
37.850000 88.406250 28.539032
38.175000 86.859375 28.539032
37.800000 85.921875 28.539032
37.350000 84.625000 28.539032
37.800000 83.218750 28.539032
38.375000 82.484375 28.539032
38.850000 80.984375 28.539032
38.950000 79.781250 28.539032
38.725000 78.953125 28.539032
38.700000 77.421875 28.539032
39.050000 76.296875 28.539032
38.000000 90.546875 28.695627
38.050000 88.890625 28.695627
37.525000 85.687500 28.695627
37.425000 84.296875 28.695627
37.875000 83.250000 28.695627
38.350000 82.265625 28.695627
38.775000 81.093750 28.695627
38.825000 80.031250 28.695627
38.700000 78.593750 28.695627
38.750000 77.656250 28.695627
39.000000 76.468750 28.695627
38.125000 90.125000 28.850790
38.175000 88.593750 28.850790
37.800000 87.328125 28.850790
37.550000 86.593750 28.850790
37.225000 85.203125 28.850790
38.825000 79.546875 28.850790
38.650000 78.421875 28.850790
38.850000 76.953125 28.850790
39.325000 76.125000 28.850790
37.900000 89.578125 29.006988
37.650000 88.156250 29.006988
37.650000 86.984375 29.006988
37.300000 86.062500 29.006988
37.175000 84.656250 29.006988
37.500000 83.687500 29.006988
37.950000 82.375000 29.006988
38.475000 81.046875 29.006988
38.950000 80.218750 29.006988
38.875000 78.984375 29.006988
38.700000 77.796875 29.006988
38.825000 76.343750 29.006988
37.550000 89.921875 29.162779
37.625000 89.031250 29.162779
37.700000 87.562500 29.162779
38.100000 86.843750 29.162779
37.175000 84.171875 29.162779
37.500000 83.156250 29.162779
37.875000 81.906250 29.162779
38.675000 80.906250 29.162779
38.975000 79.812500 29.162779
38.875000 78.406250 29.162779
38.750000 77.015625 29.162779
38.975000 75.968750 29.162779
37.850000 89.828125 29.319584
37.825000 88.765625 29.319584
37.700000 87.750000 29.319584
38.050000 86.671875 29.319584
37.225000 84.109375 29.319584
37.675000 83.125000 29.319584
38.050000 81.843750 29.319584
38.650000 80.703125 29.319584
38.900000 79.390625 29.319584
38.750000 78.125000 29.319584
38.675000 76.890625 29.319584
39.050000 76.156250 29.319584
37.750000 89.484375 29.475370
37.675000 88.578125 29.475370
37.600000 87.390625 29.475370
37.975000 86.109375 29.475370
37.200000 83.906250 29.475370
37.725000 82.734375 29.475370
38.075000 81.437500 29.475370
38.600000 80.343750 29.475370
38.950000 79.437500 29.475370
38.725000 77.968750 29.475370
37.600000 89.093750 29.631055
37.375000 88.359375 29.631055
37.250000 84.921875 29.631055
37.075000 83.468750 29.631055
37.400000 82.234375 29.631055
37.975000 81.234375 29.631055
38.750000 80.218750 29.631055
38.875000 78.812500 29.631055
38.675000 77.968750 29.631055
38.750000 76.656250 29.631055
37.725000 89.812500 29.786026
37.650000 88.812500 29.786026
37.575000 87.609375 29.786026
37.800000 86.531250 29.786026
36.900000 83.953125 29.786026
37.150000 82.875000 29.786026
38.725000 77.937500 29.786026
37.725000 89.968750 29.941937
37.625000 88.359375 29.941937
37.550000 87.640625 29.941937
37.675000 86.343750 29.941937
37.275000 84.843750 29.941937
36.875000 83.562500 29.941937
37.125000 82.578125 29.941937
38.725000 78.093750 29.941937
37.700000 89.859375 30.096638
37.600000 88.562500 30.096638
37.550000 87.640625 30.096638
37.425000 86.578125 30.096638
37.000000 85.093750 30.096638
36.875000 83.656250 30.096638
37.075000 82.843750 30.096638
37.750000 79.109375 30.096638
38.300000 78.359375 30.096638
38.475000 77.250000 30.096638
39.050000 76.156250 30.096638
37.350000 89.984375 30.254961
37.425000 88.921875 30.254961
37.425000 88.015625 30.254961
37.225000 84.343750 30.254961
37.025000 83.343750 30.254961
37.325000 82.000000 30.254961
37.900000 80.921875 30.254961
38.200000 79.921875 30.254961
38.200000 78.250000 30.254961
38.400000 77.531250 30.254961
38.850000 76.468750 30.254961
37.400000 88.843750 30.407014
37.400000 88.031250 30.407014
37.450000 86.546875 30.407014
37.850000 85.375000 30.407014
37.025000 83.328125 30.407014
37.325000 82.031250 30.407014
37.875000 80.859375 30.407014
38.150000 79.781250 30.407014
38.200000 78.593750 30.407014
38.400000 77.484375 30.407014
38.750000 76.234375 30.407014
37.175000 89.812500 30.564410
37.100000 88.859375 30.564410
37.350000 87.687500 30.564410
37.375000 86.468750 30.564410
37.500000 85.250000 30.564410
37.350000 84.000000 30.564410
37.150000 82.750000 30.564410
37.400000 81.750000 30.564410
37.750000 80.796875 30.564410
37.925000 79.625000 30.564410
38.125000 78.640625 30.564410
38.375000 77.296875 30.564410
38.725000 76.203125 30.564410
37.275000 89.687500 30.720105
37.075000 88.468750 30.720105
37.300000 87.453125 30.720105
37.375000 86.609375 30.720105
37.325000 85.203125 30.720105
37.275000 83.875000 30.720105
37.275000 83.093750 30.720105
37.550000 81.531250 30.720105
37.850000 80.734375 30.720105
37.925000 79.484375 30.720105
38.025000 78.156250 30.720105
38.275000 77.234375 30.720105
38.775000 76.156250 30.720105
37.375000 89.562500 30.876956
37.175000 88.546875 30.876956
37.275000 87.500000 30.876956
37.325000 86.156250 30.876956
37.350000 85.343750 30.876956
37.300000 83.781250 30.876956
37.400000 82.859375 30.876956
37.525000 81.796875 30.876956
37.575000 80.375000 30.876956
37.750000 79.359375 30.876956
37.975000 78.250000 30.876956
38.225000 76.875000 30.876956
38.750000 75.906250 30.876956
37.700000 89.609375 31.018039
37.250000 88.218750 31.018039
37.275000 86.968750 31.018039
37.325000 86.234375 31.018039
37.350000 84.984375 31.018039
37.350000 83.828125 31.018039
37.625000 82.546875 31.018039
37.675000 81.156250 31.018039
37.575000 80.375000 31.018039
37.800000 79.109375 31.018039
38.000000 77.640625 31.018039
37.100000 89.796875 31.174968
37.000000 88.859375 31.174968
37.275000 87.671875 31.174968
37.350000 86.578125 31.174968
37.325000 85.250000 31.174968
37.300000 84.046875 31.174968
37.500000 82.937500 31.174968
37.575000 81.765625 31.174968
37.525000 80.468750 31.174968
37.675000 79.578125 31.174968
37.900000 78.062500 31.174968
38.125000 77.093750 31.174968
38.525000 76.234375 31.174968
37.350000 90.093750 31.329064
37.175000 88.546875 31.329064
37.250000 87.296875 31.329064
37.300000 86.484375 31.329064
37.325000 84.968750 31.329064
37.300000 84.093750 31.329064
37.550000 83.000000 31.329064
37.600000 81.843750 31.329064
37.475000 80.312500 31.329064
37.725000 79.390625 31.329064
37.950000 78.296875 31.329064
38.150000 76.734375 31.329064
38.650000 75.859375 31.329064
37.425000 89.500000 31.484582
37.175000 88.296875 31.484582
37.250000 87.625000 31.484582
37.300000 86.265625 31.484582
37.300000 84.921875 31.484582
37.325000 84.031250 31.484582
37.600000 82.859375 31.484582
37.625000 81.625000 31.484582
37.500000 80.546875 31.484582
37.725000 78.875000 31.484582
37.900000 77.828125 31.484582
38.100000 76.890625 31.484582
38.700000 75.640625 31.484582
37.350000 89.562500 31.637717
37.175000 88.328125 31.637717
37.275000 87.234375 31.637717
37.300000 86.156250 31.637717
37.350000 85.000000 31.637717
37.350000 83.437500 31.637717
37.450000 82.546875 31.637717
37.500000 81.421875 31.637717
37.550000 80.156250 31.637717
37.750000 78.750000 31.637717
37.950000 77.703125 31.637717
37.300000 89.484375 31.793701
37.125000 88.203125 31.793701
37.275000 86.968750 31.793701
37.275000 86.218750 31.793701
37.325000 84.671875 31.793701
37.350000 83.671875 31.793701
37.425000 82.578125 31.793701
37.500000 81.187500 31.793701
37.550000 79.937500 31.793701
37.725000 78.781250 31.793701
37.950000 77.765625 31.793701
37.275000 89.421875 31.946587
37.200000 87.890625 31.946587
37.275000 86.953125 31.946587
37.275000 85.750000 31.946587
37.325000 84.953125 31.946587
37.425000 83.734375 31.946587
37.450000 82.421875 31.946587
37.425000 81.296875 31.946587
37.525000 80.140625 31.946587
37.725000 78.828125 31.946587
37.925000 77.703125 31.946587
38.150000 76.562500 31.946587
37.275000 89.031250 32.104849
37.200000 88.125000 32.104849
37.300000 87.046875 32.104849
37.275000 85.796875 32.104849
37.325000 84.734375 32.104849
37.550000 83.468750 32.104849
37.550000 82.359375 32.104849
37.450000 81.140625 32.104849
37.600000 79.890625 32.104849
37.700000 78.562500 32.104849
37.900000 77.718750 32.104849
38.225000 76.546875 32.104849
37.375000 89.218750 32.256461
37.175000 88.125000 32.256461
37.275000 87.375000 32.256461
37.300000 86.031250 32.256461
37.300000 84.812500 32.256461
37.350000 83.531250 32.256461
37.425000 82.734375 32.256461
37.450000 81.406250 32.256461
37.525000 80.406250 32.256461
37.725000 79.156250 32.256461
37.950000 78.015625 32.256461
38.150000 76.703125 32.256461
38.675000 75.625000 32.256461
37.825000 90.390625 32.417028
37.550000 88.921875 32.417028
37.250000 88.093750 32.417028
37.275000 86.609375 32.417028
37.325000 85.562500 32.417028
37.375000 84.140625 32.417028
37.600000 83.000000 32.417028
37.600000 82.109375 32.417028
37.450000 80.953125 32.417028
37.575000 79.718750 32.417028
37.800000 78.328125 32.417028
37.975000 77.578125 32.417028
38.250000 76.031250 32.417028
37.550000 89.906250 32.568121
37.250000 89.031250 32.568121
37.275000 87.468750 32.568121
37.325000 86.531250 32.568121
37.300000 85.312500 32.568121
37.300000 84.156250 32.568121
37.675000 83.281250 32.568121
37.750000 81.640625 32.568121
37.500000 80.578125 32.568121
37.650000 79.546875 32.568121
37.875000 78.031250 32.568121
38.100000 77.250000 32.568121
38.375000 76.156250 32.568121
37.875000 89.812500 32.728029
37.275000 88.500000 32.728029
37.250000 87.531250 32.728029
37.300000 86.265625 32.728029
37.300000 85.250000 32.728029
37.350000 83.859375 32.728029
37.500000 82.656250 32.728029
37.500000 81.406250 32.728029
37.475000 80.328125 32.728029
37.700000 79.187500 32.728029
37.875000 78.046875 32.728029
38.075000 76.734375 32.728029
38.550000 75.671875 32.728029
37.550000 89.625000 32.881578
37.200000 88.515625 32.881578
37.250000 87.343750 32.881578
37.300000 86.453125 32.881578
37.300000 85.015625 32.881578
37.300000 83.765625 32.881578
37.575000 82.703125 32.881578
37.550000 81.421875 32.881578
37.425000 80.484375 32.881578
37.700000 79.390625 32.881578
37.925000 77.906250 32.881578
38.125000 76.765625 32.881578
38.400000 75.750000 32.881578
37.275000 89.718750 33.039753
37.075000 88.750000 33.039753
37.275000 87.921875 33.039753
37.300000 86.437500 33.039753
37.300000 85.078125 33.039753
37.300000 84.015625 33.039753
37.650000 83.093750 33.039753
37.650000 81.796875 33.039753
37.400000 80.515625 33.039753
37.625000 79.625000 33.039753
37.850000 78.187500 33.039753
38.075000 77.281250 33.039753
38.400000 76.125000 33.039753
37.675000 89.562500 33.191250
37.150000 88.390625 33.191250
37.225000 87.562500 33.191250
37.275000 86.218750 33.191250
37.300000 85.140625 33.191250
37.325000 83.812500 33.191250
37.600000 82.625000 33.191250
37.600000 81.531250 33.191250
37.450000 80.656250 33.191250
37.675000 79.515625 33.191250
37.925000 78.203125 33.191250
38.125000 76.828125 33.191250
38.525000 76.000000 33.191250
37.075000 89.765625 33.352531
36.975000 88.921875 33.352531
37.250000 87.750000 33.352531
37.275000 86.718750 33.352531
37.275000 85.265625 33.352531
37.300000 84.203125 33.352531
37.525000 82.968750 33.352531
37.550000 81.843750 33.352531
37.425000 80.609375 33.352531
37.625000 79.671875 33.352531
37.850000 78.468750 33.352531
38.075000 77.109375 33.352531
38.400000 76.281250 33.352531
37.575000 89.421875 33.501704
37.175000 88.625000 33.501704
37.200000 87.656250 33.501704
37.275000 86.140625 33.501704
37.300000 85.015625 33.501704
37.350000 83.796875 33.501704
37.500000 82.515625 33.501704
37.575000 81.656250 33.501704
37.525000 80.421875 33.501704
37.700000 79.125000 33.501704
37.950000 78.062500 33.501704
38.150000 77.015625 33.501704
38.650000 75.781250 33.501704
37.275000 87.156250 33.661295
37.275000 85.718750 33.661295
37.325000 84.328125 33.661295
37.400000 83.265625 33.661295
37.675000 82.468750 33.661295
37.725000 81.000000 33.661295
37.600000 79.750000 33.661295
37.850000 78.515625 33.661295
38.025000 77.375000 33.661295
38.250000 76.140625 33.661295
37.100000 90.000000 33.819457
37.025000 88.859375 33.819457
37.225000 87.703125 33.819457
37.250000 86.203125 33.819457
37.300000 85.531250 33.819457
37.325000 83.937500 33.819457
37.325000 82.750000 33.819457
37.675000 81.781250 33.819457
37.875000 80.828125 33.819457
37.800000 79.312500 33.819457
38.025000 78.093750 33.819457
38.175000 77.031250 33.819457
38.525000 76.078125 33.819457
37.375000 89.578125 33.970434
37.200000 88.546875 33.970434
37.250000 87.250000 33.970434
37.300000 86.375000 33.970434
37.300000 85.093750 33.970434
37.225000 83.781250 33.970434
37.250000 82.796875 33.970434
37.725000 81.343750 33.970434
37.900000 80.078125 33.970434
37.850000 79.140625 33.970434
38.050000 77.921875 33.970434
38.275000 76.968750 33.970434
38.875000 75.875000 33.970434
37.675000 90.375000 34.132122
37.300000 89.250000 34.132122
37.125000 88.203125 34.132122
37.275000 86.687500 34.132122
37.275000 85.375000 34.132122
37.575000 84.609375 34.132122
37.525000 83.406250 34.132122
37.375000 82.234375 34.132122
37.850000 81.109375 34.132122
38.000000 79.953125 34.132122
38.000000 78.593750 34.132122
38.225000 77.421875 34.132122
38.525000 76.390625 34.132122
37.250000 89.921875 34.282540
37.050000 88.671875 34.282540
37.225000 87.250000 34.282540
37.350000 86.328125 34.282540
37.550000 85.187500 34.282540
37.325000 83.953125 34.282540
37.075000 82.796875 34.282540
37.400000 81.656250 34.282540
37.825000 80.734375 34.282540
38.025000 79.187500 34.282540
38.125000 78.031250 34.282540
38.400000 77.171875 34.282540
38.925000 75.687500 34.282540
37.400000 90.171875 34.438927
37.275000 88.812500 34.438927
37.300000 87.750000 34.438927
37.400000 86.250000 34.438927
37.550000 85.468750 34.438927
37.300000 83.937500 34.438927
37.050000 83.031250 34.438927
37.400000 82.000000 34.438927
38.100000 80.718750 34.438927
38.325000 79.171875 34.438927
38.150000 78.343750 34.438927
38.325000 77.218750 34.438927
38.775000 75.984375 34.438927
37.300000 89.843750 34.579429
37.150000 88.578125 34.579429
37.300000 87.531250 34.579429
37.150000 83.953125 34.579429
37.050000 82.953125 34.579429
37.625000 79.296875 34.579429
38.175000 78.265625 34.579429
38.400000 76.937500 34.579429
38.925000 75.750000 34.579429
37.300000 89.921875 34.735778
37.175000 88.812500 34.735778
37.325000 87.687500 34.735778
37.175000 83.906250 34.735778
37.050000 83.031250 34.735778
37.700000 79.359375 34.735778
38.250000 78.296875 34.735778
38.425000 76.906250 34.735778
38.950000 75.921875 34.735778
37.650000 90.203125 34.890249
37.675000 89.171875 34.890249
37.375000 88.062500 34.890249
37.250000 84.015625 34.890249
37.100000 83.171875 34.890249
37.450000 81.656250 34.890249
37.900000 80.968750 34.890249
38.200000 79.546875 34.890249
38.375000 78.656250 34.890249
38.500000 77.343750 34.890249
38.900000 76.078125 34.890249
37.275000 89.140625 35.046202
37.400000 87.937500 35.046202
37.250000 84.468750 35.046202
37.100000 83.015625 35.046202
37.450000 81.843750 35.046202
37.825000 80.843750 35.046202
38.275000 79.609375 35.046202
38.550000 78.578125 35.046202
38.500000 77.265625 35.046202
38.875000 76.421875 35.046202
37.450000 88.937500 35.201593
37.525000 87.656250 35.201593
37.400000 84.421875 35.201593
37.825000 78.500000 35.201593
38.525000 77.359375 35.201593
38.900000 76.250000 35.201593
37.350000 89.750000 35.357956
37.325000 88.437500 35.357956
37.575000 87.625000 35.357956
37.250000 86.140625 35.357956
37.050000 85.171875 35.357956
37.350000 83.968750 35.357956
37.700000 82.953125 35.357956
38.125000 81.890625 35.357956
38.675000 80.375000 35.357956
38.950000 79.265625 35.357956
38.750000 78.109375 35.357956
38.725000 76.984375 35.357956
39.200000 76.046875 35.357956
37.725000 89.546875 35.515171
37.625000 88.156250 35.515171
37.650000 87.390625 35.515171
37.475000 85.703125 35.515171
37.225000 84.921875 35.515171
37.475000 83.453125 35.515171
38.125000 82.359375 35.515171
38.650000 79.000000 35.515171
38.825000 77.890625 35.515171
38.875000 76.593750 35.515171
37.625000 88.031250 35.670552
37.500000 84.421875 35.670552
38.825000 77.437500 35.670552
39.025000 76.156250 35.670552
37.825000 89.281250 35.819951
37.600000 88.109375 35.819951
37.850000 87.062500 35.819951
37.900000 85.562500 35.819951
37.550000 84.625000 35.819951
38.800000 79.890625 35.819951
38.875000 78.984375 35.819951
38.800000 77.843750 35.819951
39.025000 76.578125 35.819951
37.725000 87.796875 35.982898
37.850000 86.890625 35.982898
38.250000 85.578125 35.982898
37.350000 83.484375 35.982898
37.875000 82.046875 35.982898
38.325000 81.046875 35.982898
38.700000 79.640625 35.982898
38.900000 78.734375 35.982898
38.825000 77.531250 35.982898
39.025000 76.531250 35.982898
37.775000 89.078125 36.132145
37.650000 88.187500 36.132145
37.875000 87.000000 36.132145
38.025000 85.718750 36.132145
37.800000 84.562500 36.132145
37.425000 83.203125 36.132145
37.875000 82.265625 36.132145
38.400000 81.296875 36.132145
38.800000 79.890625 36.132145
38.900000 78.812500 36.132145
38.800000 77.546875 36.132145
39.025000 76.406250 36.132145
37.850000 89.187500 36.293753
37.725000 87.921875 36.293753
37.875000 87.046875 36.293753
38.125000 85.718750 36.293753
37.900000 84.703125 36.293753
37.575000 83.484375 36.293753
38.000000 82.187500 36.293753
38.475000 81.000000 36.293753
38.875000 80.015625 36.293753
38.900000 78.859375 36.293753
38.800000 77.578125 36.293753
39.025000 76.593750 36.293753
37.875000 89.281250 36.446191
37.750000 88.328125 36.446191
37.925000 87.437500 36.446191
38.000000 85.796875 36.446191
37.625000 84.828125 36.446191
37.450000 83.562500 36.446191
38.000000 82.437500 36.446191
38.500000 81.546875 36.446191
38.925000 80.328125 36.446191
38.975000 78.953125 36.446191
38.800000 77.609375 36.446191
39.050000 76.796875 36.446191
37.975000 89.640625 36.605805
37.900000 88.140625 36.605805
37.975000 87.203125 36.605805
38.125000 85.906250 36.605805
37.850000 85.000000 36.605805
37.500000 83.578125 36.605805
37.925000 82.796875 36.605805
38.575000 81.671875 36.605805
39.000000 80.203125 36.605805
38.925000 79.125000 36.605805
38.750000 77.968750 36.605805
39.000000 76.687500 36.605805
38.050000 89.718750 36.756189
37.975000 88.265625 36.756189
37.975000 87.531250 36.756189
38.225000 86.328125 36.756189
37.975000 85.109375 36.756189
37.500000 83.531250 36.756189
37.900000 82.437500 36.756189
38.550000 81.687500 36.756189
39.100000 80.296875 36.756189
39.025000 79.078125 36.756189
38.725000 77.750000 36.756189
38.975000 76.750000 36.756189
38.000000 90.234375 36.914612
38.000000 88.796875 36.914612
38.000000 87.984375 36.914612
38.050000 86.515625 36.914612
38.175000 85.546875 36.914612
38.000000 84.203125 36.914612
37.950000 83.250000 36.914612
38.500000 81.937500 36.914612
39.075000 80.875000 36.914612
38.975000 79.640625 36.914612
38.675000 78.578125 36.914612
38.800000 77.406250 36.914612
39.225000 76.375000 36.914612
37.725000 90.281250 37.066497
37.750000 89.093750 37.066497
38.025000 87.843750 37.066497
38.050000 87.046875 37.066497
38.400000 85.781250 37.066497
38.225000 84.406250 37.066497
37.950000 83.468750 37.066497
38.550000 81.921875 37.066497
39.025000 81.000000 37.066497
38.875000 79.703125 37.066497
38.675000 78.734375 37.066497
38.800000 77.390625 37.066497
39.200000 76.546875 37.066497
37.725000 90.031250 37.226114
37.750000 88.953125 37.226114
38.000000 87.796875 37.226114
38.050000 86.640625 37.226114
38.375000 85.406250 37.226114
38.375000 84.453125 37.226114
38.225000 83.062500 37.226114
38.625000 82.312500 37.226114
38.975000 80.937500 37.226114
38.850000 79.656250 37.226114
38.650000 78.703125 37.226114
38.800000 77.609375 37.226114
39.225000 76.171875 37.226114
37.900000 90.171875 37.380568
37.775000 89.062500 37.380568
38.025000 87.796875 37.380568
38.050000 86.671875 37.380568
38.175000 85.796875 37.380568
38.250000 84.390625 37.380568
38.300000 83.421875 37.380568
38.625000 82.031250 37.380568
38.950000 80.984375 37.380568
38.825000 79.656250 37.380568
38.625000 78.500000 37.380568
38.800000 77.562500 37.380568
39.225000 76.250000 37.380568
38.000000 89.171875 37.534886
37.975000 88.109375 37.534886
38.150000 87.000000 37.534886
38.225000 86.000000 37.534886
38.250000 84.828125 37.534886
38.325000 83.765625 37.534886
38.625000 82.312500 37.534886
38.975000 81.281250 37.534886
38.825000 80.031250 37.534886
38.600000 79.062500 37.534886
38.925000 77.625000 37.534886
39.300000 76.468750 37.534886
38.075000 87.562500 37.691737
38.225000 86.265625 37.691737
38.250000 84.781250 37.691737
38.275000 83.843750 37.691737
38.525000 82.500000 37.691737
38.900000 81.578125 37.691737
38.800000 80.328125 37.691737
38.575000 79.078125 37.691737
38.700000 77.843750 37.691737
38.975000 77.031250 37.691737
38.600000 90.000000 37.843547
38.375000 88.937500 37.843547
38.125000 87.781250 37.843547
38.175000 86.484375 37.843547
38.250000 85.281250 37.843547
38.275000 84.390625 37.843547
38.425000 83.046875 37.843547
38.775000 81.890625 37.843547
39.300000 80.531250 37.843547
39.075000 79.609375 37.843547
38.575000 78.437500 37.843547
38.850000 76.937500 37.843547
39.425000 76.218750 37.843547
37.725000 89.078125 38.003193
38.050000 87.906250 38.003193
38.100000 86.843750 38.003193
38.200000 85.625000 38.003193
38.325000 84.750000 38.003193
38.375000 83.296875 38.003193
38.650000 82.453125 38.003193
38.950000 81.062500 38.003193
38.825000 79.687500 38.003193
38.650000 78.765625 38.003193
38.800000 77.625000 38.003193
39.200000 76.171875 38.003193
37.700000 89.078125 38.152511
38.025000 88.093750 38.152511
38.175000 86.765625 38.152511
38.300000 85.906250 38.152511
38.325000 84.593750 38.152511
38.375000 83.500000 38.152511
38.650000 82.187500 38.152511
38.925000 81.093750 38.152511
38.800000 79.953125 38.152511
38.625000 78.843750 38.152511
38.775000 77.656250 38.152511
39.200000 76.593750 38.152511
38.200000 90.265625 38.312412
37.950000 89.000000 38.312412
38.075000 87.734375 38.312412
38.225000 86.796875 38.312412
38.300000 85.578125 38.312412
38.375000 84.406250 38.312412
38.500000 83.125000 38.312412
38.700000 81.828125 38.312412
39.000000 80.968750 38.312412
38.875000 79.765625 38.312412
38.650000 78.296875 38.312412
38.875000 77.156250 38.312412
39.300000 76.359375 38.312412
38.075000 87.546875 38.462754
38.250000 86.093750 38.462754
38.275000 85.218750 38.462754
38.250000 83.968750 38.462754
38.525000 82.734375 38.462754
38.875000 81.421875 38.462754
38.950000 80.578125 38.462754
38.750000 79.015625 38.462754
38.675000 78.078125 38.462754
38.225000 89.296875 38.623425
37.950000 88.296875 38.623425
38.100000 87.218750 38.623425
38.175000 86.109375 38.623425
38.125000 84.921875 38.623425
38.050000 83.812500 38.623425
38.450000 82.312500 38.623425
38.925000 81.562500 38.623425
38.775000 80.281250 38.623425
38.650000 79.015625 38.623425
38.800000 77.656250 38.623425
39.075000 76.421875 38.623425
38.150000 89.265625 38.772451
38.000000 88.265625 38.772451
38.075000 86.937500 38.772451
37.725000 85.437500 38.772451
37.675000 84.781250 38.772451
38.000000 83.375000 38.772451
38.475000 82.437500 38.772451
38.875000 80.968750 38.772451
38.750000 79.656250 38.772451
38.625000 78.796875 38.772451
38.750000 77.593750 38.772451
39.175000 76.437500 38.772451
38.200000 89.859375 38.926668
38.325000 88.734375 38.926668
38.075000 87.859375 38.926668
38.175000 86.437500 38.926668
38.700000 80.984375 38.926668
38.900000 79.765625 38.926668
38.700000 78.343750 38.926668
38.850000 77.109375 38.926668
39.375000 76.125000 38.926668
37.900000 87.468750 39.082834
37.675000 86.500000 39.082834
37.300000 85.218750 39.082834
38.925000 79.578125 39.082834
38.625000 78.140625 39.082834
38.825000 76.937500 39.082834
39.400000 75.796875 39.082834
37.900000 87.828125 39.240277
37.650000 86.671875 39.240277
38.825000 79.593750 39.240277
38.650000 78.125000 39.240277
38.825000 76.890625 39.240277
39.225000 75.765625 39.240277
38.075000 87.171875 39.396623
37.750000 85.843750 39.396623
37.400000 84.500000 39.396623
37.975000 83.546875 39.396623
38.325000 82.046875 39.396623
38.600000 80.906250 39.396623
38.875000 79.703125 39.396623
38.750000 78.453125 39.396623
38.750000 77.406250 39.396623
38.950000 76.468750 39.396623
37.575000 89.937500 39.551357
37.750000 89.218750 39.551357
37.800000 87.843750 39.551357
38.275000 86.968750 39.551357
37.475000 84.390625 39.551357
38.950000 79.718750 39.551357
38.775000 78.312500 39.551357
38.800000 77.312500 39.551357
39.075000 76.203125 39.551357
37.700000 87.875000 39.695929
37.875000 87.015625 39.695929
37.400000 85.656250 39.695929
37.150000 84.562500 39.695929
37.400000 83.015625 39.695929
37.775000 81.890625 39.695929
38.575000 81.171875 39.695929
38.925000 79.984375 39.695929
38.750000 78.531250 39.695929
38.675000 77.500000 39.695929
38.850000 76.343750 39.695929
37.625000 88.187500 39.860417
37.550000 86.937500 39.860417
37.125000 85.718750 39.860417
37.050000 84.250000 39.860417
37.475000 83.031250 39.860417
37.925000 82.187500 39.860417
38.550000 81.250000 39.860417
38.900000 79.593750 39.860417
38.750000 78.484375 39.860417
38.675000 77.296875 39.860417
38.825000 76.437500 39.860417
37.475000 90.328125 40.008041
37.550000 88.937500 40.008041
37.600000 87.875000 40.008041
37.400000 86.875000 40.008041
37.000000 85.484375 40.008041
36.975000 84.203125 40.008041
37.500000 83.296875 40.008041
37.950000 82.046875 40.008041
38.475000 81.140625 40.008041
38.950000 79.781250 40.008041
38.800000 78.671875 40.008041
38.625000 77.234375 40.008041
38.925000 76.453125 40.008041
37.975000 89.218750 40.172423
37.550000 87.984375 40.172423
