38.325000 -13.984375 14.381330
38.075000 -12.312500 14.381330
37.525000 -10.890625 14.381330
37.275000 -9.859375 14.381330
37.125000 -8.328125 14.381330
37.425000 -6.921875 14.381330
39.125000 -18.859375 14.519672
38.900000 -17.421875 14.519672
38.400000 -16.406250 14.519672
38.150000 -14.750000 14.519672
38.350000 -13.390625 14.519672
37.975000 -12.281250 14.519672
37.475000 -11.093750 14.519672
37.325000 -9.625000 14.519672
37.225000 -8.234375 14.519672
37.550000 -7.328125 14.519672
40.450000 -21.578125 14.661646
39.125000 -19.062500 14.661646
38.800000 -17.359375 14.661646
38.325000 -15.937500 14.661646
38.150000 -14.750000 14.661646
38.350000 -13.656250 14.661646
37.975000 -12.078125 14.661646
37.500000 -10.984375 14.661646
37.325000 -9.406250 14.661646
37.200000 -8.343750 14.661646
37.525000 -6.968750 14.661646
40.475000 -21.578125 14.803178
39.100000 -18.703125 14.803178
38.700000 -17.531250 14.803178
38.475000 -15.968750 14.803178
38.375000 -14.843750 14.803178
38.325000 -13.671875 14.803178
38.000000 -12.359375 14.803178
37.450000 -10.609375 14.803178
37.250000 -9.296875 14.803178
37.225000 -8.234375 14.803178
37.675000 -6.937500 14.803178
39.675000 -19.828125 14.945004
39.050000 -18.437500 14.945004
38.450000 -16.937500 14.945004
38.125000 -15.843750 14.945004
38.275000 -14.687500 14.945004
38.425000 -13.218750 14.945004
38.050000 -11.687500 14.945004
37.450000 -10.203125 14.945004
37.125000 -9.328125 14.945004
37.150000 -7.859375 14.945004
38.900000 -19.453125 15.087556
38.725000 -17.984375 15.087556
38.050000 -16.734375 15.087556
37.875000 -15.500000 15.087556
38.150000 -13.890625 15.087556
38.125000 -12.578125 15.087556
37.775000 -11.468750 15.087556
37.350000 -10.218750 15.087556
37.150000 -8.468750 15.087556
37.300000 -7.234375 15.087556
40.075000 -21.890625 15.227256
39.875000 -20.203125 15.227256
39.075000 -18.875000 15.227256
38.400000 -17.546875 15.227256
38.025000 -16.218750 15.227256
38.125000 -14.796875 15.227256
38.250000 -13.765625 15.227256
38.075000 -12.343750 15.227256
37.600000 -11.187500 15.227256
37.275000 -9.687500 15.227256
37.150000 -8.343750 15.227256
37.525000 -6.921875 15.227256
39.500000 -20.062500 15.367092
39.075000 -18.984375 15.367092
38.350000 -17.484375 15.367092
37.900000 -16.171875 15.367092
38.050000 -14.500000 15.367092
38.150000 -13.593750 15.367092
37.925000 -11.921875 15.367092
37.450000 -10.640625 15.367092
37.225000 -9.625000 15.367092
37.200000 -8.312500 15.367092
37.675000 -6.781250 15.367092
39.350000 -19.546875 15.508561
38.450000 -18.171875 15.508561
37.775000 -17.015625 15.508561
37.775000 -15.343750 15.508561
38.125000 -14.312500 15.508561
38.525000 -13.015625 15.508561
37.300000 -10.000000 15.508561
37.050000 -8.781250 15.508561
37.200000 -7.468750 15.508561
39.300000 -20.562500 15.648938
38.775000 -19.656250 15.648938
38.275000 -17.937500 15.648938
37.650000 -16.781250 15.648938
37.675000 -15.453125 15.648938
38.050000 -14.187500 15.648938
38.650000 -12.953125 15.648938
37.350000 -10.203125 15.648938
37.125000 -8.875000 15.648938
37.225000 -7.765625 15.648938
39.550000 -21.796875 15.789589
39.450000 -20.765625 15.789589
38.800000 -19.453125 15.789589
38.125000 -18.078125 15.789589
37.675000 -16.609375 15.789589
37.800000 -15.250000 15.789589
38.125000 -14.015625 15.789589
38.425000 -12.593750 15.789589
38.000000 -11.359375 15.789589
37.325000 -10.203125 15.789589
37.200000 -8.906250 15.789589
37.375000 -7.328125 15.789589
39.325000 -20.843750 15.929096
38.700000 -19.312500 15.929096
38.100000 -18.078125 15.929096
37.550000 -16.656250 15.929096
37.650000 -15.125000 15.929096
38.025000 -14.000000 15.929096
38.625000 -12.640625 15.929096
37.325000 -10.296875 15.929096
37.125000 -8.921875 15.929096
37.325000 -7.531250 15.929096
39.550000 -21.781250 16.071485
39.375000 -20.703125 16.071485
38.625000 -19.218750 16.071485
37.950000 -17.890625 16.071485
37.500000 -16.375000 16.071485
37.675000 -15.046875 16.071485
38.025000 -13.640625 16.071485
38.100000 -12.531250 16.071485
37.750000 -11.140625 16.071485
37.300000 -9.750000 16.071485
37.100000 -8.656250 16.071485
37.400000 -7.343750 16.071485
39.525000 -22.062500 16.212958
39.350000 -20.531250 16.212958
38.600000 -19.031250 16.212958
37.900000 -17.953125 16.212958
37.475000 -16.500000 16.212958
37.650000 -15.250000 16.212958
37.975000 -13.640625 16.212958
38.225000 -12.453125 16.212958
37.900000 -11.265625 16.212958
37.325000 -9.609375 16.212958
37.125000 -8.609375 16.212958
37.375000 -7.218750 16.212958
39.575000 -21.593750 16.350796
38.550000 -19.093750 16.350796
37.900000 -17.812500 16.350796
37.425000 -16.359375 16.350796
37.575000 -14.984375 16.350796
37.925000 -13.718750 16.350796
37.975000 -12.296875 16.350796
37.600000 -11.281250 16.350796
37.300000 -9.484375 16.350796
37.150000 -8.484375 16.350796
37.400000 -7.062500 16.350796
38.950000 -19.984375 16.491545
38.525000 -18.500000 16.491545
37.850000 -17.515625 16.491545
37.525000 -16.078125 16.491545
37.750000 -14.921875 16.491545
37.575000 -13.343750 16.491545
37.550000 -12.359375 16.491545
37.550000 -10.843750 16.491545
37.225000 -9.375000 16.491545
37.100000 -8.281250 16.491545
37.650000 -7.187500 16.491545
38.375000 -19.765625 16.631912
38.675000 -18.500000 16.631912
37.600000 -16.078125 16.631912
37.925000 -14.359375 16.631912
37.325000 -12.937500 16.631912
37.300000 -11.859375 16.631912
37.475000 -10.468750 16.631912
37.125000 -9.140625 16.631912
37.075000 -7.937500 16.631912
39.275000 -22.125000 16.771875
39.025000 -20.468750 16.771875
38.450000 -19.156250 16.771875
37.300000 -16.468750 16.771875
37.750000 -15.250000 16.771875
37.950000 -14.265625 16.771875
38.275000 -12.578125 16.771875
37.325000 -9.859375 16.771875
37.100000 -8.703125 16.771875
37.200000 -7.171875 16.771875
39.500000 -21.906250 16.911747
38.275000 -18.984375 16.911747
36.800000 -16.531250 16.911747
37.125000 -14.859375 16.911747
37.650000 -13.843750 16.911747
38.125000 -12.531250 16.911747
37.925000 -11.250000 16.911747
37.400000 -9.578125 16.911747
37.200000 -8.531250 16.911747
37.375000 -7.453125 16.911747
38.825000 -20.250000 17.051381
38.200000 -18.906250 17.051381
36.975000 -15.859375 17.051381
37.175000 -14.921875 17.051381
37.500000 -13.703125 17.051381
37.750000 -11.968750 17.051381
37.550000 -10.562500 17.051381
37.200000 -9.546875 17.051381
38.700000 -20.890625 17.194841
38.225000 -19.734375 17.194841
38.275000 -18.546875 17.194841
36.900000 -15.453125 17.194841
37.075000 -14.375000 17.194841
37.475000 -13.406250 17.194841
37.725000 -11.718750 17.194841
37.475000 -10.375000 17.194841
37.125000 -9.125000 17.194841
37.050000 -7.906250 17.194841
38.925000 -20.937500 17.330209
38.225000 -19.343750 17.330209
38.350000 -18.171875 17.330209
36.750000 -15.531250 17.330209
36.975000 -14.109375 17.330209
37.275000 -12.953125 17.330209
37.450000 -11.687500 17.330209
37.300000 -9.906250 17.330209
37.050000 -8.921875 17.330209
37.100000 -7.781250 17.330209
38.725000 -20.500000 17.473327
38.200000 -19.218750 17.473327
37.675000 -17.843750 17.473327
37.000000 -16.593750 17.473327
36.700000 -15.125000 17.473327
36.925000 -13.765625 17.473327
37.425000 -12.515625 17.473327
37.575000 -11.437500 17.473327
37.325000 -9.921875 17.473327
37.050000 -8.687500 17.473327
37.150000 -7.531250 17.473327
38.625000 -20.343750 17.612840
38.075000 -19.125000 17.612840
36.625000 -16.093750 17.612840
36.675000 -15.031250 17.612840
37.075000 -13.828125 17.612840
37.625000 -12.187500 17.612840
37.400000 -10.656250 17.612840
36.925000 -9.890625 17.612840
36.850000 -8.453125 17.612840
37.275000 -7.031250 17.612840
38.000000 -19.843750 17.758053
37.700000 -18.531250 17.758053
36.975000 -17.156250 17.758053
36.625000 -15.921875 17.758053
36.675000 -14.640625 17.758053
37.050000 -13.421875 17.758053
37.525000 -12.046875 17.758053
37.325000 -10.562500 17.758053
36.850000 -9.187500 17.758053
36.775000 -8.093750 17.758053
38.200000 -19.250000 17.891634
37.800000 -18.093750 17.891634
37.125000 -16.562500 17.891634
36.725000 -15.171875 17.891634
36.875000 -14.031250 17.891634
37.300000 -12.734375 17.891634
37.525000 -11.468750 17.891634
37.175000 -10.343750 17.891634
36.800000 -8.984375 17.891634
36.925000 -7.468750 17.891634
38.600000 -21.687500 18.034588
38.125000 -20.328125 18.034588
37.975000 -18.781250 18.034588
37.850000 -17.375000 18.034588
36.750000 -14.625000 18.034588
37.000000 -13.562500 18.034588
37.450000 -12.156250 18.034588
37.300000 -10.750000 18.034588
36.800000 -9.312500 18.034588
36.675000 -8.093750 18.034588
37.100000 -7.250000 18.034588
37.950000 -19.921875 18.173933
37.825000 -18.125000 18.173933
37.675000 -17.312500 18.173933
37.225000 -15.859375 18.173933
36.800000 -14.421875 18.173933
37.175000 -13.000000 18.173933
37.600000 -11.875000 18.173933
37.150000 -10.312500 18.173933
36.575000 -8.968750 18.173933
36.650000 -8.093750 18.173933
38.500000 -20.484375 18.319340
37.925000 -19.281250 18.319340
37.650000 -17.578125 18.319340
37.425000 -16.171875 18.319340
37.100000 -15.250000 18.319340
37.000000 -13.500000 18.319340
37.125000 -12.218750 18.319340
36.900000 -11.125000 18.319340
36.575000 -9.484375 18.319340
36.500000 -8.296875 18.319340
36.875000 -7.359375 18.319340
37.950000 -19.515625 18.456253
37.850000 -18.593750 18.456253
37.550000 -17.046875 18.456253
37.250000 -15.859375 18.456253
37.000000 -14.531250 18.456253
37.225000 -13.000000 18.456253
37.325000 -11.843750 18.456253
36.750000 -10.546875 18.456253
36.350000 -9.015625 18.456253
36.525000 -7.703125 18.456253
38.450000 -20.265625 18.596831
37.950000 -19.406250 18.596831
37.675000 -17.859375 18.596831
37.450000 -16.687500 18.596831
37.200000 -15.093750 18.596831
37.125000 -13.812500 18.596831
37.200000 -12.484375 18.596831
36.875000 -11.343750 18.596831
36.375000 -10.062500 18.596831
36.350000 -8.843750 18.596831
36.725000 -7.250000 18.596831
38.050000 -19.906250 18.750483
37.900000 -18.578125 18.750483
37.650000 -17.640625 18.750483
37.400000 -15.984375 18.750483
37.225000 -14.750000 18.750483
37.225000 -13.484375 18.750483
37.225000 -12.343750 18.750483
36.725000 -10.906250 18.750483
36.225000 -9.734375 18.750483
38.025000 -19.968750 18.879767
37.900000 -18.656250 18.879767
37.650000 -17.656250 18.879767
37.400000 -16.296875 18.879767
37.200000 -14.984375 18.879767
37.200000 -13.234375 18.879767
37.200000 -11.953125 18.879767
36.700000 -11.015625 18.879767
36.200000 -9.546875 18.879767
38.000000 -19.875000 19.027225
37.900000 -18.734375 19.027225
37.675000 -17.593750 19.027225
37.375000 -16.015625 19.027225
37.150000 -14.468750 19.027225
37.200000 -13.625000 19.027225
37.050000 -12.250000 19.027225
36.475000 -10.546875 19.027225
36.050000 -9.359375 19.027225
37.975000 -19.750000 19.169495
37.900000 -18.781250 19.169495
37.700000 -17.500000 19.169495
37.400000 -16.250000 19.169495
37.250000 -14.718750 19.169495
37.500000 -13.609375 19.169495
37.175000 -12.265625 19.169495
36.375000 -10.484375 19.169495
36.025000 -9.593750 19.169495
38.025000 -18.796875 19.300770
37.725000 -17.500000 19.300770
37.450000 -16.187500 19.300770
37.325000 -14.937500 19.300770
37.150000 -13.765625 19.300770
36.700000 -12.421875 19.300770
36.175000 -11.140625 19.300770
35.925000 -9.781250 19.300770
36.025000 -8.343750 19.300770
36.675000 -7.312500 19.300770
38.575000 -21.093750 19.444901
38.025000 -19.484375 19.444901
37.875000 -18.437500 19.444901
37.700000 -17.015625 19.444901
37.400000 -15.437500 19.444901
37.250000 -14.078125 19.444901
36.925000 -13.171875 19.444901
36.075000 -11.500000 19.444901
35.475000 -10.406250 19.444901
35.625000 -9.234375 19.444901
36.125000 -7.921875 19.444901
38.075000 -19.140625 19.590189
37.875000 -18.031250 19.590189
37.550000 -16.828125 19.590189
37.375000 -15.312500 19.590189
37.150000 -13.843750 19.590189
36.500000 -12.453125 19.590189
35.600000 -11.281250 19.590189
35.200000 -9.890625 19.590189
35.575000 -8.921875 19.590189
36.250000 -7.265625 19.590189
37.925000 -18.968750 19.730805
37.675000 -17.625000 19.730805
37.475000 -16.265625 19.730805
37.300000 -15.203125 19.730805
36.950000 -13.734375 19.730805
36.175000 -12.406250 19.730805
35.400000 -10.703125 19.730805
35.125000 -9.875000 19.730805
35.550000 -8.500000 19.730805
36.375000 -7.500000 19.730805
38.625000 -20.656250 19.874496
38.075000 -19.562500 19.874496
37.850000 -17.765625 19.874496
37.550000 -16.906250 19.874496
37.350000 -15.156250 19.874496
37.350000 -14.140625 19.874496
35.500000 -11.296875 19.874496
35.175000 -9.640625 19.874496
35.525000 -8.609375 19.874496
36.250000 -7.421875 19.874496
37.950000 -19.109375 20.013536
37.675000 -17.734375 20.013536
37.425000 -16.546875 20.013536
37.275000 -15.140625 20.013536
37.200000 -13.968750 20.013536
35.450000 -11.140625 20.013536
35.175000 -9.875000 20.013536
35.550000 -8.312500 20.013536
36.375000 -6.968750 20.013536
38.025000 -19.531250 20.151718
37.825000 -18.453125 20.151718
37.625000 -17.062500 20.151718
37.400000 -15.906250 20.151718
37.250000 -14.437500 20.151718
37.125000 -12.859375 20.151718
35.450000 -9.984375 20.151718
35.575000 -8.921875 20.151718
36.100000 -7.578125 20.151718
38.625000 -20.546875 20.291867
37.975000 -18.984375 20.291867
37.700000 -17.468750 20.291867
37.425000 -16.531250 20.291867
37.275000 -15.218750 20.291867
37.225000 -13.593750 20.291867
36.925000 -12.562500 20.291867
36.175000 -10.765625 20.291867
35.625000 -9.750000 20.291867
35.800000 -8.093750 20.291867
36.475000 -7.359375 20.291867
38.425000 -20.562500 20.434203
37.925000 -19.109375 20.434203
37.675000 -17.578125 20.434203
37.425000 -16.343750 20.434203
37.250000 -15.265625 20.434203
37.300000 -14.109375 20.434203
37.850000 -12.578125 20.434203
35.900000 -9.625000 20.434203
35.875000 -8.609375 20.434203
36.375000 -7.187500 20.434203
38.250000 -21.046875 20.570171
37.900000 -19.671875 20.570171
37.800000 -18.640625 20.570171
37.550000 -17.203125 20.570171
37.325000 -15.890625 20.570171
37.225000 -14.656250 20.570171
36.925000 -12.937500 20.570171
36.425000 -11.625000 20.570171
36.050000 -10.296875 20.570171
35.875000 -9.265625 20.570171
36.100000 -7.562500 20.570171
37.900000 -19.765625 20.712358
37.850000 -18.421875 20.712358
37.600000 -17.015625 20.712358
37.325000 -15.734375 20.712358
37.225000 -14.500000 20.712358
36.925000 -13.203125 20.712358
36.475000 -11.437500 20.712358
36.150000 -10.484375 20.712358
35.900000 -8.968750 20.712358
36.175000 -7.859375 20.712358
38.375000 -20.703125 20.853765
37.875000 -19.250000 20.853765
37.775000 -18.390625 20.853765
37.575000 -16.906250 20.853765
37.250000 -15.296875 20.853765
37.100000 -14.484375 20.853765
36.925000 -12.984375 20.853765
36.500000 -11.390625 20.853765
36.125000 -10.218750 20.853765
35.975000 -9.125000 20.853765
36.300000 -7.531250 20.853765
38.350000 -20.906250 20.992320
37.875000 -19.187500 20.992320
37.700000 -18.234375 20.992320
37.525000 -16.578125 20.992320
37.150000 -15.343750 20.992320
37.025000 -14.156250 20.992320
36.875000 -13.046875 20.992320
36.525000 -11.265625 20.992320
36.225000 -10.203125 20.992320
36.025000 -8.750000 20.992320
36.375000 -7.546875 20.992320
37.725000 -20.265625 21.132087
37.800000 -18.921875 21.132087
37.625000 -17.703125 21.132087
37.250000 -16.000000 21.132087
36.900000 -14.890625 21.132087
36.500000 -10.609375 21.132087
36.125000 -9.750000 21.132087
38.375000 -21.328125 21.286359
37.825000 -20.000000 21.286359
37.700000 -18.359375 21.286359
37.525000 -17.359375 21.286359
37.225000 -15.859375 21.286359
36.975000 -14.578125 21.286359
37.050000 -13.312500 21.286359
37.300000 -12.234375 21.286359
36.825000 -10.781250 21.286359
36.200000 -9.125000 21.286359
36.375000 -7.812500 21.286359
38.350000 -20.453125 21.412518
37.800000 -19.312500 21.412518
37.650000 -18.156250 21.412518
37.450000 -16.468750 21.412518
37.025000 -15.375000 21.412518
36.900000 -13.828125 21.412518
37.025000 -12.921875 21.412518
36.875000 -11.578125 21.412518
36.475000 -10.093750 21.412518
36.300000 -8.843750 21.412518
36.675000 -7.281250 21.412518
37.775000 -19.875000 21.552399
37.775000 -18.890625 21.552399
37.575000 -17.421875 21.552399
37.125000 -15.843750 21.552399
36.750000 -14.703125 21.552399
36.975000 -13.218750 21.552399
37.350000 -12.109375 21.552399
37.025000 -10.984375 21.552399
36.450000 -9.265625 21.552399
38.350000 -20.625000 21.698830
37.800000 -19.359375 21.698830
37.625000 -17.937500 21.698830
37.275000 -16.312500 21.698830
36.825000 -15.343750 21.698830
36.825000 -13.750000 21.698830
37.500000 -12.468750 21.698830
37.425000 -11.265625 21.698830
36.650000 -10.187500 21.698830
36.500000 -8.890625 21.698830
36.800000 -7.265625 21.698830
37.875000 -19.500000 21.847131
37.775000 -18.390625 21.847131
37.725000 -17.234375 21.847131
36.650000 -14.468750 21.847131
36.800000 -10.359375 21.847131
36.675000 -9.109375 21.847131
36.650000 -7.906250 21.847131
37.825000 -20.187500 21.986871
37.875000 -19.031250 21.986871
38.100000 -17.750000 21.986871
36.600000 -14.796875 21.986871
36.925000 -13.515625 21.986871
37.475000 -12.328125 21.986871
37.175000 -10.906250 21.986871
36.600000 -9.796875 21.986871
38.600000 -20.640625 22.125062
38.000000 -19.093750 22.125062
38.125000 -17.859375 22.125062
36.575000 -15.031250 22.125062
36.925000 -11.359375 22.125062
37.025000 -10.281250 22.125062
36.675000 -8.796875 22.125062
36.875000 -7.312500 22.125062
39.600000 -22.125000 22.264340
38.550000 -21.140625 22.264340
38.075000 -19.640625 22.264340
38.000000 -18.187500 22.264340
36.600000 -15.765625 22.264340
36.825000 -14.156250 22.264340
36.900000 -13.218750 22.264340
37.125000 -11.546875 22.264340
37.175000 -10.468750 22.264340
36.800000 -9.265625 22.264340
36.850000 -7.968750 22.264340
38.600000 -21.203125 22.404772
38.200000 -19.890625 22.404772
37.675000 -18.796875 22.404772
36.900000 -17.203125 22.404772
36.725000 -15.843750 22.404772
36.850000 -14.500000 22.404772
37.125000 -13.468750 22.404772
37.350000 -11.984375 22.404772
37.300000 -10.968750 22.404772
36.950000 -9.562500 22.404772
36.725000 -8.343750 22.404772
39.250000 -22.078125 22.546090
38.175000 -19.187500 22.546090
37.725000 -17.703125 22.546090
37.000000 -16.250000 22.546090
36.875000 -15.437500 22.546090
37.125000 -11.203125 22.546090
37.200000 -9.875000 22.546090
36.950000 -8.921875 22.546090
37.025000 -7.609375 22.546090
38.600000 -21.312500 22.688333
38.225000 -19.781250 22.688333
38.200000 -18.812500 22.688333
36.950000 -16.109375 22.688333
37.225000 -14.781250 22.688333
37.125000 -13.265625 22.688333
37.175000 -12.000000 22.688333
37.300000 -10.875000 22.688333
36.925000 -9.109375 22.688333
36.850000 -7.750000 22.688333
39.075000 -22.296875 22.824538
38.750000 -20.937500 22.824538
38.250000 -19.171875 22.824538
37.775000 -17.906250 22.824538
37.350000 -16.468750 22.824538
37.375000 -15.125000 22.824538
37.325000 -11.250000 22.824538
37.125000 -10.203125 22.824538
36.875000 -8.921875 22.824538
36.950000 -7.703125 22.824538
38.700000 -20.187500 22.964874
38.125000 -18.921875 22.964874
37.400000 -17.000000 22.964874
37.000000 -13.171875 22.964874
37.250000 -11.937500 22.964874
37.325000 -10.609375 22.964874
36.950000 -9.656250 22.964874
38.950000 -20.875000 23.106643
38.400000 -19.515625 23.106643
37.850000 -17.687500 23.106643
37.500000 -16.734375 23.106643
38.050000 -15.578125 23.106643
38.175000 -13.828125 23.106643
38.400000 -13.031250 23.106643
37.175000 -10.250000 23.106643
36.925000 -8.843750 23.106643
37.050000 -7.343750 23.106643
38.750000 -19.703125 23.251704
38.525000 -18.578125 23.251704
37.675000 -16.000000 23.251704
37.975000 -14.718750 23.251704
37.975000 -13.375000 23.251704
37.725000 -11.921875 23.251704
37.175000 -10.375000 23.251704
36.800000 -9.437500 23.251704
36.850000 -7.781250 23.251704
38.450000 -18.937500 23.386909
37.775000 -17.531250 23.386909
37.700000 -13.640625 23.386909
37.850000 -12.343750 23.386909
37.350000 -10.687500 23.386909
37.000000 -9.703125 23.386909
36.925000 -8.359375 23.386909
37.400000 -7.109375 23.386909
39.425000 -21.671875 23.527960
39.325000 -20.312500 23.527960
38.550000 -18.968750 23.527960
37.875000 -17.390625 23.527960
37.225000 -16.484375 23.527960
37.525000 -14.859375 23.527960
38.075000 -13.890625 23.527960
37.925000 -12.640625 23.527960
37.400000 -11.312500 23.527960
37.125000 -9.937500 23.527960
37.000000 -8.390625 23.527960
37.300000 -7.296875 23.527960
38.525000 -19.609375 23.670775
38.725000 -18.140625 23.670775
37.950000 -15.812500 23.670775
38.175000 -14.312500 23.670775
38.500000 -13.390625 23.670775
37.175000 -10.453125 23.670775
36.900000 -9.046875 23.670775
37.025000 -7.484375 23.670775
39.525000 -22.000000 23.818397
39.550000 -20.625000 23.818397
38.800000 -19.156250 23.818397
38.100000 -17.875000 23.818397
37.600000 -16.500000 23.818397
37.825000 -14.921875 23.818397
38.175000 -14.046875 23.818397
38.000000 -12.593750 23.818397
37.400000 -11.328125 23.818397
37.125000 -10.125000 23.818397
37.000000 -8.390625 23.818397
37.250000 -7.578125 23.818397
39.150000 -20.015625 23.955974
38.725000 -18.890625 23.955974
38.025000 -17.375000 23.955974
37.400000 -15.968750 23.955974
37.675000 -14.921875 23.955974
38.125000 -13.593750 23.955974
37.800000 -11.921875 23.955974
37.325000 -10.718750 23.955974
37.125000 -9.531250 23.955974
39.325000 -20.046875 24.103372
38.775000 -18.625000 24.103372
38.100000 -16.968750 24.103372
37.600000 -15.890625 24.103372
37.850000 -14.515625 24.103372
38.200000 -13.406250 24.103372
37.875000 -12.031250 24.103372
37.275000 -10.578125 24.103372
37.000000 -9.265625 24.103372
39.500000 -19.640625 24.247010
38.875000 -18.484375 24.247010
37.825000 -15.859375 24.247010
38.200000 -14.296875 24.247010
38.375000 -13.203125 24.247010
37.900000 -11.765625 24.247010
37.250000 -10.343750 24.247010
37.000000 -9.265625 24.247010
37.025000 -7.750000 24.247010
38.875000 -19.546875 24.377790
38.775000 -18.375000 24.377790
38.175000 -16.984375 24.377790
37.950000 -15.656250 24.377790
38.300000 -14.078125 24.377790
38.175000 -12.937500 24.377790
37.700000 -11.312500 24.377790
37.225000 -10.437500 24.377790
36.950000 -8.781250 24.377790
37.125000 -7.468750 24.377790
39.075000 -19.062500 24.528996
38.400000 -17.796875 24.528996
37.850000 -16.250000 24.528996
37.925000 -15.109375 24.528996
38.200000 -13.921875 24.528996
38.075000 -12.734375 24.528996
37.550000 -11.046875 24.528996
37.225000 -10.125000 24.528996
37.075000 -8.406250 24.528996
37.325000 -7.250000 24.528996
39.850000 -19.578125 24.671795
39.050000 -18.421875 24.671795
37.850000 -16.031250 24.671795
38.225000 -14.484375 24.671795
38.425000 -12.984375 24.671795
37.950000 -11.734375 24.671795
37.375000 -10.453125 24.671795
37.150000 -9.234375 24.671795
37.150000 -8.125000 24.671795
39.100000 -18.781250 24.797542
38.450000 -17.750000 24.797542
37.825000 -16.046875 24.797542
37.925000 -14.921875 24.797542
38.350000 -13.843750 24.797542
38.050000 -12.546875 24.797542
37.500000 -11.062500 24.797542
37.300000 -9.531250 24.797542
37.200000 -8.515625 24.797542
37.500000 -7.218750 24.797542
40.400000 -21.046875 24.944059
39.000000 -18.140625 24.944059
38.325000 -16.875000 24.944059
38.000000 -15.515625 24.944059
38.275000 -14.156250 24.944059
38.275000 -13.078125 24.944059
37.825000 -11.796875 24.944059
37.350000 -10.343750 24.944059
37.150000 -8.734375 24.944059
37.200000 -7.609375 24.944059
40.550000 -21.296875 25.091962
39.100000 -18.515625 25.091962
38.400000 -17.156250 25.091962
37.800000 -16.109375 25.091962
37.975000 -14.437500 25.091962
38.325000 -13.187500 25.091962
37.950000 -12.218750 25.091962
37.525000 -10.812500 25.091962
37.275000 -9.156250 25.091962
37.200000 -8.109375 25.091962
37.700000 -6.750000 25.091962
39.150000 -18.875000 25.231735
38.925000 -17.859375 25.231735
38.425000 -16.078125 25.231735
38.100000 -14.828125 25.231735
38.350000 -13.671875 25.231735
38.050000 -12.234375 25.231735
37.525000 -11.078125 25.231735
37.300000 -9.812500 25.231735
37.200000 -8.296875 25.231735
37.500000 -7.390625 25.231735
39.775000 -19.343750 25.371005
38.950000 -18.234375 25.371005
38.325000 -16.515625 25.371005
38.150000 -15.671875 25.371005
38.325000 -14.046875 25.371005
38.175000 -12.734375 25.371005
37.725000 -11.515625 25.371005
37.300000 -10.406250 25.371005
37.125000 -9.062500 25.371005
37.225000 -7.312500 25.371005
40.450000 -21.484375 25.504957
39.150000 -18.968750 25.504957
38.800000 -17.531250 25.504957
38.425000 -16.218750 25.504957
38.250000 -15.140625 25.504957
38.325000 -13.515625 25.504957
38.000000 -12.359375 25.504957
37.525000 -10.828125 25.504957
37.300000 -9.656250 25.504957
37.200000 -8.546875 25.504957
37.525000 -6.953125 25.504957
39.700000 -20.109375 25.650863
39.100000 -18.890625 25.650863
38.575000 -17.562500 25.650863
38.350000 -16.015625 25.650863
38.375000 -14.593750 25.650863
38.300000 -13.484375 25.650863
37.950000 -12.187500 25.650863
37.500000 -10.609375 25.650863
37.275000 -9.250000 25.650863
37.175000 -8.250000 25.650863
37.675000 -6.671875 25.650863
39.650000 -19.640625 25.791120
39.100000 -18.390625 25.791120
38.500000 -16.671875 25.791120
38.075000 -15.640625 25.791120
38.275000 -14.203125 25.791120
38.525000 -13.265625 25.791120
38.125000 -11.609375 25.791120
37.375000 -10.109375 25.791120
37.125000 -8.968750 25.791120
37.200000 -7.468750 25.791120
39.825000 -20.609375 25.935288
39.075000 -18.843750 25.935288
38.475000 -17.796875 25.935288
38.050000 -16.468750 25.935288
38.025000 -14.953125 25.935288
38.250000 -14.015625 25.935288
38.150000 -12.515625 25.935288
37.600000 -11.156250 25.935288
37.225000 -9.953125 25.935288
37.125000 -8.562500 25.935288
37.425000 -7.125000 25.935288
39.525000 -20.125000 26.070722
39.025000 -18.640625 26.070722
38.350000 -17.125000 26.070722
37.950000 -16.031250 26.070722
38.125000 -14.359375 26.070722
38.175000 -13.343750 26.070722
37.875000 -12.156250 26.070722
37.400000 -10.656250 26.070722
37.100000 -9.218750 26.070722
39.950000 -21.921875 26.210285
39.825000 -20.500000 26.210285
39.000000 -19.015625 26.210285
38.250000 -17.406250 26.210285
37.975000 -16.296875 26.210285
38.125000 -15.125000 26.210285
38.200000 -13.890625 26.210285
38.025000 -12.562500 26.210285
37.525000 -11.187500 26.210285
37.300000 -9.484375 26.210285
37.175000 -8.375000 26.210285
37.500000 -7.078125 26.210285
39.475000 -20.500000 26.351928
38.875000 -19.578125 26.351928
38.250000 -18.156250 26.351928
37.725000 -16.640625 26.351928
37.800000 -15.265625 26.351928
38.175000 -14.140625 26.351928
38.450000 -12.812500 26.351928
38.000000 -11.515625 26.351928
37.300000 -10.078125 26.351928
37.100000 -8.890625 26.351928
37.225000 -7.312500 26.351928
39.075000 -22.171875 26.492785
39.250000 -19.796875 26.492785
38.875000 -18.640625 26.492785
38.250000 -17.218750 26.492785
37.750000 -15.546875 26.492785
37.950000 -14.671875 26.492785
38.100000 -13.296875 26.492785
37.850000 -11.953125 26.492785
37.425000 -10.281250 26.492785
37.150000 -9.000000 26.492785
37.150000 -8.093750 26.492785
39.575000 -21.968750 26.636786
39.450000 -20.515625 26.636786
38.800000 -19.031250 26.636786
38.100000 -18.031250 26.636786
37.625000 -16.812500 26.636786
37.800000 -15.078125 26.636786
38.075000 -13.828125 26.636786
38.375000 -12.562500 26.636786
38.025000 -11.578125 26.636786
37.300000 -10.250000 26.636786
37.175000 -8.796875 26.636786
37.400000 -7.609375 26.636786
39.950000 -21.640625 26.776823
38.750000 -18.937500 26.776823
37.600000 -16.218750 26.776823
37.850000 -14.781250 26.776823
37.300000 -11.937500 26.776823
37.625000 -10.703125 26.776823
37.325000 -9.640625 26.776823
37.175000 -8.218750 26.776823
37.575000 -6.796875 26.776823
39.025000 -19.750000 26.918464
38.750000 -18.718750 26.918464
37.650000 -16.078125 26.918464
37.900000 -14.500000 26.918464
37.725000 -13.234375 26.918464
37.550000 -11.828125 26.918464
37.475000 -10.484375 26.918464
37.175000 -9.000000 26.918464
39.375000 -22.296875 27.061372
39.150000 -20.578125 27.061372
38.600000 -19.468750 27.061372
37.975000 -17.953125 27.061372
37.400000 -16.703125 27.061372
37.500000 -15.171875 27.061372
37.825000 -14.125000 27.061372
38.525000 -13.125000 27.061372
37.325000 -10.234375 27.061372
37.100000 -8.921875 27.061372
37.225000 -7.734375 27.061372
39.450000 -21.765625 27.201669
39.250000 -20.625000 27.201669
38.500000 -19.156250 27.201669
37.825000 -17.531250 27.201669
37.250000 -16.515625 27.201669
37.400000 -15.015625 27.201669
37.575000 -11.296875 27.201669
37.325000 -10.156250 27.201669
37.125000 -8.734375 27.201669
37.300000 -7.156250 27.201669
38.975000 -19.781250 27.339136
38.525000 -18.625000 27.339136
37.475000 -16.109375 27.339136
37.725000 -14.828125 27.339136
37.900000 -13.296875 27.339136
37.950000 -12.296875 27.339136
37.625000 -11.046875 27.339136
37.250000 -9.281250 27.339136
37.125000 -8.109375 27.339136
37.675000 -7.156250 27.339136
39.800000 -22.046875 27.480553
38.950000 -20.781250 27.480553
38.450000 -19.609375 27.480553
37.900000 -18.156250 27.480553
37.475000 -16.609375 27.480553
37.850000 -15.640625 27.480553
38.025000 -14.062500 27.480553
38.000000 -12.906250 27.480553
37.800000 -11.812500 27.480553
37.350000 -10.046875 27.480553
37.125000 -9.093750 27.480553
37.175000 -7.906250 27.480553
38.900000 -20.031250 27.627801
38.325000 -18.781250 27.627801
37.150000 -16.203125 27.627801
37.475000 -14.656250 27.627801
37.825000 -13.453125 27.627801
37.925000 -12.171875 27.627801
37.625000 -10.562500 27.627801
37.250000 -9.296875 27.627801
37.075000 -8.046875 27.627801
37.625000 -7.140625 27.627801
39.350000 -22.140625 27.764808
39.025000 -20.796875 27.764808
38.400000 -19.328125 27.764808
37.125000 -16.421875 27.764808
37.275000 -15.125000 27.764808
37.450000 -13.921875 27.764808
38.100000 -12.734375 27.764808
38.000000 -11.078125 27.764808
37.325000 -9.765625 27.764808
37.100000 -8.625000 27.764808
37.200000 -7.609375 27.764808
38.900000 -22.296875 27.901966
38.825000 -21.125000 27.901966
38.325000 -19.625000 27.901966
38.250000 -18.625000 27.901966
36.925000 -15.703125 27.901966
37.100000 -14.500000 27.901966
37.500000 -13.468750 27.901966
37.725000 -11.968750 27.901966
37.475000 -10.875000 27.901966
37.175000 -9.250000 27.901966
37.075000 -8.156250 27.901966
38.750000 -20.281250 28.044732
38.150000 -19.140625 28.044732
36.750000 -16.218750 28.044732
36.850000 -14.859375 28.044732
37.200000 -13.828125 28.044732
37.850000 -12.718750 28.044732
37.750000 -10.921875 28.044732
37.300000 -9.750000 28.044732
37.100000 -8.296875 28.044732
37.250000 -7.171875 28.044732
38.800000 -20.843750 28.193014
38.175000 -19.640625 28.193014
38.225000 -18.390625 28.193014
36.725000 -15.578125 28.193014
36.900000 -14.078125 28.193014
37.375000 -12.859375 28.193014
37.625000 -11.812500 28.193014
37.325000 -10.437500 28.193014
37.075000 -9.015625 28.193014
37.050000 -7.875000 28.193014
38.675000 -21.421875 28.323490
38.175000 -19.906250 28.323490
37.800000 -18.828125 28.323490
36.975000 -17.203125 28.323490
36.600000 -15.890625 28.323490
36.675000 -14.546875 28.323490
37.100000 -13.343750 28.323490
37.600000 -11.875000 28.323490
37.375000 -10.515625 28.323490
37.000000 -9.546875 28.323490
38.725000 -20.468750 28.470828
38.125000 -19.484375 28.470828
38.100000 -18.250000 28.470828
36.650000 -15.500000 28.470828
36.850000 -13.890625 28.470828
37.200000 -12.453125 28.470828
37.350000 -11.593750 28.470828
37.225000 -9.921875 28.470828
36.950000 -8.515625 28.470828
36.950000 -7.250000 28.470828
38.025000 -19.968750 28.611014
37.725000 -18.218750 28.611014
37.000000 -17.015625 28.611014
36.625000 -15.562500 28.611014
36.675000 -14.640625 28.611014
37.075000 -13.218750 28.611014
37.525000 -11.796875 28.611014
37.325000 -10.750000 28.611014
36.900000 -9.125000 28.611014
36.800000 -8.218750 28.611014
38.000000 -18.859375 28.754768
37.850000 -17.765625 28.754768
37.325000 -16.203125 28.754768
36.750000 -15.171875 28.754768
36.900000 -13.843750 28.754768
37.225000 -12.796875 28.754768
37.325000 -10.968750 28.754768
37.000000 -10.015625 28.754768
36.700000 -8.671875 28.754768
36.900000 -7.515625 28.754768
38.025000 -19.093750 28.885315
37.625000 -17.750000 28.885315
37.175000 -16.703125 28.885315
36.850000 -14.984375 28.885315
36.850000 -13.984375 28.885315
37.225000 -12.828125 28.885315
37.350000 -11.437500 28.885315
36.975000 -10.109375 28.885315
36.650000 -8.656250 28.885315
36.850000 -7.562500 28.885315
37.950000 -19.406250 29.034082
37.750000 -18.250000 29.034082
37.575000 -16.781250 29.034082
37.125000 -15.312500 29.034082
36.875000 -14.109375 29.034082
37.350000 -12.906250 29.034082
37.450000 -11.546875 29.034082
36.850000 -10.203125 29.034082
36.500000 -9.000000 29.034082
36.775000 -7.875000 29.034082
37.925000 -19.671875 29.164806
37.800000 -18.437500 29.164806
37.550000 -16.812500 29.164806
37.200000 -15.750000 29.164806
36.925000 -14.296875 29.164806
37.275000 -13.328125 29.164806
37.475000 -11.875000 29.164806
36.875000 -10.578125 29.164806
36.450000 -9.000000 29.164806
36.600000 -8.015625 29.164806
38.625000 -20.250000 29.318826
38.000000 -19.281250 29.318826
37.700000 -17.937500 29.318826
37.450000 -16.140625 29.318826
37.150000 -14.859375 29.318826
37.050000 -13.500000 29.318826
37.200000 -12.656250 29.318826
36.900000 -10.875000 29.318826
36.400000 -9.671875 29.318826
36.325000 -8.281250 29.318826
36.775000 -6.984375 29.318826
37.675000 -21.265625 29.458448
37.950000 -19.890625 29.458448
37.875000 -18.687500 29.458448
37.600000 -17.468750 29.458448
37.375000 -16.000000 29.458448
37.175000 -14.437500 29.458448
37.200000 -13.156250 29.458448
37.275000 -12.203125 29.458448
36.750000 -10.703125 29.458448
36.225000 -9.312500 29.458448
38.375000 -20.953125 29.600039
37.950000 -19.687500 29.600039
37.775000 -18.093750 29.600039
37.600000 -16.828125 29.600039
37.250000 -15.625000 29.600039
37.025000 -13.890625 29.600039
37.225000 -13.015625 29.600039
36.950000 -11.421875 29.600039
36.300000 -10.140625 29.600039
36.150000 -8.671875 29.600039
36.450000 -7.531250 29.600039
38.025000 -20.406250 29.739245
37.950000 -18.703125 29.739245
37.725000 -17.328125 29.739245
37.400000 -16.046875 29.739245
37.150000 -14.984375 29.739245
37.100000 -13.375000 29.739245
37.100000 -12.296875 29.739245
36.650000 -10.953125 29.739245
36.100000 -9.203125 29.739245
37.975000 -19.390625 29.881135
37.775000 -18.031250 29.881135
37.600000 -16.859375 29.881135
37.350000 -15.546875 29.881135
37.175000 -14.375000 29.881135
37.050000 -12.812500 29.881135
36.600000 -11.453125 29.881135
36.150000 -10.015625 29.881135
36.075000 -8.984375 29.881135
36.425000 -7.375000 29.881135
38.000000 -20.093750 30.021781
37.925000 -18.671875 30.021781
37.700000 -17.375000 30.021781
37.425000 -15.875000 30.021781
37.275000 -14.687500 30.021781
37.350000 -13.421875 30.021781
37.025000 -12.046875 30.021781
36.350000 -10.812500 30.021781
36.000000 -9.390625 30.021781
38.650000 -20.625000 30.161493
38.000000 -19.062500 30.161493
37.850000 -17.937500 30.161493
37.625000 -16.468750 30.161493
37.350000 -15.296875 30.161493
37.150000 -14.171875 30.161493
36.675000 -12.828125 30.161493
36.100000 -11.046875 30.161493
35.775000 -9.718750 30.161493
35.825000 -8.890625 30.161493
36.350000 -7.546875 30.161493
37.975000 -19.671875 30.300268
37.800000 -18.125000 30.300268
37.575000 -17.046875 30.300268
37.300000 -15.546875 30.300268
37.175000 -14.281250 30.300268
36.700000 -12.765625 30.300268
35.825000 -11.359375 30.300268
35.325000 -9.859375 30.300268
35.575000 -8.656250 30.300268
36.175000 -7.453125 30.300268
37.950000 -19.718750 30.446493
37.825000 -18.562500 30.446493
37.650000 -17.296875 30.446493
37.450000 -15.859375 30.446493
35.225000 -10.468750 30.446493
35.375000 -9.109375 30.446493
35.925000 -7.765625 30.446493
37.925000 -20.218750 30.579105
37.925000 -18.656250 30.579105
37.675000 -17.546875 30.579105
37.400000 -16.218750 30.579105
37.275000 -14.828125 30.579105
37.325000 -13.234375 30.579105
35.225000 -10.484375 30.579105
35.175000 -9.250000 30.579105
38.000000 -19.156250 30.719397
37.700000 -17.484375 30.719397
37.425000 -16.343750 30.719397
37.275000 -15.203125 30.719397
37.000000 -13.890625 30.719397
35.350000 -10.640625 30.719397
35.150000 -9.718750 30.719397
37.975000 -19.203125 30.860090
37.700000 -17.781250 30.860090
37.475000 -16.687500 30.860090
37.275000 -15.046875 30.860090
37.175000 -14.015625 30.860090
35.500000 -11.015625 30.860090
35.150000 -9.750000 30.860090
35.550000 -8.156250 30.860090
36.375000 -7.234375 30.860090
37.975000 -19.656250 31.007010
37.775000 -18.203125 31.007010
37.600000 -16.687500 31.007010
37.400000 -15.578125 31.007010
37.325000 -14.312500 31.007010
37.575000 -12.796875 31.007010
35.375000 -9.734375 31.007010
35.575000 -8.781250 31.007010
36.275000 -7.500000 31.007010
38.325000 -21.046875 31.151929
37.950000 -19.843750 31.151929
37.825000 -18.484375 31.151929
37.600000 -16.843750 31.151929
37.400000 -15.687500 31.151929
37.250000 -14.203125 31.151929
37.075000 -12.968750 31.151929
36.550000 -11.562500 31.151929
35.925000 -10.453125 31.151929
35.775000 -9.109375 31.151929
36.100000 -7.843750 31.151929
37.900000 -20.234375 31.293026
37.875000 -18.796875 31.293026
37.625000 -17.437500 31.293026
37.400000 -16.031250 31.293026
37.275000 -14.828125 31.293026
37.075000 -13.375000 31.293026
36.650000 -11.890625 31.293026
36.125000 -10.546875 31.293026
35.875000 -9.140625 31.293026
37.850000 -20.187500 31.422876
37.900000 -18.593750 31.422876
37.675000 -17.390625 31.422876
37.375000 -16.109375 31.422876
37.200000 -14.859375 31.422876
37.175000 -13.421875 31.422876
36.900000 -12.187500 31.422876
36.325000 -10.703125 31.422876
35.925000 -9.265625 31.422876
38.375000 -20.703125 31.570658
37.950000 -19.015625 31.570658
37.675000 -17.828125 31.570658
37.425000 -16.640625 31.570658
37.225000 -15.203125 31.570658
37.225000 -13.640625 31.570658
37.675000 -12.750000 31.570658
36.050000 -9.687500 31.570658
36.000000 -8.265625 31.570658
36.475000 -7.578125 31.570658
38.375000 -20.843750 31.704092
37.900000 -19.343750 31.704092
37.700000 -17.937500 31.704092
37.475000 -16.765625 31.704092
37.175000 -15.140625 31.704092
37.100000 -13.890625 31.704092
36.975000 -12.515625 31.704092
36.550000 -11.171875 31.704092
36.175000 -9.859375 31.704092
36.050000 -8.781250 31.704092
36.450000 -7.593750 31.704092
38.375000 -20.968750 31.855074
37.850000 -19.703125 31.855074
37.750000 -18.562500 31.855074
37.550000 -17.125000 31.855074
37.175000 -15.890625 31.855074
37.000000 -14.500000 31.855074
36.775000 -12.843750 31.855074
36.600000 -11.500000 31.855074
36.375000 -10.531250 31.855074
36.075000 -8.968750 31.855074
36.350000 -7.812500 31.855074
38.700000 -22.656250 32.000849
38.300000 -21.078125 32.000849
37.750000 -19.703125 32.000849
37.725000 -18.546875 32.000849
37.550000 -17.250000 32.000849
37.175000 -15.593750 32.000849
36.850000 -14.406250 32.000849
37.000000 -13.296875 32.000849
37.100000 -11.671875 32.000849
36.575000 -10.687500 32.000849
36.175000 -9.203125 32.000849
36.350000 -7.843750 32.000849
37.775000 -20.015625 32.133848
37.775000 -18.921875 32.133848
37.625000 -17.250000 32.133848
37.400000 -16.078125 32.133848
37.025000 -14.890625 32.133848
36.575000 -10.703125 32.133848
36.275000 -9.437500 32.133848
36.350000 -8.406250 32.133848
38.325000 -20.625000 32.268198
37.825000 -19.078125 32.268198
37.675000 -18.218750 32.268198
37.475000 -16.859375 32.268198
37.025000 -15.437500 32.268198
36.900000 -14.171875 32.268198
37.000000 -12.593750 32.268198
36.875000 -11.125000 32.268198
36.525000 -10.234375 32.268198
36.300000 -8.671875 32.268198
36.625000 -7.750000 32.268198
39.050000 -22.312500 32.410205
37.775000 -19.562500 32.410205
37.750000 -18.468750 32.410205
37.625000 -17.203125 32.410205
37.125000 -15.609375 32.410205
36.725000 -14.281250 32.410205
36.600000 -10.609375 32.410205
36.375000 -8.890625 32.410205
36.475000 -7.843750 32.410205
38.525000 -20.750000 32.548206
37.850000 -19.265625 32.548206
37.550000 -17.718750 32.548206
37.150000 -16.687500 32.548206
36.750000 -15.015625 32.548206
36.800000 -14.218750 32.548206
37.375000 -12.640625 32.548206
37.300000 -11.375000 32.548206
36.625000 -9.953125 32.548206
36.375000 -8.578125 32.548206
36.650000 -7.312500 32.548206
38.825000 -22.500000 32.697218
37.875000 -19.687500 32.697218
37.825000 -18.390625 32.697218
37.625000 -17.375000 32.697218
37.125000 -15.671875 32.697218
36.700000 -14.609375 32.697218
36.800000 -10.812500 32.697218
36.675000 -9.031250 32.697218
36.650000 -7.718750 32.697218
38.350000 -20.625000 32.842206
37.950000 -19.046875 32.842206
38.100000 -17.765625 32.842206
36.575000 -15.218750 32.842206
36.725000 -11.093750 32.842206
36.675000 -9.937500 32.842206
36.575000 -8.453125 32.842206
36.975000 -7.109375 32.842206
38.025000 -19.390625 32.984234
38.025000 -18.078125 32.984234
36.575000 -15.515625 32.984234
36.800000 -13.984375 32.984234
37.375000 -12.828125 32.984234
37.525000 -11.750000 32.984234
37.200000 -10.453125 32.984234
36.900000 -8.796875 32.984234
36.900000 -7.859375 32.984234
38.550000 -21.234375 33.111876
38.150000 -20.046875 33.111876
37.625000 -18.781250 33.111876
36.850000 -17.171875 33.111876
36.625000 -15.859375 33.111876
36.700000 -14.906250 33.111876
37.100000 -13.703125 33.111876
37.475000 -12.328125 33.111876
37.325000 -11.046875 33.111876
36.875000 -9.656250 33.111876
39.250000 -21.953125 33.257756
38.850000 -20.703125 33.257756
36.750000 -15.218750 33.257756
37.050000 -11.578125 33.257756
37.225000 -9.906250 33.257756
36.925000 -8.750000 33.257756
36.925000 -7.250000 33.257756
38.575000 -21.171875 33.409321
38.200000 -19.500000 33.409321
38.450000 -18.687500 33.409321
36.875000 -15.515625 33.409321
37.100000 -14.531250 33.409321
37.250000 -13.015625 33.409321
37.325000 -11.906250 33.409321
37.275000 -10.640625 33.409321
36.925000 -9.375000 33.409321
36.900000 -8.109375 33.409321
38.575000 -21.406250 33.535194
38.250000 -20.078125 33.535194
38.100000 -18.421875 33.535194
37.325000 -17.015625 33.535194
36.950000 -15.859375 33.535194
37.225000 -14.750000 33.535194
37.050000 -13.265625 33.535194
37.150000 -12.171875 33.535194
37.325000 -10.968750 33.535194
36.875000 -9.390625 33.535194
36.725000 -8.265625 33.535194
38.675000 -20.343750 33.677536
37.900000 -19.078125 33.677536
37.225000 -17.281250 33.677536
36.850000 -15.968750 33.677536
37.125000 -14.843750 33.677536
37.800000 -13.656250 33.677536
37.800000 -12.500000 33.677536
37.425000 -10.859375 33.677536
36.975000 -9.453125 33.677536
36.850000 -8.593750 33.677536
37.325000 -7.062500 33.677536
38.975000 -22.109375 33.820566
38.775000 -21.000000 33.820566
38.350000 -19.343750 33.820566
38.550000 -18.156250 33.820566
37.950000 -15.906250 33.820566
38.150000 -14.484375 33.820566
38.300000 -12.984375 33.820566
37.125000 -10.218750 33.820566
36.900000 -9.187500 33.820566
37.050000 -7.875000 33.820566
38.100000 -18.968750 33.961258
37.550000 -17.296875 33.961258
37.325000 -13.593750 33.961258
37.450000 -12.015625 33.961258
37.350000 -10.796875 33.961258
36.975000 -9.515625 33.961258
36.825000 -8.359375 33.961258
37.450000 -7.343750 33.961258
38.975000 -22.234375 34.101516
38.875000 -20.750000 34.101516
38.475000 -19.421875 34.101516
37.950000 -17.906250 34.101516
37.550000 -16.875000 34.101516
38.000000 -15.484375 34.101516
38.225000 -14.218750 34.101516
38.525000 -13.000000 34.101516
37.100000 -10.234375 34.101516
36.875000 -8.812500 34.101516
37.075000 -7.656250 34.101516
38.850000 -20.093750 34.245535
38.625000 -18.671875 34.245535
38.025000 -17.359375 34.245535
37.700000 -16.171875 34.245535
37.925000 -14.671875 34.245535
37.950000 -13.093750 34.245535
37.700000 -11.843750 34.245535
37.150000 -10.671875 34.245535
36.875000 -9.328125 34.245535
36.950000 -7.859375 34.245535
39.475000 -21.687500 34.383591
39.375000 -20.265625 34.383591
38.625000 -19.203125 34.383591
37.975000 -17.531250 34.383591
37.550000 -16.578125 34.383591
37.775000 -15.031250 34.383591
38.075000 -13.656250 34.383591
37.925000 -12.343750 34.383591
37.350000 -10.875000 34.383591
37.100000 -9.781250 34.383591
37.000000 -8.296875 34.383591
37.300000 -7.390625 34.383591
39.325000 -20.687500 34.527845
38.800000 -19.437500 34.527845
38.100000 -17.906250 34.527845
37.550000 -16.531250 34.527845
37.900000 -15.625000 34.527845
38.250000 -14.109375 34.527845
38.075000 -12.859375 34.527845
37.600000 -11.281250 34.527845
37.200000 -10.140625 34.527845
36.925000 -8.796875 34.527845
37.025000 -7.750000 34.527845
39.150000 -19.953125 34.667805
38.725000 -18.484375 34.667805
37.625000 -16.031250 34.667805
37.900000 -14.390625 34.667805
38.200000 -13.515625 34.667805
37.900000 -11.796875 34.667805
37.175000 -10.609375 34.667805
36.875000 -9.375000 34.667805
36.950000 -7.953125 34.667805
39.200000 -19.890625 34.811411
38.775000 -18.750000 34.811411
38.075000 -17.390625 34.811411
37.450000 -16.015625 34.811411
37.700000 -14.593750 34.811411
38.125000 -13.406250 34.811411
37.850000 -12.062500 34.811411
37.350000 -10.734375 34.811411
37.125000 -9.609375 34.811411
39.900000 -21.718750 34.950660
38.925000 -19.328125 34.950660
38.200000 -17.765625 34.950660
37.675000 -16.359375 34.950660
37.900000 -15.078125 34.950660
38.300000 -14.078125 34.950660
38.025000 -12.343750 34.950660
37.525000 -10.875000 34.950660
37.250000 -9.515625 34.950660
37.000000 -8.265625 34.950660
37.325000 -7.406250 34.950660
39.575000 -19.671875 35.090814
38.900000 -18.359375 35.090814
38.225000 -16.734375 35.090814
37.800000 -15.703125 35.090814
38.175000 -14.500000 35.090814
38.450000 -13.375000 35.090814
38.025000 -11.640625 35.090814
37.325000 -10.421875 35.090814
37.025000 -8.906250 35.090814
37.050000 -7.937500 35.090814
38.950000 -19.046875 35.232029
38.250000 -17.828125 35.232029
37.725000 -16.515625 35.232029
37.925000 -15.062500 35.232029
38.300000 -13.578125 35.232029
38.050000 -12.546875 35.232029
37.525000 -11.140625 35.232029
37.300000 -9.515625 35.232029
37.150000 -8.546875 35.232029
37.475000 -7.218750 35.232029
39.050000 -18.453125 35.376778
38.300000 -16.843750 35.376778
37.950000 -15.812500 35.376778
38.275000 -14.453125 35.376778
38.375000 -12.984375 35.376778
37.900000 -12.078125 35.376778
37.350000 -10.687500 35.376778
37.100000 -8.937500 35.376778
37.000000 -7.687500 35.376778
39.125000 -19.359375 35.511648
38.550000 -17.765625 35.511648
38.000000 -16.562500 35.511648
37.975000 -15.078125 35.511648
38.275000 -14.109375 35.511648
38.125000 -12.625000 35.511648
37.575000 -11.250000 35.511648
37.225000 -9.687500 35.511648
37.100000 -8.812500 35.511648
37.375000 -7.453125 35.511648
39.950000 -20.062500 35.654221
39.075000 -18.531250 35.654221
38.325000 -17.218750 35.654221
37.925000 -16.015625 35.654221
38.150000 -14.437500 35.654221
38.275000 -13.343750 35.654221
37.900000 -12.015625 35.654221
37.450000 -10.812500 35.654221
37.250000 -9.171875 35.654221
37.125000 -7.781250 35.654221
39.075000 -19.265625 35.794804
38.975000 -18.250000 35.794804
38.375000 -16.515625 35.794804
38.025000 -15.531250 35.794804
38.250000 -14.062500 35.794804
38.100000 -12.765625 35.794804
37.625000 -11.375000 35.794804
37.225000 -10.343750 35.794804
37.075000 -8.578125 35.794804
37.250000 -7.531250 35.794804
39.950000 -19.828125 35.939200
39.075000 -18.812500 35.939200
38.450000 -17.578125 35.939200
37.875000 -15.953125 35.939200
37.975000 -14.546875 35.939200
38.275000 -13.578125 35.939200
37.900000 -11.828125 35.939200
37.450000 -10.468750 35.939200
37.275000 -9.640625 35.939200
37.150000 -8.125000 35.939200
37.700000 -7.078125 35.939200
39.050000 -19.046875 36.076005
38.825000 -18.015625 36.076005
38.350000 -16.421875 36.076005
38.075000 -15.140625 36.076005
38.275000 -14.171875 36.076005
38.125000 -12.625000 36.076005
37.675000 -11.437500 36.076005
37.325000 -10.046875 36.076005
37.100000 -8.796875 36.076005
37.350000 -7.218750 36.076005
39.750000 -19.765625 36.217816
39.050000 -18.406250 36.217816
38.500000 -17.093750 36.217816
38.275000 -15.828125 36.217816
38.325000 -14.312500 36.217816
38.475000 -12.859375 36.217816
38.025000 -11.781250 36.217816
37.400000 -10.484375 36.217816
37.125000 -8.812500 36.217816
37.175000 -7.656250 36.217816
40.500000 -21.421875 36.358867
39.075000 -18.875000 36.358867
38.700000 -17.468750 36.358867
38.475000 -16.125000 36.358867
38.350000 -14.750000 36.358867
38.250000 -13.593750 36.358867
