37.350000 75.062500 39.668053
35.850000 89.500000 39.803892
35.950000 88.265625 39.806463
35.825000 87.406250 39.808254
35.875000 86.296875 39.810565
36.050000 85.468750 39.812290
35.800000 84.062500 39.815220
37.025000 79.421875 39.824888
36.875000 78.218750 39.827394
36.625000 77.296875 39.829315
36.800000 75.781250 39.832473
37.300000 75.015625 39.834068
36.250000 89.859375 39.966459
36.175000 88.453125 39.969389
35.875000 87.593750 39.971179
36.000000 85.937500 39.974630
36.050000 84.781250 39.977038
35.825000 83.812500 39.979057
35.700000 82.718750 39.981335
36.250000 81.843750 39.983158
36.800000 80.328125 39.986316
36.775000 79.390625 39.988269
36.625000 78.000000 39.991166
36.700000 77.265625 39.992696
36.925000 75.671875 39.996016
37.500000 74.734375 39.997969
36.150000 89.671875 40.122330
35.950000 88.750000 40.124251
35.850000 87.625000 40.126595
35.875000 86.062500 40.129850
36.175000 85.343750 40.131347
36.025000 83.734375 40.134700
36.975000 79.578125 40.143359
36.775000 78.109375 40.146419
36.550000 77.265625 40.148177
36.800000 76.343750 40.150097
37.225000 75.109375 40.152669
35.800000 88.953125 40.280400
35.750000 87.875000 40.282646
35.950000 87.125000 40.284208
35.975000 85.687500 40.287203
36.050000 84.578125 40.289514
36.000000 83.500000 40.291760
36.050000 82.218750 40.294430
36.500000 81.078125 40.296806
36.775000 80.203125 40.298629
36.650000 78.968750 40.301201
36.525000 77.703125 40.303837
36.700000 76.625000 40.306083
37.025000 75.687500 40.308037
35.475000 88.609375 40.435757
35.800000 88.078125 40.436864
35.975000 86.468750 40.440217
35.975000 85.703125 40.441812
36.125000 84.718750 40.443863
36.075000 83.328125 40.446760
36.125000 82.359375 40.448778
36.650000 80.796875 40.452034
36.950000 79.750000 40.454215
36.750000 78.453125 40.456916
36.525000 77.531250 40.458837
36.675000 76.312500 40.461376
37.050000 75.562500 40.462939
36.425000 89.484375 40.590530
36.350000 88.171875 40.593264
35.875000 87.515625 40.594631
36.000000 86.203125 40.597366
36.050000 85.250000 40.599351
36.025000 83.546875 40.602899
36.125000 82.781250 40.604494
36.450000 81.796875 40.606545
36.800000 80.250000 40.609768
36.675000 79.062500 40.612242
36.425000 78.000000 40.614455
36.600000 77.062500 40.616409
36.925000 76.062500 40.618492
37.500000 75.046875 40.620608
35.500000 89.062500 40.764234
35.800000 87.640625 40.767196
35.950000 86.906250 40.768726
35.975000 85.359375 40.771949
36.000000 84.656250 40.773413
36.125000 83.171875 40.776506
36.300000 82.015625 40.778915
36.600000 81.203125 40.780607
36.875000 79.734375 40.783667
36.675000 78.468750 40.786304
36.425000 77.453125 40.788420
36.650000 76.421875 40.790568
37.100000 75.453125 40.792587
36.700000 89.437500 40.923321
35.875000 87.453125 40.927455
35.975000 86.046875 40.930385
36.050000 85.062500 40.932436
36.025000 84.062500 40.934519
36.100000 82.875000 40.936993
36.450000 81.875000 40.939076
36.800000 80.687500 40.941550
36.650000 79.078125 40.944903
36.400000 78.265625 40.946596
36.450000 77.218750 40.948777
36.800000 75.843750 40.951642
37.500000 74.812500 40.953790
36.125000 88.468750 41.076582
35.850000 87.578125 41.078438
35.925000 86.406250 41.080879
36.025000 85.062500 41.083678
36.025000 84.281250 41.085306
36.100000 82.765625 41.088464
36.425000 81.546875 41.091003
36.775000 80.906250 41.092337
36.600000 79.640625 41.094974
36.375000 78.234375 41.097904
36.425000 76.984375 41.100508
36.700000 76.218750 41.102103
37.300000 75.078125 41.104479
35.725000 87.781250 41.240343
35.925000 86.625000 41.242752
36.000000 85.656250 41.244770
36.075000 84.671875 41.246821
36.100000 83.484375 41.249295
36.300000 82.156250 41.252062
36.625000 81.218750 41.254015
36.800000 80.109375 41.256326
36.650000 79.015625 41.258605
36.475000 77.765625 41.261209
36.575000 76.390625 41.264074
36.975000 75.437500 41.266059
35.925000 87.156250 41.402412
35.950000 85.937500 41.404951
36.025000 84.843750 41.407230
36.050000 83.562500 41.409899
36.275000 82.156250 41.412829
36.600000 81.453125 41.414294
36.750000 79.906250 41.417516
36.625000 78.921875 41.419567
36.425000 78.031250 41.421423
36.525000 76.703125 41.424190
36.925000 75.546875 41.426598
35.450000 89.015625 41.556302
35.750000 88.046875 41.558320
35.925000 86.515625 41.561510
35.950000 85.750000 41.563105
36.000000 84.484375 41.565742
36.100000 83.265625 41.568281
36.425000 82.171875 41.570559
36.750000 81.203125 41.572577
36.950000 79.906250 41.575279
36.750000 78.328125 41.578567
36.400000 77.281250 41.580748
36.625000 76.437500 41.582506
37.075000 74.953125 41.585598
35.575000 88.875000 41.711468
35.700000 87.437500 41.714462
35.875000 86.578125 41.716253
36.000000 85.546875 41.718401
36.050000 84.375000 41.720843
36.050000 83.093750 41.723512
36.400000 82.062500 41.725660
36.775000 80.921875 41.728037
36.925000 79.781250 41.730413
36.700000 78.328125 41.733440
36.400000 77.218750 41.735751
36.575000 76.343750 41.737574
37.100000 75.312500 41.739723
35.525000 88.562500 41.872343
35.700000 87.828125 41.873873
35.800000 86.625000 41.876379
35.925000 85.156250 41.879439
35.900000 84.328125 41.881165
35.775000 82.906250 41.884127
36.125000 82.000000 41.886015
36.600000 80.906250 41.888293
37.000000 79.765625 41.890670
36.800000 78.406250 41.893502
36.375000 77.468750 41.895455
36.500000 76.500000 41.897473
36.950000 75.218750 41.900142
36.350000 89.140625 42.023316
36.150000 88.125000 42.025432
35.675000 87.218750 42.027320
35.850000 85.640625 42.030607
35.600000 84.812500 42.032333
35.475000 83.843750 42.034351
36.150000 80.078125 42.042196
36.450000 79.234375 42.043954
36.375000 77.875000 42.046786
36.400000 76.812500 42.048999
36.625000 75.765625 42.051180
35.675000 88.921875 42.182357
35.600000 87.781250 42.184733
35.675000 86.265625 42.187891
35.350000 85.187500 42.190137
35.000000 83.984375 42.192643
35.350000 83.156250 42.194369
35.875000 81.812500 42.197168
36.375000 80.921875 42.199024
36.875000 79.906250 42.201140
36.675000 78.234375 42.204623
36.300000 77.281250 42.206608
36.450000 76.062500 42.209147
36.900000 74.968750 42.211426
35.375000 88.718750 42.349219
35.400000 87.546875 42.351660
35.575000 86.500000 42.353841
35.250000 85.625000 42.355664
34.850000 84.109375 42.358821
34.900000 83.031250 42.361068
36.550000 78.453125 42.370605
36.300000 77.375000 42.372851
36.350000 76.500000 42.374674
36.750000 75.171875 42.377441
35.775000 89.640625 42.503685
35.700000 88.328125 42.506419
35.350000 86.937500 42.509316
35.075000 86.000000 42.511270
34.750000 84.750000 42.513874
34.975000 83.531250 42.516413
36.500000 79.328125 42.525169
36.325000 77.937500 42.528066
36.300000 76.750000 42.530540
34.975000 85.250000 42.668526
34.775000 83.781250 42.671586
35.200000 82.703125 42.673832
36.500000 78.078125 42.683467
36.275000 77.078125 42.685550
36.375000 76.140625 42.687504
36.725000 75.015625 42.689847
35.475000 89.500000 42.814932
35.475000 88.218750 42.817602
34.950000 84.640625 42.825056
34.775000 83.531250 42.827367
35.225000 82.484375 42.829548
35.575000 81.484375 42.831632
35.975000 80.359375 42.833975
36.550000 79.515625 42.835733
36.500000 78.046875 42.838793
36.300000 77.078125 42.840811
36.400000 75.671875 42.843741
36.725000 74.906250 42.845336
35.125000 89.031250 42.991987
34.950000 88.078125 42.993973
35.025000 86.734375 42.996772
35.250000 86.078125 42.998139
34.700000 83.593750 43.003315
34.925000 82.312500 43.005984
35.225000 81.468750 43.007742
36.075000 80.421875 43.009923
36.475000 79.218750 43.012430
36.375000 78.046875 43.014871
36.250000 76.687500 43.017703
36.250000 75.531250 43.020112
35.150000 89.812500 43.141797
35.150000 88.609375 43.144303
35.075000 87.718750 43.146159
34.975000 86.140625 43.149446
34.500000 84.703125 43.152441
34.350000 84.000000 43.153906
34.600000 82.953125 43.156087
35.000000 81.859375 43.158366
35.650000 80.453125 43.161295
36.250000 79.437500 43.163411
36.375000 78.312500 43.165755
36.200000 77.234375 43.168001
36.125000 75.984375 43.170605
36.325000 74.921875 43.172819
35.000000 89.187500 43.302635
34.850000 88.296875 43.304491
35.025000 87.203125 43.306769
35.200000 85.859375 43.309569
34.375000 83.562500 43.314354
34.875000 82.046875 43.317511
35.225000 80.953125 43.319790
35.650000 80.265625 43.321222
36.200000 79.265625 43.323306
36.225000 78.015625 43.325910
36.100000 76.453125 43.329165
35.150000 89.562500 43.454539
35.000000 88.609375 43.456524
34.950000 87.328125 43.459194
34.650000 86.078125 43.461798
34.250000 85.140625 43.463751
34.200000 83.546875 43.467071
34.350000 82.312500 43.469643
34.675000 81.562500 43.471205
36.050000 77.218750 43.480255
35.950000 76.078125 43.482631
36.350000 74.765625 43.485366
35.025000 89.390625 43.618666
34.975000 88.203125 43.621140
34.925000 87.531250 43.622539
34.475000 85.875000 43.625990
34.075000 85.109375 43.627585
34.200000 83.640625 43.630645
34.325000 82.406250 43.633216
34.575000 81.375000 43.635365
36.050000 77.187500 43.644089
35.950000 75.750000 43.647084
36.325000 74.859375 43.648939
34.650000 89.843750 43.766727
34.625000 88.890625 43.768713
34.750000 87.453125 43.771708
34.800000 86.687500 43.773303
35.200000 85.187500 43.776428
34.225000 83.078125 43.780822
34.400000 82.078125 43.782905
34.750000 81.015625 43.785119
35.375000 79.500000 43.788276
35.950000 78.687500 43.789969
35.950000 77.578125 43.792280
35.825000 76.406250 43.794722
36.075000 74.921875 43.797814
34.775000 89.046875 43.931030
34.625000 87.703125 43.933830
34.775000 86.609375 43.936108
34.600000 85.609375 43.938192
34.250000 84.515625 43.940470
34.200000 83.343750 43.942912
34.350000 82.140625 43.945418
34.650000 80.921875 43.947957
35.250000 80.156250 43.949552
35.575000 78.734375 43.952515
35.500000 77.703125 43.954663
35.650000 76.500000 43.957170
35.925000 75.500000 43.959253
34.900000 88.875000 44.092030
34.600000 87.625000 44.094634
34.750000 87.000000 44.095936
34.450000 85.203125 44.099680
34.500000 84.265625 44.101633
34.575000 83.000000 44.104270
34.350000 81.781250 44.106809
34.650000 80.718750 44.109022
35.125000 80.125000 44.110259
35.400000 78.843750 44.112929
35.450000 77.656250 44.115402
35.625000 76.546875 44.117714
35.925000 75.593750 44.119699
34.800000 88.875000 44.245309
34.475000 87.953125 44.247230
34.725000 87.015625 44.249183
34.675000 85.468750 44.252406
34.825000 84.687500 44.254033
34.725000 83.515625 44.256474
34.425000 82.125000 44.259372
34.650000 81.062500 44.261585
35.000000 80.093750 44.263603
35.250000 78.828125 44.266240
35.425000 77.421875 44.269170
35.600000 76.171875 44.271774
35.875000 75.359375 44.273467
34.400000 87.875000 44.406887
34.625000 87.015625 44.408678
34.650000 85.656250 44.411510
34.575000 84.140625 44.414667
34.625000 83.406250 44.416197
34.675000 82.234375 44.418638
34.775000 80.734375 44.421763
34.875000 80.093750 44.423098
35.025000 78.984375 44.425409
35.300000 77.593750 44.428306
35.450000 76.234375 44.431139
34.425000 89.843750 44.572201
34.300000 88.750000 44.574480
34.525000 87.609375 44.576856
34.575000 86.093750 44.580014
34.625000 85.015625 44.582260
34.575000 84.078125 44.584213
34.600000 82.906250 44.586654
34.875000 81.421875 44.589747
34.900000 80.828125 44.590984
34.800000 79.171875 44.594434
35.050000 78.062500 44.596745
35.300000 76.937500 44.599089
35.500000 76.140625 44.600749
35.875000 74.890625 44.603354
34.725000 89.609375 44.734987
34.450000 88.218750 44.737884
34.500000 87.390625 44.739609
34.575000 86.062500 44.742376
34.600000 84.953125 44.744687
34.600000 83.812500 44.747064
34.675000 82.500000 44.749798
34.725000 81.687500 44.751491
34.725000 80.421875 44.754128
34.825000 78.906250 44.757285
35.075000 77.984375 44.759206
35.300000 76.968750 44.761322
35.450000 75.593750 44.764186
35.900000 74.625000 44.766204
34.650000 89.046875 44.884883
34.400000 87.843750 44.887389
34.500000 87.218750 44.888691
34.575000 85.843750 44.891556
34.575000 84.359375 44.894649
34.625000 83.796875 44.895820
34.750000 82.625000 44.898262
34.675000 81.437500 44.900736
34.600000 79.781250 44.904186
34.775000 78.859375 44.906107
34.975000 77.828125 44.908255
35.200000 76.937500 44.910111
35.475000 75.734375 44.912617
35.975000 74.687500 44.914798
34.525000 90.031250 45.053745
34.450000 89.031250 45.055828
34.500000 87.906250 45.058172
34.525000 86.234375 45.061655
34.500000 85.234375 45.063738
34.575000 84.359375 45.065561
34.625000 82.921875 45.068556
34.850000 82.171875 45.070118
34.925000 80.968750 45.072625
34.775000 79.421875 45.075848
34.950000 78.593750 45.077573
35.150000 77.500000 45.079852
35.325000 76.046875 45.082879
35.525000 74.921875 45.085223
34.550000 89.625000 45.198292
34.450000 88.921875 45.199757
34.475000 87.421875 45.202882
34.500000 86.281250 45.205259
34.525000 85.640625 45.206593
34.575000 84.281250 45.209425
34.625000 82.890625 45.212322
34.850000 81.906250 45.214373
34.900000 80.687500 45.216912
34.750000 79.531250 45.219321
34.925000 78.500000 45.221470
35.125000 77.078125 45.224432
35.325000 76.468750 45.225701
35.525000 75.125000 45.228501
34.600000 86.562500 45.374611
34.625000 85.890625 45.376010
34.575000 84.250000 45.379428
34.625000 83.218750 45.381577
34.875000 82.531250 45.383009
34.825000 80.953125 45.386297
34.675000 79.656250 45.388999
34.875000 79.000000 45.390366
35.050000 77.875000 45.392710
35.225000 76.625000 45.395314
35.450000 75.109375 45.398471
35.950000 74.296875 45.400164
34.500000 88.453125 45.524370
34.550000 87.484375 45.526388
34.600000 86.093750 45.529285
34.625000 85.140625 45.531271
34.675000 83.546875 45.534591
34.775000 82.906250 45.535926
34.750000 81.250000 45.539377
34.675000 80.109375 45.541753
34.775000 79.031250 45.543999
35.000000 78.312500 45.545496
35.200000 76.906250 45.548426
35.375000 75.906250 45.550509
35.675000 74.859375 45.552691
34.675000 89.031250 45.682380
34.475000 87.796875 45.684952
34.600000 86.640625 45.687361
34.675000 85.500000 45.689737
34.650000 84.296875 45.692243
34.700000 83.359375 45.694196
34.925000 81.781250 45.697484
34.875000 81.015625 45.699079
34.750000 79.937500 45.701325
34.900000 78.234375 45.704874
35.125000 77.500000 45.706403
35.325000 76.031250 45.709463
35.575000 75.234375 45.711123
34.875000 88.859375 45.832680
34.500000 87.859375 45.834764
34.600000 86.609375 45.837368
34.650000 85.140625 45.840428
34.650000 84.109375 45.842576
34.725000 83.062500 45.844757
34.925000 81.734375 45.847524
34.900000 80.656250 45.849770
34.775000 79.953125 45.851235
34.925000 78.609375 45.854035
35.150000 77.687500 45.855955
35.325000 76.125000 45.859210
35.575000 75.359375 45.860806
34.925000 89.968750 45.994247
34.525000 88.421875 45.997469
34.575000 87.203125 46.000008
34.575000 86.484375 46.001506
34.625000 85.156250 46.004273
34.675000 83.937500 46.006812
34.800000 82.765625 46.009253
34.850000 81.921875 46.011011
34.850000 80.843750 46.013257
34.900000 79.296875 46.016480
35.000000 78.093750 46.018986
35.250000 76.953125 46.021363
35.425000 75.734375 46.023902
35.700000 74.703125 46.026050
34.650000 89.640625 46.157483
34.425000 88.671875 46.159501
34.575000 87.437500 46.162072
34.650000 86.578125 46.163863
34.700000 85.281250 46.166565
34.725000 83.890625 46.169462
34.775000 82.937500 46.171448
34.875000 81.859375 46.173694
34.950000 80.890625 46.175712
34.925000 79.718750 46.178153
35.050000 78.640625 46.180399
35.275000 77.015625 46.183785
35.475000 76.171875 46.185543
35.750000 75.093750 46.187789
34.675000 89.671875 46.308647
34.450000 88.640625 46.310796
34.600000 87.437500 46.313302
34.650000 86.203125 46.315874
34.700000 85.375000 46.317599
34.725000 84.203125 46.320040
34.825000 83.078125 46.322384
34.925000 81.656250 46.325346
34.950000 80.437500 46.327885
34.925000 79.531250 46.329773
35.050000 78.203125 46.332541
35.275000 77.484375 46.334038
35.475000 76.078125 46.336967
35.750000 74.703125 46.339832
34.550000 88.031250 46.474722
34.675000 87.062500 46.476740
34.700000 85.875000 46.479214
34.775000 84.421875 46.482242
34.825000 83.437500 46.484293
35.050000 82.312500 46.486636
35.000000 81.359375 46.488622
34.775000 79.984375 46.491487
35.000000 78.609375 46.494351
35.325000 77.750000 46.496141
35.475000 76.656250 46.498420
34.825000 89.234375 46.642617
34.650000 88.187500 46.644798
34.700000 86.984375 46.647305
34.750000 86.125000 46.649095
34.800000 85.062500 46.651309
34.850000 83.406250 46.654759
34.950000 82.781250 46.656061
34.975000 81.140625 46.659479
34.900000 80.171875 46.661497
35.000000 79.109375 46.663711
35.250000 77.734375 46.666575
35.475000 77.140625 46.667812
35.675000 75.703125 46.670807
36.075000 74.593750 46.673118
34.800000 89.406250 46.796479
34.675000 87.781250 46.799865
34.700000 86.875000 46.801753
34.750000 86.093750 46.803380
34.825000 84.750000 46.806180
34.900000 83.546875 46.808686
34.975000 82.093750 46.811713
35.025000 80.937500 46.814122
34.900000 80.140625 46.815783
35.025000 78.750000 46.818680
35.375000 78.093750 46.820047
35.525000 76.609375 46.823139
35.750000 75.437500 46.825581
36.300000 74.234375 46.828087
34.875000 89.750000 46.950181
34.650000 88.406250 46.952980
34.675000 87.671875 46.954510
34.750000 86.437500 46.957082
34.825000 85.406250 46.959230
34.925000 84.281250 46.961574
34.900000 83.062500 46.964113
35.050000 81.609375 46.967140
35.075000 80.531250 46.969386
35.050000 79.687500 46.971144
35.325000 78.578125 46.973455
35.550000 77.140625 46.976450
35.675000 76.328125 46.978143
35.950000 74.937500 46.981040
34.875000 89.156250 47.112657
34.700000 88.468750 47.114089
34.725000 87.203125 47.116726
34.825000 85.671875 47.119916
34.875000 84.484375 47.122390
34.900000 83.375000 47.124701
34.975000 82.343750 47.126850
35.125000 81.078125 47.129487
35.150000 80.250000 47.131212
35.225000 79.078125 47.133653
35.425000 77.781250 47.136355
35.600000 76.781250 47.138438
35.800000 75.500000 47.141108
36.325000 74.765625 47.142638
34.900000 89.937500 47.263027
34.775000 88.328125 47.266380
34.675000 87.578125 47.267943
34.825000 86.328125 47.270547
34.975000 85.296875 47.272695
35.075000 84.453125 47.274453
34.950000 83.187500 47.277090
34.875000 81.937500 47.279694
35.225000 80.796875 47.282070
35.450000 79.859375 47.284023
35.450000 78.187500 47.287506
35.600000 77.109375 47.289752
35.825000 76.000000 47.292064
36.125000 75.390625 47.293333
34.950000 89.625000 47.424982
34.750000 88.359375 47.427618
34.925000 87.125000 47.430190
35.000000 85.750000 47.433054
34.775000 84.609375 47.435431
34.675000 83.968750 47.436765
34.825000 82.500000 47.439825
34.950000 81.734375 47.441420
35.375000 80.109375 47.444806
35.525000 79.187500 47.446726
35.550000 78.312500 47.448549
35.725000 77.125000 47.451023
35.925000 75.921875 47.453530
36.500000 75.046875 47.455353
35.025000 89.187500 47.590011
34.825000 88.500000 47.591443
34.950000 87.390625 47.593755
35.075000 86.296875 47.596033
35.000000 85.078125 47.598572
34.700000 83.937500 47.600949
34.675000 82.781250 47.603357
34.925000 81.484375 47.606059
35.250000 80.468750 47.608175
35.550000 78.890625 47.611463
35.750000 78.140625 47.613025
35.900000 76.906250 47.615597
35.200000 89.312500 47.745474
35.000000 88.046875 47.748111
35.075000 87.156250 47.749966
34.875000 83.156250 47.758300
34.725000 82.375000 47.759927
35.000000 81.218750 47.762336
35.500000 80.031250 47.764810
35.800000 78.843750 47.767284
35.850000 77.859375 47.769335
35.975000 76.609375 47.771939
36.225000 75.375000 47.774511
35.150000 88.937500 47.899359
34.925000 87.656250 47.902028
35.150000 86.484375 47.904469
34.950000 83.453125 47.910784
34.800000 81.734375 47.914365
35.425000 78.453125 47.921201
35.950000 77.250000 47.923708
36.075000 76.296875 47.925694
36.400000 75.171875 47.928037
35.100000 88.906250 48.060693
35.125000 87.625000 48.063362
35.225000 86.515625 48.065674
35.100000 85.406250 48.067985
34.800000 84.093750 48.070719
34.775000 82.968750 48.073063
34.925000 81.578125 48.075960
35.500000 78.562500 48.082242
36.075000 77.203125 48.085075
36.250000 76.140625 48.087288
36.625000 74.812500 48.090055
35.300000 88.875000 48.225336
35.075000 87.843750 48.227484
35.200000 86.906250 48.229437
35.025000 83.656250 48.236208
34.925000 82.031250 48.239594
35.225000 81.296875 48.241123
35.825000 80.250000 48.243304
36.550000 79.031250 48.245843
36.550000 77.718750 48.248578
36.275000 76.765625 48.250564
36.525000 75.593750 48.253005
35.275000 89.312500 48.379581
35.125000 88.109375 48.382087
35.300000 86.750000 48.384919
35.125000 83.296875 48.392113
35.000000 82.546875 48.393676
35.325000 81.500000 48.395857
35.875000 80.000000 48.398982
36.525000 79.218750 48.400609
36.625000 78.156250 48.402823
36.450000 76.906250 48.405427
36.600000 75.468750 48.408422
35.575000 89.984375 48.532502
35.375000 89.078125 48.534390
35.125000 88.125000 48.536376
35.375000 86.843750 48.539045
34.950000 85.671875 48.541486
34.725000 84.718750 48.543472
35.075000 83.375000 48.546271
35.275000 82.234375 48.548648
35.625000 80.843750 48.551545
36.100000 79.921875 48.553465
36.625000 78.937500 48.555516
36.625000 77.468750 48.558576
36.500000 76.609375 48.560366
36.700000 75.406250 48.562873
35.225000 87.890625 48.693502
35.425000 86.875000 48.695618
35.200000 85.656250 48.698157
34.925000 84.296875 48.700989
35.075000 83.015625 48.703658
35.500000 82.187500 48.705384
35.950000 81.218750 48.707402
36.475000 79.671875 48.710624
36.825000 78.562500 48.712935
36.600000 77.484375 48.715182
36.525000 76.515625 48.717200
36.775000 75.125000 48.720097
35.025000 89.046875 48.848069
35.250000 87.750000 48.850771
35.425000 86.968750 48.852398
35.250000 85.562500 48.855328
35.000000 84.453125 48.857639
35.175000 82.968750 48.860732
35.575000 82.187500 48.862360
35.975000 81.078125 48.864671
36.625000 80.203125 48.866493
36.950000 78.890625 48.869228
36.700000 77.796875 48.871507
36.600000 76.531250 48.874143
36.775000 75.484375 48.876324
35.450000 89.171875 49.017107
35.400000 87.890625 49.019777
35.500000 87.296875 49.021014
35.425000 85.562500 49.024627
35.625000 84.687500 49.026450
35.600000 83.656250 49.028599
36.650000 78.937500 49.038429
36.775000 78.031250 49.040317
36.700000 76.656250 49.043182
36.700000 75.750000 49.045070
35.425000 89.671875 49.177062
35.425000 88.250000 49.180024
35.550000 87.390625 49.181814
35.625000 85.921875 49.184874
36.075000 85.062500 49.186665
36.925000 79.656250 49.197928
36.850000 77.984375 49.201411
36.700000 77.218750 49.203006
36.800000 75.687500 49.206196
37.150000 75.093750 49.207433
35.475000 88.921875 49.328828
35.575000 87.796875 49.331171
35.625000 86.593750 49.333678
35.775000 85.156250 49.336673
35.475000 84.156250 49.338756
35.375000 83.171875 49.340807
35.925000 81.609375 49.344062
36.400000 81.046875 49.345234
36.875000 79.859375 49.347708
36.875000 78.421875 49.350703
36.725000 77.265625 49.353112
36.875000 75.953125 49.355846
37.100000 75.343750 49.357115
35.825000 89.015625 49.490202
35.475000 87.750000 49.492839
35.650000 86.781250 49.494857
35.550000 85.906250 49.496680
35.350000 84.515625 49.499577
35.350000 83.562500 49.501563
35.725000 81.953125 49.504915
36.200000 81.171875 49.506543
36.700000 80.156250 49.508659
36.925000 78.734375 49.511621
36.775000 77.765625 49.513639
36.800000 76.703125 49.515853
36.975000 75.265625 49.518848
35.850000 89.375000 49.641894
35.500000 88.031250 49.644693
35.700000 87.109375 49.646614
35.575000 85.875000 49.649186
35.375000 84.609375 49.651822
35.350000 83.078125 49.655012
35.650000 82.437500 49.656347
36.175000 81.265625 49.658788
36.750000 80.296875 49.660807
36.950000 79.109375 49.663281
36.775000 77.875000 49.665852
36.775000 76.625000 49.668457
36.975000 75.375000 49.671061
35.850000 89.109375 49.807410
35.500000 87.875000 49.809982
35.700000 86.578125 49.812684
35.575000 85.562500 49.814799
35.375000 84.500000 49.817013
35.350000 83.187500 49.819747
35.625000 82.265625 49.821668
36.175000 81.453125 49.823361
36.750000 79.984375 49.826421
36.925000 79.109375 49.828243
36.750000 78.000000 49.830555
36.775000 76.421875 49.833842
37.050000 75.609375 49.835535
35.850000 89.453125 49.967160
35.525000 88.078125 49.970025
35.725000 86.796875 49.972694
35.625000 85.843750 49.974680
35.425000 84.531250 49.977414
35.400000 83.468750 49.979628
35.600000 82.359375 49.981939
36.075000 80.953125 49.984869
36.750000 79.890625 49.987082
36.900000 78.968750 49.989003
36.725000 77.656250 49.991737
36.750000 76.468750 49.994211
37.050000 75.281250 49.996685
35.800000 89.953125 50.120841
35.900000 88.562500 50.123738
35.825000 87.750000 50.125431
35.850000 86.265625 50.128523
36.225000 85.375000 50.130379
36.900000 79.375000 50.142879
36.850000 78.171875 50.145385
36.600000 77.015625 50.147794
36.825000 76.375000 50.149129
37.225000 74.828125 50.152351
35.900000 90.000000 50.278194
35.900000 88.500000 50.281319
35.850000 87.671875 50.283044
35.875000 86.484375 50.285518
36.075000 85.250000 50.288090
35.850000 84.031250 50.290629
37.050000 79.343750 50.300395
36.875000 78.203125 50.302771
36.650000 77.375000 50.304496
36.875000 76.234375 50.306873
37.275000 75.125000 50.309184
35.775000 89.968750 50.435688
35.775000 88.921875 50.437869
35.850000 87.546875 50.440734
35.850000 86.406250 50.443110
35.950000 85.578125 50.444835
35.775000 84.093750 50.447928
37.025000 79.546875 50.457401
36.825000 78.187500 50.460232
36.575000 77.125000 50.462446
36.800000 76.437500 50.463878
37.200000 75.343750 50.466157
35.525000 88.843750 50.613182
35.750000 87.984375 50.614973
35.925000 87.015625 50.616991
36.050000 85.890625 50.619334
35.900000 84.359375 50.622525
35.675000 83.312500 50.624706
35.850000 82.093750 50.627245
36.400000 81.015625 50.629491
36.800000 80.031250 50.631541
36.650000 78.843750 50.634016
36.500000 77.609375 50.636587
36.650000 76.421875 50.639061
37.125000 75.671875 50.640624
36.400000 89.453125 50.761600
36.275000 87.984375 50.764660
35.900000 87.343750 50.765994
35.975000 86.000000 50.768794
36.075000 84.765625 50.771365
35.900000 83.750000 50.773481
35.900000 82.625000 50.775825
36.475000 81.453125 50.778266
36.925000 80.359375 50.780545
36.775000 79.296875 50.782758
36.500000 77.906250 50.785656
36.625000 76.578125 50.788423
36.925000 75.953125 50.789725
36.075000 88.765625 50.918030
35.850000 87.250000 50.921187
35.950000 86.328125 50.923108
36.150000 85.140625 50.925582
36.100000 83.734375 50.928512
35.925000 83.093750 50.929846
36.325000 81.875000 50.932385
36.800000 80.890625 50.934436
36.725000 79.265625 50.937821
36.525000 78.296875 50.939840
36.600000 77.296875 50.941923
36.875000 76.062500 50.944495
37.300000 75.062500 50.946578
35.600000 88.890625 51.073516
35.825000 87.906250 51.075567
35.950000 86.921875 51.077617
35.975000 85.453125 51.080677
36.075000 84.062500 51.083575
36.125000 82.968750 51.085853
36.275000 82.187500 51.087481
36.675000 80.718750 51.090541
36.975000 80.062500 51.091908
36.750000 78.359375 51.095456
36.500000 77.703125 51.096823
36.675000 76.171875 51.100013
37.125000 75.500000 51.101413
35.450000 88.906250 51.242709
35.775000 87.859375 51.244890
35.925000 86.687500 51.247332
35.975000 85.578125 51.249643
36.025000 84.625000 51.251629
36.125000 83.281250 51.254428
36.325000 82.203125 51.256674
36.625000 81.093750 51.258986
36.925000 79.718750 51.261850
36.750000 78.703125 51.263966
36.475000 77.343750 51.266798
36.650000 76.312500 51.268946
37.100000 75.609375 51.270411
36.325000 88.500000 51.396391
35.925000 87.578125 51.398312
35.975000 86.281250 51.401013
36.025000 85.250000 51.403162
36.025000 83.750000 51.406287
36.125000 83.046875 51.407752
36.450000 81.859375 51.410226
36.775000 80.578125 51.412895
36.650000 79.125000 51.415922
36.400000 78.296875 51.417647
36.425000 76.875000 51.420610
36.725000 75.828125 51.422791
37.400000 75.109375 51.424288
36.075000 88.359375 51.556938
35.850000 87.625000 51.558468
35.950000 86.578125 51.560649
36.050000 85.484375 51.562928
36.000000 84.000000 51.566020
36.075000 82.656250 51.568820
36.450000 82.062500 51.570057
36.775000 80.921875 51.572433
36.625000 79.515625 51.575363
36.325000 78.140625 51.578228
36.275000 76.875000 51.580864
36.625000 76.062500 51.582557
37.300000 74.859375 51.585063
36.250000 88.625000 51.706985
35.900000 87.687500 51.708939
35.950000 85.984375 51.712487
36.050000 85.234375 51.714049
36.025000 83.968750 51.716686
36.100000 83.000000 51.718704
36.425000 81.687500 51.721439
36.775000 80.328125 51.724271
36.600000 79.562500 51.725866
36.350000 78.500000 51.728079
36.475000 77.328125 51.730521
36.775000 75.843750 51.733613
37.275000 75.015625 51.735338
35.575000 88.656250 51.871428
35.800000 87.703125 51.873413
35.900000 86.593750 51.875725
35.975000 85.671875 51.877645
35.975000 83.984375 51.881161
36.025000 83.015625 51.883179
36.350000 81.984375 51.885328
36.725000 80.687500 51.888029
36.900000 79.656250 51.890178
36.700000 78.796875 51.891968
36.475000 77.640625 51.894377
36.675000 76.218750 51.897339
37.100000 75.390625 51.899065
35.375000 89.125000 52.030555
35.725000 88.078125 52.032736
35.900000 86.781250 52.035438
35.975000 85.687500 52.037717
36.025000 84.250000 52.040711
36.050000 83.328125 52.042632
36.375000 81.953125 52.045497
36.725000 80.984375 52.047515
36.900000 79.937500 52.049696
36.725000 78.500000 52.052691
36.475000 77.546875 52.054676
36.650000 76.484375 52.056890
37.075000 75.109375 52.059754
35.800000 88.515625 52.185250
35.825000 87.812500 52.186715
35.925000 86.437500 52.189579
36.000000 84.953125 52.192672
36.000000 84.265625 52.194104
36.050000 82.875000 52.197001
36.400000 81.765625 52.199312
36.750000 80.906250 52.201102
36.600000 79.375000 52.204293
36.325000 78.515625 52.206083
36.375000 77.390625 52.208427
36.625000 75.796875 52.211747
37.100000 74.968750 52.213472
35.525000 88.640625 52.345552
35.725000 87.625000 52.347668
35.875000 86.250000 52.350533
36.000000 85.250000 52.352616
36.000000 84.140625 52.354928
36.000000 83.343750 52.356588
36.325000 82.265625 52.358834
36.700000 80.781250 52.361926
36.975000 79.500000 52.364595
36.775000 78.484375 52.366711
36.400000 77.281250 52.369218
36.525000 76.125000 52.371627
37.000000 75.187500 52.373580
35.475000 88.718750 52.499971
35.675000 88.000000 52.501469
35.800000 86.437500 52.504724
35.875000 85.281250 52.507133
35.775000 84.234375 52.509314
35.625000 83.109375 52.511657
35.950000 81.750000 52.514490
36.450000 81.062500 52.515922
36.900000 79.718750 52.518721
36.700000 78.796875 52.520642
36.350000 77.296875 52.523767
36.475000 76.343750 52.525753
36.950000 75.406250 52.527706
35.775000 88.906250 52.670382
35.450000 87.984375 52.672303
35.675000 86.968750 52.674419
35.575000 85.515625 52.677446
35.250000 84.671875 52.679204
36.450000 78.890625 52.691248
36.300000 77.578125 52.693983
36.350000 76.796875 52.695611
36.700000 75.421875 52.698475
35.425000 88.640625 52.826369
35.475000 87.671875 52.828387
35.625000 86.500000 52.830828
35.300000 85.281250 52.833368
34.975000 84.156250 52.835711
35.000000 83.343750 52.837404
36.550000 78.906250 52.846649
36.325000 77.687500 52.849188
36.425000 76.406250 52.851857
36.825000 75.296875 52.854168
35.325000 90.000000 52.983527
35.500000 88.953125 52.985708
35.425000 87.843750 52.988019
35.725000 86.671875 52.990461
34.825000 84.312500 52.995376
35.075000 82.875000 52.998371
36.625000 78.750000 53.006964
36.350000 77.375000 53.009829
36.475000 76.468750 53.011717
36.825000 75.078125 53.014614
35.300000 88.890625 53.136265
35.175000 88.015625 53.138088
35.275000 86.765625 53.140692
34.950000 85.546875 53.143231
34.700000 84.484375 53.145445
36.350000 78.625000 53.157652
36.275000 77.468750 53.160061
36.325000 76.578125 53.161916
36.575000 75.656250 53.163837
35.525000 89.281250 53.304391
35.525000 88.046875 53.306963
34.975000 84.765625 53.313799
34.900000 83.765625 53.315882
35.350000 82.406250 53.318714
35.625000 81.609375 53.320374
36.050000 80.703125 53.322262
36.600000 79.609375 53.324541
36.500000 78.171875 53.327536
36.250000 76.828125 53.330335
36.425000 75.734375 53.332614
36.875000 74.875000 53.334404
35.275000 88.968750 53.460444
35.025000 87.765625 53.462950
35.025000 86.453125 53.465685
34.750000 85.265625 53.468159
34.850000 81.890625 53.475190
35.425000 81.234375 53.476557
36.125000 79.812500 53.479519
36.350000 78.671875 53.481896
36.275000 77.453125 53.484435
36.225000 76.500000 53.486420
36.300000 75.140625 53.489252
35.225000 89.578125 53.617917
35.150000 88.125000 53.620945
35.100000 87.234375 53.622800
35.400000 86.203125 53.624949
34.500000 83.703125 53.630157
35.000000 82.750000 53.632143
35.375000 81.484375 53.634779
35.875000 80.281250 53.637286
36.450000 79.250000 53.639434
36.425000 78.000000 53.642039
36.225000 76.812500 53.644512
34.975000 89.406250 53.768769
34.850000 88.265625 53.771145
35.050000 86.750000 53.774302
35.300000 85.890625 53.776093
34.450000 83.234375 53.781627
34.925000 82.515625 53.783124
35.350000 81.484375 53.785273
35.775000 80.062500 53.788235
36.250000 79.125000 53.790188
36.275000 77.750000 53.793052
36.075000 76.921875 53.794778
36.175000 75.703125 53.797317
34.950000 89.312500 53.932265
34.775000 88.250000 53.934478
34.975000 86.750000 53.937603
35.200000 86.015625 53.939133
34.350000 83.312500 53.944765
34.625000 82.078125 53.947336
34.950000 80.921875 53.949745
35.550000 79.968750 53.951731
36.225000 79.156250 53.953424
36.250000 77.734375 53.956386
36.050000 76.953125 53.958013
36.150000 75.531250 53.960976
35.000000 89.546875 54.083131
34.925000 88.203125 54.085931
34.900000 87.515625 54.087363
34.575000 85.921875 54.090683
34.150000 84.593750 54.093451
34.150000 83.609375 54.095501
34.325000 82.265625 54.098301
34.625000 81.421875 54.100059
36.050000 76.703125 54.109889
35.925000 75.531250 54.112331
36.350000 74.515625 54.114447
34.675000 89.156250 54.245950
34.800000 87.718750 54.248945
34.425000 84.156250 54.256367
34.150000 83.234375 54.258287
34.350000 81.640625 54.261608
34.700000 80.953125 54.263040
35.400000 77.578125 54.270071
35.850000 76.375000 54.272578
36.050000 75.406250 54.274596
35.025000 89.140625 54.411720
34.775000 88.125000 54.413836
34.775000 87.218750 54.415724
34.575000 85.984375 54.418296
34.375000 84.687500 54.420998
34.300000 83.750000 54.422951
34.275000 82.187500 54.426206
34.550000 81.515625 54.427606
35.175000 77.828125 54.435288
35.675000 76.531250 54.437990
34.675000 88.765625 54.567994
34.525000 87.593750 54.570435
34.750000 86.609375 54.572486
34.450000 85.640625 54.574504
34.375000 84.578125 54.576718
34.450000 83.140625 54.579712
34.325000 82.140625 54.581796
34.650000 80.968750 54.584237
35.125000 80.234375 54.585767
35.375000 78.671875 54.589022
35.475000 77.468750 54.591529
35.675000 76.750000 54.593026
35.925000 75.437500 54.595761
34.725000 86.812500 54.728083
34.625000 85.250000 54.731339
34.850000 84.640625 54.732608
34.750000 83.218750 54.735570
34.325000 82.265625 54.737556
34.650000 81.046875 54.740095
35.100000 80.109375 54.742048
35.325000 79.046875 54.744262
35.450000 77.593750 54.747289
35.650000 76.734375 54.749079
35.900000 75.531250 54.751586
34.850000 89.234375 54.878788
34.575000 87.687500 54.882010
34.625000 87.078125 54.883280
34.675000 85.546875 54.886470
34.700000 84.828125 54.887967
34.625000 83.203125 54.891353
34.550000 82.281250 54.893273
34.725000 81.203125 54.895519
34.925000 80.031250 54.897961
35.150000 79.015625 54.900077
35.425000 77.937500 54.902323
35.575000 76.312500 54.905708
34.725000 89.546875 55.051941
34.525000 88.609375 55.053894
34.550000 87.218750 55.056792
34.600000 85.796875 55.059754
34.650000 85.140625 55.061121
34.650000 84.078125 55.063334
34.675000 82.625000 55.066362
34.850000 81.421875 55.068868
34.900000 80.562500 55.070659
34.950000 79.437500 55.073003
35.175000 78.000000 55.075997
35.375000 77.250000 55.077560
35.550000 75.937500 55.080294
35.950000 74.671875 55.082931
34.750000 89.437500 55.203706
34.500000 88.328125 55.206017
34.550000 87.046875 55.208687
34.575000 85.828125 55.211226
34.600000 84.718750 55.213537
34.625000 83.578125 55.215913
34.675000 82.578125 55.217996
34.775000 81.156250 55.220959
34.800000 80.515625 55.222293
34.925000 78.859375 55.225744
35.150000 77.843750 55.227860
35.350000 76.687500 55.230268
35.575000 75.531250 55.232677
36.000000 74.750000 55.234305
34.575000 88.593750 55.368204
34.400000 87.421875 55.370645
34.500000 86.703125 55.372143
34.575000 85.765625 55.374096
34.600000 84.640625 55.376440
34.650000 83.296875 55.379239
34.800000 82.000000 55.381941
34.825000 81.031250 55.383959
34.750000 79.453125 55.387247
34.900000 78.859375 55.388484
35.150000 77.609375 55.391088
35.350000 76.578125 55.393236
34.575000 89.203125 55.517795
34.475000 88.531250 55.519194
34.525000 87.015625 55.522352
34.550000 86.062500 55.524338
34.600000 84.937500 55.526681
34.600000 83.515625 55.529644
34.650000 82.812500 55.531108
34.650000 81.437500 55.533973
34.650000 80.187500 55.536577
34.775000 79.312500 55.538400
35.000000 78.234375 55.540646
35.275000 76.734375 55.543771
35.450000 75.515625 55.546310
35.775000 74.796875 55.547808
34.700000 89.328125 55.677834
34.475000 88.484375 55.679592
34.525000 87.125000 55.682424
34.525000 86.375000 55.683987
34.575000 84.875000 55.687112
34.650000 83.781250 55.689390
34.675000 82.468750 55.692125
34.675000 81.750000 55.693622
34.675000 80.546875 55.696129
34.750000 79.250000 55.698830
34.975000 78.406250 55.700588
35.125000 76.781250 55.703974
35.325000 76.093750 55.705406
35.700000 74.875000 55.707945
34.750000 89.812500 55.842088
34.400000 88.203125 55.845441
34.525000 87.640625 55.846613
34.525000 86.343750 55.849315
34.600000 85.046875 55.852017
34.700000 84.265625 55.853645
34.700000 83.062500 55.856151
34.775000 81.687500 55.859016
34.800000 80.390625 55.861717
34.825000 79.187500 55.864224
34.950000 78.203125 55.866275
35.150000 77.265625 55.868228
35.325000 76.046875 55.870767
35.600000 74.656250 55.873664
34.600000 86.906250 55.998407
34.600000 85.953125 56.000393
34.625000 85.000000 56.002379
34.675000 83.796875 56.004885
34.850000 82.156250 56.008303
34.775000 81.375000 56.009931
34.675000 79.781250 56.013251
34.825000 78.937500 56.015009
34.975000 77.812500 56.017353
35.200000 76.937500 56.019176
35.425000 75.609375 56.021942
35.825000 74.343750 56.024579
34.850000 88.484375 56.156047
34.525000 87.359375 56.158391
34.575000 86.093750 56.161027
34.650000 84.968750 56.163371
34.675000 84.078125 56.165227
34.700000 82.796875 56.167896
34.775000 81.625000 56.170337
34.800000 80.515625 56.172649
34.825000 79.781250 56.174179
34.925000 78.171875 56.177531
35.125000 77.437500 56.179061
35.325000 76.125000 56.181796
35.600000 75.093750 56.183944
35.000000 89.750000 56.307973
34.525000 88.234375 56.311131
34.525000 87.531250 56.312596
34.550000 86.468750 56.314809
34.600000 85.328125 56.317185
34.675000 83.625000 56.320734
34.775000 82.921875 56.322199
34.775000 81.437500 56.325291
34.725000 80.234375 56.327797
34.800000 79.062500 56.330239
34.975000 78.500000 56.331411
35.175000 77.234375 56.334048
35.375000 76.140625 56.336326
35.725000 74.781250 56.339158
34.600000 86.843750 56.493021
34.600000 86.125000 56.494519
34.625000 84.656250 56.497579
34.675000 83.406250 56.500183
34.875000 82.671875 56.501713
34.800000 81.500000 56.504154
34.700000 79.953125 56.507377
34.850000 78.796875 56.509786
35.100000 77.984375 56.511478
35.350000 76.421875 56.514734
35.475000 75.750000 56.516133
35.850000 74.500000 56.518738
34.675000 88.640625 56.637585
34.500000 87.781250 56.639376
34.600000 86.890625 56.641231
34.625000 85.078125 56.645007
34.725000 84.187500 56.646863
34.800000 82.937500 56.649467
34.975000 82.125000 56.651160
34.925000 80.625000 56.654284
34.800000 79.781250 56.656042
35.000000 78.843750 56.657995
35.225000 77.250000 56.661316
35.400000 76.046875 56.663822
35.650000 75.109375 56.665775
34.575000 86.953125 56.795880
34.675000 85.593750 56.798712
34.725000 84.796875 56.800373
34.800000 83.515625 56.803042
35.050000 82.203125 56.805776
35.050000 81.343750 56.807566
34.900000 80.093750 56.810171
34.975000 79.015625 56.812417
35.250000 77.906250 56.814728
35.475000 76.250000 56.818178
35.600000 75.218750 56.820327
36.200000 74.625000 56.821564
34.350000 88.156250 56.950521
34.600000 87.484375 56.951921
34.700000 86.000000 56.955014
34.700000 84.906250 56.957292
34.750000 83.656250 56.959896
34.850000 82.562500 56.962175
34.875000 81.515625 56.964356
34.900000 80.359375 56.966765
34.900000 79.390625 56.968783
35.000000 78.468750 56.970704
35.300000 77.250000 56.973243
35.500000 76.109375 56.975619
35.750000 75.078125 56.977767
34.800000 89.562500 57.104377
34.625000 88.546875 57.106493
34.575000 87.500000 57.108674
34.700000 86.750000 57.110236
34.725000 85.406250 57.113036
34.775000 83.937500 57.116096
34.900000 82.828125 57.118407
35.125000 81.656250 57.120848
35.150000 80.437500 57.123387
34.950000 79.687500 57.124950
35.100000 78.156250 57.128140
35.325000 77.562500 57.129377
35.525000 75.968750 57.132697
35.850000 75.234375 57.134227
34.600000 89.875000 57.258496
34.450000 88.468750 57.261426
34.675000 87.515625 57.263412
34.700000 85.921875 57.266732
34.775000 85.187500 57.268262
34.825000 83.718750 57.271322
34.900000 82.578125 57.273698
35.125000 81.656250 57.275619
35.100000 80.656250 57.277702
35.025000 79.468750 57.280176
35.250000 77.906250 57.283431
35.425000 76.812500 57.285710
35.625000 75.671875 57.288086
35.950000 74.750000 57.290007
34.750000 89.078125 57.431325
34.625000 88.343750 57.432855
34.700000 87.218750 57.435199
34.800000 85.625000 57.438519
34.850000 84.656250 57.440537
34.900000 83.734375 57.442458
34.975000 82.281250 57.445485
35.175000 81.453125 57.447210
35.175000 80.015625 57.450205
35.150000 78.671875 57.453005
35.350000 77.796875 57.454828
35.575000 76.656250 57.457204
35.800000 75.875000 57.458831
36.300000 74.453125 57.461794
34.800000 89.593750 57.584188
34.700000 88.421875 57.586629
34.725000 87.562500 57.588419
34.775000 86.062500 57.591544
34.850000 85.062500 57.593628
34.875000 84.171875 57.595483
34.875000 83.218750 57.597469
34.975000 81.656250 57.600724
35.025000 80.640625 57.602840
35.100000 79.187500 57.605867
35.325000 78.093750 57.608146
35.550000 77.218750 57.609969
35.750000 75.812500 57.612898
36.075000 74.703125 57.615210
34.650000 88.625000 57.747421
34.575000 87.890625 57.748951
34.850000 86.421875 57.752011
34.950000 85.812500 57.753280
34.900000 84.671875 57.755656
34.900000 83.125000 57.758879
34.975000 81.953125 57.761321
35.200000 80.750000 57.763827
35.375000 79.906250 57.765585
35.375000 78.828125 57.767831
35.575000 77.812500 57.769947
35.775000 76.656250 57.772356
36.050000 75.406250 57.774960
34.875000 88.828125 57.909527
34.775000 87.828125 57.911610
34.900000 87.000000 57.913335
35.000000 85.875000 57.915679
34.925000 84.671875 57.918185
34.800000 83.609375 57.920399
34.825000 81.984375 57.923784
35.000000 81.453125 57.924891
35.275000 79.828125 57.928277
35.425000 78.703125 57.930620
35.600000 77.531250 57.933062
35.825000 76.421875 57.935373
36.025000 75.562500 57.937163
35.175000 89.250000 58.058631
34.875000 87.796875 58.061658
34.925000 87.125000 58.063058
35.025000 86.171875 58.065044
34.975000 84.937500 58.067616
34.700000 83.453125 58.070708
34.675000 82.609375 58.072466
34.950000 81.000000 58.075819
35.450000 80.171875 58.077544
35.625000 78.859375 58.080278
35.600000 77.875000 58.082329
35.850000 76.968750 58.084217
34.700000 88.859375 58.219756
34.850000 87.671875 58.222230
35.050000 86.640625 58.224379
34.900000 83.281250 58.231377
34.775000 82.156250 58.233721
35.075000 81.078125 58.235967
35.650000 79.500000 58.239255
35.900000 78.812500 58.240687
35.850000 77.546875 58.243324
36.000000 76.031250 58.246482
36.325000 75.375000 58.247849
35.025000 88.781250 58.376789
34.850000 88.031250 58.378351
35.050000 86.546875 58.381444
34.900000 83.000000 58.388833
34.775000 81.859375 58.391209
35.375000 78.406250 58.398403
35.925000 77.359375 58.400584
36.025000 76.484375 58.402407
36.350000 74.968750 58.405565
35.225000 89.218750 58.532029
35.025000 88.109375 58.534340
35.150000 87.015625 58.536619
34.975000 83.343750 58.544268
34.800000 82.234375 58.546580
34.975000 81.093750 58.548956
35.475000 80.015625 58.551202
36.200000 79.296875 58.552699
36.300000 77.937500 58.555532
36.125000 76.687500 58.558136
36.325000 75.406250 58.560805
35.475000 90.015625 58.702332
35.300000 89.000000 58.704448
35.025000 87.921875 58.706694
35.225000 86.703125 58.709233
34.850000 85.718750 58.711284
34.800000 84.281250 58.714279
35.000000 83.312500 58.716297
34.875000 82.109375 58.718803
35.175000 81.062500 58.720984
35.800000 80.187500 58.722807
36.450000 78.875000 58.725542
36.400000 77.453125 58.728504
36.200000 76.640625 58.730197
36.450000 75.234375 58.733126
35.075000 88.015625 58.866978
35.300000 86.796875 58.869517
34.875000 85.140625 58.872968
34.600000 84.234375 58.874856
34.925000 83.343750 58.876711
35.100000 81.968750 58.879576
35.350000 80.796875 58.882017
35.925000 79.640625 58.884426
36.625000 78.859375 58.886054
36.600000 77.468750 58.888951
36.350000 76.625000 58.890709
36.575000 75.250000 58.893573
35.300000 88.437500 59.015426
35.300000 87.406250 59.017575
35.375000 86.109375 59.020276
35.550000 85.250000 59.022067
35.250000 83.687500 59.025322
35.050000 82.578125 59.027633
35.375000 81.859375 59.029130
35.775000 80.453125 59.032060
36.475000 79.531250 59.033981
36.825000 78.578125 59.035966
36.575000 77.234375 59.038766
36.500000 75.937500 59.041468
36.875000 74.953125 59.043519
35.100000 89.578125 59.175398
35.075000 88.750000 59.177123
35.325000 87.562500 59.179597
35.400000 86.156250 59.182527
35.825000 85.359375 59.184187
35.125000 82.937500 59.189233
35.725000 81.468750 59.192292
36.100000 80.718750 59.193855
36.600000 79.390625 59.196622
36.900000 78.328125 59.198835
36.600000 76.890625 59.201830
36.525000 75.750000 59.204206
36.900000 74.781250 59.206225
35.450000 89.000000 59.327906
35.225000 88.187500 59.329599
35.475000 87.015625 59.332040
35.050000 85.531250 59.335133
34.825000 84.578125 59.337118
35.125000 83.187500 59.340015
35.350000 82.140625 59.342196
35.825000 81.296875 59.343954
36.425000 80.312500 59.346005
36.775000 78.734375 59.349293
36.700000 77.593750 59.351669
36.575000 76.453125 59.354045
36.750000 75.328125 59.356389
35.400000 88.375000 59.495356
35.450000 87.437500 59.497309
35.525000 86.187500 59.499913
35.725000 85.265625 59.501834
35.500000 84.156250 59.504145
35.350000 83.203125 59.506130
35.825000 81.578125 59.509516
36.200000 80.734375 59.511274
36.700000 79.765625 59.513292
36.925000 78.687500 59.515538
36.725000 77.375000 59.518272
36.700000 76.406250 59.520291
37.000000 75.296875 59.522602
35.225000 89.640625 59.653040
35.300000 88.687500 59.655025
35.525000 87.578125 59.657337
35.575000 86.187500 59.660234
36.000000 85.046875 59.662610
35.250000 83.062500 59.666744
35.750000 81.906250 59.669153
36.375000 80.453125 59.672180
37.000000 79.515625 59.674134
37.025000 78.031250 59.677226
36.750000 77.171875 59.679016
36.775000 75.984375 59.681490
37.000000 74.781250 59.683997
35.675000 89.234375 59.804333
35.375000 87.828125 59.807263
35.600000 86.656250 59.809704
35.350000 85.609375 59.811885
35.050000 84.468750 59.814261
35.225000 83.203125 59.816898
35.650000 82.250000 59.818884
36.000000 81.140625 59.821195
36.575000 79.890625 59.823799
36.925000 78.828125 59.826013
36.825000 77.750000 59.828259
36.800000 76.859375 59.830114
36.925000 75.656250 59.832621
35.600000 89.734375 59.963912
35.625000 88.421875 59.966646
35.600000 87.078125 59.969445
35.350000 83.734375 59.976412
36.875000 79.375000 59.985494
36.900000 78.390625 59.987544
36.750000 76.828125 59.990800
36.900000 75.609375 59.993339
37.375000 74.968750 59.994673
35.300000 88.671875 60.122965
35.550000 87.796875 60.124788
35.650000 86.421875 60.127653
35.725000 85.796875 60.128955
35.500000 84.234375 60.132210
35.400000 83.109375 60.134554
35.825000 82.078125 60.136702
36.400000 80.765625 60.139436
36.775000 79.984375 60.141064
36.800000 78.562500 60.144026
36.700000 77.500000 60.146240
36.775000 76.343750 60.148649
37.000000 75.500000 60.150407
35.950000 88.859375 60.289851
35.475000 87.812500 60.292032
35.650000 86.671875 60.294408
35.650000 85.734375 60.296361
35.450000 84.562500 60.298803
35.400000 83.062500 60.301928
