25.900000 87.531250 3.309734
25.900000 86.953125 3.309734
25.925000 85.578125 3.309734
25.950000 83.171875 3.309734
26.050000 82.375000 3.309734
26.000000 81.859375 3.309734
25.825000 80.265625 3.309734
27.200000 74.687500 3.309734
27.500000 72.859375 3.309734
27.475000 71.421875 3.309734
27.675000 71.046875 3.309734
27.850000 69.828125 3.309734
25.875000 87.531250 3.478158
25.925000 86.281250 3.478158
25.975000 84.562500 3.478158
26.125000 83.421875 3.478158
26.450000 83.156250 3.478158
25.775000 80.281250 3.478158
27.200000 74.390625 3.478158
27.475000 72.984375 3.478158
27.550000 71.312500 3.478158
27.750000 70.187500 3.478158
28.025000 69.937500 3.478158
26.025000 87.234375 3.637176
26.125000 86.453125 3.637176
26.175000 85.203125 3.637176
26.225000 84.406250 3.637176
26.450000 82.125000 3.637176
25.775000 80.546875 3.637176
27.175000 74.078125 3.637176
27.425000 72.937500 3.637176
27.525000 71.453125 3.637176
27.725000 70.500000 3.637176
27.975000 69.875000 3.637176
26.300000 90.375000 3.804201
26.275000 87.906250 3.804201
26.100000 87.953125 3.804201
26.025000 86.703125 3.804201
26.075000 85.578125 3.804201
26.300000 84.046875 3.804201
26.425000 83.531250 3.804201
26.175000 81.562500 3.804201
25.875000 80.515625 3.804201
26.025000 79.625000 3.804201
26.325000 78.093750 3.804201
26.650000 77.765625 3.804201
27.025000 76.796875 3.804201
27.500000 75.515625 3.804201
27.600000 74.140625 3.804201
27.425000 73.296875 3.804201
27.400000 72.562500 3.804201
27.550000 71.593750 3.804201
27.875000 70.218750 3.804201
26.275000 88.578125 3.966423
26.125000 86.625000 3.966423
26.000000 86.031250 3.966423
26.150000 86.093750 3.966423
26.300000 84.015625 3.966423
26.375000 83.468750 3.966423
26.225000 81.953125 3.966423
25.925000 80.437500 3.966423
25.875000 78.796875 3.966423
27.500000 76.296875 3.966423
27.525000 74.734375 3.966423
27.375000 73.343750 3.966423
27.375000 72.062500 3.966423
27.525000 71.390625 3.966423
26.300000 88.968750 4.133317
26.125000 87.578125 4.133317
26.050000 87.156250 4.133317
26.275000 85.984375 4.133317
26.375000 84.953125 4.133317
26.475000 83.703125 4.133317
26.450000 81.875000 4.133317
26.125000 81.562500 4.133317
25.975000 80.187500 4.133317
27.550000 75.984375 4.133317
27.575000 74.656250 4.133317
27.325000 73.687500 4.133317
27.350000 73.078125 4.133317
27.475000 72.062500 4.133317
27.750000 70.093750 4.133317
28.225000 68.984375 4.133317
26.500000 88.796875 4.292473
26.225000 88.125000 4.292473
26.175000 86.843750 4.292473
26.375000 86.109375 4.292473
26.400000 84.250000 4.292473
26.475000 83.031250 4.292473
26.300000 82.453125 4.292473
26.050000 81.281250 4.292473
26.000000 80.437500 4.292473
27.525000 76.125000 4.292473
27.475000 74.109375 4.292473
27.275000 73.609375 4.292473
27.350000 72.531250 4.292473
27.500000 70.812500 4.292473
19.075000 90.515625 4.460385
26.400000 88.953125 4.460385
26.125000 87.015625 4.460385
26.050000 87.046875 4.460385
26.275000 85.953125 4.460385
26.375000 84.203125 4.460385
26.450000 82.640625 4.460385
26.575000 82.906250 4.460385
26.375000 81.046875 4.460385
27.450000 76.421875 4.460385
27.375000 74.437500 4.460385
27.225000 73.546875 4.460385
27.275000 72.265625 4.460385
27.425000 71.718750 4.460385
26.500000 86.656250 4.617574
26.300000 85.953125 4.617574
26.400000 84.796875 4.617574
26.450000 84.140625 4.617574
26.500000 82.718750 4.617574
26.575000 81.781250 4.617574
26.425000 80.531250 4.617574
26.400000 79.609375 4.617574
26.725000 78.875000 4.617574
27.100000 77.453125 4.617574
27.475000 76.453125 4.617574
27.650000 75.078125 4.617574
27.425000 74.437500 4.617574
27.250000 72.500000 4.617574
27.400000 71.546875 4.617574
27.650000 70.953125 4.617574
28.025000 69.468750 4.617574
26.600000 87.390625 4.787613
26.325000 86.406250 4.787613
26.425000 84.890625 4.787613
26.450000 84.437500 4.787613
26.500000 82.437500 4.787613
26.550000 82.015625 4.787613
26.550000 80.093750 4.787613
26.625000 79.578125 4.787613
26.825000 78.125000 4.787613
27.200000 77.765625 4.787613
27.575000 75.968750 4.787613
27.425000 74.515625 4.787613
27.150000 74.218750 4.787613
27.225000 72.562500 4.787613
27.425000 71.531250 4.787613
27.700000 70.640625 4.787613
28.050000 70.250000 4.787613
26.550000 89.062500 4.948595
26.350000 87.843750 4.948595
26.125000 86.000000 4.948595
26.300000 85.875000 4.948595
26.425000 84.125000 4.948595
26.475000 82.703125 4.948595
26.525000 82.453125 4.948595
26.550000 81.203125 4.948595
26.575000 79.234375 4.948595
26.750000 79.328125 4.948595
27.050000 77.828125 4.948595
27.350000 76.656250 4.948595
27.500000 75.125000 4.948595
27.300000 74.937500 4.948595
27.125000 73.250000 4.948595
18.850000 90.703125 5.113543
26.425000 88.390625 5.113543
26.100000 88.156250 5.113543
26.125000 87.234375 5.113543
26.325000 86.531250 5.113543
26.425000 85.343750 5.113543
26.500000 83.109375 5.113543
26.525000 82.875000 5.113543
26.550000 81.812500 5.113543
26.550000 80.109375 5.113543
26.675000 79.265625 5.113543
26.950000 78.812500 5.113543
27.275000 77.500000 5.113543
27.450000 76.140625 5.113543
27.250000 74.125000 5.113543
27.075000 73.578125 5.113543
27.475000 70.140625 5.113543
28.150000 69.265625 5.113543
26.775000 88.546875 5.275822
26.525000 86.609375 5.275822
26.250000 86.937500 5.275822
26.375000 85.609375 5.275822
26.425000 84.500000 5.275822
26.475000 82.484375 5.275822
26.500000 82.484375 5.275822
26.525000 80.546875 5.275822
26.650000 80.515625 5.275822
26.825000 78.656250 5.275822
27.050000 78.281250 5.275822
27.350000 76.734375 5.275822
27.575000 75.843750 5.275822
27.375000 73.796875 5.275822
27.100000 73.578125 5.275822
27.250000 72.625000 5.275822
27.500000 71.000000 5.275822
27.875000 70.046875 5.275822
26.300000 86.640625 5.440274
26.400000 84.609375 5.440274
26.475000 84.593750 5.440274
26.500000 83.093750 5.440274
26.525000 82.062500 5.440274
26.575000 80.796875 5.440274
26.925000 77.343750 5.440274
27.400000 76.734375 5.440274
27.325000 75.296875 5.440274
27.150000 74.625000 5.440274
27.200000 73.718750 5.440274
27.325000 71.812500 5.440274
27.600000 71.171875 5.440274
28.000000 70.140625 5.440274
26.400000 86.593750 5.602591
26.400000 84.765625 5.602591
26.450000 84.250000 5.602591
26.500000 82.468750 5.602591
26.550000 82.187500 5.602591
26.575000 80.375000 5.602591
26.700000 80.218750 5.602591
27.025000 79.203125 5.602591
27.275000 77.031250 5.602591
27.400000 76.218750 5.602591
27.325000 75.375000 5.602591
27.150000 74.640625 5.602591
27.200000 73.234375 5.602591
27.300000 71.468750 5.602591
26.925000 89.359375 5.767918
26.250000 86.265625 5.767918
26.375000 85.734375 5.767918
26.450000 83.375000 5.767918
26.500000 83.437500 5.767918
26.475000 82.062500 5.767918
26.525000 81.093750 5.767918
26.625000 79.890625 5.767918
26.825000 78.343750 5.767918
27.125000 77.781250 5.767918
27.350000 76.750000 5.767918
27.600000 75.843750 5.767918
27.425000 74.156250 5.767918
27.150000 73.250000 5.767918
27.300000 72.328125 5.767918
26.825000 87.859375 5.921841
26.525000 86.296875 5.921841
26.200000 86.406250 5.921841
26.250000 84.203125 5.921841
26.350000 83.531250 5.921841
26.250000 81.796875 5.921841
26.025000 81.187500 5.921841
26.175000 81.265625 5.921841
27.375000 77.000000 5.921841
27.525000 75.234375 5.921841
27.350000 73.703125 5.921841
27.200000 73.265625 5.921841
27.275000 71.843750 5.921841
19.125000 90.437500 6.091639
26.575000 89.218750 6.091639
26.100000 86.703125 6.091639
26.225000 85.890625 6.091639
26.275000 84.140625 6.091639
26.075000 83.875000 6.091639
25.725000 81.218750 6.091639
25.800000 81.515625 6.091639
26.000000 79.578125 6.091639
27.550000 75.750000 6.091639
27.425000 74.796875 6.091639
27.200000 72.875000 6.091639
27.250000 72.375000 6.091639
27.375000 71.000000 6.091639
26.275000 88.781250 6.247098
26.150000 87.953125 6.247098
25.900000 87.281250 6.247098
26.075000 85.828125 6.247098
26.200000 84.375000 6.247098
25.925000 83.984375 6.247098
25.550000 82.171875 6.247098
25.575000 81.562500 6.247098
27.375000 75.312500 6.247098
27.300000 74.703125 6.247098
27.200000 73.421875 6.247098
27.225000 72.312500 6.247098
27.300000 70.984375 6.247098
26.125000 89.796875 6.417223
26.000000 87.859375 6.417223
25.825000 87.375000 6.417223
25.950000 85.671875 6.417223
25.975000 84.937500 6.417223
25.750000 83.546875 6.417223
25.425000 81.828125 6.417223
25.450000 81.093750 6.417223
27.275000 75.296875 6.417223
27.150000 73.625000 6.417223
27.175000 72.609375 6.417223
27.325000 71.312500 6.417223
25.975000 89.640625 6.589065
25.850000 88.187500 6.589065
25.800000 86.890625 6.589065
25.925000 86.015625 6.589065
25.950000 85.234375 6.589065
25.675000 82.515625 6.589065
25.375000 82.781250 6.589065
25.450000 80.609375 6.589065
27.325000 75.375000 6.589065
27.225000 73.421875 6.589065
27.175000 72.609375 6.589065
27.300000 71.000000 6.589065
27.525000 70.921875 6.589065
27.975000 68.984375 6.589065
26.200000 89.171875 6.743478
26.075000 86.500000 6.743478
25.800000 85.812500 6.743478
25.850000 84.640625 6.743478
26.050000 84.203125 6.743478
25.350000 82.046875 6.743478
25.525000 80.750000 6.743478
25.700000 79.687500 6.743478
27.350000 74.312500 6.743478
27.200000 72.640625 6.743478
27.225000 72.187500 6.743478
27.375000 71.218750 6.743478
19.275000 90.796875 6.915544
25.625000 87.140625 6.915544
25.625000 86.109375 6.915544
25.850000 85.375000 6.915544
25.575000 82.250000 6.915544
27.400000 73.468750 6.915544
27.225000 72.578125 6.915544
27.300000 72.171875 6.915544
27.400000 70.437500 6.915544
27.650000 69.531250 6.915544
25.625000 87.671875 7.069170
25.775000 86.375000 7.069170
25.825000 85.078125 7.069170
26.025000 83.609375 7.069170
25.175000 80.468750 7.069170
25.400000 79.562500 7.069170
25.750000 79.281250 7.069170
27.425000 74.265625 7.069170
27.250000 73.250000 7.069170
27.275000 71.718750 7.069170
27.325000 70.859375 7.069170
27.600000 69.250000 7.069170
25.850000 88.046875 7.244309
25.675000 87.890625 7.244309
25.625000 86.359375 7.244309
25.775000 86.015625 7.244309
25.825000 85.078125 7.244309
25.900000 83.671875 7.244309
25.175000 81.421875 7.244309
25.350000 80.750000 7.244309
25.650000 79.562500 7.244309
26.025000 77.859375 7.244309
27.425000 73.859375 7.244309
27.225000 72.781250 7.244309
27.225000 71.578125 7.244309
27.325000 70.296875 7.244309
27.600000 69.828125 7.244309
25.925000 88.343750 7.397048
25.675000 87.187500 7.397048
25.675000 86.093750 7.397048
25.800000 84.515625 7.397048
25.100000 80.718750 7.397048
25.325000 79.671875 7.397048
27.300000 73.296875 7.397048
27.175000 72.390625 7.397048
27.200000 70.781250 7.397048
27.375000 69.812500 7.397048
19.325000 90.656250 7.567599
25.625000 89.015625 7.567599
25.425000 87.875000 7.567599
25.475000 87.328125 7.567599
25.675000 85.265625 7.567599
25.775000 84.218750 7.567599
25.825000 83.593750 7.567599
24.975000 80.546875 7.567599
25.050000 79.890625 7.567599
25.200000 78.765625 7.567599
27.200000 73.140625 7.567599
27.125000 71.781250 7.567599
26.250000 89.093750 7.722904
26.125000 87.328125 7.722904
25.625000 86.250000 7.722904
25.575000 86.484375 7.722904
25.775000 84.546875 7.722904
25.500000 83.906250 7.722904
25.100000 80.984375 7.722904
25.150000 79.734375 7.722904
25.325000 77.625000 7.722904
27.225000 72.296875 7.722904
27.075000 72.546875 7.722904
27.175000 71.140625 7.722904
27.350000 69.578125 7.722904
25.575000 88.109375 7.897476
25.400000 87.140625 7.897476
25.500000 86.500000 7.897476
25.650000 84.875000 7.897476
25.400000 80.140625 7.897476
25.125000 80.281250 7.897476
25.200000 78.640625 7.897476
25.375000 78.093750 7.897476
25.675000 76.500000 7.897476
26.875000 73.078125 7.897476
26.900000 70.875000 7.897476
27.100000 69.984375 7.897476
27.450000 69.546875 7.897476
25.725000 88.031250 8.047050
25.600000 86.234375 8.047050
25.400000 86.390625 8.047050
25.600000 85.203125 8.047050
25.775000 83.921875 8.047050
25.725000 83.218750 8.047050
25.425000 81.218750 8.047050
25.150000 80.906250 8.047050
25.150000 78.859375 8.047050
25.350000 77.125000 8.047050
26.550000 73.562500 8.047050
26.650000 72.921875 8.047050
26.850000 71.484375 8.047050
27.050000 71.234375 8.047050
27.350000 69.484375 8.047050
25.200000 87.093750 8.225425
25.300000 85.921875 8.225425
25.350000 85.187500 8.225425
25.575000 83.718750 8.225425
25.500000 79.812500 8.225425
25.250000 79.515625 8.225425
25.250000 78.890625 8.225425
25.450000 78.093750 8.225425
25.825000 75.859375 8.225425
26.225000 75.140625 8.225425
26.400000 74.640625 8.225425
26.500000 73.671875 8.225425
26.700000 72.468750 8.225425
26.925000 71.703125 8.225425
25.175000 87.890625 8.374145
25.275000 85.015625 8.374145
25.325000 84.828125 8.374145
25.475000 83.531250 8.374145
25.575000 82.953125 8.374145
25.600000 82.796875 8.374145
25.600000 80.968750 8.374145
25.425000 78.625000 8.374145
25.325000 78.390625 8.374145
25.775000 74.890625 8.374145
26.300000 74.437500 8.374145
26.500000 73.859375 8.374145
26.700000 72.250000 8.374145
26.900000 70.781250 8.374145
25.500000 87.625000 8.545424
25.250000 87.171875 8.545424
25.300000 86.078125 8.545424
25.350000 85.015625 8.545424
25.475000 83.875000 8.545424
25.550000 82.687500 8.545424
25.575000 81.812500 8.545424
25.625000 79.687500 8.545424
25.625000 79.171875 8.545424
25.700000 77.984375 8.545424
25.925000 77.031250 8.545424
26.025000 76.171875 8.545424
26.125000 74.187500 8.545424
26.350000 73.421875 8.545424
26.550000 72.187500 8.545424
26.725000 70.750000 8.545424
25.575000 88.093750 8.716213
25.425000 87.718750 8.716213
25.325000 86.187500 8.716213
25.300000 84.281250 8.716213
25.325000 83.406250 8.716213
25.450000 82.437500 8.716213
25.650000 82.125000 8.716213
25.650000 80.093750 8.716213
25.750000 80.000000 8.716213
25.900000 78.640625 8.716213
25.875000 77.328125 8.716213
25.875000 76.437500 8.716213
26.025000 74.921875 8.716213
26.225000 73.140625 8.716213
26.425000 72.890625 8.716213
26.625000 71.390625 8.716213
26.825000 70.453125 8.716213
27.175000 69.843750 8.716213
25.625000 89.296875 8.871357
25.475000 87.421875 8.871357
25.300000 87.250000 8.871357
25.300000 85.500000 8.871357
25.300000 85.171875 8.871357
25.325000 84.171875 8.871357
25.350000 82.437500 8.871357
25.450000 81.968750 8.871357
25.575000 80.953125 8.871357
25.675000 79.000000 8.871357
25.925000 78.093750 8.871357
25.950000 77.500000 8.871357
25.850000 75.968750 8.871357
26.000000 75.453125 8.871357
26.200000 74.078125 8.871357
26.400000 72.656250 8.871357
26.600000 72.000000 8.871357
26.800000 70.562500 8.871357
27.150000 69.796875 8.871357
25.500000 88.421875 9.042305
25.250000 88.218750 9.042305
25.275000 86.953125 9.042305
25.325000 84.812500 9.042305
25.400000 84.750000 9.042305
25.400000 82.031250 9.042305
25.325000 82.078125 9.042305
25.450000 80.609375 9.042305
25.575000 79.281250 9.042305
25.700000 79.250000 9.042305
25.825000 77.578125 9.042305
25.825000 75.593750 9.042305
25.925000 75.984375 9.042305
26.075000 75.046875 9.042305
26.250000 73.234375 9.042305
26.450000 72.781250 9.042305
26.625000 71.531250 9.042305
25.525000 90.140625 9.200474
25.450000 88.234375 9.200474
25.300000 87.531250 9.200474
25.300000 85.281250 9.200474
25.300000 85.484375 9.200474
25.325000 83.812500 9.200474
25.425000 82.140625 9.200474
25.425000 80.421875 9.200474
25.525000 81.125000 9.200474
25.725000 78.687500 9.200474
25.900000 78.171875 9.200474
25.925000 77.093750 9.200474
25.800000 75.906250 9.200474
25.975000 75.312500 9.200474
26.150000 74.328125 9.200474
26.300000 72.296875 9.200474
26.475000 71.328125 9.200474
26.700000 70.437500 9.200474
25.550000 87.328125 9.357848
25.325000 87.953125 9.357848
25.350000 85.234375 9.357848
25.450000 85.968750 9.357848
25.400000 84.843750 9.357848
25.325000 83.843750 9.357848
25.425000 82.515625 9.357848
25.625000 81.234375 9.357848
25.675000 78.828125 9.357848
25.725000 78.453125 9.357848
25.750000 78.015625 9.357848
25.775000 75.531250 9.357848
25.900000 75.515625 9.357848
26.050000 74.859375 9.357848
26.225000 72.546875 9.357848
26.425000 72.750000 9.357848
26.600000 70.390625 9.357848
26.800000 69.937500 9.357848
27.175000 69.078125 9.357848
25.925000 89.734375 9.528050
25.525000 87.796875 9.528050
25.275000 86.671875 9.528050
25.300000 86.421875 9.528050
25.400000 85.375000 9.528050
25.500000 84.281250 9.528050
25.525000 82.890625 9.528050
25.625000 80.593750 9.528050
25.725000 80.453125 9.528050
25.750000 78.687500 9.528050
25.875000 78.140625 9.528050
25.975000 77.125000 9.528050
25.950000 75.640625 9.528050
26.000000 74.453125 9.528050
26.175000 74.109375 9.528050
26.325000 72.890625 9.528050
26.500000 70.984375 9.528050
26.675000 70.171875 9.528050
27.000000 69.453125 9.528050
25.625000 87.968750 9.700455
25.475000 87.890625 9.700455
25.450000 86.328125 9.700455
25.475000 85.187500 9.700455
25.500000 83.328125 9.700455
25.525000 83.421875 9.700455
25.600000 80.843750 9.700455
25.650000 80.500000 9.700455
25.750000 79.906250 9.700455
26.000000 79.234375 9.700455
26.000000 77.203125 9.700455
25.825000 75.453125 9.700455
25.925000 74.328125 9.700455
26.075000 73.796875 9.700455
26.250000 73.500000 9.700455
26.425000 72.468750 9.700455
26.600000 71.531250 9.700455
25.400000 87.078125 9.855468
25.375000 85.890625 9.855468
25.400000 84.671875 9.855468
25.525000 84.578125 9.855468
25.525000 82.390625 9.855468
25.625000 81.953125 9.855468
25.725000 80.343750 9.855468
25.750000 78.656250 9.855468
25.925000 78.625000 9.855468
25.925000 77.140625 9.855468
25.825000 75.515625 9.855468
25.975000 74.515625 9.855468
26.150000 73.578125 9.855468
26.300000 72.109375 9.855468
26.525000 71.500000 9.855468
26.725000 70.312500 9.855468
25.325000 87.734375 10.025630
25.425000 85.781250 10.025630
25.525000 84.218750 10.025630
25.525000 84.437500 10.025630
25.625000 83.062500 10.025630
25.725000 80.734375 10.025630
25.725000 80.031250 10.025630
25.800000 79.640625 10.025630
25.975000 78.968750 10.025630
25.950000 77.718750 10.025630
25.875000 75.343750 10.025630
25.975000 74.906250 10.025630
26.175000 73.265625 10.025630
26.325000 72.312500 10.025630
26.500000 72.125000 10.025630
26.700000 71.125000 10.025630
25.300000 86.765625 10.180616
25.300000 85.375000 10.180616
25.400000 84.468750 10.180616
25.525000 83.890625 10.180616
25.625000 83.218750 10.180616
25.725000 82.109375 10.180616
25.800000 80.812500 10.180616
25.875000 79.890625 10.180616
25.975000 77.875000 10.180616
25.950000 77.593750 10.180616
25.875000 75.890625 10.180616
26.000000 75.500000 10.180616
26.200000 73.390625 10.180616
26.350000 72.593750 10.180616
26.525000 71.031250 10.180616
26.700000 71.234375 10.180616
26.300000 88.671875 10.336444
25.375000 86.593750 10.336444
25.500000 84.937500 10.336444
25.500000 85.140625 10.336444
25.625000 82.781250 10.336444
25.725000 83.062500 10.336444
25.775000 81.218750 10.336444
25.800000 79.234375 10.336444
25.975000 79.281250 10.336444
26.000000 77.218750 10.336444
25.875000 77.500000 10.336444
25.925000 75.859375 10.336444
26.100000 74.421875 10.336444
26.300000 73.921875 10.336444
26.475000 72.921875 10.336444
26.600000 71.437500 10.336444
26.800000 70.359375 10.336444
27.075000 69.218750 10.336444
25.400000 86.890625 10.505281
25.325000 86.875000 10.505281
25.425000 84.437500 10.505281
25.525000 84.109375 10.505281
25.575000 82.734375 10.505281
25.700000 82.531250 10.505281
25.800000 80.640625 10.505281
25.825000 79.546875 10.505281
26.025000 78.156250 10.505281
26.000000 77.609375 10.505281
25.875000 76.750000 10.505281
26.000000 75.843750 10.505281
26.175000 74.500000 10.505281
26.325000 72.968750 10.505281
26.450000 71.718750 10.505281
26.650000 71.281250 10.505281
25.500000 86.953125 10.676466
25.400000 85.531250 10.676466
25.425000 84.718750 10.676466
25.525000 84.093750 10.676466
25.525000 82.234375 10.676466
25.650000 81.078125 10.676466
25.775000 81.031250 10.676466
25.825000 78.843750 10.676466
25.975000 78.328125 10.676466
25.925000 77.218750 10.676466
25.850000 76.328125 10.676466
26.000000 75.765625 10.676466
26.150000 73.718750 10.676466
26.325000 73.109375 10.676466
26.500000 71.140625 10.676466
26.675000 70.296875 10.676466
25.475000 87.984375 10.832172
25.400000 86.500000 10.832172
25.425000 84.828125 10.832172
25.525000 84.734375 10.832172
25.650000 82.343750 10.832172
25.775000 82.531250 10.832172
25.825000 80.984375 10.832172
25.825000 79.796875 10.832172
25.975000 77.937500 10.832172
26.000000 76.890625 10.832172
25.850000 76.546875 10.832172
25.950000 74.796875 10.832172
26.150000 74.062500 10.832172
26.375000 73.500000 10.832172
26.575000 72.671875 10.832172
26.750000 71.562500 10.832172
25.225000 86.796875 11.002049
25.375000 86.562500 11.002049
25.475000 84.828125 11.002049
25.550000 84.562500 11.002049
25.600000 82.187500 11.002049
25.700000 82.109375 11.002049
25.825000 81.203125 11.002049
25.825000 80.015625 11.002049
25.975000 79.375000 11.002049
26.000000 77.593750 11.002049
25.850000 75.921875 11.002049
25.950000 76.015625 11.002049
26.150000 74.875000 11.002049
26.375000 73.390625 11.002049
26.575000 71.843750 11.002049
26.750000 70.843750 11.002049
26.975000 70.281250 11.002049
27.350000 69.562500 11.002049
25.800000 88.437500 11.158406
25.475000 86.968750 11.158406
25.450000 85.953125 11.158406
25.500000 84.750000 11.158406
25.525000 84.453125 11.158406
25.550000 83.328125 11.158406
25.650000 82.109375 11.158406
25.775000 80.187500 11.158406
25.825000 78.921875 11.158406
25.975000 77.906250 11.158406
25.950000 77.500000 11.158406
25.850000 75.453125 11.158406
26.000000 74.500000 11.158406
26.250000 73.953125 11.158406
26.500000 73.625000 11.158406
26.675000 72.343750 11.158406
26.850000 70.468750 11.158406
25.700000 88.859375 11.329187
25.650000 87.515625 11.329187
25.500000 87.343750 11.329187
25.475000 85.609375 11.329187
25.500000 85.500000 11.329187
25.525000 83.281250 11.329187
25.625000 82.156250 11.329187
25.750000 81.406250 11.329187
25.800000 80.281250 11.329187
25.875000 79.906250 11.329187
25.950000 77.906250 11.329187
25.925000 77.046875 11.329187
25.950000 75.750000 11.329187
26.075000 75.500000 11.329187
26.300000 74.031250 11.329187
26.550000 72.312500 11.329187
26.725000 72.281250 11.329187
26.925000 70.671875 11.329187
27.200000 69.546875 11.329187
25.225000 87.718750 11.485132
25.375000 86.703125 11.485132
25.475000 85.578125 11.485132
25.550000 83.906250 11.485132
25.625000 82.562500 11.485132
25.725000 81.796875 11.485132
25.725000 81.515625 11.485132
25.750000 80.234375 11.485132
25.825000 77.921875 11.485132
26.000000 77.765625 11.485132
26.125000 76.531250 11.485132
26.050000 74.671875 11.485132
26.225000 73.750000 11.485132
26.525000 73.750000 11.485132
26.650000 72.546875 11.485132
26.825000 71.375000 11.485132
25.650000 89.359375 11.654296
25.650000 88.328125 11.654296
25.500000 87.562500 11.654296
25.475000 85.656250 11.654296
25.500000 85.109375 11.654296
25.675000 83.328125 11.654296
25.800000 82.453125 11.654296
25.775000 82.093750 11.654296
25.950000 80.843750 11.654296
25.925000 78.640625 11.654296
25.800000 77.703125 11.654296
26.000000 77.734375 11.654296
26.150000 76.406250 11.654296
26.225000 75.343750 11.654296
26.400000 74.109375 11.654296
26.550000 73.250000 11.654296
26.750000 72.109375 11.654296
26.950000 70.562500 11.654296
27.200000 69.187500 11.654296
25.750000 89.703125 11.826132
25.650000 88.484375 11.826132
25.550000 86.250000 11.826132
25.475000 85.812500 11.826132
25.500000 85.109375 11.826132
25.700000 83.937500 11.826132
25.850000 82.937500 11.826132
25.975000 81.265625 11.826132
25.700000 79.593750 11.826132
25.450000 79.203125 11.826132
25.700000 78.468750 11.826132
25.950000 76.593750 11.826132
26.225000 76.046875 11.826132
26.400000 75.218750 11.826132
26.500000 72.984375 11.826132
26.675000 73.125000 11.826132
26.875000 71.515625 11.826132
27.100000 70.156250 11.826132
27.425000 70.015625 11.826132
25.750000 89.062500 11.982982
25.650000 88.250000 11.982982
25.550000 86.046875 11.982982
25.550000 85.562500 11.982982
25.725000 85.046875 11.982982
25.850000 82.765625 11.982982
25.575000 80.421875 11.982982
25.325000 77.609375 11.982982
25.525000 78.171875 11.982982
26.050000 75.375000 11.982982
26.525000 74.125000 11.982982
26.675000 72.578125 11.982982
26.875000 70.875000 11.982982
27.100000 70.078125 11.982982
27.475000 69.859375 11.982982
25.550000 87.296875 12.139015
25.625000 86.187500 12.139015
25.725000 84.734375 12.139015
25.825000 83.390625 12.139015
25.575000 81.062500 12.139015
25.300000 79.390625 12.139015
25.450000 78.140625 12.139015
25.775000 77.468750 12.139015
26.025000 75.750000 12.139015
26.350000 75.046875 12.139015
26.650000 74.343750 12.139015
26.750000 72.296875 12.139015
26.850000 71.578125 12.139015
27.050000 70.515625 12.139015
27.375000 69.734375 12.139015
25.825000 88.453125 12.309508
25.850000 88.156250 12.309508
25.625000 86.515625 12.309508
25.625000 86.546875 12.309508
25.750000 84.562500 12.309508
25.825000 83.906250 12.309508
25.550000 79.531250 12.309508
25.300000 78.890625 12.309508
25.450000 77.078125 12.309508
25.775000 77.203125 12.309508
26.075000 76.359375 12.309508
26.450000 75.140625 12.309508
26.675000 73.984375 12.309508
26.750000 73.125000 12.309508
26.950000 72.359375 12.309508
27.175000 70.531250 12.309508
27.500000 69.640625 12.309508
25.925000 89.359375 12.467309
25.925000 87.187500 12.467309
25.700000 87.312500 12.467309
25.700000 86.343750 12.467309
25.825000 84.656250 12.467309
25.850000 84.062500 12.467309
25.725000 82.546875 12.467309
25.500000 79.906250 12.467309
25.325000 79.687500 12.467309
25.425000 78.734375 12.467309
25.600000 78.406250 12.467309
25.850000 76.593750 12.467309
26.925000 73.156250 12.467309
27.050000 71.671875 12.467309
25.900000 89.171875 12.637838
25.800000 88.750000 12.637838
25.750000 87.078125 12.637838
25.775000 86.828125 12.637838
25.800000 85.562500 12.637838
25.850000 84.750000 12.637838
25.575000 82.656250 12.637838
25.475000 79.984375 12.637838
25.650000 78.328125 12.637838
26.950000 72.703125 12.637838
27.050000 72.609375 12.637838
27.250000 70.828125 12.637838
25.850000 87.453125 12.793752
25.850000 85.937500 12.793752
25.850000 84.625000 12.793752
25.825000 83.109375 12.793752
25.950000 82.515625 12.793752
25.725000 81.015625 12.793752
25.425000 80.656250 12.793752
26.700000 74.453125 12.793752
27.000000 73.359375 12.793752
27.150000 72.171875 12.793752
27.400000 71.218750 12.793752
27.675000 70.000000 12.793752
25.725000 88.921875 12.981058
25.650000 88.062500 12.981058
25.800000 86.968750 12.981058
25.800000 84.671875 12.981058
25.850000 84.734375 12.981058
25.600000 82.656250 12.981058
25.675000 79.609375 12.981058
25.925000 78.984375 12.981058
27.375000 73.937500 12.981058
27.300000 73.187500 12.981058
27.200000 72.250000 12.981058
27.300000 71.546875 12.981058
25.850000 89.703125 13.136761
25.900000 88.640625 13.136761
25.800000 87.546875 13.136761
25.850000 86.109375 13.136761
25.875000 85.437500 13.136761
25.925000 84.421875 13.136761
26.025000 82.515625 13.136761
25.750000 81.796875 13.136761
25.500000 79.609375 13.136761
27.400000 72.484375 13.136761
27.300000 71.218750 13.136761
27.450000 70.921875 13.136761
27.700000 70.234375 13.136761
25.850000 87.031250 13.292738
25.850000 86.406250 13.292738
25.825000 84.281250 13.292738
25.725000 81.671875 13.292738
25.700000 79.765625 13.292738
27.150000 74.031250 13.292738
27.425000 72.609375 13.292738
27.375000 71.562500 13.292738
27.500000 70.625000 13.292738
27.800000 69.515625 13.292738
25.850000 86.296875 13.450300
25.850000 85.468750 13.450300
25.850000 85.234375 13.450300
25.800000 81.187500 13.450300
25.775000 80.312500 13.450300
27.225000 73.781250 13.450300
27.425000 72.453125 13.450300
27.400000 71.546875 13.450300
27.575000 70.218750 13.450300
27.850000 69.281250 13.450300
25.775000 87.656250 13.619426
25.775000 86.390625 13.619426
25.900000 85.609375 13.619426
25.950000 83.921875 13.619426
25.850000 81.390625 13.619426
25.800000 80.093750 13.619426
27.225000 74.296875 13.619426
27.550000 72.640625 13.619426
27.575000 72.062500 13.619426
25.850000 88.312500 13.775124
25.875000 87.328125 13.775124
25.900000 86.421875 13.775124
26.050000 84.375000 13.775124
25.925000 80.453125 13.775124
25.750000 79.609375 13.775124
27.200000 73.421875 13.775124
27.525000 73.078125 13.775124
27.550000 71.296875 13.775124
27.700000 70.671875 13.775124
28.000000 69.187500 13.775124
25.850000 87.703125 13.944562
25.750000 86.687500 13.944562
25.875000 86.796875 13.944562
25.950000 86.125000 13.944562
26.000000 84.968750 13.944562
25.900000 81.187500 13.944562
25.850000 79.484375 13.944562
26.200000 79.000000 13.944562
26.600000 77.703125 13.944562
27.575000 73.671875 13.944562
27.475000 72.000000 13.944562
27.600000 71.984375 13.944562
26.000000 88.968750 14.115643
25.900000 87.250000 14.115643
25.925000 87.078125 14.115643
26.050000 85.234375 14.115643
26.250000 83.859375 14.115643
26.225000 82.390625 14.115643
26.000000 82.437500 14.115643
25.850000 81.515625 14.115643
25.875000 80.312500 14.115643
26.175000 78.656250 14.115643
27.750000 75.187500 14.115643
27.550000 73.906250 14.115643
27.475000 72.656250 14.115643
27.600000 70.875000 14.115643
25.925000 87.890625 14.270757
25.975000 86.453125 14.270757
26.025000 85.078125 14.270757
26.025000 85.125000 14.270757
25.900000 81.750000 14.270757
25.750000 79.609375 14.270757
27.700000 75.265625 14.270757
27.575000 74.171875 14.270757
27.425000 72.203125 14.270757
27.525000 71.031250 14.270757
27.750000 70.218750 14.270757
28.050000 70.109375 14.270757
26.150000 89.328125 14.427663
25.975000 87.734375 14.427663
25.925000 87.093750 14.427663
26.025000 85.734375 14.427663
26.225000 84.078125 14.427663
26.300000 82.703125 14.427663
26.075000 81.156250 14.427663
25.850000 80.656250 14.427663
25.900000 80.531250 14.427663
26.200000 78.421875 14.427663
27.600000 75.093750 14.427663
27.425000 73.781250 14.427663
27.400000 72.140625 14.427663
27.575000 70.859375 14.427663
26.250000 89.078125 14.598904
26.075000 87.156250 14.598904
25.925000 86.984375 14.598904
26.075000 86.281250 14.598904
26.325000 84.281250 14.598904
26.475000 83.265625 14.598904
26.450000 82.578125 14.598904
26.125000 80.828125 14.598904
25.900000 79.796875 14.598904
27.575000 75.906250 14.598904
27.625000 74.390625 14.598904
27.375000 73.125000 14.598904
27.375000 72.734375 14.598904
27.500000 71.484375 14.598904
26.500000 88.515625 14.754038
26.300000 88.062500 14.754038
26.175000 86.484375 14.754038
26.275000 85.125000 14.754038
26.400000 84.234375 14.754038
26.375000 82.875000 14.754038
26.100000 81.968750 14.754038
25.950000 80.656250 14.754038
25.975000 79.718750 14.754038
27.575000 75.234375 14.754038
27.475000 74.609375 14.754038
27.275000 72.687500 14.754038
27.350000 72.171875 14.754038
27.550000 70.906250 14.754038
27.900000 70.640625 14.754038
26.625000 88.109375 14.924360
26.425000 87.593750 14.924360
26.275000 86.546875 14.924360
26.375000 84.984375 14.924360
26.400000 83.968750 14.924360
26.450000 83.687500 14.924360
26.325000 82.484375 14.924360
26.150000 81.140625 14.924360
27.675000 76.015625 14.924360
27.525000 74.703125 14.924360
27.250000 72.921875 14.924360
27.325000 71.968750 14.924360
27.575000 71.484375 14.924360
27.975000 69.953125 14.924360
26.625000 90.187500 15.094074
26.650000 88.500000 15.094074
26.550000 86.546875 15.094074
26.300000 85.796875 15.094074
26.400000 85.328125 15.094074
26.450000 83.968750 15.094074
26.500000 83.078125 15.094074
26.500000 81.562500 15.094074
26.350000 80.437500 15.094074
27.450000 76.718750 15.094074
27.700000 75.140625 15.094074
27.450000 73.734375 15.094074
27.200000 73.265625 15.094074
27.375000 71.593750 15.094074
27.625000 71.109375 15.094074
27.975000 70.453125 15.094074
26.375000 88.390625 15.249541
26.100000 88.484375 15.249541
26.175000 87.515625 15.249541
26.375000 86.343750 15.249541
26.425000 84.078125 15.249541
26.475000 84.250000 15.249541
26.525000 82.734375 15.249541
26.550000 81.906250 15.249541
26.525000 80.750000 15.249541
26.625000 79.281250 15.249541
26.925000 78.093750 15.249541
27.300000 77.406250 15.249541
27.575000 76.156250 15.249541
27.375000 75.468750 15.249541
27.125000 74.140625 15.249541
27.200000 72.000000 15.249541
27.425000 71.578125 15.249541
27.725000 70.828125 15.249541
28.125000 69.437500 15.249541
26.675000 89.187500 15.417948
26.575000 87.312500 15.417948
26.300000 86.843750 15.417948
26.400000 84.609375 15.417948
26.450000 84.765625 15.417948
26.450000 82.968750 15.417948
26.500000 81.750000 15.417948
26.550000 80.156250 15.417948
26.675000 79.734375 15.417948
26.875000 78.140625 15.417948
27.125000 77.390625 15.417948
27.475000 76.890625 15.417948
27.525000 75.093750 15.417948
27.250000 74.281250 15.417948
27.150000 72.921875 15.417948
27.350000 72.421875 15.417948
27.600000 71.250000 15.417948
27.975000 70.406250 15.417948
26.275000 85.562500 15.590217
26.375000 84.828125 15.590217
26.400000 84.218750 15.590217
26.475000 82.437500 15.590217
26.525000 81.828125 15.590217
26.550000 81.531250 15.590217
26.650000 79.859375 15.590217
26.850000 79.328125 15.590217
27.125000 78.328125 15.590217
27.450000 77.187500 15.590217
27.500000 75.171875 15.590217
27.275000 73.937500 15.590217
27.175000 73.812500 15.590217
26.550000 89.343750 15.745633
26.350000 88.062500 15.745633
26.250000 87.031250 15.745633
26.375000 85.703125 15.745633
26.425000 84.968750 15.745633
26.500000 83.921875 15.745633
26.525000 82.515625 15.745633
26.525000 81.109375 15.745633
26.575000 79.828125 15.745633
26.775000 79.078125 15.745633
27.100000 78.078125 15.745633
27.400000 77.015625 15.745633
27.525000 75.203125 15.745633
27.300000 75.156250 15.745633
27.100000 73.765625 15.745633
27.225000 72.687500 15.745633
27.425000 71.406250 15.745633
26.650000 87.093750 15.899806
26.375000 86.125000 15.899806
26.425000 84.953125 15.899806
26.475000 83.937500 15.899806
26.525000 82.484375 15.899806
26.550000 81.859375 15.899806
26.525000 79.875000 15.899806
26.675000 78.953125 15.899806
27.075000 78.843750 15.899806
27.400000 76.796875 15.899806
27.450000 75.531250 15.899806
27.250000 74.156250 15.899806
27.075000 73.515625 15.899806
27.175000 73.187500 15.899806
27.400000 71.937500 15.899806
27.725000 70.890625 15.899806
28.125000 69.187500 15.899806
26.625000 87.515625 16.068460
26.400000 85.000000 16.068460
26.400000 84.296875 16.068460
26.450000 83.437500 16.068460
26.525000 82.515625 16.068460
26.525000 81.343750 16.068460
26.550000 80.343750 16.068460
26.725000 79.093750 16.068460
27.050000 77.687500 16.068460
27.375000 77.203125 16.068460
27.475000 75.296875 16.068460
27.275000 75.093750 16.068460
27.100000 74.062500 16.068460
27.200000 71.906250 16.068460
27.350000 71.359375 16.068460
27.700000 70.796875 16.068460
28.150000 69.531250 16.068460
26.300000 86.015625 16.224777
26.425000 85.468750 16.224777
26.475000 83.937500 16.224777
26.525000 82.187500 16.224777
26.550000 81.937500 16.224777
26.525000 80.953125 16.224777
26.625000 79.921875 16.224777
26.925000 77.750000 16.224777
27.250000 77.531250 16.224777
27.375000 75.765625 16.224777
27.225000 75.031250 16.224777
27.075000 74.343750 16.224777
27.175000 72.640625 16.224777
27.400000 72.203125 16.224777
27.700000 71.109375 16.224777
28.100000 69.531250 16.224777
26.950000 88.421875 16.392893
26.225000 86.343750 16.392893
26.350000 84.375000 16.392893
26.450000 83.578125 16.392893
26.500000 83.062500 16.392893
26.350000 82.203125 16.392893
26.325000 80.984375 16.392893
26.875000 77.593750 16.392893
27.325000 76.812500 16.392893
27.300000 75.671875 16.392893
27.175000 74.328125 16.392893
27.200000 72.578125 16.392893
27.325000 71.343750 16.392893
27.500000 70.625000 16.392893
27.925000 69.437500 16.392893
26.200000 89.359375 16.564268
26.025000 87.937500 16.564268
26.000000 87.328125 16.564268
26.200000 85.468750 16.564268
26.225000 83.984375 16.564268
26.350000 83.718750 16.564268
26.075000 82.531250 16.564268
25.800000 81.921875 16.564268
26.100000 80.375000 16.564268
27.400000 76.343750 16.564268
27.275000 74.468750 16.564268
27.100000 72.953125 16.564268
27.175000 72.468750 16.564268
27.325000 71.984375 16.564268
26.175000 89.843750 16.722399
26.050000 88.562500 16.722399
25.825000 86.078125 16.722399
26.075000 85.656250 16.722399
26.125000 84.156250 16.722399
26.250000 84.234375 16.722399
25.575000 80.656250 16.722399
27.300000 74.843750 16.722399
27.150000 74.156250 16.722399
27.150000 73.171875 16.722399
27.275000 71.906250 16.722399
26.100000 88.812500 16.893735
26.300000 88.328125 16.893735
26.125000 86.500000 16.893735
25.925000 85.656250 16.893735
25.950000 85.312500 16.893735
26.175000 84.234375 16.893735
25.800000 80.140625 16.893735
27.575000 75.890625 16.893735
27.425000 74.359375 16.893735
27.150000 73.390625 16.893735
27.250000 72.125000 16.893735
25.700000 86.953125 17.049403
25.775000 87.734375 17.049403
25.900000 86.437500 17.049403
25.900000 85.390625 17.049403
25.700000 84.359375 17.049403
25.425000 82.531250 17.049403
27.550000 74.953125 17.049403
27.375000 73.640625 17.049403
27.175000 72.484375 17.049403
27.275000 72.109375 17.049403
26.125000 88.390625 17.220958
26.025000 88.031250 17.220958
25.800000 86.312500 17.220958
25.850000 85.375000 17.220958
25.975000 84.015625 17.220958
25.725000 83.109375 17.220958
25.375000 82.515625 17.220958
25.475000 80.843750 17.220958
25.600000 78.781250 17.220958
27.300000 74.343750 17.220958
27.225000 73.953125 17.220958
27.200000 72.859375 17.220958
27.350000 71.890625 17.220958
25.925000 88.921875 17.377119
25.825000 86.984375 17.377119
25.750000 85.734375 17.377119
25.825000 85.828125 17.377119
25.875000 84.546875 17.377119
25.625000 83.187500 17.377119
25.325000 81.234375 17.377119
27.375000 75.187500 17.377119
27.275000 72.968750 17.377119
27.200000 72.093750 17.377119
27.325000 71.640625 17.377119
25.750000 89.390625 17.533570
25.575000 88.515625 17.533570
25.650000 85.921875 17.533570
25.775000 85.828125 17.533570
25.400000 82.156250 17.533570
27.475000 75.234375 17.533570
27.425000 73.062500 17.533570
27.250000 72.265625 17.533570
27.275000 71.687500 17.533570
27.375000 70.937500 17.533570
27.675000 69.890625 17.533570
25.650000 88.250000 17.702968
25.625000 86.484375 17.702968
25.775000 85.937500 17.702968
25.825000 84.906250 17.702968
25.975000 83.515625 17.702968
25.175000 80.609375 17.702968
25.375000 80.359375 17.702968
27.475000 74.187500 17.702968
27.250000 72.718750 17.702968
27.250000 71.859375 17.702968
27.300000 69.875000 17.702968
27.600000 69.656250 17.702968
25.975000 88.578125 17.859306
25.850000 87.875000 17.859306
25.775000 87.015625 17.859306
25.825000 86.062500 17.859306
25.525000 82.531250 17.859306
25.175000 79.171875 17.859306
25.325000 78.968750 17.859306
25.675000 78.203125 17.859306
27.350000 73.578125 17.859306
27.200000 72.437500 17.859306
27.200000 71.718750 17.859306
25.950000 88.484375 18.029055
25.725000 88.000000 18.029055
25.675000 86.687500 18.029055
25.800000 85.906250 18.029055
25.550000 83.875000 18.029055
25.075000 80.531250 18.029055
25.225000 79.843750 18.029055
25.400000 78.906250 18.029055
27.350000 72.687500 18.029055
27.175000 72.453125 18.029055
27.150000 71.218750 18.029055
25.500000 89.250000 18.197163
25.300000 88.156250 18.197163
25.400000 87.031250 18.197163
25.600000 86.234375 18.197163
25.800000 84.953125 18.197163
25.700000 84.046875 18.197163
25.325000 82.421875 18.197163
25.000000 81.234375 18.197163
25.050000 80.437500 18.197163
25.200000 78.171875 18.197163
27.175000 71.921875 18.197163
27.025000 71.031250 18.197163
25.650000 88.796875 18.352692
25.500000 87.406250 18.352692
25.500000 84.765625 18.352692
25.650000 84.640625 18.352692
25.400000 80.296875 18.352692
25.125000 80.625000 18.352692
25.200000 79.750000 18.352692
25.350000 76.937500 18.352692
25.675000 76.312500 18.352692
27.125000 72.328125 18.352692
26.925000 71.421875 18.352692
27.100000 71.250000 18.352692
27.425000 69.359375 18.352692
25.775000 89.625000 18.522557
25.675000 88.671875 18.522557
25.500000 85.828125 18.522557
25.400000 86.250000 18.522557
25.500000 85.218750 18.522557
25.675000 84.046875 18.522557
25.825000 83.031250 18.522557
25.525000 80.125000 18.522557
25.175000 80.140625 18.522557
25.200000 79.453125 18.522557
25.300000 78.328125 18.522557
26.675000 72.218750 18.522557
26.825000 72.375000 18.522557
27.000000 71.328125 18.522557
27.300000 69.515625 18.522557
25.250000 86.828125 18.678444
25.325000 86.921875 18.678444
25.375000 84.921875 18.678444
25.550000 84.031250 18.678444
25.450000 81.062500 18.678444
25.225000 79.812500 18.678444
25.300000 78.578125 18.678444
25.475000 76.703125 18.678444
25.825000 77.234375 18.678444
26.275000 75.812500 18.678444
26.475000 74.281250 18.678444
26.550000 72.656250 18.678444
26.725000 72.796875 18.678444
26.900000 71.656250 18.678444
25.650000 88.265625 18.842651
25.425000 85.500000 18.842651
25.325000 86.531250 18.842651
25.375000 85.531250 18.842651
25.550000 82.718750 18.842651
25.600000 82.703125 18.842651
25.700000 82.281250 18.842651
25.575000 79.421875 18.842651
25.300000 79.453125 18.842651
25.400000 77.000000 18.842651
25.700000 77.203125 18.842651
26.025000 76.125000 18.842651
26.250000 75.156250 18.842651
26.400000 73.234375 18.842651
26.550000 73.421875 18.842651
26.750000 71.890625 18.842651
26.975000 70.796875 18.842651
27.300000 69.703125 18.842651
25.600000 88.343750 19.002561
25.225000 87.750000 19.002561
25.250000 86.218750 19.002561
25.300000 85.781250 19.002561
25.425000 84.250000 19.002561
25.550000 82.375000 19.002561
25.550000 81.765625 19.002561
25.550000 80.015625 19.002561
25.575000 80.562500 19.002561
25.525000 77.953125 19.002561
25.600000 76.703125 19.002561
25.850000 77.015625 19.002561
26.050000 75.265625 19.002561
26.150000 75.062500 19.002561
26.375000 73.609375 19.002561
26.575000 71.765625 19.002561
26.775000 71.687500 19.002561
25.225000 88.171875 19.171010
25.275000 86.843750 19.171010
25.325000 85.843750 19.171010
25.350000 84.218750 19.171010
25.375000 82.453125 19.171010
25.475000 81.109375 19.171010
25.550000 81.593750 19.171010
25.600000 79.125000 19.171010
25.725000 78.671875 19.171010
25.925000 77.078125 19.171010
25.975000 75.656250 19.171010
25.950000 75.953125 19.171010
26.150000 74.078125 19.171010
26.350000 72.781250 19.171010
26.525000 72.515625 19.171010
26.700000 71.781250 19.171010
25.575000 89.234375 19.343288
25.500000 88.109375 19.343288
25.300000 86.703125 19.343288
25.275000 85.625000 19.343288
25.300000 85.546875 19.343288
25.325000 84.015625 19.343288
25.425000 82.656250 19.343288
25.550000 81.031250 19.343288
25.575000 80.875000 19.343288
25.675000 79.796875 19.343288
25.825000 77.796875 19.343288
25.900000 77.375000 19.343288
25.875000 76.328125 19.343288
25.975000 75.062500 19.343288
26.150000 73.203125 19.343288
26.425000 72.921875 19.343288
26.625000 71.687500 19.343288
26.775000 71.171875 19.343288
25.500000 88.140625 19.499243
25.225000 87.421875 19.499243
25.250000 86.921875 19.499243
25.300000 84.296875 19.499243
25.300000 84.296875 19.499243
25.425000 83.984375 19.499243
25.525000 81.546875 19.499243
25.550000 81.515625 19.499243
25.650000 79.671875 19.499243
25.750000 79.453125 19.499243
25.825000 77.265625 19.499243
25.850000 75.921875 19.499243
25.900000 75.828125 19.499243
26.075000 74.875000 19.499243
26.225000 73.281250 19.499243
26.425000 71.828125 19.499243
26.600000 71.000000 19.499243
25.875000 90.046875 19.668104
25.600000 89.109375 19.668104
25.375000 88.109375 19.668104
25.300000 86.328125 19.668104
25.300000 85.906250 19.668104
25.325000 83.656250 19.668104
25.425000 82.968750 19.668104
25.450000 82.296875 19.668104
25.475000 79.703125 19.668104
25.600000 80.281250 19.668104
25.775000 77.765625 19.668104
25.825000 77.687500 19.668104
25.775000 76.109375 19.668104
25.925000 75.859375 19.668104
26.100000 74.015625 19.668104
26.300000 73.125000 19.668104
26.475000 72.203125 19.668104
26.625000 70.484375 19.668104
25.575000 88.781250 19.826740
25.300000 88.453125 19.826740
25.250000 87.140625 19.826740
25.300000 84.609375 19.826740
25.300000 84.984375 19.826740
25.425000 83.906250 19.826740
25.525000 81.078125 19.826740
25.600000 80.640625 19.826740
25.700000 80.062500 19.826740
25.750000 78.281250 19.826740
25.825000 78.203125 19.826740
25.825000 75.906250 19.826740
25.900000 75.921875 19.826740
26.050000 74.765625 19.826740
26.200000 73.265625 19.826740
26.400000 72.000000 19.826740
26.575000 71.312500 19.826740
26.750000 70.171875 19.826740
27.125000 69.812500 19.826740
25.850000 89.562500 19.991684
25.475000 86.953125 19.991684
25.350000 87.625000 19.991684
25.475000 86.250000 19.991684
25.400000 84.531250 19.991684
25.450000 83.890625 19.991684
25.575000 81.718750 19.991684
25.575000 80.781250 19.991684
25.675000 80.906250 19.991684
25.725000 78.796875 19.991684
25.825000 78.703125 19.991684
25.900000 77.578125 19.991684
25.875000 75.078125 19.991684
26.000000 75.031250 19.991684
26.175000 73.468750 19.991684
26.350000 72.734375 19.991684
26.500000 71.609375 19.991684
26.700000 70.000000 19.991684
27.000000 69.156250 19.991684
25.900000 90.140625 20.155207
25.575000 88.703125 20.155207
25.475000 87.281250 20.155207
25.475000 85.234375 20.155207
25.475000 84.343750 20.155207
25.500000 84.156250 20.155207
25.525000 83.281250 20.155207
25.625000 81.484375 20.155207
25.725000 81.171875 20.155207
25.775000 79.000000 20.155207
25.975000 79.156250 20.155207
25.950000 77.609375 20.155207
25.825000 76.031250 20.155207
25.950000 74.562500 20.155207
26.100000 74.515625 20.155207
26.300000 73.421875 20.155207
26.475000 71.359375 20.155207
26.625000 70.781250 20.155207
25.550000 88.421875 20.317111
25.375000 88.000000 20.317111
25.325000 85.812500 20.317111
25.400000 85.328125 20.317111
25.500000 82.843750 20.317111
25.525000 83.437500 20.317111
25.650000 81.953125 20.317111
25.750000 80.812500 20.317111
25.775000 78.687500 20.317111
25.975000 78.578125 20.317111
25.950000 77.343750 20.317111
25.825000 76.562500 20.317111
25.950000 74.406250 20.317111
26.100000 73.671875 20.317111
26.300000 72.921875 20.317111
26.450000 71.375000 20.317111
26.600000 71.328125 20.317111
25.375000 88.218750 20.482448
25.325000 86.796875 20.482448
25.325000 86.125000 20.482448
25.425000 84.984375 20.482448
25.525000 83.796875 20.482448
25.650000 82.828125 20.482448
25.750000 81.750000 20.482448
25.775000 80.031250 20.482448
26.000000 79.187500 20.482448
26.000000 77.796875 20.482448
25.825000 76.875000 20.482448
25.925000 74.859375 20.482448
26.075000 74.125000 20.482448
26.200000 73.281250 20.482448
26.375000 72.390625 20.482448
26.550000 70.734375 20.482448
26.750000 70.234375 20.482448
27.100000 69.359375 20.482448
25.400000 86.781250 20.647684
25.325000 85.250000 20.647684
25.400000 85.031250 20.647684
25.500000 84.015625 20.647684
25.525000 83.328125 20.647684
25.625000 81.203125 20.647684
25.725000 80.921875 20.647684
25.775000 79.796875 20.647684
25.975000 78.468750 20.647684
26.025000 77.281250 20.647684
25.875000 75.406250 20.647684
25.950000 74.328125 20.647684
26.100000 74.593750 20.647684
26.300000 73.125000 20.647684
26.475000 71.890625 20.647684
26.625000 71.562500 20.647684
26.350000 88.781250 20.807956
25.925000 88.218750 20.807956
25.500000 86.437500 20.807956
25.475000 86.500000 20.807956
25.525000 84.578125 20.807956
25.575000 84.250000 20.807956
25.675000 83.421875 20.807956
25.750000 80.968750 20.807956
25.775000 80.218750 20.807956
25.825000 79.390625 20.807956
25.900000 78.937500 20.807956
25.900000 77.500000 20.807956
25.875000 76.312500 20.807956
25.975000 75.500000 20.807956
26.150000 73.875000 20.807956
26.350000 72.656250 20.807956
26.550000 71.765625 20.807956
26.750000 70.281250 20.807956
25.450000 87.062500 20.974934
25.400000 86.562500 20.974934
25.475000 84.453125 20.974934
25.500000 83.281250 20.974934
25.650000 83.156250 20.974934
25.750000 82.000000 20.974934
25.725000 80.531250 20.974934
25.775000 79.281250 20.974934
25.975000 79.062500 20.974934
26.025000 77.828125 20.974934
25.875000 76.281250 20.974934
25.950000 75.218750 20.974934
26.100000 73.750000 20.974934
26.300000 72.562500 20.974934
26.475000 71.718750 20.974934
26.625000 70.296875 20.974934
25.300000 86.421875 21.139680
25.425000 85.671875 21.139680
25.525000 84.656250 21.139680
