31.300000 89.609375 0.093931
31.450000 88.218750 0.093931
31.450000 87.765625 0.093931
31.500000 86.312500 0.093931
31.550000 84.875000 0.093931
31.650000 84.296875 0.093931
30.875000 89.406250 0.252046
30.975000 88.140625 0.252046
31.025000 86.953125 0.252046
31.075000 86.437500 0.252046
31.150000 85.109375 0.252046
31.225000 83.562500 0.252046
31.325000 82.656250 0.252046
31.750000 81.546875 0.252046
30.725000 89.796875 0.404132
30.775000 88.359375 0.404132
30.775000 87.546875 0.404132
30.825000 85.906250 0.404132
30.875000 84.937500 0.404132
30.975000 83.750000 0.404132
30.975000 88.234375 0.557438
31.000000 87.187500 0.557438
31.025000 85.687500 0.557438
31.050000 84.671875 0.557438
31.175000 83.281250 0.557438
31.375000 82.390625 0.557438
31.100000 87.656250 0.713359
31.100000 86.578125 0.713359
31.225000 86.015625 0.713359
31.375000 84.781250 0.713359
31.500000 83.109375 0.713359
31.725000 82.562500 0.713359
31.000000 90.250000 0.871284
31.275000 89.031250 0.871284
31.375000 87.968750 0.871284
31.425000 86.750000 0.871284
31.475000 85.359375 0.871284
31.600000 84.187500 0.871284
31.475000 88.171875 1.026515
31.600000 86.500000 1.026515
31.700000 85.859375 1.026515
31.750000 84.312500 1.026515
31.775000 83.312500 1.026515
32.075000 81.828125 1.026515
31.475000 87.609375 1.181561
31.625000 87.062500 1.181561
31.750000 85.609375 1.181561
31.800000 84.906250 1.181561
31.875000 83.734375 1.181561
32.100000 82.406250 1.181561
31.575000 89.531250 1.328770
31.700000 88.375000 1.328770
31.750000 87.546875 1.328770
31.775000 85.859375 1.328770
31.800000 85.093750 1.328770
31.875000 83.921875 1.328770
31.975000 82.531250 1.328770
31.450000 89.687500 1.495667
31.725000 88.421875 1.495667
31.750000 87.578125 1.495667
31.775000 86.437500 1.495667
31.825000 85.296875 1.495667
31.875000 84.078125 1.495667
31.400000 90.078125 1.648835
31.725000 88.750000 1.648835
31.750000 87.921875 1.648835
31.775000 86.250000 1.648835
31.825000 85.046875 1.648835
31.875000 83.953125 1.648835
31.725000 87.953125 1.803888
31.725000 86.328125 1.803888
31.725000 85.093750 1.803888
31.825000 84.250000 1.803888
31.700000 87.859375 1.961985
31.700000 86.750000 1.961985
31.725000 85.109375 1.961985
31.800000 84.609375 1.961985
31.850000 83.062500 1.961985
32.200000 82.390625 1.961985
31.550000 88.343750 2.118600
31.625000 87.375000 2.118600
31.700000 86.312500 2.118600
31.725000 84.546875 2.118600
31.725000 83.890625 2.118600
31.850000 82.687500 2.118600
31.200000 89.140625 2.268566
31.350000 87.984375 2.268566
31.375000 87.328125 2.268566
31.425000 86.484375 2.268566
31.550000 85.031250 2.268566
31.675000 83.906250 2.268566
30.950000 89.968750 2.430027
31.075000 88.296875 2.430027
31.050000 87.046875 2.430027
31.075000 86.015625 2.430027
31.175000 85.406250 2.430027
31.300000 83.703125 2.430027
31.450000 82.687500 2.430027
31.800000 81.859375 2.430027
30.900000 87.984375 2.586008
30.925000 87.265625 2.586008
30.950000 85.515625 2.586008
31.000000 84.609375 2.586008
31.075000 83.453125 2.586008
31.250000 82.546875 2.586008
30.550000 89.281250 2.742160
30.600000 87.937500 2.742160
30.625000 86.937500 2.742160
30.650000 86.109375 2.742160
30.700000 84.828125 2.742160
30.775000 83.750000 2.742160
30.900000 82.468750 2.742160
31.300000 81.234375 2.742160
30.600000 89.671875 2.895254
30.875000 88.796875 2.895254
30.900000 87.578125 2.895254
30.900000 86.062500 2.895254
30.950000 85.531250 2.895254
31.025000 84.500000 2.895254
31.100000 88.078125 3.052234
31.125000 87.250000 3.052234
31.225000 85.921875 3.052234
31.300000 85.125000 3.052234
31.400000 83.781250 3.052234
31.550000 82.328125 3.052234
31.200000 89.484375 3.209475
31.325000 88.343750 3.209475
31.375000 87.046875 3.209475
31.425000 86.312500 3.209475
31.500000 85.203125 3.209475
31.650000 84.156250 3.209475
31.775000 82.937500 3.209475
31.475000 89.109375 3.366712
31.500000 87.984375 3.366712
31.550000 87.343750 3.366712
31.650000 86.046875 3.366712
31.775000 84.921875 3.366712
31.825000 84.000000 3.366712
31.975000 82.640625 3.366712
31.750000 87.625000 3.521593
31.750000 86.718750 3.521593
31.800000 85.953125 3.521593
31.850000 84.359375 3.521593
31.900000 83.343750 3.521593
32.225000 82.390625 3.521593
31.825000 87.750000 3.677675
31.875000 86.781250 3.677675
31.925000 85.640625 3.677675
31.925000 84.062500 3.677675
31.725000 89.484375 3.834020
31.775000 88.234375 3.834020
31.900000 87.156250 3.834020
31.950000 86.078125 3.834020
31.975000 85.031250 3.834020
32.025000 84.000000 3.834020
32.225000 82.765625 3.834020
31.900000 87.765625 3.990383
31.925000 86.593750 3.990383
31.925000 85.718750 3.990383
32.025000 84.718750 3.990383
31.975000 87.718750 4.141444
32.000000 87.031250 4.141444
32.075000 86.093750 4.141444
32.100000 84.421875 4.141444
32.000000 88.375000 4.300682
32.025000 87.171875 4.300682
32.050000 85.859375 4.300682
32.075000 84.750000 4.300682
32.150000 83.218750 4.300682
32.475000 82.140625 4.300682
31.975000 88.343750 4.455300
32.000000 87.187500 4.455300
32.050000 86.234375 4.455300
32.100000 84.468750 4.455300
32.150000 83.296875 4.455300
32.425000 82.203125 4.455300
31.875000 89.625000 4.614241
31.950000 88.593750 4.614241
31.925000 86.843750 4.614241
31.950000 85.781250 4.614241
32.025000 85.031250 4.614241
32.075000 83.812500 4.614241
32.275000 82.484375 4.614241
31.850000 89.593750 4.765284
31.925000 88.109375 4.765284
31.925000 87.312500 4.765284
31.950000 85.750000 4.765284
31.975000 84.968750 4.765284
32.025000 83.687500 4.765284
32.225000 82.578125 4.765284
31.700000 89.703125 4.925576
31.825000 88.562500 4.925576
31.875000 87.156250 4.925576
31.875000 85.796875 4.925576
31.900000 85.000000 4.925576
32.000000 84.046875 4.925576
32.100000 82.578125 4.925576
31.550000 89.781250 5.078277
31.700000 88.703125 5.078277
31.700000 86.984375 5.078277
31.750000 86.343750 5.078277
31.800000 84.921875 5.078277
31.850000 83.843750 5.078277
31.950000 82.281250 5.078277
31.275000 89.734375 5.237517
31.425000 88.171875 5.237517
31.400000 87.703125 5.237517
31.450000 86.125000 5.237517
31.525000 85.062500 5.237517
31.600000 83.687500 5.237517
31.100000 90.000000 5.390381
31.300000 88.875000 5.390381
31.375000 87.171875 5.390381
31.375000 86.125000 5.390381
31.450000 85.031250 5.390381
31.575000 83.828125 5.390381
31.600000 88.156250 5.549033
31.625000 86.562500 5.549033
31.675000 85.546875 5.549033
31.750000 84.296875 5.549033
31.850000 88.000000 5.703475
31.875000 86.265625 5.703475
31.925000 85.562500 5.703475
32.000000 84.609375 5.703475
31.975000 87.734375 5.871836
32.025000 86.515625 5.871836
32.025000 85.765625 5.871836
32.025000 84.171875 5.871836
32.025000 87.687500 6.014050
32.075000 86.796875 6.014050
32.125000 85.875000 6.014050
32.225000 84.671875 6.014050
32.175000 87.765625 6.184396
32.300000 86.562500 6.184396
32.425000 85.453125 6.184396
32.525000 84.640625 6.184396
31.975000 90.062500 6.340423
32.300000 88.656250 6.340423
32.400000 87.875000 6.340423
32.450000 86.828125 6.340423
32.525000 85.625000 6.340423
32.625000 84.140625 6.340423
32.225000 89.796875 6.482144
32.475000 88.796875 6.482144
32.525000 87.359375 6.482144
32.625000 86.593750 6.482144
32.725000 85.234375 6.482144
32.800000 83.718750 6.482144
32.950000 83.015625 6.482144
32.525000 89.281250 6.640853
32.575000 88.156250 6.640853
32.650000 87.281250 6.640853
32.750000 86.109375 6.640853
32.800000 84.828125 6.640853
32.850000 83.968750 6.640853
33.175000 82.671875 6.640853
32.375000 89.500000 6.806190
32.625000 88.390625 6.806190
32.700000 87.234375 6.806190
32.725000 86.656250 6.806190
32.775000 84.859375 6.806190
32.825000 84.359375 6.806190
32.975000 82.703125 6.806190
32.450000 89.406250 6.951567
32.650000 88.640625 6.951567
32.725000 87.031250 6.951567
32.750000 86.515625 6.951567
32.775000 85.218750 6.951567
32.825000 83.859375 6.951567
33.075000 82.593750 6.951567
32.725000 87.906250 7.117193
32.775000 86.390625 7.117193
32.825000 85.328125 7.117193
32.875000 84.000000 7.117193
33.000000 82.921875 7.117193
32.625000 87.812500 7.265954
32.725000 87.328125 7.265954
32.800000 85.703125 7.265954
32.850000 84.796875 7.265954
32.425000 89.500000 7.431168
32.625000 88.468750 7.431168
32.700000 87.343750 7.431168
32.725000 86.328125 7.431168
32.775000 85.328125 7.431168
32.825000 83.609375 7.431168
33.075000 82.968750 7.431168
32.600000 87.843750 7.586862
32.625000 87.015625 7.586862
32.675000 85.312500 7.586862
32.750000 84.765625 7.586862
32.450000 87.734375 7.741537
32.475000 86.828125 7.741537
32.550000 85.812500 7.741537
32.650000 84.578125 7.741537
32.700000 83.531250 7.741537
33.100000 82.421875 7.741537
32.250000 87.531250 7.889513
32.325000 87.046875 7.889513
32.425000 85.718750 7.889513
32.450000 84.484375 7.889513
31.775000 89.812500 8.051274
32.025000 88.750000 8.051274
32.075000 87.406250 8.051274
32.125000 86.859375 8.051274
32.150000 85.453125 8.051274
32.250000 83.953125 8.051274
31.700000 89.515625 8.205190
31.750000 88.000000 8.205190
31.800000 87.140625 8.205190
31.875000 85.875000 8.205190
31.925000 85.078125 8.205190
31.950000 83.968750 8.205190
32.125000 82.437500 8.205190
31.450000 88.750000 8.364792
31.475000 87.609375 8.364792
31.550000 86.359375 8.364792
31.625000 85.328125 8.364792
31.675000 84.093750 8.364792
31.750000 83.015625 8.364792
32.150000 81.906250 8.364792
31.625000 89.046875 8.514645
31.700000 88.203125 8.514645
31.750000 87.234375 8.514645
31.800000 85.984375 8.514645
31.850000 84.859375 8.514645
31.925000 83.390625 8.514645
32.100000 82.484375 8.514645
31.700000 89.171875 8.675660
31.800000 88.437500 8.675660
31.850000 87.546875 8.675660
31.875000 86.421875 8.675660
31.925000 84.843750 8.675660
31.925000 83.859375 8.675660
32.125000 82.281250 8.675660
31.675000 89.640625 8.830796
32.000000 88.468750 8.830796
31.975000 87.468750 8.830796
31.975000 86.765625 8.830796
32.075000 85.546875 8.830796
32.100000 84.218750 8.830796
32.025000 88.343750 8.987857
32.050000 86.968750 8.987857
32.075000 85.781250 8.987857
32.125000 84.812500 8.987857
31.800000 89.828125 9.138341
32.125000 88.859375 9.138341
32.125000 87.093750 9.138341
32.075000 86.078125 9.138341
32.125000 85.328125 9.138341
32.275000 84.093750 9.138341
32.525000 82.812500 9.138341
31.775000 90.265625 9.297289
32.025000 88.656250 9.297289
32.075000 87.875000 9.297289
32.100000 86.515625 9.297289
32.075000 85.250000 9.297289
32.275000 84.312500 9.297289
31.800000 90.296875 9.451157
32.050000 89.140625 9.451157
32.100000 87.343750 9.451157
32.150000 86.453125 9.451157
32.150000 85.031250 9.451157
32.275000 84.296875 9.451157
32.150000 88.062500 9.609710
32.150000 86.500000 9.609710
32.200000 85.750000 9.609710
32.300000 84.656250 9.609710
32.075000 89.218750 9.763905
32.150000 88.171875 9.763905
32.175000 87.156250 9.763905
32.225000 86.156250 9.763905
32.275000 85.015625 9.763905
32.425000 83.828125 9.763905
32.775000 82.671875 9.763905
31.775000 89.640625 9.922304
32.050000 89.156250 9.922304
32.100000 87.859375 9.922304
32.150000 86.265625 9.922304
32.150000 85.093750 9.922304
32.250000 84.453125 9.922304
32.125000 88.015625 10.076843
32.125000 86.359375 10.076843
32.175000 85.796875 10.076843
32.275000 84.500000 10.076843
32.050000 87.796875 10.235921
32.050000 86.953125 10.235921
32.075000 85.921875 10.235921
32.125000 84.265625 10.235921
32.200000 83.171875 10.235921
32.525000 82.000000 10.235921
31.875000 87.953125 10.390799
31.925000 86.968750 10.390799
31.975000 85.953125 10.390799
32.050000 84.343750 10.390799
32.125000 83.140625 10.390799
32.375000 82.265625 10.390799
31.650000 89.656250 10.546638
31.700000 88.562500 10.546638
31.700000 87.453125 10.546638
31.750000 85.703125 10.546638
31.825000 85.187500 10.546638
31.900000 83.328125 10.546638
32.050000 82.875000 10.546638
31.050000 90.140625 10.703287
31.375000 89.125000 10.703287
31.375000 88.046875 10.703287
31.400000 86.390625 10.703287
31.450000 85.437500 10.703287
31.500000 84.500000 10.703287
31.600000 83.156250 10.703287
31.900000 82.062500 10.703287
30.550000 90.140625 10.860831
30.875000 89.265625 10.860831
30.925000 88.062500 10.860831
30.950000 87.125000 10.860831
30.975000 85.609375 10.860831
30.975000 84.734375 10.860831
31.100000 83.281250 10.860831
31.300000 82.390625 10.860831
30.875000 87.625000 11.013761
30.900000 86.687500 11.013761
30.950000 85.375000 11.013761
30.975000 84.281250 11.013761
31.075000 83.703125 11.013761
31.275000 81.812500 11.013761
31.000000 88.046875 11.172026
30.975000 86.437500 11.172026
31.050000 85.937500 11.172026
31.125000 84.671875 11.172026
31.225000 82.921875 11.172026
31.550000 82.046875 11.172026
31.150000 87.921875 11.327528
31.150000 86.343750 11.327528
31.275000 85.562500 11.327528
31.400000 84.375000 11.327528
31.500000 83.156250 11.327528
31.775000 82.140625 11.327528
31.150000 89.687500 11.482394
31.425000 88.781250 11.482394
31.450000 87.875000 11.482394
31.425000 86.343750 11.482394
31.500000 85.468750 11.482394
31.600000 84.015625 11.482394
31.275000 90.109375 11.637922
31.450000 88.640625 11.637922
31.500000 87.078125 11.637922
31.525000 86.468750 11.637922
31.650000 85.218750 11.637922
31.775000 83.890625 11.637922
31.525000 87.734375 11.795607
31.575000 86.312500 11.795607
31.675000 85.515625 11.795607
31.825000 84.125000 11.795607
31.875000 83.218750 11.795607
32.250000 81.828125 11.795607
31.725000 87.937500 11.952661
31.750000 86.546875 11.952661
31.800000 85.953125 11.952661
31.825000 84.421875 11.952661
31.875000 83.015625 11.952661
32.175000 82.500000 11.952661
31.400000 89.906250 12.105193
31.725000 88.437500 12.105193
31.750000 87.250000 12.105193
31.775000 86.015625 12.105193
31.775000 85.203125 12.105193
31.800000 84.031250 12.105193
31.725000 87.609375 12.264992
31.750000 86.640625 12.264992
31.800000 85.906250 12.264992
31.825000 84.609375 12.264992
31.725000 87.984375 12.419159
31.725000 87.328125 12.419159
31.775000 86.046875 12.419159
31.825000 84.562500 12.419159
31.875000 83.468750 12.419159
32.150000 82.281250 12.419159
31.600000 88.375000 12.578885
31.675000 86.968750 12.578885
31.725000 86.000000 12.578885
31.775000 84.593750 12.578885
31.850000 83.828125 12.578885
32.025000 82.437500 12.578885
31.375000 89.328125 12.730294
31.425000 88.578125 12.730294
31.475000 87.000000 12.730294
31.550000 85.734375 12.730294
31.625000 84.593750 12.730294
31.700000 83.734375 12.730294
31.825000 82.703125 12.730294
31.125000 89.765625 12.888218
31.225000 88.484375 12.888218
31.250000 87.328125 12.888218
31.375000 86.046875 12.888218
31.450000 85.093750 12.888218
31.575000 84.125000 12.888218
30.925000 89.734375 13.041628
31.100000 88.812500 13.041628
31.100000 86.906250 13.041628
31.075000 86.468750 13.041628
31.125000 85.125000 13.041628
31.175000 84.203125 13.041628
30.750000 89.312500 13.199552
30.825000 88.171875 13.199552
30.850000 87.250000 13.199552
30.900000 86.140625 13.199552
30.925000 84.906250 13.199552
30.975000 83.406250 13.199552
30.625000 88.234375 13.353707
30.675000 87.234375 13.353707
30.725000 85.890625 13.353707
30.750000 84.406250 13.353707
30.850000 83.625000 13.353707
31.025000 82.359375 13.353707
30.775000 90.015625 13.512975
30.925000 88.734375 13.512975
30.975000 87.234375 13.512975
31.050000 85.984375 13.512975
31.050000 84.984375 13.512975
31.125000 84.109375 13.512975
31.050000 89.796875 13.667876
31.225000 88.421875 13.667876
31.225000 86.906250 13.667876
31.275000 85.937500 13.667876
31.375000 85.031250 13.667876
31.500000 83.531250 13.667876
31.600000 82.468750 13.667876
31.125000 89.625000 13.828469
31.400000 88.796875 13.828469
31.425000 87.562500 13.828469
31.425000 86.437500 13.828469
31.575000 85.234375 13.828469
31.700000 84.437500 13.828469
31.550000 88.109375 13.991418
31.675000 86.859375 13.991418
31.775000 85.796875 13.991418
31.825000 84.609375 13.991418
31.725000 88.296875 14.139110
31.750000 86.734375 14.139110
31.825000 86.046875 14.139110
31.875000 84.484375 14.139110
31.875000 83.750000 14.139110
32.250000 82.593750 14.139110
31.850000 87.984375 14.290430
31.900000 87.015625 14.290430
31.925000 85.703125 14.290430
31.975000 84.671875 14.290430
31.900000 87.687500 14.453576
31.950000 87.125000 14.453576
32.025000 86.125000 14.453576
32.050000 84.484375 14.453576
32.075000 83.343750 14.453576
32.450000 82.390625 14.453576
31.650000 89.546875 14.602084
31.975000 88.437500 14.602084
31.975000 87.546875 14.602084
32.000000 86.375000 14.602084
32.050000 85.484375 14.602084
32.100000 84.468750 14.602084
31.650000 89.859375 14.763144
32.000000 88.812500 14.763144
32.000000 87.859375 14.763144
32.000000 86.640625 14.763144
32.050000 85.640625 14.763144
32.100000 84.125000 14.763144
31.925000 87.906250 14.913808
31.925000 86.500000 14.913808
32.000000 85.718750 14.913808
32.050000 84.515625 14.913808
31.950000 87.656250 15.075130
31.950000 87.187500 15.075130
32.025000 85.984375 15.075130
32.075000 84.171875 15.075130
31.850000 89.906250 15.227021
31.975000 88.250000 15.227021
32.000000 87.609375 15.227021
32.025000 86.453125 15.227021
32.025000 84.953125 15.227021
32.075000 83.796875 15.227021
32.275000 83.046875 15.227021
31.925000 87.734375 15.389203
31.925000 86.578125 15.389203
32.000000 85.421875 15.389203
32.025000 84.781250 15.389203
32.050000 83.437500 15.389203
32.425000 82.375000 15.389203
31.775000 88.343750 15.552051
31.800000 86.796875 15.552051
31.800000 86.187500 15.552051
31.900000 85.000000 15.552051
31.950000 83.390625 15.552051
32.175000 82.437500 15.552051
31.400000 89.734375 15.701197
31.625000 88.609375 15.701197
31.625000 87.312500 15.701197
31.650000 86.468750 15.701197
31.700000 84.875000 15.701197
31.750000 84.078125 15.701197
31.175000 89.734375 15.863816
31.350000 88.687500 15.863816
31.350000 87.718750 15.863816
31.400000 86.406250 15.863816
31.450000 85.390625 15.863816
31.525000 83.703125 15.863816
31.200000 89.625000 16.013905
31.250000 88.328125 16.013905
31.350000 87.156250 16.013905
31.475000 86.453125 16.013905
31.525000 85.312500 16.013905
31.625000 83.906250 16.013905
31.725000 82.328125 16.013905
31.650000 88.296875 16.176405
31.725000 86.750000 16.176405
31.775000 85.828125 16.176405
31.875000 84.625000 16.176405
31.875000 83.421875 16.176405
32.050000 82.687500 16.176405
31.675000 89.843750 16.327210
31.875000 88.656250 16.327210
31.925000 87.328125 16.327210
31.950000 86.234375 16.327210
32.000000 84.671875 16.327210
32.050000 84.000000 16.327210
32.200000 82.687500 16.327210
31.825000 89.578125 16.474339
31.950000 88.781250 16.474339
31.950000 87.468750 16.474339
31.975000 86.468750 16.474339
32.075000 85.281250 16.474339
32.200000 84.218750 16.474339
32.375000 83.031250 16.474339
31.925000 89.343750 16.637480
32.050000 88.734375 16.637480
32.125000 87.000000 16.637480
32.150000 86.406250 16.637480
32.225000 84.984375 16.637480
32.375000 83.984375 16.637480
32.625000 82.421875 16.637480
32.200000 87.734375 16.799502
32.250000 86.843750 16.799502
32.375000 85.281250 16.799502
32.575000 84.093750 16.799502
32.425000 87.921875 16.949781
32.450000 86.671875 16.949781
32.550000 85.406250 16.949781
32.700000 84.546875 16.949781
32.400000 89.796875 17.111386
32.475000 88.578125 17.111386
32.525000 87.406250 17.111386
32.575000 85.656250 17.111386
32.700000 84.671875 17.111386
32.825000 83.343750 17.111386
33.125000 82.265625 17.111386
32.550000 87.625000 17.261604
32.675000 86.984375 17.261604
32.800000 85.828125 17.261604
32.850000 84.484375 17.261604
32.550000 89.562500 17.426232
32.675000 88.015625 17.426232
32.750000 87.031250 17.426232
32.775000 85.906250 17.426232
32.800000 84.656250 17.426232
32.825000 83.625000 17.426232
33.200000 82.531250 17.426232
32.400000 89.593750 17.574848
32.675000 88.531250 17.574848
32.725000 87.609375 17.574848
32.775000 86.203125 17.574848
32.800000 84.937500 17.574848
32.875000 83.968750 17.574848
33.025000 83.093750 17.574848
32.300000 89.843750 17.726526
32.650000 88.750000 17.726526
32.700000 87.500000 17.726526
32.750000 86.921875 17.726526
32.800000 85.500000 17.726526
32.875000 84.328125 17.726526
32.625000 88.000000 17.888506
32.675000 86.671875 17.888506
32.800000 85.531250 17.888506
32.850000 84.125000 17.888506
32.625000 87.390625 18.038581
32.675000 86.968750 18.038581
32.775000 85.156250 18.038581
32.825000 84.375000 18.038581
32.350000 90.140625 18.200958
32.500000 88.328125 18.200958
32.550000 87.046875 18.200958
32.625000 86.687500 18.200958
32.675000 85.187500 18.200958
32.775000 84.281250 18.200958
32.950000 83.093750 18.200958
32.200000 89.843750 18.348665
32.425000 88.843750 18.348665
32.475000 87.453125 18.348665
32.475000 86.546875 18.348665
32.550000 84.890625 18.348665
32.625000 84.250000 18.348665
32.750000 82.796875 18.348665
32.150000 89.437500 18.511288
32.175000 87.890625 18.511288
32.200000 86.984375 18.511288
32.275000 85.812500 18.511288
32.375000 84.750000 18.511288
32.475000 83.750000 18.511288
32.725000 82.375000 18.511288
31.950000 87.812500 18.672931
31.950000 86.734375 18.672931
32.025000 85.859375 18.672931
32.175000 84.343750 18.672931
32.275000 83.203125 18.672931
32.575000 82.437500 18.672931
31.625000 89.765625 18.824748
31.700000 88.609375 18.824748
31.725000 87.156250 18.824748
31.750000 85.921875 18.824748
31.800000 85.171875 18.824748
31.875000 83.875000 18.824748
32.025000 82.687500 18.824748
31.350000 89.593750 18.983047
31.500000 88.234375 18.983047
31.525000 87.203125 18.983047
31.575000 86.625000 18.983047
31.675000 85.390625 18.983047
31.725000 84.109375 18.983047
31.375000 90.156250 19.139804
31.675000 88.781250 19.139804
31.775000 87.890625 19.139804
31.825000 86.093750 19.139804
31.850000 85.218750 19.139804
31.900000 84.328125 19.139804
31.575000 89.515625 19.294108
31.850000 88.328125 19.294108
31.875000 87.593750 19.294108
31.925000 86.406250 19.294108
31.925000 85.593750 19.294108
31.975000 84.453125 19.294108
31.950000 88.281250 19.452184
31.975000 87.203125 19.452184
32.050000 85.343750 19.452184
32.075000 84.421875 19.452184
32.000000 88.109375 19.605942
32.025000 86.578125 19.605942
32.050000 85.812500 19.605942
32.075000 84.140625 19.605942
32.125000 87.859375 19.763970
32.025000 87.046875 19.763970
32.125000 85.859375 19.763970
32.175000 84.859375 19.763970
32.350000 83.453125 19.763970
32.800000 82.781250 19.763970
31.950000 89.796875 19.916071
32.100000 88.500000 19.916071
32.125000 87.500000 19.916071
32.150000 85.921875 19.916071
32.275000 85.015625 19.916071
32.325000 83.781250 19.916071
32.550000 82.453125 19.916071
31.900000 89.593750 20.074948
32.125000 88.765625 20.074948
32.150000 87.437500 20.074948
32.175000 86.203125 20.074948
32.250000 84.859375 20.074948
32.325000 83.718750 20.074948
32.550000 83.187500 20.074948
31.725000 90.093750 20.227500
32.125000 89.031250 20.227500
32.150000 87.375000 20.227500
32.175000 86.828125 20.227500
32.250000 85.562500 20.227500
32.350000 83.921875 20.227500
32.150000 88.312500 20.389210
32.175000 86.781250 20.389210
32.175000 86.140625 20.389210
32.200000 84.359375 20.389210
32.350000 83.656250 20.389210
32.800000 82.265625 20.389210
32.125000 88.453125 20.541049
32.150000 87.359375 20.541049
32.175000 85.937500 20.541049
32.275000 84.562500 20.541049
32.425000 83.937500 20.541049
32.750000 82.453125 20.541049
32.050000 87.687500 20.698570
32.050000 87.218750 20.698570
32.100000 85.890625 20.698570
32.150000 84.781250 20.698570
32.275000 83.640625 20.698570
32.700000 82.093750 20.698570
31.775000 89.875000 20.850805
32.100000 89.031250 20.850805
32.100000 87.812500 20.850805
32.075000 86.265625 20.850805
32.075000 85.281250 20.850805
32.150000 84.031250 20.850805
31.700000 89.609375 21.014262
31.875000 88.515625 21.014262
31.875000 87.296875 21.014262
31.900000 86.000000 21.014262
31.975000 84.921875 21.014262
32.050000 83.468750 21.014262
32.200000 82.812500 21.014262
31.400000 89.781250 21.164178
31.625000 89.046875 21.164178
31.650000 87.859375 21.164178
31.675000 86.578125 21.164178
31.725000 85.359375 21.164178
31.775000 83.953125 21.164178
31.275000 88.421875 21.325104
31.300000 87.093750 21.325104
31.325000 85.671875 21.325104
31.375000 84.687500 21.325104
31.450000 83.718750 21.325104
31.600000 82.187500 21.325104
30.750000 88.375000 21.476759
30.800000 87.296875 21.476759
30.875000 86.078125 21.476759
30.900000 84.703125 21.476759
30.950000 83.375000 21.476759
31.075000 82.093750 21.476759
30.900000 88.265625 21.636523
30.900000 86.609375 21.636523
30.900000 85.796875 21.636523
30.975000 84.671875 21.636523
31.025000 83.312500 21.636523
31.225000 82.515625 21.636523
30.925000 90.109375 21.787979
31.075000 88.484375 21.787979
31.075000 87.125000 21.787979
31.100000 86.187500 21.787979
31.125000 85.171875 21.787979
31.250000 83.875000 21.787979
30.925000 89.968750 21.948172
31.150000 89.203125 21.948172
31.250000 87.375000 21.948172
31.350000 86.953125 21.948172
31.400000 85.562500 21.948172
31.500000 84.203125 21.948172
31.625000 83.218750 21.948172
31.900000 81.875000 21.948172
31.350000 89.718750 22.096449
31.425000 88.609375 22.096449
31.400000 86.937500 22.096449
31.425000 86.125000 22.096449
31.625000 85.140625 22.096449
31.725000 83.687500 22.096449
31.800000 82.625000 22.096449
31.400000 90.015625 22.261894
31.500000 88.578125 22.261894
31.575000 87.218750 22.261894
31.575000 85.812500 22.261894
31.650000 85.328125 22.261894
31.775000 83.781250 22.261894
31.450000 89.375000 22.421565
31.525000 88.234375 22.421565
31.625000 87.468750 22.421565
31.750000 85.890625 22.421565
31.750000 84.625000 22.421565
31.800000 83.656250 22.421565
31.875000 83.015625 22.421565
31.500000 89.609375 22.570975
31.700000 88.156250 22.570975
31.725000 87.171875 22.570975
31.750000 86.453125 22.570975
31.775000 85.078125 22.570975
31.825000 84.187500 22.570975
31.450000 89.734375 22.734063
31.725000 88.781250 22.734063
31.750000 87.531250 22.734063
31.800000 86.718750 22.734063
31.825000 85.000000 22.734063
31.875000 84.015625 22.734063
31.700000 87.343750 22.887265
31.725000 86.312500 22.887265
31.800000 85.656250 22.887265
31.850000 84.046875 22.887265
26.725000 90.421875 23.033798
31.425000 90.078125 23.033798
31.675000 88.906250 23.033798
31.725000 87.031250 23.033798
31.775000 86.703125 23.033798
31.800000 85.187500 23.033798
31.850000 84.359375 23.033798
31.525000 87.515625 23.200386
31.625000 86.312500 23.200386
31.750000 85.062500 23.200386
31.825000 84.203125 23.200386
31.850000 83.125000 23.200386
32.200000 82.125000 23.200386
31.100000 90.234375 23.346389
31.400000 88.515625 23.346389
31.400000 87.468750 23.346389
31.425000 86.921875 23.346389
31.550000 85.656250 23.346389
31.650000 83.875000 23.346389
31.650000 83.078125 23.346389
31.975000 81.687500 23.346389
31.000000 89.609375 23.512090
31.200000 88.921875 23.512090
31.300000 87.484375 23.512090
31.325000 86.656250 23.512090
31.375000 85.093750 23.512090
31.450000 83.578125 23.512090
30.950000 89.796875 23.658993
31.000000 88.015625 23.658993
31.000000 87.078125 23.658993
31.050000 86.375000 23.658993
31.100000 84.484375 23.658993
31.150000 83.906250 23.658993
31.300000 82.375000 23.658993
30.800000 87.937500 23.822762
30.775000 86.937500 23.822762
30.775000 85.375000 23.822762
30.850000 84.656250 23.822762
30.925000 83.046875 23.822762
31.075000 81.734375 23.822762
30.550000 89.296875 23.982352
30.725000 88.656250 23.982352
30.775000 87.171875 23.982352
30.825000 86.390625 23.982352
30.900000 85.468750 23.982352
30.925000 83.578125 23.982352
30.800000 89.968750 24.138670
31.000000 88.218750 24.138670
31.000000 87.671875 24.138670
31.025000 86.687500 24.138670
31.075000 85.062500 24.138670
31.125000 84.281250 24.138670
31.050000 89.890625 24.292946
31.275000 88.187500 24.292946
31.300000 87.281250 24.292946
31.350000 86.171875 24.292946
31.400000 85.078125 24.292946
31.525000 83.750000 24.292946
31.175000 89.859375 24.449842
31.450000 88.750000 24.449842
31.475000 87.796875 24.449842
31.525000 85.968750 24.449842
31.650000 85.296875 24.449842
31.775000 84.156250 24.449842
31.475000 89.781250 24.604248
31.625000 88.843750 24.604248
31.675000 87.265625 24.604248
31.775000 86.593750 24.604248
31.825000 84.906250 24.604248
31.875000 84.328125 24.604248
31.525000 89.546875 24.761284
31.800000 88.515625 24.761284
31.800000 87.703125 24.761284
31.800000 86.296875 24.761284
31.825000 85.406250 24.761284
31.875000 84.187500 24.761284
31.875000 88.250000 24.913061
31.900000 86.453125 24.913061
31.975000 85.593750 24.913061
32.025000 84.437500 24.913061
31.950000 87.906250 25.075048
31.975000 86.937500 25.075048
32.000000 85.703125 25.075048
32.050000 84.890625 25.075048
32.125000 83.703125 25.075048
32.475000 82.187500 25.075048
31.900000 88.078125 25.226082
31.925000 86.656250 25.226082
31.975000 85.203125 25.226082
32.025000 84.609375 25.226082
31.725000 90.078125 25.384108
32.000000 88.984375 25.384108
32.025000 87.703125 25.384108
32.050000 86.750000 25.384108
32.100000 85.406250 25.384108
32.100000 83.859375 25.384108
32.000000 88.453125 25.535708
32.025000 86.890625 25.535708
32.075000 86.218750 25.535708
32.100000 84.703125 25.535708
32.125000 83.500000 25.535708
32.425000 82.593750 25.535708
26.575000 90.406250 25.696397
31.725000 90.000000 25.696397
31.975000 88.500000 25.696397
32.000000 87.296875 25.696397
32.025000 86.140625 25.696397
32.075000 85.281250 25.696397
32.100000 84.312500 25.696397
31.725000 90.015625 25.845126
31.950000 88.640625 25.845126
31.975000 87.765625 25.845126
32.000000 86.453125 25.845126
32.050000 84.921875 25.845126
32.075000 84.187500 25.845126
31.900000 87.828125 26.008435
31.950000 86.937500 26.008435
31.975000 85.343750 26.008435
32.025000 84.531250 26.008435
32.100000 83.578125 26.008435
32.450000 82.468750 26.008435
31.475000 90.250000 26.156574
31.750000 89.093750 26.156574
31.775000 87.765625 26.156574
31.775000 86.140625 26.156574
31.850000 85.484375 26.156574
31.925000 83.968750 26.156574
31.425000 89.703125 26.310687
31.575000 88.796875 26.310687
31.575000 86.953125 26.310687
31.625000 86.234375 26.310687
31.650000 84.843750 26.310687
31.750000 84.140625 26.310687
31.200000 89.984375 26.466889
31.275000 88.375000 26.466889
31.275000 87.578125 26.466889
31.325000 86.312500 26.466889
31.400000 85.281250 26.466889
31.500000 84.078125 26.466889
31.425000 88.531250 26.622130
31.500000 87.062500 26.622130
31.575000 86.109375 26.622130
31.650000 85.093750 26.622130
31.700000 83.531250 26.622130
31.875000 82.421875 26.622130
31.700000 88.359375 26.790424
31.775000 87.234375 26.790424
31.800000 86.046875 26.790424
31.875000 85.078125 26.790424
31.900000 83.265625 26.790424
32.100000 82.296875 26.790424
31.575000 89.859375 26.946242
31.900000 88.796875 26.946242
31.950000 87.921875 26.946242
32.000000 86.406250 26.946242
32.025000 85.296875 26.946242
32.075000 84.000000 26.946242
31.950000 89.453125 27.098949
32.050000 88.500000 27.098949
32.075000 87.437500 27.098949
32.100000 85.968750 27.098949
32.150000 84.562500 27.098949
32.225000 83.453125 27.098949
32.525000 82.531250 27.098949
32.125000 87.328125 27.256127
32.175000 86.546875 27.256127
32.225000 85.812500 27.256127
32.350000 84.468750 27.256127
27.000000 90.390625 27.410592
32.025000 89.593750 27.410592
32.250000 88.250000 27.410592
32.350000 87.296875 27.410592
32.425000 86.328125 27.410592
32.500000 85.062500 27.410592
32.575000 83.843750 27.410592
32.775000 82.937500 27.410592
32.150000 89.718750 27.568686
32.375000 88.578125 27.568686
32.375000 87.343750 27.568686
32.550000 86.156250 27.568686
32.700000 85.109375 27.568686
32.750000 84.140625 27.568686
32.875000 82.765625 27.568686
32.300000 89.531250 27.720306
32.475000 88.359375 27.720306
32.525000 87.359375 27.720306
32.675000 86.421875 27.720306
32.800000 85.171875 27.720306
32.850000 83.984375 27.720306
33.075000 82.703125 27.720306
32.550000 89.203125 27.880359
32.600000 87.796875 27.880359
32.675000 87.328125 27.880359
32.775000 85.671875 27.880359
32.800000 84.531250 27.880359
32.875000 83.343750 27.880359
33.275000 82.562500 27.880359
32.475000 89.296875 28.030609
32.650000 88.203125 28.030609
32.725000 87.234375 28.030609
32.775000 86.203125 28.030609
32.825000 85.046875 28.030609
32.875000 84.187500 28.030609
33.150000 83.062500 28.030609
32.450000 89.578125 28.194104
32.675000 88.921875 28.194104
32.750000 87.656250 28.194104
32.750000 86.406250 28.194104
32.800000 84.984375 28.194104
32.900000 84.171875 28.194104
33.100000 83.093750 28.194104
32.450000 90.093750 28.345650
32.675000 88.656250 28.345650
32.725000 87.015625 28.345650
32.750000 86.421875 28.345650
32.800000 84.765625 28.345650
32.850000 83.593750 28.345650
33.075000 83.078125 28.345650
32.475000 89.687500 28.507940
32.625000 88.218750 28.507940
32.675000 87.468750 28.507940
32.750000 86.375000 28.507940
32.800000 85.000000 28.507940
32.850000 83.421875 28.507940
33.100000 82.390625 28.507940
32.525000 89.203125 28.659300
32.600000 88.062500 28.659300
32.650000 87.062500 28.659300
32.725000 86.265625 28.659300
32.775000 84.625000 28.659300
32.850000 83.546875 28.659300
33.125000 82.500000 28.659300
32.500000 88.078125 28.818623
32.525000 86.906250 28.818623
32.600000 85.734375 28.818623
32.700000 84.109375 28.818623
32.300000 87.625000 28.973618
32.350000 87.000000 28.973618
32.475000 86.046875 28.973618
32.550000 84.781250 28.973618
32.625000 83.640625 28.973618
33.000000 82.281250 28.973618
32.150000 87.890625 29.116758
32.225000 86.468750 29.116758
32.275000 85.156250 29.116758
32.350000 84.500000 29.116758
31.825000 89.562500 29.272438
31.900000 88.187500 29.272438
31.950000 87.359375 29.272438
31.975000 86.015625 29.272438
32.050000 84.828125 29.272438
32.150000 83.703125 29.272438
32.350000 82.359375 29.272438
31.600000 88.250000 29.427537
31.625000 87.015625 29.427537
31.675000 85.906250 29.427537
31.725000 84.265625 29.427537
31.800000 82.937500 29.427537
32.050000 82.234375 29.427537
31.600000 87.968750 29.584118
31.625000 86.468750 29.584118
31.675000 85.687500 29.584118
31.725000 83.984375 29.584118
31.800000 88.140625 29.740169
31.825000 86.703125 29.740169
31.875000 85.875000 29.740169
31.925000 84.343750 29.740169
31.900000 88.468750 29.897111
31.925000 86.734375 29.897111
31.950000 85.796875 29.897111
32.025000 84.828125 29.897111
32.075000 83.671875 29.897111
32.300000 82.828125 29.897111
