31.625000 87.218750 1.847548
31.700000 85.906250 1.848033
31.725000 84.406250 1.848589
31.775000 83.859375 1.848792
31.950000 82.703125 1.849220
31.525000 87.937500 1.997376
31.525000 86.484375 1.997914
31.550000 85.359375 1.998331
31.650000 83.859375 1.998887
31.225000 89.343750 2.158004
31.350000 87.875000 2.158548
31.350000 86.937500 2.158895
31.375000 85.671875 2.159364
31.450000 84.656250 2.159740
31.550000 83.484375 2.160174
31.725000 82.203125 2.160649
30.900000 89.703125 2.306590
31.125000 88.578125 2.307006
31.125000 87.468750 2.307417
31.175000 86.593750 2.307741
31.250000 85.234375 2.308245
31.350000 83.484375 2.308893
31.000000 87.312500 2.467428
31.025000 86.453125 2.467746
31.075000 84.937500 2.468307
31.125000 83.703125 2.468765
31.200000 83.125000 2.468979
31.525000 82.031250 2.469384
30.950000 87.515625 2.619084
31.000000 86.953125 2.619292
31.050000 85.781250 2.619726
31.100000 84.453125 2.620218
31.175000 82.843750 2.620814
31.375000 82.390625 2.620982
31.025000 89.562500 2.760746
31.150000 88.343750 2.761198
31.200000 87.578125 2.761481
31.250000 85.953125 2.762083
31.325000 85.125000 2.762390
31.525000 83.906250 2.762841
31.675000 82.468750 2.763373
31.250000 89.531250 2.929518
31.425000 88.500000 2.929900
31.500000 87.140625 2.930404
31.575000 85.812500 2.930896
31.625000 84.625000 2.931336
31.725000 83.687500 2.931683
31.850000 82.250000 2.932215
31.525000 89.312500 3.073055
31.700000 88.062500 3.073518
31.750000 87.375000 3.073772
31.800000 86.031250 3.074270
31.850000 85.078125 3.074623
31.875000 83.484375 3.075213
32.050000 82.359375 3.075630
31.600000 89.625000 3.223441
31.850000 88.625000 3.223811
31.900000 86.968750 3.224425
31.925000 86.296875 3.224674
31.975000 85.140625 3.225102
32.025000 83.890625 3.225565
32.150000 82.296875 3.226155
31.975000 87.656250 3.386848
32.000000 86.359375 3.387328
32.025000 85.328125 3.387710
32.075000 84.296875 3.388092
32.025000 87.984375 3.535816
32.050000 86.734375 3.536279
32.075000 85.796875 3.536627
32.100000 84.203125 3.537217
32.175000 83.484375 3.537483
32.600000 82.359375 3.537900
31.850000 89.406250 3.682560
32.050000 88.109375 3.683041
32.075000 87.093750 3.683417
32.100000 85.781250 3.683903
32.125000 84.843750 3.684250
32.175000 83.953125 3.684580
32.450000 82.515625 3.685113
31.825000 89.968750 3.848124
32.075000 88.750000 3.848575
32.100000 87.078125 3.849194
32.125000 86.562500 3.849385
32.250000 85.015625 3.849958
32.400000 84.093750 3.850300
32.550000 82.593750 3.850855
32.175000 88.031250 3.994478
32.200000 86.687500 3.994976
32.225000 85.828125 3.995294
32.300000 84.640625 3.995734
32.050000 89.500000 4.155856
32.100000 88.421875 4.156255
32.125000 87.203125 4.156706
32.175000 85.734375 4.157250
32.225000 84.656250 4.157650
32.375000 83.687500 4.158008
32.750000 82.250000 4.158541
31.850000 89.796875 4.306412
32.100000 88.562500 4.306869
32.100000 87.359375 4.307315
32.125000 85.875000 4.307864
32.225000 84.734375 4.308287
32.375000 83.906250 4.308594
32.550000 82.718750 4.309033
32.075000 88.843750 4.466040
32.100000 87.984375 4.466358
32.100000 86.578125 4.466879
32.125000 86.015625 4.467088
32.250000 84.593750 4.467614
31.975000 89.281250 4.606660
32.100000 87.953125 4.607152
32.125000 87.468750 4.607332
32.150000 85.703125 4.607985
32.200000 84.750000 4.608339
32.350000 83.875000 4.608663
32.650000 82.312500 4.609241
32.050000 87.500000 4.763692
32.075000 86.281250 4.764143
32.050000 85.031250 4.764606
32.150000 84.125000 4.764942
32.050000 87.593750 4.913600
32.075000 87.031250 4.913808
32.075000 85.703125 4.914300
32.125000 84.750000 4.914653
32.175000 83.125000 4.915255
32.575000 82.093750 4.915637
31.825000 89.062500 5.075035
31.900000 88.375000 5.075290
31.925000 87.093750 5.075765
32.000000 85.765625 5.076257
32.050000 84.437500 5.076748
32.075000 83.687500 5.077026
32.350000 82.375000 5.077512
26.125000 90.015625 5.224713
31.475000 90.125000 5.224672
31.700000 88.218750 5.225378
31.725000 87.234375 5.225743
31.750000 86.171875 5.226136
31.800000 84.937500 5.226593
31.875000 83.625000 5.227080
31.475000 88.140625 5.375035
31.500000 86.625000 5.375596
31.550000 85.453125 5.376030
31.625000 84.468750 5.376395
31.675000 83.078125 5.376910
31.875000 82.062500 5.377286
31.125000 87.812500 5.535103
31.175000 86.812500 5.535473
31.200000 85.656250 5.535901
31.225000 84.171875 5.536451
31.300000 83.296875 5.536775
31.475000 82.171875 5.537192
30.975000 88.968750 5.684762
31.050000 88.484375 5.684942
31.050000 86.578125 5.685648
31.075000 85.390625 5.686088
31.150000 84.250000 5.686510
31.250000 83.562500 5.686765
31.400000 81.984375 5.687349
30.975000 89.828125 5.845099
31.175000 88.468750 5.845602
31.250000 87.515625 5.845955
31.325000 86.421875 5.846360
31.400000 84.953125 5.846904
31.450000 83.718750 5.847362
31.425000 87.750000 5.994759
31.500000 86.359375 5.995274
31.500000 85.609375 5.995552
31.575000 84.484375 5.995968
31.700000 83.359375 5.996385
31.975000 81.859375 5.996940
31.600000 88.296875 6.155830
31.650000 86.468750 6.156507
31.600000 85.750000 6.156773
31.650000 84.078125 6.157393
31.750000 83.171875 6.157728
31.950000 82.000000 6.158162
31.400000 89.421875 6.304563
31.650000 88.703125 6.304829
31.775000 87.234375 6.305373
31.775000 85.687500 6.305946
31.825000 85.031250 6.306189
31.875000 83.468750 6.306767
31.950000 82.140625 6.307259
26.175000 89.953125 6.459447
31.425000 89.734375 6.459528
31.750000 88.359375 6.460037
31.775000 87.656250 6.460298
31.775000 86.203125 6.460836
31.800000 84.828125 6.461345
31.875000 83.765625 6.461739
31.625000 88.953125 6.617485
31.675000 87.750000 6.617930
31.850000 87.265625 6.618110
31.850000 85.406250 6.618798
31.850000 84.468750 6.619146
31.925000 83.375000 6.619551
32.150000 82.125000 6.620014
31.825000 87.265625 6.759905
31.800000 86.140625 6.760322
31.825000 85.218750 6.760663
31.875000 84.187500 6.761045
31.750000 87.843750 6.915402
31.775000 86.656250 6.915842
31.850000 85.390625 6.916311
31.900000 84.687500 6.916571
31.950000 82.984375 6.917202
32.175000 81.859375 6.917619
31.800000 87.671875 7.071392
31.775000 86.125000 7.071965
31.800000 85.109375 7.072341
31.850000 83.875000 7.072798
31.625000 89.125000 7.223908
31.775000 88.015625 7.224319
31.825000 87.359375 7.224562
31.825000 85.578125 7.225221
31.850000 84.687500 7.225551
31.875000 83.796875 7.225881
32.075000 82.515625 7.226356
31.675000 88.109375 7.381612
31.700000 86.703125 7.382133
31.675000 85.359375 7.382631
31.750000 84.453125 7.382967
31.825000 83.000000 7.383505
31.950000 82.218750 7.383794
31.575000 87.609375 7.539582
31.525000 86.671875 7.539929
31.550000 85.062500 7.540525
31.650000 83.718750 7.541023
31.700000 82.609375 7.541433
32.000000 81.625000 7.541798
31.275000 87.812500 7.693348
31.400000 86.750000 7.693742
31.475000 85.281250 7.694285
31.500000 84.062500 7.694737
31.550000 82.656250 7.695258
31.875000 81.656250 7.695628
31.050000 87.562500 7.849865
31.100000 86.687500 7.850189
31.125000 85.859375 7.850496
31.175000 84.593750 7.850965
31.300000 83.390625 7.851410
31.475000 81.937500 7.851949
30.775000 89.546875 7.989147
30.850000 88.031250 7.989708
30.850000 86.796875 7.990165
30.900000 85.750000 7.990553
30.950000 84.765625 7.990917
30.975000 83.078125 7.991543
30.425000 89.312500 8.144990
30.500000 87.859375 8.145528
30.525000 87.281250 8.145742
30.550000 85.843750 8.146275
30.600000 84.875000 8.146633
30.625000 83.031250 8.147316
26.125000 90.171875 8.298960
30.075000 89.921875 8.299053
30.200000 88.718750 8.299499
30.200000 87.281250 8.300031
30.250000 86.187500 8.300436
30.325000 85.171875 8.300812
30.425000 83.578125 8.301403
30.525000 82.718750 8.301721
30.800000 81.687500 8.302103
30.500000 87.187500 8.454300
30.500000 86.234375 8.454654
30.550000 85.218750 8.455029
30.625000 83.765625 8.455568
30.700000 83.359375 8.455718
30.900000 81.781250 8.456303
30.550000 89.468750 8.602269
30.750000 88.312500 8.602697
30.750000 87.562500 8.602975
30.775000 85.750000 8.603646
30.800000 85.156250 8.603866
30.850000 83.390625 8.604520
30.525000 90.000000 8.764485
30.850000 88.593750 8.765006
30.850000 87.796875 8.765301
30.875000 86.375000 8.765828
30.900000 84.953125 8.766354
30.950000 84.140625 8.766655
30.800000 89.640625 8.912730
30.900000 87.921875 8.913367
30.925000 87.281250 8.913604
30.950000 85.546875 8.914246
31.000000 84.390625 8.914675
31.050000 83.375000 8.915051
31.025000 88.125000 9.075761
31.025000 86.828125 9.076241
31.025000 85.781250 9.076629
31.075000 84.218750 9.077208
31.225000 82.984375 9.077665
31.500000 81.843750 9.078088
30.800000 90.015625 9.225133
31.050000 88.359375 9.225747
31.150000 87.437500 9.226088
31.175000 86.265625 9.226522
31.225000 85.125000 9.226945
31.275000 83.421875 9.227576
31.075000 88.171875 9.375908
31.175000 87.109375 9.376302
31.225000 85.953125 9.376730
31.250000 84.765625 9.377170
31.325000 83.375000 9.377685
31.475000 82.156250 9.378136
31.025000 87.750000 9.534282
31.125000 86.484375 9.534751
31.225000 85.593750 9.535081
31.275000 83.718750 9.535776
31.325000 82.562500 9.536204
31.675000 82.093750 9.536377
31.000000 87.750000 9.688222
31.000000 86.562500 9.688662
31.050000 85.703125 9.688980
31.175000 84.562500 9.689403
31.300000 83.656250 9.689739
31.475000 82.375000 9.690213
30.800000 89.515625 9.846054
30.975000 88.140625 9.846564
31.000000 87.718750 9.846720
31.025000 86.281250 9.847252
31.050000 85.125000 9.847680
31.100000 83.796875 9.848172
30.925000 87.828125 9.998281
30.950000 86.218750 9.998877
30.975000 85.140625 9.999276
31.025000 84.125000 9.999652
31.100000 82.609375 10.000213
31.400000 81.718750 10.000543
30.825000 88.203125 10.142735
30.850000 87.046875 10.143164
30.875000 85.781250 10.143633
30.925000 84.531250 10.144095
30.975000 83.265625 10.144564
31.100000 81.750000 10.145126
30.650000 88.375000 10.297996
30.725000 87.156250 10.298447
30.800000 86.125000 10.298829
30.825000 84.296875 10.299506
30.825000 82.890625 10.300027
30.925000 82.468750 10.300183
26.200000 90.109375 10.454887
30.225000 89.921875 10.454957
30.400000 88.031250 10.455657
30.425000 87.328125 10.455918
30.450000 86.031250 10.456398
30.500000 84.609375 10.456924
30.600000 83.843750 10.457208
30.675000 82.953125 10.457538
31.000000 81.390625 10.458117
30.125000 87.546875 10.611697
30.125000 86.687500 10.612015
30.175000 85.046875 10.612622
30.225000 84.328125 10.612889
30.300000 82.875000 10.613427
30.400000 81.843750 10.613809
30.175000 89.140625 10.766923
30.225000 88.640625 10.767108
30.250000 86.984375 10.767722
30.375000 85.968750 10.768098
30.475000 84.375000 10.768688
30.550000 83.906250 10.768862
30.325000 89.906250 10.912168
30.600000 89.046875 10.912487
30.650000 87.609375 10.913019
30.725000 86.593750 10.913395
30.775000 84.953125 10.914003
30.825000 84.125000 10.914310
30.925000 83.312500 10.914610
31.225000 82.156250 10.915039
30.875000 87.593750 11.067429
30.925000 87.000000 11.067649
30.975000 85.890625 11.068060
31.025000 84.234375 11.068673
31.075000 83.468750 11.068957
31.300000 81.718750 11.069605
30.850000 89.343750 11.223266
31.000000 88.625000 11.223532
31.025000 87.328125 11.224013
31.075000 86.187500 11.224435
31.175000 84.656250 11.225002
31.275000 83.578125 11.225401
30.900000 89.968750 11.373896
31.125000 88.843750 11.374313
31.200000 87.718750 11.374730
31.300000 86.062500 11.375343
31.350000 85.281250 11.375632
31.475000 84.140625 11.376055
30.975000 89.859375 11.534883
31.275000 88.593750 11.535352
31.350000 87.359375 11.535809
31.400000 86.390625 11.536168
31.500000 85.437500 11.536521
31.600000 84.312500 11.536937
31.425000 87.843750 11.688673
31.475000 86.640625 11.689119
31.575000 85.875000 11.689402
31.650000 84.562500 11.689888
31.700000 83.343750 11.690340
31.975000 82.312500 11.690722
31.400000 89.062500 11.845047
31.575000 88.406250 11.845290
31.675000 87.296875 11.845701
31.675000 85.531250 11.846355
31.725000 84.953125 11.846569
31.800000 83.421875 11.847136
31.925000 82.343750 11.847536
31.175000 89.812500 11.998144
31.475000 88.968750 11.998456
31.500000 87.375000 11.999047
31.625000 86.203125 11.999481
31.775000 85.375000 11.999788
31.825000 84.187500 12.000227
31.650000 87.734375 12.141220
31.700000 86.625000 12.141630
31.750000 85.796875 12.141937
31.800000 84.515625 12.142412
31.875000 83.187500 12.142904
32.200000 81.843750 12.143401
31.600000 89.562500 12.295168
31.675000 88.218750 12.295666
31.675000 87.343750 12.295990
31.675000 85.765625 12.296574
31.750000 84.906250 12.296893
31.825000 83.796875 12.297303
32.025000 82.281250 12.297865
26.350000 90.109375 12.450826
31.350000 89.703125 12.450977
31.625000 88.750000 12.451330
31.650000 87.578125 12.451764
31.675000 86.187500 12.452279
31.725000 85.015625 12.452713
31.800000 83.593750 12.453239
31.875000 82.265625 12.453731
31.625000 87.843750 12.601161
31.625000 86.437500 12.601682
31.600000 85.421875 12.602058
31.700000 84.093750 12.602550
31.150000 89.875000 12.761277
31.400000 88.265625 12.761873
31.450000 87.328125 12.762221
31.550000 86.109375 12.762672
31.575000 85.406250 12.762933
31.625000 84.281250 12.763349
30.950000 89.812500 12.912086
31.275000 88.562500 12.912549
31.350000 87.046875 12.913110
31.350000 85.968750 12.913509
31.425000 85.156250 12.913810
31.525000 83.546875 12.914407
31.075000 87.265625 13.073848
31.100000 86.359375 13.074184
31.150000 85.640625 13.074450
31.200000 84.484375 13.074878
31.275000 82.781250 13.075509
31.675000 82.156250 13.075740
30.900000 87.484375 13.223246
30.900000 86.468750 13.223622
30.975000 85.843750 13.223854
31.075000 83.921875 13.224566
31.150000 83.328125 13.224785
31.300000 81.687500 13.225393
31.050000 88.015625 13.370224
31.075000 86.656250 13.370728
31.125000 85.671875 13.371092
31.175000 84.046875 13.371694
31.300000 82.890625 13.372122
31.625000 81.875000 13.372499
31.275000 87.718750 13.531897
31.300000 87.296875 13.532053
31.375000 85.953125 13.532551
31.500000 84.234375 13.533188
31.625000 83.609375 13.533419
31.800000 82.015625 13.534009
31.400000 89.359375 13.683098
31.550000 87.859375 13.683654
31.625000 87.359375 13.683839
31.700000 86.250000 13.684250
31.750000 84.562500 13.684875
31.775000 83.296875 13.685344
31.925000 82.328125 13.685702
31.800000 87.906250 13.840168
31.825000 86.500000 13.840688
31.875000 85.187500 13.841175
31.950000 84.281250 13.841510
31.800000 89.546875 13.980378
31.900000 88.500000 13.980766
31.925000 87.031250 13.981310
31.975000 86.140625 13.981640
32.000000 84.609375 13.982207
32.050000 83.656250 13.982560
32.325000 82.468750 13.983000
31.750000 89.390625 14.134863
31.975000 88.515625 14.135187
32.000000 87.562500 14.135540
32.025000 86.140625 14.136066
32.075000 85.109375 14.136448
32.100000 83.718750 14.136964
32.300000 82.265625 14.137502
32.050000 87.437500 14.289883
32.075000 86.812500 14.290114
32.100000 85.359375 14.290653
32.150000 84.343750 14.291029
32.050000 89.250000 14.444463
32.075000 87.812500 14.444995
32.100000 87.125000 14.445250
32.125000 85.515625 14.445846
32.175000 84.406250 14.446257
32.300000 83.000000 14.446778
32.725000 82.015625 14.447142
26.325000 90.093750 14.605720
31.775000 89.312500 14.606009
32.050000 88.859375 14.606177
32.075000 87.687500 14.606611
32.100000 86.500000 14.607051
32.150000 84.968750 14.607618
32.275000 84.156250 14.607919
32.575000 82.921875 14.608376
32.000000 89.359375 14.758270
32.125000 88.437500 14.758612
32.150000 87.250000 14.759052
32.175000 86.125000 14.759468
32.225000 85.078125 14.759856
32.375000 83.390625 14.760481
32.700000 82.578125 14.760782
32.000000 89.125000 14.911566
32.125000 88.218750 14.911902
32.150000 87.250000 14.912261
32.175000 85.687500 14.912839
32.300000 84.437500 14.913302
32.450000 83.515625 14.913644
32.700000 82.453125 14.914037
31.900000 89.468750 15.071361
32.100000 88.687500 15.071651
32.125000 87.156250 15.072218
32.125000 86.437500 15.072484
32.275000 85.109375 15.072976
32.425000 83.828125 15.073450
32.650000 82.453125 15.073960
26.125000 90.125000 15.210394
31.850000 89.890625 15.210480
32.125000 88.859375 15.210862
32.150000 87.359375 15.211418
32.175000 86.312500 15.211806
32.175000 84.843750 15.212350
32.325000 84.265625 15.212564
32.550000 82.953125 15.213050
32.125000 87.593750 15.368910
32.150000 86.312500 15.369384
32.175000 84.937500 15.369893
32.225000 83.984375 15.370246
32.050000 88.078125 15.531844
32.075000 86.625000 15.532382
32.100000 85.453125 15.532816
32.150000 84.453125 15.533186
32.050000 87.484375 15.679323
32.025000 86.437500 15.679710
32.050000 85.187500 15.680173
32.125000 84.281250 15.680509
32.175000 83.078125 15.680955
32.525000 82.015625 15.681348
31.700000 89.500000 15.833337
31.825000 88.296875 15.833782
31.875000 87.109375 15.834222
31.925000 85.921875 15.834662
31.975000 84.843750 15.835061
32.025000 83.468750 15.835571
32.175000 82.062500 15.836092
31.525000 89.046875 15.990035
31.650000 88.265625 15.990324
31.675000 86.984375 15.990798
31.700000 85.687500 15.991279
31.750000 84.687500 15.991649
31.800000 83.781250 15.991985
31.975000 82.640625 15.992407
31.100000 89.843750 16.144914
31.325000 88.781250 16.145307
31.350000 87.718750 16.145701
31.375000 86.656250 16.146094
31.425000 85.546875 16.146505
31.500000 84.093750 16.147043
30.975000 89.187500 16.291300
31.050000 87.687500 16.291856
31.075000 86.812500 16.292180
31.075000 85.140625 16.292799
31.125000 84.078125 16.293192
31.225000 83.375000 16.293453
31.450000 81.796875 16.294037
31.050000 88.015625 16.442019
31.100000 87.203125 16.442320
31.125000 85.718750 16.442870
31.225000 84.937500 16.443159
31.350000 83.500000 16.443691
31.500000 81.984375 16.444253
31.025000 89.687500 16.599107
31.300000 88.437500 16.599570
31.325000 87.140625 16.600050
31.375000 86.671875 16.600224
31.425000 84.890625 16.600883
31.550000 84.343750 16.601086
31.500000 88.062500 16.750302
31.600000 86.906250 16.750730
31.525000 85.187500 16.751367
31.575000 84.390625 16.751662
31.725000 83.203125 16.752102
31.975000 82.359375 16.752414
31.450000 89.656250 16.911217
31.625000 88.312500 16.911715
31.675000 86.812500 16.912271
31.675000 85.703125 16.912682
31.750000 84.578125 16.913098
31.825000 83.203125 16.913608
31.950000 82.156250 16.913995
31.475000 89.578125 17.062081
31.700000 88.484375 17.062487
31.775000 87.593750 17.062816
31.800000 86.328125 17.063285
31.800000 84.921875 17.063806
31.900000 83.640625 17.064281
31.975000 82.250000 17.064795
31.425000 90.046875 17.220587
31.800000 88.906250 17.221009
31.800000 87.140625 17.221663
31.800000 86.046875 17.222068
31.800000 85.000000 17.222456
31.875000 83.968750 17.222838
31.825000 88.109375 17.373455
31.850000 86.734375 17.373964
31.875000 85.640625 17.374369
31.900000 84.046875 17.374959
31.950000 83.281250 17.375243
32.250000 81.984375 17.375723
31.800000 87.796875 17.515127
31.825000 86.593750 17.515572
31.850000 85.359375 17.516029
31.900000 84.500000 17.516348
31.950000 82.828125 17.516967
32.250000 82.250000 17.517181
31.675000 89.265625 17.682959
31.800000 88.546875 17.683225
31.850000 86.906250 17.683833
31.800000 85.968750 17.684180
31.825000 84.562500 17.684701
31.900000 83.593750 17.685060
32.025000 82.671875 17.685401
31.775000 87.421875 17.824724
31.775000 86.609375 17.825025
31.800000 85.140625 17.825569
31.850000 84.078125 17.825963
31.925000 82.703125 17.826472
32.250000 82.125000 17.826686
31.675000 87.875000 17.980583
31.700000 87.078125 17.980879
31.725000 85.687500 17.981394
31.825000 84.781250 17.981729
31.875000 83.593750 17.982169
32.075000 82.078125 17.982730
31.425000 89.125000 18.133914
31.675000 88.093750 18.134296
31.675000 87.062500 18.134678
31.675000 86.203125 18.134996
31.725000 84.718750 18.135546
31.750000 83.296875 18.136073
31.825000 82.359375 18.136420
31.225000 89.843750 18.287815
31.425000 88.375000 18.288359
31.500000 87.515625 18.288677
31.550000 86.359375 18.289106
31.575000 85.203125 18.289534
31.625000 83.328125 18.290228
31.225000 87.656250 18.444152
31.300000 86.296875 18.444656
31.325000 85.625000 18.444904
31.400000 84.484375 18.445327
31.475000 83.234375 18.445790
31.700000 81.828125 18.446311
31.000000 87.765625 18.600675
31.025000 86.921875 18.600988
31.050000 85.796875 18.601404
31.125000 84.140625 18.602018
31.225000 83.046875 18.602423
31.425000 81.906250 18.602845
30.700000 88.078125 18.752920
30.725000 86.890625 18.753359
30.750000 85.265625 18.753961
30.775000 84.296875 18.754320
30.875000 82.890625 18.754841
31.025000 81.750000 18.755263
30.150000 90.109375 18.909400
30.275000 88.843750 18.909868
30.300000 87.390625 18.910407
30.325000 86.265625 18.910823
30.350000 84.703125 18.911402
30.425000 84.296875 18.911552
30.475000 82.593750 18.912183
30.725000 81.625000 18.912542
30.350000 87.953125 19.064233
30.400000 86.812500 19.064655
30.425000 85.265625 19.065228
30.500000 84.296875 19.065587
30.575000 82.828125 19.066131
30.750000 81.843750 19.066495
30.600000 87.765625 19.205887
30.675000 87.093750 19.206136
30.700000 85.546875 19.206709
30.725000 84.562500 19.207074
30.775000 83.390625 19.207508
30.900000 81.968750 19.208034
30.525000 89.609375 19.358890
30.775000 88.687500 19.359231
30.800000 87.765625 19.359572
30.825000 86.015625 19.360221
30.850000 85.046875 19.360579
30.900000 83.625000 19.361106
30.875000 87.437500 19.515591
30.900000 87.015625 19.515747
30.975000 85.625000 19.516262
31.025000 84.468750 19.516690
31.050000 82.734375 19.517333
31.325000 81.734375 19.517703
30.875000 87.296875 19.666958
30.900000 86.828125 19.667131
30.975000 85.234375 19.667722
31.025000 84.390625 19.668034
31.050000 83.093750 19.668515
31.400000 82.140625 19.668868
31.025000 87.906250 19.823943
31.050000 86.484375 19.824470
31.000000 85.593750 19.824800
31.050000 83.843750 19.825448
31.125000 82.781250 19.825841
31.475000 82.093750 19.826096
31.075000 89.453125 19.977314
31.225000 88.468750 19.977678
31.225000 87.000000 19.978222
31.200000 85.421875 19.978807
31.225000 84.703125 19.979073
31.200000 83.109375 19.979663
31.375000 82.546875 19.979872
31.100000 88.234375 20.136436
31.200000 86.468750 20.137090
31.175000 85.640625 20.137397
31.175000 84.562500 20.137796
31.250000 83.468750 20.138201
31.500000 82.406250 20.138595
30.950000 89.562500 20.285394
31.000000 87.656250 20.286100
31.025000 86.546875 20.286510
31.075000 86.031250 20.286701
31.175000 84.484375 20.287274
31.300000 83.484375 20.287645
31.475000 82.578125 20.287981
30.825000 89.890625 20.433854
31.000000 88.656250 20.434312
31.025000 86.765625 20.435012
31.050000 86.484375 20.435116
31.100000 85.125000 20.435619
31.200000 83.687500 20.436152
30.800000 89.531250 20.595436
30.975000 88.609375 20.595777
31.000000 86.921875 20.596402
31.025000 86.234375 20.596657
31.050000 84.750000 20.597207
31.100000 84.046875 20.597467
30.725000 89.421875 20.742183
30.900000 88.640625 20.742472
30.875000 86.875000 20.743126
30.925000 86.390625 20.743305
30.975000 85.312500 20.743705
31.050000 84.078125 20.744162
30.650000 89.562500 20.897244
30.800000 88.078125 20.897794
30.825000 87.265625 20.898095
30.850000 86.265625 20.898465
30.875000 84.593750 20.899085
30.925000 83.390625 20.899530
30.475000 89.828125 21.053528
30.600000 88.093750 21.054170
30.625000 86.687500 21.054691
30.675000 85.937500 21.054969
30.725000 84.656250 21.055443
30.775000 84.031250 21.055675
30.125000 89.750000 21.207096
30.250000 88.703125 21.207484
30.275000 87.703125 21.207854
30.350000 85.703125 21.208595
30.425000 84.531250 21.209029
30.500000 83.437500 21.209434
30.600000 83.000000 21.209596
30.925000 81.640625 21.210099
29.925000 89.656250 21.362144
30.100000 88.953125 21.362404
30.100000 87.046875 21.363111
30.150000 86.359375 21.363365
30.225000 84.796875 21.363944
30.300000 84.328125 21.364117
30.400000 82.687500 21.364725
30.575000 81.828125 21.365043
30.425000 87.937500 21.517147
30.500000 87.093750 21.517459
30.550000 85.296875 21.518125
30.600000 84.687500 21.518351
30.700000 83.296875 21.518866
30.825000 82.140625 21.519294
30.475000 89.781250 21.661117
30.675000 88.468750 21.661603
30.775000 87.453125 21.661979
30.825000 86.343750 21.662390
30.875000 84.593750 21.663038
30.925000 83.828125 21.663322
30.700000 90.000000 21.826609
30.900000 88.390625 21.827205
30.925000 87.296875 21.827610
30.975000 86.656250 21.827847
31.025000 85.203125 21.828386
31.050000 83.781250 21.828912
30.750000 89.843750 21.975432
31.050000 88.578125 21.975901
31.075000 87.828125 21.976179
31.100000 86.015625 21.976850
31.175000 85.546875 21.977024
31.325000 84.453125 21.977429
31.025000 89.109375 22.124868
31.150000 88.562500 22.125071
31.250000 87.000000 22.125649
31.350000 86.281250 22.125916
31.425000 85.062500 22.126367
31.525000 83.187500 22.127061
31.700000 82.734375 22.127229
31.375000 88.078125 22.285562
31.450000 86.453125 22.286163
31.500000 85.453125 22.286534
31.575000 84.625000 22.286840
31.700000 83.640625 22.287205
31.925000 81.859375 22.287865
31.550000 87.843750 22.436273
31.550000 86.703125 22.436695
31.600000 85.421875 22.437170
31.675000 84.250000 22.437604
31.750000 82.890625 22.438107
32.075000 82.343750 22.438310
31.525000 88.125000 22.593416
31.550000 86.484375 22.594023
31.625000 85.734375 22.594301
31.725000 84.687500 22.594689
31.750000 82.953125 22.595331
32.150000 82.015625 22.595679
31.525000 89.000000 22.746492
31.575000 87.187500 22.747163
31.650000 86.031250 22.747591
31.750000 85.031250 22.747962
31.800000 83.875000 22.748390
31.275000 89.609375 22.904719
31.550000 88.750000 22.905038
31.650000 87.625000 22.905454
31.725000 86.625000 22.905825
31.775000 85.265625 22.906328
31.800000 84.171875 22.906733
31.625000 87.734375 23.045798
31.650000 86.953125 23.046087
31.725000 85.625000 23.046579
31.775000 84.625000 23.046950
31.600000 87.593750 23.200629
31.625000 86.578125 23.201005
31.700000 85.359375 23.201456
31.775000 84.500000 23.201774
31.600000 87.968750 23.354033
31.600000 86.796875 23.354467
31.675000 85.640625 23.354895
31.750000 84.296875 23.355393
31.425000 87.906250 23.509406
31.425000 86.515625 23.509921
31.500000 85.390625 23.510338
31.625000 84.218750 23.510772
31.725000 83.437500 23.511061
32.000000 81.687500 23.511709
31.175000 87.828125 23.663641
31.175000 86.765625 23.664035
31.200000 85.593750 23.664469
31.300000 84.390625 23.664914
31.475000 83.140625 23.665377
31.700000 82.281250 23.665696
30.950000 89.484375 23.818981
31.075000 88.359375 23.819398
31.050000 87.296875 23.819791
31.075000 85.671875 23.820393
31.125000 85.171875 23.820578
31.200000 83.421875 23.821226
31.350000 82.828125 23.821446
30.750000 89.515625 23.977767
30.850000 88.531250 23.978132
30.900000 87.437500 23.978537
30.975000 86.156250 23.979011
31.050000 84.640625 23.979573
31.100000 83.703125 23.979920
30.825000 89.531250 24.131713
31.075000 88.515625 24.132090
31.100000 87.109375 24.132610
31.150000 86.437500 24.132859
31.200000 85.031250 24.133380
31.300000 84.125000 24.133716
31.450000 87.812500 24.273820
31.450000 86.828125 24.274184
31.550000 85.859375 24.274543
31.650000 84.390625 24.275087
31.700000 82.984375 24.275608
32.025000 82.140625 24.275920
31.650000 87.828125 24.429825
31.700000 87.109375 24.430091
31.700000 85.234375 24.430786
31.750000 84.718750 24.430977
31.875000 83.343750 24.431486
32.125000 82.234375 24.431897
31.550000 89.375000 24.583343
31.775000 88.046875 24.583835
31.825000 87.000000 24.584223
31.875000 85.890625 24.584634
31.925000 85.171875 24.584900
31.975000 83.406250 24.585554
32.100000 82.546875 24.585872
31.600000 89.703125 24.737789
31.875000 88.406250 24.738269
31.900000 87.140625 24.738738
31.925000 86.046875 24.739143
31.950000 84.859375 24.739583
32.050000 83.500000 24.740086
32.150000 82.687500 24.740387
31.625000 89.375000 24.893064
31.950000 88.484375 24.893394
32.025000 87.546875 24.893741
32.050000 85.937500 24.894337
32.075000 85.250000 24.894592
32.075000 83.828125 24.895118
32.225000 82.734375 24.895523
31.675000 90.093750 25.048972
32.050000 88.718750 25.049481
32.025000 87.296875 25.050008
32.050000 86.781250 25.050199
32.075000 85.484375 25.050679
32.125000 84.218750 25.051148
32.075000 87.515625 25.204433
32.125000 86.609375 25.204769
32.225000 85.671875 25.205117
32.250000 83.750000 25.205828
32.150000 87.437500 25.354290
32.125000 86.921875 25.354481
32.225000 85.625000 25.354961
32.350000 84.250000 25.355470
32.150000 87.687500 25.515012
32.125000 86.640625 25.515400
32.200000 85.343750 25.515880
32.250000 84.343750 25.516250
32.100000 89.453125 25.660996
32.150000 88.078125 25.661505
32.150000 86.734375 25.662003
32.175000 85.765625 25.662362
32.300000 84.343750 25.662889
32.475000 83.093750 25.663352
32.825000 82.046875 25.663739
32.100000 87.906250 25.825115
32.125000 86.828125 25.825514
32.200000 85.671875 25.825943
32.300000 84.250000 25.826469
32.125000 87.546875 25.973315
32.125000 86.375000 25.973749
32.200000 85.687500 25.974004
32.300000 84.515625 25.974438
32.100000 87.515625 26.122481
32.125000 86.984375 26.122678
32.175000 85.484375 26.123233
32.250000 84.500000 26.123598
32.375000 83.421875 26.123997
32.750000 82.140625 26.124471
31.975000 89.500000 26.280708
32.075000 88.296875 26.281153
32.125000 87.140625 26.281581
32.150000 86.000000 26.282004
32.175000 84.312500 26.282629
32.175000 83.265625 26.283017
32.525000 82.156250 26.283427
31.825000 89.093750 26.433028
31.950000 88.468750 26.433259
31.975000 87.234375 26.433716
32.025000 86.265625 26.434075
32.050000 84.468750 26.434741
32.100000 83.546875 26.435082
32.300000 82.078125 26.435626
31.550000 90.062500 26.591618
31.775000 88.468750 26.592208
31.800000 87.375000 26.592613
31.850000 86.093750 26.593087
31.900000 85.250000 26.593400
31.975000 83.984375 26.593869
31.600000 88.031250 26.745116
31.625000 86.453125 26.745701
31.675000 85.000000 26.746239
31.725000 84.062500 26.746587
31.775000 82.765625 26.747067
32.100000 82.312500 26.747235
30.950000 90.078125 26.886246
31.275000 88.953125 26.886663
31.275000 87.203125 26.887311
31.300000 86.468750 26.887583
31.350000 85.484375 26.887948
31.425000 83.984375 26.888503
31.500000 83.250000 26.888775
31.825000 82.015625 26.889232
30.900000 89.312500 27.037576
30.925000 88.375000 27.037923
30.975000 87.421875 27.038276
31.100000 85.984375 27.038809
31.125000 84.421875 27.039387
31.200000 84.015625 27.039538
31.000000 89.328125 27.194027
31.100000 87.828125 27.194582
31.100000 87.468750 27.194715
31.175000 86.000000 27.195259
31.300000 84.546875 27.195797
31.400000 83.890625 27.196041
31.525000 82.468750 27.196567
31.350000 88.140625 27.353019
31.400000 87.140625 27.353389
31.425000 85.890625 27.353852
31.525000 84.640625 27.354315
31.650000 83.156250 27.354865
31.850000 81.906250 27.355328
31.550000 87.625000 27.504368
31.575000 86.453125 27.504802
31.600000 85.078125 27.505311
31.700000 84.500000 27.505525
31.775000 83.093750 27.506046
32.100000 81.953125 27.506468
31.600000 87.718750 27.661450
31.700000 86.359375 27.661953
31.775000 85.500000 27.662271
31.850000 84.328125 27.662705
26.150000 90.000000 27.812078
31.425000 89.812500 27.812148
31.750000 88.546875 27.812617
31.725000 87.015625 27.813184
31.700000 86.343750 27.813433
31.800000 85.265625 27.813832
31.900000 83.812500 27.814370
31.725000 87.875000 27.972734
31.850000 86.437500 27.973266
31.875000 85.531250 27.973602
31.900000 84.015625 27.974163
31.950000 83.375000 27.974401
32.350000 82.281250 27.974806
31.825000 87.531250 28.121156
31.825000 86.718750 28.121457
31.825000 85.078125 28.122065
31.875000 84.125000 28.122418
31.825000 87.828125 28.280102
31.825000 86.921875 28.280437
31.850000 85.484375 28.280970
31.900000 84.015625 28.281514
31.800000 88.312500 28.417557
31.850000 86.671875 28.418165
31.875000 85.593750 28.418564
31.900000 84.390625 28.419010
31.950000 83.031250 28.419513
32.225000 82.312500 28.419780
31.650000 89.265625 28.574783
31.750000 88.140625 28.575200
31.800000 86.906250 28.575657
31.800000 85.656250 28.576120
31.850000 84.265625 28.576635
31.900000 83.421875 28.576948
32.050000 82.390625 28.577330
31.300000 89.359375 28.729366
31.625000 88.531250 28.729673
31.700000 87.609375 28.730015
31.700000 86.015625 28.730605
31.775000 85.484375 28.730802
31.875000 83.734375 28.731450
31.625000 87.890625 28.885748
31.625000 86.828125 28.886142
31.625000 85.625000 28.886587
31.700000 84.140625 28.887137
31.750000 83.062500 28.887537
31.950000 81.796875 28.888005
31.400000 87.718750 29.036740
31.500000 86.484375 29.037197
31.550000 85.578125 29.037533
31.550000 84.265625 29.038019
31.600000 82.968750 29.038499
31.850000 82.265625 29.038760
31.125000 88.046875 29.196078
31.275000 87.171875 29.196402
31.300000 85.906250 29.196871
31.300000 84.312500 29.197461
31.400000 82.937500 29.197971
31.575000 82.328125 29.198196
30.950000 88.312500 29.350932
30.975000 87.015625 29.351412
31.000000 85.234375 29.352072
31.050000 84.656250 29.352286
31.125000 83.515625 29.352708
31.275000 82.046875 29.353252
30.625000 88.203125 29.505362
30.650000 86.796875 29.505883
30.700000 85.828125 29.506242
30.725000 84.218750 29.506838
30.775000 83.421875 29.507133
30.900000 82.000000 29.507660
29.925000 89.984375 29.660215
30.200000 88.406250 29.660800
30.225000 87.890625 29.660991
30.250000 86.234375 29.661604
30.300000 85.312500 29.661946
30.350000 83.687500 29.662548
30.425000 82.718750 29.662906
30.525000 82.140625 29.663121
30.425000 87.937500 29.817712
30.450000 86.671875 29.818181
30.500000 85.671875 29.818551
30.550000 84.250000 29.819077
30.625000 83.234375 29.819454
30.800000 81.703125 29.820021
30.650000 88.218750 29.959165
30.725000 86.687500 29.959732
30.725000 85.609375 29.960132
30.750000 84.000000 29.960728
30.800000 83.359375 29.960965
31.000000 82.359375 29.961335
30.775000 87.453125 30.113362
30.800000 86.390625 30.113755
30.875000 85.656250 30.114028
30.925000 84.500000 30.114456
30.975000 83.343750 30.114884
31.175000 81.765625 30.115469
30.825000 89.687500 30.266864
30.900000 88.000000 30.267488
30.900000 87.234375 30.267772
30.925000 85.468750 30.268426
30.975000 84.765625 30.268686
31.050000 83.812500 30.269039
31.150000 82.453125 30.269543
30.825000 89.062500 30.416620
30.900000 88.093750 30.416979
30.975000 87.359375 30.417251
31.000000 85.953125 30.417772
31.025000 84.968750 30.418137
31.175000 83.890625 30.418536
31.250000 82.187500 30.419167
31.075000 87.859375 30.577852
31.175000 86.312500 30.578425
31.175000 84.890625 30.578952
31.175000 84.437500 30.579120
31.225000 88.078125 30.729077
31.225000 86.843750 30.729534
31.250000 86.062500 30.729823
31.300000 84.062500 30.730564
31.300000 82.984375 30.730963
31.500000 82.015625 30.731322
30.875000 89.500000 30.889395
30.975000 87.984375 30.889956
31.025000 86.937500 30.890343
31.100000 85.609375 30.890836
31.200000 84.875000 30.891107
31.275000 83.640625 30.891565
31.350000 82.750000 30.891895
31.000000 87.312500 31.039486
31.025000 86.421875 31.039816
31.150000 85.656250 31.040099
31.275000 84.296875 31.040603
31.000000 87.703125 31.186936
30.950000 86.515625 31.187376
31.100000 85.984375 31.187573
31.150000 84.890625 31.187978
31.175000 83.718750 31.188412
31.425000 82.109375 31.189008
30.725000 89.921875 31.348592
30.950000 88.781250 31.349014
30.975000 87.187500 31.349604
30.975000 86.203125 31.349969
31.025000 85.421875 31.350258
31.075000 84.265625 31.350687
30.875000 87.765625 31.498408
30.900000 86.718750 31.498796
30.925000 85.406250 31.499282
30.975000 84.609375 31.499577
31.050000 83.156250 31.500115
31.325000 81.984375 31.500549
30.750000 88.375000 31.656304
30.775000 87.531250 31.656616
30.800000 86.234375 31.657097
30.825000 84.953125 31.657571
30.875000 83.765625 31.658011
30.925000 83.000000 31.658295
31.300000 81.812500 31.658735
30.575000 87.421875 31.808738
30.600000 86.187500 31.809196
30.625000 85.140625 31.809583
30.700000 83.781250 31.810087
30.750000 83.062500 31.810353
30.925000 81.468750 31.810943
30.225000 88.046875 31.968041
30.225000 86.875000 31.968475
30.225000 85.281250 31.969065
30.300000 84.343750 31.969413
30.450000 83.578125 31.969696
30.575000 82.171875 31.970217
30.175000 87.750000 32.104455
30.175000 86.578125 32.104889
30.225000 85.093750 32.105439
30.275000 84.453125 32.105676
30.400000 83.171875 32.106151
30.550000 81.828125 32.106648
30.525000 88.125000 32.262782
30.625000 87.015625 32.263193
30.700000 85.687500 32.263685
30.700000 84.015625 32.264304
30.775000 83.484375 32.264501
30.950000 81.968750 32.265062
30.775000 88.015625 32.413979
30.825000 86.828125 32.414418
30.850000 85.390625 32.414951
30.950000 84.484375 32.415287
31.025000 83.437500 32.415674
31.150000 82.406250 32.416056
30.725000 89.828125 32.573308
30.950000 88.812500 32.573684
30.975000 87.484375 32.574176
31.000000 86.140625 32.574673
31.025000 85.375000 32.574957
31.100000 83.609375 32.575611
30.800000 89.625000 32.725818
31.075000 88.468750 32.726246
31.100000 87.828125 32.726483
31.175000 86.484375 32.726981
31.275000 85.187500 32.727461
31.350000 83.750000 32.727994
31.300000 87.765625 32.886308
31.350000 86.703125 32.886702
31.400000 86.031250 32.886951
31.450000 84.937500 32.887356
31.550000 83.406250 32.887923
31.775000 82.406250 32.888294
31.225000 89.375000 33.035118
31.400000 88.437500 33.035465
31.400000 86.890625 33.036038
31.500000 85.781250 33.036449
31.600000 85.234375 33.036652
31.650000 83.468750 33.037306
31.775000 82.515625 33.037659
31.125000 89.750000 33.196341
31.450000 88.625000 33.196757
31.550000 87.468750 33.197186
31.625000 86.859375 33.197411
31.650000 85.421875 33.197944
31.725000 84.109375 33.198430
31.525000 87.843750 33.345796
31.550000 86.625000 33.346247
31.675000 85.984375 33.346484
31.775000 84.265625 33.347121
31.825000 83.343750 33.347462
32.125000 82.062500 33.347937
31.600000 87.687500 33.494612
31.725000 87.093750 33.494832
31.750000 85.281250 33.495503
31.775000 84.640625 33.495741
31.825000 83.015625 33.496342
32.125000 81.937500 33.496742
31.700000 88.125000 33.655850
31.725000 87.187500 33.656197
31.750000 85.421875 33.656851
31.775000 84.640625 33.657140
31.825000 83.218750 33.657667
32.125000 82.218750 33.658037
31.675000 88.296875 33.805164
31.700000 87.093750 33.805610
31.725000 85.640625 33.806148
31.775000 84.250000 33.806663
31.825000 83.234375 33.807039
32.125000 82.078125 33.807467
31.375000 89.390625 33.961985
31.625000 88.203125 33.962424
31.650000 87.031250 33.962858
31.675000 86.093750 33.963206
31.675000 85.015625 33.963605
31.725000 83.734375 33.964079
31.900000 82.812500 33.964421
31.125000 90.015625 34.115886
31.450000 88.281250 34.116529
31.525000 87.093750 34.116968
31.600000 86.218750 34.117292
31.625000 84.937500 34.117767
31.675000 83.703125 34.118224
31.100000 89.671875 34.257883
31.375000 88.703125 34.258241
31.400000 87.703125 34.258612
31.400000 86.140625 34.259190
31.525000 85.187500 34.259543
31.625000 84.109375 34.259943
30.975000 89.437500 34.410922
31.150000 88.796875 34.411159
31.150000 87.671875 34.411576
31.225000 86.500000 34.412010
31.275000 85.312500 34.412450
31.375000 83.515625 34.413115
30.775000 90.156250 34.570256
31.025000 88.890625 34.570724
31.025000 87.312500 34.571309
31.050000 86.625000 34.571564
31.075000 84.734375 34.572264
31.150000 84.062500 34.572513
30.700000 89.515625 34.723129
30.900000 88.562500 34.723481
30.950000 87.312500 34.723944
31.025000 86.109375 34.724390
31.050000 85.062500 34.724778
31.125000 83.906250 34.725206
30.800000 89.781250 34.881984
31.100000 88.750000 34.882366
31.150000 87.703125 34.882754
31.250000 86.671875 34.883136
31.350000 85.375000 34.883616
31.425000 84.234375 34.884039
31.550000 83.250000 34.884403
31.950000 81.828125 34.884930
31.150000 90.031250 35.038584
31.475000 88.796875 35.039041
31.525000 87.828125 35.039400
31.575000 86.703125 35.039816
31.625000 85.578125 35.040233
31.700000 84.156250 35.040760
31.675000 88.296875 35.179947
31.700000 87.171875 35.180364
31.750000 85.937500 35.180821
31.800000 84.515625 35.181348
31.850000 83.031250 35.181898
32.125000 81.953125 35.182297
31.875000 87.828125 35.334040
31.900000 87.031250 35.334335
31.950000 85.750000 35.334810
31.975000 84.062500 35.335435
31.875000 87.687500 35.488801
31.900000 86.859375 35.489108
31.950000 85.187500 35.489727
31.975000 84.437500 35.490005
31.850000 89.218750 35.643391
32.000000 88.359375 35.643710
32.050000 87.578125 35.643999
32.075000 86.375000 35.644444
32.075000 84.515625 35.645133
32.125000 83.765625 35.645411
32.400000 82.656250 35.645822
31.775000 89.781250 35.798559
32.050000 88.937500 35.798872
32.075000 87.703125 35.799329
32.100000 86.000000 35.799960
32.125000 84.750000 35.800423
32.175000 83.953125 35.800718
32.400000 83.093750 35.801036
32.100000 87.468750 35.955386
32.125000 86.515625 35.955739
32.150000 85.359375 35.956167
32.275000 84.015625 35.956665
32.100000 89.703125 36.110738
32.200000 88.484375 36.111189
32.125000 86.656250 36.111866
32.150000 86.140625 36.112057
32.200000 84.375000 36.112711
32.350000 83.671875 36.112971
32.750000 82.515625 36.113400
31.925000 89.859375 36.265057
32.025000 88.062500 36.265722
32.100000 87.390625 36.265971
32.125000 86.078125 36.266457
32.250000 84.984375 36.266862
32.425000 83.390625 36.267452
32.650000 82.671875 36.267719
31.975000 89.906250 36.411618
32.100000 88.343750 36.412197
32.075000 87.000000 36.412694
32.100000 86.140625 36.413013
32.175000 85.187500 36.413366
32.275000 83.406250 36.414025
32.575000 82.781250 36.414257
32.025000 89.187500 36.564377
32.125000 87.921875 36.564846
32.100000 87.437500 36.565025
32.150000 86.203125 36.565482
32.200000 85.078125 36.565899
32.325000 83.750000 36.566391
32.725000 82.203125 36.566964
32.000000 89.359375 36.722129
32.125000 88.250000 36.722540
32.100000 87.125000 36.722956
32.150000 85.953125 36.723390
32.200000 84.359375 36.723980
32.250000 83.218750 36.724403
32.625000 82.375000 36.724715
32.075000 88.062500 36.874673
32.100000 86.562500 36.875228
32.125000 85.578125 36.875593
32.175000 84.828125 36.875871
32.300000 83.125000 36.876502
32.700000 82.531250 36.876721
32.050000 88.281250 37.034282
32.075000 86.515625 37.034936
32.100000 85.468750 37.035324
32.150000 84.703125 37.035607
32.200000 83.093750 37.036204
32.525000 82.437500 37.036447
31.825000 89.171875 37.185926
31.900000 87.859375 37.186412
31.950000 87.109375 37.186689
31.975000 85.515625 37.187280
32.075000 84.765625 37.187557
32.175000 83.765625 37.187928
32.375000 82.593750 37.188362
31.625000 89.484375 37.327694
31.725000 88.078125 37.328215
31.775000 87.250000 37.328522
31.800000 85.765625 37.329072
31.850000 84.281250 37.329621
31.900000 83.578125 37.329882
32.075000 82.062500 37.330443
31.400000 89.515625 37.497389
31.500000 87.781250 37.498031
31.525000 87.265625 37.498222
31.600000 85.765625 37.498777
31.625000 84.531250 37.499234
31.700000 83.781250 37.499512
31.850000 82.203125 37.500097
31.200000 87.640625 37.637944
31.250000 87.171875 37.638118
31.275000 85.843750 37.638610
31.300000 84.187500 37.639223
31.375000 83.687500 37.639408
31.550000 81.921875 37.640062
30.975000 89.343750 37.794279
31.025000 88.312500 37.794661
31.075000 87.328125 37.795025
31.100000 86.187500 37.795448
31.150000 84.828125 37.795951
31.225000 83.343750 37.796501
31.350000 82.140625 37.796947
30.975000 89.703125 37.951185
31.150000 88.484375 37.951636
31.175000 87.203125 37.952111
31.225000 85.828125 37.952620
31.350000 85.062500 37.952904
31.425000 83.359375 37.953534
31.125000 89.531250 38.100261
31.375000 88.656250 38.100585
31.400000 86.921875 38.101228
31.450000 85.953125 38.101587
31.525000 84.953125 38.101957
31.625000 84.328125 38.102188
31.575000 87.687500 38.265608
31.625000 86.781250 38.265944
31.575000 85.765625 38.266320
31.625000 84.234375 38.266887
31.750000 83.484375 38.267165
32.000000 82.015625 38.267709
31.575000 89.109375 38.412268
31.675000 88.265625 38.412580
31.675000 86.656250 38.413177
31.725000 85.984375 38.413425
31.825000 84.718750 38.413894
31.850000 83.515625 38.414340
32.025000 82.203125 38.414826
31.525000 89.796875 38.561710
31.775000 87.984375 38.562381
31.800000 87.625000 38.562514
31.850000 86.250000 38.563023
31.875000 84.937500 38.563509
31.925000 83.843750 38.563914
32.000000 82.156250 38.564539
31.725000 87.578125 38.722432
31.850000 86.578125 38.722802
31.875000 85.156250 38.723329
31.925000 84.000000 38.723757
31.825000 87.671875 38.874174
31.825000 86.687500 38.874539
31.825000 85.765625 38.874880
31.900000 84.515625 38.875343
31.975000 82.875000 38.875951
32.350000 82.203125 38.876199
31.825000 87.234375 39.034134
31.825000 86.625000 39.034360
31.850000 84.953125 39.034979
31.900000 84.062500 39.035309
31.800000 87.562500 39.183616
31.825000 86.156250 39.184136
31.850000 85.437500 39.184403
31.925000 84.328125 39.184813
31.775000 87.250000 39.344881
31.800000 86.468750 39.345170
31.825000 85.593750 39.345494
31.900000 83.953125 39.346102
31.700000 87.578125 39.477102
31.725000 86.421875 39.477530
31.725000 84.828125 39.478120
31.775000 83.875000 39.478473
31.275000 89.765625 39.634748
31.475000 88.687500 39.635147
31.575000 86.859375 39.635824
31.600000 85.625000 39.636281
31.625000 85.000000 39.636513
31.725000 83.796875 39.636958
31.200000 89.531250 39.789723
31.450000 88.484375 39.790111
31.475000 87.203125 39.790586
31.425000 85.734375 39.791130
31.475000 84.703125 39.791512
31.550000 83.265625 39.792044
31.625000 82.437500 39.792351
31.000000 89.296875 39.947834
31.075000 88.406250 39.948164
31.125000 86.859375 39.948737
31.200000 85.812500 39.949125
31.225000 84.546875 39.949594
31.300000 83.187500 39.950097
30.725000 89.296875 40.107633
30.900000 88.359375 40.107981
30.925000 87.484375 40.108305
30.925000 85.703125 40.108964
30.950000 84.812500 40.109294
31.025000 83.968750 40.109607
30.375000 89.781250 40.246446
30.575000 88.843750 40.246794
30.600000 87.375000 40.247338
30.600000 86.640625 40.247610
30.650000 85.125000 40.248171
30.700000 83.937500 40.248611
30.725000 82.265625 40.249230
31.000000 81.890625 40.249369
30.200000 87.515625 40.407964
30.225000 86.281250 40.408421
30.275000 85.296875 40.408786
30.325000 84.062500 40.409243
30.425000 82.734375 40.409735
30.525000 81.781250 40.410088
30.400000 87.578125 40.559120
30.450000 86.531250 40.559508
30.500000 86.000000 40.559705
30.575000 84.171875 40.560382
30.625000 83.671875 40.560567
30.750000 82.000000 40.561187
30.675000 88.437500 40.718176
30.750000 87.031250 40.718697
30.750000 85.421875 40.719293
30.800000 84.500000 40.719634
30.850000 83.671875 40.719941
30.950000 82.328125 40.720438
30.700000 89.156250 40.869795
30.875000 88.734375 40.869951
30.900000 87.125000 40.870547
30.900000 86.437500 40.870801
30.925000 84.968750 40.871346
31.000000 83.296875 40.871965
30.700000 89.343750 41.030345
30.875000 88.062500 41.030820
30.900000 87.234375 41.031126
30.900000 86.343750 41.031456
30.925000 85.109375 41.031913
31.000000 83.750000 41.032417
30.850000 89.203125 41.181036
30.950000 88.359375 41.181348
31.050000 86.796875 41.181927
31.075000 85.671875 41.182344
31.050000 84.531250 41.182766
31.100000 83.656250 41.183090
31.225000 82.328125 41.183582
30.750000 90.062500 41.322941
30.975000 88.531250 41.323508
31.050000 87.218750 41.323994
31.150000 86.156250 41.324387
31.125000 85.421875 41.324659
31.175000 83.921875 41.325215
31.150000 87.421875 41.478340
31.150000 86.437500 41.478705
31.200000 85.109375 41.479197
31.200000 83.859375 41.479660
31.025000 87.734375 41.634936
31.050000 86.546875 41.635375
31.100000 85.234375 41.635862
31.150000 84.171875 41.636255
31.300000 83.250000 41.636597
31.700000 81.812500 41.637129
30.900000 89.156250 41.786998
30.950000 88.125000 41.787380
31.075000 87.406250 41.787646
31.175000 85.953125 41.788184
31.175000 84.921875 41.788566
31.250000 83.859375 41.788960
31.425000 82.109375 41.789608
30.675000 89.984375 41.946299
30.975000 88.296875 41.946924
31.000000 87.890625 41.947075
31.025000 86.625000 41.947544
31.125000 84.812500 41.948215
31.200000 84.171875 41.948452
30.925000 88.093750 42.095571
30.950000 86.625000 42.096115
30.975000 86.015625 42.096340
31.075000 84.812500 42.096786
31.125000 83.484375 42.097278
31.250000 81.968750 42.097839
30.850000 87.812500 42.244185
30.875000 87.031250 42.244475
30.950000 85.500000 42.245042
30.975000 84.078125 42.245568
31.000000 82.796875 42.246043
