24.325000 84.593750 3.802595
24.650000 83.703125 3.802595
24.850000 81.171875 3.802595
24.875000 82.125000 3.802595
24.925000 80.968750 3.802595
25.050000 79.953125 3.802595
24.425000 86.656250 3.958302
24.625000 84.531250 3.958302
24.850000 83.328125 3.958302
24.875000 82.140625 3.958302
24.925000 81.062500 3.958302
25.050000 78.984375 3.958302
24.850000 84.515625 4.115109
24.875000 83.421875 4.115109
24.925000 82.328125 4.115109
24.925000 80.937500 4.115109
24.950000 78.406250 4.115109
24.100000 87.812500 4.271626
24.225000 88.625000 4.271626
24.450000 87.468750 4.271626
24.675000 86.078125 4.271626
24.750000 83.921875 4.271626
24.850000 82.093750 4.271626
24.875000 82.890625 4.271626
24.950000 81.859375 4.271626
24.975000 80.687500 4.271626
25.125000 78.265625 4.271626
24.525000 83.500000 4.430296
24.875000 83.656250 4.430296
24.925000 82.250000 4.430296
24.950000 81.421875 4.430296
24.225000 85.906250 4.595742
24.225000 84.750000 4.595742
24.550000 82.093750 4.595742
24.900000 82.187500 4.595742
24.925000 81.125000 4.595742
24.925000 79.765625 4.595742
24.200000 87.625000 4.758010
24.200000 84.531250 4.758010
24.200000 83.484375 4.758010
24.225000 82.328125 4.758010
24.425000 81.171875 4.758010
24.650000 81.953125 4.758010
24.775000 79.421875 4.758010
24.875000 79.343750 4.758010
24.175000 87.765625 4.915821
24.200000 86.593750 4.915821
24.200000 85.531250 4.915821
24.200000 84.312500 4.915821
24.425000 79.234375 4.915821
24.650000 78.937500 4.915821
23.900000 86.312500 5.071365
23.900000 85.156250 5.071365
23.900000 84.046875 5.071365
24.025000 84.593750 5.071365
24.150000 83.437500 5.071365
24.150000 82.265625 5.071365
23.825000 86.125000 5.228140
23.850000 85.218750 5.228140
23.850000 84.125000 5.228140
23.875000 82.968750 5.228140
23.900000 81.812500 5.228140
23.900000 80.656250 5.228140
24.025000 81.187500 5.228140
23.100000 89.562500 5.382334
23.250000 88.343750 5.382334
23.250000 87.031250 5.382334
23.425000 86.421875 5.382334
23.625000 84.843750 5.382334
23.625000 83.125000 5.382334
23.625000 81.281250 5.382334
23.625000 81.750000 5.382334
23.650000 79.375000 5.382334
23.250000 87.687500 5.537984
23.250000 86.546875 5.537984
23.425000 84.156250 5.537984
23.750000 83.343750 5.537984
23.875000 82.359375 5.537984
23.875000 81.109375 5.537984
23.900000 79.546875 5.537984
23.900000 85.875000 5.708337
23.900000 84.984375 5.708337
23.900000 83.875000 5.708337
23.900000 82.718750 5.708337
23.900000 81.562500 5.708337
24.025000 82.109375 5.708337
24.150000 80.953125 5.708337
23.900000 87.656250 5.863647
23.900000 86.484375 5.863647
23.900000 85.328125 5.863647
24.025000 85.937500 5.863647
24.000000 83.093750 5.863647
24.025000 83.859375 5.863647
24.200000 82.703125 5.863647
24.475000 79.078125 5.863647
24.050000 89.484375 6.018829
24.200000 88.562500 6.018829
24.200000 87.406250 6.018829
24.175000 86.062500 6.018829
24.175000 85.062500 6.018829
24.200000 84.093750 6.018829
24.525000 78.703125 6.018829
24.850000 78.687500 6.018829
24.200000 88.125000 6.187707
24.400000 84.937500 6.187707
24.625000 81.687500 6.187707
24.750000 81.453125 6.187707
24.900000 81.546875 6.187707
24.025000 89.859375 6.345030
24.175000 88.703125 6.345030
24.175000 87.531250 6.345030
24.550000 82.015625 6.345030
24.900000 80.703125 6.345030
25.075000 79.640625 6.345030
24.050000 89.625000 6.497401
24.200000 86.546875 6.497401
24.200000 87.250000 6.497401
24.300000 85.125000 6.497401
24.550000 85.218750 6.497401
24.750000 82.953125 6.497401
24.875000 82.906250 6.497401
24.950000 81.765625 6.497401
24.975000 80.453125 6.497401
25.125000 78.406250 6.497401
24.050000 89.546875 6.665746
24.200000 88.406250 6.665746
24.200000 85.312500 6.665746
24.300000 85.312500 6.665746
24.550000 84.890625 6.665746
24.800000 84.046875 6.665746
24.925000 80.750000 6.665746
24.950000 81.656250 6.665746
24.050000 87.671875 6.821214
24.425000 84.218750 6.821214
24.750000 83.062500 6.821214
24.875000 83.921875 6.821214
24.925000 82.625000 6.821214
24.950000 81.593750 6.821214
24.400000 84.765625 6.978489
24.750000 83.281250 6.978489
24.875000 83.203125 6.978489
24.950000 82.140625 6.978489
24.925000 80.875000 6.978489
25.075000 79.281250 6.978489
24.175000 85.703125 7.134444
24.400000 86.406250 7.134444
24.625000 85.453125 7.134444
24.650000 83.656250 7.134444
24.775000 81.875000 7.134444
24.900000 82.109375 7.134444
24.900000 80.828125 7.134444
25.050000 78.531250 7.134444
24.175000 87.734375 7.289224
24.225000 84.468750 7.289224
24.450000 81.046875 7.289224
24.750000 80.640625 7.289224
24.850000 79.328125 7.289224
24.875000 79.468750 7.289224
24.200000 88.125000 7.460910
24.200000 86.953125 7.460910
24.200000 85.843750 7.460910
24.200000 82.765625 7.460910
24.450000 81.421875 7.460910
24.150000 87.578125 7.616046
24.150000 86.406250 7.616046
24.025000 84.609375 7.616046
24.025000 84.187500 7.616046
24.375000 80.187500 7.616046
23.700000 88.218750 7.766587
23.900000 87.812500 7.766587
23.900000 85.765625 7.766587
23.900000 84.609375 7.766587
23.900000 83.500000 7.766587
23.900000 82.328125 7.766587
23.900000 81.171875 7.766587
24.025000 81.703125 7.766587
24.150000 80.468750 7.766587
24.325000 79.562500 7.766587
23.125000 89.609375 7.928522
23.250000 88.078125 7.928522
23.250000 87.015625 7.928522
23.425000 85.453125 7.928522
23.625000 83.890625 7.928522
23.625000 82.328125 7.928522
23.625000 83.031250 7.928522
23.750000 80.437500 7.928522
23.750000 79.359375 7.928522
23.800000 78.984375 7.928522
23.250000 87.578125 8.091065
23.250000 86.093750 8.091065
23.250000 84.921875 8.091065
23.425000 82.734375 8.091065
23.750000 82.375000 8.091065
23.850000 80.421875 8.091065
23.850000 79.281250 8.091065
23.900000 85.906250 8.239670
23.900000 84.750000 8.239670
23.900000 83.687500 8.239670
23.900000 82.531250 8.239670
23.900000 81.375000 8.239670
23.900000 80.218750 8.239670
24.000000 87.062500 8.417176
24.125000 86.156250 8.417176
24.150000 85.046875 8.417176
24.150000 83.890625 8.417176
24.150000 82.734375 8.417176
24.175000 81.812500 8.417176
24.225000 80.765625 8.417176
24.450000 79.406250 8.417176
24.200000 88.312500 8.565082
24.200000 87.140625 8.565082
24.200000 86.046875 8.565082
24.200000 84.890625 8.565082
24.200000 83.734375 8.565082
24.400000 78.671875 8.565082
24.800000 77.171875 8.565082
24.200000 87.656250 8.722447
24.200000 86.500000 8.722447
24.200000 85.421875 8.722447
24.175000 82.343750 8.722447
24.175000 81.187500 8.722447
24.450000 82.000000 8.722447
24.675000 80.734375 8.722447
24.750000 77.968750 8.722447
24.200000 87.765625 8.891243
24.200000 84.671875 8.891243
24.525000 81.531250 8.891243
24.850000 80.125000 8.891243
24.875000 81.078125 8.891243
24.875000 79.703125 8.891243
24.025000 89.921875 9.046988
24.200000 88.765625 9.046988
24.300000 86.593750 9.046988
24.625000 82.390625 9.046988
24.875000 83.218750 9.046988
24.925000 81.906250 9.046988
24.950000 80.843750 9.046988
25.100000 79.562500 9.046988
24.300000 88.500000 9.200668
24.425000 87.343750 9.200668
24.425000 86.187500 9.200668
24.450000 85.296875 9.200668
24.675000 85.234375 9.200668
24.900000 84.015625 9.200668
24.925000 82.609375 9.200668
24.950000 81.578125 9.200668
24.975000 80.312500 9.200668
25.175000 79.156250 9.200668
24.450000 87.234375 9.356074
24.500000 86.250000 9.356074
24.725000 86.062500 9.356074
24.925000 84.796875 9.356074
24.950000 83.781250 9.356074
24.950000 82.343750 9.356074
24.950000 81.343750 9.356074
24.025000 90.046875 9.526598
24.325000 88.078125 9.526598
24.650000 85.828125 9.526598
24.850000 82.421875 9.526598
24.850000 83.265625 9.526598
24.850000 82.015625 9.526598
24.875000 81.000000 9.526598
25.075000 79.640625 9.526598
24.625000 83.406250 9.685861
24.850000 84.140625 9.685861
24.875000 83.031250 9.685861
24.925000 81.640625 9.685861
24.200000 86.281250 9.841960
24.325000 86.031250 9.841960
24.450000 85.140625 9.841960
24.650000 83.796875 9.841960
24.850000 81.734375 9.841960
24.850000 81.203125 9.841960
24.900000 81.562500 9.841960
24.200000 88.187500 9.996387
24.200000 87.015625 9.996387
24.200000 84.000000 9.996387
24.450000 82.421875 9.996387
24.675000 81.312500 9.996387
24.025000 89.828125 10.153114
24.200000 88.656250 10.153114
24.200000 87.500000 10.153114
24.175000 86.343750 10.153114
24.150000 85.234375 10.153114
24.400000 80.156250 10.153114
24.650000 79.421875 10.153114
24.725000 79.203125 10.153114
23.900000 87.781250 10.310016
24.025000 88.312500 10.310016
24.150000 87.156250 10.310016
24.150000 86.000000 10.310016
24.150000 84.843750 10.310016
24.150000 83.687500 10.310016
24.150000 82.515625 10.310016
24.175000 81.578125 10.310016
24.400000 80.062500 10.310016
24.675000 79.015625 10.310016
23.700000 88.437500 10.478522
23.900000 87.203125 10.478522
23.900000 85.796875 10.478522
23.900000 84.875000 10.478522
23.900000 83.531250 10.478522
23.900000 82.359375 10.478522
23.900000 81.203125 10.478522
23.900000 80.062500 10.478522
23.425000 88.156250 10.634792
23.625000 86.796875 10.634792
23.625000 85.140625 10.634792
23.625000 84.046875 10.634792
23.625000 82.187500 10.634792
23.625000 80.921875 10.634792
23.625000 81.234375 10.634792
23.750000 78.734375 10.634792
23.875000 78.078125 10.634792
23.275000 88.375000 10.791569
23.450000 87.218750 10.791569
23.475000 86.625000 10.791569
23.675000 84.906250 10.791569
23.850000 83.859375 10.791569
23.850000 83.203125 10.791569
23.850000 81.546875 10.791569
23.875000 80.734375 10.791569
23.875000 79.250000 10.791569
23.850000 87.687500 10.945324
23.900000 86.515625 10.945324
23.900000 85.359375 10.945324
23.900000 84.203125 10.945324
23.900000 83.171875 10.945324
23.900000 82.015625 10.945324
23.900000 80.875000 10.945324
24.025000 81.406250 10.945324
24.175000 80.484375 10.945324
24.375000 79.000000 10.945324
24.175000 87.968750 11.115558
24.175000 86.578125 11.115558
24.150000 85.546875 11.115558
24.175000 84.640625 11.115558
24.200000 83.484375 11.115558
24.200000 82.312500 11.115558
24.200000 87.859375 11.265983
24.200000 86.703125 11.265983
24.200000 85.656250 11.265983
24.200000 84.500000 11.265983
24.200000 81.421875 11.265983
24.425000 80.390625 11.265983
24.650000 81.250000 11.265983
24.200000 87.671875 11.427076
24.200000 86.515625 11.427076
24.200000 83.468750 11.427076
24.450000 81.687500 11.427076
24.750000 78.843750 11.427076
24.875000 79.734375 11.427076
24.300000 85.906250 11.587817
24.200000 84.734375 11.587817
24.525000 81.343750 11.587817
24.875000 82.265625 11.587817
24.925000 81.031250 11.587817
24.925000 79.578125 11.587817
24.625000 83.859375 11.753278
24.850000 82.906250 11.753278
24.850000 83.562500 11.753278
24.875000 82.296875 11.753278
24.925000 81.109375 11.753278
24.925000 78.906250 11.753278
24.450000 86.390625 11.908808
24.475000 85.593750 11.908808
24.725000 85.343750 11.908808
24.900000 84.250000 11.908808
24.900000 82.906250 11.908808
24.925000 81.703125 11.908808
24.925000 80.593750 11.908808
25.100000 78.562500 11.908808
24.650000 86.156250 12.064251
24.875000 84.250000 12.064251
24.875000 83.109375 12.064251
24.875000 83.953125 12.064251
24.925000 82.828125 12.064251
24.925000 81.593750 12.064251
24.250000 87.640625 12.218237
24.450000 88.484375 12.218237
24.675000 87.359375 12.218237
24.775000 84.859375 12.218237
24.850000 85.296875 12.218237
24.875000 84.000000 12.218237
24.900000 80.812500 12.218237
24.900000 81.703125 12.218237
24.175000 89.218750 12.375738
24.175000 86.203125 12.375738
24.525000 84.218750 12.375738
24.750000 83.515625 12.375738
24.675000 81.921875 12.375738
24.800000 81.390625 12.375738
24.425000 83.453125 12.546064
24.650000 84.125000 12.546064
24.675000 83.218750 12.546064
24.750000 81.156250 12.546064
24.850000 79.515625 12.546064
24.925000 79.468750 12.546064
24.200000 87.968750 12.701000
24.175000 86.812500 12.701000
24.150000 83.781250 12.701000
24.400000 81.281250 12.701000
24.650000 79.171875 12.701000
24.175000 87.531250 12.855688
24.175000 86.609375 12.855688
24.200000 85.593750 12.855688
24.200000 84.437500 12.855688
24.200000 81.343750 12.855688
24.425000 82.140625 12.855688
24.625000 80.031250 12.855688
24.625000 79.640625 12.855688
23.775000 87.515625 13.016579
23.900000 86.359375 13.016579
23.900000 85.203125 13.016579
23.900000 84.109375 13.016579
23.900000 82.953125 13.016579
23.900000 81.796875 13.016579
23.900000 81.640625 13.016579
23.625000 85.906250 13.180399
23.625000 84.734375 13.180399
23.625000 83.625000 13.180399
23.625000 84.187500 13.180399
23.750000 81.718750 13.180399
23.850000 80.281250 13.180399
23.875000 79.546875 13.180399
23.250000 89.703125 13.337924
23.275000 88.437500 13.337924
23.300000 87.125000 13.337924
23.275000 85.000000 13.337924
23.425000 84.703125 13.337924
23.625000 82.968750 13.337924
23.625000 81.171875 13.337924
23.625000 81.718750 13.337924
23.750000 78.625000 13.337924
23.875000 78.546875 13.337924
23.725000 87.656250 13.491293
23.700000 87.609375 13.491293
23.725000 85.343750 13.491293
23.900000 84.312500 13.491293
23.900000 83.109375 13.491293
23.900000 81.953125 13.491293
23.900000 80.796875 13.491293
23.900000 81.609375 13.491293
23.875000 87.625000 13.648125
23.875000 86.468750 13.648125
24.000000 86.750000 13.648125
24.100000 85.593750 13.648125
24.125000 84.703125 13.648125
24.150000 83.546875 13.648125
24.175000 82.640625 13.648125
24.200000 81.375000 13.648125
24.400000 80.078125 13.648125
24.750000 76.984375 13.648125
24.175000 88.218750 13.804240
24.200000 87.062500 13.804240
24.200000 85.968750 13.804240
24.175000 84.812500 13.804240
24.400000 80.671875 13.804240
24.175000 88.171875 13.973030
24.200000 87.015625 13.973030
24.200000 85.921875 13.973030
24.425000 82.625000 13.973030
24.650000 81.390625 13.973030
24.200000 87.937500 14.128346
24.200000 86.765625 14.128346
24.425000 83.609375 14.128346
24.750000 81.312500 14.128346
24.850000 79.359375 14.128346
24.050000 89.625000 14.301251
24.200000 88.453125 14.301251
24.200000 87.250000 14.301251
24.525000 81.734375 14.301251
24.875000 82.984375 14.301251
24.925000 81.781250 14.301251
24.925000 80.453125 14.301251
25.125000 78.890625 14.301251
24.425000 86.703125 14.454854
24.675000 84.546875 14.454854
24.925000 83.203125 14.454854
24.925000 82.125000 14.454854
24.950000 81.046875 14.454854
25.000000 78.953125 14.454854
24.175000 87.437500 14.612593
24.175000 86.265625 14.612593
24.300000 86.015625 14.612593
24.675000 83.859375 14.612593
24.950000 82.656250 14.612593
24.975000 81.312500 14.612593
24.650000 86.609375 14.767351
24.750000 83.265625 14.767351
24.875000 84.562500 14.767351
24.925000 83.218750 14.767351
24.925000 81.921875 14.767351
24.925000 80.765625 14.767351
25.075000 79.421875 14.767351
24.075000 88.078125 14.922813
24.225000 86.921875 14.922813
24.225000 87.781250 14.922813
24.575000 84.468750 14.922813
24.925000 83.234375 14.922813
24.875000 82.031250 14.922813
24.875000 80.875000 14.922813
25.075000 79.546875 14.922813
24.150000 89.421875 15.079726
24.175000 88.250000 15.079726
24.200000 85.234375 15.079726
24.200000 84.125000 15.079726
24.225000 85.000000 15.079726
24.450000 83.625000 15.079726
24.800000 80.406250 15.079726
24.925000 81.531250 15.079726
24.025000 89.843750 15.234927
24.200000 88.671875 15.234927
24.200000 87.484375 15.234927
24.175000 86.359375 15.234927
24.175000 83.312500 15.234927
24.225000 84.203125 15.234927
24.450000 82.828125 15.234927
24.750000 80.921875 15.234927
24.875000 78.687500 15.234927
25.025000 79.296875 15.234927
24.175000 87.640625 15.405080
24.175000 86.718750 15.405080
24.200000 85.687500 15.405080
24.200000 84.531250 15.405080
24.425000 79.140625 15.405080
23.900000 87.718750 15.559611
23.900000 86.578125 15.559611
23.900000 85.406250 15.559611
23.900000 84.265625 15.559611
24.025000 84.859375 15.559611
24.125000 83.328125 15.559611
24.125000 82.562500 15.559611
24.400000 78.515625 15.559611
23.700000 89.046875 15.714051
23.850000 87.484375 15.714051
23.850000 86.203125 15.714051
23.850000 84.546875 15.714051
23.875000 84.234375 15.714051
23.900000 82.343750 15.714051
23.900000 81.187500 15.714051
23.900000 80.031250 15.714051
23.250000 87.625000 15.883502
23.275000 86.593750 15.883502
23.300000 85.109375 15.883502
23.450000 84.062500 15.883502
23.625000 82.937500 15.883502
23.625000 80.531250 15.883502
23.625000 80.890625 15.883502
23.125000 90.078125 16.038628
23.275000 88.890625 16.038628
23.275000 87.531250 16.038628
23.250000 85.984375 16.038628
23.350000 83.796875 16.038628
23.650000 82.656250 16.038628
23.875000 82.187500 16.038628
23.900000 80.343750 16.038628
23.900000 79.187500 16.038628
23.700000 88.406250 16.194324
23.850000 87.046875 16.194324
23.875000 85.765625 16.194324
23.875000 84.609375 16.194324
23.875000 83.546875 16.194324
23.900000 82.390625 16.194324
23.900000 81.234375 16.194324
24.025000 81.765625 16.194324
23.700000 88.078125 16.363135
23.850000 86.921875 16.363135
23.875000 85.765625 16.363135
24.025000 86.281250 16.363135
24.150000 85.234375 16.363135
24.175000 84.312500 16.363135
24.200000 83.156250 16.363135
24.175000 81.984375 16.363135
24.175000 87.703125 16.514288
24.175000 86.531250 16.514288
24.150000 85.218750 16.514288
24.175000 84.281250 16.514288
24.425000 80.656250 16.514288
24.800000 79.828125 16.514288
24.050000 89.656250 16.673395
24.200000 88.500000 16.673395
24.375000 84.484375 16.673395
24.725000 79.703125 16.673395
24.900000 80.734375 16.673395
25.025000 77.890625 16.673395
24.200000 88.031250 16.837706
24.425000 84.109375 16.837706
24.750000 81.609375 16.837706
24.850000 82.562500 16.837706
24.900000 79.296875 16.837706
24.050000 89.843750 16.985903
24.200000 88.687500 16.985903
24.200000 87.531250 16.985903
24.175000 84.437500 16.985903
24.300000 84.468750 16.985903
24.650000 82.781250 16.985903
24.875000 83.125000 16.985903
24.875000 81.859375 16.985903
24.900000 80.640625 16.985903
25.075000 78.640625 16.985903
24.200000 86.203125 17.157059
24.200000 85.046875 17.157059
24.375000 85.234375 17.157059
24.750000 82.515625 17.157059
24.950000 81.312500 17.157059
24.075000 87.484375 17.312078
24.450000 86.437500 17.312078
24.675000 85.234375 17.312078
24.800000 84.187500 17.312078
24.925000 82.843750 17.312078
24.900000 81.656250 17.312078
24.900000 80.500000 17.312078
25.100000 79.531250 17.312078
24.075000 89.531250 17.469174
24.200000 86.453125 17.469174
24.300000 86.203125 17.469174
24.525000 84.187500 17.469174
24.650000 83.031250 17.469174
24.750000 84.015625 17.469174
24.900000 82.718750 17.469174
24.925000 81.640625 17.469174
24.425000 84.906250 17.624586
24.650000 83.984375 17.624586
24.650000 83.468750 17.624586
24.800000 82.390625 17.624586
24.925000 81.156250 17.624586
24.175000 87.718750 17.780628
24.425000 83.265625 17.780628
24.650000 81.984375 17.780628
24.750000 80.859375 17.780628
24.850000 79.156250 17.780628
24.875000 79.062500 17.780628
24.175000 87.796875 17.940562
24.200000 86.625000 17.940562
24.200000 85.484375 17.940562
24.200000 84.328125 17.940562
24.425000 78.984375 17.940562
24.675000 79.843750 17.940562
23.900000 87.578125 18.106194
24.000000 87.859375 18.106194
24.000000 87.046875 18.106194
23.925000 86.015625 18.106194
24.025000 84.703125 18.106194
24.150000 83.546875 18.106194
24.175000 80.703125 18.106194
24.400000 81.609375 18.106194
24.600000 79.796875 18.106194
24.750000 79.375000 18.106194
23.700000 87.984375 18.266603
23.875000 87.156250 18.266603
23.900000 85.921875 18.266603
23.900000 84.515625 18.266603
23.900000 83.421875 18.266603
23.900000 82.265625 18.266603
23.900000 81.109375 18.266603
24.000000 81.328125 18.266603
23.250000 87.515625 18.433566
23.425000 86.578125 18.433566
23.450000 84.468750 18.433566
23.450000 83.562500 18.433566
23.625000 81.656250 18.433566
23.625000 82.265625 18.433566
23.725000 81.265625 18.433566
23.250000 89.437500 18.574057
23.250000 87.968750 18.574057
23.250000 86.703125 18.574057
23.275000 85.906250 18.574057
23.450000 83.265625 18.574057
23.700000 82.109375 18.574057
23.825000 80.953125 18.574057
23.875000 80.687500 18.574057
23.900000 79.062500 18.574057
23.925000 77.500000 18.574057
23.725000 87.968750 18.745356
23.875000 86.812500 18.745356
23.900000 85.656250 18.745356
23.900000 84.500000 18.745356
23.900000 83.421875 18.745356
23.900000 82.265625 18.745356
23.900000 81.125000 18.745356
23.900000 79.968750 18.745356
24.025000 80.515625 18.745356
24.000000 89.484375 18.901989
24.025000 86.640625 18.901989
24.000000 86.921875 18.901989
24.125000 86.015625 18.901989
24.150000 84.984375 18.901989
24.175000 84.078125 18.901989
24.200000 82.921875 18.901989
24.425000 79.343750 18.901989
24.175000 87.921875 19.056870
24.200000 86.750000 19.056870
24.200000 85.734375 19.056870
24.200000 84.578125 19.056870
24.425000 79.187500 19.056870
24.025000 89.859375 19.212866
24.200000 88.687500 19.212866
24.200000 87.531250 19.212866
24.175000 86.375000 19.212866
24.175000 85.359375 19.212866
24.425000 82.046875 19.212866
24.750000 78.812500 19.212866
24.850000 79.453125 19.212866
24.175000 89.390625 19.370138
24.200000 88.234375 19.370138
24.200000 87.062500 19.370138
24.525000 82.640625 19.370138
24.850000 80.640625 19.370138
24.875000 81.546875 19.370138
24.925000 80.437500 19.370138
25.100000 77.421875 19.370138
24.025000 89.906250 19.526312
24.300000 87.734375 19.526312
24.425000 86.562500 19.526312
24.450000 85.593750 19.526312
24.650000 83.390625 19.526312
24.850000 82.484375 19.526312
24.875000 83.140625 19.526312
24.950000 82.078125 19.526312
24.975000 80.796875 19.526312
25.100000 79.250000 19.526312
24.300000 88.531250 19.690083
24.425000 87.375000 19.690083
24.450000 86.390625 19.690083
24.650000 84.015625 19.690083
24.850000 82.640625 19.690083
24.875000 81.500000 19.690083
24.450000 86.906250 19.852505
24.475000 86.093750 19.852505
24.675000 83.781250 19.852505
24.875000 84.656250 19.852505
24.925000 83.578125 19.852505
24.925000 82.218750 19.852505
24.950000 81.046875 19.852505
24.050000 89.703125 20.016816
24.275000 87.593750 20.016816
24.450000 86.625000 20.016816
24.650000 85.359375 20.016816
24.850000 85.484375 20.016816
24.875000 84.078125 20.016816
24.925000 83.078125 20.016816
24.925000 79.812500 20.016816
24.950000 80.609375 20.016816
25.100000 77.750000 20.016816
24.425000 86.843750 20.165776
24.450000 85.875000 20.165776
24.675000 84.390625 20.165776
24.875000 82.671875 20.165776
24.900000 83.546875 20.165776
24.925000 82.265625 20.165776
24.925000 79.093750 20.165776
24.950000 79.000000 20.165776
24.275000 86.796875 20.338365
24.600000 84.078125 20.338365
24.875000 81.609375 20.338365
24.875000 81.078125 20.338365
24.850000 79.546875 20.338365
24.050000 89.812500 20.478686
24.175000 88.656250 20.478686
24.200000 87.500000 20.478686
24.200000 86.265625 20.478686
24.425000 81.000000 20.478686
24.750000 81.031250 20.478686
24.200000 87.890625 20.636193
24.200000 86.734375 20.636193
24.200000 85.656250 20.636193
24.425000 81.312500 20.636193
24.650000 80.093750 20.636193
23.700000 88.171875 20.807204
23.900000 87.015625 20.807204
23.900000 85.859375 20.807204
24.025000 86.390625 20.807204
24.025000 83.609375 20.807204
24.025000 84.140625 20.807204
24.150000 82.984375 20.807204
24.175000 81.968750 20.807204
24.400000 79.234375 20.807204
24.625000 79.109375 20.807204
23.900000 86.140625 20.960280
23.900000 84.984375 20.960280
23.900000 83.828125 20.960280
23.900000 82.921875 20.960280
23.900000 81.515625 20.960280
23.900000 80.375000 20.960280
23.250000 88.953125 21.113770
23.425000 88.218750 21.113770
23.425000 86.140625 21.113770
23.425000 85.546875 21.113770
23.625000 84.468750 21.113770
23.625000 82.843750 21.113770
23.625000 82.703125 21.113770
23.650000 81.281250 21.113770
23.750000 79.328125 21.113770
23.875000 77.406250 21.113770
23.875000 85.796875 21.286438
23.875000 84.625000 21.286438
23.850000 83.500000 21.286438
23.850000 82.359375 21.286438
23.875000 81.609375 21.286438
23.900000 80.031250 21.286438
23.900000 86.250000 21.438815
23.900000 85.093750 21.438815
23.900000 84.000000 21.438815
23.900000 82.843750 21.438815
23.900000 81.687500 21.438815
24.025000 82.218750 21.438815
24.150000 81.062500 21.438815
24.175000 87.140625 21.598985
24.150000 85.984375 21.598985
24.175000 85.156250 21.598985
24.200000 84.000000 21.598985
24.200000 82.843750 21.598985
24.475000 79.437500 21.598985
24.200000 87.671875 21.760270
24.200000 86.515625 21.760270
24.200000 85.390625 21.760270
24.425000 82.078125 21.760270
24.675000 80.921875 21.760270
24.750000 77.953125 21.760270
24.050000 89.640625 21.926300
24.200000 88.484375 21.926300
24.175000 87.328125 21.926300
24.150000 86.171875 21.926300
24.400000 82.656250 21.926300
24.675000 81.406250 21.926300
24.750000 79.031250 21.926300
25.000000 78.406250 21.926300
24.175000 89.421875 22.067228
24.200000 86.328125 22.067228
24.450000 84.812500 22.067228
24.750000 82.687500 22.067228
24.850000 80.625000 22.067228
24.875000 81.468750 22.067228
24.425000 86.640625 22.236696
24.650000 84.593750 22.236696
24.900000 83.359375 22.236696
24.925000 82.218750 22.236696
24.925000 80.953125 22.236696
25.050000 78.906250 22.236696
24.875000 85.328125 22.394698
24.875000 84.109375 22.394698
24.875000 82.937500 22.394698
24.950000 81.859375 22.394698
24.850000 86.093750 22.552806
24.850000 83.609375 22.552806
24.850000 82.703125 22.552806
24.850000 81.546875 22.552806
24.900000 80.406250 22.552806
24.950000 81.437500 22.552806
24.850000 86.281250 22.709982
24.850000 84.390625 22.709982
24.850000 84.875000 22.709982
24.850000 81.703125 22.709982
24.875000 82.578125 22.709982
24.925000 79.375000 22.709982
24.675000 85.296875 22.863994
24.750000 82.765625 22.863994
24.750000 82.562500 22.863994
24.750000 80.171875 22.863994
24.875000 80.734375 22.863994
25.050000 79.000000 22.863994
24.200000 88.015625 23.024478
24.425000 84.765625 23.024478
24.675000 83.609375 23.024478
24.675000 82.125000 23.024478
24.675000 80.281250 23.024478
24.200000 88.046875 23.190175
24.200000 86.828125 23.190175
24.200000 85.703125 23.190175
24.425000 81.625000 23.190175
24.650000 79.218750 23.190175
24.150000 87.843750 23.339476
24.150000 86.671875 23.339476
24.175000 85.828125 23.339476
24.175000 84.437500 23.339476
24.175000 81.593750 23.339476
24.425000 81.390625 23.339476
24.600000 79.281250 23.339476
23.900000 86.046875 23.511305
23.900000 84.890625 23.511305
23.900000 83.859375 23.511305
23.900000 82.718750 23.511305
23.900000 83.515625 23.511305
23.925000 80.734375 23.511305
23.475000 87.968750 23.664247
23.625000 86.812500 23.664247
23.625000 85.656250 23.664247
23.625000 84.500000 23.664247
23.625000 83.437500 23.664247
23.625000 84.046875 23.664247
23.750000 81.765625 23.664247
23.850000 79.984375 23.664247
23.250000 87.562500 23.818805
23.250000 86.140625 23.818805
23.425000 84.484375 23.818805
23.625000 84.156250 23.818805
23.625000 81.968750 23.818805
23.625000 82.656250 23.818805
23.725000 79.921875 23.818805
23.850000 79.437500 23.818805
24.075000 77.921875 23.818805
23.875000 86.968750 23.989774
23.900000 85.312500 23.989774
23.900000 84.000000 23.989774
23.900000 82.843750 23.989774
23.900000 81.687500 23.989774
23.900000 80.546875 23.989774
23.900000 81.156250 23.989774
23.700000 88.062500 24.146365
23.900000 86.906250 24.146365
23.900000 85.734375 24.146365
24.000000 86.015625 24.146365
24.000000 83.531250 24.146365
24.025000 84.062500 24.146365
24.175000 83.140625 24.146365
24.400000 77.750000 24.146365
24.175000 87.921875 24.293842
24.200000 86.765625 24.293842
24.200000 85.671875 24.293842
24.200000 84.515625 24.293842
24.425000 80.437500 24.293842
24.050000 89.546875 24.461842
24.200000 88.390625 24.461842
24.200000 87.218750 24.461842
24.200000 86.171875 24.461842
24.425000 80.765625 24.461842
24.650000 79.625000 24.461842
24.175000 87.906250 24.612115
24.200000 86.671875 24.612115
24.425000 83.468750 24.612115
24.750000 80.828125 24.612115
24.850000 79.109375 24.612115
24.900000 79.750000 24.612115
24.200000 88.140625 24.772104
24.200000 85.078125 24.772104
24.525000 81.703125 24.772104
24.850000 80.546875 24.772104
24.900000 81.593750 24.772104
24.425000 86.859375 24.937938
24.425000 85.703125 24.937938
24.450000 84.828125 24.937938
24.650000 82.562500 24.937938
24.875000 83.546875 24.937938
24.875000 82.281250 24.937938
24.850000 81.062500 24.937938
24.900000 79.171875 24.937938
24.200000 87.296875 25.097855
24.525000 84.109375 25.097855
24.875000 82.781250 25.097855
24.950000 81.859375 25.097855
24.075000 88.093750 25.260703
24.225000 88.968750 25.260703
24.450000 87.750000 25.260703
24.675000 86.500000 25.260703
24.750000 84.265625 25.260703
24.875000 84.500000 25.260703
24.925000 83.265625 25.260703
24.925000 82.125000 25.260703
24.950000 81.000000 25.260703
25.100000 79.625000 25.260703
24.425000 86.140625 25.409371
24.425000 86.906250 25.409371
24.675000 85.812500 25.409371
24.750000 83.343750 25.409371
24.850000 81.875000 25.409371
24.875000 82.609375 25.409371
24.925000 81.250000 25.409371
24.175000 87.562500 25.567641
24.200000 88.437500 25.567641
24.200000 85.234375 25.567641
24.200000 84.109375 25.567641
24.525000 80.640625 25.567641
24.850000 81.671875 25.567641
24.050000 89.828125 25.739807
24.200000 88.671875 25.739807
24.175000 85.578125 25.739807
24.175000 86.343750 25.739807
24.425000 83.187500 25.739807
24.675000 81.765625 25.739807
24.750000 78.875000 25.739807
24.875000 78.703125 25.739807
24.025000 89.484375 25.894399
24.175000 88.328125 25.894399
24.150000 87.156250 25.894399
24.175000 86.234375 25.894399
24.200000 85.156250 25.894399
24.200000 82.078125 25.894399
24.425000 78.609375 25.894399
24.700000 77.453125 25.894399
23.900000 86.140625 26.049929
23.900000 84.984375 26.049929
23.900000 83.890625 26.049929
23.900000 82.718750 26.049929
24.025000 83.250000 26.049929
24.150000 82.093750 26.049929
23.850000 87.406250 26.205285
23.850000 86.234375 26.205285
23.850000 84.171875 26.205285
23.850000 83.015625 26.205285
23.875000 81.859375 26.205285
23.900000 80.703125 26.205285
23.900000 79.546875 26.205285
23.250000 87.921875 26.360517
23.250000 86.250000 26.360517
23.250000 84.937500 26.360517
23.425000 84.421875 26.360517
23.625000 82.843750 26.360517
23.625000 81.921875 26.360517
23.625000 81.250000 26.360517
23.750000 79.234375 26.360517
24.025000 77.812500 26.360517
23.250000 89.140625 26.529239
23.275000 88.343750 26.529239
23.450000 85.687500 26.529239
23.725000 85.093750 26.529239
23.850000 83.125000 26.529239
23.850000 82.218750 26.529239
23.875000 81.062500 26.529239
23.900000 79.890625 26.529239
23.900000 78.734375 26.529239
23.950000 79.484375 26.529239
23.900000 86.000000 26.687433
23.900000 85.093750 26.687433
23.900000 83.984375 26.687433
23.900000 82.812500 26.687433
23.900000 81.671875 26.687433
24.025000 82.203125 26.687433
24.150000 81.046875 26.687433
23.875000 87.875000 26.838867
23.900000 86.718750 26.838867
24.025000 87.250000 26.838867
24.150000 86.093750 26.838867
24.150000 85.000000 26.838867
24.175000 83.843750 26.838867
24.200000 82.937500 26.838867
24.200000 81.781250 26.838867
24.150000 87.750000 27.009511
24.175000 86.828125 27.009511
24.200000 85.765625 27.009511
24.175000 84.421875 27.009511
24.500000 80.828125 27.009511
24.175000 88.140625 27.163401
24.200000 86.937500 27.163401
24.400000 85.656250 27.163401
24.375000 82.843750 27.163401
24.500000 79.359375 27.163401
24.150000 88.031250 27.319116
24.400000 83.921875 27.319116
24.775000 81.593750 27.319116
24.900000 82.390625 27.319116
24.950000 81.328125 27.319116
24.150000 88.000000 27.476730
24.275000 85.812500 27.476730
24.525000 83.859375 27.476730
24.650000 84.578125 27.476730
24.775000 83.593750 27.476730
24.900000 82.406250 27.476730
24.950000 81.390625 27.476730
24.175000 88.062500 27.633054
24.550000 82.515625 27.633054
24.950000 81.250000 27.633054
24.050000 87.687500 27.803983
24.200000 86.531250 27.803983
24.325000 86.468750 27.803983
24.550000 83.984375 27.803983
24.750000 83.328125 27.803983
24.875000 84.062500 27.803983
24.925000 82.937500 27.803983
24.950000 81.562500 27.803983
24.025000 89.781250 27.958561
24.200000 88.546875 27.958561
24.425000 83.562500 27.958561
24.750000 82.562500 27.958561
24.875000 82.875000 27.958561
24.925000 81.828125 27.958561
24.950000 80.718750 27.958561
25.125000 79.750000 27.958561
24.425000 84.937500 28.108926
24.650000 83.484375 28.108926
24.775000 82.468750 28.108926
24.900000 82.156250 28.108926
24.925000 80.843750 28.108926
24.950000 78.531250 28.108926
24.050000 89.625000 28.272305
24.175000 88.468750 28.272305
24.175000 87.234375 28.272305
24.425000 83.593750 28.272305
24.650000 82.875000 28.272305
24.675000 81.312500 28.272305
24.800000 80.671875 28.272305
25.050000 79.562500 28.272305
24.150000 87.968750 28.435202
24.175000 86.812500 28.435202
24.200000 85.718750 28.435202
24.200000 84.546875 28.435202
24.425000 79.515625 28.435202
23.900000 85.937500 28.585321
24.025000 86.484375 28.585321
24.025000 85.171875 28.585321
24.050000 84.250000 28.585321
24.400000 80.234375 28.585321
23.850000 86.500000 28.758590
23.875000 85.343750 28.758590
23.900000 84.234375 28.758590
23.900000 83.093750 28.758590
23.900000 81.937500 28.758590
23.900000 80.781250 28.758590
24.000000 81.000000 28.758590
24.150000 80.000000 28.758590
24.375000 78.890625 28.758590
23.125000 89.515625 28.911429
23.250000 88.296875 28.911429
23.275000 87.015625 28.911429
23.450000 86.093750 28.911429
23.625000 84.937500 28.911429
23.625000 82.843750 28.911429
23.625000 81.125000 28.911429
23.625000 80.296875 28.911429
23.750000 80.531250 28.911429
23.900000 79.406250 28.911429
23.250000 89.390625 29.066906
23.250000 87.953125 29.066906
23.275000 87.265625 29.066906
23.575000 82.140625 29.066906
23.875000 82.125000 29.066906
23.900000 80.171875 29.066906
23.900000 78.437500 29.066906
23.925000 77.531250 29.066906
23.725000 87.640625 29.237447
23.875000 86.484375 29.237447
23.900000 85.312500 29.237447
23.900000 84.234375 29.237447
23.900000 83.093750 29.237447
23.900000 81.921875 29.237447
23.900000 80.765625 29.237447
24.000000 81.296875 29.237447
24.125000 80.140625 29.237447
24.350000 78.875000 29.237447
24.025000 86.109375 29.377326
24.025000 86.640625 29.377326
24.175000 85.546875 29.377326
24.150000 84.375000 29.377326
24.150000 83.218750 29.377326
24.175000 82.296875 29.377326
24.175000 87.515625 29.547411
24.175000 86.593750 29.547411
24.200000 85.500000 29.547411
24.200000 84.343750 29.547411
24.425000 78.953125 29.547411
24.200000 87.671875 29.702374
24.200000 86.515625 29.702374
24.200000 85.421875 29.702374
24.425000 81.921875 29.702374
24.675000 80.531250 29.702374
24.800000 79.781250 29.702374
24.050000 89.687500 29.859684
24.200000 88.531250 29.859684
24.200000 85.437500 29.859684
24.525000 82.906250 29.859684
24.850000 83.015625 29.859684
24.900000 81.734375 29.859684
24.925000 80.593750 29.859684
25.075000 78.875000 29.859684
24.225000 85.968750 30.029870
24.325000 85.718750 30.029870
24.675000 83.500000 30.029870
24.875000 82.203125 30.029870
24.875000 81.000000 30.029870
24.300000 88.656250 30.186597
24.425000 87.500000 30.186597
24.450000 86.531250 30.186597
24.475000 85.375000 30.186597
24.675000 85.328125 30.186597
24.850000 84.093750 30.186597
24.850000 82.796875 30.186597
24.900000 81.703125 30.186597
24.925000 80.453125 30.186597
25.075000 79.046875 30.186597
24.475000 87.187500 30.341015
24.700000 86.890625 30.341015
24.900000 85.734375 30.341015
24.875000 82.562500 30.341015
24.875000 83.437500 30.341015
24.875000 82.125000 30.341015
24.875000 80.984375 30.341015
24.850000 84.609375 30.496749
24.875000 84.937500 30.496749
24.925000 83.734375 30.496749
24.925000 82.515625 30.496749
24.950000 81.421875 30.496749
24.050000 89.609375 30.652420
24.325000 85.375000 30.652420
24.650000 84.156250 30.652420
24.850000 82.046875 30.652420
24.850000 83.062500 30.652420
24.900000 81.750000 30.652420
24.925000 80.500000 30.652420
25.075000 79.406250 30.652420
24.175000 87.968750 30.822316
24.525000 83.875000 30.822316
24.850000 82.078125 30.822316
24.850000 80.343750 30.822316
24.875000 81.218750 30.822316
24.200000 87.953125 30.977944
24.425000 82.375000 30.977944
24.650000 83.531250 30.977944
24.675000 82.375000 30.977944
24.675000 80.656250 30.977944
24.200000 87.562500 31.133345
24.175000 86.406250 31.133345
24.175000 85.281250 31.133345
24.425000 81.140625 31.133345
24.650000 79.515625 31.133345
24.675000 79.250000 31.133345
23.775000 87.937500 31.284651
23.900000 86.781250 31.284651
24.000000 87.062500 31.284651
24.125000 85.890625 31.284651
24.150000 85.000000 31.284651
24.150000 83.843750 31.284651
24.175000 82.921875 31.284651
24.200000 79.843750 31.284651
24.400000 79.421875 31.284651
24.625000 79.265625 31.284651
23.875000 86.687500 31.446790
23.900000 85.187500 31.446790
23.900000 84.218750 31.446790
23.900000 82.937500 31.446790
23.900000 81.781250 31.446790
23.900000 80.625000 31.446790
23.900000 81.218750 31.446790
23.275000 87.921875 31.610485
23.275000 85.781250 31.610485
23.425000 85.875000 31.610485
23.625000 84.046875 31.610485
23.625000 82.687500 31.610485
23.625000 80.781250 31.610485
23.625000 80.765625 31.610485
23.725000 87.625000 31.760376
23.675000 87.281250 31.760376
23.675000 85.562500 31.760376
23.850000 84.406250 31.760376
23.875000 83.906250 31.760376
23.900000 82.687500 31.760376
23.900000 81.031250 31.760376
23.900000 79.890625 31.760376
23.900000 80.656250 31.760376
24.125000 78.890625 31.760376
23.900000 85.859375 31.933921
23.900000 84.703125 31.933921
23.900000 83.671875 31.933921
23.900000 82.515625 31.933921
24.025000 83.046875 31.933921
24.150000 81.906250 31.933921
24.175000 88.031250 32.085459
24.175000 86.625000 32.085459
24.150000 85.843750 32.085459
24.150000 84.453125 32.085459
24.175000 83.531250 32.085459
24.050000 89.421875 32.238972
24.200000 88.250000 32.238972
24.200000 87.093750 32.238972
24.200000 86.046875 32.238972
24.200000 84.890625 32.238972
24.200000 81.812500 32.238972
24.225000 80.640625 32.238972
24.450000 81.484375 32.238972
24.775000 79.515625 32.238972
25.050000 78.171875 32.238972
24.050000 89.609375 32.410351
24.200000 88.437500 32.410351
24.200000 87.281250 32.410351
24.200000 86.140625 32.410351
24.200000 83.078125 32.410351
24.450000 83.984375 32.410351
24.750000 81.328125 32.410351
24.850000 80.562500 32.410351
24.850000 80.593750 32.410351
25.025000 78.953125 32.410351
24.175000 87.937500 32.565381
24.300000 85.828125 32.565381
24.625000 82.265625 32.565381
24.875000 82.453125 32.565381
24.925000 81.140625 32.565381
24.325000 88.515625 32.718174
24.475000 87.359375 32.718174
24.475000 86.203125 32.718174
24.500000 85.312500 32.718174
24.675000 82.625000 32.718174
24.850000 83.906250 32.718174
24.900000 82.578125 32.718174
24.950000 81.578125 32.718174
24.650000 85.515625 32.887011
24.850000 84.359375 32.887011
24.875000 85.406250 32.887011
24.925000 84.218750 32.887011
24.925000 83.156250 32.887011
24.925000 81.765625 32.887011
24.950000 80.812500 32.887011
25.100000 78.484375 32.887011
24.650000 86.125000 33.035068
24.850000 85.125000 33.035068
24.875000 85.265625 33.035068
24.875000 81.937500 33.035068
24.850000 82.859375 33.035068
24.875000 81.515625 33.035068
24.650000 83.859375 33.197743
24.850000 83.109375 33.197743
24.850000 81.546875 33.197743
24.875000 82.578125 33.197743
24.925000 81.156250 33.197743
24.675000 85.468750 33.364305
24.675000 84.265625 33.364305
24.750000 82.125000 33.364305
24.850000 80.031250 33.364305
24.850000 81.031250 33.364305
25.025000 79.406250 33.364305
24.200000 87.906250 33.509340
24.200000 84.812500 33.509340
24.225000 83.765625 33.509340
24.425000 82.625000 33.509340
24.650000 83.593750 33.509340
24.675000 81.921875 33.509340
24.675000 80.578125 33.509340
24.800000 79.890625 33.509340
24.050000 89.703125 33.682944
24.200000 88.546875 33.682944
24.200000 87.390625 33.682944
24.200000 84.281250 33.682944
24.225000 83.187500 33.682944
24.225000 84.078125 33.682944
24.450000 81.953125 33.682944
24.650000 80.750000 33.682944
24.650000 80.640625 33.682944
24.825000 78.750000 33.682944
24.150000 87.765625 33.833549
24.125000 86.343750 33.833549
24.125000 85.578125 33.833549
24.150000 84.421875 33.833549
24.175000 83.437500 33.833549
24.375000 81.890625 33.833549
24.600000 81.265625 33.833549
23.750000 87.953125 33.990092
23.900000 86.796875 33.990092
23.900000 85.625000 33.990092
23.900000 84.468750 33.990092
23.900000 83.390625 33.990092
23.900000 82.234375 33.990092
23.900000 83.031250 33.990092
23.925000 80.250000 33.990092
23.625000 86.578125 34.145772
23.625000 84.859375 34.145772
23.625000 83.750000 34.145772
23.625000 82.593750 34.145772
23.625000 83.265625 34.145772
23.650000 80.765625 34.145772
23.725000 80.921875 34.145772
23.250000 87.531250 34.315902
23.250000 85.968750 34.315902
23.425000 83.953125 34.315902
23.625000 82.796875 34.315902
23.625000 81.640625 34.315902
23.725000 80.484375 34.315902
23.875000 80.281250 34.315902
23.750000 88.640625 34.470197
23.900000 86.609375 34.470197
23.900000 85.437500 34.470197
23.900000 84.281250 34.470197
23.900000 83.203125 34.470197
23.900000 82.046875 34.470197
23.900000 80.890625 34.470197
23.900000 81.500000 34.470197
24.025000 80.187500 34.470197
24.350000 77.421875 34.470197
23.900000 86.265625 34.625081
24.025000 86.812500 34.625081
24.150000 85.656250 34.625081
24.150000 84.500000 34.625081
24.175000 83.578125 34.625081
24.000000 89.562500 34.783562
24.175000 88.640625 34.783562
24.200000 87.484375 34.783562
24.200000 86.328125 34.783562
24.200000 85.234375 34.783562
24.200000 82.140625 34.783562
24.425000 78.921875 34.783562
24.700000 79.390625 34.783562
24.200000 87.859375 34.952092
24.200000 86.718750 34.952092
24.200000 83.671875 34.952092
24.450000 82.187500 34.952092
24.775000 79.187500 34.952092
24.900000 79.968750 34.952092
24.200000 88.156250 35.108674
24.175000 86.984375 35.108674
24.150000 84.046875 35.108674
24.175000 84.875000 35.108674
24.425000 83.609375 35.108674
24.775000 81.343750 35.108674
24.900000 81.593750 35.108674
24.025000 89.875000 35.263962
24.300000 87.734375 35.263962
24.300000 87.562500 35.263962
24.300000 85.406250 35.263962
24.450000 84.546875 35.263962
24.650000 82.281250 35.263962
24.850000 81.125000 35.263962
24.875000 82.078125 35.263962
24.950000 80.890625 35.263962
25.075000 79.453125 35.263962
24.425000 87.015625 35.438901
24.425000 85.843750 35.438901
24.675000 83.671875 35.438901
24.925000 82.453125 35.438901
24.950000 81.421875 35.438901
24.025000 87.968750 35.574522
24.200000 86.812500 35.574522
24.550000 85.640625 35.574522
24.850000 84.359375 35.574522
24.850000 83.093750 35.574522
24.875000 81.890625 35.574522
24.950000 80.781250 35.574522
25.075000 79.203125 35.574522
24.075000 87.875000 35.744064
24.175000 86.718750 35.744064
24.525000 83.984375 35.744064
24.850000 84.281250 35.744064
24.900000 82.906250 35.744064
24.925000 81.750000 35.744064
24.950000 80.671875 35.744064
25.125000 78.015625 35.744064
24.200000 88.296875 35.900782
24.425000 84.421875 35.900782
24.750000 82.187500 35.900782
24.875000 82.609375 35.900782
24.925000 81.312500 35.900782
24.200000 86.000000 36.055636
24.200000 84.828125 36.055636
24.200000 83.750000 36.055636
24.525000 80.281250 36.055636
24.900000 81.031250 36.055636
24.200000 87.953125 36.211680
24.200000 86.796875 36.211680
24.200000 85.671875 36.211680
24.425000 82.281250 36.211680
24.750000 80.250000 36.211680
23.750000 90.093750 36.383503
24.025000 88.671875 36.383503
24.175000 87.515625 36.383503
24.150000 86.359375 36.383503
24.175000 85.562500 36.383503
24.200000 84.406250 36.383503
24.425000 80.046875 36.383503
24.650000 79.328125 36.383503
23.900000 86.390625 36.533939
23.900000 85.234375 36.533939
23.900000 84.140625 36.533939
23.900000 82.984375 36.533939
23.900000 81.843750 36.533939
24.025000 82.375000 36.533939
24.175000 81.390625 36.533939
24.400000 80.062500 36.533939
24.675000 79.359375 36.533939
23.575000 87.968750 36.694986
23.625000 86.812500 36.694986
23.625000 85.656250 36.694986
23.700000 84.500000 36.694986
23.825000 83.187500 36.694986
23.850000 82.296875 36.694986
23.875000 81.250000 36.694986
23.900000 79.984375 36.694986
23.900000 78.828125 36.694986
23.950000 77.671875 36.694986
23.050000 88.484375 36.858107
23.225000 89.109375 36.858107
23.250000 87.734375 36.858107
23.250000 86.687500 36.858107
23.250000 85.078125 36.858107
23.425000 84.218750 36.858107
23.625000 82.796875 36.858107
23.625000 80.468750 36.858107
23.625000 80.921875 36.858107
23.775000 79.078125 36.858107
24.075000 78.781250 36.858107
23.450000 88.250000 37.008892
23.625000 87.093750 37.008892
23.625000 85.937500 37.008892
23.725000 85.109375 37.008892
23.875000 84.734375 37.008892
23.900000 82.546875 37.008892
23.900000 81.390625 37.008892
23.900000 80.234375 37.008892
23.900000 79.093750 37.008892
23.900000 85.906250 37.180383
23.875000 84.734375 37.180383
23.875000 83.687500 37.180383
23.900000 82.531250 37.180383
24.025000 83.062500 37.180383
24.175000 82.156250 37.180383
24.025000 87.656250 37.334939
24.150000 86.500000 37.334939
24.150000 85.437500 37.334939
24.175000 84.531250 37.334939
24.200000 83.375000 37.334939
24.175000 87.750000 37.503477
24.200000 86.593750 37.503477
24.200000 85.484375 37.503477
24.200000 84.328125 37.503477
24.525000 79.500000 37.503477
24.875000 79.921875 37.503477
24.050000 89.437500 37.643884
24.200000 88.281250 37.643884
24.225000 84.984375 37.643884
24.550000 81.640625 37.643884
24.425000 84.375000 37.812672
24.750000 82.062500 37.812672
24.900000 81.187500 37.812672
24.975000 79.531250 37.812672
24.025000 89.750000 37.967990
24.175000 88.593750 37.967990
24.200000 87.437500 37.967990
24.200000 84.343750 37.967990
24.325000 84.187500 37.967990
24.550000 84.046875 37.967990
24.800000 83.031250 37.967990
24.950000 81.843750 37.967990
24.975000 80.640625 37.967990
25.125000 79.359375 37.967990
24.200000 87.468750 38.122023
24.200000 88.187500 38.122023
24.325000 86.265625 38.122023
24.575000 86.031250 38.122023
24.750000 83.531250 38.122023
24.875000 83.890625 38.122023
24.925000 82.515625 38.122023
24.950000 81.421875 38.122023
24.050000 87.953125 38.283104
24.200000 86.796875 38.283104
24.425000 83.421875 38.283104
24.775000 84.390625 38.283104
24.925000 82.984375 38.283104
24.950000 81.953125 38.283104
24.975000 80.687500 38.283104
25.100000 78.968750 38.283104
24.050000 89.843750 38.447026
24.200000 86.796875 38.447026
24.200000 87.515625 38.447026
24.200000 84.484375 38.447026
24.550000 83.234375 38.447026
24.925000 81.937500 38.447026
24.975000 80.671875 38.447026
25.100000 79.015625 38.447026
24.025000 89.703125 38.607034
24.175000 88.546875 38.607034
24.200000 85.453125 38.607034
24.425000 83.156250 38.607034
24.775000 81.921875 38.607034
24.925000 81.921875 38.607034
24.950000 80.828125 38.607034
25.075000 78.671875 38.607034
24.050000 89.437500 38.755741
24.200000 88.281250 38.755741
24.200000 85.187500 38.755741
24.200000 86.046875 38.755741
24.425000 82.671875 38.755741
24.750000 80.609375 38.755741
24.850000 79.046875 38.755741
25.050000 78.968750 38.755741
24.025000 89.265625 38.931878
24.175000 88.109375 38.931878
24.150000 86.953125 38.931878
24.175000 86.093750 38.931878
24.200000 83.015625 38.931878
24.200000 83.734375 38.931878
24.425000 78.390625 38.931878
24.850000 79.203125 38.931878
23.900000 86.250000 39.079996
23.900000 85.093750 39.079996
23.900000 84.015625 39.079996
23.900000 84.796875 39.079996
24.025000 83.390625 39.079996
24.175000 82.468750 39.079996
24.375000 81.125000 39.079996
24.600000 79.656250 39.079996
24.825000 77.843750 39.079996
23.600000 87.828125 39.236098
23.725000 86.421875 39.236098
23.850000 85.515625 39.236098
23.850000 84.343750 39.236098
23.875000 83.828125 39.236098
23.900000 81.859375 39.236098
23.900000 80.953125 39.236098
23.900000 81.546875 39.236098
23.250000 87.515625 39.392435
23.425000 86.687500 39.392435
23.600000 85.625000 39.392435
23.600000 84.625000 39.392435
23.625000 83.046875 39.392435
23.625000 80.515625 39.392435
23.625000 79.359375 39.392435
23.075000 90.093750 39.563760
23.350000 87.234375 39.563760
23.350000 87.265625 39.563760
23.550000 82.640625 39.563760
23.875000 81.625000 39.563760
23.900000 80.328125 39.563760
23.900000 79.187500 39.563760
23.875000 87.656250 39.719557
