38.475000 84.406250 0.032216
38.275000 88.093750 0.032216
38.700000 92.000000 0.032216
38.475000 83.203125 0.187023
38.500000 84.468750 0.187023
38.300000 86.796875 0.187023
38.325000 88.062500 0.187023
38.300000 89.234375 0.187023
38.500000 90.515625 0.187023
38.725000 91.859375 0.187023
38.325000 85.468750 0.340815
38.325000 86.890625 0.340815
38.300000 87.953125 0.340815
38.275000 89.468750 0.340815
38.375000 90.484375 0.340815
38.600000 91.593750 0.340815
38.800000 79.343750 0.486804
39.050000 82.750000 0.486804
38.150000 87.781250 0.486804
38.300000 85.546875 0.639521
38.125000 89.265625 0.639521
38.250000 90.546875 0.639521
38.500000 91.796875 0.639521
38.750000 92.718750 0.639521
38.600000 81.843750 0.794032
38.150000 85.703125 0.794032
38.125000 88.921875 0.794032
38.625000 81.796875 1.103642
38.600000 84.359375 1.103642
37.825000 85.781250 1.103642
38.650000 81.843750 1.250458
38.500000 84.187500 1.250458
37.700000 85.484375 1.250458
38.300000 83.250000 1.565413
37.800000 84.640625 1.565413
37.775000 84.609375 2.005842
38.500000 93.062500 2.176502
38.150000 81.328125 2.923803
36.750000 92.828125 3.828811
37.250000 93.250000 4.295814
37.900000 93.109375 4.750371
37.200000 90.421875 5.665174
37.200000 90.468750 6.725656
38.075000 81.312500 7.641412
37.600000 87.250000 7.641412
38.525000 78.328125 7.796015
37.925000 83.296875 7.796015
37.800000 84.484375 7.796015
37.875000 83.046875 7.950633
31.725000 94.953125 7.950633
38.300000 81.578125 8.091153
37.975000 83.265625 8.091153
37.975000 82.875000 8.249498
31.600000 95.000000 8.249498
38.125000 83.031250 8.401329
37.775000 84.484375 8.401329
39.100000 82.234375 8.556724
38.100000 84.546875 8.556724
37.700000 85.640625 8.556724
39.250000 82.078125 8.696469
38.025000 84.500000 8.696469
37.600000 85.828125 8.696469
38.650000 78.562500 8.854448
38.450000 79.687500 8.854448
37.750000 84.734375 8.854448
37.825000 88.156250 8.854448
38.725000 78.593750 9.012748
39.350000 82.078125 9.012748
37.650000 85.718750 9.012748
38.375000 92.781250 9.012748
38.725000 78.281250 9.165322
39.325000 82.281250 9.165322
37.575000 85.812500 9.165322
38.600000 92.875000 9.165322
38.700000 78.671875 9.306589
38.050000 84.484375 9.306589
37.625000 85.937500 9.306589
38.300000 91.609375 9.306589
38.725000 78.281250 9.458321
37.625000 85.921875 9.458321
37.850000 87.984375 9.458321
38.300000 91.718750 9.458321
38.425000 84.140625 9.616394
37.950000 85.359375 9.616394
37.975000 87.890625 9.616394
38.100000 89.031250 9.616394
38.375000 91.437500 9.616394
38.825000 81.875000 9.771760
38.275000 84.140625 9.771760
38.050000 85.390625 9.771760
37.800000 87.000000 9.771760
37.925000 87.921875 9.771760
38.525000 91.484375 9.771760
38.375000 83.093750 9.912895
38.300000 84.234375 9.912895
38.075000 85.703125 9.912895
38.175000 87.875000 9.912895
38.600000 91.593750 9.912895
38.325000 80.234375 10.068381
39.050000 82.875000 10.068381
38.200000 85.375000 10.068381
38.175000 90.296875 10.068381
38.450000 91.343750 10.068381
38.625000 92.296875 10.068381
38.750000 78.718750 10.223105
38.175000 86.062500 10.223105
38.525000 92.359375 10.223105
38.750000 79.078125 10.378866
38.325000 80.218750 10.378866
38.250000 81.343750 10.378866
38.875000 78.500000 10.520697
38.300000 86.828125 10.675857
38.300000 88.171875 10.675857
38.450000 90.859375 10.675857
38.850000 78.671875 10.833747
38.225000 81.453125 10.833747
38.850000 78.687500 10.989677
38.250000 86.312500 10.989677
38.100000 87.375000 10.989677
38.075000 88.265625 10.989677
38.850000 78.703125 11.129531
38.325000 80.234375 11.129531
38.300000 81.609375 11.129531
38.325000 84.812500 11.129531
37.775000 86.062500 11.129531
37.650000 87.218750 11.129531
38.825000 78.921875 11.285031
38.300000 84.828125 11.285031
38.425000 81.656250 11.591377
38.375000 83.921875 11.591377
38.250000 83.640625 11.904379
37.700000 84.906250 11.904379
38.300000 83.734375 12.046614
37.700000 84.718750 12.046614
38.800000 81.875000 12.194665
38.575000 83.171875 12.194665
37.950000 84.078125 12.194665
38.300000 83.843750 12.356797
38.200000 83.671875 12.510805
39.325000 81.968750 13.116661
38.750000 93.218750 15.694392
37.125000 90.390625 16.145689
31.675000 94.437500 16.610139
37.200000 91.093750 16.905892
37.200000 91.078125 17.060244
37.075000 90.296875 17.219824
37.225000 90.421875 17.514238
31.650000 95.031250 17.514238
31.575000 94.734375 17.966133
37.775000 82.062500 18.121787
37.800000 83.171875 18.426372
38.450000 81.750000 18.584929
38.075000 83.312500 18.584929
37.875000 84.500000 18.584929
38.250000 81.640625 18.741475
37.925000 83.078125 18.741475
31.475000 94.984375 18.741475
38.775000 82.046875 18.882030
38.375000 83.156250 18.882030
37.900000 84.390625 18.882030
38.350000 81.843750 19.036019
38.150000 83.046875 19.036019
37.850000 84.109375 19.036019
31.350000 94.671875 19.036019
38.025000 83.734375 19.193815
37.650000 84.984375 19.193815
38.350000 80.218750 19.346759
38.125000 83.562500 19.346759
37.650000 84.968750 19.346759
38.075000 83.765625 19.489269
37.700000 85.437500 19.489269
38.250000 84.000000 19.645290
37.600000 86.062500 19.645290
38.775000 82.203125 19.798726
38.625000 83.312500 19.798726
37.575000 85.843750 19.798726
38.200000 91.843750 19.798726
38.375000 93.468750 19.798726
38.750000 82.171875 19.954688
38.550000 78.546875 20.105779
37.700000 87.390625 20.105779
38.325000 81.484375 20.262613
37.975000 87.765625 20.262613
38.275000 81.687500 20.398124
38.125000 87.593750 20.398124
38.500000 92.453125 20.398124
38.275000 80.437500 20.561676
38.225000 81.609375 20.561676
38.475000 92.078125 20.561676
38.625000 78.640625 20.717227
38.275000 83.640625 20.717227
38.200000 88.359375 20.717227
38.250000 90.750000 20.717227
38.275000 83.468750 20.858714
38.300000 85.031250 20.858714
38.675000 92.093750 20.858714
39.325000 92.968750 20.858714
38.400000 82.062500 21.012423
38.700000 83.140625 21.012423
38.125000 85.890625 21.012423
38.150000 86.843750 21.012423
38.200000 88.125000 21.012423
38.175000 89.265625 21.012423
38.350000 81.937500 21.184712
38.650000 83.250000 21.184712
38.125000 85.921875 21.184712
38.200000 87.953125 21.184712
38.200000 89.281250 21.184712
38.725000 78.687500 21.323266
38.375000 81.890625 21.466054
38.475000 84.390625 21.466054
38.100000 85.734375 21.466054
38.100000 86.812500 21.466054
38.275000 87.921875 21.466054
38.275000 89.421875 21.466054
38.875000 83.062500 21.621393
37.975000 85.671875 21.621393
38.025000 89.171875 21.621393
38.525000 82.046875 21.777122
37.800000 86.109375 21.777122
38.025000 89.187500 21.777122
38.775000 78.781250 21.926442
38.750000 78.796875 22.075403
38.275000 80.296875 22.075403
38.250000 81.281250 22.075403
38.450000 92.109375 22.075403
38.725000 93.234375 22.075403
38.725000 79.234375 22.230190
38.250000 81.656250 22.230190
38.125000 84.109375 22.230190
37.775000 85.359375 22.230190
38.725000 78.796875 22.387654
38.275000 80.453125 22.387654
38.300000 83.750000 22.387654
37.875000 85.312500 22.387654
38.475000 81.937500 22.530674
38.350000 82.984375 22.530674
37.975000 84.546875 22.530674
38.425000 82.984375 22.689574
37.875000 84.296875 22.689574
36.925000 87.984375 22.689574
38.675000 81.906250 22.828504
38.400000 83.187500 22.828504
37.850000 84.171875 22.828504
37.775000 84.031250 22.984978
38.900000 82.234375 23.453717
37.325000 93.484375 23.590501
37.900000 82.843750 23.898149
37.725000 82.062500 24.061029
36.900000 92.906250 24.061029
31.375000 94.578125 25.569258
31.375000 94.500000 25.877249
31.425000 94.625000 27.554733
37.175000 90.453125 27.696038
31.500000 94.453125 28.008040
36.850000 89.062500 28.154417
36.925000 88.296875 28.461070
38.150000 81.546875 29.066577
38.200000 81.578125 29.222208
37.850000 83.062500 29.222208
37.725000 87.593750 29.222208
38.700000 82.000000 29.376940
38.325000 83.093750 29.376940
37.900000 84.421875 29.376940
37.550000 85.921875 29.376940
37.725000 85.843750 29.517881
38.350000 82.765625 29.673260
37.950000 84.000000 29.673260
37.600000 85.234375 29.673260
38.575000 81.734375 29.827988
38.425000 82.906250 29.827988
37.950000 84.125000 29.827988
37.575000 85.156250 29.827988
38.650000 82.093750 29.983852
38.425000 83.000000 29.983852
38.000000 84.156250 29.983852
37.550000 85.484375 29.983852
38.650000 81.937500 30.130897
38.425000 83.203125 30.130897
38.050000 84.125000 30.130897
37.625000 85.468750 30.130897
38.150000 91.546875 30.130897
38.575000 82.046875 30.592119
38.075000 84.328125 30.592119
37.725000 85.578125 30.592119
38.300000 84.000000 30.733248
37.925000 85.656250 30.733248
37.900000 88.078125 30.733248
38.500000 91.500000 30.733248
38.075000 84.234375 30.892366
37.950000 85.765625 30.892366
37.750000 87.078125 30.892366
37.825000 87.984375 30.892366
38.425000 91.843750 30.892366
38.525000 78.515625 31.042455
38.075000 85.890625 31.042455
38.175000 88.250000 31.042455
38.475000 92.171875 31.042455
38.225000 80.437500 31.199386
38.650000 81.937500 31.356445
38.825000 83.109375 31.356445
38.400000 84.484375 31.356445
38.100000 85.500000 31.356445
38.075000 86.734375 31.356445
38.150000 88.109375 31.356445
38.100000 89.250000 31.356445
38.725000 78.328125 31.496929
38.275000 83.156250 31.496929
38.175000 85.968750 31.496929
38.175000 86.718750 31.496929
38.175000 88.281250 31.496929
38.050000 89.218750 31.496929
38.650000 91.640625 31.496929
38.700000 92.828125 31.496929
38.225000 80.406250 31.656199
38.275000 81.546875 31.805910
38.225000 85.468750 31.805910
38.225000 86.593750 31.805910
38.250000 87.734375 31.805910
38.750000 91.562500 31.805910
38.725000 78.578125 31.961321
38.375000 83.546875 31.961321
38.250000 88.296875 31.961321
38.250000 89.437500 31.961321
38.350000 90.812500 31.961321
38.825000 91.968750 31.961321
39.500000 92.953125 31.961321
38.675000 82.078125 32.117840
38.925000 83.125000 32.117840
38.150000 85.703125 32.117840
37.975000 87.203125 32.117840
38.100000 88.062500 32.117840
38.650000 91.531250 32.117840
38.875000 93.015625 32.117840
38.700000 78.500000 32.258492
38.800000 91.968750 32.258492
38.400000 81.656250 32.416792
38.400000 81.796875 32.558381
38.300000 81.500000 32.715968
38.700000 78.718750 32.865636
38.875000 82.171875 32.865636
38.125000 83.406250 33.023350
37.600000 84.875000 33.023350
38.250000 84.031250 33.178155
38.775000 82.093750 33.319733
38.550000 83.328125 33.319733
38.225000 83.812500 33.474672
38.750000 81.968750 33.630878
38.525000 83.093750 33.630878
37.575000 84.546875 33.630878
38.850000 81.984375 33.772251
38.800000 82.187500 34.082724
38.900000 82.109375 34.391900
37.475000 93.484375 34.391900
37.225000 93.093750 34.835483
31.000000 95.859375 35.141807
37.275000 93.296875 37.269328
37.150000 90.437500 37.426987
36.825000 93.468750 37.426987
37.150000 90.859375 37.569978
36.775000 93.062500 37.569978
37.100000 91.062500 37.728637
37.100000 90.671875 38.029274
37.175000 90.437500 38.489794
37.350000 91.593750 38.489794
36.650000 84.906250 38.786649
36.925000 88.515625 38.943806
38.150000 81.437500 39.417987
37.900000 83.046875 39.417987
38.250000 81.562500 39.545620
37.975000 82.906250 39.545620
38.225000 82.796875 39.704466
38.350000 81.500000 39.847495
38.275000 82.500000 39.847495
37.900000 83.859375 39.847495
38.375000 81.531250 40.003067
38.200000 82.796875 40.003067
37.825000 84.265625 40.003067
38.475000 81.828125 40.159069
38.300000 83.312500 40.159069
37.825000 84.453125 40.159069
38.125000 91.531250 40.159069
38.575000 81.812500 40.314932
38.325000 83.406250 40.314932
38.275000 80.484375 40.456685
38.350000 81.578125 40.456685
38.100000 84.015625 40.456685
37.600000 85.421875 40.456685
38.550000 81.890625 40.611660
38.400000 82.812500 40.611660
37.975000 84.296875 40.611660
37.575000 85.671875 40.611660
38.600000 78.531250 40.766202
38.275000 83.812500 40.924022
38.575000 82.062500 41.068616
38.625000 83.234375 41.068616
38.325000 84.656250 41.068616
37.875000 85.796875 41.068616
38.375000 91.453125 41.068616
37.675000 86.000000 41.213190
38.325000 91.812500 41.213190
37.900000 85.921875 41.369189
37.900000 87.093750 41.369189
38.050000 88.375000 41.369189
38.475000 82.140625 41.527775
38.625000 83.218750 41.527775
38.225000 84.671875 41.527775
38.075000 85.609375 41.527775
38.050000 87.281250 41.527775
38.050000 88.234375 41.527775
38.600000 92.031250 41.527775
38.175000 81.328125 41.670775
38.100000 87.312500 41.830380
38.675000 92.406250 41.830380
38.100000 87.187500 41.986972
38.100000 88.453125 41.986972
38.775000 92.218750 41.986972
38.100000 87.281250 42.127972
38.575000 84.390625 42.284207
38.175000 85.484375 42.284207
38.150000 86.718750 42.284207
38.150000 87.921875 42.284207
38.125000 89.031250 42.284207
38.700000 92.421875 42.284207
38.400000 82.140625 42.440995
38.425000 84.437500 42.440995
38.150000 86.015625 42.440995
38.150000 86.968750 42.440995
38.275000 88.109375 42.440995
38.250000 90.468750 42.440995
38.675000 91.703125 42.440995
38.575000 93.171875 42.440995
38.100000 85.546875 42.597414
38.075000 87.796875 42.597414
38.050000 89.062500 42.597414
38.400000 82.218750 42.888710
38.400000 84.437500 42.888710
37.750000 85.718750 42.888710
37.675000 93.421875 42.888710
38.200000 81.671875 43.038072
38.425000 81.984375 43.200317
37.750000 85.968750 43.200317
38.325000 81.703125 43.340363
38.575000 84.171875 43.340363
38.500000 82.140625 43.495476
38.000000 84.562500 43.495476
38.350000 81.437500 43.649958
38.350000 81.453125 43.795966
38.175000 84.015625 43.795966
38.850000 82.140625 43.960252
37.675000 84.968750 43.960252
38.350000 82.812500 44.100907
37.575000 84.593750 44.100907
31.700000 95.140625 44.100907
38.850000 82.343750 44.269324
36.825000 87.265625 44.269324
38.325000 82.687500 44.407771
38.875000 82.250000 44.564566
37.125000 93.484375 44.564566
36.675000 87.343750 44.873355
37.900000 93.359375 44.873355
36.950000 93.078125 45.012863
37.175000 93.062500 45.619030
37.275000 93.437500 46.829698
37.275000 92.968750 47.743195
37.100000 90.453125 47.901574
37.150000 90.593750 48.043548
36.700000 92.875000 48.043548
37.675000 93.625000 48.197487
37.200000 91.265625 48.352216
37.125000 90.859375 48.507100
37.250000 92.890625 48.801249
37.250000 92.937500 48.955346
36.825000 89.062500 49.112656
37.075000 90.468750 49.112656
38.375000 78.234375 49.874254
37.675000 84.531250 50.032154
38.250000 81.296875 50.185036
38.125000 82.578125 50.185036
38.250000 81.578125 50.325276
38.225000 82.703125 50.325276
38.275000 81.656250 50.476595
38.125000 82.593750 50.476595
38.250000 80.281250 50.632729
38.325000 82.468750 50.632729
37.925000 83.781250 50.632729
38.325000 80.281250 50.787408
38.375000 82.859375 50.787408
37.850000 84.218750 50.787408
31.175000 94.687500 50.787408
38.325000 82.875000 50.927872
37.850000 84.109375 50.927872
38.525000 81.796875 51.083731
38.350000 83.093750 51.083731
37.950000 84.187500 51.083731
38.250000 91.609375 51.083731
38.525000 81.843750 51.240468
38.325000 82.953125 51.240468
37.925000 84.078125 51.240468
31.600000 95.078125 51.240468
38.525000 81.796875 51.394052
38.075000 84.531250 51.394052
38.700000 82.187500 51.549012
38.300000 83.796875 51.549012
37.825000 84.718750 51.549012
38.475000 81.843750 51.688570
38.300000 84.187500 51.688570
37.875000 85.609375 51.688570
38.225000 81.562500 51.844598
37.750000 87.390625 51.844598
38.425000 81.671875 52.000408
38.350000 84.250000 52.000408
37.975000 87.796875 52.000408
38.075000 89.125000 52.000408
38.425000 92.593750 52.000408
38.100000 87.187500 52.156114
38.475000 83.031250 52.294350
38.425000 84.171875 52.294350
38.050000 85.359375 52.294350
38.100000 87.500000 52.294350
38.075000 88.953125 52.294350
38.600000 78.578125 52.446173
38.100000 87.062500 52.446173
38.625000 92.265625 52.446173
39.175000 93.140625 52.446173
38.125000 88.968750 52.605684
38.175000 81.671875 52.766181
38.475000 83.234375 52.766181
38.450000 84.140625 52.766181
38.075000 85.359375 52.766181
38.150000 87.953125 52.766181
38.125000 89.125000 52.766181
38.525000 91.328125 52.766181
38.500000 82.906250 52.903026
38.450000 84.093750 52.903026
38.150000 85.515625 52.903026
38.150000 86.937500 52.903026
38.150000 88.000000 52.903026
38.125000 89.125000 52.903026
38.550000 91.546875 52.903026
38.575000 82.093750 53.057927
38.325000 85.015625 53.057927
38.125000 85.937500 53.057927
38.100000 87.375000 53.057927
38.575000 83.140625 53.209431
38.450000 84.140625 53.209431
38.150000 87.953125 53.209431
38.650000 92.671875 53.209431
38.525000 84.250000 53.368308
38.050000 85.687500 53.368308
38.450000 81.968750 53.527535
38.350000 84.406250 53.527535
37.700000 85.703125 53.527535
38.175000 81.437500 53.664226
38.325000 81.671875 53.818529
38.225000 81.375000 53.974174
38.425000 82.187500 54.128815
38.400000 83.156250 54.128815
38.225000 81.437500 54.282834
38.525000 81.953125 54.424689
38.325000 83.218750 54.424689
37.825000 84.250000 54.424689
37.750000 84.578125 54.580065
37.800000 93.234375 54.580065
38.275000 80.484375 54.736224
38.600000 81.921875 54.736224
38.375000 82.906250 54.736224
38.775000 82.031250 54.890021
37.800000 93.562500 54.890021
38.250000 80.312500 55.031894
38.300000 82.781250 55.031894
38.600000 81.796875 55.179349
38.350000 82.640625 55.344443
36.800000 87.437500 55.344443
38.600000 81.984375 55.484734
37.225000 90.453125 56.705991
37.775000 93.125000 57.011624
37.175000 90.453125 57.617694
36.975000 93.234375 58.981101
36.850000 87.125000 59.436579
37.275000 93.468750 59.436579
