26.575000 89.046875 6.939191
26.400000 86.578125 6.940219
26.275000 86.562500 6.940226
26.375000 84.906250 6.940916
26.525000 83.421875 6.941535
26.275000 81.765625 6.942225
25.950000 81.953125 6.942147
26.250000 79.750000 6.943064
26.725000 77.906250 6.943833
27.150000 77.437500 6.944028
27.350000 76.437500 6.944445
27.300000 74.796875 6.945128
27.200000 73.234375 6.945779
27.175000 73.156250 6.945812
27.300000 71.718750 6.946411
26.175000 89.656250 7.095866
26.075000 87.890625 7.096602
26.075000 87.406250 7.096804
26.225000 84.937500 7.097833
26.325000 85.203125 7.097722
26.100000 83.812500 7.098301
25.775000 82.687500 7.098770
25.850000 81.781250 7.099148
25.950000 80.406250 7.099720
27.450000 76.109375 7.101511
27.325000 74.671875 7.102110
27.225000 72.984375 7.102813
27.300000 72.062500 7.103197
27.450000 71.421875 7.103464
26.500000 88.562500 7.250491
26.325000 87.140625 7.251083
26.200000 86.796875 7.251226
26.200000 84.484375 7.252190
26.050000 83.406250 7.252639
25.775000 83.265625 7.252698
27.150000 76.781250 7.255400
27.525000 75.578125 7.255901
27.350000 74.031250 7.256546
27.250000 72.156250 7.257327
27.375000 72.000000 7.257392
27.650000 71.062500 7.257782
28.100000 69.671875 7.258362
26.450000 88.140625 7.409167
26.225000 87.828125 7.409297
26.100000 85.828125 7.410130
26.100000 85.093750 7.410436
26.200000 84.421875 7.410716
27.650000 75.578125 7.414401
27.550000 73.703125 7.415182
27.300000 72.812500 7.415554
27.375000 71.609375 7.416055
27.600000 70.828125 7.416380
28.000000 69.156250 7.417077
26.375000 88.578125 7.567145
26.200000 87.937500 7.567412
25.975000 86.000000 7.568219
25.750000 83.250000 7.569365
25.800000 79.656250 7.570862
27.600000 75.625000 7.572542
27.525000 74.125000 7.573167
27.275000 73.406250 7.573466
27.375000 72.078125 7.574020
27.600000 70.765625 7.574567
27.900000 69.421875 7.575126
26.100000 89.500000 7.732835
26.175000 88.531250 7.733238
26.050000 87.312500 7.733746
25.950000 85.296875 7.734586
25.750000 81.703125 7.736083
27.550000 74.546875 7.739065
27.450000 73.859375 7.739352
27.350000 72.656250 7.739853
27.375000 71.359375 7.740393
25.775000 87.312500 7.890455
25.925000 85.781250 7.891093
25.900000 85.375000 7.891263
25.850000 82.437500 7.892487
25.625000 82.390625 7.892506
27.475000 74.640625 7.895735
27.425000 73.500000 7.896210
27.400000 72.906250 7.896458
27.425000 71.640625 7.896985
26.050000 89.593750 8.045991
25.925000 88.109375 8.046609
25.775000 86.015625 8.047482
25.900000 86.359375 8.047339
25.875000 84.140625 8.048263
25.900000 82.968750 8.048751
25.600000 81.281250 8.049454
27.500000 74.312500 8.052358
27.425000 72.765625 8.053003
27.325000 72.593750 8.053074
27.375000 70.718750 8.053856
27.525000 69.953125 8.054175
26.125000 88.140625 8.214533
26.025000 87.906250 8.214630
25.850000 86.359375 8.215275
25.875000 85.375000 8.215685
25.875000 84.640625 8.215991
25.700000 82.453125 8.216902
25.400000 81.234375 8.217410
25.400000 80.375000 8.217768
27.050000 73.609375 8.220587
27.375000 73.515625 8.220627
27.350000 71.578125 8.221434
27.425000 70.687500 8.221805
27.650000 69.562500 8.222274
26.050000 88.031250 8.373858
25.850000 87.140625 8.374229
25.850000 86.625000 8.374444
25.850000 84.218750 8.375447
25.725000 84.125000 8.375486
25.425000 82.718750 8.376071
25.250000 80.765625 8.376885
25.375000 80.796875 8.376872
27.375000 72.265625 8.380427
27.275000 71.546875 8.380726
25.900000 88.171875 8.525161
25.725000 86.968750 8.525663
25.700000 86.843750 8.525715
25.825000 86.125000 8.526014
25.550000 82.453125 8.527544
25.225000 81.531250 8.527928
25.375000 80.046875 8.528547
25.575000 78.531250 8.529178
27.400000 73.453125 8.531294
27.225000 72.031250 8.531887
27.175000 71.078125 8.532284
27.400000 69.718750 8.532850
26.125000 87.781250 8.689199
25.850000 87.531250 8.689303
25.825000 86.421875 8.689765
25.850000 85.500000 8.690150
25.550000 81.703125 8.691732
25.200000 80.343750 8.692298
25.300000 79.203125 8.692773
25.525000 77.718750 8.693392
27.275000 73.078125 8.695325
27.175000 71.359375 8.696042
27.300000 70.687500 8.696321
27.600000 69.343750 8.696882
26.250000 88.640625 8.849713
25.775000 87.718750 8.850097
25.725000 86.328125 8.850677
25.825000 84.312500 8.851516
25.475000 81.265625 8.852786
25.150000 80.328125 8.853177
25.300000 78.890625 8.853776
27.275000 72.890625 8.856276
27.100000 71.156250 8.856998
25.675000 87.859375 9.003787
25.550000 87.109375 9.004099
25.625000 85.250000 9.004874
25.750000 83.875000 9.005447
25.500000 81.421875 9.006469
25.175000 78.484375 9.007693
25.300000 78.046875 9.007875
27.050000 72.703125 9.010102
26.850000 71.953125 9.010414
27.025000 70.593750 9.010981
25.900000 88.656250 9.162859
25.625000 87.218750 9.163458
25.575000 86.343750 9.163823
25.625000 84.812500 9.164461
25.750000 83.281250 9.165099
25.750000 83.328125 9.165079
25.475000 80.109375 9.166420
25.250000 80.937500 9.166075
25.250000 80.000000 9.166466
25.400000 78.796875 9.166967
26.600000 73.765625 9.169064
26.700000 72.328125 9.169662
26.900000 71.281250 9.170099
27.100000 70.468750 9.170437
27.475000 69.078125 9.171017
25.625000 87.671875 9.333735
25.400000 87.625000 9.333754
25.500000 87.093750 9.333975
25.575000 85.812500 9.334509
25.625000 83.656250 9.335408
25.450000 81.359375 9.336365
25.275000 79.546875 9.337120
25.375000 79.203125 9.337263
25.600000 77.484375 9.337979
25.925000 76.875000 9.338233
26.300000 75.015625 9.339008
26.500000 73.937500 9.339457
26.600000 73.281250 9.339731
26.800000 71.437500 9.340499
27.025000 71.328125 9.340544
25.675000 87.171875 9.496026
25.525000 86.828125 9.496169
25.400000 85.406250 9.496762
25.525000 85.390625 9.496768
25.625000 83.406250 9.497595
25.575000 82.859375 9.497823
25.625000 81.015625 9.498591
25.525000 80.406250 9.498845
25.425000 78.890625 9.499477
25.875000 75.937500 9.500707
26.325000 73.984375 9.501521
26.500000 74.031250 9.501502
26.675000 71.984375 9.502354
26.850000 71.750000 9.502452
25.450000 86.437500 9.645157
25.325000 84.937500 9.645782
25.450000 85.625000 9.645495
25.575000 83.906250 9.646211
25.600000 82.328125 9.646869
25.600000 81.328125 9.647285
25.675000 81.125000 9.647370
25.650000 78.468750 9.648477
25.600000 77.234375 9.648991
25.850000 76.734375 9.649200
26.075000 75.156250 9.649857
26.150000 75.484375 9.649720
26.350000 73.828125 9.650411
26.575000 73.156250 9.650691
26.750000 71.421875 9.651413
25.375000 86.125000 9.811876
25.300000 86.078125 9.811896
25.350000 85.828125 9.812000
25.475000 83.750000 9.812866
25.600000 83.625000 9.812918
25.625000 82.187500 9.813517
25.675000 80.968750 9.814024
25.775000 79.390625 9.814682
25.800000 78.296875 9.815138
25.875000 77.359375 9.815528
25.950000 75.406250 9.816342
26.050000 75.031250 9.816499
26.250000 74.031250 9.816915
26.450000 72.640625 9.817495
26.650000 71.656250 9.817905
26.875000 70.031250 9.818582
27.225000 70.062500 9.818569
25.350000 87.203125 9.970612
25.300000 86.296875 9.970990
25.325000 84.718750 9.971648
25.375000 84.046875 9.971927
25.475000 83.500000 9.972155
25.575000 81.984375 9.972787
25.575000 80.906250 9.973236
25.600000 79.359375 9.973881
25.725000 77.781250 9.974538
25.825000 77.703125 9.974571
25.850000 75.343750 9.975554
26.000000 75.703125 9.975404
26.225000 74.640625 9.975847
26.425000 72.546875 9.976719
26.625000 71.656250 9.977090
26.800000 70.703125 9.977487
27.150000 69.703125 9.977904
25.325000 87.890625 10.124610
25.300000 85.484375 10.125612
25.325000 85.593750 10.125567
25.375000 84.500000 10.126022
25.400000 82.640625 10.126797
25.475000 80.750000 10.127585
25.575000 79.875000 10.127949
25.575000 78.796875 10.128399
25.775000 77.500000 10.128939
25.875000 77.015625 10.129141
25.800000 75.843750 10.129629
25.975000 75.093750 10.129942
26.175000 73.250000 10.130710
26.375000 72.171875 10.131159
26.575000 72.093750 10.131192
26.800000 70.812500 10.131726
27.125000 69.187500 10.132403
25.475000 87.984375 10.283702
25.300000 87.687500 10.283826
25.300000 85.640625 10.284679
25.300000 84.968750 10.284959
25.325000 84.218750 10.285271
25.375000 82.812500 10.285857
25.475000 82.093750 10.286156
25.575000 79.984375 10.287035
25.600000 79.500000 10.287237
25.775000 77.078125 10.288246
25.825000 75.796875 10.288780
25.800000 74.781250 10.289203
25.950000 74.671875 10.289249
26.175000 73.312500 10.289815
26.350000 72.843750 10.290011
26.525000 71.093750 10.290740
26.750000 70.781250 10.290870
27.125000 69.828125 10.291267
25.450000 87.718750 10.452530
25.325000 87.812500 10.452491
25.300000 86.187500 10.453168
25.300000 84.125000 10.454028
25.350000 83.375000 10.454340
25.375000 82.078125 10.454881
25.375000 80.953125 10.455349
25.475000 80.437500 10.455564
25.575000 79.734375 10.455857
25.775000 78.453125 10.456391
25.850000 77.421875 10.456821
25.800000 76.515625 10.457198
25.900000 74.312500 10.458116
26.100000 72.906250 10.458702
26.350000 71.890625 10.459126
26.550000 71.703125 10.459203
26.700000 70.281250 10.459796
26.950000 68.609375 10.460493
25.425000 88.578125 10.606545
25.300000 87.796875 10.606871
25.300000 86.281250 10.607502
25.300000 84.390625 10.608290
25.325000 83.937500 10.608479
25.350000 81.437500 10.609520
25.375000 81.437500 10.609520
25.475000 80.593750 10.609872
25.575000 79.125000 10.610484
25.750000 77.640625 10.611103
25.850000 76.390625 10.611623
25.775000 76.046875 10.611767
25.900000 74.140625 10.612561
26.075000 73.390625 10.612873
26.300000 72.812500 10.613114
26.475000 70.828125 10.613941
26.625000 70.031250 10.614273
26.925000 69.515625 10.614488
25.475000 86.859375 10.762682
25.300000 87.484375 10.762422
25.300000 86.062500 10.763014
25.300000 84.015625 10.763867
25.300000 84.031250 10.763860
25.350000 82.140625 10.764648
25.450000 80.734375 10.765234
25.550000 79.703125 10.765664
25.575000 79.656250 10.765683
25.675000 78.625000 10.766113
25.775000 76.765625 10.766888
25.800000 75.718750 10.767324
25.925000 75.140625 10.767565
26.125000 73.890625 10.768085
26.300000 72.921875 10.768489
26.500000 71.828125 10.768945
26.675000 70.468750 10.769511
26.950000 68.562500 10.770306
25.300000 87.093750 10.921338
25.275000 86.484375 10.921592
25.300000 84.875000 10.922263
25.300000 84.375000 10.922471
25.325000 83.843750 10.922693
25.350000 81.968750 10.923474
25.475000 81.437500 10.923695
25.600000 80.343750 10.924151
25.775000 78.281250 10.925010
25.825000 76.968750 10.925557
25.700000 75.859375 10.926019
25.825000 75.562500 10.926143
25.975000 74.109375 10.926749
26.150000 72.968750 10.927224
26.325000 71.546875 10.927816
26.525000 70.156250 10.928396
25.275000 87.609375 11.090074
25.300000 86.187500 11.090666
25.300000 85.468750 11.090966
25.325000 82.718750 11.092112
25.325000 82.093750 11.092372
25.375000 81.703125 11.092535
25.500000 80.781250 11.092919
25.675000 78.703125 11.093785
25.775000 77.343750 11.094351
25.750000 77.000000 11.094494
25.800000 76.046875 11.094892
25.925000 74.609375 11.095490
26.100000 73.890625 11.095790
26.225000 72.515625 11.096363
26.400000 71.359375 11.096845
26.625000 70.562500 11.097177
26.950000 69.484375 11.097626
25.325000 87.281250 11.248261
25.275000 85.734375 11.248905
25.300000 85.562500 11.248977
25.325000 84.796875 11.249296
25.350000 83.062500 11.250018
25.375000 82.250000 11.250357
25.500000 81.390625 11.250715
25.600000 79.546875 11.251483
25.800000 78.828125 11.251783
25.825000 77.593750 11.252297
25.750000 76.453125 11.252772
25.850000 75.171875 11.253306
25.975000 73.375000 11.254055
26.150000 72.156250 11.254563
26.325000 71.171875 11.254973
26.525000 70.234375 11.255363
25.325000 86.578125 11.398515
25.275000 85.359375 11.399022
25.275000 85.250000 11.399068
25.325000 84.343750 11.399446
25.350000 82.390625 11.400259
25.375000 82.093750 11.400383
25.475000 80.453125 11.401067
25.600000 79.140625 11.401613
25.800000 79.078125 11.401640
25.825000 76.531250 11.402701
25.750000 76.531250 11.402701
25.850000 75.609375 11.403085
25.950000 73.093750 11.404133
26.150000 73.000000 11.404172
26.350000 71.656250 11.404732
26.525000 70.812500 11.405084
25.150000 87.359375 11.562914
25.275000 85.046875 11.563877
25.275000 84.406250 11.564144
25.300000 83.515625 11.564515
25.325000 81.515625 11.565349
25.425000 81.140625 11.565505
25.550000 78.937500 11.566423
25.700000 78.796875 11.566482
25.750000 77.812500 11.566892
25.700000 75.875000 11.567699
25.775000 76.171875 11.567575
25.900000 74.359375 11.568331
26.075000 73.968750 11.568493
26.250000 72.265625 11.569203
26.425000 70.890625 11.569776
26.625000 70.640625 11.569880
26.975000 68.843750 11.570629
25.275000 85.531250 11.722827
25.275000 84.406250 11.723295
25.300000 83.421875 11.723706
25.325000 80.703125 11.724838
25.425000 81.140625 11.724656
25.575000 79.468750 11.725353
25.775000 79.328125 11.725411
25.825000 77.656250 11.726108
25.700000 75.890625 11.726844
25.750000 74.781250 11.727306
25.925000 73.750000 11.727736
26.150000 72.406250 11.728296
26.300000 72.140625 11.728406
26.500000 70.828125 11.728953
25.275000 87.359375 11.876004
25.275000 86.328125 11.876434
25.275000 85.421875 11.876811
25.300000 83.328125 11.877684
25.300000 81.906250 11.878276
25.350000 80.546875 11.878843
25.475000 80.875000 11.878706
25.675000 79.703125 11.879194
25.750000 77.843750 11.879969
25.675000 76.328125 11.880600
25.700000 75.765625 11.880835
25.900000 74.546875 11.881342
26.075000 74.187500 11.881492
26.250000 72.765625 11.882085
26.450000 70.515625 11.883022
26.650000 70.468750 11.883042
26.925000 68.953125 11.883673
25.250000 86.859375 12.036826
25.275000 85.390625 12.037438
25.275000 85.531250 12.037379
25.275000 82.984375 12.038440
25.300000 83.437500 12.038251
25.350000 81.953125 12.038870
25.375000 79.750000 12.039788
25.500000 78.515625 12.040302
25.775000 78.062500 12.040491
25.825000 77.500000 12.040725
25.725000 75.359375 12.041617
25.800000 75.250000 12.041663
26.000000 74.359375 12.042034
26.200000 72.578125 12.042776
26.400000 72.140625 12.042958
26.575000 70.203125 12.043766
26.825000 69.343750 12.044124
25.075000 87.093750 12.207408
25.250000 86.875000 12.207499
25.250000 84.578125 12.208456
25.275000 83.078125 12.209081
25.300000 81.687500 12.209660
25.350000 81.453125 12.209758
25.375000 80.781250 12.210038
25.500000 78.921875 12.210813
25.700000 77.515625 12.211399
25.675000 77.171875 12.211542
25.625000 75.890625 12.212076
25.775000 75.593750 12.212199
25.975000 74.281250 12.212746
26.150000 73.093750 12.213241
26.350000 72.062500 12.213671
26.550000 70.984375 12.214120
25.225000 86.671875 12.368028
25.250000 85.203125 12.368640
25.250000 83.421875 12.369382
25.275000 84.312500 12.369011
25.300000 81.250000 12.370287
25.325000 82.093750 12.369935
25.375000 80.343750 12.370665
25.550000 79.796875 12.370892
25.750000 78.093750 12.371602
25.750000 76.437500 12.372292
25.750000 74.921875 12.372924
25.875000 74.078125 12.373275
26.050000 73.921875 12.373340
26.275000 73.000000 12.373724
26.450000 71.531250 12.374336
26.625000 69.937500 12.375000
26.925000 69.281250 12.375274
25.525000 89.218750 12.517973
25.350000 87.921875 12.518513
25.200000 85.765625 12.519412
25.225000 84.906250 12.519770
25.250000 84.015625 12.520141
25.275000 82.796875 12.520649
25.300000 82.593750 12.520733
25.325000 81.187500 12.521319
25.475000 79.875000 12.521866
25.675000 78.546875 12.522419
25.825000 77.406250 12.522895
25.800000 77.125000 12.523012
25.775000 75.906250 12.523520
25.950000 74.750000 12.524002
26.225000 73.656250 12.524457
26.425000 71.328125 12.525427
26.600000 71.046875 12.525544
25.375000 88.359375 12.688225
25.150000 88.031250 12.688361
25.125000 85.015625 12.689618
25.250000 85.843750 12.689273
25.275000 84.531250 12.689820
25.300000 82.562500 12.690640
25.325000 82.140625 12.690816
25.400000 80.187500 12.691630
25.525000 80.296875 12.691584
25.550000 78.421875 12.692365
25.600000 77.515625 12.692743
25.825000 76.171875 12.693303
25.950000 74.546875 12.693980
26.050000 74.046875 12.694188
26.275000 72.703125 12.694748
26.400000 71.203125 12.695373
26.625000 70.281250 12.695757
25.375000 88.203125 12.845626
25.150000 88.187500 12.845633
25.125000 87.046875 12.846108
25.250000 85.250000 12.846857
25.275000 83.796875 12.847462
25.300000 83.125000 12.847742
25.300000 80.109375 12.848999
25.300000 78.046875 12.849858
25.700000 75.375000 12.850971
26.125000 74.828125 12.851199
26.325000 72.812500 12.852039
26.550000 71.625000 12.852534
26.700000 70.859375 12.852853
25.400000 88.359375 12.998762
25.275000 87.593750 12.999081
25.275000 84.906250 13.000201
25.275000 83.812500 13.000657
25.300000 83.140625 13.000937
25.250000 79.921875 13.002278
25.200000 77.359375 13.003345
25.375000 77.250000 13.003391
25.850000 74.421875 13.004570
26.300000 73.078125 13.005129
26.500000 72.656250 13.005305
26.675000 71.234375 13.005898
25.275000 89.046875 13.157362
25.150000 88.109375 13.157752
25.250000 85.609375 13.158794
25.250000 84.453125 13.159276
25.325000 83.562500 13.159647
25.500000 83.531250 13.159660
25.725000 81.859375 13.160356
25.525000 81.093750 13.160675
25.175000 79.578125 13.161307
25.250000 78.734375 13.161658
25.425000 77.609375 13.162127
25.750000 76.406250 13.162628
26.150000 74.359375 13.163481
26.400000 74.156250 13.163566
26.475000 72.109375 13.164419
26.650000 72.281250 13.164347
26.875000 70.781250 13.164972
27.175000 69.265625 13.165604
25.600000 88.484375 13.314264
25.575000 87.187500 13.314804
25.375000 86.875000 13.314934
25.225000 84.406250 13.315963
25.300000 85.156250 13.315650
25.475000 82.625000 13.316705
25.575000 82.859375 13.316607
25.375000 80.937500 13.317408
25.200000 80.171875 13.317727
25.225000 78.859375 13.318274
25.375000 78.062500 13.318606
26.550000 73.796875 13.320384
26.650000 71.984375 13.321139
26.825000 71.562500 13.321315
25.400000 89.140625 13.483398
25.250000 85.765625 13.484804
25.250000 86.062500 13.484680
25.350000 85.734375 13.484817
25.500000 84.531250 13.485318
25.400000 80.125000 13.487154
25.225000 79.906250 13.487245
25.325000 78.703125 13.487747
26.675000 73.328125 13.489986
26.800000 71.968750 13.490553
27.000000 70.421875 13.491197
27.325000 69.578125 13.491549
25.350000 86.359375 13.638917
25.400000 86.500000 13.638858
25.550000 83.984375 13.639906
25.600000 84.109375 13.639854
25.775000 82.796875 13.640401
25.575000 81.453125 13.640961
25.200000 79.421875 13.641808
25.300000 79.390625 13.641820
25.550000 78.421875 13.642224
25.875000 76.875000 13.642869
26.425000 73.875000 13.644119
26.825000 71.828125 13.644972
27.000000 71.531250 13.645095
25.475000 87.140625 13.794129
25.400000 86.328125 13.794467
25.475000 85.625000 13.794760
25.575000 84.500000 13.795229
25.400000 81.562500 13.796453
25.275000 80.109375 13.797058
25.375000 78.765625 13.797618
25.650000 77.171875 13.798282
27.075000 72.734375 13.800131
27.125000 71.375000 13.800698
25.475000 88.437500 13.950351
25.325000 86.656250 13.951094
25.500000 86.875000 13.951003
25.650000 85.718750 13.951484
25.750000 84.468750 13.952005
25.675000 83.578125 13.952376
25.575000 81.546875 13.953223
25.425000 80.781250 13.953542
25.475000 79.687500 13.953997
25.875000 78.703125 13.954407
26.175000 77.812500 13.954778
27.275000 73.125000 13.956732
27.125000 72.484375 13.956999
27.225000 70.359375 13.957884
27.425000 69.250000 13.958346
25.625000 88.562500 14.122988
25.675000 86.796875 14.123724
25.650000 85.843750 14.124121
25.750000 84.015625 14.124882
25.500000 79.687500 14.126686
25.375000 79.859375 14.126614
27.000000 73.250000 14.129368
27.250000 72.046875 14.129869
27.225000 70.765625 14.130403
25.575000 89.093750 14.276227
25.575000 87.703125 14.276806
25.725000 86.000000 14.277516
25.725000 85.093750 14.277894
25.750000 84.343750 14.278206
25.700000 83.515625 14.278551
25.550000 82.312500 14.279052
27.450000 73.968750 14.282529
27.300000 72.671875 14.283069
27.275000 72.312500 14.283219
27.350000 71.218750 14.283675
27.600000 70.062500 14.284157
25.600000 89.218750 14.437338
25.550000 86.671875 14.438399
25.725000 86.234375 14.438581
25.800000 85.625000 14.438835
25.850000 84.187500 14.439434
26.050000 79.296875 14.441472
27.450000 74.609375 14.443425
27.350000 72.796875 14.444180
27.350000 71.656250 14.444656
27.450000 71.234375 14.444832
27.625000 69.421875 14.445587
25.625000 87.359375 14.602616
25.700000 86.578125 14.602941
25.825000 86.468750 14.602987
25.875000 85.312500 14.603469
25.700000 80.187500 14.605604
25.600000 79.375000 14.605943
27.400000 74.031250 14.608169
27.325000 72.843750 14.608664
27.475000 71.265625 14.609322
25.725000 88.609375 14.754282
25.750000 87.812500 14.754614
25.800000 86.656250 14.755096
25.800000 85.921875 14.755402
25.875000 83.843750 14.756268
25.875000 82.796875 14.756704
25.825000 82.453125 14.756847
25.700000 81.031250 14.757439
25.775000 80.281250 14.757752
26.150000 79.296875 14.758162
27.375000 74.359375 14.760219
27.275000 73.031250 14.760773
27.350000 72.140625 14.761144
27.525000 70.765625 14.761717
27.700000 70.203125 14.761951
25.825000 87.593750 14.914920
25.850000 86.312500 14.915454
25.925000 86.156250 14.915519
26.000000 84.750000 14.916105
25.850000 83.593750 14.916587
25.825000 82.562500 14.917016
25.800000 80.203125 14.917999
25.725000 79.187500 14.918422
26.000000 78.765625 14.918598
27.375000 74.343750 14.920441
27.300000 73.468750 14.920805
27.325000 71.953125 14.921437
27.475000 71.703125 14.921541
26.075000 88.703125 15.070971
26.025000 88.187500 15.071186
25.850000 86.562500 15.071863
25.925000 85.546875 15.072286
26.000000 84.406250 15.072762
25.950000 82.718750 15.073465
25.925000 82.796875 15.073432
25.800000 80.156250 15.074532
25.725000 80.015625 15.074591
27.325000 75.546875 15.076453
27.325000 74.750000 15.076785
27.250000 72.765625 15.077612
27.300000 71.937500 15.077957
27.450000 71.718750 15.078048
26.300000 88.875000 15.244807
26.175000 88.078125 15.245139
25.950000 86.765625 15.245686
26.075000 85.687500 15.246135
26.175000 84.687500 15.246552
26.225000 83.203125 15.247170
26.000000 82.531250 15.247450
25.700000 80.890625 15.248134
25.775000 80.187500 15.248427
27.500000 75.906250 15.250211
27.475000 74.562500 15.250770
27.250000 73.515625 15.251207
27.325000 72.140625 15.251780
27.500000 71.265625 15.252144
27.850000 69.812500 15.252749
26.025000 88.500000 15.396939
26.075000 86.921875 15.397597
26.100000 86.609375 15.397727
26.200000 84.593750 15.398567
26.325000 84.359375 15.398664
26.375000 82.578125 15.399407
26.050000 81.125000 15.400012
27.350000 76.328125 15.402011
27.325000 75.015625 15.402558
27.250000 73.843750 15.403046
27.300000 72.781250 15.403489
27.425000 71.890625 15.403860
26.525000 89.328125 15.558412
26.325000 88.140625 15.558907
26.075000 86.828125 15.559454
26.200000 84.562500 15.560398
26.200000 84.500000 15.560424
26.225000 83.031250 15.561036
26.100000 81.812500 15.561544
25.925000 80.406250 15.562129
27.500000 75.406250 15.564213
27.375000 73.500000 15.565007
27.175000 73.359375 15.565066
27.325000 72.046875 15.565613
27.550000 71.156250 15.565984
27.925000 69.968750 15.566478
26.050000 88.546875 15.710027
26.100000 87.562500 15.710437
26.125000 85.406250 15.711335
26.200000 84.375000 15.711765
26.325000 84.156250 15.711856
26.575000 82.703125 15.712461
26.350000 81.984375 15.712761
27.200000 77.265625 15.714727
27.375000 76.171875 15.715183
27.325000 75.093750 15.715632
27.175000 73.859375 15.716146
27.225000 72.109375 15.716876
27.400000 71.125000 15.717286
26.050000 87.640625 15.873705
26.075000 86.968750 15.873985
26.225000 86.031250 15.874376
26.225000 84.656250 15.874949
26.325000 83.921875 15.875254
26.500000 82.875000 15.875691
26.475000 81.296875 15.876348
26.375000 79.578125 15.877064
26.525000 79.312500 15.877175
26.950000 78.343750 15.877579
27.275000 77.203125 15.878054
27.500000 76.390625 15.878392
27.350000 74.656250 15.879115
27.100000 73.875000 15.879441
27.225000 72.359375 15.880072
27.450000 71.796875 15.880306
26.825000 88.515625 16.034915
26.250000 87.484375 16.035345
26.175000 87.000000 16.035547
26.325000 86.343750 16.035820
26.375000 85.125000 16.036328
26.450000 83.062500 16.037187
26.500000 81.937500 16.037656
26.525000 80.781250 16.038138
26.550000 80.406250 16.038294
26.675000 79.500000 16.038671
27.025000 78.468750 16.039101
27.250000 77.125000 16.039661
27.450000 75.515625 16.040332
27.375000 74.640625 16.040696
27.150000 72.859375 16.041439
27.300000 72.218750 16.041705
27.475000 70.984375 16.042220
27.875000 69.781250 16.042721
26.775000 88.812500 16.187390
26.625000 87.156250 16.188080
26.300000 86.296875 16.188438
26.325000 84.500000 16.189187
26.425000 84.187500 16.189317
26.475000 82.984375 16.189819
26.525000 82.031250 16.190216
26.550000 81.250000 16.190541
26.650000 79.843750 16.191127
26.875000 78.593750 16.191648
27.175000 77.234375 16.192214
27.325000 76.328125 16.192592
27.200000 75.609375 16.192892
27.050000 73.406250 16.193810
27.475000 70.921875 16.194845
28.125000 70.031250 16.195216
26.275000 87.109375 16.348547
26.200000 86.171875 16.348938
26.325000 85.609375 16.349172
26.375000 85.125000 16.349374
26.450000 83.796875 16.349927
26.475000 82.062500 16.350650
26.525000 80.953125 16.351112
26.550000 79.500000 16.351718
26.750000 79.328125 16.351789
27.025000 78.109375 16.352297
27.125000 74.968750 16.353606
27.150000 73.734375 16.354120
26.800000 87.796875 16.518908
26.600000 87.687500 16.518953
26.325000 85.359375 16.519923
26.400000 84.828125 16.520145
26.450000 84.015625 16.520483
26.500000 82.906250 16.520945
26.500000 81.546875 16.521512
26.525000 79.687500 16.522287
26.725000 79.718750 16.522274
27.050000 78.625000 16.522729
27.300000 77.093750 16.523367
27.475000 75.500000 16.524031
27.325000 75.000000 16.524240
27.100000 73.546875 16.524845
27.225000 72.468750 16.525294
27.475000 71.812500 16.525568
26.775000 88.937500 16.680167
26.625000 86.843750 16.681039
26.375000 86.250000 16.681287
26.400000 84.796875 16.681892
26.450000 84.453125 16.682035
26.500000 83.093750 16.682602
26.525000 81.406250 16.683305
26.575000 80.046875 16.683871
26.675000 79.859375 16.683949
26.975000 79.000000 16.684307
27.275000 77.875000 16.684776
27.350000 76.546875 16.685329
27.200000 75.312500 16.685844
27.050000 74.046875 16.686371
27.200000 72.453125 16.687035
27.450000 72.250000 16.687120
27.750000 70.281250 16.687940
28.125000 69.312500 16.688344
26.400000 85.812500 16.830477
26.425000 85.421875 16.830640
26.475000 83.953125 16.831252
26.500000 82.703125 16.831773
26.575000 81.937500 16.832092
26.600000 79.640625 16.833049
26.725000 78.625000 16.833472
27.025000 78.750000 16.833420
27.275000 76.953125 16.834169
27.425000 76.578125 16.834325
27.300000 75.234375 16.834885
27.100000 73.250000 16.835712
27.225000 72.328125 16.836096
27.400000 71.140625 16.836591
26.025000 87.843750 16.985000
26.200000 86.140625 16.985710
26.350000 85.953125 16.985788
26.425000 84.468750 16.986406
26.450000 82.828125 16.987090
26.500000 82.390625 16.987272
26.525000 81.890625 16.987480
26.600000 79.640625 16.988418
26.775000 78.812500 16.988763
27.025000 77.984375 16.989108
27.275000 77.359375 16.989368
27.600000 75.437500 16.990169
27.475000 74.109375 16.990723
27.150000 73.984375 16.990775
27.275000 72.453125 16.991413
26.475000 89.250000 17.153347
26.350000 88.375000 17.153712
26.300000 86.593750 17.154454
26.300000 85.796875 17.154786
26.425000 84.515625 17.155320
26.450000 84.031250 17.155521
26.500000 81.812500 17.156446
26.575000 81.625000 17.156524
26.575000 79.687500 17.157331
26.975000 77.562500 17.158217
27.475000 76.046875 17.158848
27.325000 74.078125 17.159669
27.100000 72.953125 17.160137
27.225000 71.812500 17.160613
27.400000 71.484375 17.160749
26.375000 89.796875 17.311625
26.250000 87.859375 17.312432
26.200000 86.390625 17.313044
26.300000 86.234375 17.313109
26.400000 84.625000 17.313780
26.525000 84.218750 17.313949
26.325000 81.890625 17.314919
26.175000 80.859375 17.315349
26.375000 79.687500 17.315837
27.425000 76.000000 17.317374
27.325000 74.062500 17.318181
27.200000 73.562500 17.318389
27.225000 72.046875 17.319021
27.425000 71.156250 17.319392
26.375000 89.531250 17.465526
26.275000 88.000000 17.466164
26.175000 86.687500 17.466711
26.250000 85.609375 17.467160
26.325000 84.093750 17.467792
26.175000 83.796875 17.467915
26.125000 80.468750 17.469302
27.625000 75.453125 17.471392
27.475000 74.031250 17.471984
27.200000 72.859375 17.472473
27.300000 71.765625 17.472928
26.550000 88.218750 17.627888
26.425000 86.859375 17.628454
26.175000 87.062500 17.628370
26.200000 84.968750 17.629242
26.400000 83.750000 17.629750
26.075000 80.078125 17.631280
27.650000 74.843750 17.633461
27.475000 74.281250 17.633695
27.200000 73.015625 17.634223
27.325000 71.812500 17.634724
27.550000 70.875000 17.635114
28.025000 69.921875 17.635511
26.025000 88.671875 17.790824
25.975000 87.609375 17.791267
26.025000 86.281250 17.791820
26.200000 86.453125 17.791749
26.225000 84.515625 17.792556
25.975000 83.375000 17.793031
25.650000 82.796875 17.793272
25.650000 80.484375 17.794236
27.400000 76.265625 17.795994
27.375000 75.093750 17.796482
27.275000 72.796875 17.797439
27.275000 72.703125 17.797478
27.425000 70.843750 17.798253
26.450000 88.906250 17.948534
26.250000 86.734375 17.949439
26.075000 86.593750 17.949497
25.825000 81.921875 17.951444
27.650000 75.406250 17.954159
27.525000 74.203125 17.954660
27.275000 72.875000 17.955213
27.350000 72.187500 17.955500
27.575000 70.671875 17.956131
28.025000 69.812500 17.956489
26.125000 89.375000 18.106656
26.050000 88.265625 18.107119
25.950000 86.671875 18.107783
26.050000 85.156250 18.108414
26.275000 83.609375 18.109059
25.525000 82.546875 18.109501
25.750000 81.406250 18.109977
26.100000 79.796875 18.110647
27.475000 73.625000 18.113219
27.275000 73.578125 18.113239
27.300000 72.640625 18.113629
27.500000 71.312500 18.114182
27.750000 70.343750 18.114586
25.800000 87.796875 18.260805
25.800000 87.343750 18.260994
25.925000 85.296875 18.261847
25.925000 85.218750 18.261879
25.725000 83.109375 18.262758
25.550000 82.578125 18.262980
27.475000 75.281250 18.266020
27.425000 72.875000 18.267022
27.375000 72.703125 18.267094
27.475000 71.656250 18.267530
25.900000 88.984375 18.433134
25.825000 88.281250 18.433427
25.850000 86.671875 18.434098
25.900000 85.156250 18.434729
25.900000 84.937500 18.434820
25.750000 83.187500 18.435549
25.475000 81.609375 18.436207
25.475000 80.531250 18.436656
25.775000 79.484375 18.437093
27.450000 74.156250 18.439312
27.425000 73.656250 18.439521
27.350000 72.328125 18.440074
27.450000 71.437500 18.440445
27.625000 70.187500 18.440966
25.875000 89.531250 18.585610
25.750000 88.312500 18.586118
25.775000 86.171875 18.587009
25.875000 84.703125 18.587621
25.875000 84.953125 18.587517
25.800000 83.296875 18.588207
25.500000 81.796875 18.588832
27.450000 74.781250 18.591756
27.425000 73.890625 18.592127
27.350000 71.968750 18.592927
27.375000 71.218750 18.593240
27.550000 70.453125 18.593559
25.875000 88.671875 18.748505
25.800000 88.093750 18.748746
25.825000 87.203125 18.749117
25.875000 84.906250 18.750074
25.550000 81.781250 18.751377
25.275000 81.218750 18.751611
27.550000 74.828125 18.754274
27.375000 73.765625 18.754716
27.300000 72.078125 18.755419
27.350000 70.765625 18.755966
27.550000 70.093750 18.756246
25.725000 88.234375 18.913295
25.650000 86.875000 18.913861
25.850000 86.265625 18.914115
25.900000 84.078125 18.915026
25.950000 83.843750 18.915124
25.225000 81.062500 18.916283
27.475000 72.968750 18.919655
27.300000 72.890625 18.919688
27.300000 71.515625 18.920261
25.825000 87.578125 19.065164
25.800000 85.828125 19.065893
25.850000 84.937500 19.066264
25.850000 83.015625 19.067065
25.525000 82.234375 19.067391
25.225000 81.328125 19.067768
25.275000 80.546875 19.068094
25.400000 79.140625 19.068680
27.300000 72.984375 19.071245
27.200000 71.109375 19.072026
25.825000 89.562500 19.223793
25.625000 88.250000 19.224339
25.650000 87.328125 19.224724
25.775000 85.906250 19.225316
25.825000 84.375000 19.225954
25.750000 83.687500 19.226240
25.425000 82.953125 19.226547
25.200000 81.343750 19.227217
25.225000 80.218750 19.227686
25.350000 78.578125 19.228369
27.225000 72.140625 19.231052
27.175000 71.531250 19.231306
25.900000 88.593750 19.380099
25.725000 86.359375 19.381030
25.700000 85.046875 19.381576
25.825000 84.046875 19.381993
25.475000 80.750000 19.383367
25.150000 80.578125 19.383438
25.300000 79.390625 19.383933
27.275000 72.437500 19.386830
27.100000 71.609375 19.387175
26.025000 89.093750 19.556868
25.775000 86.656250 19.557884
25.650000 86.031250 19.558144
25.650000 85.328125 19.558437
25.725000 84.312500 19.558861
25.850000 83.171875 19.559336
25.175000 80.312500 19.560527
25.225000 79.062500 19.561048
25.375000 77.421875 19.561732
26.800000 72.281250 19.563874
26.950000 71.453125 19.564219
27.175000 70.296875 19.564700
27.500000 69.500000 19.565032
25.750000 87.937500 19.706511
25.475000 87.406250 19.706732
25.550000 87.140625 19.706842
25.650000 85.734375 19.707428
25.725000 83.593750 19.708320
25.475000 81.328125 19.709264
25.250000 80.265625 19.709707
25.375000 78.890625 19.710280
25.625000 77.609375 19.710814
25.975000 75.703125 19.711608
26.350000 75.937500 19.711510
26.550000 74.828125 19.711973
26.700000 73.750000 19.712422
26.875000 71.796875 19.713236
27.075000 71.093750 19.713529
27.375000 69.453125 19.714212
25.400000 87.734375 19.870399
25.550000 86.843750 19.870770
25.575000 85.390625 19.871375
25.650000 84.234375 19.871857
25.475000 80.562500 19.873387
25.250000 80.000000 19.873621
25.400000 78.921875 19.874071
25.650000 76.625000 19.875028
26.000000 77.015625 19.874865
26.300000 74.859375 19.875763
26.475000 74.406250 19.875952
26.650000 72.328125 19.876818
26.850000 71.953125 19.876974
27.050000 70.812500 19.877450
27.350000 69.859375 19.877846
25.525000 86.562500 20.019007
25.450000 86.718750 20.018942
25.600000 85.703125 20.019365
25.625000 84.062500 20.020049
25.575000 83.031250 20.020478
25.700000 81.875000 20.020960
25.625000 79.734375 20.021852
25.450000 78.171875 20.022503
25.575000 78.218750 20.022484
25.800000 77.578125 20.022751
26.125000 76.109375 20.023363
26.300000 75.125000 20.023773
26.425000 73.031250 20.024645
26.625000 72.703125 20.024782
26.775000 70.937500 20.025517
27.000000 70.296875 20.025784
27.400000 69.906250 20.025947
25.750000 87.890625 20.188255
25.450000 85.859375 20.189101
25.350000 85.921875 20.189075
25.450000 83.687500 20.190006
25.600000 84.125000 20.189824
25.625000 82.562500 20.190475
25.600000 80.421875 20.191367
25.675000 80.796875 20.191211
25.675000 78.890625 20.192005
25.675000 77.890625 20.192422
25.875000 77.125000 20.192741
26.025000 74.828125 20.193698
26.150000 74.765625 20.193724
26.375000 72.656250 20.194603
26.600000 72.046875 20.194857
26.800000 70.875000 20.195345
25.400000 86.140625 20.344844
25.300000 85.046875 20.345299
25.350000 84.671875 20.345456
25.500000 83.187500 20.346074
25.575000 82.234375 20.346472
25.575000 82.109375 20.346524
25.650000 80.343750 20.347259
25.725000 79.625000 20.347559
25.825000 78.562500 20.348001
25.850000 76.250000 20.348965
25.875000 75.875000 20.349121
26.075000 75.312500 20.349355
26.275000 74.140625 20.349844
26.475000 72.625000 20.350475
26.650000 71.781250 20.350827
26.875000 70.640625 20.351302
27.325000 69.937500 20.351595
25.300000 87.000000 20.500913
25.325000 85.796875 20.501415
25.350000 84.265625 20.502053
25.450000 83.578125 20.502339
25.550000 82.109375 20.502951
25.575000 80.890625 20.503459
25.575000 80.046875 20.503810
25.675000 79.765625 20.503927
25.875000 77.515625 20.504865
25.875000 76.343750 20.505353
25.900000 76.296875 20.505373
26.125000 74.453125 20.506141
26.300000 74.140625 20.506271
26.425000 71.671875 20.507300
26.625000 70.593750 20.507749
25.550000 89.062500 20.667209
25.300000 88.046875 20.667632
25.300000 86.484375 20.668283
25.300000 85.484375 20.668700
25.350000 84.718750 20.669019
25.400000 83.375000 20.669579
25.400000 80.812500 20.670646
25.475000 81.078125 20.670536
25.575000 79.453125 20.671213
25.725000 78.984375 20.671408
25.825000 77.437500 20.672053
25.800000 76.578125 20.672411
25.900000 74.671875 20.673205
26.075000 74.406250 20.673316
26.275000 73.359375 20.673752
26.450000 72.171875 20.674247
26.675000 70.140625 20.675093
27.025000 69.984375 20.675158
25.500000 87.906250 20.821608
25.275000 85.968750 20.822415
25.275000 85.156250 20.822754
25.300000 85.765625 20.822500
25.350000 83.968750 20.823249
25.375000 83.531250 20.823431
25.375000 82.250000 20.823965
25.475000 79.953125 20.824922
25.575000 80.000000 20.824902
25.725000 78.531250 20.825514
25.800000 76.890625 20.826198
25.775000 75.875000 20.826621
25.875000 74.656250 20.827129
26.075000 73.406250 20.827650
26.275000 73.093750 20.827780
26.450000 71.453125 20.828464
26.650000 70.765625 20.828750
27.000000 69.843750 20.829134
25.500000 88.796875 20.977662
25.250000 87.687500 20.978124
25.275000 87.015625 20.978404
25.300000 84.484375 20.979459
25.300000 83.468750 20.979882
25.350000 82.562500 20.980260
25.450000 82.531250 20.980273
25.550000 80.140625 20.981269
25.550000 79.328125 20.981607
25.675000 78.046875 20.982141
25.675000 76.390625 20.982831
25.650000 75.921875 20.983027
25.825000 75.468750 20.983215
26.000000 74.828125 20.983482
26.175000 72.203125 20.984576
26.375000 72.296875 20.984537
26.575000 71.484375 20.984876
25.450000 88.031250 21.134817
25.300000 87.437500 21.135065
25.300000 85.593750 21.135833
25.325000 83.453125 21.136725
25.325000 84.078125 21.136464
25.350000 82.843750 21.136979
25.475000 81.000000 21.137747
25.550000 80.906250 21.137786
25.650000 79.000000 21.138580
25.725000 77.140625 21.139355
25.775000 75.937500 21.139856
25.800000 76.062500 21.139804
25.925000 74.250000 21.140559
26.075000 73.843750 21.140729
26.250000 72.609375 21.141243
26.475000 71.859375 21.141556
26.650000 69.890625 21.142376
26.925000 69.703125 21.142454
25.450000 87.609375 21.309283
25.225000 87.296875 21.309414
25.300000 85.765625 21.310052
25.325000 84.921875 21.310403
25.325000 81.984375 21.311627
25.350000 82.531250 21.311399
25.400000 81.515625 21.311823
25.500000 79.593750 21.312623
25.675000 78.875000 21.312923
25.750000 78.218750 21.313196
25.725000 76.125000 21.314069
25.800000 75.625000 21.314277
25.925000 73.859375 21.315013
26.100000 72.640625 21.315521
26.300000 72.640625 21.315521
26.475000 70.843750 21.316269
26.650000 70.359375 21.316471
26.975000 68.687500 21.317168
25.250000 87.812500 21.461764
25.275000 87.171875 21.462031
25.300000 84.953125 21.462955
25.300000 83.109375 21.463723
25.300000 82.453125 21.463997
25.325000 81.656250 21.464329
25.450000 81.656250 21.464329
25.575000 80.015625 21.465012
25.750000 78.578125 21.465611
25.800000 78.250000 21.465748
25.725000 76.625000 21.466425
25.825000 75.687500 21.466816
25.975000 74.046875 21.467499
26.150000 72.828125 21.468007
26.325000 72.671875 21.468072
26.525000 71.562500 21.468534
25.375000 87.671875 21.623856
25.300000 85.265625 21.624859
25.275000 85.015625 21.624963
25.300000 84.281250 21.625269
25.325000 82.812500 21.625881
25.375000 80.906250 21.626675
25.475000 79.953125 21.627072
25.625000 79.687500 21.627183
25.800000 77.812500 21.627964
25.800000 76.484375 21.628518
25.775000 76.656250 21.628446
25.850000 74.343750 21.629410
26.025000 74.015625 21.629546
26.225000 73.406250 21.629800
26.400000 71.125000 21.630751
26.600000 71.046875 21.630783
25.275000 86.843750 21.787672
25.275000 86.531250 21.787802
25.300000 84.687500 21.788571
25.300000 84.140625 21.788799
25.350000 82.703125 21.789397
25.475000 81.921875 21.789723
25.575000 80.484375 21.790322
25.650000 79.328125 21.790804
25.725000 77.562500 21.791539
25.725000 77.406250 21.791605
25.800000 76.281250 21.792073
25.900000 74.937500 21.792633
26.050000 74.156250 21.792959
26.250000 73.078125 21.793408
26.450000 71.062500 21.794248
26.625000 69.984375 21.794697
26.900000 69.703125 21.794814
25.325000 87.031250 21.938589
25.275000 84.796875 21.939520
25.275000 85.421875 21.939260
25.300000 84.484375 21.939651
25.325000 83.453125 21.940080
25.450000 81.593750 21.940855
25.550000 80.343750 21.941376
25.625000 79.484375 21.941734
25.775000 78.687500 21.942066
25.800000 77.703125 21.942476
25.750000 76.109375 21.943140
25.850000 75.375000 21.943446
26.000000 74.328125 21.943882
26.175000 72.437500 21.944670
26.375000 71.890625 21.944898
26.575000 70.625000 21.945425
25.500000 86.328125 22.098547
25.250000 86.015625 22.098677
25.275000 84.828125 22.099172
25.275000 84.312500 22.099387
25.300000 82.875000 22.099986
25.325000 82.312500 22.100220
25.450000 81.671875 22.100487
25.575000 79.906250 22.101223
25.750000 78.250000 22.101913
25.800000 77.406250 22.102264
25.725000 76.734375 22.102545
25.800000 75.609375 22.103013
25.950000 73.765625 22.103781
26.125000 72.843750 22.104166
26.300000 71.718750 22.104634
26.450000 70.390625 22.105188
25.275000 87.390625 22.255303
25.275000 86.015625 22.255876
25.275000 85.484375 22.256098
25.300000 83.562500 22.256899
25.325000 82.906250 22.257172
25.375000 81.671875 22.257686
25.475000 80.921875 22.257999
25.650000 78.625000 22.258956
25.700000 78.281250 22.259099
25.650000 76.843750 22.259698
25.700000 75.593750 22.260219
25.875000 74.828125 22.260538
26.025000 73.078125 22.261267
26.225000 72.921875 22.261332
26.450000 71.546875 22.261905
26.625000 70.500000 22.262341
26.875000 68.828125 22.263038
25.300000 86.921875 22.426445
25.250000 86.812500 22.426491
25.275000 85.109375 22.427201
25.275000 84.437500 22.427480
25.300000 82.781250 22.428171
25.350000 82.265625 22.428385
25.475000 81.140625 22.428854
25.600000 78.921875 22.429779
25.775000 77.375000 22.430423
25.750000 77.125000 22.430527
25.700000 76.609375 22.430742
25.825000 75.265625 22.431302
26.000000 74.203125 22.431745
26.175000 73.359375 22.432096
26.400000 71.578125 22.432839
26.600000 71.140625 22.433021
25.225000 87.640625 22.582855
25.250000 86.140625 22.583480
25.250000 83.953125 22.584392
25.250000 83.500000 22.584580
25.300000 83.515625 22.584574
25.350000 82.156250 22.585140
25.450000 79.906250 22.586078
25.600000 80.156250 22.585974
25.775000 78.781250 22.586546
25.700000 76.687500 22.587419
25.650000 75.984375 22.587712
25.800000 75.531250 22.587901
26.000000 73.187500 22.588877
26.200000 72.859375 22.589014
26.375000 70.812500 22.589867
26.575000 70.296875 22.590082
25.125000 86.796875 22.743644
25.250000 85.218750 22.744302
25.250000 84.578125 22.744569
25.275000 83.375000 22.745070
25.325000 82.328125 22.745506
25.375000 81.140625 22.746001
25.475000 79.375000 22.746737
25.650000 77.812500 22.747388
25.725000 77.359375 22.747576
25.725000 76.046875 22.748123
25.775000 74.937500 22.748586
25.950000 74.125000 22.748924
26.125000 72.609375 22.749556
26.300000 72.265625 22.749699
26.475000 71.078125 22.750194
25.025000 86.500000 22.897777
25.200000 85.593750 22.898155
25.275000 83.859375 22.898877
25.275000 82.718750 22.899353
25.300000 82.625000 22.899392
25.350000 81.296875 22.899945
25.350000 80.921875 22.900101
25.475000 80.109375 22.900440
25.700000 79.062500 22.900876
25.875000 77.812500 22.901397
25.850000 76.437500 22.901970
25.850000 74.937500 22.902595
26.025000 73.234375 22.903304
26.225000 73.093750 22.903363
26.400000 71.140625 22.904177
26.550000 70.406250 22.904483
25.400000 88.453125 23.062954
25.250000 87.859375 23.063201
25.250000 86.656250 23.063702
25.250000 85.390625 23.064230
25.275000 84.171875 23.064738
25.300000 83.000000 23.065226
25.425000 82.125000 23.065590
25.600000 77.921875 23.067342
25.900000 77.562500 23.067491
25.925000 75.921875 23.068175
25.825000 74.890625 23.068605
26.000000 72.968750 23.069405
26.275000 72.718750 23.069510
26.475000 71.750000 23.069913
26.600000 70.000000 23.070642
26.925000 69.765625 23.070740
25.325000 88.687500 23.224429
25.350000 87.890625 23.224761
25.275000 87.546875 23.224905
25.275000 85.671875 23.225686
25.300000 83.390625 23.226636
25.325000 82.921875 23.226832
25.350000 82.265625 23.227105
25.350000 81.875000 23.227268
25.450000 80.000000 23.228049
25.550000 78.578125 23.228642
25.550000 76.796875 23.229384
25.825000 76.625000 23.229455
25.950000 75.562500 23.229898
25.950000 74.343750 23.230406
26.175000 74.109375 23.230504
26.425000 71.875000 23.231435
26.550000 71.562500 23.231565
26.775000 69.453125 23.232444
27.225000 69.171875 23.232561
25.225000 89.296875 23.375953
25.125000 87.875000 23.376546
25.200000 85.796875 23.377412
25.250000 84.765625 23.377841
25.275000 84.328125 23.378024
25.325000 83.484375 23.378375
25.300000 79.203125 23.380159
25.275000 78.468750 23.380465
25.700000 75.703125 23.381618
26.175000 74.015625 23.382321
26.375000 73.593750 23.382496
26.550000 72.406250 23.382991
26.725000 71.390625 23.383414
25.525000 88.484375 23.536945
25.300000 88.046875 23.537128
25.200000 86.984375 23.537570
25.275000 86.000000 23.537981
25.325000 83.828125 23.538885
25.350000 83.734375 23.538924
25.400000 82.375000 23.539491
25.400000 80.125000 23.540428
25.250000 79.796875 23.540565
25.225000 78.015625 23.541307
25.400000 76.437500 23.541965
25.700000 76.281250 23.542030
26.100000 75.937500 23.542173
26.300000 74.046875 23.542961
26.375000 72.734375 23.543508
26.550000 72.609375 23.543560
26.775000 71.500000 23.544022
25.325000 89.000000 23.693419
25.175000 87.562500 23.694018
25.250000 85.187500 23.695008
25.250000 85.546875 23.694858
25.325000 83.296875 23.695796
25.250000 79.859375 23.697228
25.175000 78.968750 23.697599
25.250000 78.187500 23.697924
25.475000 77.718750 23.698120
26.050000 74.078125 23.699637
26.500000 72.296875 23.700379
26.650000 72.171875 23.700431
26.850000 71.218750 23.700828
27.200000 70.187500 23.701258
25.625000 89.671875 23.866847
25.625000 88.062500 23.867517
25.375000 86.468750 23.868181
25.250000 86.031250 23.868364
25.275000 84.625000 23.868950
25.450000 82.703125 23.869750
25.525000 81.812500 23.870121
25.350000 81.078125 23.870427
25.225000 79.984375 23.870883
25.225000 79.343750 23.871150
25.350000 77.468750 23.871931
26.550000 73.296875 23.873670
26.675000 72.031250 23.874197
26.850000 71.828125 23.874282
25.650000 89.453125 24.019809
25.525000 87.500000 24.020622
25.275000 86.109375 24.021202
25.325000 86.281250 24.021130
25.475000 83.875000 24.022133
25.575000 84.125000 24.022029
25.725000 81.500000 24.023123
25.525000 80.156250 24.023682
25.175000 80.234375 24.023650
25.175000 79.031250 24.024151
25.325000 78.265625 24.024470
25.750000 77.093750 24.024959
26.350000 74.015625 24.026241
26.700000 72.000000 24.027081
26.850000 70.953125 24.027517
25.400000 87.687500 24.182002
25.325000 86.281250 24.182588
25.450000 85.468750 24.182926
25.550000 83.671875 24.183675
25.375000 79.437500 24.185439
25.200000 80.390625 24.185042
25.325000 78.578125 24.185797
25.575000 77.968750 24.186051
26.850000 72.828125 24.188193
27.000000 70.968750 24.188968
25.425000 87.953125 24.344506
25.425000 86.328125 24.345183
25.575000 86.187500 24.345241
25.650000 83.750000 24.346257
25.450000 83.312500 24.346439
25.425000 80.140625 24.347761
25.575000 78.687500 24.348366
27.300000 73.578125 24.350495
27.100000 72.734375 24.350847
27.150000 71.328125 24.351433
25.550000 88.125000 24.501720
25.325000 86.750000 24.502293
25.475000 86.328125 24.502469
25.600000 84.625000 24.503179
25.700000 84.406250 24.503270
25.675000 83.515625 24.503641
25.550000 80.906250 24.504728
25.400000 80.640625 24.504839
25.500000 79.640625 24.505256
25.875000 77.734375 24.506050
26.175000 77.890625 24.505985
27.250000 73.562500 24.507788
27.150000 72.390625 24.508276
27.250000 71.218750 24.508765
27.475000 69.281250 24.509572
25.500000 87.812500 24.653920
25.525000 86.265625 24.654564
25.650000 84.640625 24.655241
25.725000 85.187500 24.655014
25.525000 81.437500 24.656576
25.450000 80.375000 24.657019
27.400000 73.453125 24.659903
27.275000 72.359375 24.660358
27.325000 71.640625 24.660658
25.700000 88.875000 24.815774
25.650000 86.937500 24.816581
25.675000 86.906250 24.816594
25.700000 85.875000 24.817024
25.800000 83.406250 24.818053
25.675000 83.421875 24.818046
25.550000 82.265625 24.818528
27.000000 74.187500 24.821894
27.325000 72.843750 24.822453
27.300000 72.296875 24.822681
27.400000 71.109375 24.823176
27.625000 69.843750 24.823704
25.675000 88.000000 24.977427
25.700000 86.000000 24.978260
