35.200000 82.140625 38.492370
35.575000 81.218750 38.530782
36.250000 80.296875 38.569193
36.700000 78.890625 38.627787
36.650000 77.734375 38.675964
36.550000 76.359375 38.733256
36.750000 75.437500 38.771667
35.475000 89.312500 38.349405
35.225000 87.640625 38.419067
35.450000 86.609375 38.462036
35.200000 85.718750 38.499145
34.950000 84.562500 38.547322
35.150000 83.312500 38.599405
35.525000 81.937500 38.656697
35.975000 81.000000 38.695760
36.600000 79.859375 38.743286
36.900000 78.734375 38.790161
36.700000 77.453125 38.843546
36.625000 76.343750 38.889770
36.875000 75.375000 38.930135
35.500000 86.484375 38.622344
35.300000 85.406250 38.667266
35.050000 84.312500 38.712839
35.225000 83.250000 38.757110
35.725000 82.062500 38.806589
36.125000 81.171875 38.843698
36.625000 79.750000 38.902943
36.875000 78.562500 38.952422
36.675000 77.140625 39.011667
36.700000 76.281250 39.047474
36.950000 75.187500 39.093047
35.625000 86.671875 38.770733
35.800000 85.578125 38.816306
35.525000 84.000000 38.882061
35.400000 82.937500 38.926332
35.900000 81.671875 38.979066
36.400000 80.406250 39.031801
36.875000 79.562500 39.066957
36.975000 78.421875 39.114483
36.850000 77.125000 39.168519
36.850000 75.859375 39.221254
37.200000 75.171875 39.249900
35.700000 89.421875 38.815167
35.625000 88.546875 38.851625
35.600000 87.203125 38.907614
35.475000 83.437500 39.064516
36.825000 79.156250 39.242901
36.800000 78.031250 39.289776
36.825000 76.625000 39.348370
36.950000 75.562500 39.392641
35.425000 88.718750 38.995687
35.650000 87.453125 39.048421
35.400000 84.156250 39.185791
36.975000 79.312500 39.387614
36.875000 78.062500 39.439697
36.775000 77.234375 39.474202
37.025000 75.671875 39.539306
35.800000 89.078125 39.138247
35.525000 88.078125 39.179914
35.725000 86.734375 39.235903
35.625000 85.828125 39.273664
35.400000 84.578125 39.325747
35.375000 83.171875 39.384341
35.825000 82.093750 39.429263
36.425000 80.984375 39.475487
36.825000 80.218750 39.507388
36.875000 78.906250 39.562075
36.800000 77.328125 39.627831
36.900000 76.390625 39.666893
37.125000 75.515625 39.703351
35.800000 86.421875 39.401832
36.050000 85.671875 39.433082
35.750000 84.203125 39.494280
35.450000 82.843750 39.550921
36.000000 81.921875 39.589332
36.675000 80.765625 39.637509
37.125000 79.890625 39.673968
37.025000 78.250000 39.742327
36.850000 77.468750 39.774879
37.000000 76.125000 39.830869
37.350000 75.046875 39.875791
35.875000 89.703125 39.425509
35.825000 88.171875 39.489311
35.850000 87.234375 39.528373
35.675000 86.171875 39.572644
35.475000 84.859375 39.627332
35.500000 83.359375 39.689832
35.650000 82.250000 39.736056
36.150000 81.218750 39.779025
36.850000 80.203125 39.821342
37.000000 79.156250 39.864962
36.775000 77.703125 39.925509
36.850000 76.421875 39.978894
37.125000 75.500000 40.017306
35.900000 88.906250 39.607107
35.850000 87.875000 39.650076
35.900000 86.359375 39.713227
36.300000 85.312500 39.756847
35.550000 82.750000 39.863617
36.000000 81.796875 39.903331
36.650000 80.625000 39.952159
37.050000 79.406250 40.002940
36.975000 78.265625 40.050467
36.750000 77.093750 40.099295
36.900000 75.828125 40.152029
37.425000 74.796875 40.194998
36.100000 89.578125 39.742765
36.100000 88.312500 39.795500
35.925000 87.218750 39.841073
35.975000 86.000000 39.891854
35.825000 84.828125 39.940682
35.625000 83.953125 39.977140
35.825000 82.796875 40.025317
36.400000 81.703125 40.070890
36.875000 80.031250 40.140552
36.900000 79.328125 40.169849
36.775000 78.171875 40.218026
36.800000 76.687500 40.279875
37.075000 75.703125 40.320890
36.225000 89.734375 39.897084
36.225000 88.562500 39.945912
35.925000 87.000000 40.011017
36.050000 86.375000 40.037058
36.000000 84.890625 40.098907
35.700000 83.734375 40.147084
35.800000 82.687500 40.190704
36.400000 81.750000 40.229767
36.950000 80.359375 40.287709
36.975000 79.406250 40.327423
36.750000 77.843750 40.392527
36.800000 76.671875 40.441355
37.125000 75.796875 40.477813
35.850000 88.000000 40.117251
36.000000 86.718750 40.170637
36.025000 85.734375 40.211653
35.825000 84.359375 40.268944
35.650000 83.234375 40.315819
35.900000 81.796875 40.375715
36.550000 81.171875 40.401757
37.100000 80.078125 40.447330
37.000000 78.546875 40.511132
36.750000 77.328125 40.561913
36.925000 76.546875 40.594465
37.275000 75.312500 40.645897
36.300000 89.781250 40.206985
36.250000 88.562500 40.257766
35.975000 87.203125 40.314407
36.050000 86.468750 40.345006
36.275000 85.281250 40.394485
36.075000 84.125000 40.442662
35.900000 82.750000 40.499954
36.425000 81.843750 40.537714
36.950000 80.390625 40.598261
36.900000 79.531250 40.634068
36.675000 78.250000 40.687454
36.775000 77.203125 40.731074
37.125000 75.765625 40.790969
36.500000 89.296875 40.373105
36.400000 88.328125 40.413470
36.050000 87.390625 40.452532
36.125000 85.828125 40.517636
36.150000 84.843750 40.558652
35.975000 83.765625 40.603574
36.000000 82.531250 40.655006
36.575000 81.328125 40.705136
36.975000 80.500000 40.739641
36.825000 79.281250 40.790423
36.675000 77.593750 40.860735
36.825000 76.593750 40.902402
37.100000 75.343750 40.954485
35.650000 89.171875 40.541990
35.850000 87.953125 40.592771
36.000000 86.640625 40.647459
36.025000 85.687500 40.687172
36.050000 84.218750 40.748370
35.850000 83.187500 40.791339
36.100000 81.843750 40.847329
36.775000 81.203125 40.874021
37.125000 80.046875 40.922199
36.975000 78.515625 40.986001
36.750000 77.468750 41.029620
36.900000 76.015625 41.090167
37.300000 75.312500 41.119464
35.600000 88.703125 40.717862
35.875000 88.000000 40.747159
36.025000 86.484375 40.810310
36.025000 85.328125 40.858487
36.175000 84.125000 40.908617
36.250000 83.468750 40.935961
36.375000 82.203125 40.988696
36.775000 81.171875 41.031664
37.100000 79.843750 41.087003
36.875000 78.468750 41.144295
36.700000 77.312500 41.192472
36.925000 75.984375 41.247810
37.300000 74.906250 41.292732
35.875000 88.718750 40.872727
36.025000 87.843750 40.909186
36.100000 86.781250 40.953456
36.125000 85.546875 41.004889
36.150000 84.437500 41.051113
36.250000 82.968750 41.112311
36.550000 82.062500 41.150071
36.875000 80.843750 41.200852
36.775000 79.718750 41.247727
36.550000 78.187500 41.311529
36.625000 77.453125 41.342128
36.925000 76.343750 41.388352
37.450000 74.765625 41.454108
36.125000 89.578125 40.992133
36.025000 88.468750 41.038357
36.000000 87.359375 41.084581
36.100000 86.484375 41.121039
36.125000 85.296875 41.170518
36.125000 83.828125 41.231716
36.225000 83.109375 41.261664
36.575000 81.750000 41.318305
36.900000 80.531250 41.369086
36.750000 79.218750 41.423774
36.550000 78.281250 41.462836
36.675000 77.312500 41.503201
36.950000 76.093750 41.553982
37.600000 74.828125 41.606716
36.350000 90.093750 41.124497
36.200000 88.578125 41.187649
36.000000 87.765625 41.221503
36.075000 86.359375 41.280096
36.125000 85.125000 41.331529
36.125000 83.812500 41.386216
36.225000 82.875000 41.425279
36.575000 81.843750 41.468247
36.900000 80.640625 41.518378
36.725000 79.328125 41.573065
36.450000 77.906250 41.632310
36.675000 77.156250 41.663560
37.025000 76.031250 41.710435
36.250000 89.890625 41.289725
35.850000 88.671875 41.340507
36.000000 87.625000 41.384126
36.075000 86.671875 41.423840
36.125000 85.406250 41.476574
36.150000 84.015625 41.534517
36.250000 82.875000 41.582043
36.525000 81.656250 41.632824
36.875000 80.984375 41.660819
36.750000 79.687500 41.714855
36.525000 78.484375 41.764986
36.450000 77.156250 41.820324
36.775000 76.078125 41.865246
37.450000 75.171875 41.903007
35.975000 87.296875 41.553673
36.100000 86.171875 41.600548
36.150000 85.000000 41.649376
36.175000 83.812500 41.698855
36.300000 82.281250 41.762657
36.675000 81.593750 41.791303
36.950000 80.000000 41.857709
36.725000 78.921875 41.902631
36.500000 78.078125 41.937787
36.725000 76.671875 41.996381
37.100000 75.640625 42.039350
36.025000 87.015625 41.722847
36.125000 86.203125 41.756702
36.150000 84.703125 41.819202
36.150000 83.406250 41.873238
36.325000 82.218750 41.922717
36.650000 81.421875 41.955920
36.900000 80.125000 42.009957
36.725000 79.140625 42.050972
36.500000 77.531250 42.118030
36.650000 76.531250 42.159697
37.025000 75.281250 42.211780
35.450000 88.984375 41.795512
35.850000 87.734375 41.847595
36.025000 86.609375 41.894470
36.125000 85.828125 41.927022
36.150000 84.703125 41.973897
36.150000 83.031250 42.043559
36.475000 82.375000 42.070902
36.875000 80.765625 42.137960
36.975000 79.671875 42.183533
36.750000 78.828125 42.218689
36.550000 77.281250 42.283142
36.725000 76.484375 42.316345
37.175000 75.078125 42.374939
36.375000 89.718750 41.921836
36.100000 88.406250 41.976524
35.975000 87.656250 42.007774
36.050000 86.109375 42.072227
36.100000 84.906250 42.122357
36.100000 83.765625 42.169883
36.225000 82.812500 42.209597
36.550000 81.718750 42.255170
36.900000 80.281250 42.315066
36.725000 79.062500 42.365847
36.425000 78.171875 42.402956
36.500000 76.890625 42.456342
35.950000 86.781250 42.199004
36.075000 85.765625 42.241322
36.100000 84.343750 42.300566
36.150000 83.515625 42.335072
36.475000 82.250000 42.387806
36.775000 80.906250 42.443796
36.900000 79.703125 42.493926
36.700000 78.828125 42.530384
36.400000 77.484375 42.586374
36.550000 76.171875 42.641061
37.000000 75.265625 42.678822
35.875000 86.890625 42.356040
36.100000 86.000000 42.393150
35.975000 84.515625 42.454999
35.775000 83.453125 42.499269
36.050000 82.093750 42.555910
36.475000 81.062500 42.598879
36.875000 80.187500 42.635337
36.675000 79.000000 42.684816
36.375000 77.515625 42.746665
36.525000 76.671875 42.781822
36.950000 75.343750 42.837160
35.725000 89.687500 42.389909
35.725000 89.031250 42.417252
35.750000 87.796875 42.468685
35.825000 86.625000 42.517513
35.550000 84.968750 42.586523
35.350000 84.062500 42.624284
36.725000 79.453125 42.816341
36.400000 78.109375 42.872330
36.350000 77.421875 42.900976
36.600000 75.875000 42.965430
37.225000 75.125000 42.996680
35.675000 86.937500 42.662211
35.950000 86.359375 42.686299
36.375000 80.203125 42.942810
36.500000 78.906250 42.996846
36.375000 77.593750 43.051534
36.350000 76.609375 43.092549
36.650000 75.718750 43.129659
35.650000 87.328125 42.797493
35.400000 86.109375 42.848274
36.575000 79.296875 43.132128
36.350000 77.921875 43.189420
36.325000 76.578125 43.245410
36.625000 75.546875 43.288378
35.950000 89.265625 42.876718
35.800000 88.250000 42.919036
35.400000 86.765625 42.980885
35.075000 85.484375 43.034270
36.450000 78.734375 43.315520
36.325000 77.812500 43.353932
36.325000 76.328125 43.415781
36.625000 75.390625 43.454843
35.400000 89.125000 43.033153
35.175000 88.125000 43.074820
35.175000 86.640625 43.136669
34.875000 85.359375 43.190054
34.700000 84.234375 43.236929
36.450000 78.546875 43.473909
36.350000 77.687500 43.509716
36.350000 76.281250 43.568310
36.550000 75.218750 43.612581
35.375000 89.312500 43.186980
35.125000 87.796875 43.250131
35.150000 86.781250 43.292449
34.875000 85.765625 43.334766
36.425000 78.562500 43.634897
36.325000 77.890625 43.662891
36.325000 76.671875 43.713673
36.425000 75.015625 43.782683
35.550000 90.046875 43.307634
35.450000 89.031250 43.349951
35.050000 87.671875 43.406592
34.975000 86.312500 43.463233
34.725000 85.671875 43.489925
34.575000 84.015625 43.558936
34.850000 83.031250 43.599951
35.850000 79.718750 43.737972
36.350000 78.531250 43.787451
36.275000 77.515625 43.829769
36.200000 76.078125 43.889665
36.325000 75.125000 43.929379
35.025000 89.625000 43.486893
35.100000 88.984375 43.513586
35.050000 87.531250 43.574133
34.925000 86.343750 43.623612
34.525000 85.031250 43.678299
34.350000 84.109375 43.716711
34.525000 82.609375 43.779211
34.950000 81.578125 43.822180
35.675000 80.593750 43.863195
36.275000 79.500000 43.908768
36.400000 78.343750 43.956945
36.250000 77.296875 44.000565
36.150000 76.062500 44.051997
36.450000 74.828125 44.103430
35.100000 89.234375 43.651556
34.925000 88.062500 43.700384
35.000000 86.875000 43.749863
35.175000 85.843750 43.792831
34.350000 83.390625 43.895045
34.875000 82.593750 43.928248
35.275000 81.343750 43.980331
35.700000 80.062500 44.033717
36.225000 79.093750 44.074081
36.200000 77.953125 44.121608
36.100000 76.687500 44.174342
36.175000 75.656250 44.217311
34.900000 88.875000 43.829276
34.725000 88.078125 43.862479
34.950000 86.890625 43.911958
35.350000 85.953125 43.951020
34.225000 83.171875 44.066906
34.475000 81.812500 44.123546
36.100000 77.812500 44.290213
35.900000 76.390625 44.349458
36.075000 74.968750 44.408703
34.875000 89.218750 43.963846
34.700000 87.812500 44.022440
34.925000 86.937500 44.058898
34.975000 85.546875 44.116841
34.525000 84.359375 44.166320
34.150000 83.390625 44.206685
34.300000 81.984375 44.265279
34.650000 81.312500 44.293273
35.250000 80.015625 44.347310
35.975000 79.093750 44.385721
36.100000 77.421875 44.455383
35.850000 76.593750 44.489888
36.025000 75.140625 44.550435
34.950000 89.093750 44.124090
34.825000 88.437500 44.151433
34.800000 87.062500 44.208725
34.450000 85.656250 44.267319
34.225000 84.937500 44.297267
34.225000 83.656250 44.350652
34.225000 82.140625 44.413803
34.500000 81.171875 44.454168
35.175000 77.968750 44.587631
35.700000 76.828125 44.635157
34.800000 89.125000 44.275382
34.550000 87.703125 44.334627
34.725000 87.046875 44.361970
34.500000 85.250000 44.436840
34.125000 84.062500 44.486319
34.125000 83.015625 44.529939
34.275000 81.890625 44.576814
34.600000 81.078125 44.610668
35.225000 79.984375 44.656241
35.500000 78.390625 44.722647
35.425000 77.531250 44.758455
35.600000 76.328125 44.808585
35.950000 75.437500 44.845694
34.450000 89.984375 44.395774
34.350000 88.343750 44.464133
34.575000 87.218750 44.511008
34.675000 86.546875 44.539003
34.650000 85.281250 44.591737
34.375000 83.984375 44.645774
34.250000 82.593750 44.703716
34.400000 81.453125 44.751242
34.750000 80.640625 44.785096
35.075000 79.625000 44.827414
35.275000 77.968750 44.896425
35.450000 77.218750 44.927675
35.625000 75.656250 44.992779
36.050000 74.734375 45.031190
34.450000 88.531250 44.627030
34.500000 87.828125 44.656327
34.625000 86.781250 44.699947
34.550000 85.406250 44.757239
34.600000 84.375000 44.800207
34.600000 83.031250 44.856197
34.425000 81.515625 44.919348
34.775000 80.609375 44.957108
35.025000 79.546875 45.001379
35.125000 78.359375 45.050858
35.375000 76.890625 45.112056
35.575000 76.125000 45.143957
35.900000 75.015625 45.190181
34.550000 89.218750 44.738455
34.350000 88.453125 44.770356
34.475000 87.406250 44.813976
34.525000 86.296875 44.860200
34.550000 85.125000 44.909028
34.575000 83.765625 44.965669
34.600000 82.781250 45.006685
34.675000 81.187500 45.073091
34.800000 80.062500 45.119966
34.900000 78.859375 45.170096
35.125000 78.203125 45.197440
35.300000 76.609375 45.263846
35.575000 75.593750 45.306164
36.075000 74.500000 45.351737
34.725000 89.500000 44.895648
34.425000 88.015625 44.957497
34.450000 86.953125 45.001768
34.475000 85.796875 45.049945
34.525000 84.562500 45.101377
34.550000 83.718750 45.136533
34.575000 82.375000 45.192523
34.725000 81.156250 45.243304
34.750000 79.906250 45.295388
34.775000 78.796875 45.341612
35.025000 77.656250 45.389138
35.250000 76.578125 45.434060
35.550000 75.812500 45.465961
36.075000 74.343750 45.527158
34.700000 89.343750 45.060921
34.400000 88.125000 45.111702
34.450000 87.265625 45.147509
34.475000 85.765625 45.210009
34.525000 84.812500 45.249723
34.525000 83.796875 45.292041
34.575000 82.312500 45.353889
34.550000 81.062500 45.405973
34.550000 80.250000 45.439827
34.750000 78.718750 45.503629
35.000000 78.031250 45.532275
35.225000 76.859375 45.581103
35.425000 75.375000 45.642952
35.975000 74.593750 45.675504
34.350000 89.796875 45.197870
34.400000 88.500000 45.251907
34.325000 87.734375 45.283808
34.400000 86.343750 45.341750
34.400000 85.093750 45.393834
34.400000 84.296875 45.427037
34.500000 83.171875 45.473912
34.775000 81.781250 45.531855
34.800000 80.375000 45.590448
34.650000 79.593750 45.623000
34.800000 78.062500 45.686802
34.950000 77.203125 45.722610
35.150000 75.796875 45.781204
35.525000 74.718750 45.826125
34.400000 89.750000 45.339672
34.275000 88.390625 45.396313
34.375000 87.343750 45.439932
34.400000 86.218750 45.486807
34.425000 84.796875 45.546052
34.425000 83.890625 45.583813
34.525000 82.703125 45.633292
34.625000 81.687500 45.675610
34.625000 80.578125 45.721833
34.625000 79.312500 45.774568
34.775000 78.062500 45.826651
35.000000 76.828125 45.878083
35.275000 76.046875 45.910635
35.650000 74.609375 45.970531
34.650000 89.781250 45.508262
34.350000 88.125000 45.577273
34.450000 87.406250 45.607221
34.425000 85.796875 45.674278
34.450000 85.187500 45.699668
34.550000 83.500000 45.769981
34.600000 82.875000 45.796023
34.525000 81.578125 45.850059
34.550000 80.203125 45.907351
34.650000 78.937500 45.960085
34.800000 77.859375 46.005007
35.050000 76.625000 46.056439
35.300000 75.656250 46.096804
35.700000 74.796875 46.132611
34.300000 88.734375 45.708892
34.250000 87.734375 45.750559
34.400000 86.468750 45.803293
34.450000 85.671875 45.836496
34.525000 84.468750 45.886626
34.550000 83.484375 45.927642
34.750000 82.140625 45.983631
34.775000 80.812500 46.038970
34.625000 79.625000 46.088449
34.750000 78.875000 46.119699
35.000000 77.500000 46.176991
35.200000 76.437500 46.221262
35.425000 75.281250 46.269439
34.375000 88.875000 45.854749
34.325000 87.875000 45.896416
34.425000 86.625000 45.948499
34.425000 85.250000 46.005791
34.525000 84.250000 46.047457
34.600000 82.796875 46.108004
34.700000 81.796875 46.149671
34.725000 80.609375 46.199150
34.650000 79.593750 46.241468
34.775000 78.046875 46.305921
35.000000 77.203125 46.341077
35.225000 75.843750 46.397718
35.500000 74.984375 46.433525
34.475000 86.765625 46.097068
34.500000 85.734375 46.140037
34.525000 84.515625 46.190818
34.600000 83.593750 46.229230
34.850000 82.000000 46.295636
34.800000 81.109375 46.332745
34.625000 80.140625 46.373110
34.775000 78.937500 46.423240
34.950000 77.390625 46.487693
35.125000 76.140625 46.539777
34.350000 87.953125 46.202598
34.425000 86.359375 46.269005
34.475000 85.500000 46.304812
34.575000 84.531250 46.345176
34.600000 82.828125 46.416140
34.775000 81.796875 46.459109
34.800000 80.531250 46.511843
34.650000 79.515625 46.554161
34.800000 78.390625 46.601036
35.025000 77.156250 46.652468
35.225000 75.953125 46.702598
35.450000 75.125000 46.737104
34.425000 86.937500 46.401067
34.475000 85.296875 46.469427
34.575000 84.359375 46.508489
34.625000 83.359375 46.550156
34.800000 82.328125 46.593124
34.825000 81.062500 46.645859
34.675000 79.578125 46.707708
34.800000 78.750000 46.742213
35.025000 77.312500 46.802109
35.300000 76.234375 46.847031
35.525000 75.171875 46.891302
34.475000 88.312500 46.499800
34.450000 87.062500 46.551884
34.450000 86.078125 46.592899
34.500000 84.750000 46.648238
34.575000 83.984375 46.680139
34.775000 82.781250 46.730269
34.725000 81.109375 46.799931
34.625000 80.187500 46.838342
34.825000 78.906250 46.891727
35.000000 77.734375 46.940556
35.250000 76.468750 46.993290
35.450000 75.500000 47.033655
35.775000 74.359375 47.081181
34.400000 88.875000 46.631564
34.400000 87.500000 46.688856
34.550000 86.406250 46.734428
34.600000 85.265625 46.781955
34.625000 84.062500 46.832085
34.675000 82.812500 46.884168
34.800000 81.765625 46.927788
34.825000 80.375000 46.985731
34.750000 79.234375 47.033257
34.900000 78.468750 47.065158
35.200000 77.265625 47.115288
35.400000 76.140625 47.162163
35.700000 74.828125 47.216850
34.675000 89.468750 46.764646
34.425000 88.296875 46.813474
34.500000 87.125000 46.862302
34.575000 85.812500 46.916989
34.625000 84.796875 46.959307
34.675000 83.734375 47.003578
34.875000 82.312500 47.062823
34.750000 80.890625 47.122067
34.600000 79.812500 47.166989
34.800000 78.687500 47.213864
35.075000 77.750000 47.252927
35.375000 76.609375 47.300453
34.575000 89.078125 46.936467
34.425000 88.265625 46.970321
34.500000 87.312500 47.010035
34.600000 85.765625 47.074488
34.700000 84.921875 47.109644
34.750000 83.750000 47.158472
34.875000 82.328125 47.217717
34.775000 81.234375 47.263290
34.625000 79.968750 47.316024
34.900000 79.046875 47.354436
35.150000 77.609375 47.414332
35.375000 76.609375 47.455998
34.650000 90.093750 47.048594
34.550000 88.875000 47.099375
34.425000 87.718750 47.147552
34.600000 86.296875 47.206797
34.650000 85.281250 47.249115
34.725000 84.484375 47.282318
34.775000 82.812500 47.351979
34.975000 81.812500 47.393646
34.975000 80.796875 47.435964
34.850000 79.468750 47.491302
35.125000 78.453125 47.533620
35.375000 77.328125 47.580495
35.575000 75.843750 47.642344
35.875000 75.078125 47.674245
34.725000 89.500000 47.228874
34.675000 88.468750 47.271843
34.625000 87.750000 47.301791
34.700000 86.125000 47.369499
34.775000 85.328125 47.402702
34.825000 83.781250 47.467155
34.875000 82.953125 47.501661
35.025000 81.796875 47.549838
35.025000 80.515625 47.603223
35.050000 79.515625 47.644890
35.300000 78.046875 47.706088
35.500000 77.125000 47.744499
35.725000 75.906250 47.795280
36.100000 74.734375 47.844109
34.400000 89.375000 47.386510
34.375000 88.515625 47.422317
34.700000 87.453125 47.466588
34.725000 86.234375 47.517370
34.800000 85.046875 47.566849
34.875000 83.609375 47.626745
34.875000 83.000000 47.652135
34.950000 81.421875 47.717890
35.025000 80.390625 47.760859
35.150000 79.343750 47.804479
35.350000 78.296875 47.848099
35.550000 76.859375 47.907995
35.775000 75.546875 47.962682
36.275000 74.703125 47.997838
34.625000 88.656250 47.573982
34.625000 87.218750 47.633878
34.775000 86.437500 47.666430
34.875000 85.250000 47.715909
35.100000 83.734375 47.779060
35.100000 82.921875 47.812915
34.900000 81.734375 47.862394
35.300000 80.671875 47.906665
35.450000 79.421875 47.958748
35.350000 78.296875 48.005623
35.600000 77.312500 48.046638
35.850000 76.015625 48.100675
36.250000 74.937500 48.145597
34.675000 88.718750 47.723861
34.675000 87.984375 47.754459
34.900000 86.375000 47.821517
34.975000 85.640625 47.852116
35.425000 84.281250 47.908756
34.775000 81.843750 48.010319
35.000000 80.515625 48.065657
35.300000 79.296875 48.116439
35.500000 78.453125 48.151595
35.675000 77.328125 48.198470
35.875000 76.187500 48.245996
36.225000 75.078125 48.292220
34.900000 86.718750 47.963245
34.775000 83.328125 48.104522
34.700000 82.015625 48.159209
35.000000 80.921875 48.204782
35.575000 79.640625 48.258167
35.800000 78.484375 48.306344
35.700000 77.281250 48.356475
35.900000 75.953125 48.411813
36.275000 75.109375 48.446969
35.025000 89.781250 47.989264
34.850000 88.796875 48.030279
34.850000 87.765625 48.073248
35.050000 86.671875 48.118821
34.900000 82.890625 48.276373
34.775000 81.875000 48.318691
35.350000 78.656250 48.452806
35.875000 77.000000 48.521816
36.075000 76.312500 48.550462
36.550000 74.890625 48.609707
35.100000 89.468750 48.172597
34.975000 87.968750 48.235097
35.100000 87.031250 48.274160
34.875000 83.281250 48.430410
34.725000 82.500000 48.462962
35.000000 81.125000 48.520254
35.550000 80.156250 48.560618
35.950000 78.640625 48.623769
35.975000 77.390625 48.675853
36.100000 76.609375 48.708405
36.375000 75.578125 48.751373
35.250000 88.687500 48.346537
35.000000 87.843750 48.381694
35.175000 86.640625 48.431824
34.750000 85.187500 48.492371
34.625000 84.421875 48.524272
34.825000 83.421875 48.565938
34.775000 82.250000 48.614767
36.325000 77.546875 48.810730
36.150000 76.312500 48.862162
36.475000 75.015625 48.916199
35.025000 88.453125 48.523259
35.200000 87.203125 48.575342
35.300000 86.359375 48.610498
35.600000 85.296875 48.654769
34.900000 82.671875 48.764144
35.150000 81.312500 48.820785
36.500000 77.015625 48.999821
35.100000 89.609375 48.620583
35.175000 88.453125 48.668760
35.300000 86.937500 48.731911
35.050000 83.437500 48.877745
34.850000 82.546875 48.914854
35.225000 81.328125 48.965635
35.900000 80.375000 49.005349
36.550000 78.984375 49.063292
36.600000 77.843750 49.110818
36.450000 76.921875 49.149229
36.600000 75.843750 49.194151
35.425000 88.828125 48.817871
35.200000 87.843750 48.858886
35.400000 86.578125 48.911621
35.200000 85.125000 48.972168
34.950000 84.390625 49.002767
35.125000 82.906250 49.064616
35.650000 82.250000 49.091959
36.050000 80.937500 49.146647
36.500000 79.625000 49.201334
36.825000 78.765625 49.237142
36.625000 77.500000 49.289876
36.525000 76.078125 49.349121
36.825000 74.968750 49.395345
35.125000 88.562500 48.985809
35.425000 87.671875 49.022918
35.500000 86.390625 49.076304
35.950000 84.953125 49.136199
36.825000 79.593750 49.359507
36.900000 78.031250 49.424611
36.700000 76.875000 49.472788
35.475000 89.500000 49.101835
35.400000 87.859375 49.170195
35.500000 86.859375 49.211861
35.225000 85.421875 49.271757
35.025000 84.562500 49.307564
35.200000 83.343750 49.358346
35.375000 82.500000 49.393502
35.850000 81.281250 49.444283
36.600000 80.296875 49.485299
36.950000 79.046875 49.537382
36.800000 77.796875 49.589466
36.700000 76.484375 49.644153
36.825000 75.296875 49.693632
35.475000 89.187500 49.268984
35.425000 88.359375 49.303489
35.550000 87.140625 49.354270
35.500000 85.718750 49.413515
35.525000 84.421875 49.467551
35.475000 83.750000 49.495546
35.375000 82.406250 49.551536
35.850000 81.546875 49.587343
36.575000 79.953125 49.653749
36.925000 79.046875 49.691509
36.850000 78.031250 49.733827
36.750000 76.828125 49.783957
36.875000 75.531250 49.837994
35.500000 87.609375 49.489911
35.650000 86.609375 49.531577
35.575000 85.578125 49.574546
35.275000 84.187500 49.632489
35.325000 82.953125 49.683921
35.875000 82.000000 49.723634
36.375000 80.750000 49.775718
36.850000 79.984375 49.807619
36.900000 78.375000 49.874676
36.800000 77.593750 49.907228
36.975000 76.078125 49.970379
37.225000 74.890625 50.019859
35.550000 88.484375 49.609069
35.650000 87.296875 49.658548
35.375000 83.921875 49.799173
36.925000 79.546875 49.981465
36.900000 78.250000 50.035501
36.825000 77.109375 50.083028
35.650000 89.656250 49.715291
35.725000 88.171875 49.777139
35.725000 87.484375 49.805785
35.700000 86.265625 49.856566
35.975000 84.734375 49.920369
35.875000 83.578125 49.968546
35.500000 82.796875 50.001098
35.975000 81.296875 50.063598
36.700000 80.593750 50.092895
36.925000 79.312500 50.146280
36.800000 78.218750 50.191853
36.825000 76.781250 50.251749
37.075000 75.625000 50.299926
35.875000 89.328125 49.882281
35.575000 87.859375 49.943479
35.775000 86.687500 49.992307
35.675000 85.921875 50.024208
35.500000 84.218750 50.095171
35.500000 83.046875 50.144000
35.825000 82.218750 50.178505
36.375000 81.234375 50.219520
36.825000 79.765625 50.280718
36.900000 78.984375 50.313270
36.800000 77.453125 50.377072
36.850000 76.546875 50.414833
37.150000 75.187500 50.471473
35.875000 86.828125 50.141642
36.000000 85.609375 50.192423
35.675000 84.015625 50.258829
35.425000 83.078125 50.297892
35.875000 81.718750 50.354532
36.550000 80.812500 50.392293
37.050000 79.843750 50.432657
36.925000 78.359375 50.494507
36.775000 77.109375 50.546590
36.950000 76.062500 50.590210
37.300000 75.218750 50.625366
36.050000 88.890625 50.226054
35.775000 87.781250 50.272278
35.875000 86.515625 50.325012
36.025000 85.703125 50.358866
35.750000 84.234375 50.420064
35.500000 83.078125 50.468241
35.850000 81.750000 50.523580
36.550000 81.187500 50.547018
37.175000 80.015625 50.595846
37.050000 78.609375 50.654439
36.750000 77.421875 50.703919
36.925000 76.218750 50.754049
37.275000 75.281250 50.793111
35.875000 87.453125 50.426070
35.925000 86.328125 50.472945
36.050000 85.687500 50.499637
35.775000 84.062500 50.567346
35.450000 82.812500 50.619429
35.875000 82.171875 50.646122
36.625000 81.000000 50.694950
37.175000 79.875000 50.741825
37.050000 78.703125 50.790653
36.750000 77.031250 50.860314
36.950000 76.296875 50.890913
37.400000 75.250000 50.934533
36.200000 89.625000 50.492009
36.175000 88.468750 50.540186
35.950000 87.265625 50.590317
36.050000 86.000000 50.643051
36.100000 84.984375 50.685369
35.825000 83.765625 50.736150
35.825000 82.390625 50.793442
36.425000 81.796875 50.818181
36.900000 80.484375 50.872869
36.900000 79.312500 50.921697
36.775000 78.078125 50.973129
36.800000 76.906250 51.021957
37.075000 75.562500 51.077947
36.000000 89.921875 50.648058
36.050000 88.546875 50.705350
36.000000 87.468750 50.750272
36.075000 86.062500 50.808865
36.200000 84.921875 50.856391
35.950000 83.718750 50.906522
35.750000 82.593750 50.953397
36.300000 81.421875 51.002225
36.875000 80.312500 51.048449
36.900000 79.156250 51.096626
36.725000 78.328125 51.131131
36.800000 77.156250 51.179959
35.900000 89.375000 50.817783
35.825000 87.843750 50.881585
36.025000 86.671875 50.930413
36.200000 85.968750 50.959710
36.050000 84.390625 51.025465
35.800000 83.187500 51.075596
35.925000 82.390625 51.108799
36.500000 81.140625 51.160882
37.000000 80.046875 51.206455
36.850000 78.906250 51.253981
36.700000 77.500000 51.312575
36.850000 76.468750 51.355543
37.150000 75.046875 51.414788
35.650000 89.234375 50.986792
35.850000 87.828125 51.045385
36.050000 86.593750 51.096817
36.100000 85.890625 51.126114
35.975000 84.468750 51.185359
36.375000 80.875000 51.335099
37.075000 79.812500 51.379370
36.875000 78.781250 51.422338
36.650000 77.625000 51.470515
36.900000 76.484375 51.518042
37.275000 75.203125 51.571427
35.900000 90.000000 51.102947
35.925000 88.796875 51.153077
35.975000 87.609375 51.202556
36.025000 86.296875 51.257244
36.225000 85.406250 51.294353
36.150000 84.171875 51.345785
35.975000 83.218750 51.385499
36.375000 82.031250 51.434978
36.850000 80.781250 51.487061
36.825000 79.687500 51.532634
36.600000 78.562500 51.579509
36.725000 77.140625 51.638754
37.025000 75.859375 51.692139
37.575000 74.953125 51.729900
36.075000 87.234375 51.379267
36.100000 86.109375 51.426142
36.275000 84.843750 51.478877
36.225000 83.875000 51.519241
36.200000 82.375000 51.581741
36.650000 81.328125 51.625361
36.925000 80.390625 51.664424
36.775000 79.140625 51.716507
36.675000 77.781250 51.773148
36.825000 76.406250 51.830439
37.175000 75.343750 51.874710
36.075000 90.046875 51.411940
35.975000 88.500000 51.476393
35.975000 87.546875 51.516107
36.025000 86.203125 51.572097
36.100000 85.421875 51.604649
36.175000 84.390625 51.647617
36.300000 83.078125 51.702305
36.550000 81.656250 51.761550
36.875000 80.843750 51.795404
36.750000 79.328125 51.858555
36.525000 78.359375 51.898920
36.700000 76.968750 51.956862
37.000000 76.140625 51.991367
37.550000 75.062500 52.036289
36.625000 89.750000 51.584939
36.425000 88.703125 51.628559
35.975000 87.234375 51.689757
36.075000 86.187500 51.733377
36.125000 85.234375 51.773090
36.125000 83.593750 51.841450
36.250000 82.546875 51.885070
36.575000 81.718750 51.919575
36.900000 80.562500 51.967752
36.750000 79.171875 52.025695
36.500000 78.062500 52.071918
36.850000 77.078125 52.112934
37.200000 75.500000 52.178689
35.800000 88.984375 51.768348
35.925000 87.437500 51.832802
36.050000 86.265625 51.881630
36.125000 85.437500 51.916135
36.125000 84.203125 51.967567
36.225000 83.234375 52.007932
36.550000 81.781250 52.068479
36.875000 80.968750 52.102333
36.700000 79.406250 52.167437
36.450000 78.156250 52.219520
36.450000 77.359375 52.252723
36.775000 76.078125 52.306109
37.525000 75.125000 52.345823
36.650000 89.562500 51.904260
36.400000 88.578125 51.945276
35.975000 87.343750 51.996708
36.050000 86.296875 52.040328
36.100000 85.281250 52.082646
36.125000 83.921875 52.139286
36.250000 82.843750 52.184208
36.650000 81.546875 52.238245
36.975000 80.609375 52.277307
36.725000 79.125000 52.339156
36.475000 77.875000 52.391239
36.750000 77.125000 52.422489
37.125000 75.937500 52.471969
36.050000 87.000000 52.163878
36.125000 86.328125 52.191873
36.175000 84.875000 52.252420
36.150000 83.828125 52.296039
36.250000 82.734375 52.341612
36.575000 81.265625 52.402810
36.875000 80.000000 52.455545
36.700000 79.281250 52.485492
36.475000 77.921875 52.542133
36.725000 76.562500 52.598774
37.150000 75.484375 52.643696
36.150000 90.156250 52.191172
35.775000 88.500000 52.260182
35.900000 87.828125 52.288177
36.050000 86.609375 52.338959
36.125000 85.265625 52.394948
36.150000 84.171875 52.440521
36.250000 82.921875 52.492604
36.550000 81.687500 52.544037
36.875000 80.578125 52.590261
36.750000 79.390625 52.639740
36.500000 78.171875 52.690521
36.625000 77.375000 52.723724
36.950000 75.953125 52.782969
37.500000 75.140625 52.816823
28.275000 90.203125 52.343152
36.475000 89.906250 52.355522
36.250000 88.281250 52.423230
35.975000 87.312500 52.463595
36.050000 86.250000 52.507866
36.100000 85.203125 52.551486
36.125000 83.671875 52.615288
36.225000 82.859375 52.649142
36.550000 81.765625 52.694715
36.900000 80.687500 52.739636
36.725000 79.375000 52.794324
36.450000 77.906250 52.855522
36.600000 77.140625 52.887423
36.975000 75.921875 52.938204
36.275000 89.796875 52.515646
36.025000 88.578125 52.566428
35.975000 87.484375 52.612000
36.025000 86.296875 52.661480
36.100000 85.328125 52.701844
36.150000 84.250000 52.746766
36.225000 82.796875 52.807313
36.500000 81.546875 52.859396
36.875000 80.390625 52.907573
36.700000 79.125000 52.960308
36.400000 78.359375 52.992209
36.550000 77.171875 53.041688
36.225000 90.109375 52.662196
36.000000 88.734375 52.719488
35.925000 87.671875 52.763758
36.025000 86.171875 52.826258
36.100000 84.937500 52.877691
36.125000 83.765625 52.926519
36.200000 83.046875 52.956467
36.475000 81.718750 53.011805
36.850000 80.718750 53.053472
36.725000 79.437500 53.106858
36.425000 78.031250 53.165451
36.475000 76.953125 53.210373
35.850000 87.328125 52.927077
36.000000 86.250000 52.971999
35.800000 84.515625 53.044265
35.750000 83.312500 53.094395
35.975000 82.593750 53.124343
36.350000 81.484375 53.170567
36.750000 80.062500 53.229812
36.575000 78.968750 53.275385
36.425000 77.546875 53.334629
36.550000 76.500000 53.378249
36.875000 75.343750 53.426426
36.325000 89.609375 52.993427
36.150000 88.265625 53.049416
35.825000 87.187500 53.094338
36.000000 86.203125 53.135354
35.625000 84.890625 53.190041
35.400000 83.906250 53.231057
35.650000 82.484375 53.290302
36.150000 81.640625 53.325458
36.800000 80.437500 53.375588
36.700000 79.281250 53.423765
36.375000 78.187500 53.469338
36.375000 76.812500 53.526630
36.650000 75.812500 53.568296
35.675000 86.984375 53.252108
35.925000 85.843750 53.299634
36.450000 80.312500 53.530102
36.575000 79.187500 53.576977
36.425000 78.031250 53.625155
36.425000 76.953125 53.670077
36.650000 75.312500 53.738436
35.625000 87.046875 53.410703
35.475000 86.218750 53.445208
34.975000 85.046875 53.494036
35.050000 83.546875 53.556536
35.925000 81.312500 53.649636
36.600000 80.500000 53.683490
36.575000 79.078125 53.742734
36.350000 78.000000 53.787656
36.350000 77.093750 53.825417
36.625000 75.671875 53.884661
35.500000 89.250000 53.469497
35.300000 87.656250 53.535903
35.375000 87.140625 53.557388
35.050000 85.562500 53.623143
34.725000 84.640625 53.661555
36.450000 78.734375 53.907648
36.325000 77.531250 53.957778
36.350000 76.484375 54.001398
36.650000 75.484375 54.043065
35.300000 90.171875 53.595622
35.450000 88.562500 53.662679
35.300000 87.640625 53.701091
35.500000 86.671875 53.741455
35.125000 85.359375 53.796143
34.750000 84.078125 53.849528
35.075000 83.062500 53.891846
36.525000 78.609375 54.077393
36.275000 77.250000 54.134033
36.400000 75.937500 54.188721
36.800000 74.843750 54.234294
35.575000 89.546875 53.779344
35.525000 87.906250 53.847704
35.175000 87.343750 53.871141
35.325000 86.015625 53.926480
35.025000 84.781250 53.977912
34.850000 83.609375 54.026740
36.475000 79.046875 54.216844
36.375000 77.609375 54.276740
36.300000 76.375000 54.328172
36.375000 75.375000 54.369839
35.300000 89.265625 53.945945
35.025000 87.921875 54.001934
34.975000 86.515625 54.060528
34.775000 85.296875 54.111309
34.600000 84.609375 54.139955
34.800000 83.531250 54.184877
36.325000 78.625000 54.389304
36.275000 77.218750 54.447898
36.200000 76.531250 54.476544
36.325000 75.234375 54.530580
35.275000 89.593750 54.087564
35.275000 88.406250 54.137043
35.075000 87.406250 54.178710
35.075000 85.859375 54.243163
34.650000 84.671875 54.292642
34.400000 83.890625 54.325195
34.750000 82.281250 54.392252
35.200000 81.734375 54.415038
35.825000 80.625000 54.461262
36.425000 79.203125 54.520507
36.450000 78.218750 54.561523
36.200000 76.562500 54.630533
34.975000 88.937500 54.270821
34.800000 88.031250 54.308581
35.025000 86.656250 54.365873
35.300000 85.625000 54.408842
34.375000 83.078125 54.514961
34.875000 82.375000 54.544258
35.300000 81.234375 54.591784
35.800000 80.187500 54.635404
36.300000 79.015625 54.684232
36.175000 77.562500 54.744779
36.025000 76.703125 54.780586
36.175000 75.218750 54.842436
34.950000 89.000000 54.421756
34.750000 87.812500 54.471235
34.925000 86.984375 54.505740
35.300000 86.000000 54.546756
34.275000 83.187500 54.663943
34.475000 81.875000 54.718631
34.850000 80.906250 54.758995
35.525000 79.812500 54.804568
36.150000 78.703125 54.850792
36.150000 77.781250 54.889203
36.000000 76.562500 54.939985
36.150000 75.406250 54.988162
34.800000 88.843750 54.586534
34.800000 87.843750 54.628201
34.475000 84.343750 54.774034
34.175000 83.218750 54.820909
34.425000 81.625000 54.887316
36.025000 77.484375 55.059842
35.875000 76.078125 55.118435
36.150000 74.703125 55.175727
35.000000 89.593750 54.710300
34.850000 88.281250 54.764987
34.775000 87.093750 54.814466
34.450000 83.406250 54.968112
34.200000 82.468750 55.007175
34.450000 81.093750 55.064466
35.725000 76.843750 55.241550
35.800000 75.375000 55.302748
36.375000 74.390625 55.343763
34.975000 89.187500 54.885089
34.775000 88.390625 54.918292
34.700000 87.343750 54.961912
34.450000 83.562500 55.119464
34.225000 82.203125 55.176105
34.500000 81.359375 55.211261
35.000000 79.984375 55.268553
35.350000 79.125000 55.304360
35.450000 77.718750 55.362954
35.575000 76.921875 55.396157
34.625000 87.156250 55.119086
34.525000 85.875000 55.172471
34.750000 84.718750 55.220648
34.675000 83.562500 55.268825
34.300000 82.359375 55.318955
34.575000 80.750000 55.386013
35.050000 80.062500 55.414659
35.325000 79.000000 55.458929
35.400000 77.578125 55.518174
35.525000 76.234375 55.574164
35.800000 75.375000 55.609971
34.475000 89.718750 55.171077
34.325000 88.296875 55.230322
34.525000 87.078125 55.281103
34.575000 85.968750 55.327327
34.500000 85.078125 55.364436
34.475000 84.093750 55.405452
34.475000 82.843750 55.457535
34.500000 81.578125 55.510270
34.800000 80.140625 55.570166
35.025000 79.171875 55.610530
35.175000 78.062500 55.656754
35.350000 76.828125 55.708186
35.600000 75.937500 55.745296
36.075000 74.421875 55.808447
34.325000 89.515625 55.344703
34.200000 88.531250 55.385719
34.475000 87.656250 55.422177
34.550000 86.500000 55.470354
34.600000 85.171875 55.525693
34.625000 84.140625 55.568662
34.600000 82.968750 55.617490
34.675000 81.468750 55.679990
34.750000 80.296875 55.728818
34.825000 79.281250 55.771136
35.075000 78.218750 55.815407
35.300000 77.031250 55.864886
35.550000 76.031250 55.906552
36.000000 74.984375 55.950172
34.725000 89.203125 55.503588
34.400000 88.015625 55.553067
34.450000 86.921875 55.598640
34.500000 85.828125 55.644213
34.525000 84.875000 55.683927
34.550000 83.859375 55.726244
34.575000 82.562500 55.780281
34.675000 81.500000 55.824552
34.675000 80.328125 55.873380
34.775000 78.671875 55.942390
35.025000 77.687500 55.983406
35.250000 76.812500 56.019864
35.500000 75.609375 56.069994
36.000000 74.312500 56.124031
34.525000 89.171875 55.656353
34.375000 87.734375 55.716249
34.425000 87.078125 55.743593
34.475000 85.625000 55.804139
34.500000 84.359375 55.856874
34.500000 83.734375 55.882915
34.600000 82.062500 55.952577
34.600000 81.281250 55.985129
34.525000 79.843750 56.045025
34.700000 79.093750 56.076275
34.975000 77.484375 56.143332
35.200000 76.750000 56.173931
34.525000 89.187500 55.820572
34.350000 88.343750 55.855728
34.425000 87.203125 55.903254
34.450000 85.703125 55.965754
34.500000 84.734375 56.006119
34.525000 83.750000 56.047135
34.575000 82.703125 56.090754
34.600000 81.484375 56.141536
34.600000 80.140625 56.197525
34.725000 79.218750 56.235937
34.975000 78.015625 56.286067
35.200000 76.703125 56.340754
35.375000 75.312500 56.398697
35.925000 74.734375 56.422786
34.325000 88.750000 55.997431
34.200000 88.031250 56.027379
34.400000 86.937500 56.072952
34.400000 85.703125 56.124384
34.450000 84.328125 56.181676
34.525000 83.453125 56.218134
34.725000 82.296875 56.266311
34.700000 80.640625 56.335322
34.575000 79.921875 56.365270
34.725000 78.375000 56.429723
34.900000 77.187500 56.479202
35.150000 76.625000 56.502640
35.425000 74.984375 56.570999
34.450000 89.546875 56.119791
34.300000 88.265625 56.173176
34.450000 87.468750 56.206379
34.450000 86.484375 56.247395
34.450000 85.109375 56.304687
34.525000 83.890625 56.355468
34.575000 82.656250 56.406900
34.625000 81.875000 56.439452
34.700000 80.562500 56.494140
34.700000 79.171875 56.552083
34.825000 78.000000 56.600911
35.025000 76.984375 56.643228
35.250000 75.953125 56.686197
35.575000 74.859375 56.731770
34.875000 89.734375 56.266223
34.400000 88.671875 56.310494
34.425000 87.203125 56.371692
34.425000 86.078125 56.418567
34.425000 85.265625 56.452421
34.500000 83.875000 56.510364
34.650000 82.937500 56.549427
34.625000 81.421875 56.612578
34.575000 80.031250 56.670520
34.675000 79.171875 56.706328
34.800000 77.781250 56.764270
35.025000 76.906250 56.800729
35.300000 75.843750 56.845000
35.650000 74.500000 56.900989
34.875000 89.406250 56.437740
34.400000 88.406250 56.479406
34.425000 86.921875 56.541255
34.425000 85.828125 56.586828
34.450000 84.984375 56.621984
34.500000 83.687500 56.676021
34.675000 82.609375 56.720943
34.675000 81.625000 56.761958
34.575000 80.390625 56.813391
34.675000 78.953125 56.873286
34.900000 78.156250 56.906490
35.100000 76.843750 56.961177
35.300000 75.468750 57.018469
35.675000 74.703125 57.050370
34.375000 88.390625 56.634599
34.400000 87.484375 56.672359
34.425000 86.390625 56.717932
34.450000 85.296875 56.763505
34.525000 83.890625 56.822099
34.650000 82.484375 56.880693
34.625000 81.671875 56.914547
34.575000 80.593750 56.959469
34.650000 78.937500 57.028479
34.800000 78.265625 57.056474
35.000000 77.078125 57.105953
35.275000 76.046875 57.148922
35.600000 74.765625 57.202307
35.000000 89.937500 56.728853
34.750000 88.500000 56.788749
34.400000 87.859375 56.815441
34.475000 86.359375 56.877941
34.500000 85.578125 56.910494
34.575000 83.937500 56.978853
34.650000 82.859375 57.023775
34.725000 81.750000 57.069999
34.775000 80.578125 57.118827
34.750000 79.250000 57.174165
34.800000 78.046875 57.224296
35.025000 77.187500 57.260103
35.275000 76.187500 57.301769
35.550000 74.656250 57.365572
34.450000 88.250000 56.950830
34.425000 87.218750 56.993798
34.450000 86.343750 57.030257
34.500000 84.875000 57.091455
34.525000 83.906250 57.131819
34.700000 82.437500 57.193017
34.675000 81.671875 57.224918
34.575000 80.265625 57.283512
34.700000 79.265625 57.325178
34.900000 78.031250 57.376611
35.200000 76.546875 57.438460
35.400000 75.718750 57.472965
35.750000 74.578125 57.520491
34.700000 89.609375 57.051282
34.300000 88.437500 57.100110
34.425000 87.328125 57.146334
34.450000 86.218750 57.192558
34.500000 85.078125 57.240084
34.550000 83.640625 57.299980
34.675000 82.953125 57.328626
34.625000 81.343750 57.395683
34.700000 80.421875 57.434095
34.875000 79.234375 57.483574
35.000000 78.109375 57.530449
35.225000 77.171875 57.569511
35.400000 75.718750 57.630058
35.725000 74.843750 57.666517
34.550000 88.578125 57.247034
34.400000 87.531250 57.290653
34.475000 86.515625 57.332971
34.525000 84.984375 57.396773
34.575000 83.953125 57.439742
34.675000 82.687500 57.492476
34.775000 81.921875 57.524377
34.750000 80.406250 57.587528
34.725000 79.218750 57.637007
34.900000 78.171875 57.680627
35.125000 76.953125 57.731409
35.350000 75.906250 57.775028
35.725000 74.562500 57.831018
34.675000 89.562500 57.367507
34.500000 88.906250 57.394851
34.450000 87.468750 57.454746
34.500000 86.187500 57.508132
34.575000 84.890625 57.562168
34.650000 84.015625 57.598627
34.700000 82.593750 57.657871
34.850000 81.984375 57.683262
34.825000 80.359375 57.750970
34.725000 79.453125 57.788731
35.025000 78.531250 57.827142
35.325000 76.890625 57.895502
35.450000 76.109375 57.928054
35.775000 75.078125 57.971023
34.500000 89.531250 57.515807
34.300000 88.156250 57.573099
34.525000 87.218750 57.612162
34.625000 85.875000 57.668151
34.675000 85.265625 57.693542
34.725000 83.906250 57.750182
34.750000 82.734375 57.799011
34.850000 81.781250 57.838724
34.900000 80.375000 57.897318
34.900000 79.437500 57.936380
35.125000 78.000000 57.996276
35.325000 76.953125 58.039896
35.525000 76.015625 58.078959
36.000000 74.515625 58.141459
34.550000 89.734375 57.672170
34.525000 88.671875 57.716441
34.400000 87.453125 57.767222
34.575000 86.656250 57.800425
34.700000 85.343750 57.855113
34.700000 83.875000 57.916310
34.750000 82.984375 57.953420
35.000000 81.828125 58.001597
34.975000 80.531250 58.055633
34.875000 79.437500 58.101206
35.125000 78.546875 58.138316
35.325000 77.078125 58.199513
35.525000 76.125000 58.239227
35.875000 74.984375 58.286753
34.500000 89.281250 57.837294
34.400000 88.562500 57.867242
34.600000 86.984375 57.932997
34.675000 85.781250 57.983127
34.750000 85.218750 58.006565
34.750000 83.656250 58.071669
34.825000 82.421875 58.123101
35.125000 81.453125 58.163466
35.100000 80.109375 58.219455
35.025000 79.187500 58.257867
35.325000 77.953125 58.309299
35.550000 76.687500 58.362034
35.750000 75.515625 58.410862
36.225000 74.656250 58.446669
34.925000 89.593750 57.979131
34.650000 88.000000 58.045537
34.675000 86.906250 58.091110
34.800000 85.937500 58.131475
34.875000 84.781250 58.179652
34.925000 83.781250 58.221319
34.925000 82.265625 58.284470
35.050000 81.312500 58.324183
35.150000 80.156250 58.372360
35.225000 78.609375 58.436814
35.450000 77.890625 58.466762
35.625000 76.421875 58.527959
35.875000 75.609375 58.561814
34.700000 88.546875 58.192550
34.600000 87.546875 58.234217
34.800000 86.484375 58.278487
34.900000 85.375000 58.324711
35.025000 84.015625 58.381352
34.875000 82.984375 58.424321
34.775000 81.843750 58.471847
35.075000 80.515625 58.527185
35.300000 79.359375 58.575362
35.425000 78.484375 58.611821
35.625000 77.265625 58.662602
35.850000 76.187500 58.707524
36.175000 75.062500 58.754399
35.100000 89.078125 58.311252
34.800000 88.171875 58.349013
34.850000 86.953125 58.399794
34.950000 85.718750 58.451226
34.925000 84.359375 58.507867
34.700000 83.500000 58.543674
34.650000 82.156250 58.599664
34.900000 81.187500 58.640028
35.400000 80.375000 58.673882
35.625000 79.093750 58.727268
35.625000 77.984375 58.773492
35.850000 76.656250 58.828830
36.075000 75.390625 58.881565
34.750000 88.984375 58.470904
34.775000 87.500000 58.532753
35.000000 86.390625 58.578977
34.875000 83.093750 58.716347
34.775000 81.984375 58.762571
35.075000 80.890625 58.808144
35.600000 79.343750 58.872597
35.800000 78.625000 58.902544
35.725000 77.468750 58.950722
35.925000 76.296875 58.999550
36.375000 75.046875 59.051633
34.850000 89.578125 58.601506
34.825000 88.468750 58.647730
34.975000 87.125000 58.703720
35.075000 86.296875 58.738225
34.925000 85.015625 58.791610
34.625000 83.734375 58.844995
34.625000 82.765625 58.885360
34.850000 81.609375 58.933537
35.300000 80.468750 58.981063
35.950000 79.171875 59.035100
36.075000 78.171875 59.076766
35.925000 77.109375 59.121037
35.100000 88.656250 58.810368
34.800000 87.750000 58.848129
35.075000 86.531250 58.898910
34.900000 85.406250 58.945785
34.925000 84.234375 58.994613
34.950000 83.343750 59.031723
34.750000 81.765625 59.097478
35.975000 77.062500 59.293441
36.125000 76.453125 59.318832
36.525000 75.078125 59.376124
35.200000 86.828125 59.042607
35.050000 85.343750 59.104456
34.750000 83.843750 59.166956
34.775000 82.906250 59.206018
34.950000 82.078125 59.240523
35.575000 78.515625 59.388961
36.150000 77.359375 59.437138
36.275000 76.234375 59.484013
36.675000 74.796875 59.543909
35.225000 86.812500 59.195070
35.100000 85.218750 59.261476
34.800000 84.296875 59.299887
34.875000 82.640625 59.368898
35.125000 82.046875 59.393637
36.575000 76.968750 59.605226
