36.875000 79.343750 18.283174
36.775000 77.812500 18.295934
36.750000 76.625000 18.305830
36.925000 75.812500 18.312601
35.650000 89.578125 18.351532
35.675000 88.500000 18.360517
35.675000 87.375000 18.369892
35.700000 86.171875 18.379918
35.975000 85.000000 18.389683
35.850000 83.875000 18.399058
36.850000 79.203125 18.437991
36.750000 77.937500 18.448538
36.750000 77.000000 18.456350
37.000000 75.593750 18.468069
35.600000 89.765625 18.521610
35.725000 88.406250 18.532938
35.750000 87.359375 18.541662
35.575000 83.843750 18.570959
36.900000 79.109375 18.610412
36.800000 78.203125 18.617965
36.675000 76.984375 18.628121
36.925000 75.953125 18.636714
35.900000 89.421875 18.665081
35.675000 88.328125 18.674196
35.775000 86.875000 18.686305
35.700000 86.046875 18.693206
35.500000 84.421875 18.706748
35.450000 83.296875 18.716123
35.650000 81.968750 18.727190
36.200000 81.000000 18.735263
36.800000 79.968750 18.743857
36.850000 78.531250 18.755836
36.675000 77.609375 18.763519
36.775000 76.593750 18.771982
37.100000 75.406250 18.781878
35.975000 89.203125 18.822176
35.875000 87.968750 18.832462
35.850000 87.218750 18.838712
35.875000 86.234375 18.846915
35.725000 84.640625 18.860197
35.525000 83.625000 18.868660
36.900000 79.046875 18.906811
36.650000 77.781250 18.917358
36.725000 76.515625 18.927905
37.050000 75.609375 18.935457
36.200000 89.437500 18.972275
36.025000 88.281250 18.981911
35.850000 87.171875 18.991156
36.050000 86.093750 19.000140
35.875000 84.828125 19.010687
35.500000 83.734375 19.019801
36.825000 78.906250 19.060036
36.625000 77.875000 19.068630
36.725000 76.734375 19.078135
37.050000 75.312500 19.089984
35.700000 89.906250 19.128976
35.725000 88.906250 19.137310
35.850000 87.828125 19.146294
35.925000 86.484375 19.157492
36.050000 85.015625 19.169732
35.850000 84.296875 19.175721
36.875000 79.593750 19.214914
36.750000 78.484375 19.224159
36.650000 77.187500 19.234966
36.875000 75.953125 19.245252
37.500000 74.890625 19.254107
35.625000 89.109375 19.285347
35.800000 88.093750 19.293811
35.950000 86.562500 19.306571
36.025000 85.734375 19.313472
35.850000 84.078125 19.327275
35.600000 83.265625 19.334045
35.875000 81.781250 19.346415
36.550000 81.125000 19.351884
37.075000 79.859375 19.362431
36.850000 78.781250 19.371415
36.600000 77.546875 19.381701
36.800000 76.031250 19.394332
37.175000 75.296875 19.400451
36.450000 89.750000 19.441803
36.300000 88.218750 19.454564
35.850000 86.828125 19.466152
36.025000 86.000000 19.473053
36.050000 84.578125 19.484902
35.850000 83.734375 19.491933
35.950000 82.359375 19.503392
36.475000 81.328125 19.511986
36.825000 80.015625 19.522923
36.700000 79.078125 19.530735
36.600000 77.593750 19.543105
36.700000 76.515625 19.552090
37.050000 75.609375 19.559642
35.875000 90.062500 19.590772
35.875000 88.890625 19.600538
35.925000 87.468750 19.612387
35.925000 86.625000 19.619418
36.150000 85.015625 19.632830
36.150000 84.312500 19.638689
35.975000 83.109375 19.648715
36.350000 81.703125 19.660434
36.775000 80.890625 19.667205
36.700000 79.484375 19.678923
36.550000 78.250000 19.689210
36.625000 76.859375 19.700798
36.875000 76.156250 19.706658
37.500000 74.640625 19.719288
36.475000 89.640625 19.753224
36.450000 88.062500 19.766375
35.925000 87.156250 19.773927
35.975000 86.000000 19.783563
36.150000 84.812500 19.793458
36.075000 83.890625 19.801141
36.025000 82.281250 19.814552
36.425000 81.218750 19.823406
36.775000 80.265625 19.831349
36.675000 78.953125 19.842287
36.575000 78.015625 19.850099
36.700000 76.875000 19.859604
37.000000 75.765625 19.868849
36.400000 89.375000 19.911172
36.325000 88.015625 19.922501
35.975000 86.687500 19.933568
36.075000 85.921875 19.939949
36.150000 84.734375 19.949844
36.150000 83.218750 19.962475
36.225000 82.015625 19.972501
36.600000 81.031250 19.980704
36.925000 80.187500 19.987735
36.725000 78.500000 20.001797
36.450000 77.593750 20.009350
36.650000 76.437500 20.018985
37.075000 75.062500 20.030443
36.150000 89.937500 20.062072
36.025000 88.453125 20.074441
35.950000 87.593750 20.081603
35.950000 86.390625 20.091629
36.000000 85.171875 20.101785
36.000000 84.062500 20.111030
36.100000 82.687500 20.122488
36.450000 81.531250 20.132123
36.775000 80.437500 20.141238
36.625000 79.234375 20.151264
36.450000 78.062500 20.161030
36.625000 76.890625 20.170795
35.875000 87.343750 20.238782
35.975000 86.281250 20.247636
36.075000 85.078125 20.257662
36.100000 83.375000 20.271855
36.200000 82.531250 20.278886
36.525000 81.156250 20.290344
36.775000 80.265625 20.297766
36.600000 79.031250 20.308053
36.400000 77.609375 20.319902
36.700000 76.562500 20.328626
37.100000 75.578125 20.336829
36.300000 89.906250 20.373062
36.125000 88.468750 20.385041
35.925000 87.265625 20.395067
36.000000 86.140625 20.404442
36.050000 85.140625 20.412775
36.025000 84.187500 20.420718
36.125000 82.828125 20.432046
36.450000 81.906250 20.439728
36.800000 80.546875 20.451056
36.625000 79.031250 20.463687
36.400000 78.312500 20.469676
36.600000 76.703125 20.483088
36.950000 75.843750 20.490249
35.875000 87.140625 20.547839
36.000000 85.937500 20.557865
36.100000 84.937500 20.566199
36.100000 83.843750 20.575313
36.300000 82.703125 20.584818
36.650000 81.390625 20.595756
36.825000 80.234375 20.605391
36.600000 78.578125 20.619193
36.400000 77.609375 20.627266
36.600000 76.265625 20.638464
37.000000 75.406250 20.645626
36.550000 89.515625 20.687181
36.375000 88.187500 20.698249
35.925000 87.375000 20.705020
35.975000 85.906250 20.717260
36.050000 85.078125 20.724161
36.075000 83.906250 20.733926
36.200000 82.546875 20.745255
36.525000 81.609375 20.753067
36.775000 80.265625 20.764265
36.600000 79.296875 20.772338
36.375000 77.937500 20.783666
36.525000 76.468750 20.795905
36.925000 75.453125 20.804369
35.400000 88.625000 20.850102
35.750000 87.875000 20.856352
35.950000 86.562500 20.867290
36.050000 85.218750 20.878488
36.075000 84.062500 20.888123
36.125000 82.859375 20.898149
36.425000 82.031250 20.905050
36.750000 80.734375 20.915858
36.650000 79.718750 20.924321
36.375000 78.515625 20.934347
36.400000 77.515625 20.942681
36.675000 76.250000 20.953227
37.150000 74.937500 20.964165
36.050000 89.203125 21.003726
36.125000 87.578125 21.017268
35.925000 86.968750 21.022346
36.000000 85.734375 21.032632
36.050000 84.453125 21.043309
36.075000 83.328125 21.052685
36.350000 81.968750 21.064013
36.650000 81.203125 21.070393
36.950000 79.890625 21.081330
36.800000 78.703125 21.091226
36.425000 77.718750 21.099429
36.550000 76.250000 21.111669
36.975000 75.000000 21.122086
35.850000 87.171875 21.174909
36.000000 86.093750 21.183893
35.875000 84.656250 21.195873
35.850000 83.453125 21.205899
36.025000 82.593750 21.213060
36.300000 81.250000 21.224258
36.700000 80.031250 21.234414
36.575000 78.656250 21.245872
36.375000 77.875000 21.252383
36.550000 76.484375 21.263971
36.925000 75.328125 21.273607
35.950000 89.812500 21.313524
35.850000 88.250000 21.326545
35.700000 87.453125 21.333185
35.825000 86.218750 21.343472
35.600000 85.109375 21.352717
35.525000 84.078125 21.361310
36.275000 80.781250 21.388784
36.575000 79.562500 21.398941
36.300000 78.031250 21.411701
36.325000 77.125000 21.419253
35.800000 90.000000 21.460593
35.850000 88.500000 21.473093
35.675000 87.312500 21.482989
35.800000 86.484375 21.489890
35.450000 85.109375 21.501348
35.225000 83.953125 21.510984
35.650000 82.687500 21.521531
36.150000 81.390625 21.532338
36.650000 80.281250 21.541583
36.575000 79.125000 21.551218
36.300000 77.921875 21.561244
36.325000 76.750000 21.571010
35.625000 89.421875 21.626207
35.350000 88.078125 21.637405
35.550000 86.765625 21.648342
35.250000 85.656250 21.657587
34.925000 84.203125 21.669696
36.575000 78.390625 21.718134
36.325000 77.343750 21.726858
36.350000 76.187500 21.736493
36.750000 74.921875 21.747040
35.200000 89.906250 21.770701
35.400000 88.953125 21.778644
35.400000 87.843750 21.787888
35.650000 86.421875 21.799737
34.800000 84.359375 21.816925
35.075000 82.843750 21.829555
36.600000 78.078125 21.869269
36.325000 77.328125 21.875519
36.425000 76.109375 21.885675
36.775000 74.796875 21.896612
35.025000 85.015625 21.960434
34.925000 83.984375 21.969028
35.450000 82.859375 21.978403
35.900000 81.765625 21.987517
36.300000 80.562500 21.997544
36.450000 78.953125 22.010955
36.325000 78.203125 22.017205
36.325000 76.921875 22.027882
35.375000 89.140625 22.080104
35.100000 87.937500 22.090130
35.125000 86.953125 22.098333
34.800000 85.750000 22.108359
36.350000 78.843750 22.165911
36.300000 77.421875 22.177760
36.300000 76.031250 22.189348
36.525000 75.359375 22.194947
35.350000 89.593750 22.246250
35.325000 88.421875 22.256015
34.800000 84.843750 22.285833
34.725000 83.640625 22.295859
36.400000 79.031250 22.334271
36.275000 77.531250 22.346771
36.200000 76.515625 22.355234
36.325000 75.656250 22.362396
35.025000 89.609375 22.402987
35.050000 88.656250 22.410930
35.075000 87.687500 22.419003
35.125000 86.031250 22.432805
34.725000 85.093750 22.440617
34.450000 84.109375 22.448820
34.825000 82.468750 22.462492
35.225000 81.375000 22.471607
35.800000 80.515625 22.478768
36.425000 79.500000 22.487232
36.450000 77.937500 22.500253
36.200000 76.828125 22.509497
35.000000 88.984375 22.563156
34.875000 87.718750 22.573703
35.000000 86.640625 22.582687
35.325000 86.000000 22.588026
34.525000 83.234375 22.611073
35.075000 82.453125 22.617583
35.450000 81.109375 22.628781
35.900000 79.796875 22.639718
36.325000 78.796875 22.648052
36.225000 77.359375 22.660031
36.100000 76.593750 22.666411
36.250000 75.328125 22.676958
34.925000 89.734375 22.698225
34.900000 88.390625 22.709423
34.950000 87.406250 22.717626
34.575000 86.203125 22.727652
34.225000 85.343750 22.734813
34.275000 83.921875 22.746662
34.375000 82.859375 22.755517
34.700000 81.609375 22.765933
36.075000 76.906250 22.805126
35.975000 75.890625 22.813589
36.400000 75.000000 22.821011
35.075000 89.171875 22.873270
34.725000 87.859375 22.884207
34.500000 84.078125 22.915718
34.225000 83.140625 22.923530
34.475000 82.203125 22.931343
34.875000 80.828125 22.942801
35.575000 79.781250 22.951525
36.150000 78.687500 22.960639
36.075000 77.296875 22.972228
35.900000 76.187500 22.981473
36.150000 75.390625 22.988113
34.675000 89.734375 23.007246
34.750000 88.593750 23.016752
34.775000 87.578125 23.025215
34.450000 84.031250 23.054772
34.200000 83.140625 23.062194
34.425000 81.828125 23.073132
36.075000 77.437500 23.109720
35.875000 75.781250 23.123522
36.175000 74.750000 23.132116
34.950000 89.421875 23.178961
34.825000 88.171875 23.189378
34.775000 86.937500 23.199664
34.525000 86.203125 23.205784
34.450000 84.765625 23.217763
34.425000 83.609375 23.227398
34.275000 82.500000 23.236643
34.550000 80.984375 23.249273
35.175000 77.531250 23.278049
35.700000 76.406250 23.287424
34.725000 90.031250 23.331867
34.775000 88.875000 23.341502
34.725000 87.546875 23.352570
34.800000 86.687500 23.359731
34.800000 85.015625 23.373664
34.450000 84.312500 23.379523
34.250000 82.953125 23.390851
34.475000 81.515625 23.402830
34.750000 80.453125 23.411684
35.225000 79.578125 23.418976
35.475000 78.562500 23.427440
35.575000 77.015625 23.440330
35.775000 75.984375 23.448924
36.150000 74.796875 23.458820
35.125000 89.375000 23.476233
34.650000 88.203125 23.485998
34.675000 87.125000 23.494983
34.650000 86.062500 23.503837
34.950000 84.796875 23.514384
34.825000 83.109375 23.528446
34.375000 82.406250 23.534306
34.650000 81.187500 23.544462
35.100000 79.953125 23.554748
35.350000 78.656250 23.565556
35.425000 77.687500 23.573628
35.600000 76.359375 23.584696
35.875000 75.046875 23.595634
34.525000 90.093750 23.626637
34.500000 88.531250 23.639658
34.525000 87.765625 23.646039
34.675000 86.500000 23.656585
34.625000 85.296875 23.666611
34.650000 83.843750 23.678721
34.625000 82.953125 23.686143
34.550000 81.406250 23.699033
34.825000 80.484375 23.706716
35.075000 79.531250 23.714658
35.250000 78.500000 23.723252
35.400000 77.343750 23.732888
35.650000 75.625000 23.747211
36.100000 74.875000 23.753460
34.875000 89.390625 23.788100
34.575000 88.375000 23.796564
34.550000 87.250000 23.805938
34.600000 86.031250 23.816095
34.650000 84.546875 23.828465
34.675000 83.328125 23.838621
34.675000 82.546875 23.845131
34.850000 81.125000 23.856980
34.950000 79.890625 23.867267
35.000000 78.625000 23.877814
35.225000 77.796875 23.884715
35.425000 76.875000 23.892397
34.400000 89.375000 23.944638
34.300000 88.359375 23.953102
34.525000 87.546875 23.959873
34.550000 86.234375 23.970810
34.600000 84.796875 23.982790
34.625000 83.984375 23.989560
34.650000 82.859375 23.998935
34.850000 81.218750 24.012607
34.875000 80.437500 24.019118
34.800000 79.125000 24.030055
35.050000 78.062500 24.038909
35.300000 76.640625 24.050758
35.550000 75.453125 24.060654
36.050000 74.734375 24.066644
34.725000 89.125000 24.101565
34.525000 87.921875 24.111591
34.525000 87.375000 24.116148
34.550000 86.281250 24.125263
34.600000 84.796875 24.137633
34.600000 83.703125 24.146747
34.625000 82.343750 24.158075
34.650000 81.437500 24.165627
34.700000 79.937500 24.178128
34.825000 78.765625 24.187893
35.050000 77.843750 24.195575
35.275000 76.671875 24.205341
34.675000 88.890625 24.259722
34.425000 87.718750 24.269488
34.500000 87.062500 24.274957
34.550000 85.562500 24.287457
34.550000 84.437500 24.296832
34.600000 83.656250 24.303342
34.725000 81.968750 24.317405
34.700000 81.343750 24.322613
34.700000 79.968750 24.334071
34.875000 78.937500 24.342665
35.075000 77.750000 24.352561
35.300000 76.562500 24.362457
35.525000 75.078125 24.374826
34.500000 90.000000 24.406610
34.450000 88.765625 24.416896
34.500000 87.656250 24.426141
34.525000 86.250000 24.437860
34.475000 84.953125 24.448667
34.525000 84.078125 24.455959
34.600000 83.140625 24.463771
34.750000 81.765625 24.475230
34.750000 80.468750 24.486037
34.725000 79.515625 24.493979
34.950000 77.937500 24.507131
35.150000 77.296875 24.512469
35.350000 75.609375 24.526532
35.725000 75.015625 24.531480
34.825000 89.656250 24.566208
34.475000 88.156250 24.578708
34.500000 87.281250 24.585999
34.525000 86.046875 24.596286
34.575000 85.078125 24.604359
34.600000 83.812500 24.614906
34.625000 82.656250 24.624541
34.650000 81.359375 24.635349
34.650000 80.062500 24.646156
34.775000 79.156250 24.653708
34.975000 77.734375 24.665557
35.150000 76.796875 24.673369
35.350000 75.453125 24.684567
35.800000 74.734375 24.690557
34.500000 87.250000 24.741280
34.575000 85.968750 24.751957
34.600000 84.859375 24.761202
34.625000 83.796875 24.770056
34.825000 82.359375 24.782035
34.775000 80.906250 24.794144
34.675000 80.015625 24.801566
34.850000 78.578125 24.813545
35.000000 77.718750 24.820707
35.225000 76.437500 24.831384
34.600000 88.578125 24.887894
34.500000 87.453125 24.897269
34.525000 86.203125 24.907686
34.550000 85.156250 24.916410
34.600000 84.265625 24.923832
34.625000 82.906250 24.935160
34.750000 81.781250 24.944535
34.750000 80.546875 24.954821
34.725000 79.453125 24.963936
34.925000 78.250000 24.973962
35.175000 77.328125 24.981644
35.375000 76.125000 24.991670
35.675000 74.687500 25.003649
34.525000 87.203125 25.052398
34.575000 86.062500 25.061904
34.600000 84.859375 25.071930
34.650000 83.218750 25.085602
34.850000 82.156250 25.094456
34.775000 81.171875 25.102659
34.650000 80.312500 25.109820
34.825000 78.750000 25.122841
35.000000 77.843750 25.130393
35.225000 76.390625 25.142503
34.950000 88.375000 25.198794
34.500000 87.375000 25.207127
34.525000 86.546875 25.214028
34.500000 85.140625 25.225747
34.550000 84.218750 25.233429
34.700000 83.000000 25.243585
34.800000 81.687500 25.254523
34.750000 80.437500 25.264940
34.750000 79.578125 25.272101
34.925000 78.421875 25.281736
35.150000 77.187500 25.292023
35.350000 75.984375 25.302049
35.700000 74.609375 25.313507
34.500000 87.218750 25.361645
34.550000 85.515625 25.375837
34.575000 84.765625 25.382087
34.625000 83.625000 25.391593
34.925000 82.062500 25.404613
34.925000 80.875000 25.414509
34.700000 80.031250 25.421540
34.850000 78.468750 25.434561
35.075000 77.703125 25.440942
35.275000 76.625000 25.449926
34.500000 87.218750 25.520449
34.575000 85.796875 25.532298
34.600000 84.750000 25.541022
34.650000 83.281250 25.553262
34.950000 82.625000 25.558731
34.900000 81.343750 25.569408
34.700000 79.734375 25.582819
34.850000 79.062500 25.588418
35.100000 77.796875 25.598965
35.300000 76.734375 25.607819
34.550000 87.390625 25.673882
34.600000 85.812500 25.687033
34.625000 85.078125 25.693153
34.675000 83.656250 25.705002
34.875000 82.343750 25.715939
34.800000 81.234375 25.725184
34.625000 80.328125 25.732736
34.825000 79.000000 25.743804
35.050000 77.546875 25.755913
35.275000 76.750000 25.762554
35.550000 75.437500 25.773491
36.100000 74.609375 25.780392
34.625000 88.953125 25.818366
34.525000 87.734375 25.828522
34.625000 86.343750 25.840111
34.725000 85.140625 25.850137
34.775000 84.093750 25.858860
34.800000 83.109375 25.867064
34.875000 81.921875 25.876960
34.950000 80.562500 25.888288
34.950000 79.687500 25.895579
35.125000 78.281250 25.907298
35.375000 77.296875 25.915501
35.550000 76.093750 25.925527
35.800000 74.968750 25.934902
34.675000 89.187500 25.970993
34.500000 88.234375 25.978935
34.525000 87.125000 25.988180
34.600000 86.078125 25.996904
34.700000 84.781250 26.007711
34.750000 83.375000 26.019430
34.950000 82.046875 26.030498
34.850000 80.953125 26.039612
34.650000 79.968750 26.047816
34.950000 79.093750 26.055107
35.200000 77.390625 26.069300
35.425000 76.500000 26.076722
35.750000 75.406250 26.085836
36.425000 74.531250 26.093128
34.575000 90.015625 26.118997
34.550000 88.234375 26.133840
34.650000 87.640625 26.138788
34.700000 86.468750 26.148554
34.775000 85.281250 26.158450
34.825000 83.609375 26.172382
34.875000 82.937500 26.177981
35.100000 81.812500 26.187356
35.075000 80.328125 26.199726
34.975000 79.015625 26.210663
35.250000 78.343750 26.216262
35.475000 77.171875 26.226028
35.625000 75.937500 26.236314
36.025000 74.859375 26.245299
34.625000 88.546875 26.287610
34.525000 87.812500 26.293730
34.675000 86.859375 26.301673
34.800000 85.312500 26.314563
34.850000 84.062500 26.324980
34.900000 83.265625 26.331620
35.025000 81.984375 26.342298
35.025000 80.921875 26.351152
34.950000 79.656250 26.361699
35.200000 78.421875 26.371985
35.425000 77.218750 26.382011
35.600000 76.015625 26.392037
35.975000 75.171875 26.399069
34.750000 88.750000 26.438833
34.575000 87.593750 26.448469
34.700000 86.421875 26.458234
34.825000 85.218750 26.468260
34.900000 84.359375 26.475422
34.900000 82.953125 26.487140
34.925000 81.843750 26.496385
35.175000 80.546875 26.507193
35.300000 79.656250 26.514614
35.275000 78.531250 26.523989
35.500000 77.046875 26.536359
35.700000 76.140625 26.543911
36.000000 75.234375 26.551463
34.625000 89.718750 26.588431
34.500000 88.062500 26.602234
34.775000 86.984375 26.611218
34.875000 85.906250 26.620202
34.925000 85.031250 26.627494
35.100000 83.671875 26.638822
35.050000 82.375000 26.649629
34.950000 81.359375 26.658093
35.150000 80.250000 26.667338
35.350000 78.968750 26.678015
35.500000 77.750000 26.688171
35.700000 76.921875 26.695072
35.975000 75.703125 26.705228
36.550000 74.375000 26.716296
34.925000 88.750000 26.750338
34.800000 87.750000 26.758671
34.925000 86.796875 26.766614
35.025000 85.828125 26.774687
35.175000 84.281250 26.787578
34.950000 82.875000 26.799296
34.775000 82.031250 26.806328
35.025000 80.921875 26.815572
35.275000 79.734375 26.825468
35.475000 78.296875 26.837447
35.600000 77.187500 26.846692
35.850000 75.984375 26.856718
36.200000 75.171875 26.863489
34.850000 88.468750 26.913111
34.775000 87.593750 26.920403
35.000000 86.703125 26.927825
34.875000 83.203125 26.956992
34.775000 82.062500 26.966497
35.075000 80.937500 26.975872
35.450000 79.765625 26.985637
35.650000 78.328125 26.997617
35.800000 77.062500 27.008163
35.975000 75.828125 27.018450
36.350000 74.875000 27.026393
34.700000 89.218750 27.058008
34.725000 88.406250 27.064779
35.025000 87.500000 27.072331
35.125000 86.296875 27.082357
35.050000 84.640625 27.096159
34.750000 83.859375 27.102669
34.700000 82.484375 27.114128
34.925000 81.437500 27.122852
35.300000 80.000000 27.134831
35.650000 78.875000 27.144206
35.750000 78.031250 27.151237
35.825000 76.734375 27.162045
36.100000 75.625000 27.171289
35.150000 89.109375 27.219555
34.925000 87.750000 27.230883
35.125000 86.593750 27.240519
34.900000 83.000000 27.270467
34.750000 81.968750 27.279060
35.425000 78.406250 27.308748
35.975000 77.515625 27.316170
36.100000 76.468750 27.324893
36.450000 75.140625 27.335961
35.200000 86.562500 27.391277
35.275000 85.406250 27.400912
34.950000 83.718750 27.414975
34.750000 82.703125 27.423438
34.975000 81.656250 27.432162
35.550000 78.468750 27.458724
36.100000 77.000000 27.470964
36.275000 76.000000 27.479297
36.800000 74.640625 27.490626
35.200000 89.265625 27.528817
35.100000 87.875000 27.540406
35.225000 86.781250 27.549520
35.050000 83.609375 27.575953
34.900000 82.312500 27.586760
36.500000 77.406250 27.627645
36.225000 76.515625 27.635067
36.525000 75.250000 27.645614
35.325000 86.171875 27.705462
35.325000 85.515625 27.710931
35.075000 84.093750 27.722780
35.000000 82.812500 27.733457
35.225000 81.718750 27.742571
36.550000 77.171875 27.780462
36.475000 76.171875 27.788795
36.900000 74.750000 27.800644
35.350000 86.718750 27.861196
35.175000 85.406250 27.872133
34.900000 84.359375 27.880857
35.050000 82.937500 27.892706
35.600000 81.796875 27.902212
36.300000 78.593750 27.928904
36.525000 77.140625 27.941014
36.475000 76.140625 27.949347
36.875000 75.203125 27.957160
35.325000 89.312500 27.992764
35.300000 88.171875 28.002270
35.400000 87.281250 28.009691
35.275000 83.671875 28.039770
36.625000 79.218750 28.076879
36.700000 77.625000 28.090160
36.575000 76.453125 28.099926
36.750000 75.250000 28.109952
35.450000 89.218750 28.151023
35.300000 88.062500 28.160658
35.450000 86.875000 28.170554
35.125000 85.671875 28.180580
34.900000 84.328125 28.191778
35.150000 83.453125 28.199069
35.475000 82.000000 28.211179
35.925000 80.796875 28.221205
36.550000 79.828125 28.229278
36.875000 78.640625 28.239174
36.750000 77.437500 28.249200
36.625000 76.546875 28.256622
36.850000 75.500000 28.265346
35.000000 89.687500 28.300006
35.225000 88.687500 28.308340
35.500000 87.625000 28.317194
35.575000 86.265625 28.328522
36.000000 84.921875 28.339720
35.300000 83.000000 28.355736
35.750000 81.843750 28.365371
36.375000 80.531250 28.376308
36.875000 79.562500 28.384381
36.900000 77.968750 28.397663
36.700000 77.171875 28.404303
35.450000 88.953125 28.466037
35.300000 88.187500 28.472417
35.475000 86.656250 28.485178
35.250000 85.718750 28.492990
35.000000 84.218750 28.505490
35.175000 83.031250 28.515386
35.600000 82.156250 28.522678
36.350000 78.546875 28.552756
36.750000 77.390625 28.562391
36.750000 76.531250 28.569553
36.950000 75.265625 28.580100
35.325000 88.500000 28.621301
35.525000 87.312500 28.631197
35.575000 86.062500 28.641614
36.025000 85.359375 28.647473
36.850000 79.406250 28.697082
36.875000 77.875000 28.709843
36.700000 77.187500 28.715572
35.600000 89.718750 28.771319
35.575000 88.000000 28.785642
35.625000 87.125000 28.792934
35.600000 86.109375 28.801397
35.500000 84.750000 28.812725
35.350000 83.562500 28.822621
35.500000 82.140625 28.834470
36.000000 81.031250 28.843715
36.600000 80.359375 28.849314
36.900000 79.125000 28.859600
36.775000 78.000000 28.868975
36.775000 76.875000 28.878350
36.975000 75.500000 28.889809
35.500000 90.000000 28.917401
35.575000 88.359375 28.931072
35.675000 87.203125 28.940708
35.550000 83.625000 28.970526
36.850000 79.109375 29.008156
36.825000 78.281250 29.015057
36.700000 76.640625 29.028729
36.950000 75.671875 29.036802
35.825000 89.140625 29.079009
35.525000 87.968750 29.088774
35.725000 86.843750 29.098149
35.650000 85.734375 29.107394
35.425000 84.578125 29.117029
35.400000 83.531250 29.125753
35.750000 82.156250 29.137212
36.325000 80.875000 29.147889
36.775000 79.781250 29.157003
36.850000 78.640625 29.166509
36.725000 77.609375 29.175102
36.750000 76.203125 29.186821
37.050000 75.375000 29.193722
35.500000 88.687500 29.237662
35.700000 87.781250 29.245214
35.825000 86.843750 29.253026
36.025000 85.578125 29.263573
35.700000 84.203125 29.275032
35.425000 82.828125 29.286490
35.850000 81.687500 29.295995
36.525000 80.968750 29.301985
37.050000 79.546875 29.313834
36.900000 78.375000 29.323599
36.700000 77.156250 29.333756
36.850000 76.078125 29.342740
37.250000 74.796875 29.353417
35.950000 89.953125 29.380802
35.950000 88.234375 29.395125
35.775000 87.640625 29.400073
35.550000 83.500000 29.434578
36.800000 79.187500 29.470516
36.675000 78.046875 29.480021
36.675000 76.656250 29.491610
36.950000 75.500000 29.501245
36.100000 89.640625 29.532641
36.025000 88.359375 29.543318
35.850000 87.421875 29.551130
35.950000 86.234375 29.561026
35.750000 84.781250 29.573136
35.475000 83.828125 29.581078
36.900000 79.234375 29.619359
36.675000 77.625000 29.632771
36.775000 76.937500 29.638500
37.050000 75.328125 29.651911
36.250000 89.562500 29.698126
36.075000 88.000000 29.711146
35.900000 86.921875 29.720131
36.075000 85.718750 29.730157
35.875000 84.734375 29.738360
35.525000 83.312500 29.750209
36.750000 79.062500 29.785625
36.625000 77.781250 29.796303
36.700000 76.265625 29.808933
37.075000 75.218750 29.817657
35.675000 90.187500 29.839655
35.775000 88.953125 29.849942
35.900000 87.390625 29.862962
35.925000 86.140625 29.873379
36.075000 85.343750 29.880020
35.900000 84.156250 29.889916
36.950000 79.250000 29.930801
36.750000 78.359375 29.938223
36.650000 77.265625 29.947338
36.925000 76.046875 29.957494
37.525000 74.937500 29.966739
35.475000 89.046875 30.015254
35.800000 87.750000 30.026061
35.950000 86.703125 30.034785
36.075000 85.250000 30.046894
35.925000 84.296875 30.054837
37.050000 79.859375 30.091816
36.825000 78.687500 30.101582
36.600000 77.343750 30.112780
36.825000 76.125000 30.122936
37.250000 75.203125 30.130618
35.850000 89.265625 30.169757
35.775000 88.093750 30.179522
35.975000 86.953125 30.189028
36.000000 85.828125 30.198403
36.025000 84.265625 30.211423
35.775000 83.062500 30.221449
35.900000 81.937500 30.230824
36.600000 80.875000 30.239679
37.000000 79.984375 30.247100
36.800000 78.828125 30.256736
36.575000 77.562500 30.267283
36.775000 76.078125 30.279653
37.150000 75.078125 30.287986
36.250000 89.531250 30.321874
36.150000 88.406250 30.331249
35.950000 87.406250 30.339582
36.000000 86.390625 30.348046
36.150000 84.906250 30.360416
36.125000 83.734375 30.370181
36.100000 82.734375 30.378515
36.500000 81.609375 30.387890
36.900000 80.468750 30.397395
36.725000 79.265625 30.407421
36.500000 77.875000 30.419009
36.650000 76.953125 30.426692
36.950000 75.812500 30.436197
36.200000 89.859375 30.473940
36.125000 88.406250 30.486050
35.950000 87.546875 30.493211
36.000000 86.093750 30.505321
36.025000 84.859375 30.515607
36.025000 84.171875 30.521336
36.125000 82.906250 30.531883
36.500000 81.953125 30.539826
36.875000 80.281250 30.553758
36.700000 79.203125 30.562742
36.475000 78.125000 30.571727
36.650000 77.156250 30.579800
36.950000 76.015625 30.589305
36.250000 89.875000 30.629236
36.150000 88.609375 30.639783
35.925000 87.296875 30.650720
35.975000 86.468750 30.657621
36.025000 85.359375 30.666866
36.025000 84.156250 30.676892
36.125000 82.671875 30.689262
36.500000 81.843750 30.696163
36.875000 80.562500 30.706840
36.700000 78.953125 30.720252
36.450000 77.953125 30.728585
36.725000 77.171875 30.735095
37.050000 75.968750 30.745121
36.025000 89.765625 30.781196
35.750000 88.875000 30.788618
35.875000 87.578125 30.799426
35.975000 86.312500 30.809972
36.075000 85.421875 30.817394
36.100000 84.281250 30.826900
36.125000 82.890625 30.838488
36.425000 81.750000 30.847993
36.775000 80.453125 30.858800
36.650000 79.609375 30.865832
36.400000 78.109375 30.878332
36.375000 76.953125 30.887967
36.750000 76.250000 30.893826
37.450000 74.656250 30.907108
35.475000 88.875000 30.950768
35.775000 87.906250 30.958841
35.975000 86.593750 30.969778
36.075000 85.203125 30.981367
36.075000 84.203125 30.989700
36.125000 83.328125 30.996992
36.375000 81.953125 31.008450
36.750000 80.984375 31.016523
36.700000 79.656250 31.027591
36.400000 78.562500 31.036705
36.350000 77.234375 31.047773
36.650000 76.031250 31.057799
37.225000 75.281250 31.064049
35.875000 86.796875 31.114062
36.000000 85.625000 31.123827
36.075000 84.390625 31.134114
36.075000 83.562500 31.141015
36.300000 82.421875 31.150520
36.600000 81.312500 31.159765
36.800000 80.093750 31.169921
36.650000 79.015625 31.178906
36.525000 77.750000 31.189453
36.675000 76.437500 31.200390
37.050000 75.515625 31.208072
36.350000 89.718750 31.241513
36.150000 88.718750 31.249846
35.925000 87.281250 31.261825
35.975000 86.375000 31.269377
36.050000 85.031250 31.280575
36.025000 83.812500 31.290732
36.100000 82.984375 31.297633
36.475000 81.656250 31.308700
36.850000 80.515625 31.318206
36.675000 79.125000 31.329794
36.375000 78.156250 31.337867
36.475000 76.671875 31.350237
36.875000 75.781250 31.357659
35.950000 87.109375 31.423338
36.000000 85.859375 31.433754
36.025000 84.453125 31.445473
36.100000 83.125000 31.456541
36.425000 82.296875 31.463442
36.725000 81.171875 31.472817
36.900000 80.171875 31.481150
36.750000 78.765625 31.492869
36.425000 77.218750 31.505759
36.575000 76.281250 31.513572
37.075000 75.500000 31.520082
36.150000 89.531250 31.553533
35.950000 88.281250 31.563950
35.900000 87.421875 31.571111
35.950000 86.234375 31.581007
36.025000 85.406250 31.587908
36.025000 83.859375 31.600799
36.100000 82.859375 31.609132
36.375000 81.484375 31.620590
36.675000 80.625000 31.627752
36.575000 79.187500 31.639731
36.350000 78.109375 31.648715
36.475000 77.093750 31.657179
35.450000 88.890625 31.720196
35.750000 87.812500 31.729181
35.925000 86.453125 31.740509
36.050000 85.406250 31.749233
36.000000 84.125000 31.759910
35.950000 83.015625 31.769155
36.300000 81.984375 31.777748
36.675000 80.984375 31.786082
36.875000 79.609375 31.797540
36.650000 78.546875 31.806394
36.350000 77.406250 31.815899
36.550000 76.078125 31.826967
37.125000 75.265625 31.833738
36.425000 89.765625 31.864382
36.150000 88.296875 31.876622
35.750000 87.328125 31.884695
35.875000 85.890625 31.896674
35.775000 85.062500 31.903575
35.700000 83.625000 31.915554
35.850000 82.906250 31.921544
36.175000 81.343750 31.934565
36.600000 80.468750 31.941856
36.525000 79.343750 31.951231
36.325000 77.796875 31.964122
36.400000 76.625000 31.973887
36.675000 75.734375 31.981309
35.600000 90.234375 32.020669
35.600000 88.765625 32.032908
35.625000 87.593750 32.042674
35.700000 86.421875 32.052439
35.425000 85.390625 32.061033
35.275000 84.062500 32.072101
35.525000 83.062500 32.080434
36.000000 81.703125 32.091762
36.550000 80.500000 32.101788
36.575000 79.609375 32.109210
36.375000 78.218750 32.120799
36.350000 76.937500 32.131476
36.600000 76.046875 32.138898
37.275000 74.671875 32.150356
35.450000 90.062500 32.172255
35.575000 88.906250 32.181890
35.600000 87.734375 32.191656
35.750000 86.625000 32.200901
35.375000 85.093750 32.213661
35.000000 83.718750 32.225120
35.350000 82.765625 32.233062
35.875000 81.781250 32.241265
36.425000 80.500000 32.251942
36.750000 79.218750 32.262619
36.550000 78.468750 32.268869
36.325000 76.828125 32.282541
36.475000 75.703125 32.291916
37.075000 74.843750 32.299078
35.625000 89.250000 32.339435
35.475000 87.687500 32.352456
35.450000 86.734375 32.360399
35.175000 85.718750 32.368862
34.825000 84.671875 32.377586
36.400000 78.687500 32.427456
36.275000 77.375000 32.438394
36.325000 76.515625 32.445555
36.725000 75.156250 32.456883
35.450000 87.546875 32.506339
35.475000 85.843750 32.520532
35.075000 85.015625 32.527433
34.975000 83.796875 32.537589
35.925000 81.531250 32.556469
36.450000 80.468750 32.565323
36.600000 79.203125 32.575870
36.400000 78.187500 32.584334
36.375000 76.765625 32.596183
36.650000 75.578125 32.606079
35.750000 89.593750 32.651692
35.775000 88.359375 32.661979
35.025000 84.625000 32.693099
35.000000 83.593750 32.701692
36.500000 79.156250 32.738672
36.325000 77.984375 32.748437
36.300000 76.421875 32.761458
36.475000 75.312500 32.770703
35.350000 89.171875 32.804691
35.250000 88.046875 32.814066
35.100000 86.734375 32.825004
34.900000 85.640625 32.834118
34.950000 82.015625 32.864327
35.450000 80.906250 32.873572
36.200000 80.234375 32.879170
36.425000 79.125000 32.888415
36.300000 77.515625 32.901827
36.275000 76.500000 32.910290
36.400000 75.593750 32.917842
35.275000 89.687500 32.955963
35.225000 88.265625 32.967812
35.175000 87.250000 32.976276
35.575000 85.765625 32.988646
34.625000 83.453125 33.007916
34.875000 82.437500 33.016380
35.225000 81.343750 33.025495
36.100000 80.031250 33.036432
36.450000 79.203125 33.043333
36.300000 77.531250 33.057265
36.225000 76.343750 33.067161
36.325000 75.406250 33.074974
35.050000 90.046875 33.108875
35.075000 88.828125 33.119031
35.050000 87.187500 33.132703
34.900000 86.187500 33.141036
34.475000 84.875000 33.151974
34.325000 83.687500 33.161870
34.575000 82.703125 33.170073
35.050000 81.828125 33.177364
35.775000 80.437500 33.188953
36.375000 79.468750 33.197026
36.450000 78.296875 33.206791
36.225000 76.671875 33.220333
36.150000 75.687500 33.228536
36.575000 74.734375 33.236479
34.950000 90.000000 33.267626
34.975000 88.578125 33.279475
35.025000 87.687500 33.286897
34.625000 85.921875 33.301610
34.250000 85.312500 33.306688
34.325000 83.875000 33.318667
36.175000 76.921875 33.376610
36.075000 75.984375 33.384423
36.425000 74.640625 33.395621
35.000000 88.671875 33.431848
34.725000 87.671875 33.440182
34.525000 84.328125 33.468046
34.300000 82.875000 33.480156
34.550000 82.203125 33.485755
36.075000 77.156250 33.527812
35.900000 76.312500 33.534843
36.150000 74.953125 33.546171
35.050000 89.750000 33.584706
34.975000 88.437500 33.595643
34.875000 87.328125 33.604888
34.475000 85.796875 33.617649
34.075000 84.734375 33.626503
34.175000 83.421875 33.637440
34.300000 82.562500 33.644602
34.600000 81.437500 33.653977
36.000000 76.921875 33.691607
34.675000 87.593750 33.753293
34.875000 87.093750 33.757460
34.850000 85.937500 33.767095
34.475000 84.531250 33.778814
34.175000 83.437500 33.787928
34.300000 81.921875 33.800559
34.650000 80.968750 33.808501
35.250000 79.796875 33.818267
35.900000 78.609375 33.828163
35.975000 77.515625 33.837277
35.825000 76.250000 33.847824
36.075000 74.921875 33.858892
34.700000 89.437500 33.893263
34.550000 88.203125 33.903549
34.700000 87.531250 33.909148
34.475000 83.781250 33.940398
34.250000 82.703125 33.949383
34.550000 81.656250 33.958107
35.000000 80.218750 33.970086
35.425000 79.437500 33.976596
35.575000 78.312500 33.985971
35.600000 76.671875 33.999643
35.800000 75.500000 34.009409
36.350000 74.359375 34.018914
34.750000 86.734375 34.071059
34.500000 85.296875 34.083038
34.450000 84.421875 34.090330
34.500000 83.453125 34.098403
34.350000 82.171875 34.109080
34.675000 80.781250 34.120668
35.100000 79.703125 34.129653
35.375000 78.515625 34.139548
35.475000 77.312500 34.149574
35.700000 75.984375 34.160642
36.125000 74.859375 34.170017
34.675000 86.671875 34.226991
34.625000 85.390625 34.237668
34.800000 84.078125 34.248606
34.700000 83.234375 34.255637
34.425000 81.781250 34.267746
34.700000 80.812500 34.275819
35.000000 79.390625 34.287668
35.200000 78.437500 34.295611
35.400000 77.593750 34.302642
35.625000 76.437500 34.312278
35.950000 75.312500 34.321652
34.375000 89.671875 34.358132
34.250000 88.390625 34.368809
34.550000 87.703125 34.374539
34.625000 86.453125 34.384955
34.650000 84.984375 34.397195
34.700000 84.218750 34.403575
34.675000 82.593750 34.417117
34.675000 81.406250 34.427012
34.800000 80.265625 34.436518
34.950000 79.234375 34.445112
35.175000 78.062500 34.454877
35.400000 77.218750 34.461908
35.650000 76.109375 34.471153
36.075000 74.687500 34.483002
34.700000 89.093750 34.517323
34.500000 87.921875 34.527088
34.525000 86.921875 34.535422
34.600000 86.062500 34.542583
34.625000 84.718750 34.553781
34.625000 83.578125 34.563286
34.700000 82.031250 34.576177
34.775000 81.093750 34.583989
34.800000 79.968750 34.593364
34.975000 78.562500 34.605083
35.225000 77.781250 34.611593
35.425000 76.484375 34.622401
34.575000 89.718750 34.669148
34.575000 88.671875 34.677872
34.450000 87.328125 34.689070
34.525000 86.296875 34.697664
34.550000 85.140625 34.707299
34.575000 83.812500 34.718367
34.600000 83.203125 34.723445
34.850000 81.765625 34.735424
34.850000 80.406250 34.746752
34.800000 79.734375 34.752351
35.075000 77.984375 34.766935
35.275000 77.093750 34.774356
35.450000 76.000000 34.783471
35.800000 74.968750 34.792065
34.625000 90.218750 34.820666
34.500000 88.843750 34.832124
34.375000 87.906250 34.839936
34.525000 86.468750 34.851916
34.550000 85.625000 34.858947
34.550000 84.578125 34.867671
34.600000 83.250000 34.878739
34.825000 82.046875 34.888765
34.825000 80.546875 34.901265
34.700000 79.625000 34.908947
34.925000 78.312500 34.919884
35.200000 77.015625 34.930692
35.350000 75.843750 34.940457
35.625000 75.234375 34.945535
34.775000 89.984375 34.964485
34.475000 88.875000 34.973730
34.350000 87.593750 34.984407
34.475000 86.828125 34.990787
34.525000 85.468750 35.002115
34.525000 84.593750 35.009407
34.575000 82.906250 35.023469
34.800000 81.703125 35.033495
34.825000 80.984375 35.039485
34.700000 79.515625 35.051724
34.925000 78.640625 35.059016
35.175000 77.187500 35.071125
35.325000 76.312500 35.078417
35.625000 75.187500 35.087792
34.375000 88.859375 35.141900
34.325000 88.031250 35.148801
34.500000 86.828125 35.158827
34.575000 85.921875 35.166379
34.625000 84.734375 35.176275
34.625000 83.296875 35.188254
34.800000 82.015625 35.198931
34.850000 80.750000 35.209478
34.725000 79.984375 35.215858
34.825000 78.484375 35.228359
35.050000 77.359375 35.237734
35.250000 76.078125 35.248411
35.550000 75.187500 35.255832
34.500000 87.203125 35.300346
34.550000 86.109375 35.309460
34.575000 84.906250 35.319486
34.625000 83.656250 35.329903
34.775000 82.671875 35.338106
34.700000 81.437500 35.348393
34.675000 79.734375 35.362586
34.850000 78.750000 35.370789
34.975000 77.859375 35.378211
35.200000 76.640625 35.388367
35.425000 75.171875 35.400606
35.925000 74.093750 35.409591
34.525000 90.046875 35.440777
34.250000 88.671875 35.452235
34.525000 87.250000 35.464084
34.550000 86.234375 35.472548
34.575000 85.156250 35.481532
34.675000 83.875000 35.492209
34.750000 82.750000 35.501585
34.750000 81.546875 35.511611
34.775000 80.359375 35.521506
34.800000 79.437500 35.529189
34.900000 78.265625 35.538954
35.100000 76.656250 35.552366
35.350000 75.718750 35.560178
35.700000 74.812500 35.567730
34.525000 88.390625 35.602818
34.425000 87.484375 35.610370
34.525000 86.718750 35.616750
34.550000 84.984375 35.631203
34.575000 84.343750 35.636542
34.625000 82.765625 35.649693
34.700000 81.796875 35.657766
34.800000 80.656250 35.667271
34.850000 79.156250 35.679771
34.950000 78.250000 35.687323
35.150000 76.937500 35.698260
35.400000 75.843750 35.707375
35.675000 75.078125 35.713755
34.475000 88.421875 35.763556
34.500000 86.796875 35.777098
34.550000 86.046875 35.783348
34.575000 84.984375 35.792202
34.625000 83.468750 35.804832
34.850000 82.750000 35.810822
34.800000 81.328125 35.822671
34.650000 80.062500 35.833218
34.800000 79.031250 35.841812
34.975000 77.593750 35.853791
35.200000 76.812500 35.860301
35.425000 75.562500 35.870718
35.900000 74.156250 35.882437
35.050000 89.812500 35.899554
34.700000 88.921875 35.906975
34.450000 87.359375 35.919996
34.525000 86.562500 35.926637
34.550000 85.578125 35.934840
34.600000 84.031250 35.947731
34.700000 83.015625 35.956194
34.800000 82.140625 35.963486
34.800000 80.656250 35.975856
34.850000 79.671875 35.984059
34.975000 78.234375 35.996038
35.175000 77.218750 36.004501
35.400000 76.046875 36.014267
35.675000 75.031250 36.022731
34.525000 87.203125 36.085357
34.575000 85.750000 36.097466
34.600000 84.812500 36.105279
34.700000 83.625000 36.115175
34.950000 82.359375 36.125722
34.900000 81.359375 36.134055
34.750000 80.218750 36.143560
34.925000 78.609375 36.156972
35.175000 77.390625 36.167128
35.375000 76.640625 36.173378
34.525000 88.187500 36.229789
34.600000 87.203125 36.237993
34.625000 85.968750 36.248279
34.700000 85.031250 36.256091
34.750000 83.875000 36.265727
34.875000 82.328125 36.278617
34.775000 81.468750 36.285779
34.675000 80.203125 36.296326
34.850000 78.890625 36.307263
35.075000 78.187500 36.313123
35.325000 76.796875 36.324711
35.550000 75.375000 36.336560
35.950000 74.515625 36.343722
34.775000 88.906250 36.368420
34.500000 87.390625 36.381051
34.625000 86.343750 36.389775
34.700000 85.609375 36.395894
34.750000 84.484375 36.405269
34.775000 82.796875 36.419332
34.975000 82.125000 36.424931
35.000000 80.843750 36.435608
34.850000 79.734375 36.444853
34.975000 78.046875 36.458915
35.200000 77.046875 36.467249
35.450000 75.875000 36.477014
35.725000 74.750000 36.486389
34.825000 89.234375 36.526218
34.525000 88.437500 36.532858
34.575000 87.109375 36.543926
34.625000 86.015625 36.553041
34.725000 85.078125 36.560853
34.775000 83.843750 36.571140
34.900000 82.531250 36.582077
34.800000 81.593750 36.589890
34.675000 80.265625 36.600957
34.875000 78.765625 36.613457
35.175000 77.640625 36.622832
35.425000 76.828125 36.629603
35.600000 75.796875 36.638197
36.075000 74.406250 36.649786
34.775000 90.203125 36.683745
34.675000 88.375000 36.698980
34.550000 87.703125 36.704579
34.675000 86.390625 36.715516
34.750000 85.234375 36.725152
34.800000 84.171875 36.734006
34.800000 83.187500 36.742209
34.975000 81.531250 36.756011
34.975000 80.578125 36.763953
34.950000 79.296875 36.774631
35.200000 77.968750 36.785698
35.425000 77.359375 36.790776
35.625000 75.890625 36.803016
35.950000 74.875000 36.811480
34.725000 89.156250 36.842434
34.575000 87.859375 36.853242
34.600000 86.890625 36.861315
34.700000 86.000000 36.868737
34.800000 84.640625 36.880065
34.825000 83.812500 36.886966
34.950000 82.359375 36.899075
35.075000 80.953125 36.910794
35.025000 79.906250 36.919518
35.100000 78.828125 36.928502
35.325000 77.765625 36.937356
35.550000 76.578125 36.947252
35.800000 75.578125 36.955585
34.475000 89.593750 37.000308
34.400000 88.468750 37.009683
34.675000 87.515625 37.017626
34.800000 86.281250 37.027912
34.875000 85.093750 37.037808
34.925000 84.078125 37.046272
34.950000 82.390625 37.060334
35.175000 81.609375 37.066845
35.150000 80.375000 37.077131
35.100000 79.234375 37.086636
35.325000 77.921875 37.097574
35.550000 76.812500 37.106819
35.825000 75.343750 37.119058
36.400000 74.812500 37.123485
34.675000 89.718750 37.149977
34.450000 88.484375 37.160264
34.725000 87.046875 37.172243
34.825000 85.734375 37.183180
34.825000 84.593750 37.192686
34.925000 83.953125 37.198024
35.025000 82.437500 37.210654
35.000000 81.265625 37.220420
35.100000 80.421875 37.227451
35.300000 79.015625 37.239170
35.525000 78.000000 37.247633
35.700000 76.812500 37.257529
34.800000 88.890625 37.316885
34.750000 87.375000 37.329515
34.900000 86.515625 37.336676
35.000000 85.437500 37.345661
35.300000 84.171875 37.356208
35.175000 83.093750 37.365192
34.875000 81.531250 37.378213
35.275000 80.812500 37.384202
35.500000 79.281250 37.396963
35.475000 77.984375 37.407770
35.700000 76.828125 37.417405
35.925000 75.921875 37.424958
36.350000 74.906250 37.433421
35.000000 88.953125 37.456400
34.850000 87.953125 37.464733
34.950000 86.875000 37.473718
35.050000 85.531250 37.484916
35.325000 84.390625 37.494421
35.075000 83.109375 37.505098
34.775000 82.281250 37.511999
35.025000 80.718750 37.525020
35.400000 79.750000 37.533093
35.650000 78.546875 37.543119
35.750000 77.765625 37.549629
35.975000 76.515625 37.560046
36.275000 75.125000 37.571635
34.825000 89.843750 37.603656
34.775000 88.625000 37.613813
35.025000 87.281250 37.625010
35.075000 86.187500 37.634125
34.875000 85.062500 37.643500
34.600000 83.921875 37.653005
34.650000 82.359375 37.666026
34.875000 81.406250 37.673969
35.175000 80.046875 37.685297
35.500000 79.046875 37.693630
35.725000 78.187500 37.700792
35.900000 76.890625 37.711599
35.100000 88.781250 37.766517
35.000000 87.734375 37.775241
35.100000 86.171875 37.788262
34.875000 85.109375 37.797117
34.575000 83.562500 37.810007
34.650000 82.921875 37.815346
34.850000 81.781250 37.824851
35.450000 78.140625 37.855189
35.950000 76.921875 37.865346
35.125000 86.359375 37.956486
35.200000 85.343750 37.964949
34.900000 83.906250 37.976928
34.650000 82.609375 37.987736
34.850000 81.843750 37.994116
35.450000 78.281250 38.023803
36.000000 76.859375 38.035652
36.225000 75.843750 38.044116
36.825000 74.656250 38.054012
35.075000 89.390625 38.087550
35.100000 88.484375 38.095102
35.175000 86.921875 38.108123
35.000000 83.734375 38.134686
34.825000 82.078125 38.148488
35.075000 81.218750 38.155649
35.675000 77.718750 38.184816
36.175000 76.656250 38.193670
36.425000 75.734375 38.201352
35.300000 86.203125 38.257508
35.275000 85.359375 38.264539
35.025000 84.109375 38.274956
35.000000 82.859375 38.285372
35.250000 81.968750 38.292794
36.500000 77.234375 38.332247
36.450000 75.953125 38.342925
36.875000 75.078125 38.350216
35.050000 89.531250 38.384856
35.100000 88.484375 38.393580
35.275000 87.437500 38.402304
35.075000 83.765625 38.432903
34.800000 82.171875 38.446184
35.175000 81.625000 38.450742
35.925000 80.265625 38.462070
36.575000 78.937500 38.473137
36.675000 77.718750 38.483294
36.525000 76.937500 38.489804
36.625000 75.531250 38.501523
35.375000 88.796875 38.545213
35.250000 88.109375 38.550942
35.400000 86.578125 38.563702
34.975000 85.656250 38.571385
34.775000 84.500000 38.581020
35.100000 83.000000 38.593520
35.400000 82.343750 38.598989
35.825000 80.968750 38.610447
36.475000 80.250000 38.616437
36.825000 78.812500 38.628416
36.600000 77.281250 38.641176
36.500000 76.468750 38.647947
36.800000 75.468750 38.656281
35.475000 86.546875 38.720665
35.550000 85.562500 38.728868
35.300000 84.062500 38.741368
35.250000 82.703125 38.752696
35.825000 81.906250 38.759337
36.425000 78.625000 38.786681
36.625000 77.125000 38.799181
36.625000 76.156250 38.807254
37.000000 75.078125 38.816238
35.050000 89.609375 38.864206
35.225000 88.562500 38.872930
35.500000 87.625000 38.880743
35.325000 83.718750 38.913295
36.775000 79.515625 38.948321
36.825000 77.921875 38.961602
36.650000 76.859375 38.970456
36.725000 75.562500 38.981264
35.450000 89.234375 39.007979
35.350000 88.046875 39.017874
35.575000 86.859375 39.027770
35.300000 85.796875 39.036624
35.050000 84.171875 39.050166
35.250000 83.234375 39.057979
35.650000 82.062500 39.067744
36.050000 80.750000 39.078682
36.650000 79.750000 39.087015
36.900000 78.468750 39.097692
36.725000 77.546875 39.105374
36.725000 76.562500 39.113578
36.975000 75.421875 39.123083
35.300000 88.562500 39.182244
35.550000 87.453125 39.191489
35.625000 86.390625 39.200343
35.775000 85.203125 39.210239
35.475000 84.296875 39.217791
35.375000 82.671875 39.231333
35.900000 81.734375 39.239145
36.450000 80.484375 39.249562
37.050000 79.656250 39.256463
37.000000 78.140625 39.269093
36.700000 77.140625 39.277426
36.850000 76.062500 39.286411
37.250000 74.734375 39.297478
35.575000 89.562500 39.330198
35.600000 88.312500 39.340614
35.625000 87.187500 39.349989
35.400000 83.812500 39.378114
35.300000 82.437500 39.389573
35.850000 81.718750 39.395562
36.550000 80.515625 39.405588
36.850000 79.265625 39.416005
36.775000 78.062500 39.426031
36.750000 76.531250 39.438792
36.950000 75.750000 39.445302
35.550000 88.875000 39.491227
35.625000 87.593750 39.501904
35.425000 83.656250 39.534717
36.875000 79.671875 39.567920
36.825000 78.390625 39.578597
36.750000 77.046875 39.589795
37.000000 75.859375 39.599691
37.450000 74.671875 39.609587
35.700000 89.437500 39.627858
35.600000 87.921875 39.640488
35.700000 87.156250 39.646868
35.575000 85.796875 39.658196
35.375000 84.437500 39.669524
35.400000 83.718750 39.675514
35.600000 82.328125 39.687103
36.100000 81.375000 39.695045
36.675000 80.218750 39.704681
36.825000 78.625000 39.717962
36.675000 77.640625 39.726165
