35.800000 85.828125 113.240436
35.650000 84.546875 113.596339
35.450000 83.218750 113.965262
35.700000 81.906250 114.329846
36.275000 81.171875 114.533839
36.700000 79.984375 114.863700
36.575000 78.390625 115.306408
36.375000 77.203125 115.636269
36.600000 76.281250 115.892346
37.025000 75.390625 116.139742
36.125000 89.421875 112.402267
36.000000 88.640625 112.619282
35.725000 87.250000 113.005566
35.800000 86.140625 113.313726
36.100000 84.890625 113.660948
35.975000 83.890625 113.938726
35.750000 82.640625 114.285948
36.225000 81.406250 114.628830
36.725000 80.484375 114.884907
36.650000 79.390625 115.188726
36.375000 77.812500 115.627094
36.475000 76.593750 115.965636
36.775000 75.531250 116.260775
36.250000 89.593750 112.507226
36.150000 88.000000 112.949934
35.700000 87.328125 113.136566
35.725000 85.890625 113.535872
35.975000 84.984375 113.787608
35.950000 83.781250 114.121809
35.875000 82.437500 114.495073
36.325000 81.500000 114.755490
36.700000 80.000000 115.172157
36.575000 79.093750 115.423893
36.325000 78.015625 115.723372
36.450000 76.484375 116.148719
36.825000 75.531250 116.413476
35.500000 88.890625 112.869009
35.550000 88.093750 113.090363
35.725000 86.968750 113.402863
35.800000 85.968750 113.680641
35.925000 84.515625 114.084286
35.975000 83.250000 114.435849
36.025000 82.250000 114.713627
36.425000 81.093750 115.034807
36.750000 79.859375 115.377689
36.525000 78.562500 115.737932
36.350000 77.546875 116.020050
36.525000 76.562500 116.293488
36.950000 75.015625 116.723175
35.675000 86.890625 113.571555
35.725000 85.953125 113.831972
35.825000 84.718750 114.174854
35.875000 83.796875 114.430930
35.975000 82.203125 114.873639
36.300000 81.609375 115.038569
36.625000 80.015625 115.481277
36.475000 79.125000 115.728673
36.300000 77.906250 116.067215
36.575000 76.500000 116.457840
36.925000 75.578125 116.713916
35.950000 89.562500 112.990798
35.750000 88.796875 113.203471
35.600000 87.281250 113.624478
35.725000 86.375000 113.876215
35.825000 85.140625 114.219096
35.850000 84.062500 114.518576
35.925000 82.656250 114.909201
36.200000 81.468750 115.239062
36.525000 80.656250 115.464756
36.425000 79.609375 115.755555
36.225000 78.421875 116.085416
36.200000 76.875000 116.515103
36.525000 75.859375 116.797221
37.225000 74.609375 117.144444
35.350000 88.750000 113.365708
35.625000 87.843750 113.617444
35.700000 86.640625 113.951646
35.750000 85.687500 114.216403
35.800000 84.171875 114.637410
35.875000 82.906250 114.988972
36.150000 82.265625 115.166924
36.475000 80.703125 115.600951
36.500000 79.437500 115.952514
36.300000 78.546875 116.199910
36.225000 77.093750 116.603555
36.475000 75.875000 116.942097
36.975000 74.906250 117.211194
35.500000 88.875000 113.490959
35.525000 87.859375 113.773077
35.725000 87.078125 113.990091
35.775000 85.640625 114.389397
35.775000 84.343750 114.749640
35.825000 83.234375 115.057800
36.125000 82.125000 115.365959
36.450000 81.203125 115.622036
36.775000 79.921875 115.977939
36.600000 78.375000 116.407626
36.225000 77.515625 116.646341
36.425000 76.203125 117.010925
36.850000 75.406250 117.232279
35.250000 89.015625 113.603932
35.550000 87.968750 113.894730
35.700000 86.718750 114.241952
35.750000 85.593750 114.554452
35.800000 84.421875 114.879973
35.875000 82.984375 115.279279
36.150000 82.093750 115.526675
36.475000 80.906250 115.856536
36.500000 79.828125 116.156015
36.275000 78.125000 116.629105
36.200000 77.203125 116.885182
36.475000 76.281250 117.141258
36.975000 75.156250 117.453758
35.325000 89.000000 113.769969
35.575000 87.484375 114.190976
35.675000 86.546875 114.451393
35.750000 85.406250 114.768233
35.800000 84.390625 115.050351
35.850000 83.125000 115.401914
36.150000 81.625000 115.818580
36.475000 80.546875 116.118060
36.625000 79.656250 116.365455
36.400000 78.578125 116.664935
36.200000 77.375000 116.999136
36.475000 76.234375 117.315976
36.975000 74.875000 117.693580
36.175000 89.234375 113.853709
35.925000 88.062500 114.179230
35.675000 86.984375 114.478709
35.750000 85.843750 114.795549
35.675000 84.625000 115.134091
35.700000 83.234375 115.520376
35.875000 82.140625 115.824195
36.125000 81.296875 116.058570
36.450000 79.906250 116.444855
36.300000 78.656250 116.792077
36.125000 77.500000 117.113258
36.275000 76.515625 117.386695
36.675000 75.390625 117.699195
36.075000 89.593750 113.912083
35.925000 88.375000 114.250625
35.575000 87.390625 114.524062
35.725000 86.000000 114.910347
35.425000 85.000000 115.188125
35.375000 83.437500 115.622153
35.575000 82.140625 115.982396
35.875000 81.515625 116.156007
36.300000 80.312500 116.490208
36.225000 78.843750 116.898194
36.150000 78.031250 117.123889
36.225000 76.718750 117.488472
36.525000 75.390625 117.857396
35.775000 88.734375 114.304523
35.450000 87.687500 114.595322
35.650000 86.390625 114.955565
35.350000 84.671875 115.432995
35.225000 84.109375 115.589245
35.700000 82.859375 115.936467
36.075000 81.359375 116.353134
36.375000 80.515625 116.587509
36.325000 79.046875 116.995495
36.175000 78.000000 117.286294
36.150000 76.625000 117.668238
35.475000 88.562500 114.513455
35.350000 87.421875 114.830295
35.600000 86.218750 115.164497
34.775000 83.828125 115.828559
35.125000 82.937500 116.075955
35.650000 81.875000 116.371094
36.150000 80.843750 116.657552
36.600000 79.578125 117.009115
36.450000 77.937500 117.464844
36.075000 76.796875 117.781684
36.250000 75.843750 118.046441
36.825000 74.937500 118.298177
35.300000 89.062500 114.524965
35.100000 87.953125 114.833124
35.225000 86.718750 115.176006
34.900000 85.671875 115.466805
34.625000 84.531250 115.783645
36.150000 79.015625 117.315763
36.125000 77.343750 117.780173
36.175000 76.265625 118.079652
36.475000 75.156250 118.387812
35.075000 88.843750 114.747324
35.175000 87.453125 115.133609
35.350000 86.718750 115.337602
34.975000 84.937500 115.832393
34.575000 84.359375 115.992984
34.900000 83.046875 116.357567
36.300000 78.437500 117.637949
36.175000 77.453125 117.911386
36.275000 76.296875 118.232567
36.550000 74.859375 118.631873
35.175000 89.359375 114.753229
35.050000 88.140625 115.091771
35.025000 87.140625 115.369549
34.750000 85.421875 115.846979
36.250000 78.890625 117.661215
36.200000 77.593750 118.021458
36.200000 76.625000 118.290555
36.350000 75.484375 118.607396
35.000000 87.671875 115.385434
34.950000 86.562500 115.693594
34.675000 85.656250 115.945330
34.500000 84.359375 116.305573
34.775000 83.093750 116.657135
36.250000 78.562500 117.915816
36.200000 77.109375 118.319462
36.175000 75.890625 118.658003
36.275000 74.765625 118.970503
35.100000 89.593750 114.999997
35.125000 88.406250 115.329858
35.025000 87.203125 115.664059
35.125000 85.921875 116.019962
34.700000 85.015625 116.271698
34.375000 83.812500 116.605900
34.800000 82.734375 116.905379
35.200000 81.265625 117.313365
35.675000 80.093750 117.638886
36.275000 79.265625 117.868920
36.350000 78.203125 118.164059
36.150000 77.109375 118.467879
36.125000 75.546875 118.901906
36.575000 74.750000 119.123261
34.825000 89.609375 115.157419
34.800000 88.531250 115.456898
34.950000 87.703125 115.686933
34.700000 85.921875 116.181724
34.300000 84.859375 116.476863
34.250000 83.640625 116.815405
36.125000 79.312500 118.017662
36.325000 78.328125 118.291099
36.100000 77.312500 118.573217
36.075000 75.843750 118.981204
36.375000 74.718750 119.293704
35.175000 88.875000 115.511653
34.800000 88.140625 115.715646
34.550000 84.140625 116.826757
34.400000 83.234375 117.078493
34.725000 81.843750 117.464778
35.075000 80.734375 117.772938
35.700000 79.828125 118.024673
36.125000 78.359375 118.432660
36.025000 77.359375 118.710438
35.975000 76.500000 118.949153
36.200000 75.093750 119.339778
35.025000 89.484375 115.505939
34.875000 87.750000 115.987710
34.850000 86.781250 116.256807
34.975000 85.531250 116.604029
34.575000 84.781250 116.812362
34.200000 83.109375 117.276772
34.400000 82.031250 117.576252
34.725000 81.062500 117.845349
35.400000 77.687500 118.782849
35.875000 76.578125 119.091008
36.000000 75.234375 119.464272
35.050000 89.421875 115.672347
34.900000 88.156250 116.023909
34.825000 87.015625 116.340750
34.625000 85.453125 116.774777
34.225000 84.515625 117.035194
34.125000 83.265625 117.382416
34.300000 82.359375 117.634152
34.675000 81.250000 117.942312
35.350000 77.781250 118.905854
35.825000 76.609375 119.231375
36.000000 75.156250 119.635020
35.025000 89.484375 115.817098
34.850000 87.968750 116.238105
34.800000 87.296875 116.424737
34.600000 86.062500 116.767619
34.375000 84.453125 117.214667
34.300000 83.609375 117.449042
34.300000 82.578125 117.735501
34.600000 81.343750 118.078382
34.975000 80.031250 118.442966
35.375000 78.828125 118.777167
35.600000 77.703125 119.089667
35.675000 76.734375 119.358764
35.950000 75.656250 119.658244
34.725000 89.281250 116.023901
34.600000 88.203125 116.323380
34.725000 87.046875 116.644561
34.500000 83.734375 117.564699
34.300000 82.531250 117.898901
34.525000 81.671875 118.137616
34.950000 80.406250 118.489179
35.300000 79.312500 118.792998
35.450000 78.218750 119.096817
35.600000 76.828125 119.483102
35.875000 75.984375 119.717477
36.425000 74.609375 120.099422
34.650000 88.484375 116.398832
34.625000 87.671875 116.624527
34.750000 86.218750 117.028172
34.600000 85.359375 117.266888
34.375000 84.312500 117.557686
34.375000 83.187500 117.870186
34.475000 81.515625 118.334596
34.800000 80.734375 118.551610
35.175000 79.281250 118.955256
35.400000 78.125000 119.276436
35.550000 77.062500 119.571575
35.750000 75.718750 119.944839
36.150000 74.781250 120.205256
34.675000 88.656250 116.506557
34.600000 87.515625 116.823397
34.725000 86.500000 117.105515
34.675000 85.359375 117.422355
34.775000 83.890625 117.830342
34.675000 83.000000 118.077737
34.500000 81.578125 118.472703
34.900000 80.687500 118.720098
35.175000 79.656250 119.006557
35.275000 78.125000 119.431904
35.500000 77.343750 119.648918
35.725000 75.796875 120.078605
36.125000 74.968750 120.308640
34.675000 88.750000 116.635269
34.575000 87.375000 117.017213
34.700000 86.703125 117.203845
34.750000 85.437500 117.555408
34.750000 84.031250 117.946033
34.750000 83.234375 118.167387
34.800000 81.906250 118.536310
34.925000 80.906250 118.814088
35.050000 79.296875 119.261137
35.200000 78.156250 119.577977
35.450000 77.281250 119.821033
35.700000 75.859375 120.215998
36.025000 75.031250 120.446033
34.500000 87.828125 117.048028
34.700000 86.875000 117.312785
34.725000 85.328125 117.742473
34.700000 84.562500 117.955146
34.700000 83.046875 118.376153
34.825000 81.812500 118.719035
34.900000 81.093750 118.918688
34.875000 79.671875 119.313653
35.125000 78.390625 119.669556
35.400000 77.593750 119.890910
35.600000 75.937500 120.350980
35.925000 75.234375 120.546292
34.725000 89.265625 116.804850
34.625000 88.421875 117.039225
34.675000 87.421875 117.317003
34.675000 86.171875 117.664225
34.700000 84.796875 118.046170
34.700000 83.718750 118.345649
34.750000 82.343750 118.727593
34.800000 81.531250 118.953288
34.825000 80.328125 119.287489
34.975000 78.687500 119.743218
35.225000 77.640625 120.034017
35.450000 76.546875 120.337837
35.675000 75.390625 120.659017
36.275000 74.593750 120.880371
34.725000 89.656250 116.842830
34.600000 88.312500 117.216094
34.650000 87.156250 117.537275
34.650000 85.796875 117.914879
34.700000 84.781250 118.196997
34.725000 83.515625 118.548559
34.775000 82.468750 118.839358
34.750000 81.578125 119.086754
34.750000 80.265625 119.451337
34.925000 79.281250 119.724775
35.175000 77.765625 120.145782
35.400000 76.937500 120.375817
35.650000 75.359375 120.814184
36.125000 74.515625 121.048559
34.800000 89.140625 117.153483
34.600000 88.171875 117.422580
34.650000 87.234375 117.682997
34.650000 86.125000 117.991156
34.700000 84.812500 118.355740
34.725000 83.390625 118.750705
34.775000 82.562500 118.980740
34.725000 81.234375 119.349663
34.725000 80.281250 119.614420
34.925000 78.781250 120.031087
35.175000 77.859375 120.287163
35.400000 76.828125 120.573622
35.625000 75.796875 120.860080
36.125000 74.656250 121.176920
34.500000 88.671875 117.438615
34.600000 87.703125 117.707712
34.675000 86.406250 118.067955
34.725000 85.156250 118.415177
34.750000 83.812500 118.788441
34.775000 83.140625 118.975073
34.925000 81.687500 119.378719
34.975000 80.390625 119.738962
34.925000 79.437500 120.003719
35.100000 78.421875 120.285837
35.350000 77.312500 120.593997
35.600000 75.984375 120.962920
35.925000 74.640625 121.336184
34.500000 88.015625 117.777823
34.675000 86.468750 118.207511
34.725000 85.781250 118.398483
34.700000 84.578125 118.732684
34.800000 83.015625 119.166712
35.075000 81.953125 119.461851
35.075000 80.734375 119.800393
34.900000 79.484375 120.147615
35.125000 78.343750 120.464455
35.375000 77.546875 120.685809
35.500000 75.890625 121.145879
35.750000 75.046875 121.380254
34.700000 86.828125 118.253992
34.775000 85.531250 118.614235
34.800000 84.296875 118.957117
34.850000 83.062500 119.299999
35.100000 82.156250 119.551735
35.100000 80.921875 119.894617
34.900000 79.500000 120.289582
35.100000 78.609375 120.536978
35.350000 77.703125 120.788714
35.500000 76.140625 121.222742
35.700000 75.093750 121.513541
34.625000 88.093750 118.067189
34.675000 87.437500 118.249481
34.675000 86.203125 118.592363
34.725000 84.968750 118.935245
34.825000 83.546875 119.330210
35.050000 82.546875 119.607988
35.025000 81.500000 119.898787
34.925000 79.968750 120.324134
35.100000 79.046875 120.580210
35.250000 77.843750 120.914412
35.425000 77.000000 121.148787
35.650000 75.703125 121.509030
36.125000 74.500000 121.843231
34.650000 88.218750 118.178611
34.725000 87.234375 118.452048
34.800000 86.359375 118.695104
34.775000 85.359375 118.972881
34.850000 83.828125 119.398229
35.025000 82.531250 119.758471
35.000000 81.328125 120.092673
34.925000 80.421875 120.344409
35.025000 78.968750 120.748055
35.250000 78.046875 121.004131
35.425000 77.125000 121.260208
35.625000 75.562500 121.694236
35.975000 74.375000 122.024096
35.025000 88.250000 118.335957
34.750000 87.265625 118.609395
34.800000 86.140625 118.921895
34.850000 84.953125 119.251756
34.925000 83.968750 119.525193
35.025000 82.734375 119.868075
35.000000 81.562500 120.193596
34.925000 80.468750 120.497416
35.025000 79.187500 120.853318
35.225000 78.093750 121.157138
35.425000 77.250000 121.391513
35.600000 75.625000 121.842902
35.975000 74.468750 122.164082
34.775000 87.359375 118.731123
34.850000 85.734375 119.182512
34.875000 84.500000 119.525394
34.950000 83.562500 119.785810
35.175000 82.687500 120.028866
35.075000 81.421875 120.380429
34.950000 79.843750 120.818797
35.125000 79.000000 121.053172
35.275000 77.875000 121.365672
35.500000 76.828125 121.656470
35.750000 75.640625 121.986331
36.400000 74.562500 122.285810
34.750000 88.640625 118.538126
34.775000 87.468750 118.863647
34.850000 86.234375 119.206529
34.875000 85.046875 119.536390
34.900000 83.750000 119.896633
35.125000 82.906250 120.131008
35.075000 81.125000 120.625800
34.925000 80.484375 120.803751
35.100000 79.343750 121.120591
35.250000 77.828125 121.541598
35.425000 76.531250 121.901841
35.650000 75.750000 122.118855
36.125000 74.421875 122.487779
34.900000 88.875000 118.621048
34.775000 87.875000 118.898826
34.825000 86.437500 119.298132
34.875000 85.406250 119.584590
34.950000 84.062500 119.957854
35.050000 82.984375 120.257333
35.050000 81.578125 120.647958
35.075000 80.796875 120.864972
35.225000 79.421875 121.246917
35.375000 78.156250 121.598479
35.475000 77.093750 121.893618
35.625000 76.046875 122.184417
35.975000 74.671875 122.566361
34.775000 88.640625 118.849509
34.800000 87.640625 119.127287
34.850000 86.796875 119.361662
34.900000 85.562500 119.704544
34.975000 84.046875 120.125551
35.025000 82.875000 120.451072
35.175000 81.656250 120.789613
35.200000 80.500000 121.110794
35.150000 79.281250 121.449336
35.275000 78.281250 121.727113
35.500000 77.187500 122.030933
35.725000 76.312500 122.273988
36.000000 74.656250 122.734058
34.950000 89.421875 118.785642
34.775000 88.203125 119.124184
34.825000 87.015625 119.454045
34.900000 86.062500 119.718802
34.950000 84.812500 120.066024
35.000000 83.187500 120.517413
35.200000 82.375000 120.743108
35.150000 81.328125 121.033906
35.000000 79.921875 121.424531
35.225000 78.656250 121.776094
35.425000 77.343750 122.140677
35.650000 76.578125 122.353351
35.925000 75.609375 122.622448
34.725000 88.828125 119.109394
34.775000 87.750000 119.408873
34.825000 86.203125 119.838561
34.875000 85.281250 120.094637
34.950000 84.250000 120.381096
35.025000 82.640625 120.828144
35.175000 81.500000 121.144984
35.200000 80.671875 121.375019
35.225000 79.578125 121.678838
35.400000 78.109375 122.086825
35.600000 76.875000 122.429707
35.850000 76.000000 122.672762
36.225000 74.796875 123.006963
35.025000 88.765625 119.272854
34.825000 87.593750 119.598375
34.900000 87.062500 119.745944
35.000000 85.609375 120.149590
35.050000 84.531250 120.449069
35.075000 83.093750 120.848375
35.200000 81.937500 121.169555
35.175000 80.703125 121.512437
35.150000 79.515625 121.842298
35.375000 78.343750 122.167819
35.600000 77.453125 122.415215
35.800000 76.453125 122.692993
36.050000 75.015625 123.092298
35.050000 88.875000 119.407012
34.850000 88.171875 119.602324
34.925000 87.046875 119.914824
35.000000 85.625000 120.309790
35.050000 84.359375 120.661352
35.075000 83.062500 121.021595
35.200000 82.093750 121.290693
35.175000 80.734375 121.668297
35.175000 79.625000 121.976456
35.400000 78.562500 122.271595
35.650000 77.375000 122.601456
35.850000 76.218750 122.922637
36.125000 75.328125 123.170033
35.050000 89.406250 119.408991
34.800000 87.937500 119.816977
34.900000 87.187500 120.025310
35.025000 85.734375 120.428956
35.075000 84.250000 120.841282
35.125000 83.515625 121.045275
35.150000 81.906250 121.492324
35.450000 81.375000 121.639893
35.525000 79.796875 122.078261
35.400000 78.859375 122.338678
35.650000 77.312500 122.768366
35.825000 76.437500 123.011421
36.075000 75.359375 123.310900
34.900000 88.875000 119.718803
34.875000 87.843750 120.005262
35.050000 86.296875 120.434949
35.150000 85.546875 120.643283
35.200000 84.062500 121.055609
35.150000 82.703125 121.433213
35.150000 82.000000 121.628526
35.550000 80.671875 121.997449
35.675000 79.343750 122.366373
35.600000 78.468750 122.609428
35.825000 77.078125 122.995713
36.000000 75.921875 123.316894
36.375000 75.015625 123.568630
34.850000 89.640625 119.654993
34.850000 88.265625 120.036937
35.025000 87.093750 120.362458
35.100000 86.046875 120.653256
35.075000 85.000000 120.944055
35.350000 84.234375 121.156729
35.375000 82.812500 121.551694
35.125000 81.765625 121.842493
35.550000 80.296875 122.250479
35.750000 79.406250 122.497874
35.750000 77.953125 122.901520
35.950000 76.968750 123.174958
36.175000 75.671875 123.535201
36.725000 74.562500 123.843361
35.150000 88.906250 120.024863
34.900000 87.453125 120.428509
35.075000 86.828125 120.602120
34.975000 82.875000 121.700210
34.900000 81.796875 121.999689
35.200000 80.718750 122.299169
35.550000 79.484375 122.642051
35.750000 78.484375 122.919828
35.925000 77.312500 123.245349
36.125000 76.140625 123.570870
36.475000 75.078125 123.866009
34.900000 89.734375 119.939131
34.925000 88.359375 120.321075
35.150000 87.125000 120.663957
35.225000 85.953125 120.989478
35.200000 84.546875 121.380103
34.925000 83.359375 121.709964
34.800000 82.765625 121.874894
35.050000 81.125000 122.330623
35.350000 80.250000 122.573679
35.675000 79.140625 122.881839
35.900000 78.140625 123.159616
36.050000 76.984375 123.480797
36.325000 75.718750 123.832360
35.125000 89.687500 120.119246
34.975000 88.156250 120.544594
35.175000 87.203125 120.809351
35.250000 85.937500 121.160913
35.125000 84.921875 121.443031
34.825000 83.953125 121.712128
34.800000 82.937500 121.994246
35.050000 81.781250 122.315427
35.525000 80.625000 122.636608
35.900000 79.140625 123.048934
35.975000 78.265625 123.291990
36.025000 76.718750 123.721677
34.925000 89.703125 120.264463
34.950000 88.421875 120.620366
35.150000 87.046875 121.002310
35.225000 86.375000 121.188942
35.450000 84.750000 121.640331
35.150000 83.593750 121.961512
34.800000 82.546875 122.252310
35.050000 81.640625 122.504046
35.550000 80.171875 122.912033
36.150000 79.000000 123.237553
36.200000 77.828125 123.563074
36.075000 77.015625 123.788769
36.350000 75.718750 124.149012
35.275000 89.562500 120.466286
35.175000 88.296875 120.817849
35.275000 87.187500 121.126009
35.100000 83.156250 122.245800
34.925000 82.421875 122.449794
35.175000 80.921875 122.866460
35.675000 79.843750 123.165939
36.225000 78.687500 123.487120
36.275000 77.828125 123.725835
36.275000 76.796875 124.012294
36.600000 75.343750 124.415939
35.100000 88.671875 120.860337
35.275000 87.546875 121.172837
35.050000 83.687500 122.244886
34.950000 82.515625 122.570406
35.250000 81.609375 122.822143
35.850000 77.812500 123.876830
36.400000 76.656250 124.198011
35.400000 86.359375 121.652668
35.500000 84.984375 122.034613
35.250000 83.843750 122.351453
35.150000 83.125000 122.551106
35.425000 81.984375 122.867946
36.075000 78.562500 123.818467
36.550000 77.281250 124.174370
36.550000 76.109375 124.499890
36.950000 74.734375 124.881835
35.400000 86.390625 121.806388
35.500000 84.984375 122.197013
35.250000 83.984375 122.474790
35.150000 82.750000 122.817672
35.750000 82.031250 123.017325
36.175000 80.531250 123.433992
36.575000 79.828125 123.629304
36.800000 78.437500 124.015589
36.550000 77.375000 124.310728
36.525000 75.812500 124.744756
36.950000 74.750000 125.039895
35.425000 88.812500 121.281513
35.250000 87.687500 121.594013
35.450000 86.562500 121.906513
35.125000 85.531250 122.192971
34.900000 84.421875 122.501131
35.175000 83.437500 122.774569
35.550000 81.921875 123.195576
35.950000 80.843750 123.495055
36.500000 79.937500 123.746791
36.825000 78.531250 124.137416
36.650000 77.218750 124.501999
36.550000 76.500000 124.701652
36.775000 75.218750 125.057555
35.500000 88.843750 121.436680
35.350000 88.156250 121.627652
35.475000 86.843750 121.992235
35.125000 85.796875 122.283034
34.875000 84.625000 122.608555
35.175000 83.093750 123.033902
35.475000 82.125000 123.302999
35.900000 81.234375 123.550395
36.450000 79.890625 123.923659
36.775000 78.546875 124.296923
36.700000 77.312500 124.639805
36.625000 76.390625 124.895881
36.800000 75.171875 125.234423
35.325000 89.578125 121.396707
35.375000 88.531250 121.687506
35.500000 87.046875 122.099832
35.375000 83.765625 123.011291
36.700000 77.031250 124.881950
36.800000 75.812500 125.220492
35.250000 88.765625 121.770399
35.500000 87.265625 122.187066
35.575000 86.406250 122.425781
35.825000 85.109375 122.786024
35.500000 84.187500 123.042100
35.150000 82.546875 123.497829
35.725000 81.484375 123.792968
36.375000 80.578125 124.044704
37.050000 79.671875 124.296441
37.050000 78.500000 124.621961
36.725000 77.187500 124.986545
36.750000 75.953125 125.329427
37.150000 74.593750 125.707031
35.575000 88.781250 121.912993
35.525000 87.750000 122.199451
35.600000 86.281250 122.607438
35.700000 85.062500 122.945979
35.475000 84.312500 123.154313
35.375000 82.984375 123.523236
35.850000 81.718750 123.874799
36.375000 80.906250 124.100493
36.975000 79.718750 124.430354
37.000000 78.156250 124.864382
36.725000 77.187500 125.133479
36.900000 76.296875 125.380875
37.125000 74.812500 125.793201
35.475000 89.078125 121.996989
35.475000 88.312500 122.209662
35.575000 86.968750 122.582926
35.525000 86.000000 122.852023
35.425000 84.578125 123.246989
35.300000 83.453125 123.559489
35.425000 82.671875 123.776502
35.875000 81.031250 124.232232
36.400000 80.203125 124.462266
36.775000 78.796875 124.852891
36.700000 77.593750 125.187093
36.650000 76.625000 125.456190
36.900000 75.468750 125.777370
35.325000 89.734375 121.960852
35.400000 88.687500 122.251651
35.550000 87.484375 122.585852
35.425000 83.781250 123.614498
36.750000 79.156250 124.899220
36.825000 78.281250 125.142276
36.675000 76.734375 125.571963
35.250000 88.437500 122.493680
35.525000 87.453125 122.767118
35.600000 86.265625 123.096979
35.950000 85.187500 123.396458
35.275000 82.906250 124.030138
35.775000 82.125000 124.247152
36.475000 80.750000 124.629097
36.950000 79.484375 124.980659
36.775000 78.546875 125.241076
36.575000 77.281250 125.592638
36.800000 76.125000 125.913819
37.100000 75.187500 126.174236
35.700000 89.000000 122.476374
35.525000 88.140625 122.715090
35.675000 86.875000 123.066652
35.575000 85.734375 123.383492
35.375000 84.703125 123.669951
35.300000 83.593750 123.978111
35.475000 82.421875 124.303632
36.025000 81.375000 124.594430
36.725000 80.015625 124.972034
36.825000 79.109375 125.223770
36.575000 77.734375 125.605715
36.625000 76.671875 125.900854
36.900000 75.281250 126.287138
35.875000 89.234375 122.575258
35.500000 87.828125 122.965883
35.700000 86.921875 123.217619
35.875000 85.546875 123.599564
35.625000 84.656250 123.846959
35.275000 83.093750 124.280987
36.650000 78.828125 125.465883
36.500000 77.437500 125.852168
36.550000 76.343750 126.155987
36.925000 75.078125 126.507550
35.925000 89.062500 122.771561
35.625000 87.796875 123.123124
35.750000 86.750000 123.413922
35.750000 85.531250 123.752464
35.525000 84.515625 124.034582
35.300000 83.000000 124.455589
35.600000 82.218750 124.672603
36.275000 80.921875 125.032846
36.800000 79.625000 125.393089
36.725000 78.625000 125.670867
36.525000 77.562500 125.966006
36.700000 76.296875 126.317568
37.050000 75.218750 126.617047
35.500000 88.671875 123.034826
35.700000 87.546875 123.347326
35.725000 86.515625 123.633785
35.750000 85.171875 124.007048
35.600000 84.250000 124.263125
36.850000 79.406250 125.608611
36.725000 78.234375 125.934132
36.475000 77.250000 126.207569
36.725000 76.218750 126.494028
37.175000 74.859375 126.871632
35.575000 89.828125 122.869008
35.400000 88.812500 123.151126
35.675000 87.515625 123.511369
35.725000 86.640625 123.754425
35.800000 85.359375 124.110327
35.725000 84.359375 124.388105
36.100000 80.921875 125.342966
36.825000 79.734375 125.672827
36.650000 78.390625 126.046091
36.450000 77.546875 126.280466
36.675000 76.109375 126.679772
37.025000 75.062500 126.970570
36.000000 89.046875 123.241899
35.900000 87.921875 123.554399
35.675000 87.125000 123.775753
35.750000 86.078125 124.066551
35.875000 84.437500 124.522280
35.850000 83.703125 124.726274
35.900000 82.109375 125.168982
36.325000 81.281250 125.399017
36.600000 79.828125 125.802662
36.475000 78.531250 126.162905
36.350000 77.609375 126.418982
36.500000 76.703125 126.670718
36.875000 75.453125 127.017940
35.375000 88.812500 123.463102
35.650000 87.625000 123.792963
35.750000 86.562500 124.088102
35.775000 85.812500 124.296435
35.900000 84.515625 124.656678
35.950000 83.250000 125.008240
36.050000 82.328125 125.264317
36.450000 80.718750 125.711365
36.725000 79.656250 126.006504
36.550000 78.500000 126.327685
36.325000 77.500000 126.605463
36.550000 76.421875 126.904942
36.975000 75.203125 127.243484
35.550000 88.812500 123.621000
35.550000 87.765625 123.911799
35.675000 86.671875 124.215618
35.775000 85.875000 124.436972
35.900000 84.593750 124.792875
35.950000 83.453125 125.109715
36.025000 82.156250 125.469958
36.400000 81.078125 125.769438
36.675000 79.828125 126.116660
36.475000 78.656250 126.442181
36.300000 77.375000 126.798083
36.475000 76.515625 127.036799
36.900000 75.531250 127.310236
35.750000 86.859375 124.318111
35.775000 85.828125 124.604570
35.825000 84.437500 124.990855
35.850000 83.234375 125.325056
35.975000 82.265625 125.594153
36.325000 81.171875 125.897973
36.600000 80.093750 126.197452
36.425000 78.968750 126.509952
36.200000 77.921875 126.800750
36.475000 76.546875 127.182695
36.950000 75.484375 127.477834
35.625000 89.031250 123.871173
35.700000 87.734375 124.231416
35.750000 86.718750 124.513534
35.800000 85.421875 124.873777
35.825000 84.250000 125.199298
35.900000 82.843750 125.589923
36.200000 81.796875 125.880722
36.550000 80.937500 126.119437
36.400000 79.609375 126.488361
36.150000 78.093750 126.909368
36.175000 76.921875 127.234889
36.450000 75.796875 127.547389
37.050000 75.031250 127.760062
35.675000 86.921875 124.611663
35.775000 85.906250 124.893781
35.825000 84.703125 125.227982
35.875000 83.437500 125.579545
36.100000 82.312500 125.892045
36.375000 81.281250 126.178503
36.550000 80.000000 126.534406
36.450000 79.031250 126.803503
36.325000 77.734375 127.163746
36.475000 76.312500 127.558711
36.850000 75.484375 127.788746
35.800000 89.843750 123.955198
35.425000 88.828125 124.237316
35.675000 87.875000 124.502073
35.725000 86.546875 124.870996
35.775000 85.437500 125.179156
35.850000 84.375000 125.474295
35.900000 83.109375 125.825857
36.200000 82.093750 126.107975
36.550000 80.859375 126.450857
36.400000 79.281250 126.889225
36.150000 78.328125 127.153982
36.225000 77.281250 127.444781
36.475000 76.281250 127.722559
36.925000 75.000000 128.078462
35.650000 89.578125 124.184257
35.475000 88.546875 124.470716
35.650000 87.515625 124.757174
35.725000 86.671875 124.991549
35.775000 85.156250 125.412556
35.800000 83.937500 125.751097
35.875000 82.937500 126.028875
36.175000 81.781250 126.350056
36.500000 80.734375 126.640855
36.350000 79.703125 126.927313
36.125000 78.531250 127.252834
36.175000 77.078125 127.656480
36.425000 76.218750 127.895195
36.950000 75.015625 128.229396
35.650000 87.203125 124.999553
35.750000 85.875000 125.368476
35.775000 84.656250 125.707018
35.850000 83.875000 125.924032
35.850000 82.734375 126.240872
36.100000 81.609375 126.553372
36.375000 80.078125 126.978719
36.250000 78.781250 127.338963
36.150000 77.578125 127.673164
36.250000 76.843750 127.877157
36.550000 75.359375 128.289483
35.350000 88.937500 124.687952
35.450000 88.015625 124.944029
35.625000 86.531250 125.356355
35.850000 85.328125 125.690557
35.725000 84.109375 126.029098
35.500000 82.953125 126.350279
35.875000 82.234375 126.549932
36.300000 80.718750 126.970938
36.700000 79.906250 127.196633
36.525000 78.187500 127.674063
36.200000 77.031250 127.995244
36.350000 76.328125 128.190557
36.750000 75.203125 128.503057
35.850000 89.375000 124.707896
35.725000 88.453125 124.963973
35.500000 87.437500 125.246091
35.725000 85.843750 125.688799
35.375000 84.828125 125.970917
35.275000 83.687500 126.287758
36.025000 80.187500 127.259980
36.250000 79.281250 127.511716
36.125000 77.546875 127.993487
36.200000 76.406250 128.310327
36.500000 75.546875 128.549042
35.650000 89.656250 124.784978
35.625000 88.093750 125.219005
35.450000 87.203125 125.466401
35.700000 86.171875 125.752860
36.200000 80.218750 127.406505
36.300000 79.250000 127.675603
36.125000 77.906250 128.048867
36.175000 76.750000 128.370047
35.550000 89.515625 124.980821
35.600000 88.234375 125.336723
35.350000 87.015625 125.675265
35.325000 86.187500 125.905300
34.925000 84.796875 126.291584
34.850000 83.937500 126.530300
35.425000 82.718750 126.868841
35.900000 81.281250 127.268147
36.250000 80.390625 127.515543
36.400000 79.359375 127.802001
36.225000 77.875000 128.214328
36.150000 76.812500 128.509466
35.475000 89.750000 125.072911
35.500000 88.250000 125.489578
34.875000 85.062500 126.374994
34.800000 83.765625 126.735237
35.400000 82.703125 127.030376
35.800000 81.390625 127.394959
36.150000 80.187500 127.729161
36.525000 79.359375 127.959196
36.375000 78.234375 128.271696
36.150000 76.671875 128.705723
36.375000 75.593750 129.005203
36.925000 74.703125 129.252598
35.100000 87.625000 125.830783
35.150000 86.718750 126.082519
34.850000 85.437500 126.438422
34.550000 83.953125 126.850748
34.675000 82.703125 127.197971
36.225000 78.187500 128.452311
36.200000 77.187500 128.730088
36.325000 75.906250 129.085991
36.475000 75.234375 129.272623
35.150000 89.484375 125.456498
34.975000 87.734375 125.942609
35.000000 87.187500 126.094519
34.825000 85.843750 126.467783
36.275000 79.015625 128.364484
36.175000 77.406250 128.811533
36.100000 76.343750 129.106672
36.250000 75.546875 129.328026
35.150000 89.593750 125.598820
35.125000 88.265625 125.967744
35.025000 87.281250 126.241181
35.375000 86.218750 126.536320
34.525000 83.515625 127.287188
34.875000 82.531250 127.560626
35.200000 81.187500 127.933890
35.725000 80.484375 128.129202
36.250000 79.031250 128.532848
36.300000 77.890625 128.849688
36.050000 76.828125 129.144827
36.100000 75.390625 129.544133
34.925000 89.156250 125.874884
34.875000 88.000000 126.196065
35.000000 87.078125 126.452141
35.250000 85.734375 126.825405
34.475000 83.343750 127.489468
34.975000 82.406250 127.749884
35.350000 81.093750 128.114468
35.725000 79.937500 128.435648
36.175000 79.078125 128.674364
36.225000 77.468750 129.121412
36.050000 76.218750 129.468634
36.125000 75.250000 129.737732
34.850000 87.937500 126.367604
34.550000 84.187500 127.409270
34.425000 82.703125 127.821597
34.800000 81.531250 128.147117
36.050000 77.187500 129.353714
36.000000 76.265625 129.609791
36.225000 75.000000 129.961354
35.025000 89.437500 126.106847
34.925000 88.140625 126.467090
34.925000 87.390625 126.675424
34.750000 85.640625 127.161535
34.325000 84.828125 127.387229
34.250000 83.546875 127.743132
34.350000 82.437500 128.051292
34.650000 81.140625 128.411535
35.400000 77.593750 129.396778
35.950000 76.859375 129.600771
34.575000 88.718750 126.447840
34.825000 87.937500 126.664855
34.525000 84.265625 127.684820
34.275000 83.109375 128.006000
34.500000 81.781250 128.374924
36.025000 76.906250 129.729090
35.925000 76.203125 129.924403
36.200000 75.156250 130.215202
35.050000 88.984375 126.543719
34.650000 87.625000 126.921323
34.825000 86.968750 127.103614
34.775000 85.734375 127.446496
34.375000 84.578125 127.767677
34.150000 83.171875 128.158302
34.350000 82.328125 128.392677
34.675000 80.765625 128.826705
35.225000 80.078125 129.017677
35.625000 78.812500 129.369239
35.700000 77.781250 129.655698
35.775000 76.546875 129.998580
36.025000 75.156250 130.384864
34.600000 89.453125 126.576098
34.525000 88.546875 126.827834
34.725000 87.375000 127.153355
34.775000 86.000000 127.535300
35.100000 85.203125 127.756654
34.250000 82.765625 128.433737
34.475000 81.843750 128.689813
34.875000 80.750000 128.993633
35.275000 79.203125 129.423320
35.450000 78.265625 129.683737
35.600000 77.328125 129.944154
35.825000 75.734375 130.386862
36.250000 74.953125 130.603876
34.575000 88.062500 127.111532
34.775000 86.718750 127.484796
34.475000 85.140625 127.923164
34.400000 84.171875 128.192261
34.475000 82.828125 128.565525
34.400000 82.093750 128.769518
34.725000 80.531250 129.203546
35.175000 79.906250 129.377157
35.400000 78.375000 129.802504
35.475000 77.203125 130.128025
35.700000 76.453125 130.336358
36.025000 74.890625 130.770386
34.575000 88.828125 127.053966
34.650000 87.453125 127.435910
34.750000 86.500000 127.700667
34.600000 84.859375 128.156396
34.625000 83.796875 128.451535
34.625000 83.046875 128.659869
34.550000 81.921875 128.972369
34.875000 80.609375 129.336952
35.150000 79.546875 129.632091
35.325000 78.375000 129.957612
35.525000 76.968750 130.348237
35.750000 76.046875 130.604313
36.125000 75.015625 130.890771
34.500000 89.515625 127.007778
34.375000 88.343750 127.333299
34.650000 87.500000 127.567674
34.725000 85.906250 128.010382
34.675000 84.718750 128.340244
34.700000 83.718750 128.618021
34.750000 82.375000 128.991285
34.775000 81.515625 129.230000
34.950000 80.281250 129.572882
35.075000 79.218750 129.868021
35.275000 77.750000 130.276007
35.450000 76.718750 130.562466
35.675000 75.812500 130.814202
36.175000 74.718750 131.118021
34.700000 88.562500 127.427538
34.500000 87.640625 127.683614
34.675000 86.437500 128.017816
34.725000 85.328125 128.325975
34.675000 84.218750 128.634135
34.700000 82.968750 128.981357
34.875000 82.265625 129.176670
34.875000 80.890625 129.558614
34.900000 79.921875 129.827712
35.125000 78.750000 130.153232
35.400000 77.546875 130.487434
35.625000 76.406250 130.804274
35.950000 75.109375 131.164517
34.675000 89.671875 127.275375
34.550000 88.640625 127.561833
34.625000 87.453125 127.891694
34.725000 86.609375 128.126069
34.725000 85.312500 128.486312
34.750000 84.109375 128.820514
34.775000 83.093750 129.102632
35.025000 81.968750 129.415132
35.000000 80.453125 129.836139
34.925000 79.375000 130.135618
35.175000 78.015625 130.513222
35.375000 77.140625 130.756278
35.600000 75.703125 131.155583
36.025000 75.046875 131.337875
34.700000 89.765625 127.405480
34.525000 88.343750 127.800445
34.625000 87.250000 128.104264
34.650000 86.078125 128.429785
34.625000 84.953125 128.742285
34.650000 83.875000 129.041764
34.750000 82.421875 129.445410
34.825000 81.281250 129.762251
34.825000 80.546875 129.966244
34.950000 79.093750 130.369889
35.225000 78.000000 130.673709
35.425000 77.125000 130.916764
35.650000 76.000000 131.229264
36.150000 74.796875 131.563466
34.825000 89.156250 127.744221
34.600000 87.921875 128.087103
34.650000 86.671875 128.434325
34.675000 85.921875 128.642658
34.700000 84.890625 128.929117
34.750000 83.656250 129.271999
34.900000 82.359375 129.632242
34.875000 81.171875 129.962103
34.800000 79.718750 130.365749
35.000000 78.812500 130.617485
35.250000 77.515625 130.977728
35.425000 76.609375 131.229464
35.675000 75.453125 131.550645
34.750000 89.687500 127.736217
34.500000 88.796875 127.983612
34.600000 87.328125 128.391598
34.700000 85.953125 128.773543
34.675000 85.015625 129.033960
34.725000 84.140625 129.277015
34.800000 82.765625 129.658960
34.800000 81.765625 129.936737
34.800000 80.531250 130.279619
34.950000 79.187500 130.652883
35.200000 78.250000 130.913300
35.400000 76.828125 131.308265
35.625000 75.562500 131.659828
36.050000 74.906250 131.842119
34.625000 89.546875 127.933947
34.550000 88.812500 128.137940
34.650000 87.296875 128.558947
34.700000 86.093750 128.893149
34.725000 85.281250 129.118843
34.750000 84.187500 129.422662
34.775000 82.812500 129.804607
34.925000 81.781250 130.091065
34.900000 80.812500 130.360162
34.875000 79.375000 130.759468
35.125000 78.359375 131.041586
35.400000 77.156250 131.375787
35.550000 75.750000 131.766412
35.825000 74.906250 132.000787
34.525000 88.296875 128.435142
34.625000 87.515625 128.652156
34.700000 86.140625 129.034101
34.775000 85.312500 129.264135
34.800000 83.671875 129.719864
34.875000 82.593750 130.019344
34.875000 81.671875 130.275420
34.800000 80.468750 130.609621
34.950000 79.046875 131.004587
35.175000 77.828125 131.343128
35.375000 76.812500 131.625246
35.600000 76.078125 131.829239
36.025000 74.906250 132.154760
34.775000 87.109375 128.924001
34.775000 86.109375 129.201779
34.800000 84.531250 129.640147
34.875000 83.968750 129.796397
35.025000 82.250000 130.273827
34.975000 81.390625 130.512543
34.925000 80.390625 130.790320
35.075000 78.718750 131.254730
35.225000 77.640625 131.554209
35.425000 76.859375 131.771223
35.650000 75.406250 132.174869
36.100000 74.359375 132.465668
35.200000 89.812500 128.326306
34.675000 88.343750 128.734292
34.650000 87.046875 129.094535
34.725000 86.281250 129.307209
34.800000 84.734375 129.736897
34.850000 83.921875 129.962591
35.050000 82.531250 130.348876
35.000000 81.234375 130.709119
34.825000 80.468750 130.921792
34.975000 78.828125 131.377522
35.200000 77.984375 131.611897
35.375000 76.953125 131.898355
35.625000 75.453125 132.315022
36.050000 74.703125 132.523355
35.000000 89.437500 128.591705
34.625000 87.953125 129.004031
34.800000 86.906250 129.294830
34.850000 86.015625 129.542226
34.900000 84.468750 129.971913
34.950000 83.125000 130.345177
35.200000 82.171875 130.609934
35.200000 81.328125 130.844309
34.975000 80.156250 131.169830
35.075000 78.531250 131.621219
35.300000 77.578125 131.885976
35.475000 76.531250 132.176775
35.725000 75.500000 132.463233
34.875000 88.828125 128.912041
34.775000 87.484375 129.285305
34.800000 86.234375 129.632527
34.825000 84.984375 129.979749
34.925000 83.953125 130.266207
35.025000 82.781250 130.591728
34.950000 81.796875 130.865166
34.925000 80.187500 131.312214
35.075000 79.312500 131.555270
35.200000 78.437500 131.798326
35.375000 77.156250 132.154228
35.650000 76.062500 132.458048
36.050000 74.703125 132.835652
35.375000 89.562500 128.865771
34.750000 88.250000 129.230355
34.725000 87.203125 129.521153
34.775000 85.937500 129.872716
34.800000 84.578125 130.250320
34.875000 83.468750 130.558480
35.100000 82.734375 130.762473
35.050000 81.546875 131.092334
34.925000 80.515625 131.378792
35.075000 79.062500 131.782438
35.250000 77.843750 132.120980
35.500000 76.859375 132.394417
35.725000 75.421875 132.793723
36.100000 74.375000 133.084521
34.800000 86.906250 129.770008
34.850000 85.546875 130.147613
34.900000 84.437500 130.455772
34.950000 83.468750 130.724869
35.200000 82.234375 131.067751
35.175000 81.250000 131.341189
35.000000 79.734375 131.762196
35.200000 78.984375 131.970529
35.350000 77.750000 132.313411
35.550000 76.437500 132.677994
35.825000 75.125000 133.042578
34.800000 86.625000 129.996085
34.850000 85.500000 130.308585
34.900000 84.734375 130.521259
34.950000 83.343750 130.907543
35.200000 82.171875 131.233064
35.200000 80.812500 131.610668
34.975000 80.093750 131.810321
35.175000 78.984375 132.118481
35.375000 77.609375 132.500425
35.575000 76.546875 132.795564
35.825000 74.953125 133.238272
34.600000 88.500000 129.637749
34.850000 87.687500 129.863444
34.825000 86.203125 130.275770
34.875000 85.078125 130.588270
34.975000 83.890625 130.918131
35.075000 82.453125 131.317437
35.075000 81.250000 131.651638
35.050000 80.156250 131.955458
35.175000 79.359375 132.176812
35.375000 77.953125 132.567437
35.575000 76.812500 132.884277
35.800000 75.859375 133.149034
36.200000 74.562500 133.509277
34.800000 89.281250 129.568367
34.600000 88.453125 129.798401
34.850000 87.531250 130.054478
34.850000 85.828125 130.527568
34.900000 84.671875 130.848749
34.950000 83.796875 131.091804
35.050000 82.593750 131.426006
35.150000 81.609375 131.699443
35.100000 80.140625 132.107429
35.175000 79.343750 132.328783
35.400000 77.828125 132.749790
35.575000 76.937500 132.997186
35.825000 75.937500 133.274964
36.300000 74.828125 133.583124
34.825000 88.500000 129.949121
34.750000 87.421875 130.248600
34.875000 86.250000 130.574121
34.950000 85.343750 130.825856
35.050000 84.421875 131.081933
35.125000 83.171875 131.429155
35.325000 81.906250 131.780718
35.275000 80.625000 132.136621
35.150000 79.437500 132.466481
35.425000 78.515625 132.722558
35.625000 76.906250 133.169606
35.825000 76.203125 133.364919
36.200000 75.171875 133.651377
35.025000 89.250000 129.892021
34.800000 88.250000 130.169799
34.825000 87.125000 130.482299
34.950000 85.453125 130.946708
35.050000 84.468750 131.220146
35.100000 83.515625 131.484903
35.150000 81.968750 131.914590
35.200000 81.156250 132.140285
35.250000 79.921875 132.483167
35.400000 78.750000 132.808687
35.600000 77.468750 133.164590
35.825000 76.421875 133.455389
36.100000 75.578125 133.689764
34.775000 89.718750 129.923001
34.700000 88.265625 130.326646
34.825000 87.109375 130.647827
34.975000 86.390625 130.847480
35.100000 85.062500 131.216403
35.050000 84.187500 131.459459
35.075000 82.843750 131.832723
35.250000 81.671875 132.158244
35.275000 80.187500 132.570570
35.350000 79.328125 132.809285
35.600000 78.156250 133.134806
35.800000 76.859375 133.495049
36.000000 76.000000 133.733764
36.500000 74.484375 134.154771
35.050000 89.015625 130.265892
34.875000 87.875000 130.582732
35.025000 86.484375 130.969017
35.100000 85.203125 131.324919
35.075000 84.312500 131.572315
35.075000 83.078125 131.915197
35.125000 81.718750 132.292802
35.450000 80.968750 132.501135
35.625000 79.484375 132.913461
35.525000 78.734375 133.121794
35.750000 77.500000 133.464677
36.000000 76.390625 133.772836
36.300000 75.328125 134.067975
35.025000 89.265625 130.361272
34.925000 87.796875 130.769258
35.050000 87.250000 130.921168
35.150000 85.765625 131.333494
35.075000 84.578125 131.663355
34.900000 83.625000 131.928112
34.950000 82.421875 132.262314
35.125000 81.078125 132.635578
35.350000 79.828125 132.982800
35.600000 78.625000 133.317001
35.825000 77.906250 133.516654
35.950000 76.703125 133.850855
36.250000 75.640625 134.145994
35.200000 89.156250 130.535331
35.025000 87.531250 130.986720
35.050000 86.734375 131.208075
35.125000 85.843750 131.455470
35.475000 84.375000 131.863456
35.275000 83.156250 132.201998
34.925000 81.875000 132.557901
35.200000 80.812500 132.853040
35.525000 79.703125 133.161200
35.725000 78.859375 133.395575
35.850000 77.453125 133.786200
36.075000 76.484375 134.055297
36.450000 75.312500 134.380818
34.825000 89.312500 130.659126
34.875000 88.625000 130.850098
35.150000 87.484375 131.166938
35.225000 86.125000 131.544542
35.125000 84.812500 131.909126
34.825000 83.578125 132.252007
34.800000 82.250000 132.620931
35.050000 81.546875 132.816243
35.350000 80.468750 133.115723
35.700000 79.250000 133.454264
35.925000 77.906250 133.827528
36.000000 76.718750 134.157389
36.225000 75.437500 134.513292
35.225000 89.109375 130.866590
35.100000 87.765625 131.239854
35.200000 86.875000 131.487250
35.000000 83.046875 132.550618
34.850000 81.906250 132.867458
35.475000 78.843750 133.718153
35.975000 77.359375 134.130479
36.075000 76.250000 134.438639
36.450000 75.515625 134.642632
35.225000 88.796875 131.114763
35.175000 87.765625 131.401222
35.275000 86.046875 131.878652
35.075000 85.343750 132.073965
34.775000 83.984375 132.451569
34.825000 82.890625 132.755388
35.025000 81.609375 133.111291
35.575000 78.062500 134.096534
36.150000 76.953125 134.404694
36.350000 75.890625 134.699833
36.900000 74.671875 135.038374
35.250000 89.265625 131.131423
35.150000 88.421875 131.365798
35.225000 86.875000 131.795485
35.050000 83.515625 132.728645
34.900000 82.609375 132.980381
35.100000 81.359375 133.327603
35.575000 80.296875 133.622742
36.300000 78.890625 134.013367
36.425000 77.828125 134.308506
36.225000 76.531250 134.668749
36.500000 75.437500 134.972569
35.300000 88.671875 131.459179
35.075000 87.796875 131.702235
35.325000 86.703125 132.006054
34.850000 85.265625 132.405360
34.625000 84.515625 132.613693
35.025000 83.171875 132.986957
35.175000 82.015625 133.308137
35.425000 80.625000 133.694422
36.000000 79.859375 133.907096
36.450000 78.750000 134.215255
36.425000 77.562500 134.545117
36.425000 76.125000 134.944422
36.700000 74.984375 135.261262
35.400000 86.531250 132.207753
35.700000 85.265625 132.559315
35.400000 83.796875 132.967301
34.900000 82.640625 133.288482
35.200000 81.468750 133.614003
35.975000 78.421875 134.460357
36.500000 77.156250 134.811919
36.600000 75.828125 135.180843
37.100000 74.750000 135.480322
35.250000 89.328125 131.587176
35.250000 88.390625 131.847593
35.325000 86.859375 132.272940
35.200000 83.687500 133.154017
36.625000 79.281250 134.377975
36.700000 77.921875 134.755579
36.525000 76.796875 135.068079
36.650000 75.625000 135.393600
35.400000 86.765625 132.456303
35.425000 85.218750 132.885991
35.200000 84.046875 133.211512
35.250000 83.015625 133.497970
35.825000 81.937500 133.797449
36.225000 80.546875 134.183734
36.625000 79.765625 134.400748
36.900000 78.500000 134.752310
36.625000 77.296875 135.086512
36.550000 75.875000 135.481477
36.900000 75.218750 135.663769
35.525000 88.609375 132.097451
35.300000 88.015625 132.262381
35.500000 86.640625 132.644326
35.275000 85.500000 132.961166
34.975000 84.156250 133.334430
35.175000 82.937500 133.672972
35.700000 82.046875 133.920367
36.125000 80.734375 134.284951
36.650000 80.015625 134.484604
36.900000 78.593750 134.879569
36.650000 77.218750 135.261513
36.600000 76.234375 135.534951
36.900000 75.265625 135.804048
35.225000 89.281250 132.070225
35.325000 88.296875 132.343663
35.475000 87.203125 132.647482
35.300000 83.875000 133.571961
36.625000 76.656250 135.577170
36.725000 75.687500 135.846267
35.675000 89.078125 132.278705
35.325000 87.593750 132.691032
35.500000 86.484375 132.999192
35.375000 85.187500 133.359435
35.075000 84.125000 133.654573
35.200000 83.281250 133.888948
35.725000 81.734375 134.318636
36.125000 80.765625 134.587733
36.625000 79.687500 134.887212
36.875000 78.562500 135.199712
36.750000 77.156250 135.590337
36.800000 76.265625 135.837733
37.000000 75.031250 136.180615
35.550000 89.468750 132.329324
35.450000 87.843750 132.780713
