35.950000 82.078125 0.074246
35.650000 83.562500 0.074246
35.625000 84.593750 0.074246
36.125000 85.968750 0.074246
36.350000 87.359375 0.074246
36.050000 88.531250 0.074246
35.875000 90.031250 0.074246
35.900000 91.453125 0.074246
36.050000 92.156250 0.074246
36.150000 93.453125 0.074246
36.325000 95.046875 0.074246
36.550000 97.703125 0.074246
36.075000 81.671875 0.219705
35.725000 82.906250 0.219705
35.550000 84.468750 0.219705
35.650000 85.593750 0.219705
36.025000 86.812500 0.219705
36.050000 87.890625 0.219705
35.750000 89.140625 0.219705
35.875000 90.765625 0.219705
36.000000 91.937500 0.219705
36.000000 93.312500 0.219705
36.125000 94.687500 0.219705
36.600000 95.375000 0.219705
36.775000 96.843750 0.219705
35.750000 82.953125 0.371729
35.600000 83.796875 0.371729
35.700000 85.468750 0.371729
36.075000 86.312500 0.371729
35.975000 87.703125 0.371729
35.575000 89.343750 0.371729
35.550000 90.578125 0.371729
35.500000 91.828125 0.371729
35.750000 92.968750 0.371729
36.075000 94.406250 0.371729
36.425000 95.546875 0.371729
35.950000 82.140625 0.511288
35.625000 83.718750 0.511288
35.625000 84.781250 0.511288
36.100000 85.890625 0.511288
36.100000 87.234375 0.511288
35.750000 88.937500 0.511288
35.475000 89.984375 0.511288
35.175000 91.562500 0.511288
35.325000 92.437500 0.511288
35.725000 93.921875 0.511288
36.050000 95.015625 0.511288
35.700000 83.000000 0.652148
35.550000 84.281250 0.652148
35.650000 85.203125 0.652148
35.950000 86.890625 0.652148
35.950000 87.921875 0.652148
35.625000 89.156250 0.652148
35.325000 90.562500 0.652148
35.150000 91.906250 0.652148
35.525000 93.187500 0.652148
35.925000 94.406250 0.652148
36.350000 95.671875 0.652148
36.500000 96.625000 0.652148
35.750000 82.859375 0.806369
35.625000 84.125000 0.806369
35.800000 84.796875 0.806369
36.075000 86.125000 0.806369
35.950000 87.562500 0.806369
35.525000 88.875000 0.806369
35.275000 90.125000 0.806369
35.175000 91.296875 0.806369
35.225000 93.062500 0.806369
35.625000 93.843750 0.806369
36.100000 95.187500 0.806369
36.350000 96.234375 0.806369
36.300000 98.031250 0.806369
35.775000 82.453125 0.949260
35.600000 83.593750 0.949260
35.750000 84.390625 0.949260
36.050000 85.609375 0.949260
35.950000 87.312500 0.949260
35.700000 88.671875 0.949260
35.525000 89.546875 0.949260
35.150000 91.437500 0.949260
35.175000 92.468750 0.949260
35.625000 93.421875 0.949260
35.675000 82.765625 1.098692
35.725000 83.906250 1.098692
35.875000 85.296875 1.098692
36.000000 86.359375 1.098692
35.800000 88.046875 1.098692
35.475000 89.515625 1.098692
35.275000 90.234375 1.098692
35.175000 91.515625 1.098692
35.525000 93.078125 1.098692
35.900000 94.218750 1.098692
36.250000 95.343750 1.098692
35.650000 82.796875 1.237053
35.625000 83.921875 1.237053
35.950000 85.000000 1.237053
36.175000 86.468750 1.237053
35.875000 87.765625 1.237053
35.550000 89.078125 1.237053
35.150000 90.140625 1.237053
34.975000 91.609375 1.237053
35.475000 92.671875 1.237053
35.825000 93.875000 1.237053
36.075000 95.265625 1.237053
36.325000 96.171875 1.237053
36.250000 97.843750 1.237053
35.850000 81.968750 1.380331
35.600000 83.234375 1.380331
35.825000 84.718750 1.380331
36.025000 85.828125 1.380331
35.825000 87.343750 1.380331
35.525000 88.812500 1.380331
35.100000 89.593750 1.380331
34.900000 91.375000 1.380331
35.150000 92.562500 1.380331
35.600000 93.250000 1.380331
36.100000 97.437500 1.380331
31.250000 109.562500 1.380331
35.675000 82.953125 1.532949
35.650000 84.359375 1.532949
35.750000 85.546875 1.532949
35.825000 86.796875 1.532949
35.625000 87.968750 1.532949
35.525000 89.093750 1.532949
35.275000 90.625000 1.532949
35.125000 91.734375 1.532949
35.625000 93.421875 1.532949
35.875000 94.171875 1.532949
36.250000 95.859375 1.532949
35.950000 82.359375 1.675322
35.600000 83.265625 1.675322
35.825000 84.515625 1.675322
36.025000 86.156250 1.675322
35.650000 87.281250 1.675322
35.200000 88.546875 1.675322
34.900000 89.781250 1.675322
34.850000 90.859375 1.675322
35.300000 92.546875 1.675322
35.750000 93.625000 1.675322
36.250000 97.093750 1.675322
31.250000 109.953125 1.675322
35.750000 82.437500 1.819849
35.725000 84.140625 1.819849
35.900000 85.062500 1.819849
36.000000 86.453125 1.819849
35.550000 87.796875 1.819849
35.000000 89.437500 1.819849
34.875000 90.437500 1.819849
35.100000 91.609375 1.819849
35.725000 92.640625 1.819849
36.050000 93.906250 1.819849
36.175000 95.562500 1.819849
36.350000 96.781250 1.819849
36.775000 97.765625 1.819849
31.875000 108.828125 1.819849
35.975000 82.125000 1.958257
35.625000 83.015625 1.958257
35.700000 84.609375 1.958257
35.800000 86.078125 1.958257
35.550000 87.093750 1.958257
35.125000 88.515625 1.958257
34.875000 89.500000 1.958257
35.025000 90.781250 1.958257
35.600000 92.375000 1.958257
35.950000 93.390625 1.958257
36.300000 96.937500 1.958257
35.800000 82.562500 2.112099
35.700000 84.203125 2.112099
35.700000 85.156250 2.112099
35.625000 86.515625 2.112099
35.300000 88.234375 2.112099
34.950000 89.125000 2.112099
35.025000 90.703125 2.112099
35.475000 91.500000 2.112099
35.825000 93.218750 2.112099
35.875000 94.250000 2.112099
36.150000 95.640625 2.112099
36.450000 96.734375 2.112099
36.025000 82.359375 2.256391
35.800000 83.656250 2.256391
35.675000 85.031250 2.256391
35.600000 86.546875 2.256391
35.400000 87.328125 2.256391
35.150000 88.765625 2.256391
35.125000 89.968750 2.256391
35.375000 91.656250 2.256391
35.750000 92.484375 2.256391
35.925000 93.781250 2.256391
36.075000 94.937500 2.256391
36.450000 96.171875 2.256391
36.575000 97.812500 2.256391
32.000000 108.765625 2.256391
36.100000 82.171875 2.393031
35.825000 83.546875 2.393031
35.725000 85.015625 2.393031
35.700000 85.875000 2.393031
35.500000 87.296875 2.393031
35.275000 88.515625 2.393031
35.275000 90.078125 2.393031
35.425000 90.812500 2.393031
35.750000 92.296875 2.393031
35.925000 93.812500 2.393031
36.000000 95.046875 2.393031
36.525000 96.265625 2.393031
35.900000 82.906250 2.548625
35.750000 84.468750 2.548625
35.725000 85.500000 2.548625
35.650000 86.890625 2.548625
35.450000 88.156250 2.548625
35.425000 89.578125 2.548625
35.600000 90.531250 2.548625
35.800000 92.078125 2.548625
35.975000 93.156250 2.548625
36.100000 94.343750 2.548625
36.375000 95.750000 2.548625
36.675000 96.734375 2.548625
36.000000 82.656250 2.691272
35.800000 83.765625 2.691272
35.700000 85.109375 2.691272
35.625000 86.781250 2.691272
35.500000 87.718750 2.691272
35.550000 89.031250 2.691272
35.725000 90.578125 2.691272
35.850000 91.734375 2.691272
35.950000 92.859375 2.691272
36.050000 94.015625 2.691272
36.350000 95.609375 2.691272
31.850000 109.031250 2.691272
36.150000 82.515625 2.829798
35.800000 83.750000 2.829798
35.700000 85.171875 2.829798
35.625000 86.015625 2.829798
35.625000 87.546875 2.829798
35.625000 89.031250 2.829798
35.700000 89.984375 2.829798
35.875000 91.468750 2.829798
35.925000 92.734375 2.829798
36.050000 93.875000 2.829798
36.200000 95.000000 2.829798
36.450000 96.062500 2.829798
36.250000 97.515625 2.829798
35.900000 82.906250 2.969902
35.750000 84.093750 2.969902
35.725000 85.359375 2.969902
35.625000 86.843750 2.969902
35.575000 87.859375 2.969902
35.700000 89.281250 2.969902
35.825000 90.703125 2.969902
35.925000 91.671875 2.969902
36.000000 93.187500 2.969902
36.175000 94.343750 2.969902
36.550000 95.312500 2.969902
36.675000 97.031250 2.969902
36.125000 82.203125 3.128373
35.800000 83.515625 3.128373
35.700000 85.328125 3.128373
35.725000 86.109375 3.128373
35.750000 87.859375 3.128373
35.625000 88.828125 3.128373
35.725000 90.125000 3.128373
35.950000 91.640625 3.128373
36.100000 92.875000 3.128373
36.225000 93.984375 3.128373
36.450000 95.250000 3.128373
36.775000 97.671875 3.128373
31.950000 108.640625 3.128373
36.300000 82.375000 3.266655
35.850000 83.531250 3.266655
35.800000 84.734375 3.266655
35.775000 85.859375 3.266655
35.725000 87.531250 3.266655
35.625000 88.828125 3.266655
35.750000 89.562500 3.266655
36.000000 90.843750 3.266655
36.150000 92.046875 3.266655
36.275000 93.546875 3.266655
36.400000 94.734375 3.266655
36.300000 81.812500 3.406459
35.875000 83.109375 3.406459
35.825000 84.562500 3.406459
35.800000 85.937500 3.406459
35.725000 87.406250 3.406459
35.625000 88.312500 3.406459
35.775000 89.562500 3.406459
36.025000 90.796875 3.406459
36.150000 92.031250 3.406459
36.275000 93.703125 3.406459
36.400000 94.531250 3.406459
36.075000 97.234375 3.406459
36.000000 83.125000 3.564765
35.875000 84.000000 3.564765
35.875000 85.671875 3.564765
35.925000 86.578125 3.564765
35.925000 87.875000 3.564765
36.000000 89.421875 3.564765
36.100000 90.421875 3.564765
36.200000 91.640625 3.564765
36.325000 93.078125 3.564765
36.450000 94.546875 3.564765
36.850000 95.625000 3.564765
37.050000 96.734375 3.564765
36.200000 82.375000 3.701110
36.025000 84.015625 3.701110
35.975000 85.250000 3.701110
35.950000 86.218750 3.701110
35.950000 87.906250 3.701110
35.900000 88.921875 3.701110
36.000000 90.250000 3.701110
36.225000 91.484375 3.701110
36.350000 92.578125 3.701110
36.450000 93.906250 3.701110
36.750000 95.140625 3.701110
36.400000 82.265625 3.839742
36.075000 83.359375 3.839742
36.000000 84.328125 3.839742
36.000000 86.015625 3.839742
36.000000 86.906250 3.839742
36.025000 88.328125 3.839742
36.125000 89.812500 3.839742
36.225000 90.625000 3.839742
36.325000 92.031250 3.839742
36.450000 93.187500 3.839742
37.000000 96.859375 3.839742
36.200000 82.421875 4.002920
36.025000 84.093750 4.002920
36.000000 84.937500 4.002920
36.025000 86.437500 4.002920
36.050000 87.578125 4.002920
36.025000 88.843750 4.002920
36.125000 90.265625 4.002920
36.350000 91.437500 4.002920
36.475000 92.921875 4.002920
36.575000 94.234375 4.002920
36.975000 95.265625 4.002920
36.125000 82.953125 4.135492
36.075000 84.125000 4.135492
36.075000 85.515625 4.135492
36.050000 87.156250 4.135492
36.075000 88.171875 4.135492
36.225000 89.234375 4.135492
36.325000 90.500000 4.135492
36.425000 91.703125 4.135492
36.525000 93.343750 4.135492
36.450000 82.265625 4.290114
36.225000 83.718750 4.290114
36.125000 84.796875 4.290114
36.100000 86.187500 4.290114
36.050000 87.578125 4.290114
35.925000 88.843750 4.290114
36.125000 89.906250 4.290114
36.425000 91.171875 4.290114
36.550000 92.718750 4.290114
36.650000 93.843750 4.290114
36.900000 95.140625 4.290114
36.475000 81.968750 4.427435
36.225000 83.421875 4.427435
36.100000 84.500000 4.427435
36.000000 85.750000 4.427435
36.075000 86.906250 4.427435
36.200000 88.453125 4.427435
36.325000 89.578125 4.427435
36.450000 90.671875 4.427435
36.550000 92.390625 4.427435
36.650000 93.203125 4.427435
36.825000 94.656250 4.427435
37.400000 95.843750 4.427435
37.325000 97.406250 4.427435
36.350000 82.828125 4.581154
36.200000 84.109375 4.581154
36.150000 85.390625 4.581154
36.125000 86.515625 4.581154
36.150000 88.296875 4.581154
36.250000 89.359375 4.581154
36.400000 90.390625 4.581154
36.500000 91.625000 4.581154
36.600000 93.031250 4.581154
37.275000 96.531250 4.581154
36.425000 82.328125 4.722489
36.250000 83.906250 4.722489
36.225000 85.343750 4.722489
36.175000 86.609375 4.722489
36.175000 87.828125 4.722489
36.200000 89.203125 4.722489
36.325000 90.109375 4.722489
36.550000 91.265625 4.722489
36.575000 92.937500 4.722489
36.675000 93.875000 4.722489
37.125000 95.171875 4.722489
37.450000 96.234375 4.722489
36.700000 82.171875 4.862770
36.350000 83.375000 4.862770
36.250000 84.906250 4.862770
36.275000 85.765625 4.862770
36.300000 87.156250 4.862770
36.325000 88.703125 4.862770
36.375000 89.796875 4.862770
36.475000 90.968750 4.862770
36.550000 92.125000 4.862770
36.650000 93.593750 4.862770
36.825000 94.937500 4.862770
37.325000 95.859375 4.862770
31.300000 109.703125 4.862770
36.525000 82.843750 5.002242
36.325000 84.000000 5.002242
36.300000 85.296875 5.002242
36.250000 86.296875 5.002242
36.250000 87.984375 5.002242
36.225000 88.812500 5.002242
36.325000 90.437500 5.002242
36.550000 91.640625 5.002242
36.650000 92.765625 5.002242
36.750000 93.890625 5.002242
37.125000 95.265625 5.002242
36.425000 83.125000 5.157715
36.375000 84.484375 5.157715
36.350000 85.718750 5.157715
36.300000 86.921875 5.157715
36.350000 88.406250 5.157715
36.450000 89.718750 5.157715
36.550000 90.656250 5.157715
36.625000 91.859375 5.157715
36.725000 93.234375 5.157715
37.250000 96.796875 5.157715
36.650000 82.500000 5.297845
36.425000 83.937500 5.297845
36.400000 84.859375 5.297845
36.325000 86.156250 5.297845
36.250000 87.375000 5.297845
36.175000 88.640625 5.297845
36.350000 90.125000 5.297845
36.550000 91.609375 5.297845
36.575000 92.484375 5.297845
36.675000 93.843750 5.297845
37.025000 95.171875 5.297845
32.025000 108.796875 5.297845
36.525000 82.671875 5.453191
36.325000 83.781250 5.453191
36.300000 85.484375 5.453191
36.250000 86.656250 5.453191
36.250000 87.906250 5.453191
36.325000 88.921875 5.453191
36.450000 90.375000 5.453191
36.600000 91.734375 5.453191
36.675000 92.875000 5.453191
36.800000 94.171875 5.453191
37.200000 95.484375 5.453191
37.550000 96.390625 5.453191
36.625000 82.531250 5.593088
36.400000 83.843750 5.593088
36.375000 85.046875 5.593088
36.325000 86.437500 5.593088
36.225000 87.531250 5.593088
36.200000 88.578125 5.593088
36.375000 90.296875 5.593088
36.550000 91.015625 5.593088
36.600000 92.265625 5.593088
36.675000 93.718750 5.593088
37.000000 95.015625 5.593088
36.425000 83.265625 5.733013
36.375000 84.593750 5.733013
36.375000 85.328125 5.733013
36.300000 86.984375 5.733013
36.300000 88.250000 5.733013
36.425000 89.250000 5.733013
36.525000 90.625000 5.733013
36.525000 91.828125 5.733013
36.625000 93.265625 5.733013
37.250000 96.968750 5.733013
36.625000 82.359375 5.874112
36.425000 84.000000 5.874112
36.400000 84.968750 5.874112
36.325000 86.140625 5.874112
36.250000 87.609375 5.874112
36.275000 88.656250 5.874112
36.450000 90.359375 5.874112
36.550000 91.343750 5.874112
36.600000 92.750000 5.874112
36.675000 94.031250 5.874112
37.100000 95.078125 5.874112
32.000000 108.656250 5.874112
36.550000 82.875000 6.031200
36.425000 83.984375 6.031200
36.375000 85.718750 6.031200
36.300000 86.593750 6.031200
36.250000 87.890625 6.031200
36.350000 89.406250 6.031200
36.500000 90.703125 6.031200
36.550000 92.046875 6.031200
36.625000 92.953125 6.031200
37.125000 97.015625 6.031200
36.750000 82.375000 6.170357
36.500000 83.625000 6.170357
36.450000 84.953125 6.170357
36.375000 85.828125 6.170357
36.300000 87.250000 6.170357
36.300000 88.375000 6.170357
36.375000 89.609375 6.170357
36.500000 91.187500 6.170357
36.575000 92.250000 6.170357
36.675000 93.406250 6.170357
36.925000 94.984375 6.170357
37.300000 97.250000 6.170357
36.500000 82.984375 6.310290
36.450000 84.109375 6.310290
36.375000 85.359375 6.310290
36.300000 86.875000 6.310290
36.200000 88.125000 6.310290
36.300000 89.500000 6.310290
36.500000 90.687500 6.310290
36.600000 91.703125 6.310290
36.700000 93.421875 6.310290
37.100000 96.953125 6.310290
36.625000 82.343750 6.451621
36.425000 83.484375 6.451621
36.400000 85.203125 6.451621
36.325000 86.531250 6.451621
36.225000 87.937500 6.451621
36.300000 88.875000 6.451621
36.450000 90.421875 6.451621
36.550000 91.468750 6.451621
36.625000 92.750000 6.451621
36.725000 94.125000 6.451621
37.025000 95.000000 6.451621
32.000000 108.906250 6.451621
36.800000 81.875000 6.604752
36.525000 83.187500 6.604752
36.475000 84.312500 6.604752
36.400000 85.781250 6.604752
36.300000 86.968750 6.604752
36.375000 88.296875 6.604752
36.450000 89.500000 6.604752
36.500000 90.875000 6.604752
36.575000 92.468750 6.604752
36.650000 93.593750 6.604752
36.825000 94.718750 6.604752
36.575000 97.328125 6.604752
36.550000 82.625000 6.760249
36.450000 83.859375 6.760249
36.450000 85.296875 6.760249
36.350000 86.593750 6.760249
36.250000 87.921875 6.760249
36.300000 89.359375 6.760249
36.450000 90.609375 6.760249
36.600000 91.531250 6.760249
36.675000 93.015625 6.760249
36.750000 94.390625 6.760249
37.175000 95.437500 6.760249
37.450000 96.671875 6.760249
36.625000 82.437500 6.899349
36.425000 83.687500 6.899349
36.400000 84.828125 6.899349
36.325000 86.312500 6.899349
36.250000 87.500000 6.899349
36.175000 88.750000 6.899349
36.150000 90.328125 6.899349
36.350000 91.125000 6.899349
36.600000 92.781250 6.899349
36.675000 93.843750 6.899349
37.075000 94.890625 6.899349
36.500000 83.406250 7.039198
36.475000 84.562500 7.039198
36.400000 85.468750 7.039198
36.125000 87.312500 7.039198
35.975000 88.296875 7.039198
36.050000 89.437500 7.039198
36.325000 91.000000 7.039198
36.600000 92.171875 7.039198
36.675000 93.031250 7.039198
37.000000 96.890625 7.039198
36.600000 82.640625 7.184736
36.425000 83.687500 7.184736
36.325000 85.312500 7.184736
36.350000 86.578125 7.184736
36.225000 87.500000 7.184736
35.925000 89.093750 7.184736
35.950000 90.593750 7.184736
36.350000 91.640625 7.184736
36.650000 92.734375 7.184736
36.725000 94.312500 7.184736
37.000000 95.203125 7.184736
31.875000 108.796875 7.184736
36.525000 83.078125 7.332760
36.400000 84.484375 7.332760
36.325000 85.687500 7.332760
36.300000 86.859375 7.332760
36.075000 88.328125 7.332760
35.850000 89.765625 7.332760
36.075000 90.765625 7.332760
36.450000 92.015625 7.332760
36.650000 93.484375 7.332760
36.725000 94.406250 7.332760
37.025000 97.203125 7.332760
36.600000 82.812500 7.475096
36.425000 83.906250 7.475096
36.325000 85.390625 7.475096
36.275000 86.687500 7.475096
36.050000 87.703125 7.475096
35.775000 89.000000 7.475096
35.975000 90.703125 7.475096
36.525000 91.437500 7.475096
36.750000 93.234375 7.475096
36.675000 94.453125 7.475096
37.075000 95.343750 7.475096
37.350000 96.968750 7.475096
36.500000 83.328125 7.618600
36.375000 84.796875 7.618600
36.325000 85.812500 7.618600
36.150000 87.312500 7.618600
35.875000 88.515625 7.618600
35.725000 89.734375 7.618600
35.775000 91.140625 7.618600
36.225000 92.515625 7.618600
36.650000 93.515625 7.618600
36.725000 94.515625 7.618600
36.625000 82.421875 7.773542
36.400000 84.046875 7.773542
36.375000 85.203125 7.773542
36.325000 86.109375 7.773542
36.075000 87.828125 7.773542
35.800000 89.296875 7.773542
35.850000 90.140625 7.773542
36.275000 91.468750 7.773542
36.600000 92.656250 7.773542
36.675000 93.687500 7.773542
36.975000 95.343750 7.773542
36.625000 82.406250 7.912423
36.400000 83.843750 7.912423
36.375000 85.328125 7.912423
36.575000 86.265625 7.912423
36.300000 87.937500 7.912423
35.825000 89.140625 7.912423
35.925000 90.546875 7.912423
36.325000 91.703125 7.912423
36.625000 92.750000 7.912423
36.675000 93.890625 7.912423
36.875000 95.015625 7.912423
31.925000 108.750000 7.912423
36.475000 83.500000 8.058023
36.350000 84.406250 8.058023
36.400000 85.921875 8.058023
36.225000 87.421875 8.058023
35.900000 88.640625 8.058023
35.825000 89.468750 8.058023
36.175000 93.734375 8.058023
36.625000 94.984375 8.058023
36.875000 96.062500 8.058023
36.575000 82.968750 8.205744
36.400000 84.187500 8.205744
36.325000 84.968750 8.205744
36.525000 86.531250 8.205744
36.300000 87.906250 8.205744
36.050000 89.140625 8.205744
36.125000 90.281250 8.205744
36.400000 91.343750 8.205744
36.700000 92.984375 8.205744
36.625000 94.093750 8.205744
36.950000 95.125000 8.205744
31.850000 108.953125 8.205744
36.450000 83.515625 8.344586
36.375000 84.515625 8.344586
36.250000 86.062500 8.344586
36.075000 87.265625 8.344586
35.675000 88.484375 8.344586
35.525000 89.921875 8.344586
35.975000 91.093750 8.344586
36.400000 92.218750 8.344586
36.550000 93.218750 8.344586
36.600000 94.843750 8.344586
36.850000 97.312500 8.344586
36.525000 82.343750 8.489456
36.375000 83.671875 8.489456
36.475000 84.875000 8.489456
36.800000 86.156250 8.489456
36.500000 88.000000 8.489456
36.525000 88.734375 8.489456
36.025000 91.562500 8.489456
36.400000 92.656250 8.489456
36.550000 94.250000 8.489456
36.850000 95.218750 8.489456
31.875000 108.859375 8.489456
36.650000 82.156250 8.640619
36.300000 83.296875 8.640619
36.450000 84.609375 8.640619
36.700000 85.734375 8.640619
36.400000 87.328125 8.640619
36.100000 88.703125 8.640619
35.925000 89.640625 8.640619
36.100000 93.796875 8.640619
36.600000 95.093750 8.640619
36.325000 82.921875 8.797491
36.475000 84.015625 8.797491
36.475000 85.750000 8.797491
36.275000 86.828125 8.797491
35.975000 88.453125 8.797491
35.650000 89.703125 8.797491
35.850000 90.640625 8.797491
36.350000 91.750000 8.797491
36.525000 93.531250 8.797491
36.475000 94.796875 8.797491
36.625000 97.312500 8.797491
31.175000 109.765625 8.797491
36.325000 82.593750 8.926214
36.375000 83.843750 8.926214
36.675000 85.203125 8.926214
36.575000 86.781250 8.926214
36.150000 88.125000 8.926214
35.800000 89.234375 8.926214
35.750000 90.593750 8.926214
36.375000 91.453125 8.926214
36.600000 92.796875 8.926214
36.400000 94.031250 8.926214
36.950000 95.218750 8.926214
37.100000 96.609375 8.926214
36.325000 82.515625 9.063384
36.275000 83.859375 9.063384
36.650000 84.687500 9.063384
37.275000 86.312500 9.063384
36.325000 89.015625 9.063384
36.050000 90.109375 9.063384
35.800000 91.265625 9.063384
36.150000 92.328125 9.063384
36.400000 93.625000 9.063384
36.675000 95.250000 9.063384
36.875000 96.140625 9.063384
37.100000 97.609375 9.063384
36.300000 83.062500 9.217120
36.475000 84.437500 9.217120
36.475000 85.578125 9.217120
36.275000 87.171875 9.217120
36.125000 88.515625 9.217120
35.800000 89.406250 9.217120
35.675000 90.859375 9.217120
36.150000 92.046875 9.217120
36.475000 93.515625 9.217120
36.425000 94.437500 9.217120
36.850000 95.453125 9.217120
36.975000 96.984375 9.217120
36.300000 82.437500 9.363925
36.300000 83.843750 9.363925
36.600000 85.390625 9.363925
36.600000 86.531250 9.363925
36.175000 87.734375 9.363925
35.875000 88.953125 9.363925
35.650000 90.328125 9.363925
35.800000 91.828125 9.363925
36.200000 92.906250 9.363925
36.350000 94.015625 9.363925
36.700000 95.515625 9.363925
36.375000 82.234375 9.512525
36.175000 83.250000 9.512525
36.200000 84.843750 9.512525
36.550000 85.718750 9.512525
36.400000 87.234375 9.512525
36.100000 88.203125 9.512525
35.825000 89.671875 9.512525
35.625000 91.171875 9.512525
36.075000 92.296875 9.512525
36.425000 93.765625 9.512525
36.450000 94.546875 9.512525
36.700000 96.187500 9.512525
36.100000 82.921875 9.652728
36.050000 84.234375 9.652728
36.500000 85.390625 9.652728
36.550000 86.750000 9.652728
36.100000 88.468750 9.652728
35.775000 89.578125 9.652728
35.575000 90.859375 9.652728
35.875000 91.734375 9.652728
36.250000 93.515625 9.652728
36.325000 94.421875 9.652728
36.775000 95.468750 9.652728
36.075000 82.921875 9.799535
35.925000 83.703125 9.799535
36.075000 85.125000 9.799535
36.500000 86.265625 9.799535
36.375000 87.609375 9.799535
35.950000 89.093750 9.799535
35.750000 90.046875 9.799535
35.775000 91.468750 9.799535
36.175000 92.515625 9.799535
36.350000 94.078125 9.799535
36.700000 95.109375 9.799535
31.800000 108.906250 9.799535
36.200000 82.218750 9.948809
35.950000 83.453125 9.948809
35.850000 84.953125 9.948809
36.300000 85.953125 9.948809
36.400000 87.109375 9.948809
36.050000 88.484375 9.948809
35.925000 90.078125 9.948809
35.775000 91.156250 9.948809
36.000000 92.375000 9.948809
36.275000 93.796875 9.948809
36.375000 94.984375 9.948809
36.775000 95.953125 9.948809
36.050000 82.734375 10.089209
35.775000 84.093750 10.089209
35.850000 85.593750 10.089209
36.250000 86.468750 10.089209
36.275000 87.937500 10.089209
35.950000 89.375000 10.089209
35.925000 90.343750 10.089209
36.125000 91.656250 10.089209
36.250000 93.125000 10.089209
36.300000 94.468750 10.089209
36.675000 95.218750 10.089209
37.050000 96.781250 10.089209
31.725000 109.093750 10.089209
36.025000 82.531250 10.229355
35.750000 83.781250 10.229355
35.650000 84.968750 10.229355
36.100000 85.984375 10.229355
36.350000 87.484375 10.229355
36.100000 88.671875 10.229355
35.925000 90.312500 10.229355
35.950000 91.531250 10.229355
36.150000 92.484375 10.229355
36.250000 93.906250 10.229355
36.350000 95.265625 10.229355
36.775000 96.031250 10.229355
36.775000 97.843750 10.229355
35.925000 83.015625 10.370715
35.750000 84.203125 10.370715
35.700000 85.812500 10.370715
36.100000 86.906250 10.370715
36.200000 88.421875 10.370715
35.900000 89.640625 10.370715
35.950000 90.656250 10.370715
36.100000 92.015625 10.370715
36.225000 92.921875 10.370715
36.300000 94.609375 10.370715
36.675000 95.734375 10.370715
37.100000 96.609375 10.370715
35.975000 82.718750 10.524579
35.675000 83.953125 10.524579
35.625000 85.156250 10.524579
36.075000 86.140625 10.524579
36.225000 87.671875 10.524579
35.950000 89.312500 10.524579
35.950000 90.234375 10.524579
36.000000 91.578125 10.524579
36.100000 93.031250 10.524579
36.250000 94.343750 10.524579
36.675000 95.281250 10.524579
37.075000 96.250000 10.524579
36.000000 82.031250 10.663710
35.700000 83.125000 10.663710
35.575000 84.718750 10.663710
35.825000 85.609375 10.663710
36.150000 87.078125 10.663710
35.975000 88.312500 10.663710
35.775000 89.796875 10.663710
35.925000 91.125000 10.663710
36.100000 92.171875 10.663710
36.175000 93.656250 10.663710
36.300000 94.671875 10.663710
36.850000 96.046875 10.663710
36.825000 97.109375 10.663710
35.725000 83.218750 10.803789
35.600000 84.125000 10.803789
35.750000 85.578125 10.803789
36.075000 86.453125 10.803789
35.950000 88.140625 10.803789
35.725000 89.312500 10.803789
35.925000 90.750000 10.803789
36.000000 91.625000 10.803789
36.100000 93.328125 10.803789
36.450000 96.890625 10.803789
35.850000 82.218750 10.958234
35.600000 83.828125 10.958234
35.650000 84.734375 10.958234
36.000000 86.031250 10.958234
36.075000 87.343750 10.958234
35.775000 88.578125 10.958234
35.675000 89.984375 10.958234
35.625000 91.234375 10.958234
35.825000 92.875000 10.958234
36.100000 93.906250 10.958234
36.375000 94.921875 10.958234
35.925000 82.093750 11.098746
35.625000 83.328125 11.098746
35.600000 84.765625 11.098746
36.125000 85.703125 11.098746
36.225000 87.109375 11.098746
35.875000 88.281250 11.098746
35.550000 91.171875 11.098746
35.400000 92.140625 11.098746
35.825000 93.937500 11.098746
36.125000 94.781250 11.098746
35.975000 81.796875 11.255095
35.625000 83.000000 11.255095
35.625000 84.593750 11.255095
35.850000 85.890625 11.255095
36.000000 86.750000 11.255095
35.975000 87.984375 11.255095
35.550000 91.062500 11.255095
35.225000 92.265625 11.255095
35.675000 93.218750 11.255095
36.000000 94.437500 11.255095
36.400000 95.812500 11.255095
36.575000 97.031250 11.255095
35.800000 82.890625 11.393264
35.675000 83.640625 11.393264
35.800000 85.312500 11.393264
36.125000 86.359375 11.393264
35.925000 87.468750 11.393264
35.325000 89.250000 11.393264
35.100000 90.234375 11.393264
35.100000 91.453125 11.393264
35.275000 92.968750 11.393264
35.675000 94.171875 11.393264
36.150000 95.078125 11.393264
36.375000 96.328125 11.393264
36.700000 97.859375 11.393264
35.800000 81.796875 11.533859
35.575000 83.375000 11.533859
35.700000 84.406250 11.533859
36.050000 85.875000 11.533859
35.925000 87.078125 11.533859
35.675000 88.125000 11.533859
35.575000 89.750000 11.533859
35.200000 90.718750 11.533859
35.175000 92.046875 11.533859
35.600000 93.296875 11.533859
35.925000 95.015625 11.533859
36.375000 96.000000 11.533859
35.625000 83.046875 11.673805
35.725000 84.406250 11.673805
36.000000 85.578125 11.673805
35.875000 86.593750 11.673805
35.675000 88.062500 11.673805
35.625000 89.546875 11.673805
35.400000 90.515625 11.673805
35.275000 91.875000 11.673805
35.625000 93.156250 11.673805
35.975000 94.203125 11.673805
36.375000 95.906250 11.673805
36.550000 96.687500 11.673805
36.025000 81.562500 11.827848
35.600000 82.953125 11.827848
35.725000 84.000000 11.827848
36.000000 85.546875 11.827848
35.850000 87.093750 11.827848
35.625000 88.000000 11.827848
35.400000 89.234375 11.827848
35.100000 90.828125 11.827848
35.200000 92.140625 11.827848
35.625000 92.953125 11.827848
35.925000 94.328125 11.827848
36.375000 95.718750 11.827848
36.550000 96.734375 11.827848
35.700000 82.781250 11.967391
35.675000 83.718750 11.967391
35.925000 84.796875 11.967391
35.925000 86.515625 11.967391
35.675000 87.484375 11.967391
35.525000 89.218750 11.967391
35.150000 90.093750 11.967391
35.100000 91.375000 11.967391
35.675000 92.906250 11.967391
35.925000 93.906250 11.967391
36.125000 95.343750 11.967391
31.775000 108.906250 11.967391
35.775000 81.859375 12.108093
35.575000 83.359375 12.108093
35.875000 84.656250 12.108093
36.350000 85.906250 12.108093
35.975000 87.234375 12.108093
35.100000 88.531250 12.108093
34.750000 90.093750 12.108093
34.950000 90.812500 12.108093
35.525000 92.484375 12.108093
35.825000 93.421875 12.108093
35.925000 94.890625 12.108093
36.225000 96.187500 12.108093
35.750000 82.843750 12.263279
35.675000 84.156250 12.263279
35.925000 85.218750 12.263279
35.975000 86.671875 12.263279
35.525000 87.890625 12.263279
35.125000 89.515625 12.263279
34.925000 90.609375 12.263279
35.375000 94.390625 12.263279
36.225000 95.265625 12.263279
35.900000 82.265625 12.403795
35.600000 83.250000 12.403795
35.725000 84.937500 12.403795
35.825000 85.828125 12.403795
35.500000 87.578125 12.403795
35.075000 88.765625 12.403795
34.825000 90.203125 12.403795
35.925000 94.718750 12.403795
36.350000 95.890625 12.403795
35.925000 82.359375 12.546090
35.675000 83.968750 12.546090
35.650000 84.812500 12.546090
35.575000 86.296875 12.546090
35.325000 87.484375 12.546090
35.050000 88.625000 12.546090
34.900000 89.953125 12.546090
35.100000 91.328125 12.546090
35.625000 92.437500 12.546090
35.925000 93.828125 12.546090
36.025000 95.343750 12.546090
36.450000 96.343750 12.546090
36.200000 97.578125 12.546090
35.775000 83.218750 12.701906
35.625000 84.281250 12.701906
35.625000 85.593750 12.701906
35.525000 86.578125 12.701906
35.325000 88.281250 12.701906
35.025000 89.265625 12.701906
35.050000 90.625000 12.701906
35.575000 91.890625 12.701906
35.975000 92.750000 12.701906
36.000000 94.281250 12.701906
36.250000 95.218750 12.701906
36.500000 96.671875 12.701906
35.950000 82.140625 12.841446
35.725000 83.687500 12.841446
35.700000 84.781250 12.841446
35.575000 86.140625 12.841446
35.325000 87.515625 12.841446
35.125000 88.750000 12.841446
35.125000 90.031250 12.841446
35.225000 91.234375 12.841446
35.600000 92.640625 12.841446
35.950000 94.062500 12.841446
36.100000 95.171875 12.841446
36.450000 95.984375 12.841446
36.350000 97.859375 12.841446
36.175000 82.062500 12.981586
35.850000 83.390625 12.981586
35.775000 84.578125 12.981586
35.700000 85.859375 12.981586
35.500000 87.187500 12.981586
35.350000 88.359375 12.981586
35.325000 89.625000 12.981586
35.375000 91.171875 12.981586
35.675000 92.484375 12.981586
35.925000 93.171875 12.981586
36.025000 94.718750 12.981586
36.500000 95.656250 12.981586
35.925000 82.703125 13.135242
35.750000 84.328125 13.135242
35.725000 85.171875 13.135242
35.625000 86.921875 13.135242
35.425000 88.296875 13.135242
35.425000 89.171875 13.135242
35.575000 90.312500 13.135242
35.800000 91.734375 13.135242
35.975000 92.796875 13.135242
36.000000 94.140625 13.135242
36.250000 95.750000 13.135242
36.500000 96.671875 13.135242
31.650000 109.312500 13.135242
36.175000 82.187500 13.272874
35.825000 83.562500 13.272874
35.700000 84.890625 13.272874
35.650000 86.000000 13.272874
35.600000 87.140625 13.272874
35.550000 88.671875 13.272874
35.600000 89.750000 13.272874
35.775000 91.218750 13.272874
35.925000 92.500000 13.272874
36.050000 93.843750 13.272874
36.150000 95.046875 13.272874
36.475000 96.000000 13.272874
35.950000 82.843750 13.419063
35.775000 83.875000 13.419063
35.725000 85.546875 13.419063
35.650000 86.500000 13.419063
35.525000 87.968750 13.419063
35.625000 89.171875 13.419063
35.775000 90.468750 13.419063
35.900000 91.546875 13.419063
35.975000 92.718750 13.419063
36.025000 94.187500 13.419063
36.350000 95.437500 13.419063
36.575000 96.828125 13.419063
31.675000 109.234375 13.419063
36.175000 82.156250 13.566484
35.825000 83.453125 13.566484
35.700000 84.625000 13.566484
35.675000 85.812500 13.566484
35.600000 87.343750 13.566484
35.525000 88.906250 13.566484
35.600000 89.781250 13.566484
35.800000 90.984375 13.566484
35.925000 92.218750 13.566484
36.050000 93.468750 13.566484
36.150000 95.062500 13.566484
36.450000 96.125000 13.566484
36.025000 83.125000 13.708429
35.800000 84.359375 13.708429
35.700000 85.281250 13.708429
35.700000 86.484375 13.708429
35.675000 87.812500 13.708429
35.750000 89.546875 13.708429
35.825000 90.812500 13.708429
35.900000 91.968750 13.708429
36.075000 92.890625 13.708429
36.250000 94.593750 13.708429
36.550000 95.812500 13.708429
36.825000 96.859375 13.708429
36.175000 82.390625 13.854621
35.825000 83.656250 13.854621
35.725000 84.765625 13.854621
35.750000 85.843750 13.854621
35.700000 87.296875 13.854621
35.550000 88.406250 13.854621
35.725000 89.937500 13.854621
35.975000 91.296875 13.854621
36.100000 92.593750 13.854621
36.225000 93.562500 13.854621
36.375000 95.171875 13.854621
36.300000 97.468750 13.854621
36.350000 81.656250 14.002481
35.975000 82.937500 14.002481
35.875000 84.203125 14.002481
35.825000 86.015625 14.002481
35.750000 87.171875 14.002481
35.725000 88.203125 14.002481
35.850000 89.484375 14.002481
36.000000 91.109375 14.002481
36.125000 92.125000 14.002481
36.275000 93.546875 14.002481
35.975000 82.718750 14.143145
35.850000 83.781250 14.143145
35.925000 85.375000 14.143145
35.925000 86.578125 14.143145
35.875000 88.046875 14.143145
35.950000 89.250000 14.143145
36.025000 90.593750 14.143145
36.125000 91.390625 14.143145
36.225000 92.984375 14.143145
36.350000 94.000000 14.143145
36.825000 95.484375 14.143145
37.000000 96.562500 14.143145
31.725000 109.015625 14.143145
36.200000 82.640625 14.288804
36.000000 83.890625 14.288804
35.975000 85.156250 14.288804
35.950000 86.234375 14.288804
35.925000 87.687500 14.288804
35.900000 88.859375 14.288804
36.025000 89.921875 14.288804
36.225000 91.546875 14.288804
36.300000 92.718750 14.288804
36.425000 93.859375 14.288804
36.750000 95.265625 14.288804
36.000000 83.390625 14.440077
35.900000 84.562500 14.440077
35.950000 85.640625 14.440077
35.975000 87.140625 14.440077
36.025000 88.437500 14.440077
36.150000 89.468750 14.440077
36.225000 90.515625 14.440077
36.325000 91.765625 14.440077
36.450000 92.968750 14.440077
36.575000 94.281250 14.440077
37.050000 95.625000 14.440077
37.400000 97.140625 14.440077
36.225000 82.375000 14.579114
36.025000 83.812500 14.579114
35.975000 85.046875 14.579114
36.000000 86.125000 14.579114
36.075000 87.218750 14.579114
36.000000 88.703125 14.579114
36.075000 90.125000 14.579114
36.325000 91.031250 14.579114
36.425000 92.484375 14.579114
36.525000 93.593750 14.579114
36.775000 94.953125 14.579114
36.200000 83.375000 14.726732
36.075000 84.718750 14.726732
36.025000 85.546875 14.726732
36.000000 86.796875 14.726732
36.050000 88.343750 14.726732
36.175000 89.390625 14.726732
36.300000 90.531250 14.726732
36.450000 92.062500 14.726732
36.550000 93.390625 14.726732
36.650000 94.375000 14.726732
37.100000 97.171875 14.726732
36.275000 82.687500 14.873694
36.175000 83.843750 14.873694
36.150000 85.328125 14.873694
36.050000 86.531250 14.873694
36.050000 87.875000 14.873694
36.200000 89.468750 14.873694
36.325000 90.703125 14.873694
36.450000 91.968750 14.873694
36.550000 93.218750 14.873694
36.650000 94.343750 14.873694
37.150000 95.328125 14.873694
37.600000 96.390625 14.873694
36.450000 82.421875 15.015769
36.225000 83.421875 15.015769
36.075000 84.968750 15.015769
36.025000 86.000000 15.015769
36.100000 87.500000 15.015769
36.000000 88.500000 15.015769
36.100000 90.046875 15.015769
36.425000 91.078125 15.015769
36.575000 92.296875 15.015769
36.625000 93.546875 15.015769
36.875000 94.828125 15.015769
36.575000 82.046875 15.163723
36.250000 83.109375 15.163723
36.175000 84.625000 15.163723
36.150000 85.828125 15.163723
36.200000 86.906250 15.163723
36.225000 88.421875 15.163723
36.375000 89.375000 15.163723
36.500000 90.640625 15.163723
36.550000 92.015625 15.163723
36.650000 93.375000 15.163723
36.825000 94.843750 15.163723
37.400000 95.828125 15.163723
37.500000 97.109375 15.163723
36.375000 82.781250 15.312855
36.250000 83.984375 15.312855
36.200000 85.265625 15.312855
36.150000 86.968750 15.312855
36.225000 87.796875 15.312855
36.275000 89.531250 15.312855
36.350000 90.453125 15.312855
36.475000 91.828125 15.312855
36.575000 92.921875 15.312855
36.500000 82.265625 15.451983
36.275000 83.609375 15.451983
36.225000 85.031250 15.451983
36.225000 86.125000 15.451983
36.250000 87.640625 15.451983
36.225000 88.750000 15.451983
36.325000 90.375000 15.451983
36.525000 91.593750 15.451983
36.625000 92.718750 15.451983
36.725000 94.109375 15.451983
37.125000 95.078125 15.451983
37.475000 96.546875 15.451983
36.575000 82.187500 15.600102
36.300000 83.453125 15.600102
36.325000 84.796875 15.600102
36.300000 85.875000 15.600102
36.250000 87.281250 15.600102
36.225000 88.843750 15.600102
36.375000 89.593750 15.600102
36.525000 91.109375 15.600102
36.575000 92.187500 15.600102
36.700000 93.484375 15.600102
36.950000 94.906250 15.600102
37.600000 97.453125 15.600102
36.400000 83.078125 15.745090
36.350000 84.234375 15.745090
36.350000 85.703125 15.745090
36.300000 86.984375 15.745090
36.300000 88.046875 15.745090
36.400000 89.265625 15.745090
36.525000 90.593750 15.745090
36.600000 91.812500 15.745090
36.700000 93.421875 15.745090
37.300000 96.687500 15.745090
36.500000 82.734375 15.884195
36.375000 83.812500 15.884195
36.325000 84.828125 15.884195
36.225000 86.359375 15.884195
36.225000 87.359375 15.884195
36.225000 88.796875 15.884195
36.325000 89.890625 15.884195
36.525000 91.609375 15.884195
36.650000 92.750000 15.884195
36.775000 93.781250 15.884195
37.150000 95.156250 15.884195
31.850000 108.968750 15.884195
36.700000 81.734375 16.024438
36.450000 83.015625 16.024438
36.375000 84.765625 16.024438
36.350000 85.812500 16.024438
36.275000 87.015625 16.024438
36.325000 88.265625 16.024438
36.475000 89.656250 16.024438
36.525000 91.000000 16.024438
36.550000 92.046875 16.024438
36.675000 93.390625 16.024438
36.850000 94.640625 16.024438
37.025000 97.187500 16.024438
36.525000 82.484375 16.178227
36.400000 83.890625 16.178227
36.375000 85.109375 16.178227
36.275000 86.687500 16.178227
36.275000 87.671875 16.178227
36.350000 88.843750 16.178227
36.475000 90.062500 16.178227
36.600000 91.750000 16.178227
36.675000 93.046875 16.178227
36.775000 93.859375 16.178227
37.150000 95.109375 16.178227
37.450000 96.312500 16.178227
36.700000 82.359375 16.318141
36.450000 83.187500 16.318141
36.325000 84.781250 16.318141
36.300000 86.140625 16.318141
36.250000 87.265625 16.318141
36.200000 88.593750 16.318141
36.350000 89.718750 16.318141
36.550000 90.781250 16.318141
36.575000 92.421875 16.318141
36.675000 93.640625 16.318141
36.925000 94.671875 16.318141
37.350000 97.031250 16.318141
36.500000 83.000000 16.472604
36.350000 84.218750 16.472604
36.350000 85.515625 16.472604
36.275000 86.937500 16.472604
36.300000 88.390625 16.472604
36.400000 89.640625 16.472604
36.525000 90.593750 16.472604
36.600000 91.750000 16.472604
36.700000 93.046875 16.472604
36.825000 94.296875 16.472604
37.275000 96.812500 16.472604
31.250000 109.703125 16.472604
36.550000 82.953125 16.612368
36.400000 84.218750 16.612368
36.375000 85.031250 16.612368
36.250000 86.703125 16.612368
36.250000 87.984375 16.612368
36.350000 89.312500 16.612368
36.475000 90.171875 16.612368
36.600000 91.312500 16.612368
36.675000 93.046875 16.612368
36.775000 94.203125 16.612368
37.150000 95.406250 16.612368
36.700000 82.296875 16.753397
36.475000 83.796875 16.753397
36.425000 84.937500 16.753397
36.350000 86.156250 16.753397
36.225000 87.562500 16.753397
36.225000 88.562500 16.753397
36.425000 90.015625 16.753397
36.525000 91.437500 16.753397
36.600000 92.328125 16.753397
36.700000 93.890625 16.753397
36.925000 94.671875 16.753397
37.625000 97.562500 16.753397
36.550000 83.140625 16.892673
36.425000 84.218750 16.892673
36.350000 85.890625 16.892673
36.275000 86.875000 16.892673
36.200000 88.234375 16.892673
36.300000 89.390625 16.892673
36.525000 90.531250 16.892673
36.600000 92.109375 16.892673
36.700000 93.078125 16.892673
36.800000 94.171875 16.892673
37.175000 97.000000 16.892673
36.600000 82.671875 17.047115
36.475000 83.984375 17.047115
36.350000 85.531250 17.047115
36.250000 86.750000 17.047115
36.075000 87.765625 17.047115
36.200000 89.390625 17.047115
36.525000 90.218750 17.047115
36.650000 91.593750 17.047115
36.650000 93.171875 17.047115
36.675000 94.312500 17.047115
37.150000 95.390625 17.047115
37.475000 96.812500 17.047115
36.500000 82.812500 17.187412
36.375000 84.171875 17.187412
36.350000 85.031250 17.187412
36.250000 86.593750 17.187412
36.125000 87.625000 17.187412
36.225000 89.156250 17.187412
36.475000 90.421875 17.187412
36.600000 91.328125 17.187412
36.675000 93.062500 17.187412
36.750000 94.093750 17.187412
37.050000 95.031250 17.187412
37.150000 96.843750 17.187412
36.725000 82.125000 17.347993
36.475000 83.312500 17.347993
36.400000 84.843750 17.347993
36.350000 86.093750 17.347993
36.125000 87.281250 17.347993
36.125000 88.812500 17.347993
36.325000 89.734375 17.347993
36.450000 91.187500 17.347993
36.600000 92.593750 17.347993
36.700000 93.953125 17.347993
37.000000 94.906250 17.347993
37.625000 97.625000 17.347993
36.525000 83.093750 17.483118
36.425000 84.203125 17.483118
36.350000 85.890625 17.483118
36.150000 87.140625 17.483118
36.075000 88.546875 17.483118
36.200000 89.343750 17.483118
36.450000 90.875000 17.483118
36.650000 92.265625 17.483118
36.700000 93.078125 17.483118
36.800000 94.546875 17.483118
37.125000 97.031250 17.483118
36.525000 82.843750 17.623697
36.375000 83.890625 17.623697
36.350000 85.187500 17.623697
36.350000 86.234375 17.623697
36.225000 88.046875 17.623697
36.025000 88.984375 17.623697
36.000000 90.359375 17.623697
36.300000 91.718750 17.623697
36.650000 93.046875 17.623697
36.725000 94.093750 17.623697
37.025000 95.046875 17.623697
37.200000 96.765625 17.623697
36.725000 82.171875 17.764290
36.475000 83.406250 17.764290
36.400000 85.031250 17.764290
36.325000 86.328125 17.764290
36.225000 87.390625 17.764290
36.000000 89.031250 17.764290
36.000000 89.718750 17.764290
36.550000 91.187500 17.764290
36.775000 92.578125 17.764290
36.675000 93.750000 17.764290
36.925000 94.796875 17.764290
37.325000 97.531250 17.764290
36.775000 82.000000 17.919138
36.450000 83.125000 17.919138
36.400000 84.375000 17.919138
36.325000 85.671875 17.919138
36.225000 87.000000 17.919138
36.000000 88.328125 17.919138
35.875000 89.687500 17.919138
36.275000 90.718750 17.919138
36.600000 92.390625 17.919138
36.675000 93.359375 17.919138
36.875000 95.000000 17.919138
36.500000 97.515625 17.919138
36.450000 83.093750 18.060578
36.400000 84.296875 18.060578
36.350000 85.937500 18.060578
36.250000 87.250000 18.060578
35.975000 88.609375 18.060578
35.800000 89.640625 18.060578
35.975000 90.671875 18.060578
36.375000 92.203125 18.060578
36.675000 93.593750 18.060578
36.750000 94.843750 18.060578
36.500000 83.015625 18.201299
36.275000 83.937500 18.201299
36.325000 85.671875 18.201299
36.300000 86.953125 18.201299
35.975000 88.406250 18.201299
35.725000 89.218750 18.201299
35.650000 90.734375 18.201299
36.100000 91.734375 18.201299
36.675000 92.906250 18.201299
37.000000 96.828125 18.201299
36.525000 82.437500 18.357604
36.375000 83.750000 18.357604
36.350000 85.156250 18.357604
36.475000 86.328125 18.357604
36.225000 87.531250 18.357604
35.750000 89.078125 18.357604
35.850000 90.406250 18.357604
36.425000 91.546875 18.357604
36.750000 92.609375 18.357604
36.675000 94.265625 18.357604
36.975000 95.453125 18.357604
37.175000 96.406250 18.357604
36.450000 83.218750 18.496885
36.375000 84.781250 18.496885
36.475000 85.484375 18.496885
36.300000 86.921875 18.496885
35.900000 88.578125 18.496885
35.800000 89.781250 18.496885
35.750000 90.984375 18.496885
36.150000 92.250000 18.496885
36.650000 93.468750 18.496885
36.725000 94.796875 18.496885
36.375000 97.125000 18.496885
36.525000 82.703125 18.660562
36.375000 83.984375 18.660562
36.425000 85.140625 18.660562
36.650000 86.421875 18.660562
36.325000 87.734375 18.660562
35.850000 89.203125 18.660562
35.925000 90.609375 18.660562
36.400000 91.406250 18.660562
36.725000 92.625000 18.660562
36.650000 93.906250 18.660562
36.950000 95.125000 18.660562
36.425000 83.218750 18.793288
36.375000 84.437500 18.793288
36.475000 85.562500 18.793288
36.300000 87.203125 18.793288
35.900000 88.312500 18.793288
35.725000 89.750000 18.793288
35.900000 90.875000 18.793288
36.550000 92.187500 18.793288
36.775000 93.406250 18.793288
36.600000 94.734375 18.793288
36.750000 96.093750 18.793288
37.025000 97.343750 18.793288
36.500000 82.984375 18.933960
36.350000 83.828125 18.933960
36.425000 85.218750 18.933960
36.500000 86.296875 18.933960
36.175000 87.640625 18.933960
36.125000 88.843750 18.933960
36.175000 90.312500 18.933960
36.375000 91.328125 18.933960
36.700000 93.062500 18.933960
36.575000 94.203125 18.933960
36.925000 95.093750 18.933960
37.175000 96.812500 18.933960
36.600000 82.296875 19.076431
36.450000 83.515625 19.076431
36.475000 84.859375 19.076431
36.725000 86.015625 19.076431
36.450000 87.468750 19.076431
36.375000 88.781250 19.076431
36.275000 90.390625 19.076431
35.775000 91.453125 19.076431
36.150000 92.781250 19.076431
36.525000 94.093750 19.076431
36.775000 94.953125 19.076431
37.050000 96.484375 19.076431
37.500000 97.578125 19.076431
36.325000 82.953125 19.215375
36.450000 84.218750 19.215375
36.475000 85.468750 19.215375
36.175000 86.734375 19.215375
35.725000 88.359375 19.215375
35.525000 89.718750 19.215375
35.875000 91.093750 19.215375
36.525000 92.250000 19.215375
36.750000 93.406250 19.215375
36.575000 94.375000 19.215375
36.775000 96.984375 19.215375
36.375000 82.765625 19.370620
36.350000 84.234375 19.370620
36.600000 85.265625 19.370620
36.650000 86.390625 19.370620
36.150000 88.156250 19.370620
35.700000 89.312500 19.370620
35.725000 90.656250 19.370620
36.350000 91.625000 19.370620
36.625000 92.921875 19.370620
36.475000 94.437500 19.370620
36.925000 95.421875 19.370620
37.050000 96.984375 19.370620
36.425000 82.859375 19.509170
36.325000 83.828125 19.509170
36.600000 84.953125 19.509170
36.675000 86.546875 19.509170
36.300000 87.812500 19.509170
36.450000 88.765625 19.509170
36.325000 90.046875 19.509170
36.075000 91.562500 19.509170
36.350000 92.921875 19.509170
36.425000 94.109375 19.509170
36.750000 95.484375 19.509170
36.500000 82.078125 19.651756
36.375000 83.593750 19.651756
36.675000 84.562500 19.651756
37.350000 86.234375 19.651756
36.175000 88.453125 19.651756
35.925000 90.265625 19.651756
35.550000 91.140625 19.651756
35.875000 92.734375 19.651756
36.375000 93.781250 19.651756
36.550000 94.984375 19.651756
36.675000 96.046875 19.651756
36.350000 97.625000 19.651756
36.225000 83.187500 19.807511
36.450000 84.203125 19.807511
36.425000 85.890625 19.807511
36.275000 86.875000 19.807511
36.150000 88.062500 19.807511
35.850000 89.281250 19.807511
35.650000 90.828125 19.807511
36.100000 92.046875 19.807511
36.475000 93.031250 19.807511
36.550000 96.937500 19.807511
36.325000 82.437500 19.945544
36.325000 83.625000 19.945544
36.575000 85.171875 19.945544
37.275000 86.281250 19.945544
36.275000 88.515625 19.945544
35.975000 89.968750 19.945544
35.975000 93.968750 19.945544
36.600000 95.171875 19.945544
36.825000 96.171875 19.945544
36.900000 97.328125 19.945544
