24.650000 85.609375 11.401164
24.675000 84.218750 11.401164
24.650000 83.078125 11.401164
24.725000 82.406250 11.401164
24.875000 81.093750 11.401164
24.200000 87.515625 11.561171
24.350000 87.468750 11.561171
24.650000 86.046875 11.561171
24.750000 85.984375 11.561171
24.800000 85.125000 11.561171
24.925000 83.953125 11.561171
24.925000 82.750000 11.561171
24.900000 81.515625 11.561171
24.325000 88.734375 11.713459
24.475000 87.578125 11.713459
24.500000 86.609375 11.713459
24.725000 86.312500 11.713459
24.925000 85.265625 11.713459
24.925000 84.015625 11.713459
24.925000 82.781250 11.713459
24.950000 81.781250 11.713459
24.975000 80.484375 11.713459
25.150000 77.859375 11.713459
24.500000 85.656250 11.874095
24.875000 86.656250 11.874095
24.875000 83.703125 11.874095
24.875000 84.437500 11.874095
24.925000 83.109375 11.874095
24.950000 82.062500 11.874095
24.975000 80.750000 11.874095
25.125000 79.812500 11.874095
24.750000 87.515625 12.030135
24.675000 86.453125 12.030135
24.750000 83.531250 12.030135
24.875000 84.515625 12.030135
24.925000 83.375000 12.030135
24.950000 82.218750 12.030135
24.975000 80.921875 12.030135
25.100000 79.218750 12.030135
24.575000 87.921875 12.189805
24.750000 85.656250 12.189805
24.750000 85.375000 12.189805
24.775000 83.328125 12.189805
24.900000 83.406250 12.189805
24.925000 82.125000 12.189805
24.950000 81.125000 12.189805
25.100000 78.562500 12.189805
24.050000 89.578125 12.357598
24.200000 88.421875 12.357598
24.200000 85.343750 12.357598
24.225000 84.187500 12.357598
24.425000 83.140625 12.357598
24.650000 84.015625 12.357598
24.675000 82.765625 12.357598
24.750000 79.437500 12.357598
24.050000 89.484375 12.513244
24.200000 88.343750 12.513244
24.200000 87.125000 12.513244
24.425000 82.640625 12.513244
24.650000 80.500000 12.513244
24.650000 81.625000 12.513244
24.025000 89.437500 12.670202
24.175000 88.281250 12.670202
24.175000 87.375000 12.670202
24.200000 86.000000 12.670202
24.200000 85.140625 12.670202
24.425000 81.562500 12.670202
24.650000 80.328125 12.670202
24.800000 79.562500 12.670202
23.875000 87.734375 12.839203
23.900000 86.593750 12.839203
23.900000 85.437500 12.839203
23.900000 84.296875 12.839203
23.900000 83.218750 12.839203
24.025000 83.765625 12.839203
24.150000 82.625000 12.839203
24.175000 81.578125 12.839203
24.375000 78.640625 12.839203
24.600000 78.250000 12.839203
23.850000 86.453125 12.997398
23.875000 85.984375 12.997398
23.900000 85.000000 12.997398
23.875000 83.109375 12.997398
23.875000 82.296875 12.997398
23.900000 80.812500 12.997398
23.900000 81.625000 12.997398
23.225000 88.187500 13.161561
23.250000 86.906250 13.161561
23.250000 85.218750 13.161561
23.425000 84.031250 13.161561
23.625000 82.109375 13.161561
23.625000 80.718750 13.161561
23.625000 79.562500 13.161561
23.075000 88.296875 13.314919
23.225000 87.156250 13.314919
23.200000 87.531250 13.314919
23.200000 84.859375 13.314919
23.225000 83.781250 13.314919
23.225000 82.656250 13.314919
23.225000 81.500000 13.314919
23.225000 81.703125 13.314919
23.425000 79.968750 13.314919
23.225000 86.500000 13.472929
23.225000 87.109375 13.472929
23.250000 85.687500 13.472929
23.425000 83.187500 13.472929
23.750000 79.750000 13.472929
23.900000 78.609375 13.472929
24.075000 77.703125 13.472929
23.375000 88.375000 13.629918
23.525000 87.906250 13.629918
23.725000 85.625000 13.629918
23.900000 84.765625 13.629918
23.900000 83.421875 13.629918
23.900000 82.562500 13.629918
23.900000 81.000000 13.629918
23.900000 79.843750 13.629918
23.900000 85.968750 13.806039
23.900000 84.812500 13.806039
23.900000 83.703125 13.806039
23.900000 82.562500 13.806039
24.000000 82.859375 13.806039
24.125000 81.953125 13.806039
24.000000 87.859375 13.956489
24.125000 86.953125 13.956489
24.025000 84.187500 13.956489
24.025000 84.734375 13.956489
24.150000 83.593750 13.956489
24.175000 82.687500 13.956489
24.200000 81.531250 13.956489
24.175000 87.625000 14.120443
24.175000 86.250000 14.120443
24.150000 85.109375 14.120443
24.150000 83.953125 14.120443
24.175000 83.046875 14.120443
24.425000 77.671875 14.120443
24.200000 87.828125 14.271227
24.200000 86.671875 14.271227
24.200000 85.562500 14.271227
24.200000 84.421875 14.271227
24.200000 83.265625 14.271227
24.425000 79.375000 14.271227
24.050000 89.843750 14.437958
24.200000 88.687500 14.437958
24.200000 87.546875 14.437958
24.175000 86.156250 14.437958
24.150000 85.328125 14.437958
24.150000 84.187500 14.437958
24.175000 83.046875 14.437958
24.425000 78.921875 14.437958
24.025000 89.359375 14.598210
24.150000 88.203125 14.598210
24.150000 87.046875 14.598210
24.175000 86.140625 14.598210
24.200000 85.093750 14.598210
24.200000 83.937500 14.598210
24.425000 79.609375 14.598210
24.775000 78.218750 14.598210
24.025000 89.531250 14.752687
24.175000 88.375000 14.752687
24.150000 87.218750 14.752687
24.150000 86.312500 14.752687
24.150000 85.000000 14.752687
24.150000 83.859375 14.752687
24.175000 82.953125 14.752687
24.425000 79.171875 14.752687
24.150000 87.687500 14.925520
24.025000 84.843750 14.925520
24.000000 85.265625 14.925520
24.125000 84.375000 14.925520
24.150000 83.234375 14.925520
24.175000 82.328125 14.925520
24.200000 81.093750 14.925520
23.900000 85.953125 15.080441
23.900000 84.796875 15.080441
23.900000 83.796875 15.080441
23.900000 82.640625 15.080441
23.900000 81.500000 15.080441
23.900000 82.078125 15.080441
23.400000 88.843750 15.242821
23.525000 88.375000 15.242821
23.725000 85.734375 15.242821
23.900000 84.828125 15.242821
23.900000 83.531250 15.242821
23.900000 82.968750 15.242821
23.900000 81.500000 15.242821
23.900000 80.343750 15.242821
23.900000 81.156250 15.242821
23.075000 90.171875 15.396172
23.225000 89.203125 15.396172
23.225000 88.046875 15.396172
23.250000 86.593750 15.396172
23.250000 85.203125 15.396172
23.425000 82.843750 15.396172
23.725000 82.484375 15.396172
23.725000 80.546875 15.396172
23.725000 79.390625 15.396172
23.225000 86.515625 15.561431
23.225000 85.375000 15.561431
23.225000 84.218750 15.561431
23.225000 83.171875 15.561431
23.225000 83.796875 15.561431
23.250000 82.187500 15.561431
23.425000 81.578125 15.561431
23.625000 80.390625 15.561431
23.675000 78.968750 15.561431
23.050000 88.656250 15.725020
23.175000 88.609375 15.725020
23.175000 86.359375 15.725020
23.175000 84.640625 15.725020
23.225000 83.562500 15.725020
23.225000 82.421875 15.725020
23.225000 82.671875 15.725020
23.425000 80.125000 15.725020
23.600000 80.140625 15.725020
23.650000 79.375000 15.725020
23.125000 89.640625 15.873144
23.250000 88.703125 15.873144
23.250000 87.343750 15.873144
23.275000 86.453125 15.873144
23.450000 83.812500 15.873144
23.625000 82.671875 15.873144
23.750000 82.015625 15.873144
23.875000 80.500000 15.873144
23.900000 79.562500 15.873144
23.750000 88.484375 16.034256
23.900000 87.265625 16.034256
23.900000 85.359375 16.034256
23.900000 84.218750 16.034256
23.900000 83.421875 16.034256
23.900000 82.265625 16.034256
23.900000 81.125000 16.034256
23.900000 81.640625 16.034256
23.750000 87.906250 16.206048
23.900000 86.750000 16.206048
23.900000 85.609375 16.206048
24.000000 85.906250 16.206048
24.100000 84.828125 16.206048
24.125000 83.937500 16.206048
24.150000 82.796875 16.206048
24.400000 77.671875 16.206048
24.150000 87.421875 16.365751
24.175000 86.500000 16.365751
24.200000 85.453125 16.365751
24.200000 84.281250 16.365751
24.425000 78.937500 16.365751
24.650000 79.546875 16.365751
24.050000 89.859375 16.518014
24.200000 88.718750 16.518014
24.175000 87.562500 16.518014
24.175000 86.421875 16.518014
24.200000 85.265625 16.518014
24.425000 79.968750 16.518014
24.050000 89.656250 16.682938
24.200000 88.515625 16.682938
24.175000 87.359375 16.682938
24.175000 86.156250 16.682938
24.425000 82.796875 16.682938
24.675000 81.531250 16.682938
24.750000 78.421875 16.682938
25.025000 78.859375 16.682938
24.200000 89.421875 16.844825
24.200000 88.218750 16.844825
24.200000 85.203125 16.844825
24.200000 84.171875 16.844825
24.525000 82.921875 16.844825
24.900000 81.703125 16.844825
24.300000 88.562500 17.001540
24.300000 88.421875 17.001540
24.200000 87.265625 17.001540
24.525000 82.468750 17.001540
24.850000 82.890625 17.001540
24.900000 81.734375 17.001540
24.525000 81.453125 17.153695
24.850000 82.437500 17.153695
24.900000 81.187500 17.153695
24.950000 79.750000 17.153695
24.225000 85.906250 17.314305
24.225000 84.750000 17.314305
24.450000 85.687500 17.314305
24.750000 83.406250 17.314305
24.850000 82.250000 17.314305
24.850000 82.375000 17.314305
24.900000 81.078125 17.314305
24.950000 79.625000 17.314305
24.200000 88.093750 17.479988
24.200000 85.093750 17.479988
24.225000 86.015625 17.479988
24.450000 84.984375 17.479988
24.750000 82.781250 17.479988
24.750000 82.390625 17.479988
24.750000 79.421875 17.479988
24.200000 88.312500 17.635470
24.200000 87.171875 17.635470
24.200000 86.062500 17.635470
24.425000 82.781250 17.635470
24.675000 81.515625 17.635470
24.775000 78.843750 17.635470
25.050000 77.921875 17.635470
24.175000 88.078125 17.810321
24.175000 87.171875 17.810321
24.200000 86.093750 17.810321
24.175000 84.937500 17.810321
24.400000 80.625000 17.810321
23.900000 86.296875 17.964037
23.900000 85.156250 17.964037
23.900000 84.140625 17.964037
24.025000 84.687500 17.964037
24.150000 83.546875 17.964037
24.150000 82.406250 17.964037
24.525000 77.281250 17.964037
23.750000 88.734375 18.124185
23.900000 87.390625 18.124185
23.900000 85.968750 18.124185
23.900000 84.656250 18.124185
23.900000 83.375000 18.124185
23.900000 82.234375 18.124185
23.900000 81.078125 18.124185
23.900000 81.734375 18.124185
24.025000 80.453125 18.124185
24.325000 79.578125 18.124185
23.600000 89.093750 18.276327
23.625000 87.421875 18.276327
23.625000 85.578125 18.276327
23.625000 84.437500 18.276327
23.625000 85.234375 18.276327
23.650000 83.406250 18.276327
23.750000 81.609375 18.276327
23.875000 80.718750 18.276327
23.900000 79.859375 18.276327
24.100000 77.687500 18.276327
23.875000 87.390625 18.440089
23.900000 85.265625 18.440089
23.900000 84.359375 18.440089
23.900000 83.078125 18.440089
23.900000 81.937500 18.440089
23.900000 81.828125 18.440089
24.050000 81.390625 18.440089
24.375000 79.796875 18.440089
24.650000 78.750000 18.440089
23.900000 89.750000 18.603136
23.925000 88.156250 18.603136
23.900000 86.906250 18.603136
23.900000 84.375000 18.603136
24.250000 81.015625 18.603136
24.600000 81.359375 18.603136
24.650000 78.718750 18.603136
24.725000 77.562500 18.603136
24.400000 84.671875 18.758673
24.650000 83.781250 18.758673
24.650000 81.265625 18.758673
24.650000 81.718750 18.758673
24.800000 81.171875 18.758673
24.950000 78.859375 18.758673
24.650000 87.328125 18.930593
24.650000 85.031250 18.930593
24.650000 84.984375 18.930593
24.650000 84.890625 18.930593
24.750000 82.296875 18.930593
24.875000 82.562500 18.930593
24.950000 81.343750 18.930593
24.625000 87.484375 19.085638
24.650000 88.328125 19.085638
24.675000 86.937500 19.085638
24.675000 85.390625 19.085638
24.675000 84.468750 19.085638
24.750000 83.687500 19.085638
24.900000 82.671875 19.085638
24.975000 81.359375 19.085638
24.850000 85.921875 19.247145
24.875000 86.656250 19.247145
24.925000 85.687500 19.247145
24.950000 84.781250 19.247145
24.975000 83.343750 19.247145
24.975000 82.187500 19.247145
24.950000 80.296875 19.247145
25.100000 80.218750 19.247145
24.925000 87.531250 19.398567
24.950000 86.453125 19.398567
24.975000 85.359375 19.398567
24.975000 84.218750 19.398567
24.975000 82.984375 19.398567
25.350000 78.531250 19.398567
24.900000 88.109375 19.561398
24.950000 86.781250 19.561398
24.925000 85.718750 19.561398
24.950000 84.515625 19.561398
24.975000 83.359375 19.561398
25.100000 82.000000 19.561398
25.325000 80.109375 19.561398
25.450000 79.656250 19.561398
24.775000 89.765625 19.726920
24.975000 88.656250 19.726920
24.975000 87.359375 19.726920
24.975000 86.203125 19.726920
24.975000 85.109375 19.726920
24.975000 83.968750 19.726920
25.075000 82.687500 19.726920
25.525000 79.515625 19.726920
24.800000 89.734375 19.879526
24.975000 88.484375 19.879526
24.975000 87.296875 19.879526
24.975000 86.062500 19.879526
24.975000 85.015625 19.879526
24.975000 83.765625 19.879526
25.100000 82.500000 19.879526
25.250000 81.406250 19.879526
24.775000 89.687500 20.041520
24.925000 88.515625 20.041520
24.950000 87.281250 20.041520
24.950000 86.046875 20.041520
24.950000 85.062500 20.041520
24.950000 83.843750 20.041520
25.100000 82.484375 20.041520
25.250000 81.453125 20.041520
24.925000 87.625000 20.196733
24.800000 85.734375 20.196733
24.800000 85.328125 20.196733
24.925000 84.328125 20.196733
24.950000 83.000000 20.196733
25.350000 79.921875 20.196733
24.800000 87.984375 20.370567
24.925000 86.890625 20.370567
24.925000 85.796875 20.370567
24.925000 84.468750 20.370567
24.950000 83.500000 20.370567
24.975000 81.656250 20.370567
25.125000 81.359375 20.370567
25.275000 78.203125 20.370567
24.625000 89.437500 20.523415
24.675000 88.187500 20.523415
24.675000 87.312500 20.523415
24.675000 85.421875 20.523415
24.750000 83.562500 20.523415
24.900000 83.828125 20.523415
24.950000 82.953125 20.523415
24.975000 81.484375 20.523415
24.650000 86.421875 20.682082
24.650000 85.265625 20.682082
24.650000 85.750000 20.682082
24.675000 84.437500 20.682082
24.675000 83.281250 20.682082
24.775000 82.453125 20.682082
24.900000 81.078125 20.682082
25.075000 79.390625 20.682082
24.175000 85.843750 20.849149
24.425000 86.328125 20.849149
24.625000 85.312500 20.849149
24.625000 84.046875 20.849149
24.625000 82.718750 20.849149
24.650000 82.328125 20.849149
24.675000 80.437500 20.849149
24.725000 79.906250 20.849149
23.725000 88.250000 21.001965
23.900000 87.093750 21.001965
23.900000 85.937500 21.001965
24.025000 86.500000 21.001965
24.150000 85.390625 21.001965
24.150000 84.250000 21.001965
24.150000 82.828125 21.001965
24.350000 82.062500 21.001965
24.575000 79.875000 21.001965
23.650000 87.703125 21.176900
23.650000 84.953125 21.176900
23.650000 85.625000 21.176900
23.750000 82.765625 21.176900
23.875000 81.625000 21.176900
23.900000 80.484375 21.176900
24.100000 80.812500 21.176900
23.900000 86.437500 21.328198
23.900000 85.031250 21.328198
23.900000 83.937500 21.328198
23.875000 82.796875 21.328198
23.875000 81.656250 21.328198
23.900000 81.906250 21.328198
24.025000 81.046875 21.328198
24.325000 79.203125 21.328198
24.625000 78.203125 21.328198
24.125000 87.531250 21.483178
24.125000 86.640625 21.483178
24.150000 85.578125 21.483178
24.150000 84.421875 21.483178
24.175000 83.515625 21.483178
24.425000 80.031250 21.483178
24.850000 78.968750 21.483178
24.175000 87.687500 21.637325
24.200000 86.546875 21.637325
24.200000 85.500000 21.637325
24.425000 80.921875 21.637325
24.650000 78.984375 21.637325
24.675000 78.750000 21.637325
24.050000 89.750000 21.812869
24.200000 88.578125 21.812869
24.200000 87.437500 21.812869
24.425000 82.140625 21.812869
24.650000 82.875000 21.812869
24.750000 80.406250 21.812869
24.075000 87.734375 21.965991
24.225000 86.312500 21.965991
24.450000 85.250000 21.965991
24.650000 83.921875 21.965991
24.650000 82.468750 21.965991
24.775000 81.890625 21.965991
24.900000 80.656250 21.965991
25.075000 78.968750 21.965991
24.175000 87.578125 22.123180
24.525000 84.781250 22.123180
24.850000 83.421875 22.123180
24.875000 84.015625 22.123180
24.925000 82.718750 22.123180
24.950000 81.609375 22.123180
24.300000 88.593750 22.280728
24.450000 87.625000 22.280728
24.675000 87.562500 22.280728
24.850000 84.328125 22.280728
24.850000 85.203125 22.280728
24.900000 83.906250 22.280728
24.925000 82.796875 22.280728
24.925000 81.765625 22.280728
24.900000 85.312500 22.450047
24.925000 84.234375 22.450047
24.925000 82.890625 22.450047
24.950000 81.796875 22.450047
24.950000 80.593750 22.450047
25.100000 78.250000 22.450047
24.850000 86.515625 22.604872
24.850000 84.046875 22.604872
24.850000 85.375000 22.604872
24.900000 84.187500 22.604872
24.925000 82.890625 22.604872
24.950000 81.750000 22.604872
24.950000 80.531250 22.604872
25.100000 77.828125 22.604872
24.400000 87.171875 22.759718
24.750000 85.265625 22.759718
24.750000 84.875000 22.759718
24.775000 81.921875 22.759718
24.900000 82.875000 22.759718
24.925000 81.515625 22.759718
24.075000 87.890625 22.933936
24.425000 86.515625 22.933936
24.675000 85.343750 22.933936
24.675000 84.109375 22.933936
24.750000 81.765625 22.933936
24.850000 82.078125 22.933936
24.900000 80.812500 22.933936
25.100000 78.281250 22.933936
24.175000 87.750000 23.087375
24.175000 84.687500 23.087375
24.200000 85.593750 23.087375
24.425000 82.500000 23.087375
24.650000 83.406250 23.087375
24.675000 82.093750 23.087375
24.650000 80.234375 23.087375
24.750000 78.328125 23.087375
24.050000 89.656250 23.252247
24.200000 88.500000 23.252247
24.200000 87.343750 23.252247
24.200000 86.140625 23.252247
24.425000 82.500000 23.252247
24.650000 80.546875 23.252247
24.650000 78.656250 23.252247
24.800000 78.000000 23.252247
24.025000 89.453125 23.402743
24.175000 88.296875 23.402743
24.025000 85.453125 23.402743
24.025000 85.984375 23.402743
24.150000 84.921875 23.402743
24.150000 83.734375 23.402743
24.375000 79.703125 23.402743
24.675000 78.921875 23.402743
23.750000 87.968750 23.566278
23.900000 86.562500 23.566278
23.900000 85.656250 23.566278
23.900000 84.515625 23.566278
23.900000 83.437500 23.566278
23.900000 82.281250 23.566278
23.900000 81.125000 23.566278
23.900000 81.156250 23.566278
23.100000 89.328125 23.727765
23.250000 88.406250 23.727765
23.250000 87.140625 23.727765
23.425000 84.671875 23.727765
23.625000 83.625000 23.727765
23.625000 82.484375 23.727765
23.625000 83.171875 23.727765
23.650000 81.984375 23.727765
23.750000 78.781250 23.727765
23.875000 78.921875 23.727765
23.000000 89.250000 23.884388
23.150000 87.875000 23.884388
23.050000 86.156250 23.884388
23.075000 86.703125 23.884388
23.200000 85.375000 23.884388
23.200000 83.625000 23.884388
23.225000 83.203125 23.884388
23.250000 81.421875 23.884388
23.425000 80.187500 23.884388
23.600000 78.203125 23.884388
23.775000 77.062500 23.884388
23.225000 86.281250 24.058446
23.225000 85.140625 24.058446
23.225000 84.062500 24.058446
23.225000 84.421875 24.058446
23.425000 81.781250 24.058446
23.625000 80.625000 24.058446
23.725000 79.234375 24.058446
23.850000 78.343750 24.058446
24.025000 77.203125 24.058446
23.200000 88.234375 24.211314
23.425000 87.078125 24.211314
23.475000 86.500000 24.211314
23.700000 83.328125 24.211314
23.900000 81.843750 24.211314
23.900000 80.281250 24.211314
23.900000 79.140625 24.211314
23.900000 86.031250 24.371630
23.900000 84.890625 24.371630
23.900000 83.812500 24.371630
23.900000 82.656250 24.371630
23.900000 81.515625 24.371630
24.000000 81.812500 24.371630
24.125000 80.921875 24.371630
23.900000 87.656250 24.524595
23.900000 86.500000 24.524595
23.900000 85.359375 24.524595
23.900000 84.203125 24.524595
23.900000 83.156250 24.524595
24.025000 83.703125 24.524595
24.150000 82.546875 24.524595
24.175000 81.640625 24.524595
24.150000 87.312500 24.686472
24.150000 86.171875 24.686472
24.150000 85.093750 24.686472
24.150000 83.953125 24.686472
24.175000 83.046875 24.686472
24.425000 78.562500 24.686472
24.175000 87.437500 24.852787
24.175000 86.531250 24.852787
24.200000 85.500000 24.852787
24.200000 84.359375 24.852787
24.200000 83.203125 24.852787
24.425000 79.640625 24.852787
23.900000 87.859375 25.001536
24.175000 86.718750 25.001536
24.175000 85.640625 25.001536
24.200000 84.500000 25.001536
24.200000 83.343750 25.001536
24.425000 79.312500 25.001536
24.175000 87.656250 25.162928
24.150000 86.734375 25.162928
24.175000 85.640625 25.162928
24.200000 84.484375 25.162928
24.200000 83.343750 25.162928
24.425000 79.656250 25.162928
24.150000 88.093750 25.335419
24.150000 86.937500 25.335419
24.175000 86.125000 25.335419
24.200000 84.984375 25.335419
24.200000 83.828125 25.335419
24.375000 79.031250 25.335419
24.775000 78.015625 25.335419
23.750000 88.265625 25.494668
24.025000 88.828125 25.494668
24.150000 87.671875 25.494668
24.150000 86.515625 25.494668
24.150000 85.375000 25.494668
24.175000 84.234375 25.494668
24.175000 83.328125 25.494668
24.400000 78.515625 25.494668
23.725000 88.156250 25.646909
23.900000 87.015625 25.646909
23.900000 85.875000 25.646909
23.900000 84.718750 25.646909
23.900000 83.609375 25.646909
23.900000 82.468750 25.646909
23.900000 81.328125 25.646909
24.025000 81.875000 25.646909
24.150000 80.687500 25.646909
24.325000 77.875000 25.646909
23.900000 86.046875 25.814075
23.900000 84.890625 25.814075
23.900000 83.843750 25.814075
23.900000 82.687500 25.814075
23.900000 81.546875 25.814075
23.900000 80.406250 25.814075
23.900000 81.062500 25.814075
23.625000 84.109375 25.976554
23.875000 83.843750 25.976554
23.900000 82.750000 25.976554
23.875000 80.687500 25.976554
23.850000 79.546875 25.976554
23.225000 86.328125 26.126482
23.225000 85.171875 26.126482
23.225000 85.968750 26.126482
23.250000 84.578125 26.126482
23.250000 82.984375 26.126482
23.425000 80.734375 26.126482
23.625000 79.578125 26.126482
23.625000 80.296875 26.126482
23.850000 79.296875 26.126482
22.825000 88.468750 26.290478
22.925000 87.562500 26.290478
22.950000 86.281250 26.290478
22.950000 85.937500 26.290478
23.050000 84.546875 26.290478
23.150000 83.390625 26.290478
23.175000 83.265625 26.290478
23.175000 80.546875 26.290478
23.225000 80.546875 26.290478
23.425000 79.296875 26.290478
23.775000 77.109375 26.290478
23.175000 87.953125 26.447456
23.225000 86.796875 26.447456
23.225000 85.656250 26.447456
23.225000 86.187500 26.447456
23.250000 84.984375 26.447456
23.250000 83.296875 26.447456
23.425000 81.187500 26.447456
23.625000 80.046875 26.447456
23.625000 79.656250 26.447456
23.750000 78.328125 26.447456
23.725000 86.390625 26.603458
23.850000 85.578125 26.603458
23.850000 84.156250 26.603458
23.875000 83.015625 26.603458
23.900000 82.125000 26.603458
23.900000 80.718750 26.603458
23.900000 79.578125 26.603458
23.900000 86.031250 26.774178
23.900000 84.890625 26.774178
23.900000 83.734375 26.774178
24.025000 84.265625 26.774178
24.150000 83.125000 26.774178
24.125000 81.281250 26.774178
24.150000 80.984375 26.774178
24.400000 79.687500 26.774178
24.150000 87.437500 26.935101
24.150000 86.281250 26.935101
24.150000 85.218750 26.935101
24.175000 84.312500 26.935101
24.200000 83.171875 26.935101
24.425000 79.109375 26.935101
24.200000 87.937500 27.088644
24.200000 86.781250 27.088644
24.200000 85.734375 27.088644
24.425000 81.109375 27.088644
24.650000 79.218750 27.088644
24.650000 78.890625 27.088644
24.200000 88.296875 27.251685
24.200000 87.140625 27.251685
24.200000 86.015625 27.251685
24.425000 80.734375 27.251685
24.650000 81.609375 27.251685
24.050000 89.656250 27.417501
24.200000 88.515625 27.417501
24.200000 87.375000 27.417501
24.425000 84.140625 27.417501
24.750000 81.937500 27.417501
24.850000 79.796875 27.417501
24.875000 80.718750 27.417501
25.075000 79.609375 27.417501
24.200000 89.593750 27.565872
24.200000 88.437500 27.565872
24.200000 85.359375 27.565872
24.425000 83.812500 27.565872
24.775000 83.046875 27.565872
24.850000 81.843750 27.565872
24.075000 89.875000 27.729550
24.200000 88.671875 27.729550
24.175000 85.640625 27.729550
24.500000 82.921875 27.729550
24.875000 83.281250 27.729550
24.925000 82.171875 27.729550
24.925000 80.984375 27.729550
25.075000 78.781250 27.729550
24.525000 82.375000 27.885826
24.850000 80.609375 27.885826
24.875000 81.593750 27.885826
24.200000 86.015625 28.057030
24.200000 84.859375 28.057030
24.525000 82.359375 28.057030
24.850000 81.296875 28.057030
24.875000 81.343750 28.057030
24.200000 88.109375 28.211552
24.200000 86.890625 28.211552
24.200000 83.984375 28.211552
24.525000 81.718750 28.211552
24.850000 80.078125 28.211552
24.025000 89.765625 28.372338
24.175000 88.609375 28.372338
24.200000 87.468750 28.372338
24.175000 86.312500 28.372338
24.150000 85.171875 28.372338
24.400000 79.812500 28.372338
24.650000 80.687500 28.372338
24.825000 78.921875 28.372338
23.725000 88.156250 28.537390
23.900000 88.953125 28.537390
24.025000 87.546875 28.537390
24.025000 86.421875 28.537390
24.025000 85.281250 28.537390
24.175000 84.375000 28.537390
24.175000 83.218750 28.537390
24.375000 79.484375 28.537390
23.900000 86.140625 28.692981
23.900000 85.000000 28.692981
23.900000 83.906250 28.692981
23.900000 82.750000 28.692981
24.025000 83.296875 28.692981
24.150000 82.140625 28.692981
23.625000 86.390625 28.848097
23.625000 87.078125 28.848097
23.725000 84.375000 28.848097
23.825000 82.968750 28.848097
23.875000 81.828125 28.848097
23.900000 80.812500 28.848097
23.900000 81.406250 28.848097
23.625000 86.531250 29.016265
23.725000 86.328125 29.016265
23.850000 84.218750 29.016265
23.850000 83.140625 29.016265
23.875000 82.687500 29.016265
23.900000 80.843750 29.016265
23.900000 81.109375 29.016265
23.725000 88.234375 29.170836
23.900000 87.078125 29.170836
23.900000 85.921875 29.170836
23.900000 84.781250 29.170836
23.900000 85.484375 29.170836
23.900000 82.953125 29.170836
24.275000 78.859375 29.170836
24.150000 88.062500 29.327689
24.150000 86.937500 29.327689
24.200000 86.171875 29.327689
24.300000 83.203125 29.327689
24.475000 81.937500 29.327689
24.625000 81.750000 29.327689
24.650000 81.796875 29.327689
24.625000 88.296875 29.499931
24.650000 86.750000 29.499931
24.650000 86.078125 29.499931
24.650000 83.546875 29.499931
24.650000 83.578125 29.499931
24.750000 80.562500 29.499931
24.850000 81.437500 29.499931
24.650000 87.968750 29.654206
24.675000 86.453125 29.654206
24.750000 84.343750 29.654206
24.850000 82.328125 29.654206
24.900000 83.484375 29.654206
24.950000 82.171875 29.654206
24.950000 81.031250 29.654206
25.100000 78.765625 29.654206
24.650000 89.218750 29.814442
24.750000 87.296875 29.814442
24.850000 87.328125 29.814442
24.875000 86.250000 29.814442
24.900000 85.000000 29.814442
24.950000 83.843750 29.814442
24.975000 82.593750 29.814442
24.975000 81.234375 29.814442
24.725000 87.515625 29.980714
24.875000 88.515625 29.980714
24.900000 87.359375 29.980714
24.900000 86.046875 29.980714
24.900000 85.093750 29.980714
24.925000 83.734375 29.980714
24.975000 82.578125 29.980714
25.100000 81.218750 29.980714
24.925000 87.812500 30.137280
24.950000 86.687500 30.137280
24.975000 85.484375 30.137280
24.975000 84.343750 30.137280
24.975000 83.187500 30.137280
25.100000 81.828125 30.137280
25.225000 80.687500 30.137280
25.375000 79.140625 30.137280
24.800000 89.671875 30.294100
24.950000 88.484375 30.294100
24.950000 87.171875 30.294100
24.950000 86.078125 30.294100
24.900000 84.968750 30.294100
24.925000 83.781250 30.294100
24.975000 82.421875 30.294100
25.100000 81.265625 30.294100
24.950000 88.234375 30.462801
24.975000 86.890625 30.462801
24.975000 85.843750 30.462801
24.975000 84.640625 30.462801
24.975000 83.296875 30.462801
25.100000 82.125000 30.462801
25.250000 80.968750 30.462801
24.925000 87.984375 30.620553
24.950000 86.656250 30.620553
24.950000 85.609375 30.620553
24.950000 84.468750 30.620553
24.975000 83.328125 30.620553
25.100000 81.953125 30.620553
25.350000 81.453125 30.620553
25.475000 78.828125 30.620553
24.925000 88.062500 30.773593
24.950000 86.718750 30.773593
24.950000 85.781250 30.773593
24.950000 84.484375 30.773593
24.975000 83.265625 30.773593
25.225000 79.296875 30.773593
24.900000 87.859375 30.936580
24.925000 86.609375 30.936580
24.950000 85.656250 30.936580
24.950000 84.484375 30.936580
24.950000 83.218750 30.936580
24.975000 81.890625 30.936580
25.000000 79.546875 30.936580
25.175000 79.046875 30.936580
24.850000 85.296875 31.102280
24.850000 84.406250 31.102280
24.875000 83.625000 31.102280
24.900000 84.250000 31.102280
24.950000 83.046875 31.102280
24.975000 81.359375 31.102280
24.625000 89.453125 31.252704
24.650000 86.281250 31.252704
24.650000 85.265625 31.252704
24.650000 85.531250 31.252704
24.675000 84.406250 31.252704
24.775000 83.953125 31.252704
24.900000 82.546875 31.252704
24.925000 81.265625 31.252704
24.625000 85.031250 31.415458
24.625000 83.875000 31.415458
24.650000 83.343750 31.415458
24.750000 81.109375 31.415458
24.150000 87.921875 31.570191
24.150000 86.734375 31.570191
24.150000 85.484375 31.570191
24.325000 84.937500 31.570191
24.550000 82.078125 31.570191
24.600000 80.718750 31.570191
24.625000 81.218750 31.570191
23.725000 89.015625 31.746191
23.900000 87.687500 31.746191
23.900000 85.546875 31.746191
23.900000 84.640625 31.746191
23.900000 83.531250 31.746191
23.900000 84.015625 31.746191
24.125000 80.218750 31.746191
24.450000 79.500000 31.746191
23.625000 87.796875 31.897032
23.625000 86.640625 31.897032
23.625000 85.484375 31.897032
23.625000 85.078125 31.897032
23.750000 83.250000 31.897032
23.875000 83.515625 31.897032
23.900000 82.890625 31.897032
23.925000 79.812500 31.897032
24.100000 80.281250 31.897032
24.300000 77.640625 31.897032
23.775000 87.921875 32.060215
23.900000 86.781250 32.060215
23.900000 85.640625 32.060215
23.900000 84.484375 32.060215
24.000000 84.828125 32.060215
24.125000 83.937500 32.060215
24.150000 82.781250 32.060215
24.350000 79.437500 32.060215
23.725000 88.203125 32.224409
24.025000 88.765625 32.224409
24.150000 87.609375 32.224409
24.150000 86.453125 32.224409
24.175000 85.609375 32.224409
24.200000 84.468750 32.224409
24.425000 78.859375 32.224409
24.025000 89.921875 32.373770
24.200000 88.765625 32.373770
24.200000 87.609375 32.373770
24.200000 86.468750 32.373770
24.200000 85.359375 32.373770
24.425000 81.953125 32.373770
24.675000 80.656250 32.373770
24.700000 78.906250 32.373770
24.025000 89.890625 32.536843
24.200000 88.671875 32.536843
24.200000 87.578125 32.536843
24.525000 83.515625 32.536843
24.850000 82.265625 32.536843
24.850000 80.046875 32.536843
24.850000 81.046875 32.536843
24.925000 78.375000 32.536843
24.175000 85.968750 32.691234
24.425000 86.812500 32.691234
24.750000 84.921875 32.691234
24.850000 83.281250 32.691234
24.850000 81.578125 32.691234
24.900000 82.437500 32.691234
24.925000 81.093750 32.691234
24.550000 87.734375 32.866313
24.750000 85.718750 32.866313
24.850000 84.000000 32.866313
24.850000 82.437500 32.866313
24.875000 83.359375 32.866313
24.875000 82.187500 32.866313
24.900000 81.078125 32.866313
25.125000 79.718750 32.866313
24.650000 85.578125 33.019350
24.850000 84.312500 33.019350
24.850000 83.078125 33.019350
24.900000 82.078125 33.019350
24.975000 80.734375 33.019350
25.100000 78.453125 33.019350
24.850000 85.828125 33.186280
24.850000 86.718750 33.186280
24.850000 85.562500 33.186280
24.850000 84.437500 33.186280
24.850000 83.109375 33.186280
24.900000 81.953125 33.186280
24.950000 80.890625 33.186280
25.100000 78.031250 33.186280
24.400000 87.859375 33.331926
24.750000 85.609375 33.331926
24.850000 83.828125 33.331926
24.850000 83.187500 33.331926
24.875000 81.406250 33.331926
24.900000 82.218750 33.331926
24.925000 80.984375 33.331926
25.100000 79.625000 33.331926
24.225000 88.203125 33.498776
24.450000 86.890625 33.498776
24.675000 85.828125 33.498776
24.750000 83.656250 33.498776
24.750000 83.234375 33.498776
24.800000 82.328125 33.498776
24.925000 81.343750 33.498776
24.175000 88.093750 33.660444
24.175000 85.093750 33.660444
24.400000 83.656250 33.660444
24.675000 82.250000 33.660444
24.800000 81.468750 33.660444
24.175000 88.234375 33.813946
24.175000 85.156250 33.813946
24.400000 83.046875 33.813946
24.625000 80.640625 33.813946
24.650000 81.578125 33.813946
24.150000 87.687500 33.973980
24.150000 86.531250 33.973980
24.150000 85.484375 33.973980
24.175000 84.562500 33.973980
24.400000 79.203125 33.973980
23.900000 87.640625 34.146613
23.900000 86.500000 34.146613
23.900000 85.343750 34.146613
23.900000 84.203125 34.146613
23.900000 83.125000 34.146613
23.900000 83.781250 34.146613
24.025000 82.531250 34.146613
24.400000 79.171875 34.146613
23.725000 86.109375 34.305773
23.850000 84.968750 34.305773
23.850000 83.906250 34.305773
23.850000 82.765625 34.305773
23.875000 82.312500 34.305773
23.900000 81.046875 34.305773
23.900000 79.328125 34.305773
23.100000 88.203125 34.460001
23.225000 87.046875 34.460001
23.225000 87.718750 34.460001
23.250000 86.390625 34.460001
23.250000 85.265625 34.460001
23.275000 83.921875 34.460001
23.450000 83.187500 34.460001
23.625000 81.421875 34.460001
23.625000 79.109375 34.460001
23.075000 88.250000 34.624788
23.225000 87.109375 34.624788
23.225000 85.953125 34.624788
23.225000 84.796875 34.624788
23.225000 83.750000 34.624788
23.250000 82.609375 34.624788
23.250000 82.828125 34.624788
23.275000 81.812500 34.624788
23.450000 79.156250 34.624788
23.100000 88.125000 34.786068
23.225000 86.984375 34.786068
23.225000 87.609375 34.786068
23.250000 86.109375 34.786068
23.550000 81.312500 34.786068
23.875000 81.078125 34.786068
23.900000 79.015625 34.786068
23.900000 77.859375 34.786068
23.550000 89.250000 34.935565
23.550000 88.109375 34.935565
23.725000 85.828125 34.935565
23.900000 84.796875 34.935565
23.900000 83.812500 34.935565
23.900000 82.328125 34.935565
23.900000 81.187500 34.935565
23.900000 80.031250 34.935565
23.900000 86.078125 35.095780
23.875000 84.921875 35.095780
23.850000 83.859375 35.095780
23.850000 82.703125 35.095780
24.000000 83.250000 35.095780
24.150000 82.109375 35.095780
24.150000 80.953125 35.095780
23.725000 88.171875 35.265780
23.900000 87.015625 35.265780
24.025000 87.562500 35.265780
24.025000 84.718750 35.265780
24.025000 85.343750 35.265780
24.150000 84.203125 35.265780
24.175000 83.281250 35.265780
24.200000 82.140625 35.265780
24.150000 87.359375 35.421428
24.150000 86.203125 35.421428
24.150000 85.125000 35.421428
24.150000 83.984375 35.421428
24.175000 83.078125 35.421428
24.425000 79.781250 35.421428
24.200000 88.375000 35.578176
24.200000 87.234375 35.578176
24.200000 86.171875 35.578176
24.200000 85.031250 35.578176
24.200000 83.875000 35.578176
24.425000 80.234375 35.578176
24.775000 79.265625 35.578176
24.200000 87.921875 35.734899
24.200000 86.765625 35.734899
24.175000 85.687500 35.734899
24.175000 84.531250 35.734899
24.175000 83.390625 35.734899
24.175000 88.093750 35.907088
24.175000 86.937500 35.907088
24.175000 86.140625 35.907088
24.200000 85.000000 35.907088
24.200000 83.843750 35.907088
24.175000 82.640625 35.907088
24.525000 79.312500 35.907088
24.000000 89.578125 36.060428
24.150000 88.421875 36.060428
24.150000 87.265625 36.060428
24.150000 86.125000 36.060428
24.125000 85.062500 36.060428
24.125000 83.906250 36.060428
24.150000 82.765625 36.060428
24.425000 79.328125 36.060428
23.900000 86.125000 36.218437
23.875000 84.984375 36.218437
23.850000 83.921875 36.218437
24.000000 84.468750 36.218437
24.150000 83.328125 36.218437
24.150000 82.171875 36.218437
24.175000 81.218750 36.218437
23.725000 88.109375 36.375494
23.900000 86.953125 36.375494
23.900000 85.796875 36.375494
23.900000 84.656250 36.375494
23.900000 83.593750 36.375494
23.900000 82.437500 36.375494
23.900000 81.281250 36.375494
23.900000 81.687500 36.375494
23.725000 87.828125 36.532673
23.850000 86.671875 36.532673
23.875000 86.078125 36.532673
23.900000 85.046875 36.532673
23.900000 83.265625 36.532673
23.900000 82.125000 36.532673
23.900000 81.531250 36.532673
23.900000 79.953125 36.532673
23.900000 78.671875 36.532673
24.100000 79.046875 36.532673
23.075000 88.484375 36.702965
23.225000 89.156250 36.702965
23.225000 86.187500 36.702965
23.225000 86.687500 36.702965
23.250000 85.125000 36.702965
23.425000 82.812500 36.702965
23.625000 81.656250 36.702965
23.700000 80.625000 36.702965
23.825000 79.687500 36.702965
23.200000 88.296875 36.857402
23.200000 85.703125 36.857402
23.225000 84.546875 36.857402
23.225000 83.421875 36.857402
23.225000 84.031250 36.857402
23.250000 82.453125 36.857402
23.425000 79.968750 36.857402
23.600000 78.812500 36.857402
23.600000 77.671875 36.857402
23.075000 89.812500 37.013442
23.200000 88.609375 37.013442
23.200000 87.406250 37.013442
23.200000 84.671875 37.013442
23.225000 83.531250 37.013442
23.225000 84.203125 37.013442
23.250000 82.312500 37.013442
23.425000 81.921875 37.013442
23.625000 79.890625 37.013442
23.625000 79.265625 37.013442
23.250000 88.062500 37.185809
23.250000 86.484375 37.185809
23.425000 84.203125 37.185809
23.625000 83.140625 37.185809
23.750000 82.750000 37.185809
23.875000 82.328125 37.185809
23.900000 80.125000 37.185809
23.700000 88.062500 37.340723
23.875000 87.328125 37.340723
23.900000 86.640625 37.340723
23.900000 84.625000 37.340723
23.900000 83.562500 37.340723
23.900000 82.406250 37.340723
23.900000 81.265625 37.340723
23.900000 81.546875 37.340723
23.850000 87.750000 37.499406
23.875000 86.593750 37.499406
23.900000 85.437500 37.499406
24.025000 85.984375 37.499406
24.125000 84.718750 37.499406
24.125000 83.828125 37.499406
24.150000 82.671875 37.499406
24.425000 79.640625 37.499406
24.175000 87.843750 37.667076
24.200000 86.687500 37.667076
24.175000 85.640625 37.667076
24.400000 81.796875 37.667076
24.650000 80.625000 37.667076
24.650000 79.453125 37.667076
24.150000 88.296875 37.816637
24.175000 87.156250 37.816637
24.175000 86.125000 37.816637
24.175000 84.984375 37.816637
24.425000 79.609375 37.816637
24.200000 87.734375 37.977448
24.200000 86.578125 37.977448
24.425000 83.328125 37.977448
24.675000 81.875000 37.977448
24.750000 79.093750 37.977448
24.875000 78.843750 37.977448
24.025000 89.812500 38.133949
24.200000 88.671875 38.133949
24.200000 85.593750 38.133949
24.450000 84.000000 38.133949
24.675000 82.656250 38.133949
24.775000 82.046875 38.133949
24.900000 80.750000 38.133949
25.075000 78.875000 38.133949
24.300000 88.265625 38.306969
24.150000 85.171875 38.306969
24.500000 82.031250 38.306969
24.850000 82.828125 38.306969
24.900000 81.437500 38.306969
24.025000 87.921875 38.465284
24.200000 86.765625 38.465284
24.200000 85.609375 38.465284
24.450000 84.015625 38.465284
24.750000 80.859375 38.465284
24.850000 82.062500 38.465284
24.900000 80.734375 38.465284
25.075000 78.671875 38.465284
24.175000 87.562500 38.623189
24.200000 88.281250 38.623189
24.175000 85.265625 38.623189
24.175000 84.187500 38.623189
24.400000 85.093750 38.623189
24.675000 83.718750 38.623189
24.750000 80.750000 38.623189
24.875000 81.640625 38.623189
24.175000 86.031250 38.776037
24.425000 84.781250 38.776037
24.675000 83.437500 38.776037
24.675000 82.203125 38.776037
24.750000 78.968750 38.776037
24.050000 89.546875 38.936778
24.175000 88.390625 38.936778
24.175000 85.312500 38.936778
24.175000 84.218750 38.936778
24.175000 83.078125 38.936778
24.225000 83.953125 38.936778
24.450000 81.046875 38.936778
24.650000 81.671875 38.936778
24.750000 78.500000 38.936778
25.025000 78.734375 38.936778
24.025000 89.593750 39.103608
24.175000 88.453125 39.103608
24.175000 87.296875 39.103608
24.200000 86.375000 39.103608
24.200000 85.343750 39.103608
24.200000 84.125000 39.103608
24.425000 78.828125 39.103608
24.675000 78.468750 39.103608
23.900000 86.125000 39.258127
23.900000 84.984375 39.258127
23.900000 85.843750 39.258127
23.925000 84.359375 39.258127
24.025000 83.296875 39.258127
24.175000 82.390625 39.258127
23.900000 87.015625 39.413888
23.900000 85.562500 39.413888
23.900000 83.687500 39.413888
23.900000 82.781250 39.413888
23.900000 81.640625 39.413888
23.900000 80.500000 39.413888
24.025000 81.046875 39.413888
23.575000 89.265625 39.585885
23.625000 87.718750 39.585885
23.625000 86.703125 39.585885
23.625000 84.671875 39.585885
23.625000 85.484375 39.585885
23.650000 83.546875 39.585885
23.750000 82.015625 39.585885
23.875000 81.062500 39.585885
23.900000 80.609375 39.585885
23.725000 87.859375 39.746568
23.875000 87.750000 39.746568
23.900000 85.890625 39.746568
23.900000 84.406250 39.746568
23.900000 83.328125 39.746568
23.900000 82.171875 39.746568
23.900000 82.203125 39.746568
24.025000 81.453125 39.746568
24.350000 80.218750 39.746568
24.600000 78.203125 39.746568
23.800000 88.109375 39.900052
23.900000 88.890625 39.900052
23.925000 86.953125 39.900052
24.025000 86.343750 39.900052
24.150000 85.203125 39.900052
24.175000 84.187500 39.900052
24.400000 83.109375 39.900052
24.625000 81.875000 39.900052
24.650000 79.187500 39.900052
24.675000 79.718750 39.900052
24.050000 89.500000 40.062691
24.200000 86.500000 40.062691
24.425000 85.093750 40.062691
24.650000 82.718750 40.062691
24.650000 82.671875 40.062691
24.650000 81.125000 40.062691
24.650000 86.812500 40.213422
24.650000 84.906250 40.213422
24.650000 84.375000 40.213422
24.650000 84.531250 40.213422
24.775000 83.640625 40.213422
24.900000 82.203125 40.213422
24.950000 81.234375 40.213422
25.100000 79.718750 40.213422
24.500000 89.843750 40.376794
24.675000 88.671875 40.376794
24.675000 87.531250 40.376794
24.675000 85.515625 40.376794
24.650000 84.687500 40.376794
24.775000 84.062500 40.376794
24.950000 82.953125 40.376794
24.975000 81.656250 40.376794
24.750000 86.343750 40.536074
24.875000 86.906250 40.536074
24.925000 85.875000 40.536074
24.925000 84.671875 40.536074
24.950000 83.421875 40.536074
24.950000 82.203125 40.536074
24.950000 80.703125 40.536074
25.125000 78.953125 40.536074
24.875000 88.281250 40.707481
24.925000 87.218750 40.707481
24.925000 86.031250 40.707481
24.950000 84.906250 40.707481
24.975000 83.562500 40.707481
24.975000 82.250000 40.707481
24.975000 79.718750 40.707481
24.850000 87.953125 40.864430
24.875000 86.843750 40.864430
24.925000 85.687500 40.864430
24.950000 84.656250 40.864430
24.975000 83.375000 40.864430
25.250000 79.718750 40.864430
24.800000 89.562500 41.022585
24.975000 88.218750 41.022585
24.975000 87.062500 41.022585
24.950000 86.046875 41.022585
24.950000 84.953125 41.022585
24.975000 83.750000 41.022585
24.975000 82.093750 41.022585
25.100000 81.234375 41.022585
24.950000 87.890625 41.183930
24.975000 86.734375 41.183930
24.950000 85.765625 41.183930
24.925000 84.578125 41.183930
24.950000 83.421875 41.183930
25.100000 82.062500 41.183930
25.350000 81.578125 41.183930
25.475000 79.484375 41.183930
24.950000 87.812500 41.336478
24.975000 86.500000 41.336478
24.950000 85.453125 41.336478
24.950000 84.281250 41.336478
24.975000 83.140625 41.336478
25.100000 81.765625 41.336478
25.350000 81.140625 41.336478
25.625000 79.859375 41.336478
24.925000 87.671875 41.499604
24.875000 84.562500 41.499604
24.875000 85.062500 41.499604
24.900000 84.203125 41.499604
24.950000 82.843750 41.499604
25.000000 81.296875 41.499604
25.225000 79.859375 41.499604
25.600000 78.468750 41.499604
24.875000 87.640625 41.665374
24.875000 84.203125 41.665374
24.875000 85.453125 41.665374
24.900000 84.171875 41.665374
24.925000 83.000000 41.665374
24.975000 81.281250 41.665374
25.125000 80.890625 41.665374
25.425000 78.781250 41.665374
24.675000 88.000000 41.812954
24.775000 85.218750 41.812954
24.900000 84.843750 41.812954
24.925000 84.859375 41.812954
24.900000 83.734375 41.812954
24.925000 82.640625 41.812954
24.975000 80.859375 41.812954
24.600000 89.046875 41.979113
24.650000 86.703125 41.979113
24.650000 86.281250 41.979113
24.650000 86.062500 41.979113
24.650000 83.062500 41.979113
24.750000 83.171875 41.979113
24.850000 82.750000 41.979113
24.900000 81.609375 41.979113
24.225000 87.937500 42.135486
24.450000 84.625000 42.135486
24.650000 82.593750 42.135486
24.650000 82.000000 42.135486
24.675000 79.421875 42.135486
24.725000 80.078125 42.135486
23.750000 87.890625 42.293271
23.900000 86.750000 42.293271
23.900000 85.593750 42.293271
23.900000 86.140625 42.293271
24.025000 85.078125 42.293271
24.150000 83.828125 42.293271
24.350000 81.109375 42.293271
24.575000 81.703125 42.293271
24.600000 80.812500 42.293271
24.650000 77.781250 42.293271
23.450000 89.937500 42.462799
23.625000 87.171875 42.462799
23.625000 87.468750 42.462799
23.650000 84.875000 42.462799
23.650000 85.265625 42.462799
23.775000 83.562500 42.462799
23.900000 83.296875 42.462799
23.925000 82.140625 42.462799
24.125000 80.953125 42.462799
23.875000 87.265625 42.622721
23.900000 85.359375 42.622721
23.900000 84.218750 42.622721
23.900000 83.125000 42.622721
23.900000 81.984375 42.622721
23.900000 80.828125 42.622721
24.225000 79.343750 42.622721
23.725000 88.031250 42.773903
23.875000 86.875000 42.773903
23.900000 85.703125 42.773903
24.025000 86.250000 42.773903
24.150000 85.250000 42.773903
24.150000 84.093750 42.773903
24.175000 83.140625 42.773903
24.425000 79.609375 42.773903
24.175000 88.218750 42.938219
24.200000 87.062500 42.938219
24.200000 86.031250 42.938219
24.200000 84.859375 42.938219
24.225000 83.843750 42.938219
24.450000 81.718750 42.938219
24.650000 80.000000 42.938219
24.650000 80.171875 42.938219
24.850000 78.921875 42.938219
24.200000 87.890625 43.096997
24.200000 84.796875 43.096997
24.450000 83.359375 43.096997
24.675000 82.312500 43.096997
24.675000 80.484375 43.096997
24.075000 89.687500 43.252459
24.200000 86.609375 43.252459
24.225000 87.500000 43.252459
24.450000 86.390625 43.252459
24.675000 85.156250 43.252459
24.675000 83.921875 43.252459
24.750000 80.921875 43.252459
24.850000 79.765625 43.252459
24.875000 80.750000 43.252459
25.075000 79.109375 43.252459
24.100000 87.656250 43.429056
24.525000 85.312500 43.429056
24.850000 83.125000 43.429056
24.875000 84.093750 43.429056
24.925000 82.843750 43.429056
24.950000 81.828125 43.429056
24.450000 86.515625 43.583838
24.650000 84.265625 43.583838
24.850000 85.359375 43.583838
24.875000 84.015625 43.583838
24.925000 82.765625 43.583838
24.950000 81.890625 43.583838
24.950000 80.468750 43.583838
25.150000 79.125000 43.583838
24.300000 87.359375 43.743693
24.650000 85.609375 43.743693
24.850000 86.171875 43.743693
24.900000 85.000000 43.743693
24.925000 83.875000 43.743693
24.925000 82.640625 43.743693
24.950000 81.343750 43.743693
24.575000 87.781250 43.897175
24.675000 86.640625 43.897175
24.750000 83.953125 43.897175
24.850000 84.750000 43.897175
24.900000 83.453125 43.897175
24.950000 82.421875 43.897175
24.975000 81.015625 43.897175
25.100000 79.484375 43.897175
24.325000 87.343750 44.063038
24.750000 85.109375 44.063038
24.750000 84.937500 44.063038
24.675000 83.781250 44.063038
24.750000 83.156250 44.063038
24.875000 81.812500 44.063038
24.925000 80.812500 44.063038
25.100000 79.781250 44.063038
24.650000 85.625000 44.222963
24.675000 84.453125 44.222963
24.675000 82.953125 44.222963
24.750000 80.296875 44.222963
24.850000 81.218750 44.222963
25.050000 79.031250 44.222963
24.200000 87.640625 44.377505
24.425000 82.750000 44.377505
24.650000 83.343750 44.377505
24.675000 82.015625 44.377505
24.750000 79.781250 44.377505
24.875000 78.406250 44.377505
24.075000 89.718750 44.534780
24.200000 88.562500 44.534780
24.200000 87.406250 44.534780
24.200000 86.250000 44.534780
24.425000 82.078125 44.534780
24.650000 80.484375 44.534780
24.650000 78.703125 44.534780
24.800000 79.109375 44.534780
23.750000 88.125000 44.703644
23.900000 86.968750 44.703644
23.900000 85.812500 44.703644
24.000000 86.093750 44.703644
24.000000 85.437500 44.703644
24.025000 84.109375 44.703644
24.150000 82.968750 44.703644
24.175000 80.125000 44.703644
24.400000 79.375000 44.703644
24.600000 79.609375 44.703644
23.700000 88.578125 44.869176
23.875000 87.265625 44.869176
23.900000 85.781250 44.869176
23.900000 84.625000 44.869176
23.900000 83.515625 44.869176
23.900000 82.359375 44.869176
23.900000 81.218750 44.869176
23.900000 81.281250 44.869176
23.950000 78.921875 44.869176
24.150000 77.765625 44.869176
23.125000 89.296875 45.018908
23.250000 88.453125 45.018908
23.250000 87.140625 45.018908
23.425000 84.734375 45.018908
23.625000 83.640625 45.018908
23.625000 82.500000 45.018908
23.625000 81.343750 45.018908
23.725000 80.812500 45.018908
23.850000 78.796875 45.018908
23.025000 89.312500 45.182646
23.150000 87.859375 45.182646
23.150000 86.703125 45.182646
23.150000 85.000000 45.182646
23.150000 83.906250 45.182646
23.175000 83.640625 45.182646
23.225000 82.937500 45.182646
23.425000 82.265625 45.182646
23.600000 79.328125 45.182646
23.075000 88.218750 45.333282
23.225000 87.062500 45.333282
23.225000 85.921875 45.333282
23.225000 84.765625 45.333282
23.225000 85.515625 45.333282
23.250000 84.250000 45.333282
23.275000 82.843750 45.333282
23.450000 80.296875 45.333282
23.725000 78.890625 45.333282
23.475000 87.203125 45.498724
23.675000 83.265625 45.498724
