38.225000 13.406250 34.202520
38.825000 14.671875 34.202520
37.350000 2.968750 34.359172
37.475000 4.031250 34.359172
37.400000 5.031250 34.359172
37.175000 6.687500 34.359172
37.325000 7.421875 34.359172
37.875000 8.546875 34.359172
38.350000 9.687500 34.359172
38.200000 10.890625 34.359172
37.975000 12.015625 34.359172
38.150000 13.578125 34.359172
38.600000 14.343750 34.359172
37.350000 2.453125 34.520998
37.425000 3.656250 34.520998
37.625000 5.062500 34.520998
37.575000 6.062500 34.520998
37.525000 7.343750 34.520998
37.975000 8.125000 34.520998
38.550000 9.250000 34.520998
38.400000 10.812500 34.520998
37.950000 11.812500 34.520998
38.125000 12.921875 34.520998
38.525000 13.968750 34.520998
37.150000 2.046875 34.674999
37.375000 2.921875 34.674999
37.400000 4.312500 34.674999
37.450000 5.468750 34.674999
37.525000 6.500000 34.674999
37.725000 8.000000 34.674999
38.175000 8.906250 34.674999
38.375000 10.234375 34.674999
38.100000 11.203125 34.674999
38.050000 12.531250 34.674999
38.400000 13.750000 34.674999
37.275000 2.390625 34.833999
37.375000 3.328125 34.833999
37.475000 4.687500 34.833999
37.500000 5.406250 34.833999
37.600000 6.906250 34.833999
37.900000 7.703125 34.833999
38.375000 8.906250 34.833999
38.225000 10.125000 34.833999
37.875000 11.515625 34.833999
38.075000 12.437500 34.833999
38.400000 13.500000 34.833999
37.900000 2.140625 34.989631
37.375000 2.921875 34.989631
37.475000 3.906250 34.989631
37.525000 5.578125 34.989631
37.600000 6.562500 34.989631
37.825000 7.687500 34.989631
38.200000 8.765625 34.989631
38.300000 10.140625 34.989631
38.000000 11.312500 34.989631
37.850000 12.484375 34.989631
38.050000 13.515625 34.989631
38.725000 14.656250 34.989631
37.150000 1.984375 35.143111
37.375000 3.390625 35.143111
37.475000 4.531250 35.143111
37.500000 5.406250 35.143111
37.575000 6.640625 35.143111
37.825000 7.734375 35.143111
38.200000 8.734375 35.143111
38.125000 10.000000 35.143111
37.825000 11.296875 35.143111
37.850000 12.593750 35.143111
37.400000 2.796875 35.299288
37.450000 4.015625 35.299288
37.500000 4.875000 35.299288
37.525000 6.187500 35.299288
37.700000 7.265625 35.299288
38.075000 8.453125 35.299288
38.400000 9.671875 35.299288
38.225000 10.734375 35.299288
37.925000 11.968750 35.299288
38.100000 12.984375 35.299288
38.525000 14.046875 35.299288
37.400000 2.484375 35.455426
37.550000 3.656250 35.455426
37.600000 4.828125 35.455426
37.525000 6.062500 35.455426
37.700000 7.203125 35.455426
38.100000 8.296875 35.455426
38.325000 9.656250 35.455426
38.150000 11.000000 35.455426
37.925000 12.093750 35.455426
38.050000 13.187500 35.455426
38.475000 14.234375 35.455426
37.400000 2.640625 35.610301
37.450000 3.703125 35.610301
37.475000 5.234375 35.610301
37.500000 6.343750 35.610301
37.700000 7.109375 35.610301
38.075000 8.265625 35.610301
38.325000 9.671875 35.610301
38.125000 10.750000 35.610301
37.900000 12.046875 35.610301
38.075000 13.296875 35.610301
38.500000 14.421875 35.610301
37.825000 1.859375 35.765830
37.375000 2.812500 35.765830
37.450000 3.859375 35.765830
37.475000 5.015625 35.765830
37.600000 5.984375 35.765830
37.800000 7.468750 35.765830
38.050000 8.437500 35.765830
38.300000 9.671875 35.765830
38.100000 11.078125 35.765830
37.875000 11.734375 35.765830
38.050000 13.015625 35.765830
38.475000 14.265625 35.765830
37.375000 2.921875 35.923485
37.550000 3.812500 35.923485
37.200000 5.125000 35.923485
37.025000 6.125000 35.923485
37.400000 7.640625 35.923485
37.875000 8.375000 35.923485
38.325000 9.562500 35.923485
38.125000 10.937500 35.923485
37.875000 12.312500 35.923485
38.000000 13.031250 35.923485
38.450000 14.250000 35.923485
37.350000 2.562500 36.079474
37.525000 3.640625 36.079474
38.000000 9.687500 36.079474
38.100000 11.015625 36.079474
37.850000 11.859375 36.079474
37.975000 13.203125 36.079474
38.450000 14.375000 36.079474
37.225000 2.468750 36.233546
37.350000 3.625000 36.233546
36.675000 5.812500 36.233546
38.125000 10.531250 36.233546
37.800000 11.937500 36.233546
37.875000 12.828125 36.233546
38.300000 13.906250 36.233546
37.050000 2.312500 36.391074
37.425000 3.484375 36.391074
36.525000 5.781250 36.391074
37.100000 6.781250 36.391074
37.725000 8.250000 36.391074
38.150000 9.234375 36.391074
38.125000 10.234375 36.391074
37.875000 11.750000 36.391074
37.850000 12.890625 36.391074
38.225000 14.125000 36.391074
36.825000 1.984375 36.546281
36.975000 3.500000 36.546281
36.625000 4.234375 36.546281
36.350000 5.531250 36.546281
36.625000 6.656250 36.546281
37.975000 11.312500 36.546281
37.850000 12.312500 36.546281
36.675000 2.078125 36.702398
36.675000 2.937500 36.702398
36.400000 4.484375 36.702398
36.250000 5.421875 36.702398
38.125000 10.984375 36.702398
37.850000 12.125000 36.702398
38.025000 13.343750 36.702398
38.575000 14.703125 36.702398
36.375000 5.015625 36.867746
36.350000 6.296875 36.867746
38.025000 10.906250 36.867746
37.875000 12.000000 36.867746
37.875000 13.093750 36.867746
38.125000 14.296875 36.867746
36.700000 3.046875 37.022019
36.875000 4.359375 37.022019
36.300000 6.312500 37.022019
36.675000 7.640625 37.022019
37.200000 8.703125 37.022019
37.975000 9.828125 37.022019
38.075000 11.281250 37.022019
37.925000 12.250000 37.022019
37.925000 13.453125 37.022019
38.175000 14.515625 37.022019
36.625000 2.156250 37.181087
36.475000 3.718750 37.181087
36.100000 4.812500 37.181087
35.950000 6.062500 37.181087
38.200000 10.015625 37.181087
38.150000 11.625000 37.181087
37.875000 12.875000 37.181087
37.850000 13.562500 37.181087
36.675000 2.500000 37.330113
36.600000 3.984375 37.330113
36.125000 4.812500 37.330113
35.950000 6.250000 37.330113
36.275000 7.328125 37.330113
37.925000 11.875000 37.330113
37.725000 13.062500 37.330113
37.825000 14.125000 37.330113
36.550000 2.109375 37.492371
36.600000 3.078125 37.492371
36.950000 3.968750 37.492371
35.875000 6.406250 37.492371
36.175000 7.515625 37.492371
37.775000 12.234375 37.492371
37.675000 13.265625 37.492371
38.000000 14.406250 37.492371
36.325000 2.218750 37.643481
36.100000 5.437500 37.643481
35.850000 6.671875 37.643481
36.100000 8.062500 37.643481
37.725000 12.265625 37.643481
37.650000 13.593750 37.643481
38.100000 14.484375 37.643481
36.525000 3.421875 37.807194
36.925000 4.218750 37.807194
35.850000 6.906250 37.807194
36.100000 8.000000 37.807194
37.725000 12.546875 37.807194
37.625000 13.750000 37.807194
38.200000 14.718750 37.807194
36.525000 2.859375 37.963908
36.300000 4.218750 37.963908
35.875000 5.281250 37.963908
35.875000 6.328125 37.963908
36.150000 7.546875 37.963908
36.800000 11.250000 37.963908
37.350000 12.515625 37.963908
37.525000 13.421875 37.963908
37.975000 14.765625 37.963908
36.400000 2.515625 38.119133
36.250000 6.468750 38.119133
36.100000 7.406250 38.119133
36.375000 8.437500 38.119133
36.875000 9.703125 38.119133
37.150000 11.046875 38.119133
37.200000 12.234375 38.119133
37.400000 12.937500 38.119133
37.775000 14.500000 38.119133
36.375000 2.687500 38.268931
36.425000 4.171875 38.268931
36.650000 4.921875 38.268931
36.475000 6.359375 38.268931
36.100000 7.640625 38.268931
36.375000 8.734375 38.268931
36.775000 9.906250 38.268931
37.050000 10.828125 38.268931
37.175000 12.171875 38.268931
37.375000 13.125000 38.268931
37.750000 14.484375 38.268931
36.400000 2.859375 38.432719
36.400000 4.015625 38.432719
36.400000 5.140625 38.432719
36.325000 6.656250 38.432719
36.275000 7.500000 38.432719
36.575000 8.578125 38.432719
36.825000 9.968750 38.432719
36.900000 11.250000 38.432719
37.175000 12.312500 38.432719
37.425000 13.515625 38.432719
37.775000 14.218750 38.432719
36.325000 3.234375 38.587221
36.375000 4.593750 38.587221
36.375000 5.453125 38.587221
36.375000 6.734375 38.587221
36.575000 7.906250 38.587221
36.675000 8.750000 38.587221
36.725000 9.875000 38.587221
36.875000 11.531250 38.587221
37.050000 12.437500 38.587221
37.350000 13.656250 38.587221
37.850000 14.437500 38.587221
36.250000 2.265625 38.742665
36.325000 3.484375 38.742665
36.325000 4.890625 38.742665
36.325000 5.703125 38.742665
36.400000 7.046875 38.742665
36.550000 8.500000 38.742665
36.625000 9.406250 38.742665
36.750000 10.468750 38.742665
36.900000 11.812500 38.742665
37.075000 13.015625 38.742665
37.400000 13.875000 38.742665
36.300000 3.000000 38.900311
36.325000 3.968750 38.900311
36.375000 5.343750 38.900311
36.350000 6.437500 38.900311
36.475000 7.687500 38.900311
36.525000 8.765625 38.900311
36.525000 9.687500 38.900311
36.725000 11.000000 38.900311
36.975000 12.109375 38.900311
37.150000 13.078125 38.900311
37.475000 14.093750 38.900311
36.250000 3.265625 39.055376
36.275000 4.359375 39.055376
36.325000 5.609375 39.055376
36.350000 6.734375 39.055376
36.525000 8.046875 39.055376
36.600000 8.906250 39.055376
36.575000 10.125000 39.055376
36.775000 11.500000 39.055376
37.000000 12.453125 39.055376
37.225000 13.578125 39.055376
37.775000 14.656250 39.055376
36.250000 2.203125 39.212817
36.275000 3.265625 39.212817
36.325000 4.437500 39.212817
36.350000 6.062500 39.212817
36.400000 6.937500 39.212817
36.450000 8.140625 39.212817
36.525000 9.328125 39.212817
36.625000 10.328125 39.212817
36.800000 11.828125 39.212817
37.000000 12.656250 39.212817
36.250000 2.312500 39.367780
36.300000 3.468750 39.367780
36.325000 5.015625 39.367780
36.325000 6.046875 39.367780
36.425000 7.156250 39.367780
36.450000 8.593750 39.367780
36.500000 9.265625 39.367780
36.700000 10.812500 39.367780
36.850000 12.000000 39.367780
37.025000 13.000000 39.367780
37.300000 14.234375 39.367780
36.250000 2.781250 39.525628
36.300000 3.718750 39.525628
36.350000 4.765625 39.525628
36.375000 5.953125 39.525628
36.525000 7.078125 39.525628
36.550000 8.171875 39.525628
36.525000 9.375000 39.525628
36.725000 10.468750 39.525628
36.825000 12.093750 39.525628
37.000000 12.765625 39.525628
37.275000 14.218750 39.525628
36.300000 2.687500 39.679770
36.325000 3.656250 39.679770
36.375000 5.281250 39.679770
36.375000 6.390625 39.679770
36.525000 7.250000 39.679770
36.575000 8.500000 39.679770
36.525000 9.453125 39.679770
36.725000 10.984375 39.679770
36.850000 12.140625 39.679770
37.050000 13.078125 39.679770
37.325000 14.468750 39.679770
36.275000 2.640625 39.832768
36.300000 3.515625 39.832768
36.325000 4.718750 39.832768
36.350000 6.140625 39.832768
36.575000 6.875000 39.832768
36.600000 8.609375 39.832768
36.500000 9.578125 39.832768
36.625000 10.890625 39.832768
36.800000 11.859375 39.832768
37.025000 12.703125 39.832768
36.300000 2.062500 39.993770
36.375000 2.906250 39.993770
36.375000 4.234375 39.993770
36.400000 5.453125 39.993770
36.400000 6.500000 39.993770
36.675000 7.656250 39.993770
36.725000 9.015625 39.993770
36.625000 10.031250 39.993770
36.800000 11.015625 39.993770
36.925000 12.546875 39.993770
37.125000 13.593750 39.993770
37.425000 14.578125 39.993770
36.300000 2.906250 40.154003
36.325000 3.750000 40.154003
36.375000 5.078125 40.154003
36.375000 6.343750 40.154003
36.700000 7.312500 40.154003
36.725000 8.828125 40.154003
36.525000 9.640625 40.154003
36.700000 10.796875 40.154003
36.850000 11.765625 40.154003
37.050000 12.984375 40.154003
37.325000 14.234375 40.154003
36.350000 2.031250 40.307225
36.300000 3.031250 40.307225
36.325000 4.156250 40.307225
36.375000 5.218750 40.307225
36.425000 6.546875 40.307225
36.775000 7.468750 40.307225
36.750000 8.750000 40.307225
36.525000 9.609375 40.307225
36.700000 10.859375 40.307225
36.925000 12.359375 40.307225
37.125000 13.468750 40.307225
37.425000 14.218750 40.307225
36.275000 2.750000 40.462224
36.325000 3.937500 40.462224
36.375000 4.968750 40.462224
36.375000 6.234375 40.462224
36.700000 7.546875 40.462224
36.750000 8.484375 40.462224
36.550000 9.531250 40.462224
36.700000 10.703125 40.462224
36.900000 11.875000 40.462224
37.100000 13.156250 40.462224
37.425000 14.109375 40.462224
36.275000 2.546875 40.620223
36.300000 3.453125 40.620223
36.325000 4.687500 40.620223
36.375000 5.812500 40.620223
36.600000 7.234375 40.620223
36.675000 8.375000 40.620223
36.575000 9.484375 40.620223
36.625000 10.406250 40.620223
36.825000 11.828125 40.620223
37.050000 13.140625 40.620223
37.350000 14.234375 40.620223
36.300000 3.156250 40.773270
36.400000 4.250000 40.773270
36.400000 5.390625 40.773270
36.450000 6.656250 40.773270
36.625000 7.921875 40.773270
36.600000 9.156250 40.773270
36.650000 10.078125 40.773270
36.850000 11.265625 40.773270
37.025000 12.718750 40.773270
37.250000 13.421875 40.773270
37.625000 14.531250 40.773270
36.300000 2.500000 40.930598
36.325000 4.031250 40.930598
36.375000 5.218750 40.930598
36.475000 6.062500 40.930598
36.700000 7.390625 40.930598
36.675000 8.484375 40.930598
36.550000 9.718750 40.930598
36.700000 10.890625 40.930598
36.925000 11.703125 40.930598
37.125000 13.265625 40.930598
37.400000 14.359375 40.930598
36.325000 3.281250 41.101025
36.400000 4.406250 41.101025
36.475000 5.687500 41.101025
36.550000 6.859375 41.101025
36.750000 7.703125 41.101025
36.800000 9.109375 41.101025
36.725000 10.453125 41.101025
36.950000 11.234375 41.101025
37.175000 12.421875 41.101025
37.350000 14.000000 41.101025
37.825000 15.078125 41.101025
36.275000 2.906250 41.244025
36.350000 3.656250 41.244025
36.450000 5.328125 41.244025
36.525000 6.296875 41.244025
36.650000 7.562500 41.244025
36.625000 8.406250 41.244025
36.550000 9.859375 41.244025
36.825000 10.750000 41.244025
37.125000 12.078125 41.244025
37.200000 13.437500 41.244025
37.425000 14.281250 41.244025
36.275000 2.359375 41.402027
36.375000 3.703125 41.402027
36.500000 5.015625 41.402027
36.575000 6.015625 41.402027
36.650000 7.093750 41.402027
36.975000 8.359375 41.402027
37.000000 9.484375 41.402027
36.850000 10.812500 41.402027
37.100000 11.734375 41.402027
37.325000 12.812500 41.402027
37.500000 13.984375 41.402027
36.250000 2.390625 41.558451
36.400000 3.437500 41.558451
36.525000 4.875000 41.558451
36.550000 6.109375 41.558451
36.575000 6.890625 41.558451
36.650000 7.953125 41.558451
36.725000 9.437500 41.558451
36.850000 10.609375 41.558451
37.100000 11.515625 41.558451
37.300000 12.562500 41.558451
36.250000 2.140625 41.714957
36.350000 3.640625 41.714957
36.525000 4.312500 41.714957
36.725000 5.484375 41.714957
36.575000 6.890625 41.714957
36.500000 8.062500 41.714957
36.975000 9.187500 41.714957
37.150000 10.359375 41.714957
37.125000 11.515625 41.714957
37.325000 12.765625 41.714957
37.525000 13.625000 41.714957
38.050000 14.687500 41.714957
36.450000 1.984375 41.873713
36.525000 3.078125 41.873713
36.625000 4.156250 41.873713
36.925000 5.390625 41.873713
36.700000 6.609375 41.873713
36.375000 7.828125 41.873713
36.725000 8.796875 41.873713
36.975000 10.046875 41.873713
37.150000 11.593750 41.873713
37.350000 12.234375 41.873713
37.550000 13.734375 41.873713
38.050000 14.500000 41.873713
36.450000 2.328125 42.026662
36.550000 3.296875 42.026662
36.400000 6.921875 42.026662
36.325000 7.781250 42.026662
36.700000 9.062500 42.026662
36.950000 10.265625 42.026662
37.125000 11.140625 42.026662
37.350000 12.421875 42.026662
37.550000 13.562500 42.026662
38.075000 14.906250 42.026662
36.375000 2.484375 42.186474
36.575000 3.390625 42.186474
36.450000 4.515625 42.186474
36.350000 5.531250 42.186474
36.375000 7.109375 42.186474
36.375000 8.031250 42.186474
36.675000 9.265625 42.186474
37.075000 10.171875 42.186474
37.250000 11.703125 42.186474
37.350000 12.390625 42.186474
37.650000 13.812500 42.186474
38.275000 15.015625 42.186474
36.475000 2.156250 42.342076
36.575000 3.000000 42.342076
36.475000 4.234375 42.342076
36.450000 5.718750 42.342076
36.400000 7.062500 42.342076
36.325000 8.046875 42.342076
36.775000 9.328125 42.342076
37.150000 10.312500 42.342076
37.250000 11.406250 42.342076
37.350000 12.484375 42.342076
37.650000 13.875000 42.342076
38.275000 14.781250 42.342076
36.525000 2.000000 42.497658
36.625000 3.046875 42.497658
36.525000 6.765625 42.497658
36.400000 7.562500 42.497658
36.975000 11.328125 42.497658
37.525000 12.593750 42.497658
37.725000 13.500000 42.497658
38.150000 14.656250 42.497658
36.725000 3.031250 42.654658
36.550000 6.218750 42.654658
36.400000 7.671875 42.654658
36.750000 8.906250 42.654658
37.325000 9.765625 42.654658
37.550000 11.109375 42.654658
37.525000 12.234375 42.654658
37.725000 13.250000 42.654658
38.075000 14.187500 42.654658
36.675000 2.437500 42.812532
36.850000 3.468750 42.812532
36.950000 4.890625 42.812532
36.625000 6.140625 42.812532
36.275000 7.312500 42.812532
36.600000 8.468750 42.812532
37.225000 9.343750 42.812532
37.675000 10.500000 42.812532
37.675000 11.828125 42.812532
37.675000 12.671875 42.812532
37.950000 13.921875 42.812532
36.775000 1.875000 42.967033
36.825000 3.234375 42.967033
36.375000 4.187500 42.967033
36.150000 5.218750 42.967033
36.525000 6.765625 42.967033
37.000000 7.437500 42.967033
37.525000 10.921875 42.967033
37.800000 12.406250 42.967033
37.850000 13.531250 42.967033
38.250000 14.640625 42.967033
36.775000 2.328125 43.126459
36.875000 3.421875 43.126459
37.075000 4.796875 43.126459
36.750000 5.734375 43.126459
37.925000 12.687500 43.126459
38.075000 13.656250 43.126459
36.925000 2.765625 43.281944
36.500000 4.390625 43.281944
36.175000 5.578125 43.281944
36.550000 6.718750 43.281944
37.000000 7.656250 43.281944
37.475000 8.562500 43.281944
37.975000 9.828125 43.281944
38.150000 11.046875 43.281944
38.000000 12.390625 43.281944
38.025000 13.218750 43.281944
38.375000 14.468750 43.281944
36.925000 2.093750 43.438260
37.000000 2.921875 43.438260
36.600000 4.281250 43.438260
36.250000 5.406250 43.438260
36.625000 6.375000 43.438260
37.075000 7.843750 43.438260
37.475000 8.718750 43.438260
38.075000 9.718750 43.438260
38.350000 10.968750 43.438260
38.100000 12.125000 43.438260
38.050000 13.453125 43.438260
38.400000 14.765625 43.438260
36.950000 3.093750 43.594573
36.775000 3.843750 43.594573
36.575000 5.203125 43.594573
36.725000 6.453125 43.594573
37.050000 7.625000 43.594573
37.500000 8.578125 43.594573
37.950000 9.531250 43.594573
38.225000 11.171875 43.594573
38.200000 11.968750 43.594573
38.175000 13.375000 43.594573
38.425000 14.640625 43.594573
36.925000 2.015625 43.751534
37.025000 2.937500 43.751534
36.800000 4.359375 43.751534
36.575000 5.265625 43.751534
36.725000 6.609375 43.751534
37.175000 7.515625 43.751534
37.600000 8.578125 43.751534
38.100000 9.828125 43.751534
38.400000 11.203125 43.751534
38.200000 12.281250 43.751534
38.150000 13.281250 43.751534
38.375000 14.531250 43.751534
36.950000 2.187500 43.907332
37.050000 2.906250 43.907332
36.825000 4.125000 43.907332
36.675000 5.203125 43.907332
37.225000 8.921875 43.907332
38.200000 9.781250 43.907332
38.475000 11.140625 43.907332
38.225000 12.062500 43.907332
38.175000 13.468750 43.907332
38.500000 14.609375 43.907332
37.125000 1.906250 44.063413
37.100000 2.750000 44.063413
36.950000 4.109375 44.063413
36.775000 5.343750 44.063413
36.800000 6.296875 44.063413
37.250000 7.562500 44.063413
37.800000 8.593750 44.063413
38.325000 10.062500 44.063413
38.450000 11.281250 44.063413
38.200000 12.328125 44.063413
38.275000 13.609375 44.063413
38.625000 14.312500 44.063413
37.150000 2.875000 44.231105
37.000000 4.421875 44.231105
36.750000 5.484375 44.231105
36.775000 6.593750 44.231105
37.175000 7.687500 44.231105
37.750000 8.546875 44.231105
38.275000 9.671875 44.231105
38.375000 10.796875 44.231105
38.175000 11.984375 44.231105
38.250000 13.281250 44.231105
38.600000 14.390625 44.231105
37.225000 2.859375 44.389633
36.925000 3.968750 44.389633
36.700000 5.218750 44.389633
36.825000 6.140625 44.389633
37.025000 7.375000 44.389633
37.500000 8.703125 44.389633
38.225000 9.625000 44.389633
38.400000 10.859375 44.389633
38.125000 12.140625 44.389633
38.175000 13.109375 44.389633
38.500000 14.281250 44.389633
37.225000 2.671875 44.545741
37.050000 4.156250 44.545741
36.850000 5.109375 44.545741
36.825000 6.109375 44.545741
37.025000 7.718750 44.545741
37.500000 8.406250 44.545741
38.225000 9.718750 44.545741
38.375000 11.125000 44.545741
38.075000 11.937500 44.545741
38.125000 13.328125 44.545741
38.475000 14.578125 44.545741
37.250000 2.656250 44.701913
37.300000 3.609375 44.701913
37.175000 4.812500 44.701913
36.925000 6.015625 44.701913
37.050000 7.078125 44.701913
37.525000 8.390625 44.701913
38.275000 9.328125 44.701913
38.425000 10.515625 44.701913
38.075000 11.703125 44.701913
38.125000 12.968750 44.701913
38.475000 14.406250 44.701913
37.300000 2.296875 44.858991
37.325000 3.609375 44.858991
37.450000 4.640625 44.858991
37.250000 6.171875 44.858991
37.150000 7.171875 44.858991
37.675000 7.968750 44.858991
38.250000 9.140625 44.858991
38.300000 10.328125 44.858991
38.025000 11.593750 44.858991
38.050000 12.750000 44.858991
38.425000 13.968750 44.858991
37.300000 2.578125 45.013715
37.325000 3.718750 45.013715
37.475000 4.703125 45.013715
37.275000 6.062500 45.013715
37.175000 7.015625 45.013715
37.675000 8.406250 45.013715
38.250000 9.375000 45.013715
38.275000 10.687500 45.013715
38.000000 11.718750 45.013715
38.050000 12.781250 45.013715
38.425000 13.968750 45.013715
37.300000 2.093750 45.169984
37.325000 3.578125 45.169984
37.575000 4.781250 45.169984
37.500000 5.890625 45.169984
37.300000 6.859375 45.169984
37.675000 8.140625 45.169984
38.250000 9.015625 45.169984
38.275000 10.250000 45.169984
38.000000 11.453125 45.169984
37.975000 13.015625 45.169984
38.325000 13.906250 45.169984
37.300000 2.593750 45.328751
37.325000 3.500000 45.328751
37.550000 4.578125 45.328751
37.575000 5.750000 45.328751
37.475000 6.781250 45.328751
37.850000 8.109375 45.328751
38.325000 9.171875 45.328751
38.200000 10.531250 45.328751
37.925000 11.687500 45.328751
38.050000 12.812500 45.328751
38.400000 13.953125 45.328751
37.300000 2.203125 45.483180
37.425000 3.093750 45.483180
37.425000 4.765625 45.483180
37.425000 5.421875 45.483180
37.525000 7.015625 45.483180
37.825000 8.140625 45.483180
38.325000 9.203125 45.483180
38.225000 10.328125 45.483180
37.875000 11.343750 45.483180
38.075000 12.359375 45.483180
38.400000 13.765625 45.483180
37.400000 2.593750 45.642901
37.475000 3.750000 45.642901
37.500000 4.984375 45.642901
37.550000 6.093750 45.642901
37.650000 7.609375 45.642901
38.050000 8.421875 45.642901
38.450000 9.703125 45.642901
38.125000 11.031250 45.642901
37.825000 12.296875 45.642901
38.075000 13.406250 45.642901
38.600000 14.343750 45.642901
37.350000 2.343750 45.794942
37.450000 3.671875 45.794942
37.500000 4.968750 45.794942
37.450000 5.750000 45.794942
37.550000 7.375000 45.794942
37.925000 8.093750 45.794942
38.450000 9.406250 45.794942
38.300000 10.843750 45.794942
37.825000 11.640625 45.794942
38.050000 12.718750 45.794942
38.550000 14.062500 45.794942
37.425000 2.781250 45.953783
37.525000 3.984375 45.953783
37.525000 5.234375 45.953783
37.600000 6.718750 45.953783
37.850000 7.406250 45.953783
38.275000 8.703125 45.953783
38.225000 10.046875 45.953783
37.850000 11.062500 45.953783
37.875000 12.484375 45.953783
38.175000 13.218750 45.953783
38.850000 14.312500 45.953783
37.275000 2.546875 46.107301
37.400000 3.578125 46.107301
37.525000 4.640625 46.107301
37.475000 6.031250 46.107301
37.575000 7.234375 46.107301
38.075000 8.125000 46.107301
38.550000 9.406250 46.107301
38.275000 10.609375 46.107301
37.800000 11.843750 46.107301
37.975000 13.046875 46.107301
38.425000 14.062500 46.107301
37.400000 2.546875 46.267384
37.475000 3.828125 46.267384
37.500000 5.000000 46.267384
37.525000 6.437500 46.267384
37.800000 7.375000 46.267384
38.200000 8.656250 46.267384
38.350000 9.812500 46.267384
38.050000 11.171875 46.267384
37.850000 12.312500 46.267384
38.100000 13.343750 46.267384
38.475000 14.375000 46.267384
37.350000 2.406250 46.420597
37.475000 3.921875 46.420597
37.500000 4.968750 46.420597
37.550000 5.921875 46.420597
37.675000 7.468750 46.420597
37.975000 8.375000 46.420597
38.375000 9.421875 46.420597
38.150000 10.515625 46.420597
37.800000 11.625000 46.420597
38.000000 12.953125 46.420597
38.500000 13.984375 46.420597
37.400000 2.609375 46.576520
37.475000 3.890625 46.576520
37.475000 4.765625 46.576520
37.525000 6.421875 46.576520
37.675000 7.093750 46.576520
37.975000 8.359375 46.576520
38.300000 9.781250 46.576520
38.075000 10.843750 46.576520
37.875000 12.218750 46.576520
38.050000 13.062500 46.576520
38.450000 14.140625 46.576520
37.375000 2.484375 46.730841
37.575000 3.640625 46.730841
37.175000 5.312500 46.730841
36.925000 6.343750 46.730841
37.800000 9.359375 46.730841
38.050000 10.765625 46.730841
37.825000 11.921875 46.730841
37.950000 13.187500 46.730841
38.375000 14.281250 46.730841
37.350000 2.578125 46.895071
37.550000 3.812500 46.895071
38.050000 10.578125 46.895071
37.825000 11.875000 46.895071
37.925000 13.281250 46.895071
38.350000 14.203125 46.895071
37.125000 3.093750 47.045440
36.800000 4.218750 47.045440
36.400000 5.343750 47.045440
38.125000 10.796875 47.045440
37.825000 12.156250 47.045440
38.025000 13.109375 47.045440
38.550000 14.171875 47.045440
37.250000 2.140625 47.208348
37.025000 2.953125 47.208348
36.675000 4.375000 47.208348
36.350000 5.687500 47.208348
38.150000 11.093750 47.208348
37.850000 12.203125 47.208348
38.025000 13.500000 47.208348
38.600000 14.484375 47.208348
36.600000 4.937500 47.357348
36.525000 5.843750 47.357348
36.950000 7.093750 47.357348
37.500000 8.281250 47.357348
38.100000 9.171875 47.357348
38.075000 10.515625 47.357348
37.825000 11.703125 47.357348
37.900000 12.750000 47.357348
38.200000 13.968750 47.357348
36.650000 2.046875 47.520996
36.650000 3.140625 47.520996
36.400000 4.203125 47.520996
38.125000 11.296875 47.520996
37.850000 12.015625 47.520996
38.000000 13.343750 47.520996
38.500000 14.265625 47.520996
36.800000 2.343750 47.671132
37.075000 3.734375 47.671132
36.200000 6.312500 47.671132
36.925000 8.062500 47.671132
37.875000 9.343750 47.671132
38.200000 10.718750 47.671132
37.900000 11.953125 47.671132
37.875000 12.718750 47.671132
38.000000 14.140625 47.671132
36.575000 2.109375 47.831076
36.575000 3.187500 47.831076
36.375000 4.515625 47.831076
36.150000 5.562500 47.831076
36.350000 6.703125 47.831076
36.825000 7.625000 47.831076
37.425000 8.984375 47.831076
38.100000 10.093750 47.831076
38.125000 11.187500 47.831076
37.900000 12.609375 47.831076
36.725000 2.375000 47.995044
36.525000 3.640625 47.995044
36.075000 4.859375 47.995044
35.950000 6.125000 47.995044
36.325000 6.968750 47.995044
36.800000 8.234375 47.995044
37.575000 9.187500 47.995044
38.050000 10.500000 47.995044
37.925000 11.625000 47.995044
37.800000 12.953125 47.995044
37.925000 13.906250 47.995044
36.625000 2.125000 48.145537
36.300000 3.750000 48.145537
35.850000 4.593750 48.145537
35.875000 6.203125 48.145537
36.075000 7.078125 48.145537
38.075000 11.578125 48.145537
37.775000 12.625000 48.145537
37.775000 13.750000 48.145537
36.600000 2.453125 48.295993
36.250000 5.593750 48.295993
35.900000 6.953125 48.295993
36.225000 7.796875 48.295993
37.750000 12.546875 48.295993
37.725000 13.640625 48.295993
36.500000 2.046875 48.458896
36.150000 5.781250 48.458896
35.900000 6.890625 48.458896
36.150000 8.109375 48.458896
37.750000 12.890625 48.458896
37.725000 13.593750 48.458896
36.625000 2.953125 48.608214
36.775000 4.531250 48.608214
35.850000 6.750000 48.608214
36.075000 7.812500 48.608214
37.625000 12.625000 48.608214
37.575000 13.687500 48.608214
38.075000 14.562500 48.608214
36.425000 2.718750 48.770215
36.200000 6.296875 48.770215
36.025000 7.171875 48.770215
36.350000 8.406250 48.770215
36.975000 9.750000 48.770215
37.300000 10.953125 48.770215
37.275000 11.812500 48.770215
37.400000 12.953125 48.770215
37.725000 14.375000 48.770215
36.375000 2.218750 48.920987
36.450000 3.921875 48.920987
36.725000 4.687500 48.920987
36.525000 6.203125 48.920987
36.125000 7.078125 48.920987
36.350000 8.109375 48.920987
36.775000 9.375000 48.920987
37.050000 10.656250 48.920987
37.175000 11.687500 48.920987
37.375000 12.953125 48.920987
37.650000 14.343750 48.920987
36.375000 3.218750 49.085970
36.325000 4.171875 49.085970
36.525000 5.218750 49.085970
36.475000 6.531250 49.085970
36.250000 8.062500 49.085970
36.625000 9.187500 49.085970
36.900000 10.296875 49.085970
37.025000 10.984375 49.085970
37.200000 12.578125 49.085970
37.450000 13.687500 49.085970
38.050000 14.406250 49.085970
36.350000 2.500000 49.233958
36.450000 3.656250 49.233958
36.375000 4.718750 49.233958
36.375000 5.781250 49.233958
36.425000 6.984375 49.233958
36.575000 8.187500 49.233958
36.750000 9.468750 49.233958
36.875000 10.671875 49.233958
37.075000 11.953125 49.233958
37.275000 13.171875 49.233958
37.675000 14.281250 49.233958
36.300000 2.828125 49.396955
36.300000 4.078125 49.396955
36.300000 5.531250 49.396955
36.350000 6.359375 49.396955
36.550000 7.937500 49.396955
36.600000 8.703125 49.396955
36.600000 9.953125 49.396955
36.825000 11.000000 49.396955
37.025000 12.375000 49.396955
37.250000 13.375000 49.396955
37.725000 14.453125 49.396955
36.250000 2.500000 49.555766
36.300000 3.343750 49.555766
36.375000 4.500000 49.555766
36.375000 5.656250 49.555766
36.375000 7.203125 49.555766
36.550000 8.125000 49.555766
36.600000 9.671875 49.555766
36.650000 10.546875 49.555766
36.875000 11.859375 49.555766
37.075000 13.046875 49.555766
36.300000 3.109375 49.711632
36.375000 4.281250 49.711632
36.350000 5.640625 49.711632
36.350000 6.859375 49.711632
36.550000 7.890625 49.711632
36.600000 9.343750 49.711632
36.625000 10.140625 49.711632
36.825000 11.343750 49.711632
36.950000 12.562500 49.711632
36.225000 2.562500 49.868351
36.275000 3.250000 49.868351
36.325000 4.953125 49.868351
36.350000 5.906250 49.868351
36.375000 6.812500 49.868351
36.425000 8.296875 49.868351
36.450000 9.468750 49.868351
36.625000 10.562500 49.868351
36.850000 11.828125 49.868351
37.050000 12.890625 49.868351
36.325000 2.953125 50.024728
36.325000 3.718750 50.024728
36.375000 5.203125 50.024728
36.400000 6.078125 50.024728
36.550000 7.125000 50.024728
36.650000 8.406250 50.024728
36.600000 9.921875 50.024728
36.675000 10.796875 50.024728
36.850000 11.984375 50.024728
37.075000 13.109375 50.024728
37.350000 14.578125 50.024728
36.275000 2.812500 50.180716
36.300000 4.031250 50.180716
36.300000 5.421875 50.180716
36.350000 6.687500 50.180716
36.675000 7.437500 50.180716
36.750000 8.890625 50.180716
36.600000 10.250000 50.180716
36.800000 11.140625 50.180716
36.975000 12.468750 50.180716
37.150000 13.671875 50.180716
37.500000 14.484375 50.180716
36.275000 2.953125 50.333311
36.350000 4.296875 50.333311
36.350000 5.234375 50.333311
36.375000 6.656250 50.333311
36.700000 7.484375 50.333311
36.725000 8.703125 50.333311
36.575000 9.718750 50.333311
36.725000 11.265625 50.333311
36.900000 12.062500 50.333311
37.125000 13.453125 50.333311
37.475000 14.718750 50.333311
36.300000 2.671875 50.492875
36.350000 4.046875 50.492875
36.400000 5.281250 50.492875
36.425000 6.140625 50.492875
36.675000 7.703125 50.492875
36.725000 8.546875 50.492875
36.550000 9.750000 50.492875
36.675000 11.125000 50.492875
36.875000 12.031250 50.492875
37.100000 13.437500 50.492875
37.375000 14.296875 50.492875
36.275000 2.437500 50.651651
36.350000 3.750000 50.651651
36.400000 4.875000 50.651651
36.425000 5.875000 50.651651
36.625000 7.140625 50.651651
36.650000 8.234375 50.651651
36.525000 9.546875 50.651651
36.600000 10.875000 50.651651
36.825000 11.906250 50.651651
37.000000 12.890625 50.651651
37.250000 14.062500 50.651651
36.225000 2.312500 50.803487
36.275000 3.578125 50.803487
36.325000 4.578125 50.803487
36.350000 5.937500 50.803487
36.525000 6.687500 50.803487
36.550000 8.234375 50.803487
36.475000 9.078125 50.803487
36.625000 10.578125 50.803487
36.850000 11.421875 50.803487
37.050000 12.687500 50.803487
37.275000 13.812500 50.803487
37.800000 15.140625 50.803487
36.225000 2.421875 50.962536
36.275000 3.359375 50.962536
36.325000 4.562500 50.962536
36.375000 5.890625 50.962536
36.525000 7.250000 50.962536
36.625000 8.046875 50.962536
36.550000 9.359375 50.962536
36.625000 10.578125 50.962536
36.850000 11.578125 50.962536
37.050000 12.843750 50.962536
36.275000 2.390625 51.117160
36.325000 3.906250 51.117160
36.400000 4.546875 51.117160
36.425000 6.171875 51.117160
36.625000 7.343750 51.117160
36.650000 8.578125 51.117160
36.525000 9.421875 51.117160
36.600000 10.812500 51.117160
36.825000 12.015625 51.117160
37.025000 12.781250 51.117160
36.275000 2.343750 51.274161
36.325000 3.546875 51.274161
36.400000 4.921875 51.274161
36.425000 5.843750 51.274161
36.625000 6.968750 51.274161
36.650000 8.437500 51.274161
36.550000 9.687500 51.274161
36.625000 10.640625 51.274161
36.850000 11.578125 51.274161
37.100000 12.734375 51.274161
36.275000 2.265625 51.429408
36.300000 3.562500 51.429408
36.350000 4.468750 51.429408
36.400000 6.031250 51.429408
36.575000 6.812500 51.429408
36.650000 8.453125 51.429408
36.550000 9.531250 51.429408
36.650000 10.328125 51.429408
36.850000 11.734375 51.429408
37.050000 12.687500 51.429408
36.300000 2.375000 51.586902
36.325000 3.828125 51.586902
36.375000 4.828125 51.586902
36.425000 5.828125 51.586902
36.600000 7.140625 51.586902
36.650000 8.281250 51.586902
36.550000 9.500000 51.586902
36.650000 10.875000 51.586902
36.925000 11.921875 51.586902
37.175000 13.203125 51.586902
37.400000 14.062500 51.586902
36.350000 2.578125 51.740914
36.375000 3.546875 51.740914
36.450000 4.656250 51.740914
36.500000 5.937500 51.740914
36.625000 7.250000 51.740914
36.675000 8.453125 51.740914
36.625000 9.343750 51.740914
36.725000 10.843750 51.740914
36.925000 11.609375 51.740914
37.175000 13.046875 51.740914
37.425000 14.171875 51.740914
36.325000 2.375000 51.897242
36.350000 4.046875 51.897242
36.425000 5.140625 51.897242
36.525000 6.296875 51.897242
36.675000 7.187500 51.897242
36.675000 8.218750 51.897242
36.625000 9.453125 51.897242
36.775000 10.531250 51.897242
37.000000 11.718750 51.897242
37.125000 13.281250 51.897242
37.375000 14.312500 51.897242
36.300000 2.843750 52.072206
36.350000 3.812500 52.072206
36.425000 5.375000 52.072206
36.500000 6.375000 52.072206
36.675000 7.296875 52.072206
36.650000 8.921875 52.072206
36.575000 10.062500 52.072206
36.875000 10.734375 52.072206
37.150000 12.171875 52.072206
37.300000 13.187500 52.072206
37.625000 14.421875 52.072206
36.300000 3.140625 52.212294
36.350000 4.281250 52.212294
36.475000 5.312500 52.212294
36.550000 6.359375 52.212294
36.600000 7.625000 52.212294
36.800000 8.906250 52.212294
36.825000 9.937500 52.212294
36.875000 11.000000 52.212294
37.150000 12.062500 52.212294
37.325000 13.187500 52.212294
37.650000 14.750000 52.212294
36.300000 2.484375 52.367425
36.400000 4.093750 52.367425
36.475000 4.812500 52.367425
36.625000 6.078125 52.367425
36.625000 7.171875 52.367425
36.700000 8.312500 52.367425
36.850000 9.796875 52.367425
36.850000 11.062500 52.367425
37.050000 12.250000 52.367425
37.325000 13.406250 52.367425
37.625000 14.468750 52.367425
36.375000 2.546875 52.524623
36.525000 3.921875 52.524623
36.500000 4.859375 52.524623
36.775000 5.734375 52.524623
36.750000 7.000000 52.524623
36.475000 8.343750 52.524623
36.725000 9.328125 52.524623
37.025000 10.421875 52.524623
37.225000 11.796875 52.524623
37.375000 12.968750 52.524623
37.650000 14.140625 52.524623
36.350000 2.562500 52.681884
36.475000 3.937500 52.681884
36.425000 5.062500 52.681884
36.250000 6.109375 52.681884
36.275000 7.062500 52.681884
36.475000 8.203125 52.681884
36.950000 9.484375 52.681884
37.225000 10.406250 52.681884
37.225000 11.828125 52.681884
37.400000 13.062500 52.681884
37.650000 14.359375 52.681884
36.550000 3.250000 52.851391
36.650000 4.078125 52.851391
37.000000 5.578125 52.851391
36.250000 7.890625 52.851391
36.600000 8.843750 52.851391
37.025000 9.843750 52.851391
37.275000 10.906250 52.851391
37.425000 12.281250 52.851391
37.575000 13.484375 52.851391
37.925000 14.484375 52.851391
36.500000 2.375000 52.993731
36.625000 3.421875 52.993731
36.425000 7.062500 52.993731
36.325000 7.718750 52.993731
36.725000 9.156250 52.993731
37.100000 10.140625 52.993731
37.275000 11.484375 52.993731
37.425000 12.421875 52.993731
37.675000 13.468750 52.993731
38.250000 14.859375 52.993731
36.475000 2.671875 53.161627
36.725000 3.718750 53.161627
36.600000 5.031250 53.161627
36.225000 6.312500 53.161627
36.225000 7.265625 53.161627
36.500000 8.187500 53.161627
36.725000 9.640625 53.161627
37.075000 10.406250 53.161627
37.375000 11.468750 53.161627
37.475000 13.078125 53.161627
37.750000 14.000000 53.161627
36.650000 2.875000 53.307276
36.750000 3.828125 53.307276
37.150000 4.796875 53.307276
36.250000 7.218750 53.307276
36.600000 8.781250 53.307276
37.075000 9.828125 53.307276
37.350000 11.015625 53.307276
37.500000 11.765625 53.307276
37.625000 13.015625 53.307276
37.975000 14.312500 53.307276
36.750000 2.859375 53.462240
36.525000 4.078125 53.462240
36.550000 5.515625 53.462240
36.675000 6.312500 53.462240
36.550000 7.953125 53.462240
37.000000 11.375000 53.462240
37.525000 12.171875 53.462240
37.800000 13.375000 53.462240
38.225000 14.406250 53.462240
36.700000 1.968750 53.622590
36.825000 2.906250 53.622590
36.275000 4.453125 53.622590
36.050000 5.250000 53.622590
36.500000 6.328125 53.622590
36.850000 7.843750 53.622590
37.350000 11.281250 53.622590
37.650000 12.312500 53.622590
37.800000 13.625000 53.622590
38.175000 14.687500 53.622590
36.650000 1.921875 53.790823
36.875000 2.921875 53.790823
36.725000 6.296875 53.790823
36.650000 7.625000 53.790823
37.025000 8.375000 53.790823
37.425000 9.609375 53.790823
37.650000 11.156250 53.790823
37.775000 12.343750 53.790823
37.925000 13.203125 53.790823
38.275000 14.265625 53.790823
36.825000 3.046875 53.946377
36.600000 4.187500 53.946377
36.575000 5.500000 53.946377
36.725000 6.515625 53.946377
36.800000 7.625000 53.946377
37.200000 8.593750 53.946377
37.550000 9.859375 53.946377
37.800000 11.078125 53.946377
37.875000 12.250000 53.946377
37.875000 13.406250 53.946377
38.300000 14.234375 53.946377
36.875000 3.000000 54.101279
36.650000 3.812500 54.101279
36.600000 5.328125 54.101279
36.750000 6.109375 54.101279
36.725000 7.796875 54.101279
37.150000 8.593750 54.101279
37.550000 9.750000 54.101279
37.900000 10.953125 54.101279
38.025000 12.203125 54.101279
38.025000 13.343750 54.101279
38.375000 14.171875 54.101279
36.800000 1.906250 54.245191
36.950000 2.765625 54.245191
36.725000 4.109375 54.245191
36.500000 5.437500 54.245191
36.650000 6.343750 54.245191
36.875000 7.468750 54.245191
37.375000 8.593750 54.245191
37.775000 9.796875 54.245191
38.050000 10.687500 54.245191
38.150000 11.984375 54.245191
38.125000 13.093750 54.245191
38.375000 14.593750 54.245191
36.975000 2.531250 54.415581
36.925000 3.875000 54.415581
36.975000 5.062500 54.415581
36.950000 6.187500 54.415581
36.875000 7.296875 54.415581
37.375000 8.453125 54.415581
37.850000 12.203125 54.415581
38.100000 13.375000 54.415581
38.375000 14.375000 54.415581
37.025000 2.734375 54.570611
36.825000 6.468750 54.570611
36.725000 7.296875 54.570611
37.275000 8.390625 54.570611
37.825000 11.703125 54.570611
38.125000 12.796875 54.570611
38.350000 14.171875 54.570611
37.025000 2.859375 54.726059
37.125000 3.828125 54.726059
37.650000 4.734375 54.726059
36.850000 7.171875 54.726059
37.375000 8.406250 54.726059
37.925000 12.015625 54.726059
38.200000 13.078125 54.726059
38.350000 14.375000 54.726059
37.050000 2.578125 54.887158
37.125000 3.921875 54.887158
37.550000 4.625000 54.887158
36.850000 7.359375 54.887158
37.375000 8.406250 54.887158
37.725000 9.796875 54.887158
38.075000 10.875000 54.887158
38.250000 11.953125 54.887158
38.200000 12.828125 54.887158
38.450000 14.328125 54.887158
37.025000 2.109375 55.037009
37.200000 3.031250 55.037009
37.325000 4.156250 55.037009
37.100000 5.375000 55.037009
36.825000 6.890625 55.037009
37.300000 7.875000 55.037009
38.000000 8.796875 55.037009
38.475000 10.125000 55.037009
38.350000 11.578125 55.037009
38.150000 12.531250 55.037009
37.175000 1.984375 55.198483
37.225000 2.703125 55.198483
37.050000 4.062500 55.198483
36.800000 5.187500 55.198483
36.800000 6.265625 55.198483
37.175000 7.765625 55.198483
37.850000 8.609375 55.198483
38.400000 10.046875 55.198483
38.375000 10.968750 55.198483
38.125000 12.203125 55.198483
38.225000 13.484375 55.198483
38.650000 14.312500 55.198483
37.250000 2.359375 55.347729
37.225000 3.671875 55.347729
37.400000 4.796875 55.347729
37.250000 6.078125 55.347729
37.200000 7.187500 55.347729
37.600000 8.125000 55.347729
38.125000 9.250000 55.347729
38.350000 10.593750 55.347729
38.125000 12.015625 55.347729
38.175000 12.968750 55.347729
38.425000 14.328125 55.347729
37.050000 2.015625 55.510688
37.200000 3.390625 55.510688
37.325000 4.328125 55.510688
37.075000 5.906250 55.510688
38.450000 10.265625 55.510688
38.325000 11.281250 55.510688
38.050000 12.781250 55.510688
38.225000 13.750000 55.510688
37.275000 2.937500 55.660982
37.475000 4.296875 55.660982
37.300000 5.625000 55.660982
36.925000 6.515625 55.660982
37.225000 7.625000 55.660982
37.900000 8.750000 55.660982
38.375000 10.062500 55.660982
38.275000 11.062500 55.660982
38.025000 12.343750 55.660982
38.225000 13.312500 55.660982
38.775000 14.421875 55.660982
37.125000 1.875000 55.823120
37.300000 3.390625 55.823120
37.325000 4.296875 55.823120
37.225000 5.359375 55.823120
38.425000 10.171875 55.823120
38.275000 11.421875 55.823120
37.975000 12.640625 55.823120
37.300000 2.281250 55.974324
37.375000 3.343750 55.974324
37.550000 4.609375 55.974324
37.450000 5.937500 55.974324
37.200000 7.078125 55.974324
37.575000 7.843750 55.974324
38.125000 9.156250 55.974324
38.150000 10.421875 55.974324
38.000000 11.609375 55.974324
38.050000 12.515625 55.974324
38.275000 14.015625 55.974324
37.300000 2.359375 56.136932
37.375000 3.250000 56.136932
37.475000 4.718750 56.136932
37.550000 5.843750 56.136932
37.525000 7.000000 56.136932
37.750000 8.250000 56.136932
38.275000 9.046875 56.136932
38.225000 10.562500 56.136932
37.925000 11.281250 56.136932
38.025000 12.875000 56.136932
38.275000 13.750000 56.136932
37.375000 2.234375 56.285734
37.425000 3.406250 56.285734
37.475000 4.484375 56.285734
37.450000 6.125000 56.285734
37.575000 7.078125 56.285734
37.925000 8.265625 56.285734
38.425000 9.171875 56.285734
38.300000 10.718750 56.285734
37.875000 11.531250 56.285734
38.075000 12.906250 56.285734
38.475000 13.765625 56.285734
37.400000 2.562500 56.450437
37.475000 3.968750 56.450437
37.500000 4.734375 56.450437
37.500000 5.859375 56.450437
37.625000 7.281250 56.450437
37.975000 8.453125 56.450437
38.475000 9.734375 56.450437
38.300000 10.687500 56.450437
37.850000 11.781250 56.450437
38.025000 13.046875 56.450437
38.525000 14.375000 56.450437
37.375000 2.750000 56.600939
37.450000 3.609375 56.600939
37.500000 5.031250 56.600939
37.500000 6.031250 56.600939
37.625000 7.312500 56.600939
38.050000 8.390625 56.600939
38.525000 9.718750 56.600939
38.275000 10.984375 56.600939
37.850000 12.140625 56.600939
38.025000 13.078125 56.600939
38.525000 14.125000 56.600939
37.375000 2.281250 56.760304
37.425000 3.328125 56.760304
37.500000 4.468750 56.760304
37.475000 6.015625 56.760304
37.575000 7.250000 56.760304
38.000000 8.203125 56.760304
38.525000 9.203125 56.760304
38.275000 10.687500 56.760304
37.825000 11.593750 56.760304
38.025000 12.921875 56.760304
38.425000 14.093750 56.760304
37.200000 2.218750 56.916368
37.425000 3.500000 56.916368
37.525000 4.578125 56.916368
37.525000 5.515625 56.916368
37.600000 6.734375 56.916368
37.975000 7.859375 56.916368
38.400000 9.250000 56.916368
38.175000 10.390625 56.916368
37.800000 11.578125 56.916368
37.925000 12.828125 56.916368
38.250000 13.734375 56.916368
37.375000 2.703125 57.075329
37.475000 3.687500 57.075329
37.500000 5.171875 57.075329
37.525000 6.375000 57.075329
37.825000 7.468750 57.075329
38.225000 8.312500 57.075329
38.350000 9.953125 57.075329
38.075000 11.156250 57.075329
37.925000 12.093750 57.075329
38.100000 13.343750 57.075329
38.550000 14.515625 57.075329
37.300000 2.328125 57.230435
37.400000 3.343750 57.230435
37.475000 4.531250 57.230435
37.550000 5.546875 57.230435
37.625000 6.765625 57.230435
37.925000 8.171875 57.230435
38.450000 9.203125 57.230435
38.325000 10.515625 57.230435
37.875000 11.765625 57.230435
37.975000 12.812500 57.230435
38.325000 14.000000 57.230435
37.375000 2.781250 57.389003
37.625000 3.953125 57.389003
37.400000 5.203125 57.389003
37.250000 6.375000 57.389003
37.750000 7.828125 57.389003
38.300000 8.781250 57.389003
38.350000 10.125000 57.389003
37.975000 11.328125 57.389003
37.850000 12.156250 57.389003
38.125000 13.593750 57.389003
38.775000 14.625000 57.389003
37.200000 2.453125 57.545847
37.375000 3.421875 57.545847
37.000000 4.921875 57.545847
36.775000 5.515625 57.545847
37.075000 6.921875 57.545847
37.650000 8.156250 57.545847
38.575000 9.156250 57.545847
38.425000 10.546875 57.545847
37.825000 11.375000 57.545847
37.925000 12.531250 57.545847
38.250000 13.687500 57.545847
37.250000 2.843750 57.704066
36.950000 4.031250 57.704066
36.525000 5.140625 57.704066
38.200000 10.890625 57.704066
37.825000 12.156250 57.704066
38.000000 13.171875 57.704066
38.525000 14.484375 57.704066
37.125000 2.281250 57.855811
37.350000 3.281250 57.855811
36.925000 4.656250 57.855811
38.325000 9.328125 57.855811
38.175000 10.328125 57.855811
37.850000 11.484375 57.855811
37.900000 12.609375 57.855811
38.225000 14.078125 57.855811
37.025000 2.656250 58.014350
36.725000 3.890625 58.014350
36.350000 5.031250 58.014350
38.075000 11.125000 58.014350
37.900000 12.296875 58.014350
38.050000 13.312500 58.014350
38.450000 14.343750 58.014350
36.850000 3.093750 58.169046
36.550000 4.375000 58.169046
36.300000 5.390625 58.169046
36.525000 6.500000 58.169046
38.125000 11.140625 58.169046
37.875000 12.546875 58.169046
36.800000 2.578125 58.325767
37.025000 3.171875 58.325767
36.700000 4.859375 58.325767
36.300000 6.015625 58.325767
36.700000 7.140625 58.325767
37.175000 8.156250 58.325767
37.800000 9.265625 58.325767
38.175000 10.515625 58.325767
37.950000 11.625000 58.325767
37.875000 12.906250 58.325767
37.975000 13.734375 58.325767
36.775000 2.140625 58.481092
36.825000 3.484375 58.481092
36.450000 4.828125 58.481092
36.125000 6.140625 58.481092
37.150000 8.218750 58.481092
37.725000 9.328125 58.481092
38.175000 10.156250 58.481092
38.000000 11.328125 58.481092
37.825000 12.796875 58.481092
37.950000 13.906250 58.481092
36.750000 2.421875 58.638081
36.600000 3.390625 58.638081
36.100000 4.781250 58.638081
36.000000 6.109375 58.638081
36.325000 6.843750 58.638081
38.050000 11.296875 58.638081
37.850000 12.609375 58.638081
37.925000 13.750000 58.638081
36.700000 2.312500 58.793387
36.475000 3.828125 58.793387
36.000000 5.078125 58.793387
35.925000 5.921875 58.793387
36.300000 7.234375 58.793387
37.950000 11.593750 58.793387
37.850000 12.671875 58.793387
37.925000 13.968750 58.793387
36.650000 2.718750 58.952979
36.625000 3.640625 58.952979
36.175000 5.140625 58.952979
35.900000 6.312500 58.952979
36.100000 7.390625 58.952979
37.875000 12.046875 58.952979
37.675000 13.140625 58.952979
37.850000 14.531250 58.952979
36.450000 1.968750 59.107256
36.575000 3.125000 59.107256
37.050000 4.078125 59.107256
35.850000 6.468750 59.107256
36.125000 7.625000 59.107256
37.775000 12.406250 59.107256
37.600000 13.343750 59.107256
38.075000 14.500000 59.107256
36.425000 2.015625 59.263053
36.150000 5.609375 59.263053
35.925000 6.828125 59.263053
36.150000 8.000000 59.263053
37.800000 12.656250 59.263053
36.550000 2.359375 59.419260
36.275000 5.875000 59.419260
35.975000 7.468750 59.419260
36.275000 8.250000 59.419260
36.950000 11.546875 59.419260
37.425000 12.890625 59.419260
37.700000 14.328125 59.419260
36.525000 2.640625 59.576636
36.200000 4.453125 59.576636
36.100000 5.015625 59.576636
36.175000 6.218750 59.576636
36.075000 7.859375 59.576636
36.400000 8.828125 59.576636
37.000000 9.812500 59.576636
37.275000 11.156250 59.576636
37.250000 12.171875 59.576636
37.450000 13.343750 59.576636
37.875000 14.203125 59.576636
36.375000 2.062500 59.731902
36.425000 3.015625 59.731902
36.225000 4.406250 59.731902
36.325000 5.281250 59.731902
36.325000 6.828125 59.731902
36.125000 8.031250 59.731902
36.525000 8.718750 59.731902
36.900000 10.093750 59.731902
37.075000 11.343750 59.731902
