38.550000 84.984375 36.075348
39.475000 80.125000 36.075348
39.300000 79.046875 36.075348
39.175000 77.828125 36.075348
39.500000 77.031250 36.075348
39.075000 89.750000 36.228712
38.975000 88.765625 36.228712
38.525000 87.562500 36.228712
38.725000 86.187500 36.228712
38.650000 84.953125 36.228712
38.950000 81.750000 36.228712
39.675000 80.593750 36.228712
39.475000 79.031250 36.228712
39.175000 77.828125 36.228712
38.250000 88.968750 36.384513
38.575000 87.656250 36.384513
38.650000 86.734375 36.384513
39.025000 85.656250 36.384513
38.900000 84.359375 36.384513
38.650000 83.078125 36.384513
39.225000 82.281250 36.384513
39.500000 80.718750 36.384513
39.300000 79.890625 36.384513
39.175000 78.703125 36.384513
39.350000 77.375000 36.384513
39.800000 75.984375 36.384513
38.750000 87.546875 36.541465
38.700000 86.265625 36.541465
38.900000 85.000000 36.541465
38.975000 83.703125 36.541465
39.025000 82.656250 36.541465
39.375000 81.421875 36.541465
39.300000 80.171875 36.541465
39.100000 79.046875 36.541465
39.175000 78.031250 36.541465
39.550000 76.921875 36.541465
38.350000 89.437500 36.696886
38.375000 87.875000 36.696886
38.675000 86.937500 36.696886
38.725000 85.781250 36.696886
38.750000 84.453125 36.696886
38.900000 83.500000 36.696886
39.250000 82.562500 36.696886
39.550000 81.250000 36.696886
39.300000 79.968750 36.696886
39.100000 78.812500 36.696886
39.275000 77.531250 36.696886
39.650000 76.453125 36.696886
38.075000 89.140625 36.852542
38.375000 88.375000 36.852542
38.700000 87.203125 36.852542
38.825000 85.687500 36.852542
38.800000 84.687500 36.852542
38.875000 83.375000 36.852542
39.250000 82.140625 36.852542
39.525000 81.000000 36.852542
39.300000 80.062500 36.852542
39.050000 78.859375 36.852542
39.225000 77.437500 36.852542
39.675000 76.531250 36.852542
38.575000 88.953125 36.995739
38.750000 87.875000 36.995739
38.725000 86.453125 36.995739
38.775000 85.437500 36.995739
38.875000 84.515625 36.995739
38.975000 83.078125 36.995739
39.275000 81.796875 36.995739
39.675000 80.796875 36.995739
39.450000 79.718750 36.995739
38.975000 78.609375 36.995739
39.225000 77.125000 36.995739
39.825000 76.093750 36.995739
38.725000 87.390625 37.147476
38.800000 86.390625 37.147476
38.850000 84.781250 37.147476
38.900000 83.875000 37.147476
39.225000 82.656250 37.147476
39.475000 81.515625 37.147476
39.275000 80.328125 37.147476
39.100000 79.328125 37.147476
39.350000 77.828125 37.147476
39.675000 76.812500 37.147476
38.750000 87.265625 37.310505
38.825000 86.312500 37.310505
38.850000 84.781250 37.310505
38.875000 83.796875 37.310505
39.200000 82.703125 37.310505
39.475000 81.375000 37.310505
39.250000 80.281250 37.310505
39.050000 78.968750 37.310505
39.150000 78.015625 37.310505
39.550000 76.750000 37.310505
37.775000 89.046875 37.457739
38.375000 87.906250 37.457739
38.700000 87.093750 37.457739
38.825000 85.656250 37.457739
38.925000 84.750000 37.457739
39.000000 83.281250 37.457739
39.175000 82.406250 37.457739
39.375000 81.234375 37.457739
39.225000 79.796875 37.457739
39.050000 78.593750 37.457739
39.200000 77.359375 37.457739
39.675000 76.265625 37.457739
39.300000 88.609375 37.621072
38.750000 87.359375 37.621072
38.800000 86.203125 37.621072
38.825000 85.234375 37.621072
38.875000 84.078125 37.621072
39.275000 82.890625 37.621072
39.525000 81.828125 37.621072
39.300000 80.453125 37.621072
39.100000 79.390625 37.621072
39.125000 78.093750 37.621072
39.425000 76.953125 37.621072
38.450000 87.843750 37.767269
38.725000 86.859375 37.767269
38.825000 85.656250 37.767269
38.850000 84.234375 37.767269
38.925000 83.328125 37.767269
39.125000 82.125000 37.767269
39.375000 81.078125 37.767269
39.275000 80.000000 37.767269
39.075000 78.593750 37.767269
39.225000 77.578125 37.767269
39.750000 76.390625 37.767269
38.900000 88.859375 37.931571
38.700000 87.453125 37.931571
38.800000 86.406250 37.931571
38.575000 84.968750 37.931571
38.450000 83.921875 37.931571
38.825000 82.906250 37.931571
39.175000 81.890625 37.931571
39.825000 80.703125 37.931571
39.100000 78.125000 37.931571
39.325000 77.046875 37.931571
40.025000 75.968750 37.931571
38.450000 87.953125 38.080521
38.700000 86.875000 38.080521
38.400000 85.703125 38.080521
38.225000 84.687500 38.080521
38.425000 83.187500 38.080521
38.825000 82.218750 38.080521
39.350000 81.156250 38.080521
39.225000 79.984375 38.080521
39.050000 78.734375 38.080521
39.200000 77.593750 38.080521
39.700000 76.484375 38.080521
38.500000 87.375000 38.241984
38.250000 85.781250 38.241984
37.875000 84.734375 38.241984
38.125000 83.937500 38.241984
38.675000 82.578125 38.241984
39.175000 81.359375 38.241984
39.225000 80.250000 38.241984
39.100000 79.171875 38.241984
39.100000 78.046875 38.241984
39.350000 76.921875 38.241984
38.350000 87.468750 38.391893
38.025000 86.109375 38.391893
37.700000 84.718750 38.391893
37.925000 83.734375 38.391893
38.450000 82.515625 38.391893
39.100000 81.609375 38.391893
39.250000 80.078125 38.391893
39.075000 79.171875 38.391893
39.150000 77.703125 38.391893
39.400000 76.812500 38.391893
38.150000 89.140625 38.551691
38.100000 87.953125 38.551691
38.450000 87.000000 38.551691
38.075000 85.843750 38.551691
37.625000 84.421875 38.551691
38.050000 83.687500 38.551691
38.650000 82.593750 38.551691
39.225000 81.296875 38.551691
39.275000 79.937500 38.551691
39.075000 78.718750 38.551691
39.125000 77.421875 38.551691
39.400000 76.531250 38.551691
38.100000 89.296875 38.700522
38.000000 88.250000 38.700522
38.350000 86.937500 38.700522
38.050000 85.875000 38.700522
37.625000 84.734375 38.700522
37.950000 83.500000 38.700522
38.525000 82.515625 38.700522
39.175000 81.078125 38.700522
39.250000 79.875000 38.700522
39.050000 78.718750 38.700522
39.100000 77.671875 38.700522
39.375000 76.437500 38.700522
38.300000 89.187500 38.863953
38.000000 87.828125 38.863953
38.325000 87.031250 38.863953
38.025000 85.703125 38.863953
37.700000 84.265625 38.863953
38.150000 83.125000 38.863953
38.525000 82.000000 38.863953
39.025000 81.125000 38.863953
39.225000 79.828125 38.863953
39.050000 78.859375 38.863953
39.075000 77.359375 38.863953
39.250000 76.421875 38.863953
38.450000 88.656250 39.015125
38.050000 87.921875 39.015125
38.575000 86.875000 39.015125
37.525000 84.093750 39.015125
38.550000 80.687500 39.015125
39.100000 79.593750 39.015125
39.025000 78.375000 39.015125
39.025000 77.328125 39.015125
39.275000 76.281250 39.015125
37.900000 89.671875 39.159868
37.925000 88.375000 39.159868
37.800000 87.515625 39.159868
37.825000 86.156250 39.159868
37.600000 84.890625 39.159868
37.650000 83.843750 39.159868
39.325000 79.421875 39.159868
39.025000 78.250000 39.159868
39.025000 76.640625 39.159868
37.925000 88.656250 39.315736
37.800000 87.812500 39.315736
37.750000 86.796875 39.315736
37.375000 85.593750 39.315736
37.250000 84.093750 39.315736
37.725000 82.843750 39.315736
38.200000 81.875000 39.315736
38.775000 80.734375 39.315736
39.075000 79.718750 39.315736
39.000000 78.578125 39.315736
38.925000 77.234375 39.315736
39.150000 76.265625 39.315736
37.875000 89.781250 39.471541
37.825000 88.656250 39.471541
37.700000 87.593750 39.471541
38.150000 86.093750 39.471541
37.300000 83.765625 39.471541
37.675000 82.796875 39.471541
38.925000 77.984375 39.471541
37.600000 87.953125 39.626976
37.125000 86.640625 39.626976
36.800000 85.328125 39.626976
37.050000 84.515625 39.626976
37.150000 83.046875 39.626976
37.500000 82.218750 39.626976
38.250000 81.078125 39.626976
38.875000 80.046875 39.626976
38.875000 78.687500 39.626976
38.700000 77.375000 39.626976
38.925000 76.078125 39.626976
37.550000 87.843750 39.794822
37.075000 86.781250 39.794822
36.850000 85.578125 39.794822
37.100000 84.421875 39.794822
37.125000 83.046875 39.794822
37.450000 82.000000 39.794822
38.075000 80.781250 39.794822
38.750000 79.843750 39.794822
38.875000 78.421875 39.794822
38.675000 77.140625 39.794822
38.925000 76.375000 39.794822
37.775000 89.468750 39.935383
37.575000 88.406250 39.935383
37.575000 87.031250 39.935383
37.800000 86.125000 39.935383
37.475000 85.062500 39.935383
37.050000 83.781250 39.935383
37.250000 82.515625 39.935383
38.550000 78.125000 39.935383
38.650000 76.546875 39.935383
37.725000 88.953125 40.091156
37.350000 88.062500 40.091156
37.275000 84.500000 40.091156
37.150000 83.312500 40.091156
37.425000 82.250000 40.091156
37.925000 80.890625 40.091156
38.225000 79.984375 40.091156
38.275000 78.812500 40.091156
38.425000 77.656250 40.091156
38.800000 76.140625 40.091156
37.400000 90.000000 40.246775
37.250000 88.562500 40.246775
37.425000 87.781250 40.246775
37.275000 83.703125 40.246775
37.175000 82.765625 40.246775
37.525000 81.734375 40.246775
37.925000 80.406250 40.246775
38.100000 79.125000 40.246775
38.225000 78.312500 40.246775
38.475000 77.218750 40.246775
39.025000 76.015625 40.246775
37.750000 89.812500 40.400976
37.475000 88.640625 40.400976
37.375000 87.265625 40.400976
37.325000 86.203125 40.400976
37.600000 84.968750 40.400976
37.550000 83.734375 40.400976
37.250000 82.656250 40.400976
37.700000 81.734375 40.400976
38.000000 80.500000 40.400976
38.025000 78.921875 40.400976
38.175000 78.046875 40.400976
37.350000 86.671875 40.556287
37.350000 85.531250 40.556287
37.450000 84.390625 40.556287
37.400000 83.187500 40.556287
37.500000 82.078125 40.556287
37.750000 81.125000 40.556287
37.800000 79.703125 40.556287
38.000000 78.781250 40.556287
38.250000 77.421875 40.556287
38.575000 76.140625 40.556287
37.525000 89.406250 40.712749
37.250000 88.375000 40.712749
37.350000 87.515625 40.712749
37.325000 85.890625 40.712749
37.300000 84.703125 40.712749
37.375000 83.640625 40.712749
37.575000 82.578125 40.712749
37.625000 81.593750 40.712749
37.650000 80.312500 40.712749
37.850000 79.015625 40.712749
38.075000 78.031250 40.712749
38.350000 76.671875 40.712749
38.925000 75.671875 40.712749
37.425000 89.421875 40.868042
37.250000 88.296875 40.868042
37.300000 87.515625 40.868042
37.275000 86.203125 40.868042
37.300000 85.062500 40.868042
37.350000 83.890625 40.868042
37.625000 82.953125 40.868042
37.675000 81.500000 40.868042
37.600000 80.562500 40.868042
37.775000 79.343750 40.868042
38.025000 78.171875 40.868042
38.250000 76.687500 40.868042
38.675000 75.640625 40.868042
37.250000 87.109375 41.018088
37.300000 86.046875 41.018088
37.325000 84.484375 41.018088
37.350000 83.281250 41.018088
37.475000 82.250000 41.018088
37.525000 81.343750 41.018088
37.525000 79.750000 41.018088
37.750000 78.781250 41.018088
38.025000 77.859375 41.018088
38.300000 76.687500 41.018088
37.300000 89.593750 41.180568
37.100000 88.875000 41.180568
37.275000 87.718750 41.180568
37.300000 86.531250 41.180568
37.300000 85.296875 41.180568
37.325000 83.750000 41.180568
37.575000 83.062500 41.180568
37.650000 81.812500 41.180568
37.500000 80.625000 41.180568
37.650000 79.218750 41.180568
37.900000 77.953125 41.180568
38.125000 77.250000 41.180568
38.525000 75.640625 41.180568
37.325000 89.406250 41.334115
37.200000 88.359375 41.334115
37.300000 86.968750 41.334115
37.300000 85.937500 41.334115
37.325000 84.906250 41.334115
37.375000 83.359375 41.334115
37.500000 82.359375 41.334115
37.525000 81.125000 41.334115
37.525000 80.328125 41.334115
37.750000 79.125000 41.334115
37.950000 77.703125 41.334115
37.300000 89.609375 41.495811
37.225000 88.375000 41.495811
37.300000 87.359375 41.495811
37.325000 85.937500 41.495811
37.325000 84.781250 41.495811
37.350000 83.515625 41.495811
37.500000 82.609375 41.495811
37.550000 81.468750 41.495811
37.550000 79.968750 41.495811
37.675000 79.015625 41.495811
37.875000 78.000000 41.495811
38.125000 76.484375 41.495811
38.650000 75.718750 41.495811
37.250000 89.390625 41.645197
37.175000 88.453125 41.645197
37.275000 87.031250 41.645197
37.300000 85.718750 41.645197
37.325000 84.984375 41.645197
37.350000 83.562500 41.645197
37.475000 82.578125 41.645197
37.500000 81.140625 41.645197
37.500000 80.265625 41.645197
37.675000 78.906250 41.645197
37.875000 77.875000 41.645197
37.250000 87.078125 41.794029
37.300000 85.812500 41.794029
37.300000 84.421875 41.794029
37.425000 83.687500 41.794029
37.525000 82.421875 41.794029
37.475000 81.390625 41.794029
37.525000 79.765625 41.794029
37.700000 78.921875 41.794029
37.950000 77.546875 41.794029
37.250000 87.187500 41.955744
37.300000 85.890625 41.955744
37.300000 84.875000 41.955744
37.425000 83.671875 41.955744
37.525000 82.421875 41.955744
37.550000 81.390625 41.955744
37.600000 80.062500 41.955744
37.700000 78.593750 41.955744
37.950000 77.484375 41.955744
37.325000 87.171875 42.106532
37.325000 85.921875 42.106532
37.325000 84.859375 42.106532
37.475000 83.265625 42.106532
37.550000 82.250000 42.106532
37.500000 81.109375 42.106532
37.575000 80.015625 42.106532
37.750000 78.687500 42.106532
37.975000 77.625000 42.106532
38.225000 76.609375 42.106532
37.700000 89.843750 42.266839
37.500000 88.765625 42.266839
37.300000 87.812500 42.266839
37.300000 86.687500 42.266839
37.325000 85.187500 42.266839
37.350000 84.093750 42.266839
37.675000 82.812500 42.266839
37.750000 81.609375 42.266839
37.500000 80.718750 42.266839
37.650000 79.484375 42.266839
37.875000 78.187500 42.266839
38.075000 76.984375 42.266839
38.400000 76.031250 42.266839
37.325000 86.671875 42.418027
37.350000 85.656250 42.418027
37.375000 84.500000 42.418027
37.600000 83.265625 42.418027
37.650000 82.156250 42.418027
37.500000 80.953125 42.418027
37.625000 79.921875 42.418027
37.825000 78.453125 42.418027
38.050000 77.531250 42.418027
38.325000 76.375000 42.418027
37.250000 87.109375 42.576484
37.300000 85.890625 42.576484
37.325000 84.750000 42.576484
37.375000 83.515625 42.576484
37.500000 82.593750 42.576484
37.575000 81.265625 42.576484
37.575000 80.125000 42.576484
37.700000 78.906250 42.576484
37.900000 77.718750 42.576484
38.125000 76.421875 42.576484
38.750000 75.500000 42.576484
37.350000 88.875000 42.729290
37.275000 87.578125 42.729290
37.325000 86.437500 42.729290
37.350000 85.375000 42.729290
37.425000 84.140625 42.729290
37.725000 82.890625 42.729290
37.750000 82.015625 42.729290
37.550000 80.640625 42.729290
37.675000 79.375000 42.729290
37.900000 78.250000 42.729290
38.100000 76.984375 42.729290
38.450000 75.812500 42.729290
37.300000 87.000000 42.890164
37.325000 85.515625 42.890164
37.350000 84.734375 42.890164
37.475000 83.515625 42.890164
37.600000 82.281250 42.890164
37.575000 81.109375 42.890164
37.700000 80.078125 42.890164
37.950000 78.875000 42.890164
38.100000 77.609375 42.890164
38.300000 76.375000 42.890164
37.325000 90.125000 43.040258
37.400000 88.875000 43.040258
37.275000 87.656250 43.040258
37.325000 86.453125 43.040258
37.350000 85.578125 43.040258
37.400000 84.265625 43.040258
37.600000 83.265625 43.040258
37.625000 81.859375 43.040258
37.550000 80.953125 43.040258
37.725000 79.687500 43.040258
38.025000 78.593750 43.040258
38.175000 77.218750 43.040258
38.450000 76.000000 43.040258
37.225000 89.500000 43.198539
37.100000 88.703125 43.198539
37.300000 87.328125 43.198539
37.300000 86.078125 43.198539
37.375000 84.843750 43.198539
37.425000 83.890625 43.198539
37.575000 82.984375 43.198539
37.700000 81.656250 43.198539
37.675000 80.171875 43.198539
37.875000 79.390625 43.198539
38.100000 77.968750 43.198539
38.250000 77.078125 43.198539
38.700000 75.890625 43.198539
37.300000 89.859375 43.351361
37.150000 88.687500 43.351361
37.325000 87.375000 43.351361
37.425000 86.218750 43.351361
37.425000 84.859375 43.351361
37.525000 83.609375 43.351361
37.600000 82.687500 43.351361
37.850000 81.359375 43.351361
38.050000 80.484375 43.351361
38.025000 79.406250 43.351361
38.250000 78.093750 43.351361
38.425000 76.843750 43.351361
38.950000 75.687500 43.351361
37.475000 88.921875 43.509545
37.250000 88.015625 43.509545
37.350000 86.906250 43.509545
37.450000 85.437500 43.509545
37.800000 84.718750 43.509545
37.725000 82.968750 43.509545
37.500000 81.796875 43.509545
37.775000 81.046875 43.509545
38.000000 79.656250 43.509545
38.175000 78.515625 43.509545
38.350000 77.375000 43.509545
38.700000 76.218750 43.509545
37.375000 89.968750 43.665427
37.300000 88.843750 43.665427
37.450000 87.343750 43.665427
37.525000 86.531250 43.665427
37.525000 85.078125 43.665427
37.325000 83.812500 43.665427
37.275000 82.578125 43.665427
37.600000 81.718750 43.665427
37.975000 80.515625 43.665427
38.150000 79.375000 43.665427
38.350000 78.281250 43.665427
38.575000 77.312500 43.665427
39.050000 75.859375 43.665427
37.525000 89.500000 43.806988
37.375000 88.375000 43.806988
37.525000 87.093750 43.806988
37.400000 83.390625 43.806988
37.400000 82.515625 43.806988
37.750000 81.515625 43.806988
38.100000 79.968750 43.806988
38.325000 79.015625 43.806988
38.450000 77.546875 43.806988
38.650000 76.656250 43.806988
37.525000 89.890625 43.961652
37.475000 88.437500 43.961652
37.500000 87.656250 43.961652
37.575000 86.500000 43.961652
38.000000 85.515625 43.961652
37.275000 82.734375 43.961652
37.800000 79.375000 43.961652
38.375000 78.093750 43.961652
38.650000 77.171875 43.961652
39.125000 75.937500 43.961652
37.575000 89.359375 44.117673
37.375000 88.312500 44.117673
37.525000 87.234375 44.117673
37.300000 85.921875 44.117673
37.175000 84.640625 44.117673
37.300000 83.593750 44.117673
37.400000 82.125000 44.117673
37.975000 78.812500 44.117673
38.575000 77.734375 44.117673
38.900000 76.531250 44.117673
37.600000 89.156250 44.272204
37.650000 87.968750 44.272204
37.825000 86.703125 44.272204
38.375000 85.703125 44.272204
37.325000 82.812500 44.272204
37.650000 81.921875 44.272204
38.150000 80.984375 44.272204
38.525000 79.593750 44.272204
38.675000 78.390625 44.272204
38.800000 77.234375 44.272204
39.200000 76.187500 44.272204
37.700000 89.500000 44.427525
37.575000 88.156250 44.427525
37.825000 87.234375 44.427525
37.700000 85.656250 44.427525
37.375000 84.812500 44.427525
37.500000 83.421875 44.427525
37.775000 82.500000 44.427525
38.325000 78.609375 44.427525
38.750000 77.578125 44.427525
39.000000 76.515625 44.427525
37.525000 88.828125 44.581971
37.775000 87.734375 44.581971
37.675000 84.375000 44.581971
37.525000 83.203125 44.581971
37.975000 82.109375 44.581971
38.525000 80.562500 44.581971
39.050000 79.546875 44.581971
39.100000 78.218750 44.581971
38.950000 77.140625 44.581971
39.325000 76.218750 44.581971
37.875000 89.640625 44.737928
37.775000 88.421875 44.737928
37.925000 87.250000 44.737928
37.650000 86.109375 44.737928
37.300000 85.062500 44.737928
37.675000 83.562500 44.737928
38.450000 82.437500 44.737928
39.125000 78.890625 44.737928
39.175000 77.718750 44.737928
39.150000 76.546875 44.737928
37.625000 89.218750 44.892886
37.950000 87.687500 44.892886
37.825000 84.515625 44.892886
38.150000 81.031250 44.892886
39.000000 79.859375 44.892886
39.175000 78.375000 44.892886
39.100000 77.390625 44.892886
39.300000 76.218750 44.892886
37.725000 89.703125 45.051890
37.825000 88.828125 45.051890
38.150000 87.328125 45.051890
37.725000 86.437500 45.051890
37.400000 85.125000 45.051890
37.750000 83.734375 45.051890
38.200000 82.921875 45.051890
38.675000 81.937500 45.051890
39.325000 80.484375 45.051890
39.500000 79.421875 45.051890
39.225000 78.000000 45.051890
38.050000 89.265625 45.205605
37.950000 87.953125 45.205605
38.200000 86.906250 45.205605
38.250000 86.062500 45.205605
37.900000 84.359375 45.205605
37.900000 83.750000 45.205605
38.525000 82.406250 45.205605
38.825000 81.031250 45.205605
39.175000 79.906250 45.205605
39.350000 78.906250 45.205605
39.225000 77.828125 45.205605
39.350000 76.671875 45.205605
38.000000 90.046875 45.363810
38.025000 88.734375 45.363810
38.150000 87.375000 45.363810
37.900000 86.421875 45.363810
37.650000 85.093750 45.363810
37.925000 83.750000 45.363810
38.450000 82.984375 45.363810
38.925000 81.468750 45.363810
39.525000 80.421875 45.363810
39.600000 79.125000 45.363810
39.225000 78.046875 45.363810
39.325000 76.750000 45.363810
39.925000 75.703125 45.363810
37.825000 89.921875 45.515949
37.925000 88.703125 45.515949
38.175000 87.843750 45.515949
38.250000 86.546875 45.515949
38.200000 85.109375 45.515949
38.025000 84.203125 45.515949
38.325000 83.140625 45.515949
38.850000 82.046875 45.515949
39.350000 80.703125 45.515949
39.450000 79.281250 45.515949
39.200000 78.343750 45.515949
39.375000 76.937500 45.515949
39.775000 75.921875 45.515949
38.175000 89.640625 45.674498
38.125000 88.343750 45.674498
38.325000 87.031250 45.674498
38.325000 86.109375 45.674498
38.100000 84.968750 45.674498
38.025000 83.531250 45.674498
38.475000 82.390625 45.674498
39.100000 81.500000 45.674498
39.450000 80.140625 45.674498
39.400000 79.062500 45.674498
39.275000 77.578125 45.674498
39.450000 76.875000 45.674498
38.050000 90.046875 45.829946
38.250000 88.765625 45.829946
38.375000 87.500000 45.829946
38.350000 86.671875 45.829946
38.225000 85.171875 45.829946
38.025000 84.000000 45.829946
38.150000 82.937500 45.829946
38.700000 82.031250 45.829946
39.375000 80.890625 45.829946
39.500000 79.734375 45.829946
39.275000 78.546875 45.829946
39.325000 77.171875 45.829946
39.725000 76.140625 45.829946
38.275000 89.359375 45.986504
38.275000 88.500000 45.986504
38.375000 87.234375 45.986504
38.325000 86.171875 45.986504
38.025000 84.968750 45.986504
37.925000 83.640625 45.986504
38.425000 82.875000 45.986504
39.200000 81.765625 45.986504
39.700000 80.390625 45.986504
39.500000 79.171875 45.986504
39.175000 78.093750 45.986504
39.425000 76.968750 45.986504
38.375000 89.515625 46.139081
38.225000 88.234375 46.139081
38.475000 87.234375 46.139081
38.725000 86.281250 46.139081
38.350000 85.000000 46.139081
39.375000 80.046875 46.139081
39.275000 79.156250 46.139081
39.250000 77.859375 46.139081
39.475000 76.750000 46.139081
38.600000 89.390625 46.287371
38.475000 88.312500 46.287371
38.475000 87.421875 46.287371
38.675000 86.296875 46.287371
38.350000 84.953125 46.287371
39.375000 80.359375 46.287371
39.250000 79.171875 46.287371
39.225000 77.828125 46.287371
39.575000 76.750000 46.287371
38.825000 89.500000 46.450732
38.800000 88.437500 46.450732
38.550000 87.156250 46.450732
38.775000 86.000000 46.450732
38.525000 84.703125 46.450732
39.550000 80.156250 46.450732
39.375000 79.140625 46.450732
39.200000 78.000000 46.450732
39.525000 76.671875 46.450732
39.025000 89.765625 46.599821
38.950000 88.671875 46.599821
38.625000 87.406250 46.599821
38.850000 86.390625 46.599821
38.625000 85.015625 46.599821
38.150000 83.656250 46.599821
38.500000 82.812500 46.599821
39.250000 81.390625 46.599821
39.675000 80.218750 46.599821
39.475000 79.281250 46.599821
39.200000 78.046875 46.599821
39.500000 76.984375 46.599821
38.550000 89.968750 46.760982
38.650000 88.765625 46.760982
38.625000 87.906250 46.760982
38.725000 86.671875 46.760982
38.725000 85.296875 46.760982
38.500000 84.281250 46.760982
38.650000 83.062500 46.760982
39.225000 82.109375 46.760982
39.625000 80.906250 46.760982
39.425000 79.437500 46.760982
39.175000 78.140625 46.760982
39.450000 77.140625 46.760982
40.025000 76.218750 46.760982
39.025000 89.656250 46.912579
38.950000 88.625000 46.912579
38.625000 87.250000 46.912579
38.650000 86.328125 46.912579
38.875000 85.109375 46.912579
38.725000 84.000000 46.912579
38.750000 82.656250 46.912579
39.350000 81.546875 46.912579
39.600000 80.468750 46.912579
39.400000 79.281250 46.912579
39.175000 78.109375 46.912579
38.550000 88.781250 47.074722
38.625000 87.609375 47.074722
38.725000 86.500000 47.074722
38.925000 85.562500 47.074722
38.925000 84.046875 47.074722
38.900000 83.031250 47.074722
39.275000 82.078125 47.074722
39.625000 80.937500 47.074722
39.400000 79.500000 47.074722
39.075000 78.343750 47.074722
39.350000 77.468750 47.074722
39.975000 76.343750 47.074722
38.725000 87.109375 47.223912
38.775000 86.140625 47.223912
38.800000 84.937500 47.223912
38.900000 83.500000 47.223912
39.200000 82.421875 47.223912
39.425000 81.312500 47.223912
39.250000 80.187500 47.223912
39.100000 78.890625 47.223912
39.400000 77.859375 47.223912
39.775000 76.828125 47.223912
38.475000 88.906250 47.384765
38.675000 87.625000 47.384765
38.725000 86.546875 47.384765
38.825000 85.593750 47.384765
38.850000 84.265625 47.384765
38.925000 83.359375 47.384765
39.225000 81.906250 47.384765
39.550000 80.828125 47.384765
39.400000 79.750000 47.384765
39.075000 78.562500 47.384765
39.350000 77.375000 47.384765
39.900000 76.078125 47.384765
38.075000 89.484375 47.534658
38.375000 87.906250 47.534658
38.725000 87.078125 47.534658
38.850000 85.796875 47.534658
38.850000 84.640625 47.534658
38.925000 83.562500 47.534658
39.250000 82.203125 47.534658
39.525000 81.046875 47.534658
39.325000 80.109375 47.534658
39.100000 79.000000 47.534658
39.275000 77.656250 47.534658
39.700000 76.703125 47.534658
38.850000 88.640625 47.692358
38.725000 87.687500 47.692358
38.750000 86.562500 47.692358
38.825000 85.250000 47.692358
38.825000 84.375000 47.692358
39.025000 82.890625 47.692358
39.375000 81.765625 47.692358
39.775000 80.781250 47.692358
39.600000 79.609375 47.692358
39.175000 78.296875 47.692358
39.450000 77.171875 47.692358
40.075000 75.984375 47.692358
38.750000 87.531250 47.833996
38.875000 86.390625 47.833996
38.900000 85.218750 47.833996
38.925000 84.000000 47.833996
39.250000 82.609375 47.833996
39.450000 81.453125 47.833996
39.225000 80.015625 47.833996
39.075000 79.046875 47.833996
39.175000 77.937500 47.833996
39.525000 76.625000 47.833996
38.725000 87.296875 47.989952
38.775000 86.234375 47.989952
38.800000 84.812500 47.989952
38.900000 83.859375 47.989952
39.200000 82.375000 47.989952
39.425000 81.406250 47.989952
39.200000 79.968750 47.989952
39.075000 78.796875 47.989952
39.225000 77.812500 47.989952
39.625000 76.843750 47.989952
39.125000 88.828125 48.144818
38.700000 87.578125 48.144818
38.675000 86.125000 48.144818
38.750000 84.937500 48.144818
38.900000 84.046875 48.144818
39.250000 82.812500 48.144818
39.525000 81.468750 48.144818
39.325000 80.437500 48.144818
39.125000 79.500000 48.144818
39.150000 78.000000 48.144818
39.375000 77.031250 48.144818
38.700000 87.562500 48.300228
38.825000 86.015625 48.300228
38.875000 85.093750 48.300228
38.825000 83.671875 48.300228
39.175000 82.890625 48.300228
39.525000 81.546875 48.300228
39.275000 80.562500 48.300228
39.075000 79.234375 48.300228
39.150000 78.234375 48.300228
39.375000 76.953125 48.300228
38.500000 88.031250 48.456674
38.725000 86.671875 48.456674
38.600000 85.453125 48.456674
38.500000 84.562500 48.456674
38.575000 83.218750 48.456674
38.875000 82.203125 48.456674
39.300000 80.875000 48.456674
39.200000 79.718750 48.456674
39.075000 78.531250 48.456674
39.125000 77.218750 48.456674
39.575000 76.156250 48.456674
38.675000 87.187500 48.611831
38.650000 86.375000 48.611831
38.300000 85.015625 48.611831
38.175000 83.937500 48.611831
38.600000 82.890625 48.611831
39.175000 81.406250 48.611831
39.325000 80.515625 48.611831
39.100000 79.359375 48.611831
39.100000 78.109375 48.611831
39.350000 76.843750 48.611831
39.100000 89.718750 48.765602
39.100000 88.531250 48.765602
38.525000 87.359375 48.765602
38.125000 85.984375 48.765602
37.775000 84.609375 48.765602
38.075000 83.578125 48.765602
38.650000 82.546875 48.765602
39.150000 81.671875 48.765602
39.225000 80.328125 48.765602
39.075000 79.000000 48.765602
39.125000 77.953125 48.765602
39.375000 76.906250 48.765602
38.250000 89.062500 48.923113
38.275000 88.343750 48.923113
38.675000 87.187500 48.923113
37.750000 84.734375 48.923113
38.275000 83.296875 48.923113
38.900000 82.359375 48.923113
39.275000 81.109375 48.923113
39.225000 79.921875 48.923113
39.075000 79.000000 48.923113
39.100000 77.640625 48.923113
39.400000 76.640625 48.923113
38.100000 89.125000 49.078674
37.825000 85.718750 49.078674
37.775000 84.578125 49.078674
38.625000 80.937500 49.078674
39.100000 79.656250 49.078674
39.025000 78.562500 49.078674
39.100000 77.265625 49.078674
39.425000 76.250000 49.078674
38.025000 88.843750 49.233226
38.050000 87.953125 49.233226
38.600000 87.000000 49.233226
37.700000 84.250000 49.233226
38.200000 83.406250 49.233226
38.650000 81.953125 49.233226
39.075000 80.968750 49.233226
39.175000 79.671875 49.233226
39.050000 78.734375 49.233226
39.100000 77.453125 49.233226
39.325000 76.500000 49.233226
38.050000 89.484375 49.393263
37.900000 88.156250 49.393263
38.025000 86.953125 49.393263
37.650000 85.843750 49.393263
37.500000 84.750000 49.393263
37.825000 83.484375 49.393263
38.250000 82.328125 49.393263
38.825000 81.500000 49.393263
39.225000 79.984375 49.393263
39.150000 78.890625 49.393263
39.025000 77.843750 49.393263
39.125000 76.328125 49.393263
37.975000 89.437500 49.542371
37.775000 88.125000 49.542371
37.900000 87.046875 49.542371
37.575000 85.593750 49.542371
37.425000 84.562500 49.542371
37.750000 83.437500 49.542371
38.225000 82.343750 49.542371
38.800000 81.296875 49.542371
39.200000 79.953125 49.542371
39.150000 78.718750 49.542371
39.050000 77.734375 49.542371
39.150000 76.625000 49.542371
37.975000 89.156250 49.703245
37.875000 87.718750 49.703245
38.075000 86.906250 49.703245
37.350000 84.375000 49.703245
37.850000 83.078125 49.703245
38.225000 81.812500 49.703245
38.825000 80.859375 49.703245
39.150000 79.781250 49.703245
39.050000 78.437500 49.703245
39.000000 77.375000 49.703245
39.225000 76.265625 49.703245
38.000000 89.750000 49.854824
37.950000 88.781250 49.854824
37.775000 87.562500 49.854824
38.100000 86.125000 49.854824
37.325000 83.718750 49.854824
38.000000 82.734375 49.854824
38.350000 81.484375 49.854824
38.850000 80.765625 49.854824
39.225000 79.406250 49.854824
39.000000 78.328125 49.854824
37.800000 89.250000 50.012580
37.600000 88.375000 50.012580
37.350000 84.984375 50.012580
37.250000 83.468750 50.012580
37.625000 82.281250 50.012580
38.900000 77.750000 50.012580
38.850000 76.843750 50.012580
37.625000 89.015625 50.165458
37.625000 87.828125 50.165458
37.200000 86.234375 50.165458
36.875000 85.578125 50.165458
37.050000 84.156250 50.165458
37.175000 83.250000 50.165458
37.550000 82.156250 50.165458
38.225000 80.671875 50.165458
38.800000 79.625000 50.165458
38.825000 78.359375 50.165458
38.650000 77.312500 50.165458
38.925000 76.156250 50.165458
37.875000 89.625000 50.325129
37.725000 88.734375 50.325129
37.575000 87.359375 50.325129
37.600000 86.281250 50.325129
37.275000 85.000000 50.325129
37.050000 84.031250 50.325129
37.225000 82.625000 50.325129
38.875000 78.171875 50.325129
38.725000 76.984375 50.325129
39.250000 75.828125 50.325129
37.375000 87.968750 50.475143
37.250000 84.265625 50.475143
37.075000 83.609375 50.475143
37.350000 82.390625 50.475143
37.850000 81.281250 50.475143
38.600000 80.234375 50.475143
38.675000 78.734375 50.475143
38.425000 77.812500 50.475143
38.775000 76.578125 50.475143
37.750000 89.078125 50.632416
37.450000 87.890625 50.632416
37.300000 84.312500 50.632416
37.150000 83.265625 50.632416
37.450000 81.953125 50.632416
37.975000 80.734375 50.632416
38.200000 79.390625 50.632416
38.250000 78.578125 50.632416
38.475000 77.281250 50.632416
38.875000 76.078125 50.632416
37.800000 89.250000 50.788177
37.400000 88.109375 50.788177
37.425000 87.234375 50.788177
37.175000 86.109375 50.788177
37.125000 84.968750 50.788177
37.250000 83.671875 50.788177
37.275000 82.562500 50.788177
37.675000 81.265625 50.788177
38.025000 80.390625 50.788177
38.125000 79.171875 50.788177
38.250000 77.671875 50.788177
38.550000 76.750000 50.788177
37.375000 86.890625 50.946495
37.250000 85.953125 50.946495
37.375000 84.828125 50.946495
37.425000 83.656250 50.946495
37.350000 82.406250 50.946495
37.675000 81.109375 50.946495
37.875000 80.171875 50.946495
38.050000 78.921875 50.946495
38.200000 77.406250 50.946495
38.475000 76.656250 50.946495
37.350000 86.781250 51.097535
37.375000 85.781250 51.097535
37.375000 84.796875 51.097535
37.375000 83.218750 51.097535
37.600000 82.328125 51.097535
37.700000 80.921875 51.097535
37.750000 79.953125 51.097535
38.025000 78.984375 51.097535
38.200000 77.546875 51.097535
38.475000 76.687500 51.097535
37.325000 86.781250 51.252034
37.375000 85.906250 51.252034
37.350000 84.921875 51.252034
37.375000 83.656250 51.252034
37.700000 82.468750 51.252034
37.800000 81.234375 51.252034
37.675000 79.765625 51.252034
37.875000 78.781250 51.252034
38.100000 77.656250 51.252034
38.450000 76.296875 51.252034
37.450000 89.687500 51.406993
37.200000 88.718750 51.406993
37.325000 87.437500 51.406993
37.300000 86.109375 51.406993
37.325000 85.234375 51.406993
37.350000 83.921875 51.406993
37.625000 82.593750 51.406993
37.650000 81.671875 51.406993
37.500000 80.437500 51.406993
37.750000 79.265625 51.406993
38.000000 77.968750 51.406993
38.200000 76.656250 51.406993
38.725000 75.875000 51.406993
37.425000 89.734375 51.561972
37.175000 88.546875 51.561972
37.300000 87.531250 51.561972
37.275000 85.937500 51.561972
37.300000 84.906250 51.561972
37.325000 83.687500 51.561972
37.625000 82.718750 51.561972
37.675000 81.515625 51.561972
37.500000 80.343750 51.561972
37.725000 79.031250 51.561972
37.975000 77.843750 51.561972
38.175000 77.015625 51.561972
38.700000 75.515625 51.561972
37.350000 89.265625 51.717223
37.075000 88.078125 51.717223
37.300000 87.062500 51.717223
37.350000 85.687500 51.717223
37.325000 84.921875 51.717223
37.350000 83.296875 51.717223
37.425000 82.281250 51.717223
37.450000 81.078125 51.717223
37.575000 80.187500 51.717223
37.850000 78.984375 51.717223
38.000000 77.843750 51.717223
38.200000 76.468750 51.717223
37.300000 89.125000 51.871788
37.225000 88.250000 51.871788
37.275000 86.734375 51.871788
37.300000 85.812500 51.871788
37.350000 84.703125 51.871788
37.450000 83.062500 51.871788
37.375000 82.281250 51.871788
37.375000 81.093750 51.871788
37.600000 79.906250 51.871788
37.750000 78.609375 51.871788
37.950000 77.515625 51.871788
38.225000 76.125000 51.871788
37.550000 90.000000 52.019194
37.175000 88.609375 52.019194
37.300000 87.406250 52.019194
37.300000 86.421875 52.019194
37.325000 85.203125 52.019194
37.350000 83.640625 52.019194
37.675000 82.671875 52.019194
37.725000 81.578125 52.019194
37.500000 80.328125 52.019194
37.675000 79.359375 52.019194
37.825000 78.203125 52.019194
38.050000 76.890625 52.019194
38.450000 75.625000 52.019194
37.325000 88.859375 52.182610
37.200000 87.671875 52.182610
37.275000 86.718750 52.182610
37.300000 85.500000 52.182610
37.350000 84.421875 52.182610
37.525000 83.187500 52.182610
37.450000 82.078125 52.182610
37.400000 80.718750 52.182610
37.600000 79.718750 52.182610
37.775000 78.640625 52.182610
38.000000 77.390625 52.182610
38.250000 76.171875 52.182610
37.175000 88.593750 52.330576
37.275000 87.515625 52.330576
37.275000 86.046875 52.330576
37.300000 84.750000 52.330576
37.325000 83.609375 52.330576
37.525000 82.640625 52.330576
37.675000 81.531250 52.330576
37.600000 80.484375 52.330576
37.725000 79.140625 52.330576
37.900000 77.906250 52.330576
38.100000 76.921875 52.330576
38.550000 75.718750 52.330576
37.325000 87.000000 52.493208
37.350000 85.843750 52.493208
37.325000 84.828125 52.493208
37.475000 83.703125 52.493208
37.525000 82.250000 52.493208
37.500000 81.062500 52.493208
37.625000 79.843750 52.493208
37.775000 78.750000 52.493208
37.950000 77.406250 52.493208
38.200000 76.562500 52.493208
37.575000 89.343750 52.639665
37.200000 87.953125 52.639665
37.275000 86.984375 52.639665
37.300000 85.359375 52.639665
37.350000 84.421875 52.639665
37.600000 83.296875 52.639665
37.525000 82.250000 52.639665
37.400000 81.062500 52.639665
37.575000 79.984375 52.639665
37.750000 78.734375 52.639665
37.975000 77.375000 52.639665
38.225000 76.406250 52.639665
37.475000 89.703125 52.802133
37.200000 88.437500 52.802133
37.275000 87.546875 52.802133
37.325000 86.406250 52.802133
37.350000 85.359375 52.802133
37.375000 83.843750 52.802133
37.700000 82.906250 52.802133
37.750000 81.765625 52.802133
37.550000 80.671875 52.802133
37.700000 79.578125 52.802133
37.900000 78.000000 52.802133
38.100000 77.203125 52.802133
38.450000 75.937500 52.802133
37.450000 89.718750 52.951320
37.175000 88.734375 52.951320
37.300000 87.593750 52.951320
37.325000 86.328125 52.951320
37.350000 85.296875 52.951320
37.350000 83.734375 52.951320
37.675000 82.796875 52.951320
37.725000 81.812500 52.951320
37.500000 80.593750 52.951320
37.675000 79.515625 52.951320
37.875000 77.984375 52.951320
38.100000 76.968750 52.951320
38.450000 75.906250 52.951320
37.325000 86.671875 53.114108
37.350000 85.703125 53.114108
37.350000 84.687500 53.114108
37.575000 83.484375 53.114108
37.575000 81.968750 53.114108
37.475000 80.906250 53.114108
37.575000 79.718750 53.114108
37.825000 78.546875 53.114108
38.025000 77.421875 53.114108
38.225000 76.203125 53.114108
37.150000 89.765625 53.265147
36.950000 88.765625 53.265147
37.275000 87.390625 53.265147
37.325000 86.531250 53.265147
37.350000 85.046875 53.265147
37.375000 83.812500 53.265147
37.700000 82.906250 53.265147
37.750000 81.859375 53.265147
37.550000 80.421875 53.265147
37.675000 79.187500 53.265147
37.875000 78.187500 53.265147
38.100000 77.015625 53.265147
38.450000 75.687500 53.265147
37.400000 89.250000 53.412539
37.200000 88.484375 53.412539
37.300000 87.140625 53.412539
37.400000 86.203125 53.412539
37.400000 84.718750 53.412539
37.475000 83.578125 53.412539
37.825000 82.687500 53.412539
37.750000 81.359375 53.412539
37.575000 80.234375 53.412539
37.825000 78.734375 53.412539
38.050000 77.609375 53.412539
37.525000 90.031250 53.574284
37.325000 88.734375 53.574284
37.250000 87.687500 53.574284
37.300000 86.968750 53.574284
37.400000 85.734375 53.574284
37.450000 84.453125 53.574284
37.525000 83.171875 53.574284
37.800000 82.000000 53.574284
37.825000 80.812500 53.574284
37.800000 79.687500 53.574284
38.025000 78.671875 53.574284
38.225000 77.296875 53.574284
38.525000 76.218750 53.574284
37.075000 89.578125 53.723239
36.975000 88.375000 53.723239
37.275000 87.453125 53.723239
37.325000 86.406250 53.723239
37.425000 85.406250 53.723239
37.500000 83.765625 53.723239
37.550000 82.718750 53.723239
37.825000 81.687500 53.723239
37.900000 80.734375 53.723239
37.900000 79.062500 53.723239
38.125000 78.125000 53.723239
38.375000 77.234375 53.723239
38.800000 76.000000 53.723239
37.450000 89.140625 53.888602
37.250000 87.859375 53.888602
37.300000 87.046875 53.888602
37.425000 85.828125 53.888602
37.450000 84.656250 53.888602
37.400000 83.343750 53.888602
37.525000 82.484375 53.888602
37.775000 81.421875 53.888602
37.925000 79.843750 53.888602
38.050000 78.968750 53.888602
38.225000 77.812500 53.888602
38.525000 76.640625 53.888602
37.375000 89.000000 54.034963
37.275000 87.875000 54.034963
37.475000 86.765625 54.034963
37.500000 85.609375 54.034963
37.775000 84.500000 54.034963
37.725000 83.093750 54.034963
37.575000 81.984375 54.034963
37.950000 81.046875 54.034963
38.125000 79.718750 54.034963
38.250000 78.640625 54.034963
38.425000 77.562500 54.034963
38.750000 76.359375 54.034963
37.250000 89.890625 54.188093
37.150000 88.781250 54.188093
37.475000 87.531250 54.188093
37.550000 86.156250 54.188093
37.800000 85.125000 54.188093
37.600000 84.000000 54.188093
37.300000 82.656250 54.188093
37.700000 81.640625 54.188093
38.050000 80.343750 54.188093
38.175000 79.187500 54.188093
38.350000 77.796875 54.188093
38.575000 76.796875 54.188093
39.250000 75.859375 54.188093
37.500000 89.109375 54.344172
37.425000 87.953125 54.344172
37.575000 86.718750 54.344172
37.450000 85.578125 54.344172
37.200000 84.328125 54.344172
37.225000 83.328125 54.344172
37.575000 81.968750 54.344172
38.175000 80.640625 54.344172
38.375000 79.562500 54.344172
38.275000 78.546875 54.344172
38.450000 77.125000 54.344172
38.850000 75.937500 54.344172
37.450000 89.562500 54.500793
37.275000 88.296875 54.500793
37.500000 87.296875 54.500793
37.350000 83.625000 54.500793
37.300000 82.625000 54.500793
37.950000 79.468750 54.500793
38.550000 78.171875 54.500793
37.600000 89.500000 54.655866
37.425000 88.312500 54.655866
37.700000 87.234375 54.655866
37.450000 85.937500 54.655866
37.150000 84.781250 54.655866
37.300000 83.687500 54.655866
37.525000 82.328125 54.655866
38.150000 78.906250 54.655866
38.700000 77.750000 54.655866
38.950000 76.468750 54.655866
37.575000 90.000000 54.810178
37.525000 88.421875 54.810178
37.725000 87.359375 54.810178
37.600000 83.687500 54.810178
37.500000 82.531250 54.810178
38.125000 79.437500 54.810178
38.650000 77.937500 54.810178
38.825000 77.046875 54.810178
39.425000 76.031250 54.810178
37.875000 89.000000 54.964475
37.575000 88.203125 54.964475
37.900000 86.703125 54.964475
38.125000 85.625000 54.964475
37.775000 84.437500 54.964475
37.375000 83.281250 54.964475
37.725000 81.953125 54.964475
38.325000 81.140625 54.964475
39.150000 79.812500 54.964475
39.225000 78.890625 54.964475
38.850000 77.296875 54.964475
39.150000 76.500000 54.964475
37.875000 89.312500 55.119504
37.850000 88.312500 55.119504
38.025000 87.015625 55.119504
37.575000 86.015625 55.119504
37.250000 84.625000 55.119504
37.650000 83.843750 55.119504
38.200000 82.359375 55.119504
38.825000 79.234375 55.119504
39.125000 78.109375 55.119504
39.125000 76.734375 55.119504
37.600000 88.843750 55.269214
37.925000 88.015625 55.269214
37.775000 84.156250 55.269214
39.100000 79.625000 55.269214
39.150000 78.500000 55.269214
38.975000 77.359375 55.269214
39.275000 76.234375 55.269214
38.200000 88.812500 55.431040
37.925000 88.015625 55.431040
38.125000 86.687500 55.431040
38.650000 85.515625 55.431040
38.100000 80.718750 55.431040
39.000000 79.875000 55.431040
39.200000 78.390625 55.431040
39.125000 77.593750 55.431040
39.325000 76.187500 55.431040
37.725000 89.921875 55.580506
37.825000 88.546875 55.580506
38.100000 87.515625 55.580506
37.825000 86.062500 55.580506
37.600000 84.984375 55.580506
37.825000 83.906250 55.580506
38.225000 83.093750 55.580506
38.650000 81.937500 55.580506
39.300000 80.671875 55.580506
39.475000 79.359375 55.580506
39.225000 78.062500 55.580506
39.225000 76.781250 55.580506
39.700000 76.109375 55.580506
38.300000 88.937500 55.745111
38.050000 88.203125 55.745111
38.200000 86.718750 55.745111
38.525000 85.625000 55.745111
39.150000 80.093750 55.745111
39.325000 78.578125 55.745111
39.350000 77.312500 55.745111
39.525000 76.156250 55.745111
38.025000 89.421875 55.891833
38.100000 88.484375 55.891833
38.300000 87.093750 55.891833
38.025000 86.187500 55.891833
37.700000 84.703125 55.891833
37.925000 83.562500 55.891833
38.525000 82.562500 55.891833
39.025000 79.015625 55.891833
39.225000 77.781250 55.891833
39.350000 76.812500 55.891833
38.175000 89.453125 56.056192
38.025000 88.093750 56.056192
38.275000 87.046875 56.056192
38.500000 85.796875 56.056192
38.275000 84.687500 56.056192
39.275000 79.937500 56.056192
39.275000 78.828125 56.056192
39.225000 77.578125 56.056192
39.400000 76.625000 56.056192
37.950000 88.890625 56.206281
38.325000 87.890625 56.206281
38.175000 84.171875 56.206281
38.100000 83.015625 56.206281
38.575000 82.015625 56.206281
39.325000 80.812500 56.206281
39.500000 79.750000 56.206281
39.275000 78.265625 56.206281
39.350000 77.390625 56.206281
39.700000 76.171875 56.206281
38.075000 90.031250 56.366141
38.200000 88.953125 56.366141
38.425000 87.781250 56.366141
38.150000 86.453125 56.366141
37.925000 85.484375 56.366141
37.950000 83.953125 56.366141
38.175000 83.093750 56.366141
38.900000 81.890625 56.366141
39.550000 80.656250 56.366141
39.450000 79.359375 56.366141
39.225000 78.453125 56.366141
39.350000 77.109375 56.366141
39.800000 76.203125 56.366141
38.300000 89.921875 56.517157
38.425000 88.796875 56.517157
38.475000 87.718750 56.517157
38.200000 86.218750 56.517157
37.925000 85.218750 56.517157
38.000000 83.953125 56.517157
38.325000 82.843750 56.517157
39.025000 81.843750 56.517157
39.825000 80.703125 56.517157
39.700000 79.250000 56.517157
39.200000 78.015625 56.517157
39.450000 76.828125 56.517157
40.150000 75.859375 56.517157
38.375000 89.625000 56.664845
38.375000 88.421875 56.664845
38.500000 87.265625 56.664845
38.700000 86.203125 56.664845
38.400000 85.046875 56.664845
39.550000 80.234375 56.664845
39.400000 78.921875 56.664845
39.225000 77.890625 56.664845
39.475000 76.859375 56.664845
38.425000 90.078125 56.826555
38.350000 88.765625 56.826555
38.450000 88.078125 56.826555
38.575000 86.703125 56.826555
38.700000 85.593750 56.826555
38.400000 84.187500 56.826555
39.375000 79.515625 56.826555
39.225000 78.609375 56.826555
39.300000 77.312500 56.826555
39.675000 76.453125 56.826555
38.575000 89.500000 56.974909
38.475000 88.125000 56.974909
38.575000 86.937500 56.974909
38.600000 85.984375 56.974909
38.375000 84.750000 56.974909
39.325000 79.906250 56.974909
39.175000 78.968750 56.974909
39.225000 77.687500 56.974909
39.600000 76.531250 56.974909
38.450000 89.968750 57.135833
38.550000 89.000000 57.135833
38.600000 87.500000 57.135833
38.775000 86.781250 57.135833
38.650000 85.406250 57.135833
38.350000 84.109375 57.135833
38.475000 82.796875 57.135833
39.100000 81.640625 57.135833
39.600000 80.546875 57.135833
39.450000 79.234375 57.135833
39.200000 78.078125 57.135833
39.475000 77.062500 57.135833
40.050000 76.203125 57.135833
38.575000 89.578125 57.284288
38.475000 88.375000 57.284288
38.625000 87.000000 57.284288
38.825000 86.046875 57.284288
38.650000 84.515625 57.284288
38.425000 83.515625 57.284288
38.950000 82.640625 57.284288
39.550000 81.203125 57.284288
39.400000 80.125000 57.284288
39.150000 78.984375 57.284288
39.225000 77.546875 57.284288
39.600000 76.765625 57.284288
39.000000 89.812500 57.447191
38.825000 88.937500 57.447191
38.625000 87.421875 57.447191
38.675000 86.531250 57.447191
38.950000 85.468750 57.447191
38.875000 84.046875 57.447191
38.850000 83.140625 57.447191
39.425000 81.890625 57.447191
39.675000 80.421875 57.447191
39.425000 79.265625 57.447191
39.200000 78.046875 57.447191
39.475000 76.828125 57.447191
40.150000 75.984375 57.447191
38.375000 89.328125 57.596668
38.400000 88.000000 57.596668
38.675000 87.281250 57.596668
38.775000 85.812500 57.596668
38.875000 84.484375 57.596668
38.975000 83.656250 57.596668
39.250000 82.500000 57.596668
39.575000 81.031250 57.596668
39.375000 80.125000 57.596668
39.125000 78.796875 57.596668
39.275000 77.484375 57.596668
39.700000 76.265625 57.596668
38.925000 88.890625 57.751560
38.625000 87.406250 57.751560
38.800000 86.562500 57.751560
38.825000 85.375000 57.751560
38.850000 84.000000 57.751560
39.075000 82.687500 57.751560
39.325000 81.625000 57.751560
39.425000 80.671875 57.751560
39.275000 79.203125 57.751560
39.150000 77.984375 57.751560
39.450000 76.859375 57.751560
40.150000 75.843750 57.751560
38.150000 89.406250 57.907209
38.475000 87.953125 57.907209
38.675000 86.859375 57.907209
38.775000 85.828125 57.907209
38.850000 84.531250 57.907209
38.950000 83.484375 57.907209
39.225000 82.203125 57.907209
39.550000 81.156250 57.907209
39.350000 79.968750 57.907209
39.100000 78.984375 57.907209
39.250000 77.640625 57.907209
39.650000 76.296875 57.907209
39.550000 89.781250 58.062705
38.700000 87.343750 58.062705
38.800000 86.046875 58.062705
38.850000 84.953125 58.062705
38.900000 83.781250 58.062705
39.200000 82.781250 58.062705
39.425000 81.781250 58.062705
39.225000 80.515625 58.062705
39.050000 79.312500 58.062705
39.175000 78.203125 58.062705
39.475000 76.750000 58.062705
38.375000 88.984375 58.218957
38.625000 87.796875 58.218957
38.700000 86.765625 58.218957
38.850000 85.765625 58.218957
38.875000 84.546875 58.218957
39.025000 83.140625 58.218957
39.300000 82.046875 58.218957
39.550000 80.937500 58.218957
39.375000 79.593750 58.218957
39.100000 78.609375 58.218957
39.325000 77.375000 58.218957
39.775000 76.296875 58.218957
38.775000 87.468750 58.374223
38.850000 86.000000 58.374223
38.825000 84.875000 58.374223
38.925000 83.796875 58.374223
39.250000 82.359375 58.374223
39.450000 81.421875 58.374223
39.200000 80.328125 58.374223
39.050000 79.078125 58.374223
39.225000 77.843750 58.374223
39.500000 76.671875 58.374223
38.700000 87.781250 58.529065
38.825000 86.375000 58.529065
38.825000 85.218750 58.529065
38.850000 83.968750 58.529065
39.175000 83.125000 58.529065
39.475000 81.718750 58.529065
39.850000 80.718750 58.529065
39.650000 79.593750 58.529065
39.150000 78.437500 58.529065
39.425000 77.109375 58.529065
