36.200000 85.125000 38.099281
35.975000 83.921875 38.094268
37.325000 79.656250 38.076494
37.150000 78.281250 38.070765
36.850000 77.437500 38.067249
37.100000 76.265625 38.062366
37.550000 75.093750 38.057484
36.125000 88.359375 38.268306
36.100000 87.546875 38.264921
36.150000 86.515625 38.260624
36.275000 85.421875 38.256067
36.050000 84.000000 38.250142
37.000000 79.312500 38.230611
36.850000 78.093750 38.225533
36.825000 77.218750 38.221887
37.100000 75.968750 38.216679
37.775000 74.828125 38.211926
36.650000 89.437500 38.430374
36.450000 88.078125 38.424710
36.100000 87.312500 38.421520
36.325000 86.218750 38.416962
36.075000 84.593750 38.410192
35.750000 83.281250 38.404723
37.050000 79.218750 38.387796
36.850000 77.875000 38.382197
36.950000 76.593750 38.376858
37.300000 75.562500 38.372561
36.625000 89.656250 38.584630
36.475000 88.484375 38.579747
36.100000 87.359375 38.575060
36.300000 86.203125 38.570242
36.150000 84.703125 38.563992
35.850000 83.875000 38.560542
37.025000 79.171875 38.540945
36.825000 78.078125 38.536388
36.925000 76.453125 38.529617
37.300000 75.734375 38.526622
36.475000 89.265625 38.741117
36.400000 88.140625 38.736430
36.175000 87.062500 38.731938
36.300000 85.984375 38.727446
36.200000 84.500000 38.721261
36.000000 83.437500 38.716834
36.225000 82.343750 38.712276
36.775000 81.125000 38.707198
37.100000 80.203125 38.703357
36.975000 78.734375 38.697237
36.825000 77.765625 38.693201
36.950000 76.343750 38.687276
37.350000 75.328125 38.683044
35.850000 88.765625 38.892205
36.125000 87.859375 38.888429
36.250000 86.640625 38.883351
36.350000 85.562500 38.878858
36.250000 84.125000 38.872869
36.550000 81.046875 38.860043
37.250000 79.718750 38.854509
37.125000 78.750000 38.850473
36.850000 77.609375 38.845720
37.100000 76.359375 38.840512
37.550000 75.296875 38.836085
36.775000 89.734375 39.059003
36.550000 88.156250 39.052427
36.175000 87.250000 39.048651
36.200000 86.046875 39.043638
36.450000 84.703125 39.038039
36.450000 83.968750 39.034979
36.400000 82.437500 39.028599
36.800000 81.593750 39.025083
37.100000 80.375000 39.020005
37.025000 78.968750 39.014146
36.825000 77.921875 39.009784
36.875000 76.828125 39.005227
37.250000 75.484375 38.999628
35.925000 89.062500 39.205763
36.150000 87.843750 39.200685
36.175000 86.734375 39.196063
36.275000 85.375000 39.190398
36.350000 84.218750 39.185581
36.400000 83.031250 39.180633
36.625000 81.937500 39.176076
37.000000 81.062500 39.172430
37.000000 79.359375 39.165334
36.825000 78.250000 39.160711
36.850000 77.421875 39.157260
37.125000 76.109375 39.151792
37.700000 74.984375 39.147104
36.675000 89.562500 39.369311
36.650000 88.125000 39.363321
36.175000 87.156250 39.359285
36.200000 86.093750 39.354858
36.300000 84.937500 39.350040
36.350000 83.765625 39.345157
36.450000 82.781250 39.341056
36.825000 81.187500 39.334415
37.125000 80.062500 39.329728
36.925000 78.750000 39.324259
36.725000 77.578125 39.319376
36.925000 76.671875 39.315600
37.300000 75.718750 39.311629
36.600000 88.375000 39.527463
36.200000 87.125000 39.522255
36.250000 86.250000 39.518609
36.275000 84.968750 39.513271
36.250000 83.937500 39.508974
36.375000 82.421875 39.502659
36.775000 81.296875 39.497971
37.150000 80.468750 39.494521
36.950000 79.031250 39.488531
36.650000 77.859375 39.483648
36.925000 76.593750 39.478375
37.350000 75.953125 39.475706
36.225000 88.468750 39.674866
36.125000 87.718750 39.671741
36.175000 86.375000 39.666142
36.275000 85.484375 39.662431
36.300000 83.953125 39.656051
36.400000 82.812500 39.651298
36.725000 81.671875 39.646546
37.100000 80.390625 39.641207
36.975000 79.437500 39.637236
36.650000 78.390625 39.632874
36.725000 76.828125 39.626364
36.175000 87.234375 39.834302
36.275000 85.890625 39.828703
36.375000 84.953125 39.824797
36.350000 83.421875 39.818417
36.450000 82.328125 39.813860
36.825000 81.265625 39.809433
37.125000 80.000000 39.804159
36.900000 78.750000 39.798951
36.700000 77.921875 39.795500
36.900000 76.687500 39.790357
37.300000 75.421875 39.785084
35.850000 89.234375 39.992381
36.025000 88.125000 39.987759
36.250000 86.812500 39.982290
36.325000 85.750000 39.977863
36.300000 84.406250 39.972264
36.325000 83.562500 39.968749
36.575000 81.953125 39.962043
36.950000 81.000000 39.958071
37.100000 79.781250 39.952993
36.775000 78.625000 39.948175
36.625000 77.687500 39.944269
36.925000 76.406250 39.938931
37.350000 75.359375 39.934569
36.050000 88.921875 40.152556
36.125000 87.718750 40.147543
36.150000 86.640625 40.143051
36.250000 85.296875 40.137452
36.275000 84.312500 40.133350
36.325000 83.265625 40.128988
36.675000 81.937500 40.123454
37.050000 80.796875 40.118702
36.900000 79.640625 40.113884
36.600000 78.203125 40.107894
36.700000 77.203125 40.103728
37.075000 75.859375 40.098129
37.750000 74.828125 40.093832
35.775000 89.046875 40.304161
36.050000 87.921875 40.299474
36.225000 86.703125 40.294396
36.325000 85.765625 40.290489
36.325000 84.390625 40.284760
36.325000 83.093750 40.279357
36.575000 81.890625 40.274343
36.925000 81.093750 40.271023
37.025000 79.843750 40.265815
36.750000 78.828125 40.261583
36.625000 77.656250 40.256700
36.875000 76.125000 40.250320
37.300000 75.421875 40.247391
35.950000 88.984375 40.464608
36.050000 87.500000 40.458423
36.150000 86.265625 40.453280
36.225000 85.453125 40.449895
36.250000 84.250000 40.444882
36.325000 82.828125 40.438957
36.650000 82.000000 40.435507
37.125000 80.906250 40.430949
36.975000 79.640625 40.425676
36.550000 78.375000 40.420403
36.600000 77.453125 40.416561
36.900000 75.890625 40.410051
37.575000 74.984375 40.406275
36.150000 87.156250 40.607486
36.250000 85.937500 40.602408
36.250000 84.625000 40.596939
36.250000 83.890625 40.593879
36.425000 82.484375 40.588020
36.700000 81.531250 40.584048
37.000000 80.015625 40.577733
36.825000 79.203125 40.574348
36.500000 77.750000 40.568293
36.625000 76.671875 40.563801
37.025000 75.812500 40.560220
35.700000 89.109375 40.772924
35.850000 88.015625 40.768367
36.075000 86.625000 40.762573
36.300000 85.484375 40.757820
36.075000 84.062500 40.751895
35.875000 83.078125 40.747794
36.300000 82.093750 40.743692
36.850000 81.140625 40.739721
36.975000 79.734375 40.733861
36.675000 78.359375 40.728132
36.475000 77.609375 40.725007
36.600000 76.187500 40.719083
37.125000 75.359375 40.715632
36.275000 89.953125 40.931126
35.875000 88.984375 40.927089
35.875000 87.437500 40.920644
35.975000 86.500000 40.916738
35.600000 85.187500 40.911269
35.325000 84.218750 40.907233
36.950000 79.781250 40.888743
36.550000 78.437500 40.883144
36.475000 76.859375 40.876569
36.650000 76.062500 40.873248
37.250000 74.796875 40.867975
36.025000 88.656250 41.084807
35.750000 87.312500 41.079208
35.925000 86.390625 41.075367
35.500000 84.796875 41.068726
35.125000 84.265625 41.066513
35.600000 82.593750 41.059546
36.250000 79.640625 41.047242
36.475000 78.375000 41.041968
36.400000 76.968750 41.036109
36.625000 76.015625 41.032137
37.325000 75.000000 41.027906
35.625000 87.765625 41.237102
35.850000 86.328125 41.231112
34.900000 83.796875 41.220565
35.275000 82.609375 41.215617
36.050000 79.750000 41.203703
36.450000 78.484375 41.198430
36.375000 77.312500 41.193547
35.475000 88.156250 41.393611
35.475000 87.328125 41.390160
35.900000 86.343750 41.386059
34.950000 83.875000 41.375772
35.500000 82.437500 41.369783
36.000000 81.812500 41.367178
36.500000 80.328125 41.360994
36.600000 79.453125 41.357348
36.375000 77.828125 41.350577
36.350000 76.765625 41.346150
36.550000 75.687500 41.341658
35.300000 87.796875 41.548391
35.475000 86.640625 41.543573
35.125000 84.906250 41.536346
34.700000 84.203125 41.533417
34.950000 82.828125 41.527688
36.575000 78.281250 41.508742
36.325000 77.390625 41.505031
36.400000 76.078125 41.499563
36.800000 74.859375 41.494484
34.925000 89.625000 41.720767
34.925000 88.203125 41.714842
34.775000 84.562500 41.699673
34.600000 83.625000 41.695767
35.200000 82.375000 41.690558
36.075000 78.937500 41.676236
36.450000 78.031250 41.672460
36.275000 76.750000 41.667121
36.325000 75.625000 41.662434
35.250000 89.203125 41.866948
34.950000 87.906250 41.861544
35.000000 86.593750 41.856075
34.925000 85.734375 41.852494
34.675000 84.437500 41.847091
34.650000 83.343750 41.842534
35.025000 81.812500 41.836153
35.450000 80.984375 41.832703
36.100000 79.656250 41.827169
36.350000 78.906250 41.824044
36.275000 77.671875 41.818901
36.175000 76.578125 41.814343
36.300000 75.203125 41.808614
35.000000 88.953125 42.031297
34.850000 87.890625 42.026870
35.025000 87.078125 42.023484
35.225000 86.046875 42.019187
34.375000 83.640625 42.009161
34.825000 82.578125 42.004734
36.275000 77.984375 41.985594
36.075000 76.390625 41.978953
36.125000 75.406250 41.974851
34.900000 88.828125 42.176151
34.700000 88.093750 42.173091
34.475000 84.468750 42.157987
34.200000 83.140625 42.152453
34.450000 81.890625 42.147245
36.125000 77.750000 42.129992
35.925000 76.484375 42.124719
36.100000 75.203125 42.119380
34.600000 88.656250 42.343312
34.725000 88.015625 42.340643
34.400000 83.937500 42.323651
34.100000 82.843750 42.319093
34.350000 82.062500 42.315838
36.025000 77.343750 42.296177
35.825000 75.968750 42.290448
36.050000 75.171875 42.287127
34.550000 88.703125 42.490183
34.700000 87.640625 42.485756
34.375000 84.078125 42.470912
34.100000 82.593750 42.464727
34.275000 81.468750 42.460040
36.025000 77.140625 42.442006
35.800000 76.140625 42.437840
36.075000 75.031250 42.433217
34.825000 89.093750 42.657342
34.475000 87.781250 42.651873
34.650000 87.109375 42.649074
34.400000 85.765625 42.643475
34.100000 84.453125 42.638006
34.075000 83.062500 42.632212
34.175000 82.171875 42.628501
34.475000 80.812500 42.622837
35.050000 80.015625 42.619516
35.400000 78.718750 42.614113
35.425000 77.609375 42.609490
35.550000 76.328125 42.604152
35.800000 75.078125 42.598943
34.600000 86.453125 42.793056
34.325000 85.296875 42.788238
34.350000 84.468750 42.784788
34.425000 83.328125 42.780035
34.175000 82.078125 42.774827
34.500000 80.750000 42.769293
34.950000 79.953125 42.765973
35.175000 78.390625 42.759462
35.300000 77.703125 42.756598
35.475000 76.437500 42.751324
35.750000 74.968750 42.745204
34.225000 88.937500 42.968719
34.300000 87.515625 42.962794
34.475000 86.765625 42.959669
34.475000 85.625000 42.954917
34.600000 84.453125 42.950034
34.475000 82.937500 42.943719
34.275000 81.796875 42.938966
34.575000 80.921875 42.935320
34.800000 79.343750 42.928745
35.025000 78.359375 42.924643
35.225000 77.421875 42.920737
35.400000 76.312500 42.916115
35.725000 74.859375 42.910060
34.225000 89.703125 43.119194
34.100000 88.453125 43.113986
34.325000 87.359375 43.109428
34.400000 86.281250 43.104936
34.475000 85.171875 43.100314
34.450000 84.218750 43.096342
34.425000 82.843750 43.090613
34.525000 81.421875 43.084689
34.625000 80.187500 43.079545
34.725000 79.281250 43.075769
34.875000 78.156250 43.071082
35.100000 77.312500 43.067566
35.350000 76.109375 43.062553
35.725000 74.953125 43.057736
34.675000 89.359375 43.281150
34.250000 87.765625 43.274509
34.250000 86.984375 43.271254
34.325000 85.750000 43.266111
34.375000 84.687500 43.261684
34.400000 83.656250 43.257387
34.450000 82.265625 43.251593
34.525000 81.046875 43.246515
34.550000 80.031250 43.242283
34.675000 78.968750 43.237856
34.875000 77.671875 43.232452
35.100000 76.796875 43.228806
34.300000 89.078125 43.429664
34.200000 87.765625 43.424196
34.250000 86.765625 43.420029
34.325000 85.375000 43.414235
34.350000 84.062500 43.408766
34.375000 83.296875 43.405576
34.600000 82.046875 43.400367
34.625000 80.875000 43.395485
34.500000 79.421875 43.389430
34.675000 78.625000 43.386110
34.875000 77.187500 43.380120
35.125000 75.906250 43.374782
35.475000 74.765625 43.370029
34.275000 89.609375 43.594834
34.150000 88.171875 43.588844
34.275000 87.593750 43.586435
34.275000 86.421875 43.581553
34.300000 85.171875 43.576344
34.325000 83.843750 43.570810
34.375000 83.000000 43.567295
34.525000 81.843750 43.562477
34.550000 80.671875 43.557594
34.500000 79.046875 43.550823
34.675000 78.281250 43.547633
34.875000 76.828125 43.541579
35.125000 76.031250 43.538258
35.525000 74.906250 43.533571
34.150000 89.265625 43.742123
34.100000 87.765625 43.735873
34.250000 86.703125 43.731446
34.325000 85.421875 43.726107
34.350000 84.125000 43.720703
34.350000 83.031250 43.716146
34.600000 82.375000 43.713412
34.625000 81.031250 43.707813
34.475000 79.968750 43.703386
34.575000 78.453125 43.697071
34.750000 77.406250 43.692708
34.950000 76.015625 43.686914
35.250000 75.156250 43.683334
34.175000 89.093750 43.903629
34.100000 88.109375 43.899527
34.250000 86.843750 43.894254
34.300000 85.875000 43.890217
34.325000 84.562500 43.884748
34.375000 83.484375 43.880256
34.600000 82.062500 43.874332
34.525000 81.015625 43.869970
34.400000 79.640625 43.864241
34.575000 78.796875 43.860725
34.750000 77.484375 43.855256
34.975000 76.375000 43.850634
34.150000 88.156250 44.049399
34.300000 87.625000 44.047186
34.300000 86.468750 44.042368
34.375000 85.046875 44.036444
34.400000 84.078125 44.032407
34.375000 82.421875 44.025506
34.425000 81.515625 44.021730
34.475000 80.500000 44.017498
34.500000 79.250000 44.012290
34.650000 78.203125 44.007928
34.875000 76.609375 44.001287
35.075000 76.015625 43.998813
35.375000 74.500000 43.992498
34.225000 86.828125 44.206940
34.300000 85.218750 44.200234
34.325000 84.078125 44.195482
34.350000 83.390625 44.192617
34.675000 81.906250 44.186432
34.700000 80.796875 44.181810
34.475000 80.000000 44.178489
34.575000 78.468750 44.172109
34.750000 77.531250 44.168203
34.950000 76.093750 44.162213
34.675000 89.453125 44.374571
34.225000 87.890625 44.368061
34.275000 87.078125 44.364675
34.350000 85.593750 44.358490
34.350000 84.890625 44.355561
34.375000 83.718750 44.350678
34.600000 82.109375 44.343972
34.625000 81.328125 44.340717
34.525000 80.078125 44.335509
34.575000 78.859375 44.330430
34.725000 77.609375 44.325222
34.925000 76.484375 44.320534
35.150000 75.281250 44.315521
35.600000 74.406250 44.311876
34.325000 88.218750 44.526563
34.275000 87.250000 44.522527
34.325000 86.171875 44.518035
34.375000 85.031250 44.513282
34.425000 83.468750 44.506772
34.625000 82.812500 44.504037
34.550000 81.328125 44.497853
34.450000 80.421875 44.494076
34.600000 78.781250 44.487241
34.775000 78.125000 44.484506
34.950000 76.531250 44.477866
35.175000 75.828125 44.474936
35.575000 74.437500 44.469142
34.400000 88.531250 44.678128
34.300000 87.562500 44.674091
34.400000 86.171875 44.668297
34.375000 85.500000 44.665498
34.400000 83.843750 44.658597
34.500000 82.656250 44.653649
34.600000 82.062500 44.651175
34.600000 80.328125 44.643948
34.600000 79.453125 44.640302
34.725000 78.109375 44.634703
34.950000 76.890625 44.629625
35.175000 76.125000 44.626435
35.425000 75.171875 44.622464
34.275000 88.906250 44.841570
34.275000 87.625000 44.836231
34.375000 86.312500 44.830763
34.425000 85.156250 44.825945
34.450000 84.265625 44.822234
34.525000 82.953125 44.816765
34.600000 81.828125 44.812078
34.550000 80.734375 44.807520
34.575000 79.671875 44.803093
34.725000 78.046875 44.796323
34.950000 76.828125 44.791245
35.225000 75.968750 44.787664
35.475000 74.781250 44.782716
34.525000 89.062500 44.993842
34.300000 88.031250 44.989546
34.350000 86.734375 44.984142
34.425000 86.031250 44.981212
34.525000 84.671875 44.975548
34.575000 83.234375 44.969558
34.725000 82.187500 44.965197
34.675000 81.312500 44.961551
34.525000 79.968750 44.955952
34.700000 78.968750 44.951785
34.900000 77.390625 44.945210
35.150000 76.875000 44.943061
35.425000 75.359375 44.936746
35.900000 74.062500 44.931342
34.575000 88.812500 45.151482
34.375000 87.640625 45.146599
34.450000 87.031250 45.144060
34.525000 85.953125 45.139568
34.575000 84.500000 45.133513
34.600000 83.453125 45.129151
34.775000 82.031250 45.123227
34.725000 81.234375 45.119906
34.600000 79.500000 45.112680
34.800000 78.531250 45.108643
35.025000 77.625000 45.104867
35.250000 76.421875 45.099854
35.500000 75.328125 45.095297
34.550000 88.828125 45.305709
34.375000 88.000000 45.302259
34.450000 86.562500 45.296269
34.550000 85.421875 45.291517
34.600000 84.671875 45.288392
34.625000 83.046875 45.281621
34.800000 81.859375 45.276673
34.750000 80.734375 45.271985
34.650000 79.484375 45.266777
34.875000 78.593750 45.263066
35.175000 77.453125 45.258313
35.400000 76.406250 45.253952
35.650000 75.218750 45.249004
34.475000 89.734375 45.466400
34.425000 88.703125 45.462103
34.350000 87.296875 45.456244
34.550000 86.453125 45.452728
34.625000 85.468750 45.448627
34.675000 84.000000 45.442507
34.725000 82.984375 45.438275
34.775000 81.765625 45.433197
34.700000 80.734375 45.428900
34.750000 79.531250 45.423887
35.100000 78.343750 45.418939
35.350000 77.593750 45.415814
35.500000 76.375000 45.410736
35.775000 74.859375 45.404421
34.550000 88.609375 45.615610
34.525000 87.593750 45.611378
34.625000 86.312500 45.606039
34.725000 85.500000 45.602654
34.750000 83.703125 45.595167
34.750000 82.593750 45.590544
34.775000 81.500000 45.585987
34.975000 80.312500 45.581039
35.125000 79.328125 45.576938
35.225000 78.375000 45.572966
35.450000 76.984375 45.567172
35.625000 76.062500 45.563331
36.000000 75.062500 45.559164
34.750000 89.703125 45.778144
34.500000 88.453125 45.772936
34.700000 86.953125 45.766686
34.775000 86.140625 45.763301
34.700000 84.468750 45.756334
34.750000 83.437500 45.752038
34.825000 82.625000 45.748652
34.825000 81.031250 45.742012
35.175000 79.984375 45.737649
35.400000 79.109375 45.734004
35.425000 77.984375 45.729316
35.575000 76.500000 45.723131
34.975000 89.125000 45.933070
34.675000 88.125000 45.928903
34.750000 86.890625 45.923760
34.875000 85.781250 45.919138
34.825000 84.921875 45.915557
34.575000 83.750000 45.910674
34.575000 82.578125 45.905791
34.800000 81.234375 45.900192
35.275000 80.328125 45.896416
35.500000 78.859375 45.890296
35.500000 78.078125 45.887041
35.750000 76.546875 45.880661
35.975000 75.468750 45.876169
34.850000 89.093750 46.088374
34.800000 87.453125 46.081538
34.900000 86.718750 46.078479
34.750000 83.015625 46.063049
34.650000 81.703125 46.057580
35.200000 78.703125 46.045080
35.675000 77.203125 46.038830
35.875000 76.062500 46.034078
36.225000 75.015625 46.029716
35.000000 88.859375 46.242721
34.825000 87.593750 46.237448
35.000000 86.609375 46.233346
34.800000 83.281250 46.219479
34.625000 82.296875 46.215377
35.225000 78.921875 46.201315
35.850000 77.750000 46.196432
35.975000 76.312500 46.190442
36.225000 75.140625 46.185560
35.075000 89.328125 46.400136
34.950000 88.078125 46.394928
35.025000 87.281250 46.391607
35.150000 85.781250 46.385357
35.625000 85.000000 46.382102
34.600000 82.546875 46.371881
34.825000 81.140625 46.366021
35.475000 77.578125 46.351177
36.100000 76.828125 46.348053
36.350000 75.578125 46.342844
35.100000 88.718750 46.566431
35.125000 87.328125 46.560637
35.225000 86.078125 46.555428
35.275000 85.359375 46.552433
34.975000 83.843750 46.546118
34.800000 83.093750 46.542994
35.025000 81.546875 46.536548
36.500000 77.390625 46.519230
36.400000 75.703125 46.512199
36.900000 75.015625 46.509335
35.225000 89.437500 46.726137
35.200000 88.437500 46.721971
35.275000 87.093750 46.716372
35.075000 83.515625 46.701463
34.900000 82.140625 46.695734
36.600000 77.703125 46.677244
36.425000 76.687500 46.673012
36.650000 75.593750 46.668455
35.300000 88.281250 46.876026
35.325000 87.500000 46.872771
35.400000 86.046875 46.866716
35.850000 85.109375 46.862810
34.950000 82.796875 46.853174
35.275000 81.578125 46.848096
35.900000 80.718750 46.844516
36.650000 79.250000 46.838396
36.875000 78.062500 46.833448
36.600000 76.984375 46.828956
36.575000 75.640625 46.823357
35.200000 88.968750 47.032619
35.350000 87.843750 47.027931
35.500000 86.796875 47.023569
35.500000 85.625000 47.018687
35.225000 83.875000 47.011395
35.200000 82.859375 47.007163
35.850000 81.953125 47.003387
36.475000 78.468750 46.988869
36.625000 77.015625 46.982814
36.625000 76.093750 46.978973
36.950000 75.125000 46.974937
35.300000 88.687500 47.178879
35.375000 87.453125 47.173736
35.500000 86.531250 47.169895
35.650000 85.234375 47.164492
35.425000 83.937500 47.159088
35.325000 82.859375 47.154596
35.900000 81.984375 47.150950
36.375000 80.640625 47.145351
36.825000 79.375000 47.140078
36.925000 78.531250 47.136562
36.725000 77.187500 47.130963
36.700000 76.234375 47.126992
37.075000 75.187500 47.122630
35.525000 89.671875 47.346819
35.525000 88.125000 47.340373
35.550000 87.437500 47.337509
35.400000 83.828125 47.322470
36.900000 79.187500 47.303134
36.900000 78.093750 47.298576
36.800000 77.093750 47.294410
36.875000 75.843750 47.289201
35.625000 89.328125 47.502496
35.550000 88.015625 47.497027
35.650000 87.156250 47.493446
35.575000 85.906250 47.488238
35.375000 84.609375 47.482834
35.350000 83.562500 47.478472
35.575000 82.562500 47.474305
36.025000 81.140625 47.468381
36.700000 80.265625 47.464735
37.000000 78.968750 47.459332
36.875000 78.015625 47.455360
36.925000 76.578125 47.449371
37.050000 75.468750 47.444748
35.400000 89.031250 47.655690
35.650000 87.421875 47.648984
35.750000 86.421875 47.644818
35.925000 85.296875 47.640130
35.575000 83.828125 47.634010
35.475000 83.093750 47.630950
36.050000 82.062500 47.626653
36.600000 81.062500 47.622487
37.075000 79.562500 47.616237
36.950000 78.484375 47.611745
36.775000 77.062500 47.605820
37.025000 75.968750 47.601263
37.425000 75.093750 47.597617
35.750000 89.421875 47.813659
35.750000 88.468750 47.809688
35.800000 87.296875 47.804805
35.650000 86.125000 47.799922
35.500000 84.453125 47.792956
35.475000 83.437500 47.788724
35.725000 82.484375 47.784753
36.275000 81.546875 47.780847
36.800000 80.406250 47.776094
37.000000 78.937500 47.769974
36.900000 77.687500 47.764766
36.925000 76.453125 47.759623
37.175000 75.734375 47.756628
35.900000 89.171875 47.969254
35.650000 88.312500 47.965674
35.900000 86.984375 47.960140
35.750000 85.421875 47.953629
35.525000 84.734375 47.950765
35.550000 83.312500 47.944840
35.875000 82.312500 47.940674
36.450000 81.406250 47.936898
36.900000 79.953125 47.930843
36.975000 78.718750 47.925700
36.900000 77.890625 47.922249
36.975000 76.265625 47.915478
37.225000 75.484375 47.912223
36.000000 88.859375 48.124839
35.925000 87.500000 48.119175
35.725000 84.000000 48.104591
35.675000 82.921875 48.100099
36.175000 81.656250 48.094826
36.775000 80.625000 48.090529
37.100000 79.750000 48.086883
36.925000 78.265625 48.080698
36.825000 77.265625 48.076532
37.100000 76.171875 48.071974
37.700000 74.656250 48.065659
36.200000 89.593750 48.282419
36.125000 88.312500 48.277081
35.975000 86.937500 48.271352
35.825000 85.843750 48.266794
35.600000 84.609375 48.261651
35.600000 83.734375 48.258005
37.000000 78.781250 48.237367
36.875000 78.093750 48.234503
36.925000 76.484375 48.227797
37.250000 75.468750 48.223565
35.925000 89.390625 48.432542
35.850000 87.859375 48.426162
35.975000 86.843750 48.421930
36.050000 85.968750 48.418284
35.825000 84.562500 48.412425
35.575000 83.593750 48.408388
36.950000 79.031250 48.389378
36.875000 77.671875 48.383714
36.975000 76.375000 48.378310
37.225000 75.531250 48.374794
36.425000 89.750000 48.593157
36.325000 88.437500 48.587688
36.075000 87.406250 48.583391
36.125000 86.328125 48.578899
36.175000 84.812500 48.572584
35.925000 83.640625 48.567701
35.900000 82.500000 48.562948
36.500000 81.750000 48.559824
36.975000 80.187500 48.553313
37.000000 79.156250 48.549016
36.850000 78.156250 48.544849
36.900000 76.718750 48.538860
37.250000 75.921875 48.535540
35.975000 88.421875 48.740445
36.075000 87.390625 48.736148
36.125000 86.546875 48.732632
36.275000 85.437500 48.728010
36.050000 83.843750 48.721369
37.050000 79.781250 48.704442
36.950000 78.593750 48.699494
36.825000 77.218750 48.693765
37.100000 76.125000 48.689208
37.700000 75.046875 48.684716
35.900000 88.625000 48.919519
36.075000 87.546875 48.915027
36.125000 86.265625 48.909688
36.275000 85.281250 48.905587
36.050000 83.843750 48.899597
37.150000 79.453125 48.881303
36.950000 78.593750 48.877722
36.825000 77.453125 48.872970
37.150000 76.156250 48.867566
37.750000 74.781250 48.861837
35.775000 89.171875 49.059166
36.050000 87.812500 49.053502
36.150000 86.484375 49.047968
36.200000 85.609375 49.044322
35.975000 84.046875 49.037812
37.300000 79.812500 49.020169
37.175000 78.437500 49.014440
36.850000 77.312500 49.009752
37.050000 76.312500 49.005586
37.475000 75.265625 49.001224
36.475000 88.109375 49.210171
36.100000 87.484375 49.207567
36.225000 85.906250 49.200992
36.275000 84.765625 49.196239
36.025000 83.484375 49.190901
35.975000 82.515625 49.186864
36.600000 81.734375 49.183609
37.175000 80.343750 49.177815
37.075000 79.359375 49.173713
36.825000 78.062500 49.168309
36.900000 77.062500 49.164143
37.250000 75.437500 49.157372
36.650000 89.234375 49.386680
36.600000 88.250000 49.382579
36.175000 87.093750 49.377761
36.250000 86.031250 49.373334
36.300000 84.875000 49.368516
36.125000 83.531250 49.362917
36.225000 82.609375 49.359076
36.800000 81.531250 49.354584
37.100000 80.359375 49.349701
36.925000 79.218750 49.344948
36.775000 77.875000 49.339349
36.925000 76.546875 49.333816
37.275000 75.578125 49.329779
36.675000 89.343750 49.527570
36.625000 88.125000 49.522491
36.200000 86.906250 49.517413
36.225000 85.765625 49.512661
36.425000 84.828125 49.508754
36.375000 83.281250 49.502309
36.325000 82.312500 49.498273
36.800000 81.234375 49.493781
37.100000 79.906250 49.488247
36.900000 78.687500 49.483169
36.775000 77.781250 49.479393
36.925000 76.578125 49.474380
37.275000 75.453125 49.469692
35.900000 88.718750 49.680242
36.100000 87.593750 49.675555
36.150000 86.250000 49.669956
36.275000 85.484375 49.666766
36.400000 84.187500 49.661362
36.375000 83.078125 49.656739
36.625000 81.953125 49.652052
37.000000 80.781250 49.647169
36.925000 79.328125 49.641114
36.725000 78.187500 49.636362
36.825000 77.453125 49.633302
37.175000 76.000000 49.627247
37.750000 75.046875 49.623276
36.575000 88.453125 49.854335
36.125000 87.453125 49.850168
36.225000 86.203125 49.844960
36.350000 84.937500 49.839687
36.325000 84.000000 49.835780
36.375000 82.500000 49.829530
36.775000 81.343750 49.824713
37.150000 80.265625 49.820220
36.975000 78.875000 49.814426
36.750000 78.046875 49.810976
36.900000 76.953125 49.806418
37.250000 75.875000 49.801926
36.400000 88.515625 50.002625
36.225000 87.421875 49.998067
36.250000 86.109375 49.992599
36.325000 85.093750 49.988367
36.350000 83.765625 49.982833
36.450000 83.062500 49.979903
36.775000 81.828125 49.974760
37.125000 80.640625 49.969812
36.950000 79.203125 49.963823
36.700000 77.968750 49.958679
37.000000 76.765625 49.953666
37.325000 76.062500 49.950737
35.900000 88.687500 50.159010
36.100000 87.640625 50.154648
36.175000 86.453125 50.149700
36.275000 85.296875 50.144882
36.300000 84.156250 50.140130
36.400000 83.281250 50.136484
36.725000 81.843750 50.130494
37.025000 80.875000 50.126458
36.925000 79.281250 50.119817
36.675000 78.390625 50.116106
36.625000 77.250000 50.111354
36.975000 76.078125 50.106471
37.650000 74.781250 50.101067
36.975000 89.843750 50.317814
36.475000 88.250000 50.311173
36.150000 87.421875 50.307723
36.250000 85.968750 50.301668
36.325000 85.156250 50.298283
36.325000 83.968750 50.293335
36.425000 82.468750 50.287085
36.775000 81.656250 50.283699
37.150000 80.390625 50.278426
36.925000 78.937500 50.272371
36.675000 78.093750 50.268856
36.975000 77.046875 50.264494
37.300000 76.000000 50.260132
36.125000 89.234375 50.469670
36.000000 87.781250 50.463615
36.200000 87.140625 50.460946
36.325000 85.625000 50.454631
36.325000 84.296875 50.449097
36.350000 83.328125 50.445061
36.600000 82.343750 50.440959
36.975000 81.140625 50.435946
37.125000 80.093750 50.431584
36.800000 78.609375 50.425399
36.625000 77.328125 50.420061
36.900000 76.187500 50.415308
37.300000 75.015625 50.410425
36.175000 87.343750 50.617011
36.225000 85.671875 50.610045
36.300000 84.984375 50.607180
36.325000 83.343750 50.600344
36.500000 82.703125 50.597675
36.875000 81.078125 50.590904
37.075000 79.984375 50.586347
36.875000 79.015625 50.582310
36.775000 77.984375 50.578013
36.925000 76.625000 50.572349
37.225000 75.406250 50.567271
36.825000 89.609375 50.781456
36.600000 88.578125 50.777159
36.125000 87.140625 50.771169
36.225000 86.406250 50.768109
36.300000 84.937500 50.761989
36.275000 83.859375 50.757497
36.400000 82.765625 50.752940
36.800000 81.750000 50.748708
37.150000 80.390625 50.743044
36.900000 79.281250 50.738422
36.575000 78.015625 50.733148
36.725000 76.593750 50.727224
37.150000 75.640625 50.723253
36.150000 87.171875 50.926202
36.250000 86.140625 50.921905
36.300000 84.671875 50.915785
36.275000 83.796875 50.912139
36.475000 82.531250 50.906866
36.825000 81.234375 50.901462
37.050000 80.484375 50.898337
36.825000 78.968750 50.892022
36.575000 78.000000 50.887986
36.725000 76.562500 50.881996
37.150000 75.625000 50.878090
36.125000 86.984375 51.081878
36.225000 85.796875 51.076930
36.275000 84.812500 51.072829
36.275000 83.843750 51.068792
36.450000 82.640625 51.063779
36.800000 81.531250 51.059157
37.050000 80.375000 51.054339
36.825000 78.984375 51.048545
36.575000 78.109375 51.044899
36.700000 76.937500 51.040016
37.050000 75.406250 51.033636
36.075000 86.875000 51.232741
36.225000 86.046875 51.229290
36.150000 84.453125 51.222650
36.125000 83.453125 51.218483
36.450000 82.390625 51.214056
36.825000 81.093750 51.208652
37.025000 79.781250 51.203183
36.775000 78.515625 51.197910
36.475000 77.687500 51.194459
36.600000 76.687500 51.190293
37.100000 75.359375 51.184759
36.000000 86.953125 51.394676
36.250000 85.656250 51.389272
35.875000 84.812500 51.385757
35.650000 83.375000 51.379767
35.975000 82.625000 51.376642
36.475000 81.359375 51.371369
36.975000 79.859375 51.365119
36.750000 78.656250 51.360106
36.450000 77.515625 51.355353
36.525000 76.734375 51.352098
37.000000 75.656250 51.347606
36.625000 89.515625 51.562434
36.300000 88.406250 51.557812
35.875000 87.703125 51.554882
36.100000 86.437500 51.549609
35.300000 83.968750 51.539322
35.725000 82.812500 51.534505
36.300000 81.750000 51.530078
37.225000 80.703125 51.525716
36.450000 78.015625 51.514518
36.375000 76.718750 51.509114
35.800000 88.812500 51.713009
35.625000 87.593750 51.707931
35.850000 86.453125 51.703178
34.925000 84.484375 51.694975
35.125000 82.937500 51.688530
36.650000 78.609375 51.670496
36.400000 77.296875 51.665027
36.525000 76.000000 51.659623
37.025000 74.906250 51.655066
35.825000 89.796875 51.872693
35.750000 88.484375 51.867224
35.575000 86.984375 51.860974
35.275000 86.265625 51.857980
34.825000 84.593750 51.851013
35.075000 83.656250 51.847107
36.700000 79.140625 51.828292
36.425000 77.812500 51.822758
36.400000 76.953125 51.819177
36.675000 75.828125 51.814490
35.400000 87.718750 52.035844
35.800000 86.203125 52.029529
34.800000 83.703125 52.019112
35.125000 83.093750 52.016573
35.500000 81.953125 52.011821
36.175000 79.734375 52.002576
36.475000 78.281250 51.996521
36.325000 76.984375 51.991117
36.475000 76.187500 51.987797
36.975000 75.000000 51.982849
35.075000 89.531250 52.181428
35.025000 88.546875 52.177327
34.925000 84.859375 52.161962
34.825000 83.750000 52.157340
36.625000 79.015625 52.137613
36.400000 77.906250 52.132991
36.300000 76.437500 52.126871
36.375000 75.593750 52.123356
35.000000 88.093750 52.332819
34.950000 86.593750 52.326569
34.725000 85.812500 52.323314
34.550000 84.531250 52.317975
34.750000 83.468750 52.313548
36.400000 78.500000 52.292845
36.275000 77.375000 52.288157
36.225000 76.265625 52.283535
36.325000 74.906250 52.277871
35.025000 89.359375 52.507729
34.900000 88.250000 52.503107
35.050000 87.140625 52.498485
35.325000 85.656250 52.492300
34.400000 83.203125 52.482078
34.825000 82.671875 52.479865
36.300000 77.750000 52.459357
36.100000 76.625000 52.454669
36.150000 75.468750 52.449852
34.850000 87.953125 52.658774
34.550000 83.859375 52.641716
34.400000 83.062500 52.638396
34.750000 81.921875 52.633644
36.175000 77.562500 52.615479
36.000000 75.984375 52.608904
36.200000 75.109375 52.605258
34.900000 89.781250 52.822286
34.875000 88.296875 52.816101
34.850000 87.328125 52.812064
34.425000 86.375000 52.808093
34.050000 85.000000 52.802364
34.125000 84.015625 52.798262
34.250000 82.609375 52.792403
34.550000 81.531250 52.787911
35.975000 76.718750 52.767859
35.900000 75.703125 52.763627
36.375000 74.812500 52.759916
34.625000 87.812500 52.969809
34.725000 86.937500 52.966163
35.100000 85.406250 52.959783
34.025000 82.765625 52.948780
34.200000 82.234375 52.946567
36.000000 77.156250 52.925408
35.750000 76.171875 52.921306
36.000000 74.890625 52.915968
34.825000 88.921875 53.131976
34.475000 87.734375 53.127028
34.675000 86.656250 53.122536
34.575000 85.843750 53.119150
34.250000 84.453125 53.113356
34.075000 83.203125 53.108148
34.175000 81.890625 53.102679
35.900000 77.781250 53.085557
35.625000 76.656250 53.080869
35.825000 75.234375 53.074944
34.625000 88.906250 53.286008
34.425000 87.968750 53.282102
34.575000 86.828125 53.277349
34.300000 85.546875 53.272011
34.150000 84.578125 53.267975
34.200000 83.140625 53.261985
34.175000 81.906250 53.256842
34.475000 81.000000 53.253066
35.000000 80.046875 53.249094
35.275000 78.578125 53.242975
35.325000 77.718750 53.239394
35.550000 76.281250 53.233404
35.850000 75.062500 53.228326
34.325000 89.640625 53.446019
34.225000 88.531250 53.441396
34.450000 87.546875 53.437295
34.525000 86.125000 53.431370
34.475000 85.000000 53.426683
34.250000 83.734375 53.421409
34.200000 82.687500 53.417048
34.350000 81.609375 53.412555
34.700000 80.437500 53.407672
35.000000 79.359375 53.403180
35.125000 78.031250 53.397646
35.300000 77.171875 53.394066
35.550000 75.765625 53.388206
35.975000 74.859375 53.384430
34.600000 89.359375 53.608269
34.350000 88.406250 53.604298
34.375000 87.078125 53.598764
34.450000 86.359375 53.595769
34.425000 84.859375 53.589519
34.450000 83.765625 53.584962
34.450000 82.265625 53.578712
34.450000 81.531250 53.575652
34.675000 80.390625 53.570899
34.850000 79.109375 53.565561
35.075000 78.046875 53.561134
35.275000 76.656250 53.555340
35.500000 75.421875 53.550196
35.975000 74.703125 53.547202
34.800000 89.218750 53.757529
34.325000 88.328125 53.753818
34.325000 87.171875 53.749000
34.375000 86.015625 53.744182
34.425000 84.562500 53.738128
34.425000 83.765625 53.734807
34.450000 82.328125 53.728818
34.625000 81.250000 53.724326
34.650000 79.828125 53.718401
34.725000 79.093750 53.715341
34.975000 77.453125 53.708505
35.200000 76.484375 53.704469
34.325000 89.015625 53.911636
34.200000 87.718750 53.906232
34.275000 86.187500 53.899852
34.325000 85.250000 53.895946
34.350000 84.140625 53.891323
34.400000 82.875000 53.886050
34.625000 81.890625 53.881948
34.625000 80.968750 53.878107
34.550000 79.656250 53.872638
34.700000 78.265625 53.866844
34.900000 77.312500 53.862873
35.225000 76.312500 53.858706
35.575000 74.984375 53.853172
34.400000 89.515625 54.070464
34.225000 88.265625 54.065255
34.300000 87.250000 54.061023
34.350000 85.640625 54.054318
34.400000 84.812500 54.050867
34.400000 83.531250 54.045529
34.425000 82.093750 54.039539
34.425000 81.296875 54.036219
34.475000 80.078125 54.031141
34.625000 78.812500 54.025867
34.875000 78.000000 54.022482
35.050000 76.562500 54.016492
35.250000 75.406250 54.011675
35.875000 74.515625 54.007964
34.250000 89.671875 54.225129
34.150000 88.578125 54.220572
34.200000 87.531250 54.216209
34.225000 86.203125 54.210676
34.275000 85.312500 54.206965
34.350000 84.203125 54.202342
34.400000 82.812500 54.196548
34.600000 81.875000 54.192642
34.625000 80.718750 54.187824
34.475000 79.062500 54.180923
34.625000 78.296875 54.177733
34.875000 77.406250 54.174022
35.100000 76.203125 54.169009
35.400000 74.859375 54.163410
34.275000 89.687500 54.379899
34.300000 88.609375 54.375406
34.200000 87.484375 54.370719
34.275000 86.781250 54.367789
34.300000 85.375000 54.361930
34.325000 84.281250 54.357373
34.375000 83.296875 54.353271
34.600000 81.859375 54.347281
34.625000 80.937500 54.343440
34.525000 79.546875 54.337646
34.675000 78.187500 54.331982
34.825000 76.906250 54.326643
35.050000 76.078125 54.323193
35.375000 74.812500 54.317919
34.350000 87.187500 54.524427
34.300000 85.875000 54.518958
34.300000 85.109375 54.515768
34.425000 83.546875 54.509257
34.525000 82.734375 54.505872
34.450000 81.515625 54.500794
34.400000 80.218750 54.495390
34.500000 78.750000 54.489270
34.700000 77.640625 54.484648
34.825000 76.515625 54.479960
35.050000 75.859375 54.477226
35.500000 74.234375 54.470455
34.300000 86.640625 54.677584
34.325000 85.765625 54.673938
34.375000 84.390625 54.668209
34.400000 83.765625 54.665605
34.575000 82.078125 54.658574
34.550000 81.156250 54.654732
34.450000 80.296875 54.651152
34.600000 78.687500 54.644446
34.800000 77.515625 54.639563
34.950000 76.484375 54.635266
35.150000 75.703125 54.632011
35.600000 74.140625 54.625501
34.375000 88.531250 54.840021
34.200000 87.609375 54.836179
34.250000 86.468750 54.831427
34.275000 85.578125 54.827716
34.350000 84.093750 54.821531
34.400000 82.656250 54.815542
34.475000 81.531250 54.810854
34.500000 80.906250 54.808250
34.475000 79.468750 54.802260
34.625000 78.421875 54.797898
34.850000 77.171875 54.792690
35.075000 75.718750 54.786635
35.350000 75.093750 54.784031
34.725000 89.171875 54.997740
34.275000 88.062500 54.993118
34.300000 87.156250 54.989342
34.350000 85.984375 54.984459
34.375000 84.703125 54.979120
34.400000 83.265625 54.973131
34.575000 82.156250 54.968509
34.550000 80.890625 54.963235
34.450000 80.281250 54.960696
34.625000 78.750000 54.954316
34.775000 77.593750 54.949498
34.950000 76.750000 54.945982
35.200000 75.515625 54.940839
35.625000 74.609375 54.937063
34.375000 89.062500 55.153764
34.200000 87.828125 55.148621
34.275000 86.515625 55.143152
34.300000 85.343750 55.138269
34.350000 83.875000 55.132149
34.475000 83.015625 55.128569
34.675000 81.703125 55.123100
34.700000 80.750000 55.119129
34.600000 79.250000 55.112879
34.650000 78.625000 55.110274
34.825000 77.421875 55.105261
35.050000 76.062500 55.099597
35.350000 74.859375 55.094584
34.250000 88.718750 55.321749
34.350000 87.593750 55.317061
34.400000 86.375000 55.311983
34.400000 84.906250 55.305863
34.450000 83.640625 55.300590
34.625000 82.859375 55.297335
34.550000 81.687500 55.292452
34.500000 80.421875 55.287178
34.600000 79.421875 55.283012
34.700000 77.781250 55.276176
35.000000 76.625000 55.271358
35.275000 75.546875 55.266866
35.575000 74.312500 55.261723
34.475000 88.734375 55.464253
34.200000 87.421875 55.458784
34.400000 86.953125 55.456831
34.450000 85.328125 55.450060
34.500000 84.234375 55.445503
34.575000 83.406250 55.442052
34.800000 82.140625 55.436779
34.775000 80.828125 55.431310
34.575000 79.328125 55.425060
34.750000 78.343750 55.420958
35.025000 77.640625 55.418029
35.225000 75.953125 55.410997
35.400000 74.937500 55.406766
34.600000 89.765625 55.623882
34.500000 88.515625 55.618673
34.425000 87.421875 55.614116
34.475000 86.656250 55.610926
34.550000 84.953125 55.603829
34.600000 83.906250 55.599468
34.625000 82.968750 55.595561
34.825000 81.484375 55.589376
34.800000 80.640625 55.585861
34.675000 79.250000 55.580066
34.850000 78.156250 55.575509
35.100000 77.218750 55.571603
35.350000 75.765625 55.565548
35.650000 75.046875 55.562553
34.575000 89.640625 55.779985
34.400000 88.859375 55.776730
34.325000 87.437500 55.770805
34.450000 86.187500 55.765597
34.525000 85.453125 55.762537
34.600000 84.093750 55.756873
34.600000 82.968750 55.752186
34.850000 82.093750 55.748540
34.850000 80.812500 55.743201
34.675000 79.265625 55.736756
34.925000 78.453125 55.733371
35.175000 77.234375 55.728292
35.350000 76.093750 55.723540
35.650000 74.937500 55.718722
34.575000 89.468750 55.934424
34.400000 87.906250 55.927914
34.475000 87.156250 55.924789
34.575000 86.078125 55.920297
34.650000 84.687500 55.914502
34.700000 83.671875 55.910271
34.750000 82.750000 55.906430
34.975000 81.234375 55.900115
34.900000 79.859375 55.894385
34.775000 78.968750 55.890674
35.150000 77.640625 55.885140
35.400000 76.515625 55.880453
35.600000 75.734375 55.877198
36.175000 74.375000 55.871534
34.475000 88.906250 56.088542
34.450000 87.343750 56.082032
34.550000 86.656250 56.079167
34.650000 85.375000 56.073828
34.625000 83.875000 56.067579
34.725000 82.937500 56.063672
34.825000 81.656250 56.058334
34.800000 80.765625 56.054623
34.900000 79.390625 56.048894
35.150000 78.046875 56.043295
35.375000 77.078125 56.039258
35.550000 75.687500 56.033464
35.925000 75.062500 56.030860
34.325000 88.578125 56.242478
34.475000 87.500000 56.237986
34.675000 86.437500 56.233559
34.775000 85.265625 56.228676
34.800000 84.500000 56.225486
34.700000 83.250000 56.220278
34.700000 81.640625 56.213572
35.075000 80.593750 56.209210
35.275000 79.562500 56.204913
35.275000 78.421875 56.200161
35.425000 77.046875 56.194431
35.600000 76.093750 56.190460
35.975000 74.765625 56.184926
34.400000 89.000000 56.415863
34.525000 87.546875 56.409808
34.700000 86.359375 56.404860
34.775000 85.484375 56.401215
35.150000 84.109375 56.395485
35.050000 83.265625 56.391970
34.675000 81.796875 56.385850
34.925000 80.515625 56.380512
35.150000 79.500000 56.376280
35.300000 78.562500 56.372373
35.500000 77.406250 56.367556
35.675000 76.390625 56.363324
36.025000 75.265625 56.358636
34.775000 88.828125 56.569608
34.775000 87.343750 56.563423
34.900000 86.593750 56.560298
34.775000 82.828125 56.544608
34.700000 81.625000 56.539595
35.025000 80.265625 56.533931
35.375000 79.468750 56.530611
35.575000 78.187500 56.525272
35.700000 76.781250 56.519413
35.950000 75.828125 56.515442
36.475000 74.968750 56.511861
35.150000 89.281250 56.732320
34.875000 87.765625 56.726004
34.975000 87.156250 56.723465
34.775000 83.281250 56.707319
34.600000 82.203125 56.702827
34.900000 81.296875 56.699051
35.500000 79.890625 56.693192
35.800000 78.703125 56.688244
35.775000 77.406250 56.682840
35.900000 76.234375 56.677958
36.200000 75.078125 56.673140
34.900000 89.500000 56.884789
34.850000 88.218750 56.879451
35.050000 87.515625 56.876521
35.125000 86.312500 56.871508
35.200000 85.234375 56.867016
34.875000 84.000000 56.861872
34.625000 82.500000 56.855623
34.850000 81.234375 56.850349
35.450000 77.750000 56.835831
36.025000 76.625000 56.831143
35.100000 89.203125 57.037350
35.000000 88.203125 57.033183
35.125000 86.937500 57.027910
34.925000 83.671875 57.014303
34.725000 82.625000 57.009941
36.400000 77.656250 56.989238
36.100000 76.968750 56.986373
36.375000 75.437500 56.979993
34.975000 88.531250 57.189032
35.100000 87.968750 57.186688
35.275000 86.593750 57.180959
35.075000 85.140625 57.174905
34.800000 84.140625 57.170738
34.875000 83.078125 57.166311
35.050000 81.843750 57.161168
36.550000 77.437500 57.142808
36.375000 76.281250 57.137990
36.750000 74.828125 57.131936
35.400000 89.234375 57.346720
35.225000 87.890625 57.341121
35.325000 87.093750 57.337801
35.050000 85.687500 57.331942
35.000000 84.859375 57.328491
35.125000 83.234375 57.321720
35.125000 82.328125 57.317944
36.650000 77.625000 57.298348
36.500000 76.703125 57.294507
36.700000 75.546875 57.289689
35.125000 89.734375 57.504142
35.100000 88.593750 57.499389
35.375000 87.390625 57.494376
35.175000 83.781250 57.479337
36.775000 79.281250 57.460587
36.825000 77.921875 57.454923
36.625000 76.796875 57.450235
36.625000 75.625000 57.445353
35.125000 88.734375 57.656444
35.300000 87.515625 57.651365
35.500000 86.812500 57.648436
35.375000 85.140625 57.641469
35.100000 84.375000 57.638279
35.225000 82.937500 57.632290
35.700000 82.171875 57.629100
36.125000 80.906250 57.623826
36.625000 80.000000 57.620050
36.900000 78.812500 57.615102
36.725000 77.312500 57.608852
36.675000 76.421875 57.605141
36.950000 75.171875 57.599933
35.525000 89.312500 57.813384
35.500000 88.421875 57.809673
35.550000 87.218750 57.804660
35.425000 83.328125 57.788449
36.925000 78.953125 57.770220
36.800000 77.875000 57.765728
36.775000 76.968750 57.761951
36.900000 75.500000 57.755832
35.525000 89.000000 57.968289
35.400000 88.265625 57.965229
35.625000 87.046875 57.960151
35.425000 85.406250 57.953315
35.200000 84.640625 57.950125
35.325000 83.234375 57.944265
35.600000 82.484375 57.941140
36.025000 81.328125 57.936323
36.650000 80.125000 57.931310
36.975000 78.765625 57.925646
36.850000 77.781250 57.921544
36.900000 76.468750 57.916075
37.100000 75.546875 57.912234
35.600000 89.156250 58.123973
35.400000 87.703125 58.117919
35.625000 87.046875 58.115184
35.425000 85.671875 58.109455
35.200000 84.203125 58.103335
35.350000 83.312500 58.099624
35.750000 82.046875 58.094351
36.225000 80.968750 58.089859
36.750000 80.234375 58.086799
36.925000 78.609375 58.080028
36.800000 77.828125 58.076773
36.900000 76.671875 58.071955
37.100000 75.343750 58.066421
35.750000 88.812500 58.277962
35.725000 87.546875 58.272688
35.475000 83.734375 58.256803
37.050000 79.328125 58.238443
36.925000 78.500000 58.234993
36.825000 77.171875 58.229459
35.850000 89.281250 58.434963
35.625000 87.750000 58.428582
35.850000 86.765625 58.424481
35.725000 85.984375 58.421226
35.500000 84.703125 58.415887
35.475000 83.640625 58.411460
35.800000 82.109375 58.405080
36.400000 80.937500 58.400197
36.850000 80.203125 58.397137
36.925000 79.078125 58.392450
36.825000 77.781250 58.387046
36.925000 76.718750 58.382619
37.125000 75.328125 58.376825
35.975000 89.593750 58.593873
36.050000 88.578125 58.589642
35.875000 87.265625 58.584173
35.675000 83.562500 58.568743
37.050000 79.312500 58.551035
36.875000 78.328125 58.546933
36.875000 76.671875 58.540032
37.200000 75.515625 58.535214
35.825000 87.968750 58.742038
36.000000 86.484375 58.735854
36.300000 85.328125 58.731036
35.600000 82.906250 58.720945
36.100000 82.062500 58.717429
36.775000 80.687500 58.711700
37.250000 79.734375 58.707729
37.050000 78.703125 58.703432
36.825000 77.421875 58.698093
37.075000 76.453125 58.694057
37.475000 74.984375 58.687937
36.000000 88.781250 58.903504
35.900000 87.921875 58.899923
36.025000 86.500000 58.893998
36.200000 85.703125 58.890678
35.925000 84.218750 58.884493
35.600000 83.281250 58.880587
36.075000 82.125000 58.875769
36.750000 81.093750 58.871472
37.225000 79.625000 58.865353
37.075000 78.468750 58.860535
36.850000 77.281250 58.855587
37.050000 76.328125 58.851616
37.450000 75.343750 58.847514
36.250000 89.437500 59.061827
36.225000 88.546875 59.058116
36.000000 87.593750 59.054145
36.075000 86.046875 59.047699
36.350000 85.203125 59.044184
36.100000 83.703125 59.037934
35.775000 82.937500 59.034744
36.400000 81.687500 59.029536
36.950000 80.375000 59.024067
37.050000 79.421875 59.020095
36.875000 77.859375 59.013585
36.875000 76.796875 59.009158
37.175000 76.000000 59.005837
35.975000 88.953125 59.216220
35.900000 88.000000 59.212248
36.125000 86.984375 59.208016
36.350000 85.953125 59.203720
36.100000 84.468750 59.197535
35.700000 83.125000 59.191936
37.025000 78.968750 59.174618
36.825000 77.750000 59.169540
36.925000 76.609375 59.164787
37.300000 75.125000 59.158602
35.975000 89.421875 59.374121
35.900000 88.046875 59.368392
36.125000 87.031250 59.364160
36.250000 85.921875 59.359537
36.025000 84.734375 59.354589
35.750000 83.437500 59.349186
36.000000 81.937500 59.342936
36.650000 81.359375 59.340527
37.200000 80.203125 59.335709
37.075000 78.500000 59.328613
36.875000 77.656250 59.325097
36.975000 76.171875 59.318912
37.325000 75.265625 59.315136
36.125000 88.437500 59.538809
36.125000 87.718750 59.535814
36.175000 86.578125 59.531062
36.350000 85.046875 59.524682
36.125000 83.875000 59.519799
37.025000 79.500000 59.501570
36.875000 78.328125 59.496687
36.900000 76.859375 59.490567
37.150000 76.156250 59.487637
37.750000 75.125000 59.483341
36.625000 89.515625 59.699907
36.500000 88.265625 59.694698
36.150000 87.328125 59.690792
36.300000 86.109375 59.685714
36.175000 84.953125 59.680896
35.875000 83.812500 59.676144
37.050000 78.906250 59.655701
36.800000 77.953125 59.651730
36.925000 76.578125 59.646000
37.350000 75.640625 59.642094
35.725000 88.750000 59.855257
36.000000 88.000000 59.852131
36.175000 87.046875 59.848160
36.275000 85.750000 59.842757
