24.600000 82.312500 10.810989
24.850000 82.781250 10.810989
24.875000 81.500000 10.810989
24.275000 87.609375 10.963579
24.200000 84.578125 10.963579
24.425000 85.515625 10.963579
24.675000 84.296875 10.963579
24.675000 83.031250 10.963579
24.750000 80.203125 10.963579
24.850000 78.937500 10.963579
24.875000 79.031250 10.963579
24.025000 89.765625 11.121245
24.200000 88.609375 11.121245
24.200000 87.453125 11.121245
24.175000 84.375000 11.121245
24.400000 82.859375 11.121245
24.775000 81.140625 11.121245
24.900000 80.906250 11.121245
25.075000 78.125000 11.121245
19.125000 90.843750 11.288339
24.175000 88.156250 11.288339
24.200000 87.000000 11.288339
24.200000 85.921875 11.288339
24.200000 84.781250 11.288339
24.425000 81.531250 11.288339
24.025000 87.703125 11.447390
24.150000 86.546875 11.447390
24.150000 85.437500 11.447390
24.175000 84.515625 11.447390
24.200000 83.375000 11.447390
23.900000 85.921875 11.613441
23.900000 84.781250 11.613441
23.900000 83.640625 11.613441
23.900000 82.500000 11.613441
24.025000 83.046875 11.613441
24.150000 81.890625 11.613441
23.575000 88.500000 11.759291
23.625000 86.656250 11.759291
23.625000 85.500000 11.759291
23.625000 84.359375 11.759291
23.725000 84.015625 11.759291
23.850000 82.484375 11.759291
23.850000 80.921875 11.759291
23.875000 79.781250 11.759291
23.175000 87.531250 11.937443
23.200000 86.562500 11.937443
23.200000 84.078125 11.937443
23.200000 83.812500 11.937443
23.225000 83.437500 11.937443
23.250000 82.156250 11.937443
23.425000 80.546875 11.937443
23.600000 79.140625 11.937443
23.675000 77.218750 11.937443
22.625000 89.625000 12.086181
22.775000 87.296875 12.086181
22.925000 86.156250 12.086181
23.050000 84.437500 12.086181
23.200000 81.656250 12.086181
23.225000 80.515625 12.086181
23.225000 79.375000 12.086181
19.300000 90.890625 12.241952
23.175000 86.281250 12.241952
23.200000 85.125000 12.241952
23.200000 84.078125 12.241952
23.200000 82.937500 12.241952
23.200000 81.781250 12.241952
23.225000 82.437500 12.241952
23.600000 78.421875 12.241952
23.100000 89.843750 12.410409
23.250000 88.687500 12.410409
23.225000 85.828125 12.410409
23.300000 84.671875 12.410409
23.325000 85.031250 12.410409
23.375000 83.046875 12.410409
23.525000 82.578125 12.410409
23.725000 80.187500 12.410409
23.900000 79.031250 12.410409
23.875000 83.328125 12.566378
23.900000 82.187500 12.566378
23.875000 81.046875 12.566378
23.875000 79.890625 12.566378
23.725000 88.203125 12.721037
23.900000 86.390625 12.721037
23.900000 85.484375 12.721037
23.900000 84.328125 12.721037
23.900000 83.250000 12.721037
23.875000 82.093750 12.721037
24.000000 82.640625 12.721037
24.150000 81.500000 12.721037
19.050000 90.984375 12.895505
23.900000 86.359375 12.895505
23.900000 85.203125 12.895505
24.000000 85.578125 12.895505
24.125000 84.687500 12.895505
24.150000 83.531250 12.895505
24.175000 82.625000 12.895505
24.200000 81.468750 12.895505
23.775000 87.421875 13.051517
23.950000 86.671875 13.051517
24.150000 85.593750 13.051517
24.150000 84.437500 13.051517
24.175000 83.531250 13.051517
24.200000 82.375000 13.051517
24.200000 81.218750 13.051517
23.900000 86.265625 13.208255
24.000000 86.546875 13.208255
24.125000 85.750000 13.208255
24.150000 84.609375 13.208255
24.175000 83.703125 13.208255
24.200000 82.546875 13.208255
24.200000 81.406250 13.208255
19.050000 91.000000 13.369321
24.000000 87.828125 13.369321
24.125000 86.937500 13.369321
24.125000 85.843750 13.369321
24.125000 84.703125 13.369321
24.150000 83.562500 13.369321
24.175000 82.640625 13.369321
24.200000 81.500000 13.369321
24.000000 87.671875 13.534900
24.100000 86.515625 13.534900
24.125000 85.687500 13.534900
24.150000 84.546875 13.534900
24.150000 83.406250 13.534900
24.175000 82.250000 13.534900
24.175000 81.343750 13.534900
23.725000 87.796875 13.693022
23.900000 86.640625 13.693022
23.900000 85.500000 13.693022
23.900000 84.343750 13.693022
24.000000 84.687500 13.693022
24.125000 83.796875 13.693022
24.150000 82.656250 13.693022
24.150000 81.515625 13.693022
23.725000 87.515625 13.846081
23.725000 85.109375 13.846081
23.900000 84.031250 13.846081
23.900000 82.890625 13.846081
23.900000 81.750000 13.846081
23.900000 80.609375 13.846081
24.025000 81.140625 13.846081
23.250000 89.750000 14.018272
23.250000 88.531250 14.018272
23.225000 87.296875 14.018272
23.300000 84.671875 14.018272
23.400000 83.578125 14.018272
23.650000 80.125000 14.018272
23.900000 78.968750 14.018272
23.075000 88.359375 14.172586
23.225000 87.203125 14.172586
23.225000 86.046875 14.172586
23.225000 84.890625 14.172586
23.225000 83.843750 14.172586
23.225000 82.687500 14.172586
23.225000 83.328125 14.172586
18.875000 91.250000 14.328322
22.925000 88.156250 14.328322
22.950000 87.109375 14.328322
22.950000 85.828125 14.328322
23.050000 83.843750 14.328322
23.175000 83.843750 14.328322
23.200000 82.093750 14.328322
23.400000 79.312500 14.328322
19.025000 91.140625 14.484801
23.225000 86.515625 14.484801
23.225000 85.359375 14.484801
23.225000 84.203125 14.484801
23.225000 84.828125 14.484801
23.225000 83.390625 14.484801
23.250000 82.343750 14.484801
23.450000 79.687500 14.484801
23.725000 78.546875 14.484801
23.875000 77.390625 14.484801
23.600000 87.906250 14.654961
23.725000 86.500000 14.654961
23.850000 83.359375 14.654961
23.875000 82.218750 14.654961
23.900000 81.078125 14.654961
23.900000 79.921875 14.654961
23.875000 87.640625 14.811272
23.900000 86.484375 14.811272
23.900000 85.328125 14.811272
23.900000 84.171875 14.811272
24.025000 84.828125 14.811272
24.150000 83.671875 14.811272
24.150000 82.531250 14.811272
24.175000 81.625000 14.811272
24.025000 89.468750 14.968083
24.150000 88.312500 14.968083
24.150000 87.171875 14.968083
24.175000 86.265625 14.968083
24.175000 85.109375 14.968083
24.150000 83.968750 14.968083
24.150000 82.828125 14.968083
24.475000 79.031250 14.968083
19.025000 90.984375 15.124397
24.200000 88.296875 15.124397
24.200000 87.156250 15.124397
24.200000 86.015625 15.124397
24.200000 84.843750 15.124397
24.200000 81.796875 15.124397
24.025000 89.734375 15.280701
24.150000 88.578125 15.280701
24.150000 87.359375 15.280701
24.175000 84.359375 15.280701
24.200000 83.281250 15.280701
24.450000 84.000000 15.280701
24.800000 83.125000 15.280701
24.925000 81.843750 15.280701
24.925000 80.843750 15.280701
25.050000 79.562500 15.280701
24.425000 85.500000 15.447682
24.800000 84.687500 15.447682
24.875000 81.406250 15.447682
24.875000 82.187500 15.447682
24.925000 81.031250 15.447682
24.950000 79.328125 15.447682
18.900000 90.906250 15.620069
24.325000 88.546875 15.620069
24.475000 87.390625 15.620069
24.700000 84.984375 15.620069
24.925000 83.859375 15.620069
24.950000 82.640625 15.620069
24.975000 81.468750 15.620069
24.100000 87.921875 15.772641
24.350000 87.875000 15.772641
24.700000 85.453125 15.772641
24.925000 84.296875 15.772641
24.950000 83.312500 15.772641
24.975000 82.015625 15.772641
24.975000 80.750000 15.772641
25.100000 78.140625 15.772641
24.900000 86.750000 15.933067
24.925000 85.593750 15.933067
24.925000 84.484375 15.933067
24.950000 83.375000 15.933067
24.975000 82.031250 15.933067
24.975000 80.921875 15.933067
25.125000 79.921875 15.933067
24.675000 87.625000 16.095454
24.750000 84.468750 16.095454
24.850000 85.812500 16.095454
24.900000 84.500000 16.095454
24.925000 83.406250 16.095454
24.925000 82.234375 16.095454
24.950000 80.921875 16.095454
25.000000 78.921875 16.095454
24.050000 87.921875 16.246992
24.175000 86.765625 16.246992
24.200000 85.609375 16.246992
24.425000 83.796875 16.246992
24.800000 83.031250 16.246992
24.925000 81.765625 16.246992
24.925000 80.750000 16.246992
25.050000 78.812500 16.246992
18.975000 90.906250 16.401928
24.075000 89.359375 16.401928
24.200000 88.171875 16.401928
24.200000 85.140625 16.401928
24.450000 83.671875 16.401928
24.675000 82.406250 16.401928
24.800000 81.671875 16.401928
24.200000 87.656250 16.571966
24.200000 86.515625 16.571966
24.200000 85.437500 16.571966
24.200000 82.359375 16.571966
24.225000 83.140625 16.571966
24.450000 82.078125 16.571966
24.675000 80.781250 16.571966
24.775000 79.937500 16.571966
23.975000 89.109375 16.728648
24.125000 88.203125 16.728648
24.150000 87.062500 16.728648
24.150000 85.906250 16.728648
24.150000 84.859375 16.728648
24.175000 83.953125 16.728648
24.175000 80.875000 16.728648
24.450000 78.500000 16.728648
18.975000 91.015625 16.883008
23.900000 86.546875 16.883008
23.900000 85.015625 16.883008
23.900000 84.218750 16.883008
23.900000 83.078125 16.883008
23.900000 83.796875 16.883008
23.925000 82.109375 16.883008
23.950000 79.640625 16.883008
24.075000 80.156250 16.883008
24.375000 78.562500 16.883008
18.975000 91.015625 17.055710
23.900000 86.421875 17.055710
23.900000 85.265625 17.055710
23.900000 84.187500 17.055710
23.900000 83.031250 17.055710
23.900000 83.328125 17.055710
23.925000 81.171875 17.055710
24.050000 81.390625 17.055710
24.375000 79.812500 17.055710
24.625000 78.187500 17.055710
24.025000 89.515625 17.210935
24.175000 88.359375 17.210935
24.175000 87.437500 17.210935
24.175000 86.296875 17.210935
24.200000 85.203125 17.210935
24.425000 80.562500 17.210935
24.650000 80.812500 17.210935
24.700000 79.343750 17.210935
24.400000 88.140625 17.366765
24.425000 85.296875 17.366765
24.650000 84.218750 17.366765
24.650000 84.906250 17.366765
24.650000 82.437500 17.366765
24.650000 82.140625 17.366765
24.800000 81.578125 17.366765
24.775000 87.906250 17.523016
24.775000 86.250000 17.523016
24.775000 85.656250 17.523016
24.900000 84.281250 17.523016
24.950000 83.296875 17.523016
24.975000 82.015625 17.523016
24.975000 80.875000 17.523016
25.100000 78.453125 17.523016
24.950000 88.171875 17.691624
24.975000 86.937500 17.691624
24.950000 85.953125 17.691624
24.900000 84.656250 17.691624
24.925000 83.609375 17.691624
24.975000 82.265625 17.691624
24.975000 87.671875 17.849868
24.975000 86.578125 17.849868
24.975000 85.500000 17.849868
24.975000 84.218750 17.849868
24.975000 83.015625 17.849868
25.100000 81.656250 17.849868
25.225000 80.500000 17.849868
25.375000 78.890625 17.849868
24.975000 87.531250 18.003123
24.975000 86.390625 18.003123
25.075000 85.156250 18.003123
25.175000 84.046875 18.003123
25.175000 82.859375 18.003123
25.200000 81.546875 18.003123
25.375000 80.187500 18.003123
25.575000 79.968750 18.003123
25.175000 87.109375 18.159646
25.175000 85.953125 18.159646
25.175000 84.937500 18.159646
25.075000 83.000000 18.159646
25.125000 82.562500 18.159646
25.400000 80.984375 18.159646
25.525000 79.859375 18.159646
25.725000 79.281250 18.159646
25.225000 87.375000 18.330372
25.225000 86.218750 18.330372
25.100000 83.875000 18.330372
25.075000 83.968750 18.330372
25.225000 82.750000 18.330372
25.400000 81.046875 18.330372
25.525000 79.359375 18.330372
25.700000 79.984375 18.330372
25.200000 87.515625 18.487466
25.200000 86.281250 18.487466
25.225000 85.250000 18.487466
25.225000 84.046875 18.487466
25.375000 82.578125 18.487466
25.525000 81.296875 18.487466
25.525000 80.046875 18.487466
25.575000 78.656250 18.487466
19.025000 90.796875 18.642695
24.950000 89.234375 18.642695
25.075000 87.953125 18.642695
25.200000 86.718750 18.642695
25.225000 85.609375 18.642695
25.100000 83.765625 18.642695
25.125000 83.234375 18.642695
25.400000 81.906250 18.642695
25.525000 80.609375 18.642695
19.075000 90.468750 18.812600
25.050000 89.000000 18.812600
25.200000 87.765625 18.812600
25.200000 86.703125 18.812600
25.200000 86.187500 18.812600
25.225000 84.437500 18.812600
25.250000 83.203125 18.812600
25.275000 82.062500 18.812600
25.400000 80.609375 18.812600
19.125000 90.781250 18.968830
24.925000 89.203125 18.968830
24.975000 88.046875 18.968830
25.075000 86.765625 18.968830
25.075000 85.265625 18.968830
25.075000 84.562500 18.968830
25.225000 83.328125 18.968830
25.350000 82.390625 18.968830
25.475000 81.593750 18.968830
24.975000 87.484375 19.125596
25.075000 86.437500 19.125596
25.075000 85.265625 19.125596
24.975000 83.921875 19.125596
25.100000 82.828125 19.125596
25.325000 80.921875 19.125596
25.475000 79.640625 19.125596
25.550000 78.703125 19.125596
24.975000 87.515625 19.280339
24.975000 86.375000 19.280339
24.950000 85.140625 19.280339
24.950000 83.921875 19.280339
24.950000 82.750000 19.280339
24.975000 80.781250 19.280339
25.125000 79.046875 19.280339
25.350000 79.625000 19.280339
24.725000 89.781250 19.449612
24.900000 88.640625 19.449612
24.900000 87.421875 19.449612
24.925000 86.375000 19.449612
24.800000 83.062500 19.449612
24.775000 84.015625 19.449612
24.900000 82.687500 19.449612
24.950000 81.109375 19.449612
25.100000 80.046875 19.449612
25.400000 79.031250 19.449612
24.650000 86.531250 19.602365
24.650000 84.968750 19.602365
24.650000 84.125000 19.602365
24.650000 84.812500 19.602365
24.675000 83.015625 19.602365
24.675000 81.203125 19.602365
24.775000 79.265625 19.602365
24.150000 87.562500 19.761373
24.350000 86.937500 19.761373
24.575000 84.453125 19.761373
24.575000 84.468750 19.761373
24.600000 83.484375 19.761373
24.625000 81.125000 19.761373
24.625000 80.312500 19.761373
23.725000 88.031250 19.927394
23.875000 87.296875 19.927394
23.900000 85.984375 19.927394
23.900000 84.328125 19.927394
23.900000 85.187500 19.927394
23.925000 83.187500 19.927394
23.925000 82.796875 19.927394
23.975000 80.890625 19.927394
24.150000 78.859375 19.927394
24.350000 79.296875 19.927394
19.100000 90.859375 20.087775
23.900000 86.250000 20.087775
23.900000 85.093750 20.087775
23.900000 84.046875 20.087775
23.900000 82.906250 20.087775
23.900000 81.765625 20.087775
23.900000 82.546875 20.087775
23.925000 80.921875 20.087775
24.150000 87.531250 20.250923
24.150000 86.375000 20.250923
24.150000 85.343750 20.250923
24.150000 84.187500 20.250923
24.150000 83.046875 20.250923
24.175000 82.140625 20.250923
24.050000 89.640625 20.400293
24.200000 88.484375 20.400293
24.175000 87.093750 20.400293
24.175000 86.187500 20.400293
24.200000 85.156250 20.400293
24.200000 83.953125 20.400293
24.425000 78.640625 20.400293
24.675000 78.406250 20.400293
24.050000 89.640625 20.568679
24.200000 88.484375 20.568679
24.175000 87.328125 20.568679
24.175000 86.187500 20.568679
24.200000 85.078125 20.568679
24.425000 81.828125 20.568679
24.025000 89.687500 20.723938
24.175000 88.531250 20.723938
24.175000 87.375000 20.723938
24.400000 84.078125 20.723938
24.775000 81.703125 20.723938
24.875000 79.812500 20.723938
24.875000 80.796875 20.723938
25.050000 77.515625 20.723938
24.025000 89.921875 20.879170
24.300000 87.750000 20.879170
24.300000 87.609375 20.879170
24.300000 85.437500 20.879170
24.650000 83.265625 20.879170
24.900000 81.859375 20.879170
24.925000 80.921875 20.879170
25.075000 78.359375 20.879170
24.300000 86.250000 21.047123
24.625000 81.953125 21.047123
24.875000 82.875000 21.047123
24.875000 81.609375 21.047123
24.900000 80.593750 21.047123
25.150000 78.218750 21.047123
24.325000 86.765625 21.201790
24.450000 85.421875 21.201790
24.450000 84.546875 21.201790
24.675000 84.468750 21.201790
24.850000 81.140625 21.201790
24.875000 82.125000 21.201790
24.900000 80.765625 21.201790
25.075000 78.859375 21.201790
24.050000 89.328125 21.372044
24.200000 88.187500 21.372044
24.525000 83.906250 21.372044
24.850000 82.593750 21.372044
24.850000 80.781250 21.372044
24.875000 81.640625 21.372044
24.175000 88.000000 21.528463
24.400000 84.765625 21.528463
24.675000 83.312500 21.528463
24.750000 80.406250 21.528463
24.850000 81.453125 21.528463
24.150000 87.703125 21.679750
24.175000 86.546875 21.679750
24.425000 83.359375 21.679750
24.675000 82.156250 21.679750
24.675000 80.750000 21.679750
24.775000 79.656250 21.679750
18.900000 91.000000 21.839847
24.050000 89.234375 21.839847
24.175000 88.078125 21.839847
24.175000 87.171875 21.839847
24.200000 86.078125 21.839847
24.200000 84.937500 21.839847
24.425000 80.593750 21.839847
24.650000 80.500000 21.839847
24.850000 77.265625 21.839847
23.850000 87.609375 22.009037
23.900000 86.453125 22.009037
23.900000 85.312500 22.009037
23.900000 84.156250 22.009037
24.025000 84.796875 22.009037
24.150000 83.656250 22.009037
24.175000 82.750000 22.009037
24.450000 79.125000 22.009037
23.700000 88.390625 22.166838
23.850000 86.828125 22.166838
23.850000 85.671875 22.166838
23.875000 84.265625 22.166838
23.900000 83.390625 22.166838
23.900000 82.250000 22.166838
23.900000 81.093750 22.166838
23.900000 79.953125 22.166838
23.100000 89.859375 22.329471
23.425000 88.703125 22.329471
23.425000 87.390625 22.329471
23.250000 85.843750 22.329471
23.425000 83.843750 22.329471
23.625000 82.562500 22.329471
23.625000 81.421875 22.329471
23.625000 82.109375 22.329471
23.725000 81.046875 22.329471
18.900000 91.812500 22.492270
22.825000 89.703125 22.492270
22.950000 88.343750 22.492270
22.950000 87.218750 22.492270
22.950000 85.609375 22.492270
22.950000 84.234375 22.492270
22.950000 82.671875 22.492270
23.050000 81.515625 22.492270
23.175000 80.984375 22.492270
23.375000 80.046875 22.492270
23.575000 78.937500 22.492270
23.700000 77.046875 22.492270
23.000000 86.718750 22.647972
23.025000 87.031250 22.647972
23.200000 84.406250 22.647972
23.225000 83.328125 22.647972
23.225000 82.171875 22.647972
23.225000 81.015625 22.647972
23.225000 79.875000 22.647972
23.225000 80.187500 22.647972
23.425000 77.562500 22.647972
19.100000 91.015625 22.802115
23.225000 86.390625 22.802115
23.225000 85.234375 22.802115
23.225000 84.125000 22.802115
23.225000 82.984375 22.802115
23.300000 81.828125 22.802115
23.250000 89.343750 22.957762
23.250000 88.343750 22.957762
23.250000 87.453125 22.957762
23.325000 84.531250 22.957762
23.450000 84.031250 22.957762
23.675000 82.312500 22.957762
23.875000 81.156250 22.957762
23.900000 80.015625 22.957762
23.900000 78.875000 22.957762
24.025000 79.515625 22.957762
23.875000 86.687500 23.130079
23.900000 84.968750 23.130079
23.900000 83.828125 23.130079
23.900000 82.687500 23.130079
23.900000 81.531250 23.130079
24.025000 82.078125 23.130079
24.150000 80.921875 23.130079
23.900000 86.015625 23.284978
23.900000 84.859375 23.284978
23.900000 83.718750 23.284978
23.900000 82.578125 23.284978
24.025000 83.109375 23.284978
24.150000 81.968750 23.284978
24.150000 81.046875 23.284978
23.875000 86.078125 23.438865
23.900000 84.921875 23.438865
24.025000 85.500000 23.438865
24.150000 84.359375 23.438865
24.150000 83.203125 23.438865
24.150000 82.296875 23.438865
24.150000 81.140625 23.438865
23.825000 87.171875 23.610186
24.150000 86.031250 23.610186
24.175000 85.203125 23.610186
24.175000 83.812500 23.610186
24.175000 82.906250 23.610186
24.200000 81.765625 23.610186
23.900000 87.640625 23.757665
24.025000 88.187500 23.757665
24.150000 87.031250 23.757665
24.150000 85.875000 23.757665
24.150000 84.843750 23.757665
24.150000 83.937500 23.757665
24.175000 82.796875 23.757665
24.200000 81.640625 23.757665
23.700000 88.234375 23.933756
23.900000 87.078125 23.933756
24.025000 87.625000 23.933756
24.025000 84.781250 23.933756
24.000000 85.171875 23.933756
24.125000 84.265625 23.933756
24.150000 83.125000 23.933756
24.150000 82.218750 23.933756
19.225000 90.921875 24.082853
23.900000 86.296875 24.082853
23.900000 85.140625 24.082853
23.900000 84.093750 24.082853
24.025000 84.640625 24.082853
24.150000 83.500000 24.082853
24.150000 82.359375 24.082853
24.175000 81.437500 24.082853
23.750000 88.015625 24.247681
23.900000 86.859375 24.247681
23.900000 85.703125 24.247681
23.900000 84.546875 24.247681
23.900000 83.500000 24.247681
24.000000 83.890625 24.247681
24.100000 82.625000 24.247681
24.125000 81.734375 24.247681
19.225000 90.953125 24.405955
23.475000 86.890625 24.405955
23.675000 85.171875 24.405955
23.875000 83.796875 24.405955
23.900000 82.906250 24.405955
23.900000 81.750000 24.405955
23.900000 80.593750 24.405955
23.900000 79.453125 24.405955
23.100000 88.406250 24.558295
23.225000 89.015625 24.558295
23.250000 87.765625 24.558295
23.250000 86.531250 24.558295
23.250000 85.406250 24.558295
23.275000 84.234375 24.558295
23.400000 82.156250 24.558295
23.675000 80.437500 24.558295
23.875000 79.046875 24.558295
23.075000 89.750000 24.730495
23.200000 87.093750 24.730495
23.225000 85.953125 24.730495
23.225000 84.796875 24.730495
23.225000 83.703125 24.730495
23.225000 82.546875 24.730495
23.225000 81.406250 24.730495
23.225000 81.812500 24.730495
23.425000 79.109375 24.730495
22.925000 86.859375 24.883042
22.925000 87.406250 24.883042
23.050000 85.125000 24.883042
23.150000 84.078125 24.883042
23.150000 82.921875 24.883042
23.175000 81.218750 24.883042
23.225000 81.843750 24.883042
23.250000 80.171875 24.883042
23.200000 89.796875 25.040430
23.225000 86.859375 25.040430
23.225000 85.703125 25.040430
23.225000 86.062500 25.040430
23.250000 84.765625 25.040430
23.575000 80.937500 25.040430
23.900000 79.031250 25.040430
19.175000 91.000000 25.209414
23.875000 87.265625 25.209414
23.900000 85.656250 25.209414
23.900000 84.140625 25.209414
23.900000 83.000000 25.209414
23.900000 81.859375 25.209414
23.900000 80.703125 25.209414
23.900000 79.562500 25.209414
18.900000 91.093750 25.363298
23.900000 87.625000 25.363298
24.025000 87.921875 25.363298
24.025000 85.328125 25.363298
24.025000 85.937500 25.363298
24.150000 84.796875 25.363298
24.150000 83.656250 25.363298
24.175000 82.734375 25.363298
24.450000 79.515625 25.363298
24.175000 87.937500 25.521601
24.200000 86.796875 25.521601
24.200000 85.734375 25.521601
24.200000 84.593750 25.521601
24.200000 83.437500 25.521601
24.175000 87.750000 25.676955
24.175000 86.593750 25.676955
24.200000 85.484375 25.676955
24.525000 80.296875 25.676955
24.875000 81.140625 25.676955
24.900000 80.015625 25.676955
24.050000 89.687500 25.844433
24.175000 88.500000 25.844433
24.150000 85.437500 25.844433
24.500000 82.343750 25.844433
24.875000 82.984375 25.844433
24.925000 81.796875 25.844433
24.950000 80.843750 25.844433
25.100000 79.125000 25.844433
24.450000 87.093750 25.998941
24.475000 85.937500 25.998941
24.475000 84.843750 25.998941
24.650000 82.328125 25.998941
24.875000 83.562500 25.998941
24.950000 82.343750 25.998941
24.975000 81.062500 25.998941
24.975000 79.765625 25.998941
24.700000 85.437500 26.163729
24.925000 84.312500 26.163729
24.925000 83.078125 26.163729
24.950000 81.843750 26.163729
24.975000 80.625000 26.163729
25.100000 79.781250 26.163729
19.025000 90.875000 26.323795
24.350000 88.703125 26.323795
24.700000 86.187500 26.323795
24.900000 84.906250 26.323795
24.925000 83.765625 26.323795
24.925000 82.468750 26.323795
24.950000 81.328125 26.323795
24.900000 85.718750 26.488268
24.900000 84.343750 26.488268
24.925000 83.265625 26.488268
24.950000 82.234375 26.488268
24.950000 80.875000 26.488268
25.075000 78.593750 26.488268
24.450000 87.828125 26.649949
24.550000 87.781250 26.649949
24.575000 87.250000 26.649949
24.600000 85.656250 26.649949
24.700000 85.484375 26.649949
24.875000 84.250000 26.649949
24.875000 82.906250 26.649949
24.925000 81.859375 26.649949
24.950000 80.593750 26.649949
25.100000 78.484375 26.649949
19.125000 90.828125 26.807594
24.375000 89.140625 26.807594
24.200000 86.218750 26.807594
24.525000 82.828125 26.807594
24.875000 81.687500 26.807594
24.900000 82.687500 26.807594
24.925000 81.421875 26.807594
23.975000 89.906250 26.962681
24.200000 86.828125 26.962681
24.200000 87.531250 26.962681
24.200000 84.515625 26.962681
24.225000 85.515625 26.962681
24.450000 84.234375 26.962681
24.775000 81.765625 26.962681
24.875000 80.750000 26.962681
24.900000 81.062500 26.962681
24.950000 79.671875 26.962681
18.900000 91.031250 27.118609
24.050000 89.515625 27.118609
24.200000 88.343750 27.118609
24.200000 87.203125 27.118609
24.175000 86.125000 27.118609
24.175000 83.062500 27.118609
24.425000 79.609375 27.118609
24.650000 80.343750 27.118609
24.875000 79.312500 27.118609
24.000000 87.421875 27.285527
24.125000 86.515625 27.285527
24.150000 85.468750 27.285527
24.150000 84.312500 27.285527
24.150000 83.140625 27.285527
23.475000 88.359375 27.441075
23.650000 87.218750 27.441075
23.750000 87.015625 27.441075
23.875000 85.156250 27.441075
23.875000 83.828125 27.441075
23.875000 82.671875 27.441075
23.900000 83.125000 27.441075
23.875000 80.375000 27.441075
23.900000 79.218750 27.441075
23.750000 88.171875 27.594558
23.900000 87.015625 27.594558
23.900000 85.859375 27.594558
24.025000 86.406250 27.594558
24.150000 85.312500 27.594558
24.150000 84.156250 27.594558
24.150000 83.015625 27.594558
24.025000 89.468750 27.764672
24.175000 88.671875 27.764672
24.200000 85.578125 27.764672
24.200000 86.359375 27.764672
24.200000 83.359375 27.764672
24.225000 82.218750 27.764672
24.425000 81.812500 27.764672
24.650000 79.921875 27.764672
24.650000 80.546875 27.764672
24.775000 79.375000 27.764672
24.450000 88.546875 27.916972
24.650000 86.453125 27.916972
24.650000 87.671875 27.916972
24.675000 86.218750 27.916972
24.650000 83.250000 27.916972
24.750000 83.093750 27.916972
24.750000 82.656250 27.916972
24.775000 81.750000 27.916972
24.925000 80.546875 27.916972
25.100000 79.484375 27.916972
19.125000 90.859375 28.078125
24.625000 89.250000 28.078125
24.800000 88.375000 28.078125
24.925000 87.203125 28.078125
24.800000 85.718750 28.078125
24.750000 84.890625 28.078125
24.875000 83.609375 28.078125
24.925000 82.562500 28.078125
24.950000 81.265625 28.078125
24.950000 87.593750 28.242491
24.975000 86.531250 28.242491
24.950000 85.406250 28.242491
24.950000 84.296875 28.242491
24.925000 83.109375 28.242491
24.925000 81.578125 28.242491
24.975000 87.640625 28.393394
24.950000 86.484375 28.393394
24.950000 85.609375 28.393394
24.975000 83.687500 28.393394
25.075000 83.187500 28.393394
25.200000 81.781250 28.393394
25.225000 80.625000 28.393394
25.375000 78.859375 28.393394
25.175000 87.562500 28.566298
25.075000 86.343750 28.566298
24.975000 85.328125 28.566298
24.975000 83.656250 28.566298
25.100000 83.062500 28.566298
25.225000 81.703125 28.566298
25.375000 80.593750 28.566298
25.525000 79.062500 28.566298
25.200000 87.406250 28.718692
25.175000 86.343750 28.718692
25.200000 85.234375 28.718692
25.225000 84.078125 28.718692
25.250000 82.937500 28.718692
25.400000 81.734375 28.718692
25.525000 79.890625 28.718692
25.525000 79.078125 28.718692
25.200000 87.406250 28.888176
25.175000 86.250000 28.888176
25.100000 83.828125 28.888176
25.100000 84.171875 28.888176
25.225000 82.859375 28.888176
25.400000 81.265625 28.888176
25.525000 79.984375 28.888176
25.525000 79.015625 28.888176
25.175000 87.109375 29.041387
25.200000 85.859375 29.041387
25.225000 84.765625 29.041387
25.225000 83.625000 29.041387
25.375000 82.046875 29.041387
25.525000 81.125000 29.041387
25.550000 79.015625 29.041387
25.775000 79.578125 29.041387
18.875000 90.953125 29.197250
25.175000 86.937500 29.197250
25.200000 85.750000 29.197250
25.225000 84.609375 29.197250
25.250000 83.562500 29.197250
25.400000 81.890625 29.197250
25.500000 81.468750 29.197250
19.125000 90.812500 29.367064
25.075000 86.875000 29.367064
25.000000 84.734375 29.367064
25.000000 84.234375 29.367064
25.100000 83.343750 29.367064
25.375000 82.296875 29.367064
25.525000 81.265625 29.367064
19.225000 90.812500 29.523583
24.825000 89.218750 29.523583
24.975000 88.078125 29.523583
25.075000 86.968750 29.523583
25.075000 85.046875 29.523583
24.975000 84.078125 29.523583
25.100000 83.343750 29.523583
25.350000 81.484375 29.523583
25.500000 80.296875 29.523583
24.975000 87.781250 29.678957
24.975000 86.625000 29.678957
24.975000 85.562500 29.678957
24.975000 84.406250 29.678957
24.975000 82.562500 29.678957
25.125000 82.312500 29.678957
25.275000 81.140625 29.678957
24.925000 87.687500 29.833899
24.950000 86.687500 29.833899
24.975000 85.625000 29.833899
24.975000 84.578125 29.833899
24.975000 83.093750 29.833899
24.975000 80.593750 29.833899
25.000000 81.125000 29.833899
25.175000 79.000000 29.833899
19.225000 90.796875 30.005172
24.750000 87.906250 30.005172
24.850000 86.953125 30.005172
24.850000 86.187500 30.005172
24.750000 84.750000 30.005172
24.675000 83.734375 30.005172
24.800000 83.734375 30.005172
24.925000 82.562500 30.005172
24.950000 81.218750 30.005172
18.950000 90.937500 30.161204
24.550000 89.343750 30.161204
24.650000 88.453125 30.161204
24.650000 87.218750 30.161204
24.650000 85.593750 30.161204
24.625000 82.984375 30.161204
24.625000 81.578125 30.161204
24.650000 82.375000 30.161204
24.675000 79.796875 30.161204
19.075000 90.921875 30.321401
23.925000 86.312500 30.321401
24.200000 83.203125 30.321401
24.500000 81.843750 30.321401
24.525000 81.531250 30.321401
24.550000 81.218750 30.321401
24.600000 79.218750 30.321401
24.775000 77.796875 30.321401
23.725000 85.953125 30.484601
23.800000 84.796875 30.484601
23.825000 84.265625 30.484601
23.875000 83.578125 30.484601
23.900000 82.843750 30.484601
23.925000 80.312500 30.484601
23.925000 80.453125 30.484601
18.900000 91.000000 30.647657
23.900000 87.531250 30.647657
23.900000 86.375000 30.647657
23.900000 85.218750 30.647657
23.900000 84.171875 30.647657
23.900000 83.015625 30.647657
23.900000 81.875000 30.647657
23.900000 82.437500 30.647657
24.025000 81.265625 30.647657
24.175000 87.796875 30.799335
24.200000 86.656250 30.799335
24.175000 85.296875 30.799335
24.150000 84.156250 30.799335
24.150000 83.000000 30.799335
24.025000 89.812500 30.954219
24.200000 88.656250 30.954219
24.200000 87.500000 30.954219
24.200000 86.359375 30.954219
24.200000 85.234375 30.954219
24.425000 80.109375 30.954219
24.650000 80.765625 30.954219
24.700000 79.031250 30.954219
24.175000 87.828125 31.124336
24.200000 86.671875 31.124336
24.425000 81.359375 31.124336
24.650000 82.281250 31.124336
24.750000 79.937500 31.124336
18.875000 90.906250 31.280866
24.175000 89.375000 31.280866
24.200000 88.218750 31.280866
24.200000 87.078125 31.280866
24.425000 83.609375 31.280866
24.750000 81.812500 31.280866
24.850000 79.453125 31.280866
24.425000 86.796875 31.436117
24.650000 82.218750 31.436117
24.875000 81.453125 31.436117
24.875000 82.281250 31.436117
24.875000 81.031250 31.436117
24.900000 79.765625 31.436117
18.950000 90.921875 31.606467
24.175000 89.343750 31.606467
24.300000 87.218750 31.606467
24.450000 86.265625 31.606467
24.475000 85.156250 31.606467
24.650000 82.906250 31.606467
24.850000 83.953125 31.606467
24.850000 82.796875 31.606467
24.875000 81.484375 31.606467
24.200000 85.671875 31.762661
24.350000 85.625000 31.762661
24.650000 83.234375 31.762661
24.900000 84.484375 31.762661
24.950000 83.328125 31.762661
24.950000 82.171875 31.762661
24.925000 80.828125 31.762661
25.100000 79.828125 31.762661
24.050000 87.531250 31.917415
24.200000 86.375000 31.917415
24.225000 87.265625 31.917415
24.225000 84.171875 31.917415
24.450000 85.000000 31.917415
24.750000 82.562500 31.917415
24.875000 82.859375 31.917415
24.900000 81.781250 31.917415
24.200000 85.875000 32.088203
24.200000 86.578125 32.088203
24.425000 83.312500 32.088203
24.675000 81.984375 32.088203
24.750000 79.203125 32.088203
24.050000 89.609375 32.242939
24.200000 88.437500 32.242939
24.200000 87.296875 32.242939
24.200000 86.140625 32.242939
24.425000 82.921875 32.242939
24.675000 81.703125 32.242939
24.175000 87.421875 32.396501
24.175000 86.265625 32.396501
24.175000 85.453125 32.396501
24.200000 84.281250 32.396501
24.425000 80.296875 32.396501
24.650000 78.906250 32.396501
18.925000 91.031250 32.557386
23.875000 87.578125 32.557386
23.900000 86.421875 32.557386
23.900000 85.265625 32.557386
23.900000 84.140625 32.557386
23.900000 82.984375 32.557386
24.025000 83.531250 32.557386
24.150000 82.375000 32.557386
24.175000 81.296875 32.557386
24.375000 79.500000 32.557386
24.650000 79.218750 32.557386
23.700000 86.890625 32.723555
23.825000 85.078125 32.723555
23.850000 84.265625 32.723555
23.875000 83.031250 32.723555
23.900000 81.968750 32.723555
23.900000 80.406250 32.723555
23.900000 81.203125 32.723555
19.000000 91.390625 32.884013
23.250000 88.187500 32.884013
23.250000 87.015625 32.884013
23.250000 85.859375 32.884013
23.250000 84.218750 32.884013
23.425000 82.921875 32.884013
23.625000 80.812500 32.884013
23.625000 79.656250 32.884013
23.625000 80.062500 32.884013
23.700000 77.359375 32.884013
18.850000 91.828125 33.046607
22.800000 88.359375 33.046607
22.925000 87.203125 33.046607
22.925000 87.750000 33.046607
22.925000 84.906250 33.046607
22.925000 83.843750 33.046607
22.925000 84.421875 33.046607
22.950000 82.984375 33.046607
22.975000 81.687500 33.046607
23.025000 80.390625 33.046607
23.200000 79.281250 33.046607
23.525000 78.281250 33.046607
19.000000 91.109375 33.197168
23.225000 86.500000 33.197168
23.225000 85.343750 33.197168
23.225000 84.203125 33.197168
23.225000 84.906250 33.197168
23.225000 81.984375 33.197168
23.225000 80.843750 33.197168
23.225000 81.406250 33.197168
18.950000 91.140625 33.351698
23.225000 86.531250 33.351698
23.225000 85.375000 33.351698
23.225000 84.218750 33.351698
23.225000 84.875000 33.351698
23.350000 82.000000 33.351698
23.675000 78.562500 33.351698
23.925000 77.406250 33.351698
19.275000 90.921875 33.521752
23.300000 87.843750 33.521752
23.375000 85.140625 33.521752
23.675000 81.765625 33.521752
23.900000 80.625000 33.521752
23.900000 79.468750 33.521752
24.000000 79.765625 33.521752
24.275000 77.296875 33.521752
19.250000 90.906250 33.675915
23.700000 86.703125 33.675915
23.900000 85.140625 33.675915
23.900000 84.093750 33.675915
23.900000 82.937500 33.675915
23.900000 81.812500 33.675915
23.900000 80.656250 33.675915
24.025000 81.203125 33.675915
23.725000 87.937500 33.832059
23.900000 87.031250 33.832059
23.900000 85.890625 33.832059
23.900000 84.734375 33.832059
23.900000 83.656250 33.832059
23.900000 82.500000 33.832059
24.025000 83.046875 33.832059
24.175000 82.125000 33.832059
24.200000 80.984375 33.832059
23.875000 87.640625 34.003099
23.900000 86.500000 34.003099
24.025000 87.031250 34.003099
24.150000 85.875000 34.003099
24.150000 84.828125 34.003099
24.175000 83.921875 34.003099
24.200000 82.765625 34.003099
24.200000 81.625000 34.003099
23.875000 87.859375 34.151095
24.025000 88.406250 34.151095
24.175000 87.250000 34.151095
24.175000 86.093750 34.151095
24.175000 85.015625 34.151095
24.175000 84.093750 34.151095
24.175000 82.703125 34.151095
24.175000 81.812500 34.151095
23.775000 87.750000 34.314064
24.000000 88.046875 34.314064
24.125000 87.140625 34.314064
24.150000 85.984375 34.314064
24.150000 84.937500 34.314064
24.150000 83.781250 34.314064
24.150000 82.875000 34.314064
24.175000 81.718750 34.314064
23.700000 88.218750 34.476233
23.900000 87.062500 34.476233
24.025000 87.609375 34.476233
24.125000 86.203125 34.476233
24.100000 85.125000 34.476233
24.125000 84.234375 34.476233
24.150000 83.312500 34.476233
24.175000 82.171875 34.476233
23.750000 87.890625 34.638703
23.900000 86.750000 34.638703
24.025000 87.343750 34.638703
24.025000 84.453125 34.638703
23.900000 83.359375 34.638703
24.025000 83.906250 34.638703
24.150000 82.765625 34.638703
24.150000 81.609375 34.638703
23.425000 89.484375 34.800858
23.725000 87.156250 34.800858
23.900000 86.015625 34.800858
23.900000 84.859375 34.800858
23.900000 83.765625 34.800858
23.900000 82.625000 34.800858
23.900000 81.468750 34.800858
24.025000 82.015625 34.800858
24.175000 81.109375 34.800858
23.350000 88.187500 34.951340
23.475000 87.593750 34.951340
23.700000 84.390625 34.951340
23.900000 82.890625 34.951340
23.900000 81.343750 34.951340
23.900000 80.187500 34.951340
23.900000 79.031250 34.951340
18.975000 91.156250 35.126728
23.225000 86.531250 35.126728
23.225000 85.390625 35.126728
23.225000 85.937500 35.126728
23.250000 84.796875 35.126728
23.250000 83.468750 35.126728
23.375000 81.421875 35.126728
23.675000 79.703125 35.126728
23.875000 78.546875 35.126728
23.925000 79.312500 35.126728
23.200000 87.734375 35.273052
23.200000 84.984375 35.273052
23.225000 83.921875 35.273052
23.225000 82.781250 35.273052
23.225000 81.625000 35.273052
23.225000 80.468750 35.273052
23.225000 80.421875 35.273052
23.075000 89.640625 35.441824
23.200000 88.421875 35.441824
23.200000 87.187500 35.441824
23.200000 84.515625 35.441824
23.225000 83.468750 35.441824
23.225000 82.312500 35.441824
23.225000 81.156250 35.441824
23.225000 81.531250 35.441824
23.425000 79.484375 35.441824
23.625000 79.468750 35.441824
19.175000 90.953125 35.597378
23.250000 87.843750 35.597378
23.250000 86.656250 35.597378
23.425000 84.062500 35.597378
23.750000 80.343750 35.597378
23.900000 79.453125 35.597378
23.900000 86.093750 35.766329
23.900000 84.937500 35.766329
23.900000 83.859375 35.766329
23.900000 82.687500 35.766329
23.900000 81.546875 35.766329
24.025000 82.078125 35.766329
24.150000 80.921875 35.766329
19.225000 90.875000 35.925055
24.025000 86.265625 35.925055
24.025000 86.796875 35.925055
24.150000 85.750000 35.925055
24.150000 84.593750 35.925055
24.175000 83.687500 35.925055
24.200000 82.531250 35.925055
24.050000 89.765625 36.078282
24.200000 88.609375 36.078282
24.175000 87.468750 36.078282
24.175000 86.312500 36.078282
24.200000 85.171875 36.078282
24.200000 84.015625 36.078282
24.525000 79.203125 36.078282
24.900000 78.671875 36.078282
24.200000 87.937500 36.236137
24.200000 86.750000 36.236137
24.200000 83.734375 36.236137
24.525000 80.281250 36.236137
24.875000 81.203125 36.236137
24.050000 89.656250 36.389631
24.200000 88.546875 36.389631
24.525000 84.171875 36.389631
24.850000 81.859375 36.389631
24.875000 83.125000 36.389631
24.925000 81.781250 36.389631
24.875000 80.562500 36.389631
25.050000 79.250000 36.389631
24.450000 86.703125 36.552873
24.650000 84.796875 36.552873
24.850000 85.578125 36.552873
24.875000 84.265625 36.552873
24.925000 83.140625 36.552873
24.925000 82.125000 36.552873
24.950000 80.718750 36.552873
25.100000 79.046875 36.552873
19.050000 90.859375 36.716055
24.275000 88.312500 36.716055
24.425000 87.171875 36.716055
24.675000 85.046875 36.716055
24.925000 83.796875 36.716055
24.950000 82.593750 36.716055
24.975000 81.390625 36.716055
24.875000 85.359375 36.875412
24.875000 84.109375 36.875412
24.925000 83.015625 36.875412
24.925000 81.750000 36.875412
24.950000 80.609375 36.875412
25.100000 78.531250 36.875412
19.025000 91.250000 37.040903
24.625000 89.296875 37.040903
24.675000 88.078125 37.040903
24.775000 85.062500 37.040903
24.900000 86.171875 37.040903
24.925000 85.000000 37.040903
24.950000 83.890625 37.040903
24.950000 82.500000 37.040903
24.950000 81.500000 37.040903
24.750000 86.500000 37.204359
24.750000 86.390625 37.204359
24.800000 85.609375 37.204359
24.925000 84.343750 37.204359
24.925000 83.281250 37.204359
24.925000 81.890625 37.204359
24.950000 80.859375 37.204359
25.100000 79.234375 37.204359
19.225000 90.843750 37.352455
24.400000 87.375000 37.352455
24.225000 86.218750 37.352455
24.225000 85.062500 37.352455
24.450000 85.812500 37.352455
24.750000 83.046875 37.352455
24.900000 83.781250 37.352455
24.925000 82.671875 37.352455
24.925000 81.343750 37.352455
24.050000 89.859375 37.507713
24.200000 88.703125 37.507713
24.200000 87.500000 37.507713
24.200000 86.343750 37.507713
24.550000 82.562500 37.507713
24.775000 81.968750 37.507713
24.750000 78.812500 37.507713
24.900000 79.234375 37.507713
18.975000 91.000000 37.666050
24.000000 89.234375 37.666050
24.175000 88.312500 37.666050
24.200000 87.156250 37.666050
24.200000 86.093750 37.666050
24.200000 84.953125 37.666050
24.425000 79.328125 37.666050
24.650000 78.843750 37.666050
24.850000 79.218750 37.666050
23.900000 85.921875 37.833556
23.900000 84.765625 37.833556
24.050000 85.390625 37.833556
24.150000 83.984375 37.833556
24.125000 83.093750 37.833556
24.150000 81.937500 37.833556
24.200000 81.140625 37.833556
19.150000 90.906250 38.003337
23.750000 87.281250 38.003337
23.875000 85.890625 38.003337
23.900000 85.109375 38.003337
23.900000 83.500000 38.003337
23.900000 81.781250 38.003337
23.925000 82.625000 38.003337
23.975000 80.375000 38.003337
24.150000 78.359375 38.003337
24.475000 78.953125 38.003337
23.800000 89.453125 38.158325
24.050000 88.359375 38.158325
24.150000 87.203125 38.158325
24.150000 86.062500 38.158325
24.150000 84.984375 38.158325
24.175000 84.078125 38.158325
24.425000 80.078125 38.158325
24.675000 79.671875 38.158325
24.075000 87.812500 38.308789
24.200000 88.562500 38.308789
24.400000 84.781250 38.308789
24.625000 84.015625 38.308789
24.650000 80.750000 38.308789
24.650000 81.562500 38.308789
24.750000 78.828125 38.308789
24.900000 78.843750 38.308789
24.500000 87.968750 38.469760
24.650000 88.515625 38.469760
24.675000 87.312500 38.469760
24.750000 85.156250 38.469760
24.750000 85.156250 38.469760
24.775000 83.015625 38.469760
24.875000 80.796875 38.469760
24.875000 81.593750 38.469760
24.950000 80.500000 38.469760
25.150000 78.453125 38.469760
24.875000 87.390625 38.632315
24.875000 86.203125 38.632315
24.875000 85.281250 38.632315
24.950000 84.187500 38.632315
24.975000 83.062500 38.632315
24.950000 81.687500 38.632315
24.950000 80.125000 38.632315
25.175000 79.234375 38.632315
24.975000 87.984375 38.795425
24.975000 86.750000 38.795425
24.975000 85.718750 38.795425
24.975000 84.562500 38.795425
24.975000 83.531250 38.795425
24.950000 82.203125 38.795425
24.975000 80.578125 38.795425
18.950000 90.953125 38.958295
24.825000 89.500000 38.958295
24.975000 88.234375 38.958295
24.975000 87.078125 38.958295
24.975000 85.953125 38.958295
24.975000 84.718750 38.958295
25.000000 82.921875 38.958295
25.000000 81.937500 38.958295
25.125000 81.250000 38.958295
25.075000 87.687500 39.122050
25.075000 86.031250 39.122050
25.000000 84.953125 39.122050
25.125000 84.437500 39.122050
25.225000 83.031250 39.122050
25.250000 81.812500 39.122050
25.400000 80.421875 39.122050
25.550000 78.421875 39.122050
25.225000 87.250000 39.281082
25.225000 86.093750 39.281082
25.200000 85.109375 39.281082
25.200000 83.875000 39.281082
25.250000 82.656250 39.281082
25.400000 81.359375 39.281082
25.525000 79.765625 39.281082
25.675000 78.656250 39.281082
25.225000 87.187500 39.432398
25.225000 86.031250 39.432398
25.200000 84.953125 39.432398
25.200000 83.796875 39.432398
25.375000 82.593750 39.432398
25.525000 81.093750 39.432398
25.550000 79.609375 39.432398
25.700000 79.546875 39.432398
25.175000 87.546875 39.609243
25.200000 86.390625 39.609243
25.225000 85.312500 39.609243
25.225000 84.218750 39.609243
25.225000 82.937500 39.609243
25.375000 81.578125 39.609243
25.525000 80.312500 39.609243
25.550000 79.453125 39.609243
24.750000 89.703125 39.758689
25.075000 88.453125 39.758689
25.200000 87.312500 39.758689
25.200000 86.031250 39.758689
25.200000 84.937500 39.758689
25.200000 83.781250 39.758689
25.375000 82.265625 39.758689
25.525000 81.406250 39.758689
25.525000 80.000000 39.758689
25.700000 78.968750 39.758689
19.000000 90.906250 39.912813
25.175000 86.890625 39.912813
25.075000 84.796875 39.912813
24.975000 83.875000 39.912813
25.125000 83.531250 39.912813
25.400000 82.843750 39.912813
25.500000 81.562500 39.912813
24.975000 87.734375 40.069663
24.975000 86.531250 40.069663
25.000000 85.093750 40.069663
25.000000 83.796875 40.069663
25.100000 83.000000 40.069663
25.250000 81.984375 40.069663
25.375000 81.187500 40.069663
25.475000 78.796875 40.069663
19.050000 90.843750 40.238516
24.825000 89.359375 40.238516
24.975000 88.109375 40.238516
24.975000 86.953125 40.238516
24.975000 85.875000 40.238516
24.975000 84.812500 40.238516
24.975000 83.562500 40.238516
25.100000 82.484375 40.238516
25.250000 81.593750 40.238516
24.800000 89.546875 40.391801
24.950000 88.406250 40.391801
24.925000 87.281250 40.391801
24.875000 86.156250 40.391801
24.850000 85.031250 40.391801
24.925000 84.015625 40.391801
24.975000 82.546875 40.391801
25.000000 80.562500 40.391801
25.125000 79.203125 40.391801
25.450000 79.171875 40.391801
24.675000 87.546875 40.547179
24.750000 85.671875 40.547179
24.875000 84.328125 40.547179
24.775000 83.265625 40.547179
24.775000 81.656250 40.547179
24.875000 81.859375 40.547179
24.925000 80.875000 40.547179
25.100000 78.312500 40.547179
24.625000 86.406250 40.712172
24.625000 85.875000 40.712172
24.625000 84.218750 40.712172
24.625000 84.718750 40.712172
24.650000 82.828125 40.712172
24.650000 82.312500 40.712172
24.675000 79.859375 40.712172
19.300000 90.828125 40.872078
23.925000 87.609375 40.872078
23.925000 85.546875 40.872078
23.925000 83.921875 40.872078
23.925000 84.234375 40.872078
23.975000 82.718750 40.872078
24.175000 81.468750 40.872078
24.425000 79.062500 40.872078
24.525000 79.265625 40.872078
24.775000 78.484375 40.872078
23.600000 89.781250 41.033705
23.750000 87.640625 41.033705
23.850000 86.406250 41.033705
23.850000 84.640625 41.033705
23.850000 83.390625 41.033705
23.875000 82.796875 41.033705
23.900000 81.093750 41.033705
23.900000 80.890625 41.033705
23.750000 87.765625 41.198336
23.900000 86.609375 41.198336
23.900000 85.468750 41.198336
23.900000 84.312500 41.198336
23.875000 83.281250 41.198336
24.000000 83.828125 41.198336
24.150000 82.687500 41.198336
24.150000 81.546875 41.198336
24.050000 89.437500 41.361074
24.175000 88.046875 41.361074
24.175000 87.140625 41.361074
24.200000 86.078125 41.361074
24.175000 84.703125 41.361074
24.175000 83.781250 41.361074
24.425000 79.171875 41.361074
24.750000 78.656250 41.361074
24.200000 87.515625 41.507406
24.200000 86.359375 41.507406
24.200000 85.328125 41.507406
24.425000 79.953125 41.507406
24.650000 80.812500 41.507406
24.750000 77.656250 41.507406
19.000000 90.828125 41.676995
24.175000 89.281250 41.676995
24.200000 88.140625 41.676995
24.200000 86.984375 41.676995
24.425000 83.687500 41.676995
24.750000 81.609375 41.676995
24.750000 81.046875 41.676995
24.050000 89.781250 41.833649
24.200000 88.640625 41.833649
24.200000 85.546875 41.833649
24.300000 85.015625 41.833649
24.425000 84.468750 41.833649
24.650000 82.843750 41.833649
24.850000 81.203125 41.833649
24.850000 79.921875 41.833649
24.875000 80.828125 41.833649
25.075000 78.656250 41.833649
24.425000 86.703125 41.989528
24.625000 82.953125 41.989528
24.850000 81.234375 41.989528
24.875000 82.156250 41.989528
24.900000 80.859375 41.989528
24.950000 79.390625 41.989528
24.175000 89.359375 42.158774
24.200000 86.281250 42.158774
24.325000 86.218750 42.158774
24.575000 85.875000 42.158774
24.750000 83.671875 42.158774
24.850000 81.750000 42.158774
24.850000 82.562500 42.158774
24.900000 81.609375 42.158774
24.200000 87.640625 42.313897
24.325000 85.703125 42.313897
24.675000 84.390625 42.313897
24.850000 82.781250 42.313897
24.850000 81.468750 42.313897
24.875000 82.078125 42.313897
24.900000 81.015625 42.313897
24.950000 78.515625 42.313897
24.200000 87.906250 42.469556
24.425000 84.671875 42.469556
24.750000 81.703125 42.469556
24.850000 80.562500 42.469556
24.850000 81.343750 42.469556
24.200000 87.640625 42.625989
24.200000 86.453125 42.625989
24.425000 83.140625 42.625989
24.775000 80.968750 42.625989
24.875000 79.859375 42.625989
24.925000 79.546875 42.625989
24.050000 89.546875 42.788909
24.175000 88.406250 42.788909
24.175000 87.250000 42.788909
24.200000 86.109375 42.788909
24.200000 83.109375 42.788909
24.450000 81.468750 42.788909
24.650000 80.328125 42.788909
24.850000 78.359375 42.788909
24.025000 89.375000 42.950838
24.150000 88.218750 42.950838
24.150000 87.062500 42.950838
24.175000 85.921875 42.950838
24.175000 84.812500 42.950838
24.175000 83.906250 42.950838
24.400000 79.281250 42.950838
24.725000 78.937500 42.950838
23.900000 85.984375 43.113792
23.900000 84.828125 43.113792
23.900000 83.750000 43.113792
23.900000 84.468750 43.113792
24.025000 83.156250 43.113792
24.150000 82.000000 43.113792
24.175000 81.062500 43.113792
23.575000 87.921875 43.276490
23.625000 86.765625 43.276490
23.625000 85.625000 43.276490
23.725000 85.093750 43.276490
23.850000 83.359375 43.276490
23.850000 82.203125 43.276490
23.875000 81.562500 43.276490
23.900000 79.906250 43.276490
23.900000 78.750000 43.276490
24.100000 78.750000 43.276490
23.075000 88.750000 43.435741
23.200000 87.796875 43.435741
23.200000 85.765625 43.435741
23.225000 86.421875 43.435741
23.250000 85.140625 43.435741
23.250000 84.171875 43.435741
23.275000 82.765625 43.435741
23.450000 81.281250 43.435741
23.625000 79.375000 43.435741
19.275000 90.984375 43.588145
22.475000 88.656250 43.588145
22.750000 87.500000 43.588145
