36.825000 -12.968750 128.698042
36.725000 -11.906250 128.698042
36.100000 -10.656250 128.698042
35.850000 -9.078125 128.698042
35.950000 -7.968750 128.698042
38.100000 -20.921875 128.840918
37.700000 -19.812500 128.840918
37.750000 -18.718750 128.840918
36.475000 -15.718750 128.840918
36.575000 -14.375000 128.840918
36.850000 -13.140625 128.840918
36.700000 -11.843750 128.840918
36.075000 -10.218750 128.840918
35.900000 -8.843750 128.840918
36.025000 -8.093750 128.840918
38.525000 -22.125000 128.981896
38.175000 -21.140625 128.981896
37.675000 -19.859375 128.981896
37.100000 -18.265625 128.981896
36.550000 -17.093750 128.981896
36.500000 -15.421875 128.981896
36.675000 -14.531250 128.981896
36.800000 -12.812500 128.981896
36.500000 -11.453125 128.981896
36.000000 -9.953125 128.981896
35.875000 -8.703125 128.981896
36.125000 -7.890625 128.981896
38.625000 -22.156250 129.108683
38.300000 -20.703125 129.108683
37.700000 -19.531250 129.108683
37.125000 -18.218750 129.108683
36.550000 -17.046875 129.108683
36.500000 -15.671875 129.108683
36.750000 -14.375000 129.108683
36.875000 -12.796875 129.108683
36.500000 -11.359375 129.108683
35.975000 -9.921875 129.108683
35.925000 -9.109375 129.108683
36.175000 -7.546875 129.108683
38.350000 -21.875000 129.256275
38.000000 -20.781250 129.256275
37.850000 -19.156250 129.256275
37.200000 -18.031250 129.256275
36.450000 -16.500000 129.256275
36.775000 -15.406250 129.256275
37.200000 -14.140625 129.256275
36.850000 -12.562500 129.256275
36.325000 -11.328125 129.256275
35.875000 -9.578125 129.256275
35.850000 -8.437500 129.256275
36.375000 -7.468750 129.256275
38.450000 -21.906250 129.402603
38.025000 -20.578125 129.402603
37.950000 -19.156250 129.402603
36.500000 -16.359375 129.402603
36.775000 -15.312500 129.402603
37.150000 -13.546875 129.402603
36.675000 -12.625000 129.402603
36.075000 -10.734375 129.402603
35.850000 -9.421875 129.402603
35.900000 -8.375000 129.402603
36.475000 -7.265625 129.402603
38.050000 -19.953125 129.530855
37.825000 -18.781250 129.530855
37.200000 -17.578125 129.530855
36.600000 -15.921875 129.530855
36.750000 -14.703125 129.530855
37.125000 -13.531250 129.530855
36.675000 -11.703125 129.530855
35.975000 -10.890625 129.530855
35.875000 -9.484375 129.530855
36.000000 -7.984375 129.530855
39.250000 -22.328125 129.674580
37.950000 -19.281250 129.674580
37.800000 -18.062500 129.674580
36.775000 -15.281250 129.674580
37.075000 -14.312500 129.674580
36.900000 -12.640625 129.674580
36.275000 -11.140625 129.674580
35.875000 -9.796875 129.674580
35.900000 -8.687500 129.674580
36.325000 -7.671875 129.674580
38.625000 -21.609375 129.817137
38.075000 -19.843750 129.817137
37.800000 -18.500000 129.817137
37.400000 -17.093750 129.817137
37.050000 -16.140625 129.817137
37.000000 -14.531250 129.817137
37.100000 -13.500000 129.817137
36.650000 -12.140625 129.817137
35.975000 -10.859375 129.817137
35.875000 -9.203125 129.817137
36.050000 -8.296875 129.817137
39.375000 -22.328125 129.951282
37.950000 -19.234375 129.951282
37.700000 -18.312500 129.951282
37.250000 -17.015625 129.951282
36.950000 -15.656250 129.951282
37.075000 -13.953125 129.951282
36.725000 -12.562500 129.951282
36.125000 -11.156250 129.951282
35.875000 -10.046875 129.951282
35.925000 -8.890625 129.951282
36.300000 -7.703125 129.951282
38.050000 -20.453125 130.091309
37.975000 -19.234375 130.091309
37.575000 -17.343750 130.091309
37.125000 -16.109375 130.091309
37.125000 -15.234375 130.091309
37.225000 -13.750000 130.091309
36.625000 -12.156250 130.091309
35.950000 -11.062500 130.091309
35.875000 -9.296875 130.091309
38.900000 -22.078125 130.232115
38.725000 -20.890625 130.232115
38.025000 -19.828125 130.232115
37.800000 -18.343750 130.232115
37.400000 -16.687500 130.232115
37.075000 -15.500000 130.232115
37.125000 -14.156250 130.232115
36.725000 -12.640625 130.232115
36.050000 -11.484375 130.232115
35.900000 -10.125000 130.232115
36.025000 -8.859375 130.232115
36.300000 -7.812500 130.232115
38.125000 -20.187500 130.382313
37.975000 -18.703125 130.382313
37.575000 -17.359375 130.382313
37.125000 -15.937500 130.382313
37.100000 -15.031250 130.382313
37.225000 -13.562500 130.382313
36.675000 -12.343750 130.382313
36.000000 -10.765625 130.382313
36.000000 -9.718750 130.382313
39.250000 -21.968750 130.513274
38.775000 -20.468750 130.513274
38.125000 -19.515625 130.513274
37.875000 -17.875000 130.513274
37.425000 -16.750000 130.513274
37.225000 -15.156250 130.513274
37.275000 -14.203125 130.513274
36.750000 -12.593750 130.513274
36.150000 -11.296875 130.513274
36.025000 -10.000000 130.513274
36.075000 -8.703125 130.513274
36.400000 -7.265625 130.513274
38.800000 -22.453125 130.654688
38.550000 -21.000000 130.654688
38.200000 -19.578125 130.654688
37.975000 -18.578125 130.654688
37.600000 -17.093750 130.654688
37.225000 -15.890625 130.654688
37.150000 -14.250000 130.654688
37.025000 -13.187500 130.654688
36.525000 -11.859375 130.654688
36.025000 -10.156250 130.654688
35.975000 -9.093750 130.654688
36.200000 -7.531250 130.654688
38.150000 -19.921875 130.795535
38.000000 -18.687500 130.795535
37.675000 -17.109375 130.795535
37.200000 -16.171875 130.795535
37.050000 -14.734375 130.795535
37.125000 -13.281250 130.795535
36.600000 -12.140625 130.795535
35.975000 -10.406250 130.795535
35.950000 -9.421875 130.795535
36.125000 -8.234375 130.795535
38.525000 -21.828125 130.940125
38.075000 -20.531250 130.940125
37.975000 -19.140625 130.940125
37.700000 -17.750000 130.940125
37.250000 -16.406250 130.940125
37.150000 -14.984375 130.940125
37.225000 -13.359375 130.940125
36.700000 -11.937500 130.940125
36.075000 -10.968750 130.940125
36.000000 -9.703125 130.940125
38.575000 -21.859375 131.074459
38.175000 -20.578125 131.074459
38.025000 -19.000000 131.074459
37.550000 -17.484375 131.074459
37.075000 -16.296875 131.074459
37.100000 -14.828125 131.074459
37.175000 -13.546875 131.074459
36.700000 -12.062500 131.074459
36.100000 -11.125000 131.074459
36.000000 -9.406250 131.074459
36.175000 -8.093750 131.074459
38.950000 -22.265625 131.216144
38.550000 -20.828125 131.216144
37.975000 -19.625000 131.216144
37.375000 -17.953125 131.216144
36.625000 -15.265625 131.216144
36.950000 -13.906250 131.216144
37.100000 -13.000000 131.216144
36.525000 -11.500000 131.216144
35.975000 -10.031250 131.216144
36.025000 -8.937500 131.216144
36.400000 -7.562500 131.216144
38.525000 -21.484375 131.355730
38.050000 -19.859375 131.355730
37.425000 -18.375000 131.355730
36.950000 -17.187500 131.355730
37.075000 -13.203125 131.355730
36.750000 -11.796875 131.355730
36.100000 -10.656250 131.355730
35.900000 -9.140625 131.355730
36.150000 -8.000000 131.355730
39.250000 -22.546875 131.499752
38.750000 -20.921875 131.499752
38.125000 -19.750000 131.499752
37.025000 -17.187500 131.499752
36.975000 -15.906250 131.499752
37.000000 -14.671875 131.499752
37.100000 -12.859375 131.499752
36.525000 -11.953125 131.499752
36.050000 -10.265625 131.499752
36.000000 -9.328125 131.499752
36.300000 -8.046875 131.499752
38.675000 -22.375000 131.637301
38.400000 -20.609375 131.637301
37.700000 -19.437500 131.637301
36.975000 -17.906250 131.637301
36.650000 -15.531250 131.637301
36.950000 -13.968750 131.637301
37.225000 -12.750000 131.637301
36.700000 -11.546875 131.637301
36.075000 -9.812500 131.637301
36.025000 -8.984375 131.637301
36.400000 -7.234375 131.637301
38.575000 -21.421875 131.778469
37.975000 -20.031250 131.778469
37.275000 -18.328125 131.778469
36.800000 -17.046875 131.778469
36.600000 -15.781250 131.778469
36.675000 -14.843750 131.778469
37.050000 -13.406250 131.778469
36.725000 -12.078125 131.778469
36.225000 -10.640625 131.778469
36.100000 -9.234375 131.778469
36.225000 -7.890625 131.778469
38.500000 -22.125000 131.919280
38.150000 -20.796875 131.919280
37.475000 -19.328125 131.919280
36.800000 -17.984375 131.919280
36.725000 -16.796875 131.919280
36.725000 -15.234375 131.919280
36.925000 -14.093750 131.919280
37.200000 -12.515625 131.919280
36.725000 -11.125000 131.919280
36.150000 -10.031250 131.919280
36.050000 -8.796875 131.919280
36.450000 -7.656250 131.919280
39.350000 -22.281250 132.058055
37.875000 -20.078125 132.058055
37.200000 -18.406250 132.058055
36.875000 -16.921875 132.058055
36.850000 -15.531250 132.058055
36.775000 -14.640625 132.058055
37.025000 -13.375000 132.058055
36.775000 -11.718750 132.058055
36.250000 -10.375000 132.058055
36.050000 -8.937500 132.058055
36.175000 -8.046875 132.058055
38.650000 -22.828125 132.196835
38.475000 -21.328125 132.196835
37.850000 -19.734375 132.196835
37.150000 -18.718750 132.196835
36.775000 -17.171875 132.196835
36.575000 -15.890625 132.196835
36.500000 -14.718750 132.196835
36.900000 -13.312500 132.196835
36.900000 -12.031250 132.196835
36.400000 -10.593750 132.196835
36.025000 -9.281250 132.196835
36.100000 -7.984375 132.196835
38.475000 -21.250000 132.337268
37.775000 -19.656250 132.337268
36.550000 -17.093750 132.337268
36.600000 -15.375000 132.337268
36.575000 -14.265625 132.337268
37.025000 -13.218750 132.337268
36.800000 -11.687500 132.337268
36.225000 -10.203125 132.337268
35.950000 -8.765625 132.337268
36.175000 -7.578125 132.337268
38.275000 -21.281250 132.477700
37.750000 -19.859375 132.477700
36.475000 -17.218750 132.477700
36.600000 -15.765625 132.477700
36.575000 -14.390625 132.477700
36.950000 -13.171875 132.477700
36.825000 -11.937500 132.477700
36.150000 -10.593750 132.477700
35.875000 -8.875000 132.477700
36.175000 -7.968750 132.477700
38.450000 -21.765625 132.616205
37.900000 -20.375000 132.616205
37.625000 -18.859375 132.616205
36.425000 -16.140625 132.616205
36.550000 -15.093750 132.616205
36.800000 -13.609375 132.616205
37.150000 -12.578125 132.616205
36.650000 -10.875000 132.616205
36.000000 -9.515625 132.616205
35.950000 -8.562500 132.616205
38.150000 -20.875000 132.760513
37.525000 -19.296875 132.760513
36.650000 -18.265625 132.760513
36.250000 -16.984375 132.760513
36.325000 -15.531250 132.760513
36.500000 -14.328125 132.760513
36.950000 -13.109375 132.760513
36.825000 -11.625000 132.760513
36.175000 -10.328125 132.760513
35.875000 -8.703125 132.760513
36.200000 -7.640625 132.760513
38.725000 -22.734375 132.896482
37.775000 -20.078125 132.896482
36.200000 -17.484375 132.896482
36.100000 -15.718750 132.896482
36.250000 -14.718750 132.896482
36.700000 -13.343750 132.896482
36.875000 -12.296875 132.896482
36.475000 -10.656250 132.896482
35.975000 -9.593750 132.896482
36.050000 -8.312500 132.896482
38.350000 -21.671875 133.038676
37.875000 -20.140625 133.038676
37.950000 -19.234375 133.038676
36.000000 -16.468750 133.038676
36.100000 -15.187500 133.038676
36.525000 -13.500000 133.038676
37.000000 -12.625000 133.038676
35.850000 -9.734375 133.038676
35.875000 -8.328125 133.038676
38.275000 -22.078125 133.177655
37.825000 -20.687500 133.177655
37.575000 -19.000000 133.177655
35.975000 -16.359375 133.177655
36.000000 -14.812500 133.177655
36.300000 -13.640625 133.177655
36.925000 -12.671875 133.177655
35.925000 -9.671875 133.177655
38.325000 -21.828125 133.322860
37.800000 -20.671875 133.322860
37.575000 -19.296875 133.322860
35.975000 -16.546875 133.322860
36.000000 -14.875000 133.322860
36.300000 -13.562500 133.322860
36.900000 -12.703125 133.322860
35.925000 -9.531250 133.322860
35.875000 -8.687500 133.322860
36.500000 -7.250000 133.322860
38.375000 -21.906250 133.461010
37.875000 -20.484375 133.461010
36.300000 -17.640625 133.461010
36.025000 -16.328125 133.461010
35.975000 -15.203125 133.461010
36.275000 -13.765625 133.461010
36.700000 -12.515625 133.461010
36.350000 -11.203125 133.461010
35.800000 -10.203125 133.461010
35.900000 -8.968750 133.461010
36.450000 -7.609375 133.461010
38.275000 -22.109375 133.599935
37.775000 -20.640625 133.599935
37.275000 -19.359375 133.599935
36.475000 -17.781250 133.599935
36.025000 -16.375000 133.599935
36.000000 -15.375000 133.599935
36.300000 -13.656250 133.599935
36.325000 -12.437500 133.599935
36.000000 -11.250000 133.599935
35.825000 -9.609375 133.599935
37.700000 -20.484375 133.740020
37.125000 -18.937500 133.740020
36.425000 -17.843750 133.740020
36.100000 -16.218750 133.740020
36.100000 -14.953125 133.740020
36.275000 -13.859375 133.740020
36.200000 -12.484375 133.740020
35.975000 -11.218750 133.740020
35.850000 -9.406250 133.740020
35.875000 -8.125000 133.740020
37.650000 -19.906250 133.884732
37.175000 -18.250000 133.884732
36.525000 -16.859375 133.884732
36.100000 -15.921875 133.884732
36.250000 -14.515625 133.884732
36.300000 -13.109375 133.884732
36.050000 -11.968750 133.884732
35.900000 -10.593750 133.884732
35.825000 -9.062500 133.884732
36.050000 -7.625000 133.884732
38.425000 -22.109375 134.020153
37.825000 -20.921875 134.020153
37.425000 -19.703125 134.020153
37.000000 -18.218750 134.020153
36.575000 -16.703125 134.020153
36.225000 -15.734375 134.020153
36.150000 -14.234375 134.020153
36.100000 -13.093750 134.020153
35.975000 -11.812500 134.020153
35.875000 -9.968750 134.020153
35.850000 -8.703125 134.020153
36.175000 -7.421875 134.020153
38.175000 -21.640625 134.159508
37.600000 -20.781250 134.159508
37.375000 -19.406250 134.159508
36.975000 -18.062500 134.159508
36.525000 -16.250000 134.159508
36.375000 -15.109375 134.159508
36.225000 -14.109375 134.159508
35.950000 -12.328125 134.159508
35.900000 -11.125000 134.159508
35.800000 -9.843750 134.159508
37.700000 -21.265625 134.299454
37.575000 -20.296875 134.299454
37.250000 -18.703125 134.299454
36.825000 -17.250000 134.299454
36.475000 -16.171875 134.299454
36.200000 -14.640625 134.299454
36.025000 -13.578125 134.299454
35.875000 -12.203125 134.299454
35.725000 -10.937500 134.299454
35.625000 -9.562500 134.299454
35.850000 -8.000000 134.299454
38.225000 -22.000000 134.442979
37.600000 -20.906250 134.442979
37.350000 -19.093750 134.442979
36.950000 -17.718750 134.442979
36.550000 -16.468750 134.442979
36.300000 -15.296875 134.442979
36.100000 -13.890625 134.442979
35.925000 -12.890625 134.442979
35.775000 -11.375000 134.442979
35.625000 -10.000000 134.442979
37.825000 -21.093750 134.578540
37.525000 -19.609375 134.578540
37.100000 -18.578125 134.578540
36.700000 -17.296875 134.578540
36.600000 -15.968750 134.578540
36.325000 -14.515625 134.578540
35.900000 -12.953125 134.578540
35.750000 -11.500000 134.578540
35.575000 -10.656250 134.578540
35.550000 -8.828125 134.578540
35.875000 -8.125000 134.578540
38.025000 -21.343750 134.720383
37.550000 -20.046875 134.720383
37.125000 -18.453125 134.720383
36.725000 -17.468750 134.720383
36.575000 -16.140625 134.720383
36.250000 -14.390625 134.720383
35.925000 -13.265625 134.720383
35.800000 -12.250000 134.720383
35.550000 -10.437500 134.720383
35.500000 -9.343750 134.720383
35.725000 -8.046875 134.720383
37.575000 -20.343750 134.860282
37.200000 -18.796875 134.860282
36.775000 -17.156250 134.860282
36.550000 -16.000000 134.860282
36.250000 -14.734375 134.860282
35.850000 -13.531250 134.860282
35.700000 -12.265625 134.860282
35.550000 -10.656250 134.860282
35.450000 -9.546875 134.860282
35.675000 -8.296875 134.860282
38.050000 -21.687500 135.003414
37.625000 -20.359375 135.003414
37.225000 -19.156250 135.003414
36.825000 -17.812500 135.003414
36.550000 -16.125000 135.003414
36.225000 -14.750000 135.003414
35.875000 -13.593750 135.003414
35.700000 -11.953125 135.003414
35.525000 -10.828125 135.003414
35.450000 -9.781250 135.003414
35.550000 -8.140625 135.003414
37.650000 -20.640625 135.138336
37.350000 -19.031250 135.138336
36.925000 -17.890625 135.138336
36.500000 -16.562500 135.138336
36.175000 -15.109375 135.138336
35.975000 -13.671875 135.138336
35.775000 -12.437500 135.138336
35.500000 -11.218750 135.138336
35.400000 -9.843750 135.138336
38.300000 -22.187500 135.284322
37.675000 -21.015625 135.284322
37.350000 -19.343750 135.284322
36.975000 -17.890625 135.284322
36.575000 -16.500000 135.284322
36.275000 -15.125000 135.284322
36.000000 -13.812500 135.284322
35.750000 -12.859375 135.284322
35.575000 -11.093750 135.284322
35.400000 -10.234375 135.284322
38.250000 -22.359375 135.422380
37.750000 -20.953125 135.422380
37.450000 -19.609375 135.422380
37.075000 -18.406250 135.422380
36.675000 -17.343750 135.422380
36.500000 -15.937500 135.422380
36.225000 -14.500000 135.422380
35.825000 -12.890625 135.422380
35.600000 -11.968750 135.422380
35.425000 -10.734375 135.422380
35.375000 -9.093750 135.422380
35.625000 -8.093750 135.422380
37.525000 -20.265625 135.563602
37.100000 -18.828125 135.563602
36.700000 -17.234375 135.563602
36.625000 -16.140625 135.563602
36.300000 -14.562500 135.563602
35.800000 -13.250000 135.563602
35.650000 -12.046875 135.563602
35.525000 -10.546875 135.563602
35.375000 -9.468750 135.563602
35.500000 -8.093750 135.563602
37.775000 -21.171875 135.702877
37.400000 -19.718750 135.702877
37.050000 -18.796875 135.702877
36.675000 -17.421875 135.702877
36.475000 -16.125000 135.702877
36.175000 -14.375000 135.702877
35.800000 -13.000000 135.702877
35.575000 -12.093750 135.702877
35.425000 -10.687500 135.702877
35.350000 -9.390625 135.702877
35.525000 -8.218750 135.702877
37.525000 -20.234375 135.843683
37.175000 -19.171875 135.843683
36.875000 -17.859375 135.843683
36.575000 -16.500000 135.843683
36.225000 -14.812500 135.843683
35.825000 -13.484375 135.843683
35.650000 -12.359375 135.843683
35.500000 -11.171875 135.843683
35.350000 -9.531250 135.843683
35.375000 -8.171875 135.843683
37.600000 -20.250000 135.972417
37.250000 -19.078125 135.972417
36.850000 -17.625000 135.972417
36.600000 -16.468750 135.972417
36.275000 -15.296875 135.972417
35.850000 -13.687500 135.972417
35.625000 -12.468750 135.972417
35.475000 -10.906250 135.972417
35.325000 -9.546875 135.972417
35.375000 -8.312500 135.972417
37.575000 -20.640625 136.112499
37.275000 -18.937500 136.112499
36.925000 -17.828125 136.112499
36.625000 -16.562500 136.112499
36.250000 -15.234375 136.112499
35.850000 -13.984375 136.112499
35.625000 -12.468750 136.112499
35.475000 -10.843750 136.112499
35.375000 -9.843750 136.112499
35.375000 -8.359375 136.112499
37.425000 -20.296875 136.260404
37.025000 -18.500000 136.260404
36.675000 -17.562500 136.260404
36.550000 -16.093750 136.260404
36.250000 -14.875000 136.260404
35.775000 -13.140625 136.260404
35.625000 -12.281250 136.260404
35.450000 -10.406250 136.260404
35.300000 -9.453125 136.260404
35.425000 -8.265625 136.260404
37.550000 -21.015625 136.404975
37.300000 -19.281250 136.404975
36.875000 -18.281250 136.404975
36.475000 -16.812500 136.404975
36.175000 -15.468750 136.404975
35.900000 -14.234375 136.404975
35.700000 -13.000000 136.404975
35.525000 -11.187500 136.404975
35.350000 -9.984375 136.404975
35.325000 -8.625000 136.404975
35.725000 -7.375000 136.404975
37.475000 -20.906250 136.544064
37.250000 -19.421875 136.544064
36.850000 -18.140625 136.544064
36.450000 -16.828125 136.544064
36.225000 -15.671875 136.544064
35.900000 -14.468750 136.544064
35.600000 -13.093750 136.544064
35.475000 -11.593750 136.544064
35.350000 -9.968750 136.544064
35.275000 -8.687500 136.544064
35.600000 -7.562500 136.544064
37.375000 -20.640625 136.687058
37.050000 -19.312500 136.687058
36.700000 -17.937500 136.687058
36.425000 -16.484375 136.687058
36.100000 -15.281250 136.687058
35.700000 -13.906250 136.687058
35.500000 -12.406250 136.687058
35.450000 -11.156250 136.687058
35.350000 -9.671875 136.687058
35.325000 -8.843750 136.687058
35.825000 -7.312500 136.687058
37.200000 -19.812500 136.819833
36.900000 -18.796875 136.819833
36.650000 -17.375000 136.819833
36.450000 -16.328125 136.819833
36.050000 -14.640625 136.819833
35.675000 -13.500000 136.819833
35.600000 -12.296875 136.819833
35.425000 -10.937500 136.819833
35.275000 -9.640625 136.819833
35.400000 -8.203125 136.819833
37.375000 -20.921875 136.964645
37.125000 -19.625000 136.964645
36.750000 -18.031250 136.964645
36.450000 -16.937500 136.964645
36.200000 -15.703125 136.964645
35.875000 -13.937500 136.964645
35.625000 -12.656250 136.964645
35.500000 -11.312500 136.964645
35.325000 -9.968750 136.964645
35.300000 -8.781250 136.964645
35.700000 -7.546875 136.964645
37.200000 -20.234375 137.104366
36.900000 -18.515625 137.104366
36.625000 -17.546875 137.104366
36.300000 -16.171875 137.104366
35.925000 -14.687500 137.104366
35.675000 -13.531250 137.104366
35.575000 -11.906250 137.104366
35.400000 -10.890625 137.104366
35.300000 -9.343750 137.104366
35.450000 -8.312500 137.104366
37.625000 -21.578125 137.247324
37.275000 -19.921875 137.247324
36.975000 -19.000000 137.247324
36.600000 -17.484375 137.247324
36.175000 -15.937500 137.247324
35.800000 -14.921875 137.247324
35.725000 -13.437500 137.247324
35.625000 -11.953125 137.247324
35.400000 -10.562500 137.247324
35.275000 -9.468750 137.247324
35.400000 -8.125000 137.247324
37.775000 -22.906250 137.382476
37.700000 -21.500000 137.382476
37.300000 -20.406250 137.382476
37.025000 -19.015625 137.382476
36.725000 -17.390625 137.382476
36.225000 -16.390625 137.382476
36.025000 -15.234375 137.382476
35.950000 -13.515625 137.382476
35.625000 -12.203125 137.382476
35.500000 -11.203125 137.382476
35.350000 -9.843750 137.382476
35.400000 -8.343750 137.382476
37.950000 -22.390625 137.516533
37.450000 -21.093750 137.516533
37.150000 -19.500000 137.516533
36.800000 -18.062500 137.516533
36.175000 -16.671875 137.516533
35.775000 -15.703125 137.516533
35.850000 -14.265625 137.516533
35.775000 -12.875000 137.516533
35.525000 -11.531250 137.516533
35.325000 -10.343750 137.516533
35.325000 -9.156250 137.516533
35.725000 -7.796875 137.516533
38.650000 -22.921875 137.667742
37.800000 -21.531250 137.667742
37.275000 -20.109375 137.667742
36.975000 -18.468750 137.667742
36.225000 -17.375000 137.667742
35.700000 -15.859375 137.667742
35.725000 -14.703125 137.667742
35.775000 -13.359375 137.667742
35.650000 -12.171875 137.667742
35.425000 -10.953125 137.667742
35.400000 -9.531250 137.667742
35.500000 -7.859375 137.667742
37.700000 -21.562500 137.796252
37.325000 -20.359375 137.796252
37.050000 -19.250000 137.796252
36.350000 -17.421875 137.796252
35.775000 -16.562500 137.796252
35.750000 -15.234375 137.796252
36.050000 -13.984375 137.796252
35.950000 -12.656250 137.796252
35.475000 -11.078125 137.796252
35.350000 -9.828125 137.796252
37.325000 -20.500000 137.945102
37.150000 -19.187500 137.945102
36.550000 -17.984375 137.945102
35.850000 -16.468750 137.945102
35.700000 -15.140625 137.945102
35.900000 -13.984375 137.945102
35.875000 -12.265625 137.945102
35.575000 -11.312500 137.945102
35.400000 -9.921875 137.945102
37.900000 -21.828125 138.078592
37.325000 -20.812500 138.078592
37.150000 -19.078125 138.078592
35.775000 -16.359375 138.078592
35.725000 -15.406250 138.078592
35.875000 -14.078125 138.078592
35.875000 -12.750000 138.078592
35.600000 -10.937500 138.078592
35.400000 -9.687500 138.078592
38.100000 -22.859375 138.231395
37.875000 -21.437500 138.231395
37.375000 -20.015625 138.231395
36.950000 -18.687500 138.231395
36.275000 -17.312500 138.231395
35.775000 -16.062500 138.231395
35.800000 -14.812500 138.231395
36.050000 -13.703125 138.231395
36.000000 -11.968750 138.231395
35.650000 -10.671875 138.231395
35.500000 -9.312500 138.231395
35.650000 -8.343750 138.231395
38.350000 -22.671875 138.359575
37.950000 -21.328125 138.359575
37.400000 -19.843750 138.359575
37.675000 -18.515625 138.359575
35.900000 -15.578125 138.359575
35.900000 -14.140625 138.359575
36.250000 -13.281250 138.359575
36.100000 -11.515625 138.359575
35.575000 -10.656250 138.359575
35.550000 -8.828125 138.359575
35.825000 -7.781250 138.359575
38.000000 -22.187500 138.503789
37.575000 -20.812500 138.503789
37.375000 -19.281250 138.503789
35.950000 -16.390625 138.503789
35.825000 -15.468750 138.503789
35.825000 -11.609375 138.503789
35.650000 -10.218750 138.503789
35.525000 -8.671875 138.503789
35.900000 -7.250000 138.503789
38.000000 -21.906250 138.638817
37.525000 -20.625000 138.638817
37.125000 -18.906250 138.638817
36.350000 -17.812500 138.638817
35.625000 -16.390625 138.638817
35.775000 -15.171875 138.638817
35.975000 -11.218750 138.638817
35.525000 -9.515625 138.638817
35.525000 -8.546875 138.638817
38.125000 -22.171875 138.779712
37.800000 -20.796875 138.779712
37.475000 -19.781250 138.779712
37.000000 -18.328125 138.779712
36.500000 -14.343750 138.779712
36.725000 -12.765625 138.779712
36.575000 -11.640625 138.779712
35.950000 -10.453125 138.779712
35.700000 -9.062500 138.779712
35.925000 -7.468750 138.779712
38.025000 -21.562500 138.922124
37.600000 -19.937500 138.922124
37.375000 -18.843750 138.922124
36.125000 -15.875000 138.922124
36.300000 -14.625000 138.922124
36.175000 -13.218750 138.922124
36.275000 -12.140625 138.922124
36.200000 -10.375000 138.922124
35.750000 -9.046875 138.922124
35.725000 -7.828125 138.922124
38.400000 -23.046875 139.063494
38.200000 -21.671875 139.063494
37.650000 -20.203125 139.063494
37.275000 -18.625000 139.063494
36.525000 -17.140625 139.063494
36.025000 -16.156250 139.063494
36.200000 -14.765625 139.063494
36.450000 -13.390625 139.063494
36.525000 -11.953125 139.063494
36.275000 -10.671875 139.063494
35.725000 -9.250000 139.063494
35.675000 -8.078125 139.063494
38.075000 -21.796875 139.200385
37.725000 -20.171875 139.200385
37.275000 -18.796875 139.200385
36.525000 -17.718750 139.200385
35.950000 -16.078125 139.200385
36.150000 -15.187500 139.200385
36.650000 -13.906250 139.200385
36.825000 -12.359375 139.200385
36.425000 -10.843750 139.200385
35.850000 -9.531250 139.200385
35.750000 -8.546875 139.200385
38.050000 -22.765625 139.356782
38.175000 -21.390625 139.356782
37.775000 -20.296875 139.356782
37.400000 -18.687500 139.356782
36.675000 -17.562500 139.356782
36.250000 -16.406250 139.356782
36.350000 -14.812500 139.356782
36.650000 -13.328125 139.356782
36.750000 -12.000000 139.356782
36.350000 -10.890625 139.356782
35.925000 -9.546875 139.356782
35.900000 -8.000000 139.356782
38.150000 -22.093750 139.497804
37.825000 -20.265625 139.497804
37.575000 -19.218750 139.497804
36.900000 -17.500000 139.497804
36.350000 -16.312500 139.497804
36.375000 -14.953125 139.497804
36.675000 -13.750000 139.497804
37.150000 -12.765625 139.497804
35.875000 -9.562500 139.497804
38.675000 -22.765625 139.625789
38.450000 -21.234375 139.625789
37.875000 -20.015625 139.625789
37.650000 -18.921875 139.625789
36.250000 -15.765625 139.625789
36.375000 -14.781250 139.625789
36.850000 -13.296875 139.625789
36.700000 -12.046875 139.625789
36.150000 -10.796875 139.625789
35.900000 -9.687500 139.625789
35.900000 -8.015625 139.625789
38.175000 -21.687500 139.762728
37.825000 -20.390625 139.762728
37.575000 -19.265625 139.762728
36.900000 -17.468750 139.762728
36.350000 -16.546875 139.762728
36.400000 -15.218750 139.762728
36.750000 -14.093750 139.762728
36.950000 -12.531250 139.762728
36.450000 -11.421875 139.762728
35.875000 -10.078125 139.762728
38.400000 -21.875000 139.904688
38.000000 -20.250000 139.904688
37.825000 -18.796875 139.904688
36.425000 -16.250000 139.904688
36.550000 -15.031250 139.904688
36.925000 -13.671875 139.904688
36.700000 -12.218750 139.904688
36.100000 -10.906250 139.904688
35.900000 -9.765625 139.904688
38.425000 -21.843750 140.044581
38.050000 -20.437500 140.044581
37.875000 -19.000000 140.044581
36.425000 -16.281250 140.044581
36.825000 -15.375000 140.044581
37.275000 -13.890625 140.044581
36.850000 -12.281250 140.044581
36.250000 -11.015625 140.044581
35.875000 -9.546875 140.044581
35.875000 -8.578125 140.044581
36.400000 -7.187500 140.044581
38.550000 -21.828125 140.189731
38.150000 -20.312500 140.189731
37.875000 -19.312500 140.189731
37.300000 -17.765625 140.189731
36.650000 -16.250000 140.189731
36.925000 -15.015625 140.189731
37.275000 -13.718750 140.189731
36.725000 -12.562500 140.189731
36.125000 -11.000000 140.189731
35.900000 -9.953125 140.189731
35.900000 -8.734375 140.189731
36.375000 -7.359375 140.189731
38.600000 -21.812500 140.324521
38.025000 -20.468750 140.324521
37.850000 -18.921875 140.324521
37.300000 -17.843750 140.324521
36.700000 -16.156250 140.324521
36.700000 -14.968750 140.324521
37.000000 -13.671875 140.324521
36.700000 -12.625000 140.324521
36.100000 -11.046875 140.324521
35.850000 -9.453125 140.324521
35.950000 -8.140625 140.324521
36.525000 -7.390625 140.324521
38.575000 -21.296875 140.467581
38.075000 -20.140625 140.467581
37.775000 -18.765625 140.467581
37.350000 -17.593750 140.467581
37.050000 -15.937500 140.467581
37.050000 -14.718750 140.467581
37.125000 -13.703125 140.467581
36.625000 -12.000000 140.467581
36.050000 -11.046875 140.467581
35.925000 -9.671875 140.467581
38.950000 -22.421875 140.598099
38.675000 -21.046875 140.598099
38.075000 -19.656250 140.598099
37.800000 -18.406250 140.598099
37.225000 -16.671875 140.598099
36.925000 -15.781250 140.598099
37.100000 -14.453125 140.598099
36.950000 -12.796875 140.598099
36.375000 -11.656250 140.598099
35.950000 -10.359375 140.598099
35.900000 -9.093750 140.598099
36.150000 -7.656250 140.598099
39.575000 -22.296875 140.738505
38.025000 -19.500000 140.738505
37.775000 -17.859375 140.738505
37.325000 -16.468750 140.738505
37.050000 -15.671875 140.738505
37.125000 -13.890625 140.738505
36.750000 -12.921875 140.738505
36.050000 -11.421875 140.738505
35.875000 -10.296875 140.738505
36.000000 -8.484375 140.738505
36.300000 -7.500000 140.738505
38.075000 -20.343750 140.886990
37.925000 -19.125000 140.886990
37.525000 -17.453125 140.886990
37.200000 -16.312500 140.886990
37.225000 -14.890625 140.886990
37.250000 -13.468750 140.886990
36.675000 -12.562500 140.886990
36.075000 -10.734375 140.886990
35.850000 -9.421875 140.886990
38.950000 -22.156250 141.033215
38.675000 -21.062500 141.033215
38.075000 -19.734375 141.033215
37.875000 -18.515625 141.033215
37.425000 -16.656250 141.033215
37.150000 -15.531250 141.033215
37.200000 -14.046875 141.033215
36.725000 -12.687500 141.033215
36.150000 -11.734375 141.033215
36.025000 -10.156250 141.033215
36.000000 -9.000000 141.033215
36.250000 -7.906250 141.033215
38.150000 -20.234375 141.160665
37.950000 -18.859375 141.160665
37.550000 -17.765625 141.160665
37.150000 -16.359375 141.160665
37.050000 -14.890625 141.160665
37.150000 -13.312500 141.160665
36.650000 -11.906250 141.160665
36.050000 -11.093750 141.160665
35.925000 -9.468750 141.160665
39.150000 -22.140625 141.300220
38.700000 -20.656250 141.300220
38.150000 -19.484375 141.300220
37.825000 -18.000000 141.300220
37.375000 -16.796875 141.300220
37.350000 -15.437500 141.300220
37.375000 -14.140625 141.300220
36.700000 -12.640625 141.300220
36.125000 -10.953125 141.300220
35.975000 -9.671875 141.300220
36.050000 -8.546875 141.300220
36.450000 -7.187500 141.300220
39.000000 -22.250000 141.448739
38.625000 -20.828125 141.448739
38.050000 -19.468750 141.448739
37.850000 -18.078125 141.448739
37.425000 -17.015625 141.448739
37.100000 -15.593750 141.448739
37.125000 -14.093750 141.448739
36.825000 -12.687500 141.448739
36.250000 -11.218750 141.448739
36.000000 -10.156250 141.448739
36.000000 -9.062500 141.448739
36.250000 -7.750000 141.448739
39.000000 -22.296875 141.593006
38.650000 -20.906250 141.593006
38.125000 -19.500000 141.593006
37.650000 -17.843750 141.593006
37.225000 -16.796875 141.593006
37.150000 -15.515625 141.593006
37.150000 -13.906250 141.593006
36.725000 -12.484375 141.593006
36.225000 -11.109375 141.593006
36.050000 -10.062500 141.593006
36.050000 -8.718750 141.593006
36.450000 -7.234375 141.593006
38.650000 -21.687500 141.722095
38.250000 -20.421875 141.722095
37.950000 -18.984375 141.722095
37.475000 -17.562500 141.722095
37.100000 -16.375000 141.722095
37.175000 -15.343750 141.722095
37.250000 -13.906250 141.722095
36.725000 -12.375000 141.722095
36.075000 -11.062500 141.722095
35.925000 -9.703125 141.722095
36.050000 -8.437500 141.722095
38.600000 -22.515625 141.861763
38.675000 -21.390625 141.861763
38.150000 -20.109375 141.861763
37.600000 -18.734375 141.861763
37.250000 -17.078125 141.861763
37.075000 -15.640625 141.861763
37.125000 -14.734375 141.861763
37.250000 -13.468750 141.861763
36.675000 -11.781250 141.861763
36.025000 -10.812500 141.861763
35.950000 -9.468750 141.861763
36.225000 -8.218750 141.861763
38.900000 -22.375000 142.008103
38.600000 -20.750000 142.008103
38.050000 -19.375000 142.008103
37.400000 -17.890625 142.008103
36.675000 -16.796875 142.008103
36.600000 -15.406250 142.008103
36.950000 -14.015625 142.008103
37.125000 -12.812500 142.008103
36.575000 -11.421875 142.008103
36.000000 -9.828125 142.008103
35.975000 -8.781250 142.008103
36.375000 -7.781250 142.008103
38.475000 -21.812500 142.156386
38.050000 -20.109375 142.156386
37.475000 -18.875000 142.156386
36.900000 -17.781250 142.156386
36.925000 -16.343750 142.156386
37.075000 -14.734375 142.156386
37.150000 -13.578125 142.156386
36.775000 -12.468750 142.156386
36.250000 -10.968750 142.156386
36.000000 -9.281250 142.156386
36.075000 -8.203125 142.156386
39.325000 -22.421875 142.282230
38.725000 -21.156250 142.282230
38.100000 -19.734375 142.282230
37.050000 -17.187500 142.282230
36.850000 -15.781250 142.282230
36.800000 -14.625000 142.282230
37.050000 -13.031250 142.282230
36.575000 -11.953125 142.282230
36.100000 -10.375000 142.282230
35.975000 -9.031250 142.282230
36.250000 -7.734375 142.282230
38.350000 -21.734375 142.438858
37.975000 -20.562500 142.438858
37.475000 -18.906250 142.438858
36.800000 -17.734375 142.438858
36.700000 -16.593750 142.438858
36.850000 -15.218750 142.438858
37.100000 -13.562500 142.438858
36.950000 -12.562500 142.438858
36.425000 -10.875000 142.438858
36.050000 -9.765625 142.438858
36.025000 -8.171875 142.438858
39.400000 -22.453125 142.566542
38.675000 -21.265625 142.566542
38.050000 -19.984375 142.566542
37.025000 -17.218750 142.566542
36.850000 -15.609375 142.566542
36.725000 -14.343750 142.566542
36.975000 -12.875000 142.566542
36.600000 -11.562500 142.566542
36.150000 -10.125000 142.566542
36.000000 -9.171875 142.566542
36.250000 -7.968750 142.566542
38.475000 -21.500000 142.701509
37.950000 -20.093750 142.701509
37.275000 -18.812500 142.701509
36.825000 -17.296875 142.701509
36.600000 -15.750000 142.701509
36.550000 -14.421875 142.701509
36.950000 -13.406250 142.701509
36.800000 -12.078125 142.701509
36.325000 -10.937500 142.701509
36.075000 -9.218750 142.701509
36.175000 -8.093750 142.701509
39.725000 -22.343750 142.843605
38.650000 -21.031250 142.843605
37.950000 -19.703125 142.843605
37.250000 -18.515625 142.843605
36.925000 -17.265625 142.843605
36.750000 -15.343750 142.843605
36.700000 -14.406250 142.843605
36.975000 -13.234375 142.843605
36.650000 -11.953125 142.843605
36.225000 -10.500000 142.843605
36.000000 -9.218750 142.843605
36.225000 -7.609375 142.843605
38.175000 -20.843750 142.982047
37.850000 -19.656250 142.982047
36.675000 -17.125000 142.982047
36.725000 -15.609375 142.982047
36.700000 -14.093750 142.982047
36.975000 -13.093750 142.982047
36.650000 -11.703125 142.982047
36.200000 -10.390625 142.982047
36.000000 -8.796875 142.982047
36.250000 -7.703125 142.982047
39.550000 -22.656250 143.128069
38.600000 -21.062500 143.128069
37.800000 -19.859375 143.128069
36.550000 -17.156250 143.128069
36.575000 -15.671875 143.128069
36.525000 -14.609375 143.128069
36.975000 -13.375000 143.128069
36.900000 -12.015625 143.128069
36.250000 -10.578125 143.128069
35.950000 -8.859375 143.128069
36.200000 -7.796875 143.128069
39.400000 -22.515625 143.264729
38.575000 -21.312500 143.264729
37.775000 -19.890625 143.264729
36.450000 -16.859375 143.264729
36.575000 -16.000000 143.264729
36.575000 -14.656250 143.264729
36.950000 -13.437500 143.264729
36.925000 -11.796875 143.264729
36.250000 -10.609375 143.264729
35.875000 -9.328125 143.264729
36.100000 -7.890625 143.264729
38.250000 -21.468750 143.405662
37.800000 -20.421875 143.405662
37.200000 -18.953125 143.405662
36.450000 -17.484375 143.405662
36.550000 -16.046875 143.405662
36.675000 -14.812500 143.405662
36.775000 -13.406250 143.405662
37.075000 -12.375000 143.405662
36.550000 -10.921875 143.405662
35.975000 -9.718750 143.405662
35.975000 -8.515625 143.405662
38.250000 -21.468750 143.544501
37.825000 -20.328125 143.544501
38.025000 -19.218750 143.544501
36.250000 -16.531250 143.544501
36.350000 -14.859375 143.544501
36.625000 -13.609375 143.544501
37.050000 -12.281250 143.544501
36.675000 -11.296875 143.544501
35.950000 -9.843750 143.544501
35.925000 -8.421875 143.544501
38.175000 -21.031250 143.689330
37.400000 -19.359375 143.689330
36.500000 -18.062500 143.689330
36.150000 -16.625000 143.689330
36.150000 -15.562500 143.689330
36.350000 -14.281250 143.689330
36.875000 -12.703125 143.689330
36.775000 -11.765625 143.689330
36.150000 -10.046875 143.689330
35.925000 -8.921875 143.689330
36.225000 -7.546875 143.689330
38.575000 -22.000000 143.824464
38.075000 -20.671875 143.824464
37.425000 -19.484375 143.824464
36.525000 -17.859375 143.824464
36.075000 -16.906250 143.824464
36.075000 -15.171875 143.824464
36.325000 -13.875000 143.824464
36.925000 -12.984375 143.824464
35.900000 -9.875000 143.824464
35.850000 -8.468750 143.824464
36.425000 -7.796875 143.824464
38.300000 -21.296875 143.963753
37.700000 -19.750000 143.963753
36.100000 -17.265625 143.963753
35.975000 -15.484375 143.963753
36.150000 -14.562500 143.963753
36.400000 -13.000000 143.963753
36.600000 -11.812500 143.963753
36.300000 -10.578125 143.963753
35.875000 -9.390625 143.963753
36.100000 -8.093750 143.963753
38.925000 -22.453125 144.103729
38.150000 -21.171875 144.103729
37.700000 -19.796875 144.103729
36.050000 -16.703125 144.103729
36.025000 -15.593750 144.103729
36.225000 -14.234375 144.103729
36.750000 -13.250000 144.103729
36.600000 -11.453125 144.103729
35.975000 -10.062500 144.103729
35.875000 -9.093750 144.103729
36.200000 -7.812500 144.103729
38.275000 -21.781250 144.257260
37.775000 -20.562500 144.257260
36.375000 -17.921875 144.257260
36.050000 -16.296875 144.257260
36.025000 -14.875000 144.257260
36.325000 -13.937500 144.257260
36.400000 -12.343750 144.257260
36.100000 -11.015625 144.257260
35.875000 -9.656250 144.257260
35.875000 -8.640625 144.257260
36.450000 -7.562500 144.257260
37.750000 -20.015625 144.388563
37.200000 -18.796875 144.388563
36.450000 -17.296875 144.388563
36.025000 -15.781250 144.388563
36.075000 -14.812500 144.388563
36.225000 -13.187500 144.388563
36.175000 -11.875000 144.388563
35.975000 -10.500000 144.388563
35.825000 -9.359375 144.388563
35.925000 -8.406250 144.388563
37.675000 -19.671875 144.522680
37.325000 -18.656250 144.522680
36.625000 -16.765625 144.522680
36.050000 -15.843750 144.522680
36.150000 -14.453125 144.522680
36.225000 -12.906250 144.522680
36.000000 -11.781250 144.522680
35.900000 -10.359375 144.522680
35.850000 -9.375000 144.522680
36.100000 -8.015625 144.522680
38.250000 -22.000000 144.675676
37.675000 -20.531250 144.675676
37.425000 -19.468750 144.675676
37.175000 -17.718750 144.675676
36.600000 -16.484375 144.675676
36.100000 -14.953125 144.675676
36.100000 -13.937500 144.675676
36.100000 -12.375000 144.675676
36.000000 -11.312500 144.675676
35.850000 -9.921875 144.675676
35.850000 -8.609375 144.675676
36.425000 -7.437500 144.675676
37.675000 -19.984375 144.802978
37.300000 -18.843750 144.802978
36.900000 -17.515625 144.802978
36.425000 -16.140625 144.802978
36.275000 -14.906250 144.802978
36.225000 -13.671875 144.802978
36.000000 -11.875000 144.802978
35.875000 -10.656250 144.802978
35.825000 -9.703125 144.802978
35.950000 -7.984375 144.802978
37.625000 -20.406250 144.949735
37.325000 -18.828125 144.949735
36.925000 -17.984375 144.949735
36.500000 -16.281250 144.949735
36.300000 -15.203125 144.949735
36.150000 -13.546875 144.949735
35.950000 -12.140625 144.949735
35.825000 -10.859375 144.949735
35.700000 -9.984375 144.949735
37.650000 -20.468750 145.094619
37.400000 -19.218750 145.094619
36.950000 -17.734375 145.094619
36.500000 -16.468750 145.094619
36.200000 -15.234375 145.094619
36.025000 -13.500000 145.094619
35.925000 -12.312500 145.094619
35.800000 -11.218750 145.094619
35.625000 -9.562500 145.094619
37.650000 -20.046875 145.235251
37.275000 -18.796875 145.235251
36.825000 -17.656250 145.235251
36.475000 -16.156250 145.235251
36.225000 -15.140625 145.235251
36.050000 -13.609375 145.235251
35.875000 -12.015625 145.235251
35.625000 -11.078125 145.235251
35.525000 -9.343750 145.235251
35.725000 -8.265625 145.235251
38.025000 -21.296875 145.362286
37.650000 -20.250000 145.362286
37.275000 -18.812500 145.362286
36.800000 -17.390625 145.362286
36.500000 -15.921875 145.362286
36.225000 -14.703125 145.362286
35.975000 -13.421875 145.362286
35.825000 -12.078125 145.362286
35.625000 -10.828125 145.362286
35.525000 -9.421875 145.362286
35.750000 -8.218750 145.362286
38.025000 -21.625000 145.510311
37.525000 -19.828125 145.510311
37.125000 -18.484375 145.510311
36.750000 -17.453125 145.510311
36.575000 -15.843750 145.510311
36.275000 -14.406250 145.510311
35.875000 -13.187500 145.510311
35.750000 -11.890625 145.510311
35.550000 -10.421875 145.510311
35.450000 -9.125000 145.510311
35.675000 -7.843750 145.510311
37.975000 -21.093750 145.648498
37.475000 -19.921875 145.648498
37.125000 -18.625000 145.648498
36.725000 -17.125000 145.648498
36.575000 -16.062500 145.648498
36.275000 -14.843750 145.648498
35.875000 -12.968750 145.648498
35.725000 -12.093750 145.648498
35.525000 -10.828125 145.648498
35.425000 -9.140625 145.648498
35.650000 -7.906250 145.648498
37.950000 -21.109375 145.787665
37.450000 -20.125000 145.787665
37.050000 -18.828125 145.787665
36.675000 -16.921875 145.787665
36.575000 -15.859375 145.787665
36.275000 -14.406250 145.787665
35.825000 -13.421875 145.787665
35.650000 -11.640625 145.787665
35.500000 -10.781250 145.787665
35.400000 -9.500000 145.787665
35.675000 -7.875000 145.787665
37.750000 -20.796875 145.927896
37.375000 -19.671875 145.927896
37.025000 -18.406250 145.927896
36.650000 -16.968750 145.927896
36.250000 -15.375000 145.927896
35.950000 -13.875000 145.927896
35.750000 -13.125000 145.927896
35.575000 -11.671875 145.927896
35.400000 -10.109375 145.927896
35.350000 -9.140625 145.927896
35.825000 -7.875000 145.927896
37.525000 -20.828125 146.071216
37.275000 -19.390625 146.071216
36.950000 -17.796875 146.071216
36.575000 -16.796875 146.071216
36.250000 -15.421875 146.071216
35.925000 -13.609375 146.071216
35.700000 -12.578125 146.071216
35.525000 -11.250000 146.071216
35.375000 -9.765625 146.071216
37.600000 -20.109375 146.206413
37.200000 -18.875000 146.206413
36.725000 -17.437500 146.206413
36.650000 -16.203125 146.206413
36.350000 -14.656250 146.206413
35.875000 -13.500000 146.206413
35.700000 -11.843750 146.206413
35.500000 -10.906250 146.206413
35.375000 -9.609375 146.206413
35.525000 -7.984375 146.206413
37.725000 -20.984375 146.348968
37.350000 -19.296875 146.348968
36.950000 -18.125000 146.348968
36.600000 -16.703125 146.348968
36.250000 -15.687500 146.348968
35.975000 -14.484375 146.348968
35.750000 -13.046875 146.348968
35.575000 -11.234375 146.348968
35.375000 -10.140625 146.348968
35.325000 -8.609375 146.348968
35.750000 -7.875000 146.348968
37.500000 -20.312500 146.487028
37.100000 -18.875000 146.487028
36.725000 -17.500000 146.487028
36.650000 -16.140625 146.487028
36.350000 -14.671875 146.487028
35.825000 -13.203125 146.487028
35.600000 -12.187500 146.487028
35.425000 -10.609375 146.487028
35.375000 -9.562500 146.487028
35.500000 -7.875000 146.487028
37.550000 -20.843750 146.633742
37.300000 -19.093750 146.633742
36.925000 -18.031250 146.633742
36.575000 -16.359375 146.633742
36.250000 -15.343750 146.633742
35.900000 -13.765625 146.633742
35.675000 -12.296875 146.633742
35.475000 -11.265625 146.633742
35.350000 -9.609375 146.633742
37.550000 -20.984375 146.768126
37.275000 -19.609375 146.768126
36.850000 -17.906250 146.768126
36.550000 -16.562500 146.768126
36.250000 -15.562500 146.768126
35.875000 -13.828125 146.768126
35.650000 -12.906250 146.768126
35.525000 -11.515625 146.768126
35.350000 -9.906250 146.768126
35.325000 -8.437500 146.768126
35.800000 -7.765625 146.768126
37.525000 -20.640625 146.908238
37.325000 -19.609375 146.908238
36.900000 -18.250000 146.908238
36.525000 -16.984375 146.908238
36.225000 -15.156250 146.908238
35.875000 -14.078125 146.908238
35.650000 -12.984375 146.908238
35.525000 -11.468750 146.908238
35.350000 -9.921875 146.908238
35.300000 -8.765625 146.908238
35.775000 -7.828125 146.908238
37.500000 -20.734375 147.048246
37.300000 -19.343750 147.048246
36.875000 -18.343750 147.048246
36.525000 -16.671875 147.048246
36.200000 -15.671875 147.048246
35.850000 -14.156250 147.048246
35.625000 -12.828125 147.048246
35.500000 -11.734375 147.048246
35.350000 -10.093750 147.048246
35.300000 -8.609375 147.048246
35.775000 -7.359375 147.048246
37.400000 -20.234375 147.193065
37.050000 -18.984375 147.193065
36.700000 -17.687500 147.193065
36.575000 -16.046875 147.193065
36.200000 -14.859375 147.193065
35.700000 -13.609375 147.193065
35.550000 -12.312500 147.193065
35.450000 -10.765625 147.193065
35.300000 -9.734375 147.193065
35.350000 -7.906250 147.193065
37.450000 -20.687500 147.328704
37.100000 -19.453125 147.328704
36.775000 -18.031250 147.328704
36.550000 -16.656250 147.328704
36.225000 -15.218750 147.328704
35.850000 -14.171875 147.328704
35.625000 -12.375000 147.328704
35.475000 -11.203125 147.328704
35.350000 -9.781250 147.328704
35.325000 -8.640625 147.328704
35.825000 -7.375000 147.328704
37.350000 -20.843750 147.469973
37.125000 -19.562500 147.469973
36.800000 -17.734375 147.469973
36.500000 -16.578125 147.469973
36.175000 -15.515625 147.469973
35.825000 -13.765625 147.469973
35.600000 -12.765625 147.469973
35.475000 -11.328125 147.469973
35.300000 -9.765625 147.469973
35.300000 -8.593750 147.469973
35.750000 -7.562500 147.469973
37.275000 -20.234375 147.610578
36.950000 -18.906250 147.610578
36.650000 -17.640625 147.610578
36.400000 -16.406250 147.610578
36.050000 -15.078125 147.610578
35.700000 -13.796875 147.610578
35.550000 -12.468750 147.610578
35.425000 -10.796875 147.610578
35.275000 -9.859375 147.610578
35.325000 -8.328125 147.610578
37.325000 -20.703125 147.751600
37.100000 -19.109375 147.751600
36.775000 -17.953125 147.751600
36.425000 -16.546875 147.751600
36.075000 -15.062500 147.751600
35.800000 -13.984375 147.751600
35.575000 -12.484375 147.751600
35.450000 -11.015625 147.751600
35.300000 -10.093750 147.751600
35.275000 -8.593750 147.751600
35.800000 -7.750000 147.751600
38.000000 -22.000000 147.885764
37.475000 -21.140625 147.885764
37.125000 -19.734375 147.885764
36.850000 -18.437500 147.885764
36.525000 -17.140625 147.885764
36.250000 -15.593750 147.885764
35.925000 -14.000000 147.885764
35.650000 -12.890625 147.885764
35.525000 -11.421875 147.885764
35.325000 -10.500000 147.885764
35.325000 -8.921875 147.885764
35.625000 -7.546875 147.885764
37.700000 -21.578125 148.031106
37.225000 -20.375000 148.031106
37.000000 -19.062500 148.031106
36.700000 -17.625000 148.031106
36.200000 -16.187500 148.031106
36.050000 -14.937500 148.031106
35.925000 -13.859375 148.031106
35.600000 -12.406250 148.031106
35.450000 -10.875000 148.031106
35.325000 -9.609375 148.031106
38.550000 -22.593750 148.169881
37.775000 -21.562500 148.169881
37.325000 -20.234375 148.169881
37.025000 -18.859375 148.169881
36.675000 -17.640625 148.169881
36.125000 -16.078125 148.169881
36.025000 -14.984375 148.169881
35.925000 -13.500000 148.169881
35.525000 -11.781250 148.169881
35.400000 -10.453125 148.169881
35.375000 -9.593750 148.169881
35.525000 -7.906250 148.169881
38.700000 -22.640625 148.312933
37.775000 -21.250000 148.312933
37.300000 -19.937500 148.312933
36.975000 -18.625000 148.312933
36.225000 -17.265625 148.312933
35.725000 -15.921875 148.312933
35.825000 -14.390625 148.312933
35.825000 -13.125000 148.312933
35.675000 -12.328125 148.312933
35.500000 -10.437500 148.312933
35.425000 -9.656250 148.312933
35.575000 -8.375000 148.312933
37.975000 -22.250000 148.448239
37.475000 -20.796875 148.448239
37.175000 -19.578125 148.448239
37.200000 -18.203125 148.448239
35.700000 -15.296875 148.448239
35.975000 -14.343750 148.448239
35.900000 -12.500000 148.448239
35.500000 -11.406250 148.448239
35.350000 -10.109375 148.448239
35.325000 -8.625000 148.448239
35.775000 -7.625000 148.448239
