34.675000 -15.671875 20.145842
34.450000 -14.687500 20.145842
36.125000 -22.984375 20.285836
35.775000 -21.375000 20.285836
35.475000 -20.218750 20.285836
35.225000 -18.750000 20.285836
34.950000 -17.265625 20.285836
34.700000 -16.218750 20.285836
34.500000 -14.906250 20.285836
36.175000 -23.593750 20.428835
35.825000 -22.218750 20.428835
35.525000 -20.703125 20.428835
35.250000 -19.218750 20.428835
34.975000 -18.421875 20.428835
34.700000 -16.671875 20.428835
34.425000 -15.187500 20.428835
35.550000 -21.687500 20.577835
35.275000 -20.500000 20.577835
35.000000 -18.921875 20.577835
34.750000 -17.828125 20.577835
34.525000 -15.953125 20.577835
34.275000 -14.796875 20.577835
35.975000 -23.609375 20.711836
35.600000 -22.281250 20.711836
35.275000 -21.125000 20.711836
34.975000 -19.437500 20.711836
34.700000 -18.531250 20.711836
34.500000 -17.062500 20.711836
34.250000 -15.750000 20.711836
35.625000 -23.000000 20.854860
35.275000 -21.687500 20.854860
34.975000 -20.515625 20.854860
34.675000 -19.187500 20.854860
34.450000 -17.703125 20.854860
34.225000 -16.890625 20.854860
33.950000 -14.984375 20.854860
35.600000 -23.921875 20.997835
35.200000 -22.656250 20.997835
34.875000 -21.000000 20.997835
34.575000 -19.734375 20.997835
34.325000 -18.437500 20.997835
34.075000 -17.421875 20.997835
33.825000 -16.000000 20.997835
35.225000 -24.734375 21.141835
35.025000 -23.328125 21.141835
34.700000 -21.921875 21.141835
34.425000 -20.406250 21.141835
34.125000 -18.953125 21.141835
33.850000 -17.750000 21.141835
33.600000 -16.515625 21.141835
33.400000 -15.484375 21.141835
34.825000 -24.875000 21.275836
34.725000 -23.609375 21.275836
34.425000 -22.218750 21.275836
34.125000 -21.250000 21.275836
33.800000 -19.531250 21.275836
33.525000 -18.140625 21.275836
33.250000 -17.171875 21.275836
33.050000 -15.500000 21.275836
34.525000 -25.406250 21.422835
34.350000 -24.015625 21.422835
33.975000 -22.359375 21.422835
33.650000 -21.609375 21.422835
33.375000 -20.265625 21.422835
33.100000 -18.781250 21.422835
32.850000 -17.375000 21.422835
32.575000 -15.875000 21.422835
34.000000 -24.765625 21.562868
33.625000 -23.093750 21.562868
33.250000 -21.906250 21.562868
32.975000 -20.875000 21.562868
32.675000 -19.562500 21.562868
32.375000 -17.937500 21.562868
32.150000 -16.281250 21.562868
31.925000 -15.031250 21.562868
34.575000 -25.656250 21.707835
34.075000 -23.984375 21.707835
33.700000 -22.296875 21.707835
33.425000 -21.390625 21.707835
33.150000 -20.265625 21.707835
32.850000 -18.343750 21.707835
32.600000 -17.687500 21.707835
32.350000 -15.671875 21.707835
34.650000 -25.187500 21.835835
34.325000 -23.593750 21.835835
33.975000 -22.375000 21.835835
33.650000 -21.140625 21.835835
33.350000 -19.781250 21.835835
33.100000 -18.078125 21.835835
32.875000 -16.937500 21.835835
32.625000 -15.796875 21.835835
34.800000 -24.187500 21.981836
34.450000 -23.171875 21.981836
34.125000 -21.328125 21.981836
33.800000 -20.078125 21.981836
33.475000 -18.656250 21.981836
33.225000 -17.734375 21.981836
33.025000 -16.000000 21.981836
32.825000 -14.984375 21.981836
33.000000 -13.906250 21.981836
34.925000 -23.859375 22.125072
34.575000 -22.609375 22.125072
34.250000 -20.968750 22.125072
33.925000 -19.640625 22.125072
33.625000 -18.468750 22.125072
33.375000 -17.015625 22.125072
33.175000 -16.140625 22.125072
35.200000 -24.921875 22.271067
34.950000 -23.562500 22.271067
34.625000 -21.921875 22.271067
34.300000 -20.828125 22.271067
34.050000 -19.796875 22.271067
33.725000 -18.484375 22.271067
33.425000 -16.734375 22.271067
33.225000 -15.156250 22.271067
35.250000 -24.453125 22.402049
34.875000 -22.843750 22.402049
34.525000 -21.765625 22.402049
34.250000 -19.781250 22.402049
33.950000 -18.890625 22.402049
33.675000 -17.281250 22.402049
33.450000 -16.015625 22.402049
35.025000 -22.937500 22.555072
34.700000 -21.734375 22.555072
34.375000 -20.453125 22.555072
34.100000 -19.078125 22.555072
33.825000 -17.375000 22.555072
33.550000 -16.046875 22.555072
33.350000 -14.937500 22.555072
33.375000 -13.796875 22.555072
35.325000 -25.031250 22.683047
35.175000 -23.468750 22.683047
34.825000 -22.218750 22.683047
34.475000 -20.562500 22.683047
34.200000 -19.328125 22.683047
33.950000 -18.203125 22.683047
33.675000 -17.062500 22.683047
33.425000 -15.703125 22.683047
35.225000 -23.640625 22.830047
34.850000 -22.453125 22.830047
34.550000 -21.046875 22.830047
34.275000 -19.484375 22.830047
33.975000 -18.609375 22.830047
33.700000 -16.875000 22.830047
33.450000 -15.859375 22.830047
35.225000 -23.625000 22.970051
34.850000 -22.218750 22.970051
34.550000 -20.937500 22.970051
34.225000 -19.437500 22.970051
33.925000 -18.156250 22.970051
33.650000 -16.906250 22.970051
33.450000 -15.625000 22.970051
35.150000 -23.781250 23.111047
34.775000 -22.296875 23.111047
34.450000 -21.328125 23.111047
34.150000 -19.609375 23.111047
33.875000 -18.812500 23.111047
33.600000 -17.031250 23.111047
33.375000 -15.703125 23.111047
35.100000 -24.062500 23.251047
34.650000 -22.546875 23.251047
34.325000 -21.328125 23.251047
34.100000 -19.984375 23.251047
33.825000 -18.625000 23.251047
33.475000 -17.078125 23.251047
33.200000 -16.140625 23.251047
34.950000 -24.375000 23.395048
34.550000 -22.609375 23.395048
34.250000 -21.750000 23.395048
33.925000 -20.546875 23.395048
33.625000 -19.015625 23.395048
33.375000 -17.750000 23.395048
33.175000 -16.140625 23.395048
34.750000 -24.250000 23.533071
34.400000 -23.343750 23.533071
34.075000 -21.937500 23.533071
33.725000 -20.140625 23.533071
33.400000 -18.640625 23.533071
33.175000 -17.781250 23.533071
32.950000 -16.437500 23.533071
34.525000 -24.562500 23.676074
34.150000 -23.000000 23.676074
33.775000 -21.734375 23.676074
33.500000 -20.578125 23.676074
33.225000 -19.171875 23.676074
32.975000 -17.546875 23.676074
32.700000 -16.265625 23.676074
34.150000 -24.546875 23.804050
33.800000 -23.359375 23.804050
33.475000 -21.843750 23.804050
33.150000 -20.234375 23.804050
32.925000 -19.265625 23.804050
32.650000 -17.562500 23.804050
32.350000 -16.531250 23.804050
32.100000 -15.375000 23.804050
33.900000 -26.062500 23.945048
33.825000 -24.796875 23.945048
33.425000 -22.859375 23.945048
33.100000 -21.921875 23.945048
32.800000 -20.656250 23.945048
32.475000 -18.875000 23.945048
32.200000 -17.515625 23.945048
32.000000 -16.843750 23.945048
34.450000 -24.562500 24.093050
34.075000 -23.031250 24.093050
33.725000 -21.828125 24.093050
33.425000 -20.546875 24.093050
33.150000 -19.125000 24.093050
32.875000 -17.875000 24.093050
32.625000 -16.406250 24.093050
32.375000 -15.468750 24.093050
34.575000 -25.359375 24.228049
34.825000 -23.953125 24.228049
34.525000 -23.046875 24.228049
34.175000 -21.609375 24.228049
33.850000 -20.218750 24.228049
33.575000 -19.078125 24.228049
33.350000 -17.718750 24.228049
33.125000 -15.765625 24.228049
35.150000 -23.515625 24.372049
34.775000 -22.781250 24.372049
34.475000 -21.000000 24.372049
34.200000 -19.515625 24.372049
33.900000 -18.453125 24.372049
33.625000 -17.125000 24.372049
33.375000 -15.843750 24.372049
35.400000 -23.265625 24.527050
35.050000 -22.296875 24.527050
34.750000 -20.593750 24.527050
34.475000 -19.640625 24.527050
34.200000 -18.187500 24.527050
33.875000 -16.625000 24.527050
33.650000 -15.359375 24.527050
35.750000 -24.218750 24.662050
35.600000 -23.218750 24.662050
35.225000 -21.843750 24.662050
34.900000 -20.390625 24.662050
34.625000 -19.281250 24.662050
34.400000 -17.937500 24.662050
34.150000 -16.421875 24.662050
33.875000 -15.046875 24.662050
36.375000 -23.859375 24.796051
35.750000 -22.812500 24.796051
35.375000 -21.328125 24.796051
35.050000 -20.062500 24.796051
34.775000 -18.781250 24.796051
34.550000 -17.531250 24.796051
34.300000 -16.062500 24.796051
34.050000 -15.140625 24.796051
35.975000 -24.406250 24.939052
35.925000 -23.171875 24.939052
35.575000 -21.687500 24.939052
35.275000 -20.468750 24.939052
34.975000 -19.265625 24.939052
34.700000 -17.515625 24.939052
34.450000 -16.125000 24.939052
34.150000 -14.875000 24.939052
36.500000 -23.968750 25.082048
35.975000 -22.687500 25.082048
35.600000 -21.156250 25.082048
35.275000 -20.359375 25.082048
35.000000 -18.765625 25.082048
34.750000 -17.218750 25.082048
34.525000 -15.875000 25.082048
34.275000 -14.984375 25.082048
35.975000 -22.656250 25.222048
35.625000 -21.265625 25.222048
35.275000 -19.703125 25.222048
35.025000 -18.937500 25.222048
34.775000 -17.140625 25.222048
34.550000 -16.234375 25.222048
34.325000 -14.750000 25.222048
36.400000 -23.640625 25.366049
35.925000 -22.046875 25.366049
35.575000 -20.875000 25.366049
35.275000 -19.750000 25.366049
35.000000 -18.562500 25.366049
34.750000 -16.625000 25.366049
34.525000 -15.359375 25.366049
35.775000 -21.562500 25.506508
35.450000 -19.984375 25.506508
35.175000 -19.078125 25.506508
34.900000 -17.687500 25.506508
34.600000 -16.109375 25.506508
34.375000 -14.687500 25.506508
36.375000 -23.390625 25.648508
35.925000 -22.515625 25.648508
35.575000 -20.921875 25.648508
35.275000 -19.718750 25.648508
35.000000 -17.984375 25.648508
34.725000 -16.875000 25.648508
34.500000 -15.703125 25.648508
35.925000 -22.687500 25.779508
35.575000 -21.187500 25.779508
35.250000 -19.593750 25.779508
35.000000 -18.593750 25.779508
34.750000 -17.140625 25.779508
34.500000 -16.125000 25.779508
34.275000 -14.328125 25.779508
35.950000 -22.812500 25.931508
35.600000 -21.125000 25.931508
35.250000 -20.140625 25.931508
34.975000 -18.718750 25.931508
34.725000 -17.234375 25.931508
34.500000 -16.062500 25.931508
34.275000 -14.593750 25.931508
35.750000 -22.765625 26.076637
35.425000 -21.562500 26.076637
35.075000 -20.031250 26.076637
34.775000 -18.609375 26.076637
34.600000 -17.656250 26.076637
34.375000 -15.937500 26.076637
34.075000 -14.843750 26.076637
35.625000 -23.359375 26.211619
35.275000 -21.500000 26.211619
34.950000 -20.515625 26.211619
34.625000 -18.984375 26.211619
34.400000 -17.796875 26.211619
34.150000 -16.703125 26.211619
33.900000 -14.812500 26.211619
35.475000 -23.125000 26.345593
35.100000 -21.750000 26.345593
34.750000 -20.593750 26.345593
34.475000 -19.687500 26.345593
34.250000 -17.953125 26.345593
33.925000 -16.359375 26.345593
33.675000 -15.546875 26.345593
35.300000 -23.937500 26.485620
34.900000 -22.343750 26.485620
34.600000 -21.296875 26.485620
34.300000 -19.859375 26.485620
33.975000 -18.375000 26.485620
33.700000 -16.953125 26.485620
33.500000 -15.437500 26.485620
34.950000 -24.234375 26.626594
34.600000 -22.531250 26.626594
34.275000 -21.640625 26.626594
33.950000 -20.250000 26.626594
33.650000 -18.671875 26.626594
33.425000 -17.265625 26.626594
33.175000 -15.734375 26.626594
34.550000 -24.328125 26.773593
34.250000 -23.265625 26.773593
33.875000 -21.453125 26.773593
33.575000 -20.500000 26.773593
33.300000 -18.734375 26.773593
33.025000 -17.468750 26.773593
32.800000 -16.531250 26.773593
34.150000 -25.734375 26.910621
33.875000 -24.000000 26.910621
33.525000 -22.593750 26.910621
33.200000 -21.515625 26.910621
32.925000 -20.625000 26.910621
32.650000 -19.171875 26.910621
32.375000 -17.250000 26.910621
32.175000 -16.609375 26.910621
33.500000 -25.796875 27.053606
33.125000 -23.937500 27.053606
32.775000 -23.093750 27.053606
32.425000 -21.250000 27.053606
32.150000 -20.593750 27.053606
31.900000 -18.625000 27.053606
31.625000 -17.421875 27.053606
31.375000 -16.390625 27.053606
33.600000 -25.906250 27.201594
33.275000 -24.578125 27.201594
32.950000 -22.796875 27.201594
32.650000 -21.984375 27.201594
32.325000 -20.375000 27.201594
32.050000 -18.875000 27.201594
31.800000 -17.906250 27.201594
31.550000 -16.515625 27.201594
33.775000 -25.062500 27.335620
33.400000 -23.125000 27.335620
33.075000 -22.281250 27.335620
32.800000 -21.093750 27.335620
32.475000 -19.265625 27.335620
32.175000 -18.250000 27.335620
31.975000 -16.734375 27.335620
31.775000 -15.750000 27.335620
34.225000 -25.296875 27.480625
33.850000 -23.890625 27.480625
33.525000 -22.906250 27.480625
33.175000 -21.062500 27.480625
32.850000 -19.921875 27.480625
32.550000 -18.218750 27.480625
32.325000 -17.296875 27.480625
32.100000 -15.531250 27.480625
34.275000 -25.625000 27.610593
34.125000 -24.390625 27.610593
33.750000 -22.890625 27.610593
33.400000 -21.328125 27.610593
33.100000 -20.359375 27.610593
32.825000 -18.734375 27.610593
32.575000 -17.328125 27.610593
32.325000 -16.125000 27.610593
34.375000 -24.296875 27.753594
34.000000 -23.296875 27.753594
33.650000 -21.796875 27.753594
33.350000 -20.625000 27.753594
33.050000 -18.921875 27.753594
32.775000 -17.921875 27.753594
32.575000 -16.515625 27.753594
34.500000 -25.062500 27.896594
34.100000 -23.156250 27.896594
33.750000 -21.781250 27.896594
33.475000 -20.515625 27.896594
33.150000 -19.421875 27.896594
32.925000 -18.156250 27.896594
32.700000 -16.437500 27.896594
32.450000 -15.468750 27.896594
32.500000 -14.000000 27.896594
34.600000 -25.000000 28.035626
34.200000 -23.312500 28.035626
33.875000 -21.828125 28.035626
33.550000 -21.062500 28.035626
33.250000 -19.234375 28.035626
32.975000 -18.296875 28.035626
32.725000 -16.562500 28.035626
32.525000 -15.828125 28.035626
32.450000 -14.484375 28.035626
34.625000 -24.750000 28.178623
34.200000 -23.281250 28.178623
33.825000 -22.328125 28.178623
33.475000 -20.937500 28.178623
33.225000 -19.625000 28.178623
33.000000 -18.296875 28.178623
32.700000 -16.843750 28.178623
32.450000 -15.593750 28.178623
34.575000 -24.828125 28.319594
34.200000 -23.484375 28.319594
33.825000 -22.359375 28.319594
33.500000 -20.562500 28.319594
33.250000 -19.250000 28.319594
32.975000 -17.984375 28.319594
32.725000 -17.078125 28.319594
32.500000 -15.796875 28.319594
34.400000 -24.593750 28.461595
34.075000 -23.375000 28.461595
33.775000 -22.281250 28.461595
33.425000 -20.984375 28.461595
33.125000 -19.156250 28.461595
32.875000 -17.828125 28.461595
32.650000 -16.453125 28.461595
32.400000 -15.093750 28.461595
34.175000 -24.234375 28.594594
33.800000 -23.046875 28.594594
33.475000 -21.687500 28.594594
33.175000 -20.218750 28.594594
32.950000 -19.390625 28.594594
32.675000 -17.625000 28.594594
32.350000 -16.203125 28.594594
33.825000 -25.937500 28.746632
33.875000 -24.343750 28.746632
33.500000 -23.140625 28.746632
33.200000 -21.687500 28.746632
32.925000 -20.421875 28.746632
32.600000 -19.265625 28.746632
32.325000 -17.796875 28.746632
32.125000 -16.578125 28.746632
33.975000 -25.359375 28.875620
33.550000 -24.468750 28.875620
33.200000 -22.625000 28.875620
32.900000 -21.578125 28.875620
32.625000 -19.859375 28.875620
32.300000 -19.187500 28.875620
32.025000 -17.781250 28.875620
31.825000 -16.421875 28.875620
33.575000 -25.328125 29.028620
33.225000 -24.062500 29.028620
32.900000 -22.500000 29.028620
32.525000 -21.359375 29.028620
32.200000 -20.421875 29.028620
31.975000 -18.843750 29.028620
31.725000 -17.718750 29.028620
31.450000 -15.953125 29.028620
33.475000 -25.125000 29.170625
33.150000 -24.343750 29.170625
32.800000 -22.687500 29.170625
32.375000 -21.500000 29.170625
32.075000 -19.953125 29.170625
31.800000 -18.500000 29.170625
31.600000 -17.671875 29.170625
31.375000 -16.218750 29.170625
34.200000 -25.828125 29.301594
33.875000 -23.875000 29.301594
33.525000 -22.734375 29.301594
33.225000 -21.796875 29.301594
32.950000 -20.437500 29.301594
32.650000 -19.171875 29.301594
32.375000 -17.234375 29.301594
32.125000 -16.421875 29.301594
34.575000 -24.546875 29.442640
34.250000 -23.296875 29.442640
33.875000 -21.578125 29.442640
33.575000 -20.703125 29.442640
33.300000 -18.734375 29.442640
33.050000 -17.468750 29.442640
32.800000 -16.234375 29.442640
32.575000 -15.109375 29.442640
35.100000 -24.437500 29.583617
34.775000 -23.109375 29.583617
34.450000 -21.953125 29.583617
34.100000 -20.500000 29.583617
33.825000 -19.406250 29.583617
33.575000 -17.734375 29.583617
33.325000 -16.625000 29.583617
33.100000 -15.046875 29.583617
35.450000 -24.000000 29.725594
35.075000 -22.890625 29.725594
34.750000 -21.375000 29.725594
34.425000 -20.078125 29.725594
34.175000 -18.687500 29.725594
33.875000 -17.468750 29.725594
33.650000 -16.453125 29.725594
33.450000 -15.140625 29.725594
35.750000 -23.953125 29.868639
35.325000 -22.875000 29.868639
35.000000 -21.484375 29.868639
34.700000 -20.296875 29.868639
34.450000 -18.687500 29.868639
34.200000 -17.250000 29.868639
33.950000 -16.312500 29.868639
33.700000 -14.796875 29.868639
35.925000 -23.734375 30.011595
35.550000 -22.468750 30.011595
35.250000 -21.500000 30.011595
34.950000 -20.218750 30.011595
34.675000 -18.875000 30.011595
34.425000 -17.046875 30.011595
34.150000 -15.609375 30.011595
33.900000 -14.468750 30.011595
36.000000 -23.906250 30.149607
35.700000 -22.203125 30.149607
35.350000 -21.375000 30.149607
35.075000 -19.468750 30.149607
34.800000 -18.671875 30.149607
34.575000 -17.265625 30.149607
34.350000 -15.984375 30.149607
36.200000 -23.828125 30.283619
35.900000 -22.281250 30.283619
35.525000 -21.203125 30.283619
35.150000 -19.890625 30.283619
34.825000 -18.562500 30.283619
34.600000 -16.843750 30.283619
34.450000 -16.062500 30.283619
34.250000 -14.437500 30.283619
35.975000 -22.171875 30.425626
35.625000 -21.031250 30.425626
35.300000 -19.843750 30.425626
35.025000 -18.593750 30.425626
34.775000 -16.734375 30.425626
34.550000 -15.343750 30.425626
34.350000 -14.640625 30.425626
36.450000 -23.734375 30.567620
36.025000 -22.234375 30.567620
35.675000 -20.828125 30.567620
35.425000 -19.656250 30.567620
35.100000 -18.390625 30.567620
34.850000 -16.796875 30.567620
34.600000 -16.062500 30.567620
34.350000 -14.546875 30.567620
36.075000 -22.171875 30.713595
35.725000 -21.203125 30.713595
35.425000 -19.640625 30.713595
35.125000 -18.015625 30.713595
34.900000 -17.125000 30.713595
34.625000 -15.843750 30.713595
36.050000 -21.921875 30.859624
35.700000 -21.078125 30.859624
35.400000 -19.812500 30.859624
35.125000 -17.953125 30.859624
34.875000 -16.609375 30.859624
34.650000 -15.484375 30.859624
36.000000 -22.218750 30.988619
35.675000 -20.625000 30.988619
35.375000 -19.453125 30.988619
35.100000 -18.328125 30.988619
34.850000 -16.515625 30.988619
34.625000 -15.750000 30.988619
36.300000 -23.625000 31.144594
35.975000 -22.187500 31.144594
35.650000 -21.015625 31.144594
35.375000 -19.703125 31.144594
35.100000 -18.281250 31.144594
34.875000 -17.125000 31.144594
34.650000 -15.750000 31.144594
36.200000 -23.312500 31.275624
35.900000 -22.218750 31.275624
35.625000 -20.796875 31.275624
35.350000 -19.656250 31.275624
35.050000 -18.093750 31.275624
34.750000 -16.968750 31.275624
34.550000 -15.453125 31.275624
36.000000 -23.343750 31.411594
35.650000 -21.937500 31.411594
35.325000 -20.625000 31.411594
35.025000 -19.468750 31.411594
34.800000 -17.562500 31.411594
34.575000 -16.265625 31.411594
34.350000 -15.328125 31.411594
35.775000 -22.875000 31.552619
35.425000 -21.984375 31.552619
35.125000 -20.296875 31.552619
34.875000 -19.343750 31.552619
34.625000 -17.953125 31.552619
34.400000 -16.234375 31.552619
34.150000 -14.843750 31.552619
35.600000 -23.296875 31.693594
35.275000 -22.031250 31.693594
34.950000 -20.687500 31.693594
34.675000 -19.062500 31.693594
34.425000 -17.578125 31.693594
34.175000 -16.687500 31.693594
33.925000 -15.234375 31.693594
35.325000 -24.359375 31.836594
35.375000 -23.593750 31.836594
35.025000 -21.906250 31.836594
34.750000 -20.375000 31.836594
34.450000 -19.109375 31.836594
34.175000 -17.750000 31.836594
33.900000 -16.390625 31.836594
33.650000 -14.984375 31.836594
35.225000 -24.359375 31.983619
34.975000 -23.093750 31.983619
34.675000 -22.218750 31.983619
34.425000 -20.484375 31.983619
34.100000 -18.968750 31.983619
33.825000 -17.562500 31.983619
33.600000 -16.687500 31.983619
33.375000 -15.390625 31.983619
34.975000 -24.250000 32.124594
34.600000 -23.125000 32.124594
34.350000 -21.781250 32.124594
34.000000 -20.218750 32.124594
33.675000 -18.828125 32.124594
33.425000 -18.140625 32.124594
33.175000 -16.375000 32.124594
32.950000 -14.984375 32.124594
34.375000 -24.171875 32.265594
34.025000 -22.781250 32.265594
33.700000 -21.484375 32.265594
33.400000 -20.265625 32.265594
33.150000 -18.656250 32.265594
32.900000 -17.234375 32.265594
32.625000 -16.375000 32.265594
33.825000 -23.703125 32.401625
33.475000 -22.718750 32.401625
33.150000 -21.187500 32.401625
32.850000 -19.921875 32.401625
32.525000 -18.859375 32.401625
32.250000 -17.265625 32.401625
32.025000 -16.187500 32.401625
34.500000 -25.078125 32.537594
34.100000 -24.343750 32.537594
33.725000 -22.546875 32.537594
33.425000 -21.296875 32.537594
33.150000 -19.750000 32.537594
32.875000 -18.906250 32.537594
32.600000 -17.171875 32.537594
32.325000 -15.859375 32.537594
34.675000 -25.484375 32.677620
34.425000 -23.781250 32.677620
34.100000 -22.781250 32.677620
33.725000 -20.968750 32.677620
33.425000 -19.750000 32.677620
33.150000 -18.312500 32.677620
32.900000 -17.078125 32.677620
32.675000 -15.687500 32.677620
34.900000 -25.046875 32.818593
34.675000 -23.453125 32.818593
34.300000 -22.500000 32.818593
33.975000 -21.296875 32.818593
33.650000 -19.453125 32.818593
33.375000 -18.156250 32.818593
33.150000 -17.390625 32.818593
32.900000 -15.640625 32.818593
34.875000 -25.281250 32.959624
34.875000 -23.484375 32.959624
34.500000 -22.234375 32.959624
34.175000 -21.281250 32.959624
33.875000 -19.828125 32.959624
33.600000 -18.218750 32.959624
33.350000 -17.328125 32.959624
33.125000 -15.750000 32.959624
35.075000 -23.828125 33.114594
34.700000 -22.656250 33.114594
34.375000 -21.218750 33.114594
34.100000 -20.078125 33.114594
33.800000 -18.453125 33.114594
33.550000 -17.343750 33.114594
33.325000 -16.015625 33.114594
35.175000 -24.000000 33.242625
34.800000 -22.500000 33.242625
34.450000 -21.140625 33.242625
34.175000 -20.046875 33.242625
33.925000 -18.421875 33.242625
33.725000 -17.562500 33.242625
33.425000 -15.843750 33.242625
35.400000 -24.484375 33.389618
35.000000 -22.828125 33.389618
34.650000 -21.406250 33.389618
34.350000 -20.187500 33.389618
34.100000 -19.062500 33.389618
33.825000 -17.328125 33.389618
33.550000 -16.171875 33.389618
33.325000 -15.140625 33.389618
35.100000 -22.968750 33.530595
34.750000 -21.765625 33.530595
34.425000 -20.406250 33.530595
34.150000 -19.265625 33.530595
33.900000 -17.781250 33.530595
33.650000 -16.265625 33.530595
33.400000 -14.890625 33.530595
33.325000 -13.687500 33.530595
35.500000 -24.812500 33.666594
35.150000 -23.375000 33.666594
34.775000 -22.281250 33.666594
34.450000 -20.609375 33.666594
34.175000 -19.656250 33.666594
33.900000 -17.656250 33.666594
33.650000 -16.765625 33.666594
33.425000 -15.359375 33.666594
35.150000 -23.828125 33.810628
34.825000 -22.015625 33.810628
34.475000 -20.671875 33.810628
34.175000 -19.421875 33.810628
33.925000 -18.296875 33.810628
33.625000 -17.015625 33.810628
33.375000 -15.468750 33.810628
35.150000 -23.828125 33.951619
34.825000 -22.843750 33.951619
34.475000 -21.015625 33.951619
34.150000 -19.906250 33.951619
33.900000 -18.656250 33.951619
33.675000 -17.015625 33.951619
33.425000 -16.187500 33.951619
35.050000 -23.921875 34.087598
34.725000 -23.015625 34.087598
34.450000 -21.500000 34.087598
34.100000 -19.765625 34.087598
33.750000 -18.578125 34.087598
33.475000 -17.078125 34.087598
33.300000 -15.703125 34.087598
34.825000 -24.000000 34.235619
34.450000 -22.343750 34.235619
34.150000 -21.046875 34.235619
33.875000 -19.890625 34.235619
33.550000 -18.468750 34.235619
33.300000 -17.218750 34.235619
33.075000 -15.859375 34.235619
34.650000 -23.953125 34.365594
34.300000 -22.921875 34.365594
34.000000 -21.437500 34.365594
33.675000 -20.328125 34.365594
33.375000 -19.125000 34.365594
33.125000 -17.562500 34.365594
32.900000 -16.406250 34.365594
34.375000 -25.765625 34.505593
34.400000 -24.109375 34.505593
34.025000 -22.718750 34.505593
33.675000 -21.687500 34.505593
33.375000 -20.109375 34.505593
33.100000 -18.765625 34.505593
32.850000 -17.828125 34.505593
32.600000 -16.187500 34.505593
34.050000 -25.781250 34.651624
34.075000 -24.296875 34.651624
33.700000 -23.406250 34.651624
33.400000 -21.406250 34.651624
33.075000 -20.140625 34.651624
32.775000 -18.718750 34.651624
32.500000 -17.671875 34.651624
32.225000 -16.312500 34.651624
33.875000 -24.250000 34.800604
33.475000 -23.015625 34.800604
33.175000 -21.843750 34.800604
32.850000 -20.421875 34.800604
32.550000 -19.281250 34.800604
32.300000 -18.156250 34.800604
32.075000 -16.687500 34.800604
31.875000 -14.937500 34.800604
34.375000 -25.546875 34.940610
34.350000 -24.031250 34.940610
33.975000 -22.640625 34.940610
33.675000 -21.218750 34.940610
33.375000 -20.109375 34.940610
33.100000 -18.625000 34.940610
32.850000 -17.125000 34.940610
32.600000 -15.750000 34.940610
34.950000 -24.406250 35.071625
34.600000 -22.921875 35.071625
34.300000 -21.640625 35.071625
33.975000 -20.343750 35.071625
33.650000 -18.984375 35.071625
33.425000 -17.843750 35.071625
33.200000 -16.078125 35.071625
32.950000 -14.765625 35.071625
35.025000 -23.265625 35.211594
34.700000 -21.859375 35.211594
34.400000 -20.515625 35.211594
34.125000 -18.984375 35.211594
33.850000 -17.453125 35.211594
33.575000 -16.093750 35.211594
33.300000 -15.078125 35.211594
35.275000 -22.812500 35.364637
34.950000 -21.437500 35.364637
34.650000 -20.203125 35.364637
34.400000 -18.812500 35.364637
34.125000 -17.812500 35.364637
33.825000 -16.281250 35.364637
33.600000 -14.890625 35.364637
35.850000 -24.046875 35.490596
35.475000 -22.296875 35.490596
35.100000 -21.171875 35.490596
34.800000 -19.500000 35.490596
34.550000 -18.546875 35.490596
34.275000 -17.015625 35.490596
34.025000 -15.890625 35.490596
35.950000 -23.390625 35.632619
35.550000 -22.140625 35.632619
35.250000 -21.203125 35.632619
34.975000 -19.421875 35.632619
34.675000 -18.109375 35.632619
34.425000 -16.765625 35.632619
34.200000 -15.281250 35.632619
36.050000 -23.265625 35.783625
35.700000 -21.968750 35.783625
35.375000 -20.781250 35.783625
35.050000 -19.265625 35.783625
34.775000 -18.234375 35.783625
34.550000 -16.718750 35.783625
34.325000 -15.703125 35.783625
36.225000 -23.453125 35.924595
35.850000 -22.093750 35.924595
35.500000 -20.859375 35.924595
35.175000 -19.546875 35.924595
34.925000 -18.359375 35.924595
34.675000 -17.093750 35.924595
34.450000 -15.390625 35.924595
36.350000 -23.406250 36.054594
35.900000 -22.343750 36.054594
35.525000 -20.671875 36.054594
35.175000 -19.906250 36.054594
34.925000 -18.015625 36.054594
34.675000 -17.140625 36.054594
34.450000 -15.296875 36.054594
36.025000 -22.562500 36.194606
35.650000 -21.312500 36.194606
35.350000 -20.062500 36.194606
35.050000 -18.187500 36.194606
34.775000 -17.250000 36.194606
34.525000 -15.765625 36.194606
34.325000 -14.281250 36.194606
36.025000 -22.468750 36.342618
35.650000 -21.187500 36.342618
35.350000 -20.093750 36.342618
35.050000 -18.625000 36.342618
34.775000 -17.062500 36.342618
34.525000 -15.921875 36.342618
34.325000 -14.234375 36.342618
35.975000 -22.468750 36.486624
35.550000 -20.937500 36.486624
35.250000 -19.703125 36.486624
35.000000 -18.281250 36.486624
34.750000 -16.859375 36.486624
34.475000 -15.890625 36.486624
34.275000 -14.078125 36.486624
35.875000 -22.453125 36.628625
35.525000 -21.125000 36.628625
35.225000 -19.718750 36.628625
34.975000 -18.468750 36.628625
34.700000 -17.140625 36.628625
34.450000 -15.843750 36.628625
36.050000 -23.578125 36.757595
35.750000 -22.328125 36.757595
35.425000 -21.093750 36.757595
35.100000 -19.562500 36.757595
34.825000 -18.390625 36.757595
34.575000 -16.625000 36.757595
34.350000 -15.265625 36.757595
35.950000 -23.375000 36.912620
35.575000 -22.031250 36.912620
35.250000 -20.984375 36.912620
34.950000 -19.250000 36.912620
34.625000 -17.921875 36.912620
34.400000 -16.656250 36.912620
34.150000 -15.296875 36.912620
36.150000 -24.062500 37.041624
35.550000 -23.000000 37.041624
35.225000 -21.765625 37.041624
34.925000 -20.531250 37.041624
34.650000 -19.109375 37.041624
34.400000 -17.515625 37.041624
34.125000 -16.359375 37.041624
33.875000 -14.828125 37.041624
35.275000 -22.421875 37.191623
34.900000 -21.109375 37.191623
34.600000 -20.156250 37.191623
34.375000 -18.593750 37.191623
34.075000 -17.046875 37.191623
33.800000 -15.828125 37.191623
33.575000 -14.312500 37.191623
35.250000 -23.750000 37.335593
34.875000 -22.515625 37.335593
34.575000 -21.234375 37.335593
34.250000 -19.781250 37.335593
33.975000 -18.250000 37.335593
33.750000 -16.906250 37.335593
33.500000 -16.000000 37.335593
34.875000 -23.968750 37.465594
34.550000 -22.359375 37.465594
34.200000 -21.437500 37.465594
33.900000 -19.843750 37.465594
33.600000 -18.265625 37.465594
33.350000 -17.250000 37.465594
33.125000 -15.687500 37.465594
34.300000 -23.375000 37.605649
33.975000 -22.531250 37.605649
33.650000 -20.640625 37.605649
33.350000 -19.296875 37.605649
33.125000 -18.328125 37.605649
32.875000 -17.250000 37.605649
32.625000 -15.718750 37.605649
34.025000 -24.656250 37.745620
33.650000 -23.250000 37.745620
33.325000 -22.343750 37.745620
33.025000 -21.156250 37.745620
32.750000 -19.312500 37.745620
32.450000 -18.375000 37.745620
32.200000 -16.968750 37.745620
32.000000 -15.734375 37.745620
33.550000 -25.734375 37.892595
33.150000 -24.203125 37.892595
32.800000 -23.375000 37.892595
32.425000 -21.546875 37.892595
32.150000 -20.234375 37.892595
31.900000 -19.234375 37.892595
31.625000 -17.343750 37.892595
31.375000 -16.500000 37.892595
33.625000 -25.781250 38.031618
33.250000 -23.953125 38.031618
32.925000 -22.812500 38.031618
32.575000 -21.218750 38.031618
32.225000 -20.015625 38.031618
31.975000 -19.078125 38.031618
31.775000 -17.531250 38.031618
31.500000 -15.906250 38.031618
33.925000 -25.343750 38.171628
33.525000 -23.765625 38.171628
33.225000 -22.953125 38.171628
32.925000 -21.703125 38.171628
32.550000 -20.156250 38.171628
32.275000 -18.906250 38.171628
32.125000 -17.187500 38.171628
31.925000 -15.828125 38.171628
34.200000 -25.187500 38.312625
33.775000 -23.671875 38.312625
33.450000 -22.671875 38.312625
33.175000 -21.312500 38.312625
32.850000 -19.546875 38.312625
32.550000 -18.796875 38.312625
32.300000 -16.812500 38.312625
32.050000 -16.031250 38.312625
34.350000 -24.890625 38.456623
33.950000 -23.421875 38.456623
33.600000 -22.546875 38.456623
33.300000 -20.671875 38.456623
32.975000 -19.390625 38.456623
32.700000 -18.343750 38.456623
32.475000 -16.765625 38.456623
32.250000 -15.421875 38.456623
34.450000 -24.718750 38.586594
34.075000 -23.125000 38.586594
33.700000 -22.328125 38.586594
33.375000 -20.843750 38.586594
33.100000 -19.687500 38.586594
32.825000 -18.046875 38.586594
32.575000 -16.562500 38.586594
32.350000 -15.609375 38.586594
34.500000 -24.421875 38.727625
34.100000 -23.078125 38.727625
33.700000 -22.218750 38.727625
33.400000 -20.843750 38.727625
33.100000 -19.562500 38.727625
32.875000 -17.765625 38.727625
32.625000 -16.828125 38.727625
32.350000 -15.609375 38.727625
32.525000 -13.968750 38.727625
34.500000 -24.546875 38.871626
34.125000 -23.109375 38.871626
33.775000 -22.078125 38.871626
33.475000 -20.500000 38.871626
33.175000 -19.171875 38.871626
32.925000 -18.015625 38.871626
32.700000 -16.562500 38.871626
34.500000 -24.625000 39.017595
34.125000 -23.109375 39.017595
33.750000 -22.078125 39.017595
33.475000 -20.640625 39.017595
33.175000 -19.453125 39.017595
32.925000 -17.906250 39.017595
32.725000 -16.796875 39.017595
32.500000 -15.343750 39.017595
34.500000 -25.000000 39.167594
34.125000 -23.640625 39.167594
33.725000 -21.812500 39.167594
33.400000 -20.718750 39.167594
33.125000 -19.015625 39.167594
32.850000 -18.296875 39.167594
32.675000 -16.640625 39.167594
32.425000 -14.984375 39.167594
34.450000 -24.953125 39.296606
34.050000 -23.218750 39.296606
33.675000 -22.218750 39.296606
33.375000 -20.656250 39.296606
33.100000 -19.109375 39.296606
32.825000 -18.125000 39.296606
32.600000 -16.421875 39.296606
32.350000 -15.625000 39.296606
34.250000 -24.718750 39.437593
33.925000 -23.234375 39.437593
33.575000 -22.296875 39.437593
33.200000 -20.437500 39.437593
32.975000 -19.250000 39.437593
32.725000 -17.890625 39.437593
32.425000 -16.812500 39.437593
32.175000 -14.953125 39.437593
34.025000 -24.609375 39.582623
33.650000 -23.218750 39.582623
33.325000 -22.125000 39.582623
33.025000 -21.000000 39.582623
32.725000 -19.265625 39.582623
32.450000 -17.953125 39.582623
32.175000 -16.515625 39.582623
31.975000 -15.687500 39.582623
33.725000 -24.609375 39.713616
33.350000 -23.218750 39.713616
33.025000 -22.062500 39.713616
32.700000 -20.656250 39.713616
32.400000 -19.625000 39.713616
32.150000 -17.671875 39.713616
31.900000 -16.390625 39.713616
33.650000 -25.312500 39.860594
33.275000 -23.890625 39.860594
32.925000 -23.031250 39.860594
32.575000 -21.718750 39.860594
32.250000 -20.390625 39.860594
32.000000 -18.859375 39.860594
31.725000 -17.234375 39.860594
31.475000 -16.421875 39.860594
33.400000 -25.296875 39.993594
33.025000 -24.015625 39.993594
32.675000 -22.093750 39.993594
32.325000 -20.781250 39.993594
32.025000 -19.921875 39.993594
31.750000 -18.296875 39.993594
31.475000 -16.687500 39.993594
34.025000 -24.984375 40.147594
33.700000 -23.343750 40.147594
33.375000 -22.328125 40.147594
33.050000 -20.984375 40.147594
32.750000 -19.359375 40.147594
32.450000 -18.437500 40.147594
32.225000 -16.859375 40.147594
32.025000 -15.625000 40.147594
34.700000 -25.062500 40.275593
34.350000 -23.500000 40.275593
34.000000 -22.093750 40.275593
33.675000 -20.890625 40.275593
33.425000 -19.796875 40.275593
33.150000 -18.140625 40.275593
32.875000 -16.718750 40.275593
32.625000 -15.718750 40.275593
34.825000 -23.687500 40.415595
34.525000 -21.937500 40.415595
34.175000 -20.953125 40.415595
33.875000 -19.593750 40.415595
33.650000 -18.203125 40.415595
33.375000 -16.937500 40.415595
33.100000 -15.000000 40.415595
35.300000 -24.937500 40.558593
35.200000 -23.468750 40.558593
34.875000 -22.281250 40.558593
34.550000 -20.875000 40.558593
34.275000 -19.406250 40.558593
33.975000 -17.656250 40.558593
33.725000 -16.343750 40.558593
33.500000 -15.125000 40.558593
35.500000 -23.156250 40.705601
35.125000 -21.703125 40.705601
34.850000 -20.484375 40.705601
34.575000 -19.562500 40.705601
34.325000 -17.843750 40.705601
34.075000 -16.828125 40.705601
33.825000 -15.093750 40.705601
35.850000 -24.140625 40.842617
35.700000 -23.281250 40.842617
35.350000 -21.828125 40.842617
35.025000 -20.234375 40.842617
34.725000 -19.250000 40.842617
34.500000 -17.406250 40.842617
34.250000 -16.031250 40.842617
33.975000 -15.078125 40.842617
36.000000 -23.734375 40.986593
35.750000 -22.500000 40.986593
35.400000 -21.218750 40.986593
35.100000 -20.031250 40.986593
34.850000 -18.609375 40.986593
34.600000 -17.328125 40.986593
34.350000 -15.796875 40.986593
34.100000 -14.750000 40.986593
36.125000 -23.578125 41.126594
35.725000 -21.859375 41.126594
35.425000 -20.843750 41.126594
35.175000 -19.656250 41.126594
34.900000 -17.703125 41.126594
34.625000 -16.406250 41.126594
34.425000 -15.609375 41.126594
35.800000 -22.031250 41.271595
35.525000 -20.218750 41.271595
35.200000 -18.890625 41.271595
34.950000 -17.593750 41.271595
34.700000 -16.125000 41.271595
34.450000 -14.968750 41.271595
36.200000 -22.265625 41.408594
35.750000 -21.281250 41.408594
35.475000 -20.156250 41.408594
35.175000 -18.390625 41.408594
34.925000 -17.546875 41.408594
34.675000 -15.921875 41.408594
34.475000 -14.453125 41.408594
36.500000 -24.031250 41.553639
36.175000 -22.453125 41.553639
35.775000 -21.375000 41.553639
35.475000 -19.609375 41.553639
35.175000 -18.687500 41.553639
34.950000 -17.171875 41.553639
34.700000 -15.750000 41.553639
34.475000 -14.156250 41.553639
36.000000 -21.890625 41.680595
35.675000 -20.953125 41.680595
35.425000 -19.515625 41.680595
35.150000 -17.828125 41.680595
34.875000 -16.984375 41.680595
34.675000 -15.687500 41.680595
36.000000 -22.203125 41.829595
35.675000 -21.078125 41.829595
35.400000 -19.406250 41.829595
35.100000 -18.406250 41.829595
34.850000 -16.625000 41.829595
34.650000 -15.500000 41.829595
35.800000 -21.687500 41.966594
35.525000 -20.625000 41.966594
35.250000 -19.187500 41.966594
35.025000 -17.812500 41.966594
34.725000 -16.359375 41.966594
34.450000 -15.078125 41.966594
36.000000 -22.828125 42.105595
35.675000 -21.296875 42.105595
35.375000 -20.156250 42.105595
35.100000 -18.656250 42.105595
34.825000 -17.671875 42.105595
34.575000 -15.875000 42.105595
34.375000 -14.828125 42.105595
36.100000 -23.843750 42.248594
35.750000 -22.156250 42.248594
35.425000 -20.734375 42.248594
35.150000 -19.343750 42.248594
34.875000 -18.453125 42.248594
34.650000 -17.031250 42.248594
34.425000 -15.343750 42.248594
35.825000 -23.328125 42.392594
35.475000 -21.843750 42.392594
35.175000 -20.343750 42.392594
34.925000 -19.453125 42.392594
34.625000 -17.953125 42.392594
34.425000 -16.687500 42.392594
34.175000 -15.343750 42.392594
35.650000 -24.218750 42.530594
35.525000 -22.578125 42.530594
35.175000 -21.171875 42.530594
34.875000 -20.203125 42.530594
34.625000 -18.765625 42.530594
34.375000 -17.750000 42.530594
34.125000 -16.140625 42.530594
33.875000 -14.890625 42.530594
35.450000 -23.234375 42.673627
35.050000 -21.968750 42.673627
34.775000 -21.093750 42.673627
34.525000 -19.359375 42.673627
34.250000 -18.187500 42.673627
33.975000 -17.140625 42.673627
33.725000 -15.796875 42.673627
35.250000 -24.296875 42.813594
35.000000 -23.250000 42.813594
34.650000 -21.609375 42.813594
34.375000 -20.453125 42.813594
34.100000 -19.343750 42.813594
33.825000 -17.484375 42.813594
33.575000 -16.140625 42.813594
33.375000 -15.375000 42.813594
34.800000 -23.812500 42.957594
34.475000 -22.656250 42.957594
34.150000 -21.468750 42.957594
33.850000 -20.140625 42.957594
33.575000 -18.718750 42.957594
33.325000 -17.484375 42.957594
33.100000 -16.015625 42.957594
34.600000 -25.437500 43.101625
34.300000 -23.625000 43.101625
33.950000 -22.156250 43.101625
33.650000 -21.500000 43.101625
33.350000 -19.671875 43.101625
33.100000 -18.515625 43.101625
32.850000 -17.312500 43.101625
32.575000 -15.625000 43.101625
34.050000 -24.578125 43.228594
33.675000 -23.312500 43.228594
33.325000 -22.265625 43.228594
33.025000 -20.812500 43.228594
32.700000 -19.453125 43.228594
32.425000 -18.453125 43.228594
32.175000 -16.578125 43.228594
31.950000 -15.750000 43.228594
34.300000 -24.765625 43.371593
33.925000 -23.343750 43.371593
33.600000 -22.406250 43.371593
33.250000 -20.437500 43.371593
33.000000 -19.562500 43.371593
32.750000 -17.796875 43.371593
32.475000 -16.812500 43.371593
32.225000 -15.375000 43.371593
34.575000 -24.671875 43.518619
34.200000 -23.375000 43.518619
33.850000 -21.578125 43.518619
33.525000 -20.171875 43.518619
33.250000 -19.218750 43.518619
33.025000 -17.953125 43.518619
32.750000 -16.468750 43.518619
32.500000 -15.156250 43.518619
32.700000 -14.156250 43.518619
34.800000 -24.343750 43.655616
34.400000 -22.921875 43.655616
34.075000 -21.859375 43.655616
33.775000 -20.375000 43.655616
33.475000 -19.265625 43.655616
33.250000 -17.531250 43.655616
33.050000 -16.562500 43.655616
32.800000 -14.562500 43.655616
34.900000 -24.109375 43.795595
34.550000 -22.531250 43.795595
34.175000 -21.343750 43.795595
33.900000 -19.796875 43.795595
33.650000 -18.890625 43.795595
33.375000 -17.437500 43.795595
33.125000 -16.265625 43.795595
35.025000 -23.859375 43.937594
34.675000 -22.562500 43.937594
34.350000 -20.859375 43.937594
34.050000 -19.906250 43.937594
33.775000 -18.156250 43.937594
33.500000 -17.343750 43.937594
33.275000 -15.718750 43.937594
35.375000 -24.500000 44.081601
35.075000 -23.187500 44.081601
34.725000 -22.046875 44.081601
34.400000 -20.687500 44.081601
34.125000 -19.500000 44.081601
33.850000 -18.296875 44.081601
33.575000 -16.546875 44.081601
33.350000 -15.187500 44.081601
35.050000 -23.156250 44.215593
34.725000 -21.484375 44.215593
34.400000 -20.140625 44.215593
34.125000 -18.968750 44.215593
33.875000 -17.843750 44.215593
33.600000 -16.484375 44.215593
33.375000 -15.343750 44.215593
35.475000 -24.171875 44.363595
35.075000 -22.968750 44.363595
34.700000 -21.562500 44.363595
34.400000 -20.578125 44.363595
34.125000 -19.062500 44.363595
33.825000 -17.921875 44.363595
33.550000 -16.015625 44.363595
33.350000 -14.906250 44.363595
33.400000 -13.671875 44.363595
34.950000 -22.546875 44.504625
34.625000 -21.437500 44.504625
34.325000 -19.859375 44.504625
34.050000 -18.421875 44.504625
33.800000 -17.328125 44.504625
33.550000 -16.265625 44.504625
34.925000 -22.781250 44.633625
34.600000 -21.187500 44.633625
34.325000 -20.296875 44.633625
34.050000 -18.843750 44.633625
33.775000 -17.296875 44.633625
33.525000 -16.281250 44.633625
34.725000 -24.281250 44.780593
34.875000 -22.421875 44.780593
34.550000 -21.203125 44.780593
34.275000 -20.312500 44.780593
34.000000 -19.015625 44.780593
33.675000 -17.250000 44.780593
33.375000 -16.203125 44.780593
34.950000 -23.937500 44.929385
34.650000 -22.656250 44.929385
34.325000 -21.343750 44.929385
34.000000 -20.156250 44.929385
33.675000 -18.687500 44.929385
33.425000 -17.453125 44.929385
33.250000 -16.031250 44.929385
34.750000 -23.750000 45.058360
34.400000 -22.375000 45.058360
34.100000 -21.000000 45.058360
33.750000 -19.593750 45.058360
33.450000 -18.156250 45.058360
33.250000 -16.562500 45.058360
33.025000 -15.562500 45.058360
34.500000 -23.515625 45.208361
34.150000 -21.968750 45.208361
33.800000 -21.203125 45.208361
33.500000 -19.437500 45.208361
33.200000 -17.828125 45.208361
33.000000 -16.875000 45.208361
32.800000 -15.328125 45.208361
34.550000 -24.890625 45.343359
34.175000 -23.140625 45.343359
33.800000 -22.390625 45.343359
33.475000 -20.921875 45.343359
33.225000 -19.765625 45.343359
32.975000 -18.406250 45.343359
32.675000 -16.531250 45.343359
32.425000 -15.578125 45.343359
34.200000 -25.953125 45.497362
34.050000 -24.359375 45.497362
33.675000 -23.250000 45.497362
33.325000 -21.359375 45.497362
33.025000 -20.671875 45.497362
32.750000 -18.875000 45.497362
32.475000 -17.656250 45.497362
32.225000 -16.484375 45.497362
34.125000 -25.156250 45.624359
33.700000 -23.875000 45.624359
33.350000 -22.343750 45.624359
33.025000 -21.343750 45.624359
32.725000 -20.265625 45.624359
32.425000 -18.390625 45.624359
32.175000 -17.250000 45.624359
31.975000 -16.234375 45.624359
34.975000 -24.890625 45.770360
34.250000 -23.390625 45.770360
33.875000 -22.062500 45.770360
33.600000 -21.187500 45.770360
33.300000 -19.375000 45.770360
33.025000 -18.328125 45.770360
32.800000 -16.937500 45.770360
32.575000 -15.984375 45.770360
34.900000 -23.984375 45.903359
34.550000 -22.703125 45.903359
34.150000 -21.250000 45.903359
33.825000 -19.890625 45.903359
33.600000 -18.406250 45.903359
33.350000 -17.125000 45.903359
33.100000 -15.687500 45.903359
35.275000 -23.718750 46.050359
34.900000 -22.843750 46.050359
34.575000 -21.656250 46.050359
34.300000 -19.890625 46.050359
33.975000 -18.625000 46.050359
33.700000 -17.218750 46.050359
33.450000 -16.109375 46.050359
35.650000 -23.984375 46.181360
35.275000 -22.656250 46.181360
34.950000 -21.671875 46.181360
34.625000 -20.171875 46.181360
34.350000 -18.828125 46.181360
34.100000 -17.468750 46.181360
33.825000 -15.906250 46.181360
33.600000 -14.500000 46.181360
33.675000 -13.812500 46.181360
35.525000 -22.625000 46.322360
35.200000 -21.796875 46.322360
34.900000 -20.156250 46.322360
34.600000 -18.484375 46.322360
34.325000 -17.500000 46.322360
34.075000 -16.406250 46.322360
33.825000 -14.984375 46.322360
35.725000 -22.500000 46.475391
35.350000 -21.156250 46.475391
35.025000 -19.843750 46.475391
34.750000 -18.578125 46.475391
34.525000 -17.484375 46.475391
34.300000 -16.265625 46.475391
34.000000 -14.375000 46.475391
34.050000 -13.187500 46.475391
36.125000 -23.453125 46.605360
35.750000 -22.250000 46.605360
35.425000 -21.281250 46.605360
35.100000 -19.750000 46.605360
34.825000 -18.515625 46.605360
34.575000 -17.203125 46.605360
34.350000 -15.500000 46.605360
36.100000 -23.031250 46.747360
35.750000 -21.531250 46.747360
35.400000 -20.531250 46.747360
35.125000 -19.390625 46.747360
34.875000 -18.062500 46.747360
34.625000 -16.234375 46.747360
34.400000 -15.140625 46.747360
35.450000 -20.265625 46.893360
35.150000 -19.390625 46.893360
34.875000 -17.640625 46.893360
34.625000 -16.750000 46.893360
34.400000 -15.156250 46.893360
36.075000 -22.750000 47.031360
35.700000 -21.312500 47.031360
35.400000 -20.109375 47.031360
35.125000 -18.812500 47.031360
34.875000 -17.328125 47.031360
34.625000 -15.843750 47.031360
34.375000 -14.984375 47.031360
36.050000 -22.703125 47.172359
35.675000 -20.984375 47.172359
35.350000 -19.734375 47.172359
35.075000 -18.328125 47.172359
34.800000 -17.062500 47.172359
34.575000 -16.031250 47.172359
34.375000 -14.671875 47.172359
35.900000 -22.171875 47.313359
35.525000 -21.234375 47.313359
35.275000 -19.656250 47.313359
34.975000 -18.296875 47.313359
34.725000 -17.250000 47.313359
34.500000 -15.281250 47.313359
35.875000 -22.406250 47.456359
35.525000 -21.015625 47.456359
35.250000 -19.921875 47.456359
34.900000 -18.187500 47.456359
34.650000 -17.171875 47.456359
34.475000 -15.875000 47.456359
36.125000 -23.531250 47.592359
35.725000 -22.328125 47.592359
35.350000 -20.937500 47.592359
35.050000 -19.500000 47.592359
34.775000 -18.312500 47.592359
34.600000 -17.093750 47.592359
34.350000 -15.359375 47.592359
35.900000 -23.546875 47.737360
35.525000 -21.765625 47.737360
35.225000 -20.718750 47.737360
34.950000 -19.296875 47.737360
34.650000 -17.718750 47.737360
34.375000 -16.828125 47.737360
34.125000 -15.281250 47.737360
35.675000 -22.968750 47.880360
35.300000 -21.765625 47.880360
34.975000 -20.750000 47.880360
34.675000 -19.000000 47.880360
34.450000 -17.718750 47.880360
34.200000 -16.531250 47.880360
33.925000 -15.234375 47.880360
35.775000 -24.515625 48.021387
35.400000 -22.875000 48.021387
35.000000 -21.453125 48.021387
34.700000 -20.359375 48.021387
34.450000 -19.250000 48.021387
34.175000 -17.453125 48.021387
33.925000 -16.359375 48.021387
33.700000 -14.765625 48.021387
35.400000 -24.000000 48.163387
34.975000 -22.593750 48.163387
34.650000 -21.750000 48.163387
34.400000 -20.109375 48.163387
34.075000 -19.156250 48.163387
33.825000 -17.671875 48.163387
33.575000 -16.421875 48.163387
33.325000 -14.890625 48.163387
34.875000 -23.718750 48.305393
34.525000 -22.625000 48.305393
34.200000 -21.406250 48.305393
33.900000 -19.906250 48.305393
33.625000 -18.312500 48.305393
33.350000 -16.796875 48.305393
33.150000 -15.515625 48.305393
34.575000 -24.875000 48.434359
34.275000 -23.250000 48.434359
33.925000 -22.265625 48.434359
33.575000 -21.000000 48.434359
33.300000 -19.609375 48.434359
33.075000 -18.187500 48.434359
32.825000 -16.500000 48.434359
32.575000 -15.250000 48.434359
34.275000 -25.234375 48.585361
33.825000 -24.500000 48.585361
33.475000 -22.859375 48.585361
33.150000 -21.375000 48.585361
32.875000 -19.937500 48.585361
32.575000 -18.531250 48.585361
32.300000 -17.750000 48.585361
32.100000 -16.125000 48.585361
33.375000 -25.265625 48.712358
33.050000 -24.078125 48.712358
32.675000 -22.343750 48.712358
32.300000 -21.015625 48.712358
32.025000 -19.828125 48.712358
31.800000 -18.375000 48.712358
31.550000 -16.968750 48.712358
31.300000 -15.984375 48.712358
33.525000 -25.078125 48.861359
33.100000 -23.562500 48.861359
32.775000 -22.421875 48.861359
32.500000 -21.156250 48.861359
32.200000 -19.828125 48.861359
31.950000 -18.265625 48.861359
31.700000 -16.796875 48.861359
31.475000 -15.875000 48.861359
33.900000 -24.937500 49.000359
33.525000 -23.968750 49.000359
33.200000 -22.343750 49.000359
32.900000 -21.015625 49.000359
32.550000 -19.718750 49.000359
32.275000 -18.796875 49.000359
32.075000 -17.093750 49.000359
31.875000 -16.125000 49.000359
34.125000 -24.578125 49.146360
33.750000 -23.390625 49.146360
33.400000 -22.390625 49.146360
33.100000 -20.953125 49.146360
32.825000 -19.562500 49.146360
32.525000 -18.343750 49.146360
32.275000 -17.000000 49.146360
32.025000 -15.421875 49.146360
34.275000 -24.968750 49.281359
33.900000 -23.625000 49.281359
33.550000 -22.093750 49.281359
33.250000 -20.843750 49.281359
32.950000 -19.375000 49.281359
32.675000 -17.968750 49.281359
32.475000 -16.828125 49.281359
34.275000 -24.468750 49.424359
33.925000 -22.937500 49.424359
33.600000 -21.296875 49.424359
33.300000 -20.015625 49.424359
33.025000 -18.484375 49.424359
32.750000 -17.187500 49.424359
