31.875000 4.203125 24.153352
31.950000 4.968750 24.153352
32.025000 6.421875 24.153352
32.100000 7.921875 24.153352
32.200000 8.546875 24.153352
32.350000 9.812500 24.153352
31.025000 0.953125 24.302523
31.050000 2.796875 24.302523
31.075000 3.875000 24.302523
31.150000 5.234375 24.302523
31.200000 6.171875 24.302523
31.275000 7.078125 24.302523
31.400000 8.375000 24.302523
31.550000 9.296875 24.302523
31.650000 11.093750 24.302523
31.775000 12.015625 24.302523
30.325000 -0.140625 24.464664
30.525000 0.593750 24.464664
30.525000 2.312500 24.464664
30.550000 3.078125 24.464664
30.600000 4.515625 24.464664
30.650000 5.156250 24.464664
30.750000 6.703125 24.464664
30.825000 7.937500 24.464664
30.900000 8.828125 24.464664
31.025000 10.593750 24.464664
31.175000 11.515625 24.464664
31.350000 12.296875 24.464664
30.700000 -0.562500 24.613953
30.825000 0.875000 24.613953
30.850000 2.484375 24.613953
30.925000 3.828125 24.613953
30.975000 4.625000 24.613953
31.050000 5.484375 24.613953
31.150000 7.125000 24.613953
31.250000 7.859375 24.613953
31.325000 9.109375 24.613953
31.425000 10.531250 24.613953
31.200000 1.578125 24.762566
31.250000 2.343750 24.762566
31.275000 3.953125 24.762566
31.300000 5.281250 24.762566
31.350000 5.828125 24.762566
31.450000 7.046875 24.762566
31.575000 8.484375 24.762566
31.700000 10.062500 24.762566
31.775000 10.468750 24.762566
31.925000 12.390625 24.762566
31.450000 1.781250 24.921310
31.450000 3.109375 24.921310
31.500000 4.750000 24.921310
31.575000 5.812500 24.921310
31.650000 6.843750 24.921310
31.750000 8.265625 24.921310
31.850000 8.984375 24.921310
32.000000 10.125000 24.921310
32.150000 11.468750 24.921310
31.575000 1.718750 25.074570
31.625000 2.859375 25.074570
31.700000 3.921875 25.074570
31.750000 4.640625 25.074570
31.825000 6.375000 25.074570
31.900000 7.531250 25.074570
32.025000 8.609375 25.074570
32.125000 9.593750 25.074570
32.250000 10.750000 25.074570
32.400000 12.078125 25.074570
31.700000 0.656250 25.229730
31.725000 2.093750 25.229730
31.750000 3.406250 25.229730
31.825000 4.140625 25.229730
31.925000 5.500000 25.229730
32.000000 6.484375 25.229730
32.100000 8.015625 25.229730
32.225000 9.390625 25.229730
32.350000 10.421875 25.229730
32.475000 11.390625 25.229730
31.725000 1.515625 25.384377
31.825000 2.609375 25.384377
31.900000 4.453125 25.384377
31.975000 5.015625 25.384377
32.050000 6.796875 25.384377
32.075000 7.734375 25.384377
32.200000 9.234375 25.384377
32.375000 9.843750 25.384377
31.775000 1.171875 25.526487
31.825000 2.687500 25.526487
31.875000 3.812500 25.526487
31.950000 5.125000 25.526487
32.050000 5.703125 25.526487
32.125000 7.390625 25.526487
32.200000 8.093750 25.526487
32.325000 9.781250 25.526487
32.375000 10.718750 25.526487
32.525000 11.875000 25.526487
31.750000 1.718750 25.680023
31.825000 2.453125 25.680023
31.900000 3.765625 25.680023
31.925000 5.437500 25.680023
32.000000 6.125000 25.680023
32.150000 7.343750 25.680023
32.250000 8.843750 25.680023
32.375000 9.625000 25.680023
32.525000 11.250000 25.680023
32.900000 12.046875 25.680023
31.700000 2.437500 25.837538
31.725000 3.046875 25.837538
31.800000 4.765625 25.837538
31.875000 5.359375 25.837538
31.975000 7.171875 25.837538
32.075000 7.859375 25.837538
32.200000 8.968750 25.837538
32.325000 10.437500 25.837538
32.450000 11.468750 25.837538
31.525000 0.687500 25.988911
31.575000 2.390625 25.988911
31.575000 3.718750 25.988911
31.650000 4.281250 25.988911
31.725000 5.484375 25.988911
31.825000 7.312500 25.988911
31.925000 8.218750 25.988911
32.025000 9.171875 25.988911
32.125000 10.171875 25.988911
32.250000 11.828125 25.988911
31.325000 1.171875 26.147357
31.375000 2.296875 26.147357
31.400000 3.828125 26.147357
31.450000 4.546875 26.147357
31.525000 5.812500 26.147357
31.625000 7.140625 26.147357
31.725000 8.046875 26.147357
31.850000 9.187500 26.147357
31.975000 11.109375 26.147357
32.100000 11.890625 26.147357
30.575000 0.250000 26.298728
31.050000 1.312500 26.298728
31.100000 2.437500 26.298728
31.125000 3.656250 26.298728
31.175000 4.906250 26.298728
31.250000 6.156250 26.298728
31.325000 7.687500 26.298728
31.400000 8.265625 26.298728
31.525000 9.937500 26.298728
31.625000 11.015625 26.298728
31.750000 12.375000 26.298728
30.500000 -0.453125 26.447881
30.675000 0.781250 26.447881
30.675000 1.937500 26.447881
30.700000 3.531250 26.447881
30.725000 4.687500 26.447881
30.775000 5.171875 26.447881
30.850000 6.890625 26.447881
30.950000 7.750000 26.447881
31.075000 8.812500 26.447881
31.175000 10.375000 26.447881
31.300000 11.328125 26.447881
31.525000 12.609375 26.447881
30.450000 0.625000 26.605420
30.450000 1.843750 26.605420
30.450000 2.328125 26.605420
30.500000 4.234375 26.605420
30.550000 4.843750 26.605420
30.600000 6.468750 26.605420
30.650000 7.203125 26.605420
30.750000 8.781250 26.605420
30.850000 9.531250 26.605420
30.950000 10.671875 26.605420
31.100000 11.750000 26.605420
30.575000 0.140625 26.756441
31.025000 1.828125 26.756441
31.075000 2.828125 26.756441
31.125000 3.812500 26.756441
31.200000 4.859375 26.756441
31.275000 6.281250 26.756441
31.325000 7.515625 26.756441
31.400000 8.375000 26.756441
31.525000 9.875000 26.756441
31.650000 11.093750 26.756441
31.800000 11.968750 26.756441
31.525000 1.296875 26.912756
31.575000 2.296875 26.912756
31.625000 3.437500 26.912756
31.675000 4.500000 26.912756
31.750000 6.000000 26.912756
31.875000 6.953125 26.912756
32.000000 8.359375 26.912756
32.100000 9.546875 26.912756
32.200000 10.421875 26.912756
32.300000 11.937500 26.912756
31.950000 0.703125 27.053047
32.000000 1.953125 27.053047
32.050000 3.250000 27.053047
32.100000 4.671875 27.053047
32.175000 5.406250 27.053047
32.275000 7.062500 27.053047
32.400000 8.031250 27.053047
32.475000 9.375000 27.053047
32.575000 10.828125 27.053047
32.750000 11.875000 27.053047
32.325000 0.765625 27.210175
32.375000 2.250000 27.210175
32.425000 3.718750 27.210175
32.475000 4.421875 27.210175
32.550000 5.796875 27.210175
32.650000 7.234375 27.210175
32.775000 7.953125 27.210175
32.850000 9.312500 27.210175
32.975000 10.906250 27.210175
33.150000 11.609375 27.210175
32.650000 2.234375 27.361674
32.700000 3.406250 27.361674
32.725000 4.656250 27.361674
32.800000 5.875000 27.361674
32.950000 6.921875 27.361674
33.075000 7.734375 27.361674
33.175000 9.546875 27.361674
33.250000 10.734375 27.361674
33.400000 11.484375 27.361674
29.775000 -1.125000 27.519702
32.850000 0.921875 27.519702
32.875000 1.734375 27.519702
32.900000 3.156250 27.519702
32.975000 4.015625 27.519702
33.075000 5.421875 27.519702
33.175000 6.906250 27.519702
33.275000 7.640625 27.519702
33.375000 8.703125 27.519702
33.475000 10.109375 27.519702
33.625000 11.656250 27.519702
33.050000 0.484375 27.669031
33.075000 1.843750 27.669031
33.100000 2.812500 27.669031
33.150000 4.140625 27.669031
33.225000 4.984375 27.669031
33.325000 6.109375 27.669031
33.400000 7.750000 27.669031
33.525000 8.515625 27.669031
33.675000 9.781250 27.669031
33.825000 11.000000 27.669031
33.125000 -0.031250 27.819509
33.125000 1.281250 27.819509
33.100000 2.828125 27.819509
33.225000 3.609375 27.819509
33.325000 5.125000 27.819509
33.425000 6.328125 27.819509
33.550000 7.734375 27.819509
33.675000 8.656250 27.819509
33.825000 9.703125 27.819509
33.900000 10.906250 27.819509
33.300000 2.359375 27.974122
33.350000 3.593750 27.974122
33.425000 4.453125 27.974122
33.500000 5.984375 27.974122
33.600000 7.218750 27.974122
33.750000 8.140625 27.974122
33.875000 9.218750 27.974122
34.000000 10.250000 27.974122
34.275000 11.468750 27.974122
33.425000 0.093750 28.128670
33.450000 1.046875 28.128670
33.400000 2.578125 28.128670
33.450000 3.609375 28.128670
33.475000 4.562500 28.128670
33.575000 6.109375 28.128670
33.700000 6.953125 28.128670
33.800000 8.140625 28.128670
33.950000 9.703125 28.128670
33.600000 0.093750 28.271651
33.475000 1.078125 28.271651
33.425000 2.500000 28.271651
33.500000 3.937500 28.271651
33.550000 5.140625 28.271651
33.625000 5.906250 28.271651
33.775000 7.421875 28.271651
33.850000 8.343750 28.271651
33.925000 9.859375 28.271651
34.100000 10.656250 28.271651
33.550000 0.328125 28.426503
33.400000 1.437500 28.426503
33.425000 2.921875 28.426503
33.500000 4.109375 28.426503
33.575000 5.203125 28.426503
33.675000 6.500000 28.426503
33.775000 7.296875 28.426503
33.900000 8.406250 28.426503
33.950000 9.890625 28.426503
34.050000 10.984375 28.426503
33.450000 -0.187500 28.581722
33.325000 1.671875 28.581722
33.350000 2.656250 28.581722
33.375000 3.640625 28.581722
33.475000 5.062500 28.581722
33.600000 5.968750 28.581722
33.750000 6.921875 28.581722
33.825000 8.125000 28.581722
33.925000 9.359375 28.581722
34.075000 11.000000 28.581722
33.125000 0.156250 28.735036
33.200000 1.500000 28.735036
33.300000 2.578125 28.735036
33.400000 3.281250 28.735036
33.450000 4.968750 28.735036
33.575000 5.609375 28.735036
33.625000 7.375000 28.735036
33.725000 8.359375 28.735036
33.925000 9.484375 28.735036
33.100000 0.890625 28.879459
33.150000 2.250000 28.879459
33.200000 3.140625 28.879459
33.250000 4.375000 28.879459
33.325000 5.437500 28.879459
33.425000 6.718750 28.879459
33.550000 8.140625 28.879459
33.650000 9.093750 28.879459
33.775000 10.328125 28.879459
33.950000 11.703125 28.879459
32.900000 0.000000 29.034568
32.975000 1.656250 29.034568
33.000000 2.781250 29.034568
33.050000 3.453125 29.034568
33.125000 5.140625 29.034568
33.200000 5.796875 29.034568
33.300000 7.031250 29.034568
33.425000 8.296875 29.034568
33.575000 9.906250 29.034568
29.775000 -1.250000 29.187956
32.800000 0.343750 29.187956
32.775000 1.765625 29.187956
32.775000 2.781250 29.187956
32.850000 4.359375 29.187956
32.925000 5.171875 29.187956
33.050000 6.531250 29.187956
33.150000 7.734375 29.187956
33.250000 8.828125 29.187956
33.350000 10.187500 29.187956
33.475000 11.468750 29.187956
32.400000 0.953125 29.342672
32.450000 2.328125 29.342672
32.500000 3.828125 29.342672
32.575000 4.968750 29.342672
32.700000 6.171875 29.342672
32.775000 7.296875 29.342672
32.875000 8.281250 29.342672
33.025000 9.578125 29.342672
33.125000 10.328125 29.342672
33.275000 11.578125 29.342672
32.025000 1.484375 29.498191
32.075000 3.046875 29.498191
32.125000 4.187500 29.498191
32.200000 5.531250 29.498191
32.275000 6.703125 29.498191
32.400000 7.468750 29.498191
32.525000 9.031250 29.498191
32.600000 9.656250 29.498191
32.750000 10.906250 29.498191
33.175000 12.156250 29.498191
31.450000 1.234375 29.655202
31.500000 1.984375 29.655202
31.550000 3.703125 29.655202
31.600000 4.734375 29.655202
31.675000 5.953125 29.655202
31.775000 7.046875 29.655202
31.925000 7.859375 29.655202
32.025000 9.062500 29.655202
32.100000 10.265625 29.655202
32.225000 11.906250 29.655202
30.825000 0.500000 29.797930
30.825000 2.250000 29.797930
30.825000 3.265625 29.797930
30.900000 4.062500 29.797930
30.950000 5.453125 29.797930
31.025000 6.656250 29.797930
31.125000 7.640625 29.797930
31.200000 9.234375 29.797930
31.325000 9.781250 29.797930
31.450000 11.312500 29.797930
31.575000 12.781250 29.797930
30.550000 -0.031250 29.953580
30.650000 1.453125 29.953580
30.700000 2.406250 29.953580
30.750000 3.859375 29.953580
30.775000 4.984375 29.953580
30.850000 6.125000 29.953580
30.925000 7.218750 29.953580
31.025000 8.578125 29.953580
31.175000 9.781250 29.953580
31.325000 10.453125 29.953580
31.425000 12.218750 29.953580
30.600000 0.953125 30.107533
31.050000 2.406250 30.107533
31.100000 2.750000 30.107533
31.150000 4.296875 30.107533
31.225000 5.468750 30.107533
31.300000 6.515625 30.107533
31.375000 8.078125 30.107533
31.500000 9.421875 30.107533
31.625000 10.375000 30.107533
31.750000 11.359375 30.107533
32.050000 12.828125 30.107533
31.325000 1.234375 30.262756
31.325000 2.406250 30.262756
31.400000 3.484375 30.262756
31.475000 4.890625 30.262756
31.550000 6.125000 30.262756
31.650000 7.328125 30.262756
31.725000 8.484375 30.262756
31.850000 9.406250 30.262756
32.000000 10.828125 30.262756
32.150000 11.656250 30.262756
31.575000 1.578125 30.417080
31.625000 3.234375 30.417080
31.650000 4.015625 30.417080
31.700000 5.609375 30.417080
31.800000 6.859375 30.417080
31.925000 8.109375 30.417080
32.050000 9.171875 30.417080
32.175000 10.515625 30.417080
31.775000 2.390625 30.559206
31.800000 3.343750 30.559206
31.825000 4.671875 30.559206
31.900000 5.953125 30.559206
32.025000 6.921875 30.559206
32.150000 7.921875 30.559206
32.275000 9.453125 30.559206
32.400000 10.203125 30.559206
32.550000 11.281250 30.559206
31.850000 1.625000 30.714976
31.875000 2.484375 30.714976
31.925000 3.687500 30.714976
32.025000 4.984375 30.714976
32.100000 5.890625 30.714976
32.200000 7.218750 30.714976
32.325000 8.015625 30.714976
32.475000 9.312500 30.714976
32.600000 10.609375 30.714976
32.725000 11.781250 30.714976
31.950000 1.687500 30.870835
32.000000 2.437500 30.870835
32.075000 3.500000 30.870835
32.175000 5.125000 30.870835
32.250000 5.921875 30.870835
32.350000 7.406250 30.870835
32.425000 8.265625 30.870835
32.550000 9.687500 30.870835
32.700000 11.218750 30.870835
32.925000 12.000000 30.870835
29.750000 -1.187500 31.026691
32.025000 0.906250 31.026691
32.050000 1.843750 31.026691
32.125000 2.750000 31.026691
32.175000 4.406250 31.026691
32.275000 5.156250 31.026691
32.350000 6.500000 31.026691
32.400000 7.687500 31.026691
32.500000 8.781250 31.026691
32.625000 10.390625 31.026691
32.775000 11.609375 31.026691
32.025000 1.078125 31.176062
32.075000 2.031250 31.176062
32.125000 3.031250 31.176062
32.175000 4.656250 31.176062
32.225000 5.890625 31.176062
32.325000 7.250000 31.176062
32.450000 7.968750 31.176062
32.550000 8.968750 31.176062
32.675000 10.437500 31.176062
32.800000 11.562500 31.176062
31.975000 1.953125 31.335825
32.000000 3.093750 31.335825
32.075000 3.812500 31.335825
32.175000 5.093750 31.335825
32.250000 6.140625 31.335825
32.325000 7.781250 31.335825
32.425000 8.921875 31.335825
32.550000 9.812500 31.335825
32.700000 10.812500 31.335825
32.950000 12.375000 31.335825
31.900000 2.234375 31.486584
31.925000 3.343750 31.486584
31.975000 4.328125 31.486584
32.100000 5.234375 31.486584
32.175000 6.890625 31.486584
32.300000 7.578125 31.486584
32.450000 8.703125 31.486584
32.525000 9.890625 31.486584
32.600000 11.187500 31.486584
31.800000 1.062500 31.631671
31.825000 2.187500 31.631671
31.850000 3.343750 31.631671
31.875000 4.734375 31.631671
32.000000 5.625000 31.631671
32.100000 6.734375 31.631671
32.175000 7.953125 31.631671
32.300000 9.328125 31.631671
32.400000 10.609375 31.631671
32.550000 11.640625 31.631671
31.525000 1.968750 31.793156
31.550000 3.171875 31.793156
31.600000 4.140625 31.793156
31.700000 5.531250 31.793156
31.775000 6.593750 31.793156
31.850000 7.546875 31.793156
32.000000 8.515625 31.793156
32.150000 9.875000 31.793156
32.250000 11.109375 31.793156
32.450000 12.390625 31.793156
30.950000 -0.281250 31.939633
31.275000 1.093750 31.939633
31.325000 1.750000 31.939633
31.325000 3.515625 31.939633
31.375000 4.296875 31.939633
31.450000 5.765625 31.939633
31.500000 6.828125 31.939633
31.600000 7.921875 31.939633
31.725000 8.890625 31.939633
31.875000 10.625000 31.939633
32.025000 11.515625 31.939633
30.825000 -0.218750 32.100784
30.900000 1.140625 32.100784
30.900000 2.171875 32.100784
30.950000 3.171875 32.100784
31.025000 4.718750 32.100784
31.100000 5.578125 32.100784
31.200000 7.078125 32.100784
31.300000 8.625000 32.100784
31.375000 9.187500 32.100784
31.500000 10.390625 32.100784
31.600000 11.593750 32.100784
30.700000 0.234375 32.251029
30.725000 1.078125 32.251029
30.775000 2.203125 32.251029
30.800000 3.937500 32.251029
30.850000 4.453125 32.251029
30.950000 6.156250 32.251029
31.050000 7.062500 32.251029
31.150000 8.406250 32.251029
31.250000 9.609375 32.251029
31.400000 11.031250 32.251029
31.575000 12.187500 32.251029
31.350000 1.484375 32.407564
31.350000 2.953125 32.407564
31.400000 3.968750 32.407564
31.500000 5.203125 32.407564
31.575000 6.250000 32.407564
31.725000 7.031250 32.407564
31.850000 8.859375 32.407564
31.975000 9.406250 32.407564
32.100000 11.062500 32.407564
32.225000 11.937500 32.407564
31.925000 1.640625 32.548860
31.925000 2.656250 32.548860
31.975000 3.906250 32.548860
32.075000 4.953125 32.548860
32.175000 6.203125 32.548860
32.250000 7.703125 32.548860
32.375000 8.375000 32.548860
32.500000 10.140625 32.548860
32.600000 11.171875 32.548860
32.950000 12.062500 32.548860
29.825000 -1.109375 32.706410
32.300000 0.468750 32.706410
32.325000 1.640625 32.706410
32.375000 2.765625 32.706410
32.425000 4.000000 32.706410
32.475000 5.140625 32.706410
32.575000 6.406250 32.706410
32.675000 7.718750 32.706410
32.800000 8.765625 32.706410
32.950000 10.125000 32.706410
33.100000 11.062500 32.706410
32.625000 0.734375 32.860553
32.675000 2.468750 32.860553
32.675000 3.500000 32.860553
32.750000 4.687500 32.860553
32.875000 5.781250 32.860553
32.975000 6.671875 32.860553
33.075000 7.843750 32.860553
33.175000 9.421875 32.860553
33.300000 10.437500 32.860553
33.475000 11.468750 32.860553
32.900000 0.328125 33.015985
32.925000 1.437500 33.015985
32.950000 2.546875 33.015985
33.025000 3.484375 33.015985
33.100000 4.875000 33.015985
33.150000 6.078125 33.015985
33.275000 7.343750 33.015985
33.375000 8.750000 33.015985
33.500000 9.625000 33.015985
33.150000 0.546875 33.172229
33.150000 1.140625 33.172229
33.175000 2.328125 33.172229
33.150000 3.875000 33.172229
33.225000 5.265625 33.172229
33.350000 6.046875 33.172229
33.475000 7.546875 33.172229
33.600000 8.843750 33.172229
33.700000 9.859375 33.172229
33.875000 10.781250 33.172229
33.325000 0.765625 33.324820
33.325000 1.578125 33.324820
33.350000 2.578125 33.324820
33.425000 3.859375 33.324820
33.525000 5.000000 33.324820
33.600000 6.781250 33.324820
33.675000 7.687500 33.324820
33.825000 8.937500 33.324820
33.925000 9.750000 33.324820
34.050000 11.156250 33.324820
33.350000 0.828125 33.468776
33.425000 1.875000 33.468776
33.500000 2.890625 33.468776
33.500000 3.843750 33.468776
33.525000 5.468750 33.468776
33.675000 6.718750 33.468776
33.775000 7.890625 33.468776
33.850000 9.046875 33.468776
34.000000 9.937500 33.468776
34.125000 11.406250 33.468776
33.500000 0.625000 33.622469
33.475000 1.796875 33.622469
33.550000 2.843750 33.622469
33.625000 4.015625 33.622469
33.625000 5.265625 33.622469
33.700000 6.578125 33.622469
33.850000 7.937500 33.622469
34.025000 8.671875 33.622469
34.100000 10.296875 33.622469
34.225000 11.437500 33.622469
29.675000 -1.484375 33.777713
33.550000 0.890625 33.777713
33.550000 1.578125 33.777713
33.550000 3.156250 33.777713
33.625000 3.937500 33.777713
33.725000 5.328125 33.777713
33.800000 6.718750 33.777713
33.900000 7.921875 33.777713
34.050000 9.125000 33.777713
34.175000 10.328125 33.777713
34.375000 11.531250 33.777713
33.625000 2.000000 33.933723
33.650000 3.406250 33.933723
33.725000 4.687500 33.933723
33.800000 5.718750 33.933723
33.900000 6.828125 33.933723
34.000000 8.265625 33.933723
34.075000 9.390625 33.933723
34.225000 10.515625 33.933723
34.525000 11.203125 33.933723
33.300000 0.062500 34.075406
33.575000 1.328125 34.075406
33.600000 2.156250 34.075406
33.625000 3.468750 34.075406
33.700000 4.453125 34.075406
33.800000 5.640625 34.075406
33.900000 7.093750 34.075406
34.000000 7.906250 34.075406
34.100000 9.656250 34.075406
33.500000 0.000000 34.237026
33.550000 1.062500 34.237026
33.575000 2.593750 34.237026
33.625000 3.953125 34.237026
33.700000 5.156250 34.237026
33.775000 5.984375 34.237026
33.875000 7.125000 34.237026
33.975000 8.765625 34.237026
34.100000 9.593750 34.237026
34.225000 11.078125 34.237026
33.400000 0.812500 34.387767
33.400000 1.890625 34.387767
33.500000 3.015625 34.387767
33.575000 4.093750 34.387767
33.625000 5.562500 34.387767
33.725000 6.781250 34.387767
33.875000 7.593750 34.387767
33.975000 8.812500 34.387767
34.050000 10.250000 34.387767
34.200000 11.593750 34.387767
33.125000 -0.031250 34.545487
33.275000 1.546875 34.545487
33.300000 2.375000 34.545487
33.325000 3.578125 34.545487
33.375000 4.828125 34.545487
33.475000 5.984375 34.545487
33.550000 7.312500 34.545487
33.675000 8.140625 34.545487
33.825000 9.703125 34.545487
33.950000 10.750000 34.545487
34.375000 11.656250 34.545487
33.075000 0.078125 34.697744
33.075000 1.250000 34.697744
33.125000 2.406250 34.697744
33.175000 4.140625 34.697744
33.225000 4.687500 34.697744
33.325000 6.484375 34.697744
33.400000 7.312500 34.697744
33.500000 8.890625 34.697744
33.675000 9.546875 34.697744
33.825000 11.015625 34.697744
32.775000 0.406250 34.858222
32.825000 1.875000 34.858222
32.875000 3.218750 34.858222
32.900000 4.171875 34.858222
33.000000 5.281250 34.858222
33.100000 6.640625 34.858222
33.175000 8.078125 34.858222
33.300000 9.187500 34.858222
33.425000 10.078125 34.858222
33.575000 11.593750 34.858222
32.375000 1.156250 35.008751
32.450000 1.984375 35.008751
32.525000 2.984375 35.008751
32.575000 4.625000 35.008751
32.600000 5.984375 35.008751
32.700000 6.890625 35.008751
32.850000 8.343750 35.008751
32.975000 9.609375 35.008751
33.075000 10.328125 35.008751
33.225000 11.546875 35.008751
31.875000 1.296875 35.152027
31.975000 2.203125 35.152027
32.025000 3.062500 35.152027
32.050000 4.828125 35.152027
32.125000 5.484375 35.152027
32.200000 7.312500 35.152027
32.300000 8.140625 35.152027
32.450000 9.375000 35.152027
32.575000 10.546875 35.152027
32.700000 11.828125 35.152027
31.250000 0.968750 35.303233
31.275000 2.562500 35.303233
31.350000 3.218750 35.303233
31.400000 4.875000 35.303233
31.450000 6.000000 35.303233
31.550000 7.296875 35.303233
31.675000 8.187500 35.303233
31.800000 9.171875 35.303233
31.925000 10.828125 35.303233
32.025000 12.281250 35.303233
30.325000 -0.671875 35.461847
30.525000 -0.281250 35.461847
30.525000 1.375000 35.461847
30.575000 2.343750 35.461847
30.600000 4.062500 35.461847
30.600000 5.281250 35.461847
30.650000 5.875000 35.461847
30.750000 6.859375 35.461847
30.875000 8.234375 35.461847
31.000000 9.265625 35.461847
31.100000 11.156250 35.461847
31.250000 11.875000 35.461847
30.650000 -0.171875 35.612913
30.750000 0.718750 35.612913
30.800000 2.375000 35.612913
30.825000 3.031250 35.612913
30.850000 4.781250 35.612913
30.975000 5.562500 35.612913
31.075000 7.234375 35.612913
31.150000 8.375000 35.612913
31.250000 9.375000 35.612913
31.350000 10.484375 35.612913
31.125000 2.000000 35.762236
31.150000 3.187500 35.762236
31.200000 3.953125 35.762236
31.275000 4.843750 35.762236
31.350000 6.281250 35.762236
31.425000 7.250000 35.762236
31.525000 8.531250 35.762236
31.675000 9.593750 35.762236
31.725000 10.921875 35.762236
31.825000 12.359375 35.762236
31.375000 1.609375 35.922847
31.400000 2.812500 35.922847
31.425000 4.281250 35.922847
31.500000 5.671875 35.922847
31.575000 6.203125 35.922847
31.675000 7.703125 35.922847
31.750000 8.921875 35.922847
31.850000 10.140625 35.922847
32.025000 10.953125 35.922847
32.300000 12.062500 35.922847
31.550000 1.828125 36.074746
31.575000 2.734375 36.074746
31.625000 4.140625 36.074746
31.725000 5.171875 36.074746
31.800000 6.296875 36.074746
31.850000 7.281250 36.074746
31.975000 8.968750 36.074746
32.125000 10.093750 36.074746
32.250000 11.140625 36.074746
32.550000 12.062500 36.074746
31.700000 1.765625 36.228525
31.725000 3.328125 36.228525
31.775000 4.578125 36.228525
31.875000 5.656250 36.228525
31.950000 6.890625 36.228525
32.000000 8.218750 36.228525
32.125000 9.140625 36.228525
32.300000 10.125000 36.228525
32.425000 11.078125 36.228525
31.750000 1.343750 36.384809
31.775000 2.765625 36.384809
31.825000 3.937500 36.384809
31.875000 5.140625 36.384809
31.950000 5.906250 36.384809
32.075000 7.109375 36.384809
32.200000 8.312500 36.384809
32.300000 9.812500 36.384809
32.425000 10.406250 36.384809
32.575000 11.765625 36.384809
31.775000 1.453125 36.528285
31.825000 2.687500 36.528285
31.875000 4.140625 36.528285
31.975000 5.109375 36.528285
32.100000 5.937500 36.528285
32.175000 7.281250 36.528285
32.250000 8.406250 36.528285
32.375000 9.718750 36.528285
32.475000 10.968750 36.528285
32.700000 12.093750 36.528285
31.800000 1.796875 36.679162
31.850000 2.531250 36.679162
31.875000 4.078125 36.679162
31.950000 5.015625 36.679162
32.075000 6.515625 36.679162
32.150000 7.562500 36.679162
32.225000 8.781250 36.679162
32.350000 10.062500 36.679162
32.450000 11.046875 36.679162
32.800000 12.375000 36.679162
31.750000 1.375000 36.839491
31.800000 2.703125 36.839491
31.850000 3.890625 36.839491
31.925000 5.109375 36.839491
32.000000 5.953125 36.839491
32.075000 7.343750 36.839491
32.200000 8.671875 36.839491
32.275000 9.796875 36.839491
32.375000 11.312500 36.839491
32.675000 12.296875 36.839491
31.600000 1.359375 36.988503
31.650000 2.687500 36.988503
31.700000 3.718750 36.988503
31.800000 4.906250 36.988503
31.875000 6.250000 36.988503
32.000000 7.515625 36.988503
32.100000 8.484375 36.988503
32.175000 9.796875 36.988503
32.275000 11.125000 36.988503
32.550000 12.390625 36.988503
31.425000 1.390625 37.139171
31.450000 2.500000 37.139171
31.500000 3.843750 37.139171
31.575000 4.953125 37.139171
31.625000 6.718750 37.139171
31.725000 7.593750 37.139171
31.875000 8.390625 37.139171
31.950000 10.218750 37.139171
32.050000 10.750000 37.139171
32.275000 12.593750 37.139171
31.175000 1.734375 37.297835
31.225000 2.921875 37.297835
31.250000 4.062500 37.297835
31.325000 5.234375 37.297835
31.375000 6.953125 37.297835
31.450000 7.875000 37.297835
31.550000 8.828125 37.297835
31.675000 10.531250 37.297835
31.800000 11.281250 37.297835
32.125000 12.343750 37.297835
30.750000 0.296875 37.448422
30.775000 1.375000 37.448422
30.800000 2.375000 37.448422
30.825000 4.000000 37.448422
30.850000 4.921875 37.448422
30.925000 6.156250 37.448422
31.050000 7.359375 37.448422
31.150000 8.171875 37.448422
31.250000 9.296875 37.448422
31.350000 10.968750 37.448422
31.500000 11.578125 37.448422
30.325000 -0.234375 37.605378
30.400000 0.312500 37.605378
30.400000 1.531250 37.605378
30.425000 2.687500 37.605378
30.475000 4.156250 37.605378
30.550000 4.921875 37.605378
30.600000 6.640625 37.605378
30.675000 7.953125 37.605378
30.775000 8.828125 37.605378
30.900000 9.625000 37.605378
31.000000 10.781250 37.605378
31.125000 12.468750 37.605378
30.475000 0.906250 37.757470
30.850000 1.578125 37.757470
30.875000 3.421875 37.757470
30.900000 4.078125 37.757470
30.975000 5.343750 37.757470
31.025000 6.828125 37.757470
31.125000 8.125000 37.757470
31.250000 8.609375 37.757470
31.350000 10.140625 37.757470
31.450000 11.171875 37.757470
31.625000 12.546875 37.757470
31.375000 1.796875 37.918189
31.425000 3.078125 37.918189
31.450000 4.281250 37.918189
31.525000 5.703125 37.918189
31.625000 6.968750 37.918189
31.725000 7.875000 37.918189
31.850000 9.046875 37.918189
31.975000 9.968750 37.918189
32.100000 11.328125 37.918189
31.850000 1.875000 38.053214
31.900000 2.921875 38.053214
31.975000 4.078125 38.053214
32.000000 5.500000 38.053214
32.075000 6.593750 38.053214
32.200000 7.937500 38.053214
32.325000 8.937500 38.053214
32.450000 9.890625 38.053214
32.575000 11.171875 38.053214
29.825000 -1.156250 38.210797
32.225000 0.578125 38.210797
32.225000 1.875000 38.210797
32.250000 2.937500 38.210797
32.300000 3.781250 38.210797
32.400000 4.906250 38.210797
32.500000 6.750000 38.210797
32.575000 7.343750 38.210797
32.700000 9.046875 38.210797
32.825000 9.828125 38.210797
32.950000 10.937500 38.210797
32.525000 1.781250 38.361665
32.575000 2.406250 38.361665
32.625000 4.062500 38.361665
32.675000 5.156250 38.361665
32.775000 5.984375 38.361665
32.875000 7.484375 38.361665
33.000000 8.812500 38.361665
33.125000 9.562500 38.361665
33.250000 10.828125 38.361665
32.750000 0.421875 38.522502
32.775000 1.546875 38.522502
32.850000 2.781250 38.522502
32.900000 4.140625 38.522502
32.975000 5.015625 38.522502
33.050000 6.000000 38.522502
33.150000 7.031250 38.522502
33.250000 8.859375 38.522502
33.350000 9.687500 38.522502
33.500000 11.203125 38.522502
33.000000 1.250000 38.674182
33.025000 2.562500 38.674182
33.050000 3.609375 38.674182
33.125000 4.343750 38.674182
33.200000 6.140625 38.674182
33.275000 6.812500 38.674182
33.425000 8.437500 38.674182
33.575000 9.484375 38.674182
33.700000 10.593750 38.674182
34.025000 11.953125 38.674182
33.075000 1.421875 38.819138
33.150000 2.265625 38.819138
33.250000 3.359375 38.819138
33.225000 4.609375 38.819138
33.325000 5.703125 38.819138
33.475000 7.093750 38.819138
33.575000 8.078125 38.819138
33.700000 9.359375 38.819138
33.850000 10.468750 38.819138
34.125000 11.781250 38.819138
33.000000 -0.281250 38.979146
33.250000 1.156250 38.979146
33.275000 2.593750 38.979146
33.325000 3.609375 38.979146
33.425000 4.828125 38.979146
33.475000 6.171875 38.979146
33.600000 6.734375 38.979146
33.675000 8.062500 38.979146
33.775000 9.156250 38.979146
33.925000 10.500000 38.979146
34.350000 11.453125 38.979146
33.425000 -0.140625 39.129970
33.400000 1.421875 39.129970
33.375000 2.140625 39.129970
33.450000 3.250000 39.129970
33.500000 4.890625 39.129970
33.525000 5.671875 39.129970
33.675000 7.031250 39.129970
33.825000 8.078125 39.129970
33.950000 9.546875 39.129970
33.575000 0.781250 39.288024
33.425000 1.562500 39.288024
33.425000 2.765625 39.288024
33.475000 4.312500 39.288024
33.575000 4.937500 39.288024
33.675000 6.187500 39.288024
33.775000 7.359375 39.288024
33.875000 8.437500 39.288024
33.975000 10.171875 39.288024
34.150000 11.281250 39.288024
33.550000 0.593750 39.439938
33.425000 1.906250 39.439938
33.500000 3.203125 39.439938
33.550000 4.375000 39.439938
33.625000 5.734375 39.439938
33.725000 6.437500 39.439938
33.800000 8.031250 39.439938
33.900000 8.796875 39.439938
34.050000 10.515625 39.439938
34.225000 11.515625 39.439938
33.275000 -0.125000 39.583922
33.375000 0.781250 39.583922
33.300000 2.078125 39.583922
33.350000 3.437500 39.583922
33.500000 4.468750 39.583922
33.575000 6.015625 39.583922
33.625000 7.312500 39.583922
33.775000 8.265625 39.583922
33.950000 9.156250 39.583922
34.050000 10.828125 39.583922
34.450000 11.500000 39.583922
33.225000 0.046875 39.737719
33.300000 1.609375 39.737719
33.325000 2.781250 39.737719
33.400000 3.500000 39.737719
33.475000 4.578125 39.737719
33.550000 6.093750 39.737719
33.675000 7.140625 39.737719
33.800000 8.187500 39.737719
33.875000 9.406250 39.737719
34.000000 10.531250 39.737719
33.150000 0.296875 39.891864
33.175000 1.296875 39.891864
33.200000 3.000000 39.891864
33.275000 3.500000 39.891864
33.375000 4.703125 39.891864
33.450000 6.062500 39.891864
33.575000 7.265625 39.891864
33.675000 8.453125 39.891864
33.800000 9.875000 39.891864
33.925000 10.734375 39.891864
29.675000 -1.546875 40.050954
32.975000 0.265625 40.050954
33.000000 1.781250 40.050954
33.100000 2.593750 40.050954
33.150000 4.078125 40.050954
33.200000 5.171875 40.050954
33.275000 6.109375 40.050954
33.375000 7.703125 40.050954
33.525000 8.437500 40.050954
33.675000 9.703125 40.050954
33.775000 11.046875 40.050954
29.775000 -1.500000 40.203647
32.800000 0.718750 40.203647
32.775000 2.015625 40.203647
32.825000 3.250000 40.203647
32.925000 3.984375 40.203647
33.000000 5.703125 40.203647
33.100000 6.421875 40.203647
33.225000 7.906250 40.203647
33.300000 9.171875 40.203647
33.425000 9.796875 40.203647
33.575000 11.328125 40.203647
32.550000 1.859375 40.358316
32.600000 2.921875 40.358316
32.650000 4.203125 40.358316
32.725000 5.625000 40.358316
32.850000 6.375000 40.358316
32.975000 7.937500 40.358316
33.075000 9.062500 40.358316
33.200000 9.859375 40.358316
33.325000 11.296875 40.358316
32.125000 1.078125 40.512449
32.150000 2.781250 40.512449
32.225000 3.468750 40.512449
32.300000 5.078125 40.512449
32.350000 6.312500 40.512449
32.450000 7.468750 40.512449
32.600000 8.015625 40.512449
32.725000 9.750000 40.512449
32.825000 10.484375 40.512449
33.000000 12.062500 40.512449
31.650000 1.656250 40.666866
31.700000 2.765625 40.666866
31.750000 4.312500 40.666866
31.850000 5.359375 40.666866
31.975000 6.156250 40.666866
32.050000 7.468750 40.666866
32.150000 8.781250 40.666866
32.250000 10.156250 40.666866
32.325000 11.015625 40.666866
32.500000 11.953125 40.666866
30.525000 -0.218750 40.820271
31.000000 1.406250 40.820271
31.050000 2.093750 40.820271
31.100000 3.781250 40.820271
31.150000 4.937500 40.820271
31.225000 6.125000 40.820271
31.325000 7.265625 40.820271
31.425000 8.265625 40.820271
31.500000 9.906250 40.820271
31.600000 10.484375 40.820271
31.750000 11.625000 40.820271
30.375000 0.031250 40.963967
30.575000 0.656250 40.963967
30.600000 1.625000 40.963967
30.600000 3.171875 40.963967
30.650000 4.406250 40.963967
30.700000 5.437500 40.963967
30.800000 6.656250 40.963967
30.875000 7.484375 40.963967
31.000000 8.859375 40.963967
31.125000 10.578125 40.963967
31.225000 11.406250 40.963967
31.375000 12.406250 40.963967
30.575000 0.187500 41.113955
30.875000 1.203125 41.113955
30.925000 1.859375 41.113955
30.975000 3.625000 41.113955
31.025000 4.546875 41.113955
31.100000 5.687500 41.113955
31.200000 6.781250 41.113955
31.300000 7.734375 41.113955
31.375000 8.859375 41.113955
31.500000 10.031250 41.113955
31.650000 11.343750 41.113955
31.975000 12.687500 41.113955
31.250000 1.296875 41.272526
31.300000 2.109375 41.272526
31.325000 3.328125 41.272526
31.350000 4.265625 41.272526
31.450000 5.421875 41.272526
31.525000 7.281250 41.272526
31.625000 8.437500 41.272526
31.725000 9.390625 41.272526
31.875000 10.156250 41.272526
32.025000 12.015625 41.272526
31.475000 0.828125 41.425035
31.500000 2.531250 41.425035
31.550000 3.750000 41.425035
31.625000 4.484375 41.425035
31.700000 6.296875 41.425035
31.750000 7.328125 41.425035
31.875000 8.390625 41.425035
32.050000 9.765625 41.425035
32.225000 10.703125 41.425035
32.325000 12.203125 41.425035
31.700000 1.750000 41.573030
31.700000 2.750000 41.573030
31.750000 3.578125 41.573030
31.850000 4.609375 41.573030
31.950000 5.812500 41.573030
32.050000 7.109375 41.573030
32.175000 8.390625 41.573030
32.325000 9.546875 41.573030
32.450000 10.546875 41.573030
32.550000 12.234375 41.573030
31.850000 1.156250 41.732134
31.825000 2.468750 41.732134
31.875000 4.031250 41.732134
32.025000 4.750000 41.732134
32.125000 6.578125 41.732134
32.250000 7.140625 41.732134
32.275000 8.843750 41.732134
32.375000 10.062500 41.732134
32.500000 11.187500 41.732134
32.750000 11.953125 41.732134
29.775000 -1.281250 41.880752
31.950000 0.296875 41.880752
32.000000 1.531250 41.880752
31.975000 2.765625 41.880752
32.025000 4.109375 41.880752
32.150000 5.125000 41.880752
32.225000 6.859375 41.880752
32.325000 7.609375 41.880752
32.450000 8.859375 41.880752
32.600000 10.265625 41.880752
32.725000 11.515625 41.880752
32.075000 1.734375 42.041358
32.050000 3.281250 42.041358
32.100000 4.500000 42.041358
32.200000 5.406250 42.041358
32.300000 6.531250 42.041358
32.425000 8.156250 42.041358
32.550000 8.906250 42.041358
32.675000 10.109375 42.041358
32.775000 11.515625 42.041358
32.100000 1.500000 42.193137
32.075000 2.625000 42.193137
32.075000 3.546875 42.193137
32.150000 4.921875 42.193137
32.250000 5.890625 42.193137
32.375000 6.812500 42.193137
32.475000 8.593750 42.193137
32.575000 9.390625 42.193137
32.700000 10.578125 42.193137
32.825000 11.765625 42.193137
32.000000 1.718750 42.337144
32.025000 2.703125 42.337144
32.075000 4.187500 42.337144
32.175000 5.140625 42.337144
32.275000 6.062500 42.337144
32.350000 7.640625 42.337144
32.425000 8.578125 42.337144
32.575000 9.671875 42.337144
32.725000 11.453125 42.337144
33.075000 12.078125 42.337144
31.925000 2.093750 42.492162
31.950000 3.078125 42.492162
32.025000 4.109375 42.492162
32.125000 5.781250 42.492162
32.225000 6.984375 42.492162
32.275000 7.984375 42.492162
32.375000 8.765625 42.492162
32.550000 10.078125 42.492162
32.725000 11.765625 42.492162
31.825000 2.375000 42.649375
31.850000 2.890625 42.649375
31.925000 4.625000 42.649375
31.975000 5.562500 42.649375
32.075000 7.046875 42.649375
32.200000 7.765625 42.649375
32.350000 9.390625 42.649375
32.450000 10.406250 42.649375
32.550000 11.468750 42.649375
31.625000 1.265625 42.800124
31.625000 2.656250 42.800124
31.675000 3.343750 42.800124
31.750000 4.484375 42.800124
31.825000 6.234375 42.800124
31.900000 7.406250 42.800124
32.000000 8.453125 42.800124
32.150000 9.734375 42.800124
32.275000 10.484375 42.800124
32.400000 11.796875 42.800124
31.400000 1.484375 42.946546
31.375000 2.265625 42.946546
31.450000 3.718750 42.946546
31.500000 4.718750 42.946546
31.550000 6.265625 42.946546
31.650000 7.171875 42.946546
31.750000 8.375000 42.946546
31.850000 9.593750 42.946546
32.000000 10.312500 42.946546
32.125000 11.875000 42.946546
31.050000 1.437500 43.107018
31.075000 2.453125 43.107018
31.150000 3.687500 43.107018
31.225000 4.375000 43.107018
31.275000 5.750000 43.107018
31.325000 6.906250 43.107018
31.400000 8.125000 43.107018
31.475000 9.875000 43.107018
31.625000 10.453125 43.107018
31.750000 11.921875 43.107018
30.450000 0.156250 43.256773
30.600000 0.609375 43.256773
30.625000 2.265625 43.256773
30.675000 3.281250 43.256773
30.700000 4.171875 43.256773
30.775000 5.562500 43.256773
30.850000 6.718750 43.256773
30.975000 8.218750 43.256773
31.075000 9.468750 43.256773
31.200000 10.453125 43.256773
31.300000 11.953125 43.256773
31.650000 13.015625 43.256773
31.200000 0.718750 43.417580
31.225000 2.437500 43.417580
31.250000 3.640625 43.417580
31.300000 4.359375 43.417580
31.400000 5.781250 43.417580
31.500000 6.609375 43.417580
31.575000 7.953125 43.417580
31.675000 9.265625 43.417580
31.825000 10.609375 43.417580
31.950000 11.859375 43.417580
31.800000 1.828125 43.568392
31.825000 3.421875 43.568392
31.875000 4.718750 43.568392
31.950000 5.343750 43.568392
32.050000 6.890625 43.568392
32.175000 8.250000 43.568392
32.275000 9.078125 43.568392
32.400000 10.015625 43.568392
32.525000 11.687500 43.568392
32.200000 1.218750 43.727561
32.200000 2.218750 43.727561
32.275000 3.093750 43.727561
32.325000 4.875000 43.727561
32.400000 5.484375 43.727561
32.475000 6.812500 43.727561
32.575000 8.296875 43.727561
32.725000 9.265625 43.727561
32.875000 10.234375 43.727561
33.025000 11.421875 43.727561
32.550000 1.265625 43.864817
32.600000 2.828125 43.864817
32.625000 4.125000 43.864817
32.675000 5.375000 43.864817
32.775000 6.484375 43.864817
32.875000 7.218750 43.864817
33.000000 8.750000 43.864817
33.150000 9.906250 43.864817
29.725000 -1.375000 44.021894
32.850000 0.921875 44.021894
32.875000 2.031250 44.021894
32.925000 3.234375 44.021894
32.975000 4.125000 44.021894
33.025000 5.531250 44.021894
33.125000 6.859375 44.021894
33.225000 7.421875 44.021894
33.325000 8.890625 44.021894
33.475000 10.437500 44.021894
33.625000 11.578125 44.021894
32.975000 -0.171875 44.179438
33.100000 1.218750 44.179438
33.125000 2.171875 44.179438
33.150000 3.890625 44.179438
33.200000 4.640625 44.179438
33.300000 5.984375 44.179438
33.400000 7.109375 44.179438
33.525000 8.187500 44.179438
33.650000 9.718750 44.179438
33.775000 10.921875 44.179438
34.150000 11.671875 44.179438
33.250000 0.406250 44.323087
33.275000 1.718750 44.323087
33.300000 2.421875 44.323087
33.325000 3.968750 44.323087
33.400000 5.093750 44.323087
33.500000 6.156250 44.323087
33.625000 7.078125 44.323087
33.750000 8.421875 44.323087
33.875000 9.796875 44.323087
34.025000 10.656250 44.323087
33.375000 0.687500 44.484750
33.375000 1.578125 44.484750
33.450000 2.718750 44.484750
33.500000 3.578125 44.484750
33.550000 5.328125 44.484750
33.650000 6.218750 44.484750
33.775000 7.718750 44.484750
33.900000 8.640625 44.484750
33.950000 9.609375 44.484750
34.050000 11.000000 44.484750
33.500000 0.343750 44.632923
33.475000 1.718750 44.632923
33.475000 2.718750 44.632923
33.525000 4.281250 44.632923
33.625000 5.421875 44.632923
33.775000 6.656250 44.632923
33.825000 7.750000 44.632923
33.900000 8.421875 44.632923
34.075000 9.671875 44.632923
34.225000 11.062500 44.632923
33.500000 0.859375 44.791159
33.550000 1.718750 44.791159
33.575000 2.984375 44.791159
33.625000 4.421875 44.791159
33.725000 5.296875 44.791159
33.800000 6.312500 44.791159
33.925000 7.390625 44.791159
34.075000 9.031250 44.791159
34.150000 10.015625 44.791159
34.250000 11.109375 44.791159
29.800000 -1.343750 44.942859
33.550000 0.421875 44.942859
33.600000 1.859375 44.942859
33.650000 3.062500 44.942859
33.725000 4.109375 44.942859
33.750000 5.281250 44.942859
33.850000 6.281250 44.942859
34.000000 7.734375 44.942859
34.075000 8.859375 44.942859
34.150000 9.953125 44.942859
34.325000 11.562500 44.942859
33.550000 0.671875 45.102961
33.600000 1.609375 45.102961
33.650000 2.906250 45.102961
33.700000 3.843750 45.102961
33.725000 5.593750 45.102961
33.850000 6.640625 45.102961
33.975000 7.625000 45.102961
34.050000 9.171875 45.102961
34.150000 10.062500 45.102961
34.325000 11.125000 45.102961
33.525000 0.921875 45.253083
33.575000 1.843750 45.253083
33.625000 2.593750 45.253083
33.675000 4.468750 45.253083
33.725000 5.421875 45.253083
33.825000 6.734375 45.253083
33.950000 7.953125 45.253083
34.050000 8.828125 45.253083
34.150000 9.796875 45.253083
34.300000 10.953125 45.253083
33.075000 0.093750 45.396311
33.400000 1.296875 45.396311
33.450000 2.546875 45.396311
33.500000 3.609375 45.396311
33.575000 4.281250 45.396311
33.650000 5.812500 45.396311
33.750000 6.984375 45.396311
33.875000 8.234375 45.396311
33.975000 9.406250 45.396311
34.100000 10.656250 45.396311
34.375000 11.234375 45.396311
33.075000 -0.468750 45.553201
33.375000 0.750000 45.553201
33.400000 2.390625 45.553201
33.425000 3.406250 45.553201
33.450000 4.906250 45.553201
33.550000 6.046875 45.553201
33.725000 6.984375 45.553201
33.825000 7.890625 45.553201
33.950000 9.500000 45.553201
34.075000 10.500000 45.553201
34.375000 11.500000 45.553201
33.175000 0.640625 45.709384
33.150000 1.453125 45.709384
33.200000 2.390625 45.709384
33.275000 4.187500 45.709384
33.375000 4.734375 45.709384
33.425000 6.125000 45.709384
33.475000 7.343750 45.709384
33.650000 8.656250 45.709384
33.850000 9.796875 45.709384
33.950000 11.000000 45.709384
29.850000 -1.109375 45.860609
32.900000 0.359375 45.860609
32.950000 1.921875 45.860609
32.950000 3.234375 45.860609
33.000000 4.203125 45.860609
33.100000 5.406250 45.860609
33.200000 6.859375 45.860609
33.275000 8.062500 45.860609
33.375000 8.765625 45.860609
33.500000 9.859375 45.860609
33.650000 11.640625 45.860609
32.500000 0.906250 46.009403
32.575000 1.875000 46.009403
32.625000 3.390625 46.009403
32.650000 4.531250 46.009403
32.700000 5.453125 46.009403
32.800000 6.562500 46.009403
32.925000 8.046875 46.009403
33.075000 9.218750 46.009403
33.175000 10.484375 46.009403
33.325000 11.328125 46.009403
32.125000 1.640625 46.172391
32.175000 3.312500 46.172391
32.200000 4.218750 46.172391
32.275000 5.671875 46.172391
32.350000 7.000000 46.172391
32.475000 8.156250 46.172391
32.625000 8.703125 46.172391
32.750000 9.984375 46.172391
32.875000 11.421875 46.172391
31.475000 0.609375 46.321465
31.500000 1.906250 46.321465
31.525000 3.609375 46.321465
31.600000 4.781250 46.321465
31.675000 5.515625 46.321465
31.775000 6.687500 46.321465
31.875000 8.390625 46.321465
32.000000 9.187500 46.321465
32.100000 10.406250 46.321465
32.225000 11.343750 46.321465
30.575000 -0.015625 46.476679
30.675000 0.906250 46.476679
30.725000 2.390625 46.476679
30.725000 3.796875 46.476679
30.775000 4.718750 46.476679
30.850000 6.046875 46.476679
30.950000 7.453125 46.476679
31.025000 8.375000 46.476679
31.125000 9.562500 46.476679
31.250000 10.687500 46.476679
30.475000 -0.390625 46.631748
30.625000 0.625000 46.631748
30.625000 2.281250 46.631748
30.700000 3.390625 46.631748
30.750000 4.234375 46.631748
30.825000 5.828125 46.631748
30.875000 6.875000 46.631748
30.975000 8.078125 46.631748
31.100000 8.906250 46.631748
31.200000 10.671875 46.631748
31.325000 11.859375 46.631748
31.550000 12.390625 46.631748
30.575000 0.859375 46.774632
31.050000 2.390625 46.774632
31.075000 3.156250 46.774632
31.150000 4.109375 46.774632
31.225000 5.859375 46.774632
31.300000 6.562500 46.774632
31.375000 7.968750 46.774632
31.450000 8.906250 46.774632
31.575000 9.968750 46.774632
31.725000 11.234375 46.774632
32.100000 12.812500 46.774632
31.300000 1.875000 46.929033
31.350000 2.906250 46.929033
31.400000 4.406250 46.929033
31.475000 5.328125 46.929033
31.425000 7.203125 46.929033
31.525000 7.640625 46.929033
31.750000 9.000000 46.929033
31.900000 10.296875 46.929033
32.025000 11.578125 46.929033
31.500000 1.937500 47.085798
31.550000 3.187500 47.085798
31.625000 4.234375 47.085798
31.675000 5.296875 47.085798
31.750000 6.656250 47.085798
31.825000 7.750000 47.085798
31.925000 9.281250 47.085798
32.100000 10.078125 47.085798
32.225000 11.718750 47.085798
31.650000 1.406250 47.240198
31.675000 2.125000 47.240198
31.725000 3.390625 47.240198
31.775000 4.828125 47.240198
31.825000 5.828125 47.240198
31.875000 7.078125 47.240198
32.000000 8.546875 47.240198
32.150000 9.546875 47.240198
32.275000 10.203125 47.240198
32.400000 11.609375 47.240198
31.800000 1.062500 47.393034
31.825000 2.234375 47.393034
31.825000 3.421875 47.393034
31.875000 4.984375 47.393034
32.000000 6.140625 47.393034
32.100000 7.031250 47.393034
32.175000 8.859375 47.393034
32.275000 9.562500 47.393034
32.375000 11.031250 47.393034
32.525000 11.765625 47.393034
31.775000 1.671875 47.538242
31.825000 2.359375 47.538242
31.850000 3.843750 47.538242
31.875000 5.265625 47.538242
32.000000 6.468750 47.538242
32.100000 7.390625 47.538242
32.175000 8.828125 47.538242
32.275000 10.046875 47.538242
32.400000 10.828125 47.538242
32.625000 12.031250 47.538242
31.775000 1.453125 47.691675
31.825000 2.718750 47.691675
31.850000 3.906250 47.691675
31.925000 5.281250 47.691675
32.025000 6.031250 47.691675
32.100000 7.203125 47.691675
32.200000 8.812500 47.691675
32.300000 9.765625 47.691675
32.400000 11.062500 47.691675
32.575000 11.765625 47.691675
31.725000 1.359375 47.846863
31.725000 2.671875 47.846863
31.775000 3.750000 47.846863
31.875000 4.812500 47.846863
31.975000 5.625000 47.846863
32.075000 7.375000 47.846863
32.175000 8.359375 47.846863
32.300000 9.140625 47.846863
32.400000 10.765625 47.846863
32.475000 12.234375 47.846863
31.700000 1.546875 48.003023
31.750000 2.531250 48.003023
31.825000 3.625000 48.003023
31.850000 4.765625 48.003023
31.875000 6.468750 48.003023
31.950000 7.171875 48.003023
32.125000 8.343750 48.003023
32.275000 9.875000 48.003023
32.375000 11.000000 48.003023
32.475000 12.109375 48.003023
31.500000 1.734375 48.156253
31.550000 2.515625 48.156253
31.575000 3.750000 48.156253
31.600000 5.296875 48.156253
31.700000 5.953125 48.156253
31.800000 7.750000 48.156253
31.925000 8.250000 48.156253
32.025000 10.062500 48.156253
32.125000 11.218750 48.156253
32.300000 11.812500 48.156253
31.275000 1.703125 48.312873
31.300000 3.328125 48.312873
31.325000 4.125000 48.312873
31.375000 5.765625 48.312873
31.425000 6.875000 48.312873
31.550000 7.687500 48.312873
31.675000 8.531250 48.312873
31.775000 10.453125 48.312873
31.925000 11.421875 48.312873
32.225000 12.375000 48.312873
30.475000 -0.312500 48.456694
30.950000 0.968750 48.456694
30.950000 2.078125 48.456694
31.000000 3.875000 48.456694
31.050000 4.625000 48.456694
31.100000 5.859375 48.456694
31.175000 7.093750 48.456694
31.275000 7.953125 48.456694
31.375000 9.656250 48.456694
31.475000 10.812500 48.456694
31.600000 11.921875 48.456694
30.550000 0.359375 48.611873
30.550000 1.484375 48.611873
30.625000 2.546875 48.611873
30.650000 4.140625 48.611873
30.675000 5.125000 48.611873
30.750000 6.281250 48.611873
30.825000 7.437500 48.611873
30.925000 8.687500 48.611873
31.050000 10.125000 48.611873
31.150000 11.546875 48.611873
31.300000 12.703125 48.611873
30.575000 -0.203125 48.763302
30.625000 1.234375 48.763302
30.600000 2.078125 48.763302
30.650000 3.453125 48.763302
30.700000 4.750000 48.763302
30.750000 5.921875 48.763302
30.850000 6.859375 48.763302
30.950000 8.015625 48.763302
31.025000 9.593750 48.763302
31.125000 10.421875 48.763302
31.250000 12.171875 48.763302
31.175000 1.468750 48.919516
31.250000 2.656250 48.919516
31.300000 3.640625 48.919516
31.350000 4.796875 48.919516
31.425000 6.093750 48.919516
31.475000 7.859375 48.919516
31.575000 8.593750 48.919516
31.700000 9.750000 48.919516
