34.650000 106.500000 3.635607
34.875000 107.015625 3.790143
35.400000 107.375000 3.930707
35.375000 106.562500 4.522063
20.975000 122.375000 6.727239
20.450000 123.953125 6.727239
37.750000 101.859375 6.868826
20.875000 123.250000 6.868826
21.200000 121.281250 7.008847
20.550000 122.828125 7.008847
20.150000 124.125000 7.008847
38.300000 103.890625 10.538187
38.525000 105.234375 10.538187
38.475000 105.453125 10.692103
38.925000 106.437500 10.692103
38.525000 104.218750 10.974388
38.350000 104.625000 12.153445
38.925000 106.953125 12.153445
37.950000 104.656250 12.300335
38.075000 104.859375 19.498986
13.425000 106.437500 20.383047
13.100000 107.703125 20.383047
12.850000 111.281250 20.383047
12.600000 111.000000 20.383047
12.400000 114.000000 20.383047
12.250000 115.703125 20.383047
12.125000 114.109375 20.383047
12.075000 117.750000 20.383047
12.050000 119.390625 20.383047
11.950000 118.765625 20.383047
11.775000 121.187500 20.383047
11.600000 123.875000 20.383047
11.500000 124.625000 20.383047
11.500000 126.500000 20.383047
11.450000 125.437500 20.383047
12.100000 125.734375 20.521969
11.900000 128.390625 20.521969
11.800000 128.484375 20.521969
11.750000 130.484375 20.521969
11.725000 131.484375 20.521969
11.775000 132.875000 20.521969
12.125000 126.125000 20.675905
11.950000 124.453125 20.675905
11.875000 127.625000 20.675905
11.850000 128.718750 20.675905
11.875000 131.421875 20.675905
11.950000 131.859375 20.675905
11.950000 125.437500 20.817814
11.800000 127.531250 20.817814
11.725000 127.281250 20.817814
11.675000 128.156250 20.817814
12.050000 122.390625 20.971786
11.900000 122.937500 20.971786
11.800000 126.390625 20.971786
11.775000 126.046875 20.971786
11.775000 129.031250 20.971786
11.775000 129.046875 20.971786
14.925000 107.656250 21.112208
14.800000 108.359375 21.112208
32.625000 88.578125 21.269735
32.750000 89.640625 21.269735
30.575000 94.140625 21.269735
30.800000 95.000000 21.269735
42.125000 97.625000 21.407438
42.025000 98.687500 21.407438
45.075000 98.093750 21.705034
43.475000 100.906250 21.705034
43.625000 102.125000 21.705034
45.575000 95.515625 21.843460
46.700000 96.562500 21.843460
43.525000 100.500000 21.843460
43.875000 101.781250 21.843460
46.025000 95.234375 21.996383
44.050000 100.281250 21.996383
44.350000 101.843750 21.996383
45.800000 95.296875 22.150528
46.875000 96.515625 22.150528
43.850000 100.484375 22.150528
44.200000 101.890625 22.150528
44.475000 100.546875 22.289373
44.675000 101.750000 22.289373
44.375000 101.015625 22.429339
44.475000 102.375000 22.429339
44.475000 100.453125 22.585364
44.675000 101.781250 22.585364
44.200000 100.625000 22.725689
44.450000 101.843750 22.725689
44.650000 99.750000 23.024712
44.750000 100.140625 23.174545
44.725000 101.609375 23.174545
44.200000 100.578125 23.314026
43.800000 102.156250 23.314026
44.700000 99.984375 23.462474
44.750000 100.234375 23.609698
44.750000 101.296875 23.609698
44.750000 100.359375 23.764494
44.700000 101.468750 23.764494
44.725000 100.062500 23.899837
42.550000 96.609375 24.060751
43.225000 97.531250 24.060751
43.475000 98.921875 24.060751
43.325000 100.328125 24.060751
42.000000 102.718750 24.060751
42.675000 96.218750 24.200753
43.200000 97.468750 24.200753
43.575000 99.828125 24.200753
43.175000 101.062500 24.200753
43.025000 102.531250 24.200753
43.025000 95.968750 24.338956
43.400000 97.078125 24.338956
44.025000 98.250000 24.338956
44.000000 99.781250 24.338956
44.050000 100.671875 24.338956
44.000000 102.265625 24.338956
43.100000 95.640625 24.496260
43.475000 97.015625 24.496260
44.175000 98.140625 24.496260
44.225000 99.484375 24.496260
44.225000 100.484375 24.496260
44.175000 102.046875 24.496260
43.100000 95.765625 24.636590
43.750000 99.500000 24.636590
44.250000 100.390625 24.636590
44.450000 101.968750 24.636590
43.050000 95.703125 24.777965
43.850000 96.875000 24.777965
44.775000 98.046875 24.777965
44.725000 99.187500 24.777965
44.100000 100.640625 24.777965
43.500000 95.375000 24.932600
44.075000 98.921875 24.932600
44.250000 100.171875 24.932600
44.375000 93.953125 25.073709
43.100000 102.734375 25.073709
44.475000 101.046875 25.227906
44.350000 102.218750 25.227906
44.425000 100.359375 25.367652
44.275000 101.781250 25.367652
44.375000 100.218750 25.522042
44.375000 99.781250 25.660198
44.150000 101.453125 25.660198
44.300000 99.500000 25.815344
44.125000 100.546875 25.815344
44.150000 101.781250 25.815344
44.575000 100.312500 25.956915
44.450000 101.437500 25.956915
44.600000 100.218750 26.112019
44.450000 101.625000 26.112019
44.425000 100.406250 26.252062
44.350000 101.625000 26.252062
44.700000 100.343750 26.410969
44.650000 101.515625 26.410969
44.500000 100.093750 26.548824
44.450000 101.359375 26.548824
44.650000 100.203125 26.704544
44.500000 101.343750 26.704544
44.650000 102.703125 26.704544
44.075000 102.203125 26.849071
44.100000 100.843750 27.000702
44.025000 102.281250 27.000702
44.700000 100.593750 27.140689
44.675000 101.859375 27.140689
44.725000 100.406250 27.288477
44.550000 101.609375 27.288477
44.750000 100.234375 27.436439
45.125000 100.890625 27.591397
45.075000 102.015625 27.591397
44.775000 100.578125 27.729713
44.575000 101.953125 27.729713
44.775000 100.437500 27.874293
44.575000 101.906250 27.874293
44.900000 101.312500 28.029485
44.300000 102.562500 28.029485
44.900000 101.031250 28.170115
45.175000 102.312500 28.170115
45.050000 100.828125 28.325074
45.100000 101.812500 28.325074
44.800000 100.421875 28.465319
44.700000 101.625000 28.465319
44.950000 100.421875 28.605160
44.975000 100.234375 28.759341
44.775000 101.656250 28.759341
44.850000 102.593750 28.759341
45.050000 100.515625 28.900789
45.100000 101.953125 28.900789
44.975000 101.250000 29.055002
44.600000 102.656250 29.055002
45.050000 100.781250 29.210192
45.100000 101.968750 29.210192
45.125000 100.718750 29.349302
45.075000 102.218750 29.349302
45.275000 101.000000 29.504664
45.150000 102.406250 29.504664
44.900000 99.953125 29.643260
45.125000 100.843750 29.796780
45.050000 102.062500 29.796780
44.875000 100.218750 29.935473
45.200000 100.828125 30.075580
45.050000 102.234375 30.075580
44.800000 100.500000 30.228376
44.450000 101.578125 30.382066
44.225000 102.609375 30.382066
45.025000 101.000000 30.521853
45.250000 102.171875 30.521853
44.900000 101.125000 30.676496
44.400000 102.593750 30.676496
44.900000 100.500000 30.814550
45.025000 101.750000 30.814550
44.750000 101.218750 30.953018
44.775000 100.515625 31.110380
44.750000 101.578125 31.110380
44.925000 100.609375 31.249425
44.800000 102.031250 31.249425
44.900000 100.687500 31.404814
44.775000 101.890625 31.404814
44.300000 101.640625 31.552591
44.125000 102.890625 31.552591
45.100000 100.890625 31.701032
45.000000 102.156250 31.701032
44.175000 101.484375 31.842938
43.850000 102.828125 31.842938
44.975000 100.875000 31.989622
44.775000 102.031250 31.989622
44.150000 101.437500 32.139493
44.625000 102.671875 32.139493
44.550000 100.593750 32.279993
44.275000 102.109375 32.279993
44.200000 101.125000 32.428868
44.825000 102.671875 32.428868
44.500000 101.000000 32.577055
44.200000 101.906250 32.577055
44.225000 101.187500 32.732709
44.575000 102.656250 32.732709
44.450000 100.406250 32.871397
44.250000 101.812500 32.871397
44.500000 102.828125 32.871397
43.875000 101.093750 33.013058
44.075000 102.203125 33.013058
44.025000 101.593750 33.168116
44.400000 102.531250 33.168116
44.425000 100.578125 33.309188
44.275000 101.734375 33.309188
44.700000 103.125000 33.309188
44.050000 101.000000 33.464126
44.200000 102.312500 33.464126
44.325000 100.781250 33.604307
44.250000 101.734375 33.604307
44.800000 103.234375 33.604307
44.200000 100.531250 33.759217
43.975000 101.593750 33.759217
43.700000 102.828125 33.759217
44.325000 100.531250 33.898052
44.075000 101.937500 33.898052
44.225000 103.281250 33.898052
44.400000 100.828125 34.052310
44.150000 101.953125 34.052310
44.375000 101.156250 34.190764
44.375000 102.406250 34.190764
43.850000 101.578125 34.345705
44.000000 102.687500 34.345705
43.875000 101.531250 34.487141
43.300000 102.703125 34.487141
43.850000 101.750000 34.641268
43.300000 102.968750 34.641268
43.550000 101.625000 34.781592
43.000000 102.906250 34.781592
43.550000 101.609375 34.941905
43.150000 103.109375 34.941905
44.200000 100.406250 35.076527
43.700000 101.812500 35.076527
43.800000 103.078125 35.076527
44.300000 100.875000 35.217692
44.450000 100.843750 35.377972
44.675000 101.921875 35.377972
32.375000 94.203125 35.512077
31.000000 97.265625 35.512077
30.850000 98.078125 35.512077
29.075000 96.140625 35.667223
28.850000 96.671875 35.667223
20.850000 93.625000 35.807590
20.675000 94.875000 35.807590
13.225000 71.421875 35.961797
13.100000 74.750000 35.961797
13.050000 76.078125 35.961797
13.050000 75.187500 35.961797
13.075000 76.437500 35.961797
17.275000 30.468750 36.988385
17.250000 31.218750 36.988385
17.300000 32.468750 36.988385
17.375000 33.718750 36.988385
26.100000 47.078125 37.134633
26.000000 47.859375 37.134633
26.000000 50.328125 37.134633
26.025000 50.468750 37.134633
26.100000 51.453125 37.134633
26.300000 53.531250 37.134633
32.600000 69.265625 37.283206
32.425000 70.359375 37.283206
32.375000 71.687500 37.283206
32.550000 72.593750 37.283206
38.775000 79.187500 37.283206
37.775000 81.828125 37.283206
38.025000 83.390625 37.283206
36.875000 78.921875 37.422972
39.650000 83.718750 37.422972
39.200000 84.750000 37.422972
38.875000 86.156250 37.422972
38.550000 87.234375 37.422972
38.375000 91.156250 37.422972
38.400000 92.375000 37.422972
38.625000 93.437500 37.422972
39.025000 95.000000 37.422972
39.500000 96.187500 37.422972
39.900000 97.265625 37.422972
37.925000 82.750000 37.578469
37.450000 84.187500 37.578469
40.675000 90.078125 37.578469
40.650000 91.359375 37.578469
41.025000 92.406250 37.578469
40.975000 93.828125 37.578469
40.925000 95.078125 37.578469
41.400000 96.390625 37.578469
41.675000 97.531250 37.578469
41.900000 98.843750 37.578469
42.125000 100.093750 37.578469
42.825000 101.062500 37.578469
43.425000 102.187500 37.578469
39.200000 86.968750 37.717808
42.000000 91.671875 37.717808
41.850000 92.921875 37.717808
41.800000 94.312500 37.717808
42.450000 95.328125 37.717808
42.625000 96.812500 37.717808
42.525000 97.875000 37.717808
42.875000 99.031250 37.717808
43.075000 100.234375 37.717808
43.250000 101.578125 37.717808
43.800000 102.906250 37.717808
42.250000 92.312500 37.859734
42.150000 93.484375 37.859734
42.350000 94.671875 37.859734
42.625000 95.750000 37.859734
42.650000 97.281250 37.859734
42.725000 98.328125 37.859734
42.950000 99.578125 37.859734
43.175000 100.671875 37.859734
43.375000 102.015625 37.859734
43.875000 103.390625 37.859734
40.525000 87.484375 38.010368
42.450000 92.734375 38.010368
42.400000 93.703125 38.010368
42.825000 95.000000 38.010368
42.950000 96.375000 38.010368
42.700000 97.609375 38.010368
42.825000 98.921875 38.010368
43.050000 100.187500 38.010368
43.200000 101.343750 38.010368
43.500000 102.546875 38.010368
43.900000 103.531250 38.010368
39.900000 86.796875 38.151978
39.650000 87.875000 38.151978
42.475000 92.953125 38.151978
42.475000 94.046875 38.151978
42.825000 95.187500 38.151978
43.025000 96.609375 38.151978
42.875000 97.734375 38.151978
43.000000 98.968750 38.151978
43.225000 100.015625 38.151978
43.375000 101.406250 38.151978
43.750000 102.500000 38.151978
44.150000 103.703125 38.151978
38.925000 87.187500 38.306148
38.875000 88.250000 38.306148
38.675000 89.593750 38.306148
38.325000 90.703125 38.306148
38.500000 92.156250 38.306148
39.150000 93.250000 38.306148
39.875000 94.281250 38.306148
40.700000 95.531250 38.306148
41.725000 96.781250 38.306148
42.700000 98.062500 38.306148
43.325000 99.062500 38.306148
43.600000 100.343750 38.306148
43.750000 101.906250 38.306148
44.225000 103.062500 38.306148
39.075000 86.437500 38.447415
38.775000 87.640625 38.447415
38.675000 88.953125 38.447415
38.300000 90.156250 38.447415
38.125000 91.156250 38.447415
38.450000 92.531250 38.447415
39.125000 93.734375 38.447415
42.950000 98.312500 38.447415
43.500000 99.609375 38.447415
43.725000 100.796875 38.447415
43.950000 102.125000 38.447415
39.400000 86.765625 38.600828
43.675000 91.593750 38.600828
43.325000 92.593750 38.600828
43.300000 93.906250 38.600828
43.775000 95.312500 38.600828
43.825000 96.281250 38.600828
43.525000 97.625000 38.600828
43.675000 98.828125 38.600828
43.900000 100.093750 38.600828
44.075000 101.546875 38.600828
44.375000 102.687500 38.600828
44.700000 104.046875 38.600828
42.925000 91.796875 38.742413
42.625000 93.328125 38.742413
42.825000 94.312500 38.742413
43.350000 95.531250 38.742413
43.375000 96.812500 38.742413
43.050000 98.312500 38.742413
43.150000 99.437500 38.742413
43.525000 100.484375 38.742413
43.825000 101.968750 38.742413
44.325000 103.171875 38.742413
43.200000 91.968750 38.898289
42.975000 93.609375 38.898289
43.150000 94.578125 38.898289
43.575000 96.015625 38.898289
43.800000 97.187500 38.898289
43.600000 98.453125 38.898289
43.375000 99.734375 38.898289
43.650000 100.890625 38.898289
43.950000 102.125000 38.898289
44.700000 103.421875 38.898289
44.975000 104.453125 38.898289
42.975000 92.484375 39.038002
42.950000 93.765625 39.038002
43.500000 94.859375 39.038002
43.600000 96.000000 39.038002
43.400000 97.359375 39.038002
43.375000 98.609375 39.038002
43.325000 99.921875 39.038002
43.650000 101.062500 39.038002
44.000000 102.468750 39.038002
43.075000 92.453125 39.192118
43.150000 93.781250 39.192118
43.500000 94.921875 39.192118
43.500000 96.531250 39.192118
43.150000 97.468750 39.192118
43.025000 98.734375 39.192118
43.125000 99.890625 39.192118
43.575000 101.421875 39.192118
44.100000 102.640625 39.192118
44.375000 103.640625 39.192118
43.100000 92.421875 39.331822
43.175000 93.875000 39.331822
43.350000 94.859375 39.331822
43.350000 96.015625 39.331822
43.175000 97.296875 39.331822
43.000000 98.593750 39.331822
43.075000 99.812500 39.331822
43.500000 101.000000 39.331822
43.975000 102.375000 39.331822
44.225000 103.671875 39.331822
43.075000 92.640625 39.473267
43.375000 93.859375 39.473267
43.750000 94.953125 39.473267
43.600000 96.312500 39.473267
43.275000 97.703125 39.473267
43.025000 98.953125 39.473267
42.975000 99.984375 39.473267
43.425000 101.406250 39.473267
44.050000 102.703125 39.473267
44.375000 103.687500 39.473267
43.150000 91.812500 39.628326
43.125000 93.031250 39.628326
43.400000 94.421875 39.628326
43.350000 95.828125 39.628326
43.325000 97.046875 39.628326
43.150000 98.156250 39.628326
42.850000 99.234375 39.628326
43.225000 100.500000 39.628326
43.675000 102.046875 39.628326
44.325000 102.906250 39.628326
43.000000 92.312500 39.782932
43.275000 93.625000 39.782932
43.725000 94.796875 39.782932
43.500000 96.234375 39.782932
43.075000 97.296875 39.782932
42.975000 98.765625 39.782932
43.050000 100.125000 39.782932
43.400000 101.265625 39.782932
43.875000 102.390625 39.782932
44.200000 103.468750 39.782932
43.350000 91.531250 39.923602
43.050000 92.609375 39.923602
43.350000 93.921875 39.923602
43.425000 95.328125 39.923602
43.175000 96.453125 39.923602
42.900000 97.906250 39.923602
42.750000 99.234375 39.923602
42.975000 100.250000 39.923602
43.400000 101.359375 39.923602
44.025000 102.734375 39.923602
44.350000 103.968750 39.923602
43.050000 91.718750 40.062876
42.925000 92.828125 40.062876
43.050000 94.062500 40.062876
43.125000 95.531250 40.062876
43.100000 96.656250 40.062876
42.675000 98.171875 40.062876
42.675000 99.203125 40.062876
43.325000 100.531250 40.062876
43.625000 101.515625 40.062876
44.125000 102.875000 40.062876
42.975000 92.468750 40.217996
43.250000 93.562500 40.217996
43.700000 94.921875 40.217996
43.375000 95.953125 40.217996
43.050000 97.281250 40.217996
42.925000 98.578125 40.217996
42.775000 99.734375 40.217996
43.275000 100.890625 40.217996
43.825000 102.437500 40.217996
44.175000 103.468750 40.217996
43.550000 91.203125 40.358340
42.975000 92.421875 40.358340
43.150000 93.921875 40.358340
43.425000 94.890625 40.358340
43.075000 96.296875 40.358340
42.750000 97.640625 40.358340
42.700000 98.703125 40.358340
43.100000 100.125000 40.358340
43.550000 101.468750 40.358340
43.925000 102.562500 40.358340
44.350000 103.859375 40.358340
43.325000 91.437500 40.500320
42.950000 92.718750 40.500320
43.125000 93.968750 40.500320
43.300000 95.281250 40.500320
42.925000 96.640625 40.500320
42.400000 98.062500 40.500320
42.500000 98.953125 40.500320
43.350000 100.375000 40.500320
43.775000 101.546875 40.500320
43.875000 102.562500 40.500320
44.225000 103.812500 40.500320
43.150000 91.984375 40.654340
42.925000 93.265625 40.654340
43.050000 94.203125 40.654340
42.950000 95.875000 40.654340
42.575000 97.187500 40.654340
42.375000 98.203125 40.654340
42.600000 99.421875 40.654340
43.200000 100.625000 40.654340
43.550000 101.859375 40.654340
43.900000 103.281250 40.654340
43.825000 104.453125 40.654340
42.975000 92.562500 40.793472
42.925000 93.921875 40.793472
42.850000 94.921875 40.793472
42.600000 96.296875 40.793472
42.400000 97.843750 40.793472
42.500000 98.796875 40.793472
43.100000 99.937500 40.793472
43.525000 101.546875 40.793472
43.900000 102.593750 40.793472
44.250000 103.921875 40.793472
43.150000 91.718750 40.946886
42.925000 93.328125 40.946886
42.950000 94.203125 40.946886
42.850000 95.500000 40.946886
42.575000 96.796875 40.946886
42.400000 98.281250 40.946886
42.375000 99.656250 40.946886
42.950000 100.531250 40.946886
43.525000 102.093750 40.946886
44.075000 102.906250 40.946886
43.050000 92.484375 41.088357
42.900000 93.390625 41.088357
42.925000 94.750000 41.088357
42.800000 96.109375 41.088357
42.550000 97.468750 41.088357
42.625000 98.640625 41.088357
43.200000 99.796875 41.088357
43.600000 100.859375 41.088357
43.675000 102.109375 41.088357
43.025000 92.234375 41.258050
42.900000 93.562500 41.258050
42.925000 95.062500 41.258050
42.775000 96.250000 41.258050
42.625000 97.593750 41.258050
42.800000 98.656250 41.258050
43.175000 99.687500 41.258050
43.475000 100.984375 41.258050
43.650000 102.437500 41.258050
42.950000 92.531250 41.381870
42.875000 93.640625 41.381870
42.850000 94.828125 41.381870
42.700000 96.421875 41.381870
42.750000 97.718750 41.381870
42.975000 98.593750 41.381870
43.200000 99.843750 41.381870
43.425000 101.390625 41.381870
43.650000 102.531250 41.381870
44.125000 103.484375 41.381870
29.525000 90.296875 41.536038
29.975000 91.796875 41.536038
42.825000 95.031250 41.536038
42.700000 96.218750 41.536038
42.775000 97.671875 41.536038
43.000000 98.828125 41.536038
43.200000 100.218750 41.536038
43.400000 101.437500 41.536038
43.650000 102.484375 41.536038
43.950000 103.546875 41.536038
35.250000 92.296875 41.674810
35.275000 93.062500 41.674810
35.675000 94.437500 41.674810
46.200000 100.906250 41.674810
31.800000 92.109375 41.833522
43.200000 100.765625 41.833522
26.175000 89.359375 41.983868
26.275000 89.968750 41.983868
27.900000 91.859375 42.125465
27.800000 92.390625 42.125465
27.950000 94.125000 42.125465
34.875000 93.984375 42.270243
34.350000 95.015625 42.270243
34.300000 96.218750 42.270243
34.625000 97.843750 42.270243
21.825000 95.640625 42.419663
21.675000 96.718750 42.419663
21.675000 97.984375 42.419663
21.650000 100.109375 42.419663
21.625000 101.359375 42.419663
21.525000 102.625000 42.419663
17.850000 104.515625 42.558665
17.575000 105.765625 42.558665
17.350000 107.015625 42.558665
17.200000 108.781250 42.558665
17.150000 110.031250 42.558665
17.175000 111.281250 42.558665
17.175000 112.531250 42.558665
17.225000 113.296875 42.558665
17.350000 114.531250 42.558665
16.000000 106.390625 42.709264
15.725000 107.656250 42.709264
15.600000 108.890625 42.709264
15.550000 110.406250 42.709264
15.525000 111.406250 42.709264
15.600000 112.671875 42.709264
15.675000 113.921875 42.709264
15.675000 115.562500 42.709264
15.650000 116.406250 42.709264
15.700000 117.656250 42.709264
15.800000 118.906250 42.709264
16.100000 104.953125 42.856828
15.875000 106.203125 42.856828
15.725000 107.453125 42.856828
16.675000 121.281250 42.856828
16.625000 122.546875 42.856828
16.475000 123.796875 42.856828
16.525000 125.046875 42.856828
26.450000 101.500000 42.999193
26.625000 102.109375 42.999193
26.825000 103.515625 42.999193
39.600000 91.656250 43.147445
39.875000 92.687500 43.147445
40.150000 94.109375 43.147445
40.700000 95.187500 43.147445
43.975000 93.546875 43.294739
43.850000 94.953125 43.294739
43.775000 95.968750 43.294739
43.625000 97.281250 43.294739
43.550000 98.500000 43.294739
44.900000 94.328125 43.446702
44.725000 95.843750 43.446702
42.525000 98.546875 43.446702
42.950000 99.656250 43.446702
43.975000 92.937500 43.588963
44.075000 94.140625 43.588963
44.100000 95.171875 43.588963
44.325000 96.593750 43.588963
42.025000 99.093750 43.588963
42.975000 93.843750 43.742106
43.350000 94.984375 43.742106
43.875000 96.046875 43.742106
43.975000 97.625000 43.742106
41.425000 92.500000 43.882755
41.975000 93.375000 43.882755
42.575000 94.781250 43.882755
43.475000 95.812500 43.882755
44.125000 97.093750 43.882755
44.575000 98.140625 43.882755
44.350000 99.875000 43.882755
40.025000 88.640625 44.024822
43.275000 93.046875 44.024822
44.175000 94.203125 44.024822
45.100000 95.437500 44.024822
43.325000 97.968750 44.024822
43.525000 99.531250 44.024822
39.825000 86.343750 44.178348
39.550000 87.796875 44.178348
39.725000 88.828125 44.178348
44.700000 94.656250 44.178348
44.175000 95.968750 44.178348
43.775000 97.156250 44.178348
43.675000 98.578125 44.178348
39.325000 86.640625 44.332475
39.375000 87.656250 44.332475
44.500000 93.500000 44.332475
45.075000 94.718750 44.332475
43.650000 97.203125 44.332475
43.925000 98.515625 44.332475
40.025000 87.125000 44.471874
39.825000 88.468750 44.471874
40.075000 89.265625 44.471874
44.850000 95.234375 44.471874
44.100000 96.765625 44.471874
43.800000 98.062500 44.471874
40.800000 88.437500 44.628020
40.950000 89.640625 44.628020
43.475000 94.484375 44.628020
43.950000 95.593750 44.628020
44.475000 97.031250 44.628020
44.825000 99.312500 44.628020
45.075000 100.515625 44.628020
41.050000 88.703125 44.768511
41.125000 89.875000 44.768511
41.725000 91.296875 44.768511
42.550000 92.546875 44.768511
43.075000 93.750000 44.768511
43.675000 94.890625 44.768511
44.075000 96.015625 44.768511
44.625000 97.343750 44.768511
44.625000 99.703125 44.768511
40.725000 88.500000 44.923552
40.950000 89.343750 44.923552
43.900000 94.359375 44.923552
44.500000 95.562500 44.923552
44.925000 96.875000 44.923552
44.575000 99.328125 44.923552
37.625000 91.406250 45.063785
37.800000 92.281250 45.063785
38.150000 93.718750 45.063785
38.525000 94.843750 45.063785
38.975000 96.218750 45.063785
39.475000 97.359375 45.063785
40.175000 98.671875 45.063785
40.875000 99.843750 45.063785
39.025000 102.593750 45.063785
38.925000 103.687500 45.063785
27.050000 98.171875 45.204405
27.250000 99.390625 45.204405
27.375000 100.812500 45.204405
27.600000 102.421875 45.204405
30.700000 107.796875 45.204405
30.675000 108.687500 45.204405
27.800000 112.546875 45.204405
27.775000 113.296875 45.204405
26.525000 108.828125 45.360027
48.225000 95.296875 46.097406
41.850000 98.390625 46.097406
42.300000 99.843750 46.097406
41.975000 101.046875 46.097406
42.025000 102.015625 46.097406
40.425000 101.000000 46.234252
41.375000 102.000000 46.234252
42.450000 103.000000 46.234252
42.325000 99.062500 46.387330
42.500000 100.281250 46.387330
42.625000 101.562500 46.387330
42.800000 102.546875 46.387330
42.475000 99.843750 46.534224
38.000000 92.140625 46.682019
38.925000 93.062500 46.682019
42.300000 99.171875 46.821642
27.750000 103.984375 46.821642
27.850000 104.640625 46.821642
28.100000 106.015625 46.821642
25.875000 102.265625 46.962348
25.800000 104.500000 46.962348
25.875000 104.687500 46.962348
26.150000 106.109375 46.962348
26.525000 107.765625 46.962348
26.925000 108.250000 46.962348
27.375000 110.250000 46.962348
27.525000 113.437500 46.962348
24.600000 103.171875 47.117130
26.200000 114.921875 47.117130
30.500000 86.125000 47.256946
30.300000 93.078125 47.256946
29.925000 93.609375 47.256946
30.025000 95.593750 47.256946
42.225000 102.312500 47.256946
42.450000 103.625000 47.256946
42.625000 105.062500 47.256946
38.750000 83.593750 47.415670
39.500000 84.718750 47.415670
37.875000 90.109375 47.415670
38.450000 91.437500 47.415670
39.175000 92.500000 47.415670
41.650000 99.859375 47.415670
41.800000 100.953125 47.415670
42.000000 102.125000 47.415670
42.175000 103.734375 47.415670
41.850000 88.109375 47.569398
42.300000 88.984375 47.569398
42.700000 90.375000 47.569398
40.575000 93.062500 47.569398
41.200000 94.328125 47.569398
42.050000 95.390625 47.569398
42.625000 96.703125 47.569398
41.175000 99.265625 47.569398
41.425000 100.750000 47.569398
41.650000 101.734375 47.569398
41.850000 103.125000 47.569398
42.000000 104.171875 47.569398
42.450000 88.859375 47.709530
42.850000 90.140625 47.709530
42.600000 91.312500 47.709530
42.675000 97.484375 47.709530
41.000000 100.218750 47.709530
41.175000 101.234375 47.709530
41.425000 102.593750 47.709530
41.625000 104.109375 47.709530
41.300000 87.093750 47.864975
42.100000 88.125000 47.864975
42.800000 89.531250 47.864975
39.750000 92.281250 47.864975
41.950000 97.109375 47.864975
41.100000 98.687500 47.864975
40.825000 99.593750 47.864975
41.000000 100.890625 47.864975
41.125000 102.406250 47.864975
41.275000 103.468750 47.864975
41.475000 104.718750 47.864975
41.325000 86.656250 47.989496
42.325000 87.984375 47.989496
42.425000 89.171875 47.989496
39.250000 92.203125 47.989496
42.375000 96.828125 47.989496
40.925000 99.375000 47.989496
41.175000 100.546875 47.989496
41.300000 102.140625 47.989496
41.525000 103.078125 47.989496
39.800000 90.718750 48.143105
42.225000 95.500000 48.143105
42.150000 96.625000 48.143105
41.425000 98.218750 48.143105
41.150000 99.281250 48.143105
41.400000 100.531250 48.143105
41.500000 101.859375 48.143105
41.700000 103.109375 48.143105
42.150000 96.046875 48.287493
41.950000 97.156250 48.287493
41.350000 98.484375 48.287493
41.325000 99.828125 48.287493
41.525000 101.078125 48.287493
41.725000 102.046875 48.287493
41.925000 103.546875 48.287493
41.950000 96.125000 48.439442
41.825000 97.203125 48.439442
41.625000 98.593750 48.439442
41.525000 100.109375 48.439442
41.700000 101.062500 48.439442
41.900000 102.171875 48.439442
42.125000 103.640625 48.439442
42.350000 96.156250 48.579544
42.325000 97.468750 48.579544
42.100000 98.828125 48.579544
41.600000 100.328125 48.579544
41.800000 101.453125 48.579544
41.950000 102.687500 48.579544
42.150000 103.687500 48.579544
42.150000 97.296875 48.726160
42.025000 98.593750 48.726160
41.650000 99.875000 48.726160
41.850000 101.328125 48.726160
41.975000 102.531250 48.726160
42.125000 103.640625 48.726160
41.725000 98.062500 48.875523
41.450000 99.296875 48.875523
41.725000 100.390625 48.875523
41.900000 101.671875 48.875523
42.075000 102.921875 48.875523
41.775000 97.296875 49.017263
41.650000 98.500000 49.017263
41.600000 99.421875 49.017263
41.800000 100.984375 49.017263
41.950000 101.937500 49.017263
42.025000 103.281250 49.017263
41.550000 100.078125 49.164027
41.800000 101.250000 49.164027
41.925000 102.500000 49.164027
42.075000 103.578125 49.164027
42.025000 98.953125 49.311787
41.450000 100.109375 49.311787
41.600000 101.343750 49.311787
41.850000 102.609375 49.311787
42.050000 103.859375 49.311787
41.525000 105.421875 49.311787
41.675000 98.453125 49.464516
41.225000 99.859375 49.464516
41.350000 101.078125 49.464516
41.550000 102.328125 49.464516
41.850000 103.546875 49.464516
40.750000 99.234375 49.619244
41.150000 100.437500 49.619244
41.275000 102.015625 49.619244
41.500000 103.125000 49.619244
41.750000 104.296875 49.619244
41.625000 105.656250 49.619244
40.875000 99.781250 49.758617
41.025000 101.031250 49.758617
41.225000 102.406250 49.758617
41.425000 103.875000 49.758617
40.500000 99.546875 49.897980
40.725000 100.953125 49.897980
40.900000 101.953125 49.897980
41.125000 103.281250 49.897980
41.350000 104.609375 49.897980
41.550000 105.546875 49.897980
40.875000 100.062500 50.043621
40.975000 101.250000 50.043621
41.125000 102.515625 50.043621
41.350000 103.781250 50.043621
41.525000 105.125000 50.043621
41.225000 99.562500 50.192931
41.450000 100.703125 50.192931
41.575000 101.796875 50.192931
41.650000 103.281250 50.192931
41.800000 104.515625 50.192931
41.700000 100.171875 50.348399
41.725000 101.484375 50.348399
41.875000 102.609375 50.348399
42.150000 103.937500 50.348399
41.675000 99.343750 50.502955
41.950000 100.593750 50.502955
42.075000 101.593750 50.502955
42.250000 102.921875 50.502955
42.450000 104.093750 50.502955
42.875000 105.500000 50.502955
42.025000 99.703125 50.640924
42.200000 100.921875 50.640924
42.325000 102.312500 50.640924
42.475000 103.359375 50.640924
42.000000 99.187500 50.782005
42.300000 100.828125 50.782005
42.400000 101.796875 50.782005
42.525000 102.921875 50.782005
42.025000 99.531250 50.934000
42.300000 100.640625 50.934000
42.425000 102.031250 50.934000
42.550000 103.187500 50.934000
42.050000 99.609375 51.074087
42.325000 100.593750 51.074087
42.450000 102.156250 51.074087
42.575000 103.250000 51.074087
42.275000 99.687500 51.234329
42.450000 100.765625 51.234329
42.575000 102.375000 51.234329
42.750000 103.343750 51.234329
42.300000 99.890625 51.369362
42.450000 100.953125 51.369362
42.575000 102.328125 51.369362
42.750000 103.312500 51.369362
42.075000 99.531250 51.523223
42.350000 100.546875 51.523223
42.450000 102.031250 51.523223
42.600000 103.156250 51.523223
42.300000 100.109375 51.662073
42.425000 101.281250 51.662073
42.575000 102.234375 51.662073
42.725000 103.546875 51.662073
38.400000 91.968750 51.816264
41.975000 99.343750 51.816264
42.325000 100.343750 51.816264
42.450000 101.984375 51.816264
42.600000 102.953125 51.816264
43.875000 87.984375 51.955675
39.825000 91.125000 51.955675
42.125000 99.609375 51.955675
42.275000 101.015625 51.955675
42.425000 101.968750 51.955675
42.525000 103.578125 51.955675
42.150000 87.437500 52.111103
42.750000 88.718750 52.111103
39.975000 91.578125 52.111103
42.125000 99.859375 52.111103
42.250000 101.437500 52.111103
42.375000 102.531250 52.111103
42.550000 103.750000 52.111103
42.025000 105.312500 52.111103
41.600000 86.421875 52.252398
41.750000 87.562500 52.252398
41.950000 89.203125 52.252398
39.800000 91.468750 52.252398
40.575000 97.875000 52.252398
41.575000 98.859375 52.252398
42.025000 100.265625 52.252398
42.150000 101.468750 52.252398
42.300000 102.562500 52.252398
41.275000 85.859375 52.408069
41.525000 89.453125 52.408069
40.200000 91.921875 52.408069
41.050000 98.328125 52.408069
41.700000 99.421875 52.408069
41.900000 100.828125 52.408069
42.050000 102.187500 52.408069
42.225000 103.125000 52.408069
41.750000 86.484375 52.551733
41.850000 92.562500 52.551733
42.200000 98.953125 52.551733
42.375000 100.046875 52.551733
42.475000 101.312500 52.551733
42.575000 102.750000 52.551733
42.150000 87.265625 52.688068
41.350000 93.437500 52.688068
41.950000 94.625000 52.688068
42.700000 95.968750 52.688068
43.775000 97.109375 52.688068
42.725000 99.828125 52.688068
42.825000 100.843750 52.688068
42.950000 102.359375 52.688068
43.125000 103.359375 52.688068
43.250000 87.953125 52.842101
44.150000 89.171875 52.842101
41.875000 94.453125 52.842101
42.900000 99.218750 52.842101
43.025000 100.578125 52.842101
43.150000 101.625000 52.842101
43.275000 103.218750 52.842101
43.450000 104.203125 52.842101
46.175000 89.296875 52.987806
43.350000 98.671875 52.987806
43.150000 99.781250 52.987806
43.250000 100.890625 52.987806
43.375000 102.109375 52.987806
43.475000 103.656250 52.987806
43.075000 104.875000 52.987806
43.125000 97.515625 53.139107
42.750000 98.562500 53.139107
43.050000 100.046875 53.139107
43.200000 101.140625 53.139107
43.375000 102.218750 53.139107
43.075000 99.078125 53.279034
43.200000 100.359375 53.279034
43.375000 101.609375 53.279034
43.575000 102.750000 53.279034
43.775000 103.875000 53.279034
43.250000 98.218750 53.427118
43.250000 99.390625 53.427118
43.375000 100.921875 53.427118
43.550000 102.109375 53.427118
43.750000 103.140625 53.427118
43.225000 104.515625 53.427118
43.300000 97.390625 53.574815
42.975000 98.609375 53.574815
43.350000 99.937500 53.574815
43.525000 101.234375 53.574815
43.650000 102.343750 53.574815
43.850000 103.609375 53.574815
43.275000 99.843750 53.715418
43.475000 100.796875 53.715418
43.625000 102.250000 53.715418
43.825000 103.656250 53.715418
43.625000 104.750000 53.715418
43.250000 97.937500 53.866785
43.025000 99.000000 53.866785
43.450000 100.390625 53.866785
43.500000 101.828125 53.866785
43.600000 103.062500 53.866785
43.375000 99.843750 54.010204
43.500000 100.890625 54.010204
43.650000 102.453125 54.010204
43.850000 103.593750 54.010204
43.550000 98.484375 54.165168
43.275000 99.546875 54.165168
43.475000 100.734375 54.165168
43.625000 102.203125 54.165168
43.800000 103.375000 54.165168
44.100000 97.187500 54.306393
43.925000 98.765625 54.306393
43.350000 99.750000 54.306393
43.475000 101.328125 54.306393
43.625000 102.500000 54.306393
43.825000 103.671875 54.306393
44.150000 104.765625 54.306393
43.350000 98.046875 54.458990
43.050000 99.171875 54.458990
43.400000 100.500000 54.458990
43.525000 101.968750 54.458990
43.700000 103.015625 54.458990
44.375000 97.531250 54.599497
43.875000 98.828125 54.599497
43.300000 99.921875 54.599497
43.475000 101.359375 54.599497
43.625000 102.359375 54.599497
43.825000 103.625000 54.599497
43.875000 105.171875 54.599497
43.050000 99.531250 54.744363
43.350000 100.593750 54.744363
43.475000 102.015625 54.744363
43.675000 103.265625 54.744363
44.350000 97.437500 54.893939
43.025000 99.843750 54.893939
43.325000 101.031250 54.893939
43.525000 102.625000 54.893939
43.600000 103.687500 54.893939
43.150000 104.812500 54.893939
42.750000 99.406250 55.048410
43.025000 100.593750 55.048410
43.275000 101.718750 55.048410
43.475000 103.031250 55.048410
43.675000 104.234375 55.048410
44.200000 97.468750 55.180561
43.450000 98.843750 55.180561
42.875000 99.734375 55.180561
42.950000 100.984375 55.180561
43.125000 102.421875 55.180561
43.425000 103.453125 55.180561
43.925000 97.656250 55.328110
42.775000 100.375000 55.328110
42.950000 101.656250 55.328110
43.125000 102.953125 55.328110
42.475000 99.375000 55.486050
42.700000 100.718750 55.486050
42.825000 101.968750 55.486050
43.000000 103.265625 55.486050
42.450000 100.234375 55.621021
42.625000 101.328125 55.621021
42.775000 102.578125 55.621021
42.950000 103.812500 55.621021
42.925000 105.421875 55.621021
44.825000 96.640625 55.782719
41.900000 99.515625 55.782719
42.275000 100.578125 55.782719
42.425000 101.937500 55.782719
42.625000 103.000000 55.782719
44.725000 95.984375 55.923078
44.075000 97.421875 55.923078
42.125000 100.156250 55.923078
42.225000 101.281250 55.923078
42.350000 102.562500 55.923078
42.575000 103.734375 55.923078
42.775000 104.953125 55.923078
44.400000 96.296875 56.060240
44.325000 97.406250 56.060240
42.325000 100.343750 56.060240
42.375000 101.640625 56.060240
42.500000 102.812500 56.060240
42.650000 103.843750 56.060240
45.000000 95.640625 56.219249
42.350000 99.625000 56.219249
42.500000 100.859375 56.219249
42.600000 102.296875 56.219249
42.725000 103.500000 56.219249
44.675000 95.953125 56.358837
44.050000 97.562500 56.358837
42.950000 98.703125 56.358837
42.525000 99.921875 56.358837
42.600000 101.515625 56.358837
42.725000 102.625000 56.358837
42.900000 104.000000 56.358837
44.650000 95.375000 56.514791
44.625000 96.734375 56.514791
42.325000 99.406250 56.514791
42.650000 100.562500 56.514791
42.775000 102.078125 56.514791
42.875000 103.234375 56.514791
44.225000 96.312500 56.654319
43.950000 97.656250 56.654319
42.550000 100.171875 56.654319
42.625000 101.593750 56.654319
42.750000 102.734375 56.654319
43.025000 103.687500 56.654319
44.650000 96.171875 56.797950
42.950000 98.609375 56.797950
42.650000 99.781250 56.797950
42.775000 101.062500 56.797950
42.875000 102.343750 56.797950
43.075000 103.625000 56.797950
44.875000 95.765625 56.952051
42.600000 98.578125 56.952051
42.625000 99.953125 56.952051
42.725000 100.906250 56.952051
42.850000 102.234375 56.952051
43.025000 103.765625 56.952051
44.450000 95.390625 57.095571
44.650000 96.953125 57.095571
42.325000 99.265625 57.095571
42.650000 100.609375 57.095571
42.850000 101.937500 57.095571
42.950000 103.296875 57.095571
44.350000 96.062500 57.234991
43.700000 97.375000 57.234991
42.825000 98.734375 57.234991
42.550000 100.000000 57.234991
42.650000 101.156250 57.234991
42.775000 102.781250 57.234991
43.000000 103.640625 57.234991
44.400000 95.640625 57.390723
44.500000 96.906250 57.390723
42.300000 99.218750 57.390723
42.625000 100.781250 57.390723
42.725000 102.093750 57.390723
42.825000 103.109375 57.390723
43.700000 96.187500 57.533414
43.400000 97.609375 57.533414
43.050000 98.734375 57.533414
42.525000 99.984375 57.533414
42.625000 101.453125 57.533414
42.750000 102.765625 57.533414
42.900000 103.640625 57.533414
44.425000 95.468750 57.674372
44.300000 96.875000 57.674372
42.175000 99.531250 57.674372
42.525000 100.796875 57.674372
42.675000 101.843750 57.674372
42.800000 103.187500 57.674372
43.675000 96.281250 57.831508
43.275000 97.578125 57.831508
42.825000 99.046875 57.831508
42.350000 100.156250 57.831508
42.450000 101.468750 57.831508
42.650000 102.718750 57.831508
42.775000 104.062500 57.831508
44.225000 95.250000 57.972569
44.075000 96.781250 57.972569
42.300000 99.281250 57.972569
42.250000 100.437500 57.972569
42.350000 101.937500 57.972569
42.500000 102.921875 57.972569
44.375000 95.718750 58.127218
42.350000 98.609375 58.127218
41.925000 99.656250 58.127218
42.150000 100.875000 58.127218
42.275000 102.140625 58.127218
42.425000 103.468750 58.127218
42.600000 104.640625 58.127218
43.700000 96.062500 58.266080
43.100000 97.406250 58.266080
42.100000 98.921875 58.266080
41.825000 100.312500 58.266080
42.000000 101.312500 58.266080
42.100000 102.703125 58.266080
42.275000 104.000000 58.266080
44.175000 95.234375 58.408598
43.875000 96.625000 58.408598
43.525000 97.812500 58.408598
41.575000 100.781250 58.408598
41.725000 102.015625 58.408598
41.900000 103.093750 58.408598
42.125000 104.593750 58.408598
41.825000 105.546875 58.408598
44.125000 95.875000 58.564690
41.025000 99.953125 58.564690
41.275000 101.015625 58.564690
41.450000 102.343750 58.564690
41.650000 103.515625 58.564690
43.525000 96.406250 58.702798
43.300000 97.562500 58.702798
40.850000 100.500000 58.702798
41.000000 101.718750 58.702798
41.200000 102.796875 58.702798
41.375000 103.984375 58.702798
44.125000 95.671875 58.855449
43.825000 97.046875 58.855449
41.325000 99.406250 58.855449
41.150000 100.906250 58.855449
41.225000 102.031250 58.855449
41.425000 103.375000 58.855449
41.650000 104.734375 58.855449
43.275000 96.187500 59.002229
42.750000 97.890625 59.002229
41.750000 98.890625 59.002229
41.250000 100.109375 59.002229
41.400000 101.593750 59.002229
41.625000 102.671875 59.002229
41.800000 104.187500 59.002229
43.925000 95.953125 59.137348
41.350000 99.937500 59.137348
41.600000 101.046875 59.137348
41.750000 102.562500 59.137348
41.925000 103.781250 59.137348
43.650000 95.734375 59.290492
43.300000 96.750000 59.290492
43.050000 98.187500 59.290492
41.625000 100.656250 59.290492
41.800000 102.250000 59.290492
41.975000 103.093750 59.290492
42.100000 104.437500 59.290492
41.675000 105.906250 59.290492
43.575000 95.953125 59.432521
41.750000 98.765625 59.432521
41.500000 100.171875 59.432521
41.725000 101.421875 59.432521
41.850000 102.796875 59.432521
42.025000 104.015625 59.432521
41.675000 100.578125 59.585888
41.850000 102.062500 59.585888
42.025000 102.984375 59.585888
42.200000 104.453125 59.585888
43.600000 95.906250 59.738996
41.925000 99.000000 59.738996
41.600000 100.203125 59.738996
41.800000 101.328125 59.738996
41.900000 102.390625 59.738996
42.050000 103.750000 59.738996
43.125000 95.703125 59.880974
43.175000 97.078125 59.880974
41.400000 99.875000 59.880974
41.800000 101.031250 59.880974
41.950000 102.390625 59.880974
42.075000 103.359375 59.880974
