35.600000 78.140625 10.887717
35.600000 76.781250 10.888660
35.825000 75.750000 10.889377
36.200000 74.890625 10.889973
35.100000 89.562500 11.033057
34.775000 88.296875 11.033936
34.750000 87.281250 11.034641
34.775000 85.875000 11.035618
34.925000 85.109375 11.036149
34.650000 83.625000 11.037180
34.325000 82.890625 11.037690
34.550000 81.609375 11.038580
34.900000 80.500000 11.039350
35.225000 79.250000 11.040218
35.400000 78.125000 11.040999
35.500000 77.296875 11.041575
35.725000 75.828125 11.042595
36.175000 74.921875 11.043224
34.375000 88.812500 11.195097
34.600000 87.234375 11.196193
34.675000 86.328125 11.196822
34.625000 85.515625 11.197387
34.725000 84.109375 11.198363
34.725000 82.937500 11.199177
34.575000 81.687500 11.200045
34.850000 80.812500 11.200653
35.100000 79.531250 11.201542
35.250000 78.796875 11.202052
35.425000 77.734375 11.202790
35.575000 76.468750 11.203669
35.850000 75.375000 11.204429
34.425000 89.671875 11.362121
34.300000 88.718750 11.362783
34.575000 87.515625 11.363618
34.650000 86.406250 11.364389
34.675000 84.953125 11.365398
34.625000 83.984375 11.366071
34.600000 82.625000 11.367015
34.650000 81.750000 11.367622
34.800000 80.671875 11.368371
34.875000 79.718750 11.369033
35.100000 78.781250 11.369684
35.350000 77.609375 11.370498
35.525000 76.062500 11.371572
35.850000 75.093750 11.372245
34.700000 89.234375 11.519853
34.525000 88.343750 11.520471
34.550000 86.859375 11.521502
34.575000 85.625000 11.522359
34.625000 84.812500 11.522923
34.650000 83.796875 11.523629
34.650000 82.578125 11.524475
34.825000 81.171875 11.525452
34.800000 80.031250 11.526244
34.800000 78.859375 11.527057
35.100000 78.062500 11.527611
35.350000 77.109375 11.528273
35.550000 76.000000 11.529043
35.925000 74.453125 11.530118
34.625000 88.953125 11.676146
34.425000 87.875000 11.676894
34.525000 86.921875 11.677556
34.575000 85.781250 11.678348
34.575000 84.578125 11.679184
34.600000 83.359375 11.680030
34.650000 82.515625 11.680616
34.650000 81.609375 11.681245
34.650000 80.125000 11.682276
34.800000 79.109375 11.682981
35.075000 78.140625 11.683654
35.275000 77.125000 11.684360
35.475000 76.000000 11.685141
35.900000 74.687500 11.686052
34.425000 89.171875 11.846746
34.375000 87.437500 11.847950
34.500000 86.984375 11.848265
34.550000 85.703125 11.849155
34.575000 84.171875 11.850218
34.600000 83.531250 11.850663
34.775000 81.953125 11.851759
34.750000 81.125000 11.852334
34.650000 80.078125 11.853061
34.825000 78.875000 11.853896
35.000000 77.843750 11.854613
35.200000 76.359375 11.855643
35.450000 75.250000 11.856414
35.975000 74.218750 11.857130
34.425000 88.437500 12.006687
34.475000 87.140625 12.007588
34.500000 86.359375 12.008130
34.500000 84.656250 12.009313
34.575000 83.984375 12.009779
34.650000 82.718750 12.010658
34.650000 81.781250 12.011309
34.675000 80.656250 12.012091
34.750000 79.406250 12.012959
34.875000 78.234375 12.013772
35.075000 76.859375 12.014727
35.325000 75.953125 12.015357
35.650000 75.140625 12.015921
34.475000 88.546875 12.169871
34.500000 87.843750 12.170359
34.450000 86.187500 12.171509
34.475000 85.468750 12.172008
34.575000 84.468750 12.172703
34.600000 82.968750 12.173744
34.800000 82.093750 12.174352
34.900000 80.625000 12.175372
34.750000 79.343750 12.176262
34.775000 78.265625 12.177011
34.950000 77.296875 12.177683
35.150000 76.281250 12.178389
34.400000 89.156250 12.321626
34.350000 88.015625 12.322418
34.500000 86.843750 12.323231
34.500000 85.843750 12.323926
34.550000 84.765625 12.324675
34.600000 83.109375 12.325825
34.775000 82.062500 12.326552
34.725000 81.468750 12.326964
34.575000 79.953125 12.328017
34.750000 79.156250 12.328570
34.925000 77.687500 12.329590
35.100000 76.968750 12.330089
35.300000 75.359375 12.331207
35.700000 74.343750 12.331912
34.500000 86.828125 12.495288
34.550000 86.125000 12.495776
34.575000 84.796875 12.496698
34.600000 83.718750 12.497447
34.750000 82.421875 12.498348
34.750000 81.578125 12.498933
34.625000 80.453125 12.499715
34.775000 78.890625 12.500800
34.925000 78.156250 12.501310
35.075000 76.906250 12.502178
35.300000 75.625000 12.503067
35.650000 74.562500 12.503805
34.425000 88.593750 12.652268
34.475000 86.968750 12.653396
34.500000 86.156250 12.653961
34.525000 84.953125 12.654796
34.525000 83.718750 12.655653
34.650000 82.453125 12.656532
34.700000 81.500000 12.657194
34.650000 80.218750 12.658084
34.700000 79.093750 12.658865
34.850000 78.156250 12.659516
35.075000 76.953125 12.660352
35.300000 75.812500 12.661144
35.550000 74.984375 12.661719
34.425000 88.312500 12.814630
34.475000 87.109375 12.815465
34.500000 85.937500 12.816279
34.525000 85.171875 12.816811
34.550000 83.687500 12.817842
34.700000 83.000000 12.818319
34.700000 81.484375 12.819372
34.650000 80.531250 12.820034
34.750000 79.531250 12.820728
34.875000 78.125000 12.821704
35.075000 77.203125 12.822345
35.300000 76.140625 12.823082
35.625000 75.171875 12.823755
34.475000 87.015625 12.979361
34.525000 85.546875 12.980381
34.575000 84.187500 12.981325
34.600000 83.140625 12.982052
34.875000 82.375000 12.982584
34.875000 80.765625 12.983701
34.650000 79.750000 12.984407
34.775000 78.937500 12.984971
34.950000 77.859375 12.985720
35.200000 76.687500 12.986533
35.375000 75.406250 12.987423
35.750000 74.640625 12.987955
34.475000 86.796875 13.131516
34.525000 85.609375 13.132341
34.600000 84.859375 13.132862
34.650000 83.921875 13.133513
34.775000 82.343750 13.134609
34.750000 81.296875 13.135336
34.625000 80.421875 13.135943
34.725000 78.890625 13.137007
34.900000 78.109375 13.137549
35.200000 77.125000 13.138233
35.425000 75.578125 13.139307
35.650000 74.781250 13.139861
34.500000 87.000000 13.303434
34.525000 85.593750 13.304410
34.550000 84.812500 13.304953
34.600000 83.171875 13.306092
34.875000 82.406250 13.306624
34.850000 80.875000 13.307687
34.650000 79.859375 13.308393
34.775000 78.593750 13.309271
35.025000 78.015625 13.309673
35.275000 76.531250 13.310704
35.475000 75.453125 13.311452
35.925000 74.671875 13.311995
34.600000 89.093750 13.457178
34.400000 87.578125 13.458230
34.550000 86.625000 13.458892
34.600000 85.625000 13.459587
34.575000 84.187500 13.460585
34.675000 83.125000 13.461323
34.925000 81.859375 13.462202
34.825000 80.906250 13.462863
34.650000 79.828125 13.463612
34.850000 79.046875 13.464155
35.100000 77.796875 13.465023
35.375000 76.500000 13.465924
35.600000 75.359375 13.466716
36.125000 74.187500 13.467529
34.450000 88.687500 13.613304
34.550000 87.718750 13.613977
34.600000 86.609375 13.614747
34.650000 85.515625 13.615507
34.650000 84.187500 13.616429
34.725000 83.031250 13.617232
35.025000 82.140625 13.617850
35.025000 80.843750 13.618751
34.850000 79.281250 13.619836
35.025000 78.171875 13.620606
35.300000 77.359375 13.621171
35.500000 76.453125 13.621800
35.800000 75.312500 13.622592
34.525000 89.531250 13.781626
34.600000 88.484375 13.782353
34.525000 87.515625 13.783025
34.600000 86.218750 13.783926
34.675000 85.421875 13.784479
34.700000 84.328125 13.785239
34.725000 83.296875 13.785955
34.900000 81.828125 13.786975
34.875000 80.531250 13.787876
34.825000 79.515625 13.788581
35.075000 78.781250 13.789091
35.350000 77.625000 13.789894
35.525000 76.406250 13.790740
35.775000 75.093750 13.791652
34.350000 88.406250 13.944552
34.625000 87.046875 13.945496
34.700000 86.328125 13.945995
34.775000 84.859375 13.947015
34.800000 84.078125 13.947557
34.775000 83.125000 13.948219
34.825000 81.937500 13.949044
34.975000 80.812500 13.949825
35.075000 79.625000 13.950650
35.200000 78.484375 13.951442
35.450000 77.453125 13.952158
35.600000 76.109375 13.953091
35.900000 75.203125 13.953721
34.700000 88.968750 14.096579
34.600000 87.875000 14.097338
34.675000 87.234375 14.097783
34.800000 85.875000 14.098727
34.750000 84.531250 14.099660
34.900000 84.015625 14.100018
34.950000 82.328125 14.101190
34.825000 81.609375 14.101689
35.225000 80.187500 14.102677
35.425000 79.203125 14.103360
35.400000 78.250000 14.104022
35.525000 76.890625 14.104966
35.750000 76.109375 14.105509
36.150000 75.015625 14.106268
34.675000 89.562500 14.268372
34.575000 88.328125 14.269230
34.725000 87.187500 14.270022
34.775000 86.125000 14.270760
34.775000 82.406250 14.273342
34.750000 81.640625 14.273874
35.050000 80.781250 14.274471
35.325000 79.171875 14.275588
35.450000 78.343750 14.276163
35.600000 77.078125 14.277042
35.825000 76.312500 14.277574
36.150000 75.140625 14.278388
34.750000 89.515625 14.423446
34.575000 88.031250 14.424477
34.825000 87.328125 14.424965
34.900000 86.359375 14.425638
34.600000 85.203125 14.426441
34.375000 83.593750 14.427558
34.550000 82.750000 14.428144
34.725000 81.500000 14.429012
35.025000 80.390625 14.429783
35.375000 79.453125 14.430434
35.525000 78.093750 14.431378
35.625000 77.203125 14.431996
35.850000 76.093750 14.432767
36.225000 74.828125 14.433645
34.850000 89.578125 14.592517
34.700000 88.421875 14.593320
34.850000 87.156250 14.594198
34.975000 85.843750 14.595110
34.875000 84.968750 14.595718
34.575000 83.750000 14.596564
34.550000 82.625000 14.597345
34.725000 81.453125 14.598159
35.300000 78.031250 14.600535
35.825000 76.890625 14.601327
36.000000 76.265625 14.601761
36.400000 74.875000 14.602727
35.050000 88.968750 14.755109
34.800000 87.718750 14.755977
35.025000 86.812500 14.756606
34.850000 83.125000 14.759167
34.675000 82.546875 14.759569
34.900000 81.046875 14.760610
35.400000 80.093750 14.761272
36.150000 79.125000 14.761945
36.200000 77.953125 14.762759
36.000000 76.765625 14.763583
34.975000 89.156250 14.905914
34.950000 88.109375 14.906641
35.050000 87.203125 14.907270
35.150000 86.234375 14.907943
35.525000 85.109375 14.908724
34.700000 82.828125 14.910308
34.975000 81.625000 14.911144
35.600000 78.140625 14.913563
36.125000 76.906250 14.914420
36.225000 75.921875 14.915104
36.600000 75.093750 14.915679
35.075000 88.625000 15.071221
35.125000 87.406250 15.072067
35.225000 86.156250 15.072936
35.200000 85.203125 15.073597
34.875000 84.187500 15.074303
34.850000 82.765625 15.075290
35.100000 81.625000 15.076082
36.475000 77.421875 15.079001
36.275000 76.125000 15.079902
36.525000 75.171875 15.080564
35.250000 86.515625 15.234731
34.550000 84.593750 15.236065
34.950000 83.281250 15.236977
35.075000 81.953125 15.237899
35.375000 80.906250 15.238626
35.975000 80.000000 15.239255
36.525000 79.125000 15.239863
36.525000 77.921875 15.240699
36.400000 76.421875 15.241740
36.525000 75.453125 15.242413
35.075000 88.500000 15.403154
35.275000 87.765625 15.403664
35.375000 86.578125 15.404488
35.450000 85.421875 15.405291
35.175000 83.968750 15.406300
35.100000 83.203125 15.406832
35.700000 82.078125 15.407613
36.100000 80.687500 15.408579
36.475000 79.687500 15.409273
36.775000 78.734375 15.409935
36.575000 77.671875 15.410673
36.475000 76.187500 15.411704
36.700000 75.359375 15.412279
35.025000 89.390625 15.566632
35.100000 88.875000 15.566990
35.350000 87.359375 15.568043
35.400000 86.625000 15.568553
35.600000 85.281250 15.569486
35.375000 84.250000 15.570202
35.150000 82.796875 15.571211
35.700000 81.750000 15.571938
36.100000 80.968750 15.572481
36.525000 79.921875 15.573208
36.800000 78.578125 15.574141
36.575000 77.296875 15.575031
36.525000 76.437500 15.575628
36.750000 75.265625 15.576441
35.175000 88.500000 15.715575
35.350000 87.453125 15.716302
35.425000 86.640625 15.716866
35.500000 85.406250 15.717723
35.175000 84.125000 15.718613
35.175000 83.046875 15.719362
35.725000 82.171875 15.719970
36.075000 81.046875 15.720751
36.475000 79.828125 15.721597
36.775000 78.500000 15.722519
36.675000 77.781250 15.723019
36.600000 76.500000 15.723908
36.750000 75.125000 15.724863
35.650000 89.000000 15.882828
35.325000 88.140625 15.883425
35.525000 86.921875 15.884271
35.275000 85.765625 15.885074
35.025000 84.390625 15.886029
35.200000 83.656250 15.886539
35.400000 82.187500 15.887559
35.800000 81.437500 15.888080
36.500000 80.046875 15.889045
36.875000 79.234375 15.889610
36.750000 77.890625 15.890543
36.675000 76.625000 15.891422
35.200000 88.718750 16.042879
35.475000 87.781250 16.043530
35.550000 86.421875 16.044474
35.550000 85.703125 16.044973
35.275000 84.015625 16.046145
35.225000 83.187500 16.046720
35.775000 82.109375 16.047469
36.225000 81.031250 16.048218
36.650000 79.718750 16.049129
36.825000 78.953125 16.049661
36.750000 77.906250 16.050388
36.825000 76.812500 16.051147
36.900000 75.437500 16.052102
35.650000 89.156250 16.200964
35.525000 88.062500 16.201724
35.625000 86.796875 16.202603
35.550000 86.171875 16.203037
35.750000 84.718750 16.204046
35.650000 83.375000 16.204979
36.925000 79.156250 16.207909
36.800000 77.937500 16.208755
36.700000 77.312500 16.209189
36.950000 75.859375 16.210198
37.325000 74.968750 16.210817
35.775000 88.562500 16.377009
35.650000 87.671875 16.377628
35.725000 86.781250 16.378246
35.950000 85.140625 16.379385
35.675000 84.359375 16.379928
35.325000 83.031250 16.380850
35.775000 82.218750 16.381415
36.450000 81.125000 16.382174
36.825000 79.656250 16.383194
36.750000 78.546875 16.383965
36.725000 77.671875 16.384572
36.850000 76.406250 16.385451
37.075000 75.453125 16.386113
35.925000 89.109375 16.528215
35.650000 88.140625 16.528888
35.775000 86.531250 16.530006
35.750000 85.781250 16.530527
35.500000 84.250000 16.531590
35.375000 83.140625 16.532360
35.650000 82.265625 16.532968
36.225000 81.093750 16.533782
36.775000 79.968750 16.534563
36.825000 78.703125 16.535442
36.675000 77.890625 16.536006
36.750000 76.453125 16.537004
37.050000 75.484375 16.537677
35.650000 89.156250 16.692427
35.700000 87.765625 16.693393
35.775000 86.781250 16.694076
35.925000 85.359375 16.695064
35.700000 84.578125 16.695606
35.400000 83.421875 16.696409
36.775000 79.078125 16.699425
36.700000 77.796875 16.700315
36.800000 76.562500 16.701173
37.075000 75.593750 16.701845
35.800000 88.906250 16.852859
35.825000 87.343750 16.853944
35.825000 86.656250 16.854421
35.950000 85.437500 16.855268
35.750000 84.406250 16.855984
35.425000 83.250000 16.856787
35.750000 82.250000 16.857481
36.425000 81.062500 16.858306
37.075000 79.812500 16.859174
36.950000 78.421875 16.860140
36.650000 77.609375 16.860704
36.825000 76.609375 16.861398
37.125000 75.109375 16.862440
36.275000 88.296875 17.008249
35.900000 87.359375 17.008900
36.075000 86.218750 17.009692
36.000000 85.156250 17.010430
35.675000 83.984375 17.011244
35.750000 82.453125 17.012307
36.325000 81.828125 17.012741
36.750000 80.609375 17.013587
36.775000 79.484375 17.014369
36.650000 78.437500 17.015096
36.700000 77.250000 17.015920
36.950000 76.109375 17.016712
37.425000 74.718750 17.017678
36.400000 89.578125 17.178372
36.300000 88.125000 17.179381
35.925000 87.515625 17.179804
36.000000 86.187500 17.180727
36.225000 85.390625 17.181280
36.025000 84.015625 17.182235
36.900000 79.390625 17.185447
36.725000 78.578125 17.186011
36.675000 77.281250 17.186911
36.925000 75.921875 17.187855
37.325000 74.875000 17.188582
35.875000 88.812500 17.337117
35.850000 87.734375 17.337865
35.950000 86.484375 17.338733
36.150000 85.734375 17.339254
36.000000 84.078125 17.340405
37.125000 79.921875 17.343291
36.950000 78.750000 17.344105
36.650000 77.531250 17.344951
36.800000 76.640625 17.345569
37.150000 75.406250 17.346426
35.675000 88.890625 17.501645
35.750000 88.125000 17.502176
36.000000 86.984375 17.502969
36.025000 85.578125 17.503945
36.200000 84.578125 17.504639
36.125000 83.359375 17.505486
36.100000 82.734375 17.505920
36.600000 81.234375 17.506962
36.875000 80.265625 17.507634
36.725000 78.843750 17.508622
36.575000 77.687500 17.509425
36.675000 76.734375 17.510087
37.025000 75.890625 17.510673
36.500000 89.578125 17.664865
36.400000 88.359375 17.665711
35.950000 87.265625 17.666470
36.000000 86.453125 17.667035
36.200000 85.265625 17.667859
36.275000 84.140625 17.668641
36.200000 82.843750 17.669541
36.525000 82.062500 17.670084
36.875000 80.859375 17.670919
36.725000 79.453125 17.671896
36.550000 78.437500 17.672601
36.675000 77.062500 17.673556
36.925000 75.937500 17.674337
37.325000 74.875000 17.675075
35.600000 88.828125 17.820979
35.750000 88.156250 17.821446
36.000000 87.171875 17.822130
36.050000 85.593750 17.823225
36.200000 84.437500 17.824028
36.250000 83.531250 17.824658
36.275000 82.453125 17.825407
36.600000 81.203125 17.826275
36.850000 79.984375 17.827121
36.700000 78.750000 17.827978
36.575000 78.171875 17.828380
36.750000 76.796875 17.829334
37.075000 75.593750 17.830170
35.700000 88.906250 17.990369
35.925000 88.062500 17.990955
36.050000 86.546875 17.992008
36.075000 85.890625 17.992463
36.100000 84.296875 17.993570
36.225000 83.468750 17.994145
36.400000 82.000000 17.995165
36.725000 81.437500 17.995556
36.925000 80.265625 17.996370
36.750000 79.093750 17.997184
36.525000 77.515625 17.998279
36.675000 76.750000 17.998811
37.075000 75.328125 17.999799
36.700000 89.640625 18.145995
35.950000 87.093750 18.147764
36.025000 86.187500 18.148393
36.100000 85.234375 18.149055
36.150000 83.750000 18.150086
36.200000 83.031250 18.150585
36.525000 81.765625 18.151464
36.875000 80.562500 18.152300
36.725000 79.687500 18.152907
36.525000 78.390625 18.153808
36.425000 77.250000 18.154600
36.700000 76.078125 18.155414
37.350000 75.234375 18.156000
35.675000 88.937500 18.304756
35.900000 87.906250 18.305472
36.050000 86.968750 18.306123
36.100000 85.687500 18.307013
36.125000 84.703125 18.307696
36.200000 83.125000 18.308792
36.400000 82.265625 18.309389
36.700000 81.343750 18.310029
36.900000 80.093750 18.310897
36.725000 78.812500 18.311787
36.550000 78.015625 18.312340
36.825000 76.875000 18.313132
37.175000 75.359375 18.314185
36.025000 89.343750 18.474308
36.175000 88.140625 18.475144
36.000000 87.171875 18.475817
36.100000 85.578125 18.476924
36.150000 84.734375 18.477509
36.150000 83.703125 18.478226
36.375000 82.718750 18.478909
36.700000 81.593750 18.479691
36.825000 80.343750 18.480559
36.675000 79.343750 18.481253
36.500000 77.734375 18.482371
36.700000 76.890625 18.482957
37.075000 75.843750 18.483684
36.375000 88.734375 18.633043
36.050000 87.500000 18.633900
36.125000 86.562500 18.634551
36.200000 85.359375 18.635386
36.150000 83.781250 18.636482
36.175000 82.812500 18.637155
36.525000 81.953125 18.637752
36.875000 80.593750 18.638696
36.700000 79.515625 18.639445
36.475000 78.406250 18.640215
36.600000 77.234375 18.641029
36.850000 76.250000 18.641712
37.300000 75.250000 18.642407
35.975000 87.437500 18.800342
36.075000 86.187500 18.801210
36.150000 84.953125 18.802067
36.150000 83.828125 18.802848
36.225000 82.906250 18.803488
36.475000 81.953125 18.804150
36.800000 80.531250 18.805138
36.700000 79.218750 18.806049
36.525000 78.000000 18.806895
36.600000 76.875000 18.807677
36.850000 76.062500 18.808241
37.400000 74.796875 18.809120
35.650000 89.000000 18.953699
35.875000 87.531250 18.954719
36.000000 86.843750 18.955197
36.050000 85.796875 18.955924
36.100000 84.171875 18.957052
36.175000 83.265625 18.957681
36.525000 82.156250 18.958452
36.875000 81.359375 18.959005
37.025000 80.203125 18.959808
36.850000 78.937500 18.960687
36.525000 77.718750 18.961534
36.650000 76.671875 18.962260
37.100000 75.671875 18.962955
35.625000 89.046875 19.109894
35.850000 88.000000 19.110620
36.000000 86.562500 19.111619
36.125000 85.531250 19.112335
36.100000 84.500000 19.113051
36.100000 83.281250 19.113898
36.375000 82.390625 19.114516
36.700000 81.343750 19.115243
37.000000 79.921875 19.116230
36.850000 78.546875 19.117185
36.500000 77.437500 19.117956
36.650000 76.765625 19.118422
37.075000 75.343750 19.119410
35.600000 88.640625 19.281094
35.825000 87.781250 19.281691
35.975000 86.468750 19.282602
36.200000 85.406250 19.283340
36.025000 84.265625 19.284132
35.775000 83.343750 19.284772
36.050000 82.156250 19.285597
36.500000 81.328125 19.286172
36.975000 80.109375 19.287018
36.825000 78.781250 19.287941
36.475000 77.562500 19.288787
36.550000 76.296875 19.289666
36.975000 75.718750 19.290067
36.500000 89.421875 19.441290
36.325000 88.265625 19.442093
35.850000 87.031250 19.442950
36.125000 86.218750 19.443515
35.625000 83.765625 19.445218
36.425000 80.687500 19.447356
36.650000 79.125000 19.448441
36.425000 77.921875 19.449276
36.450000 76.906250 19.449982
36.725000 76.062500 19.450568
37.325000 74.640625 19.451555
35.700000 87.531250 19.593742
35.950000 86.140625 19.594707
35.175000 83.843750 19.596303
35.600000 83.171875 19.596769
36.125000 82.046875 19.597550
36.575000 81.000000 19.598277
36.925000 79.640625 19.599221
36.700000 78.125000 19.600274
36.375000 77.234375 19.600893
36.550000 75.953125 19.601782
37.050000 74.953125 19.602477
35.475000 88.593750 19.758460
35.525000 87.843750 19.758981
35.675000 86.609375 19.759838
35.325000 85.484375 19.760620
34.950000 84.515625 19.761292
36.600000 78.609375 19.765394
36.450000 77.796875 19.765958
36.450000 76.437500 19.766902
36.800000 75.703125 19.767412
35.475000 88.843750 19.921350
35.350000 88.343750 19.921697
35.450000 86.781250 19.922782
35.150000 85.578125 19.923618
36.650000 78.984375 19.928197
36.475000 78.203125 19.928739
36.475000 76.984375 19.929586
35.050000 85.218750 20.094621
34.850000 84.109375 20.095391
35.225000 82.718750 20.096357
36.675000 78.500000 20.099287
36.400000 77.109375 20.100252
36.475000 76.390625 20.100751
36.725000 75.265625 20.101533
35.275000 87.921875 20.251434
35.250000 86.421875 20.252476
34.950000 85.234375 20.253301
34.700000 84.296875 20.253952
35.050000 83.296875 20.254646
36.000000 80.203125 20.256794
36.500000 79.062500 20.257587
36.425000 77.937500 20.258368
36.425000 76.718750 20.259214
36.525000 75.359375 20.260158
35.075000 88.828125 20.403723
35.250000 87.546875 20.404612
35.125000 86.578125 20.405285
34.875000 85.437500 20.406077
35.025000 81.921875 20.408519
35.600000 81.234375 20.408996
36.275000 80.015625 20.409842
36.500000 78.640625 20.410797
36.425000 77.718750 20.411438
36.400000 76.500000 20.412284
36.475000 75.515625 20.412967
35.300000 88.468750 20.570009
35.175000 87.343750 20.570790
34.975000 86.437500 20.571419
34.550000 85.421875 20.572124
34.450000 83.781250 20.573264
34.625000 82.875000 20.573893
35.075000 82.046875 20.574468
35.725000 80.843750 20.575304
36.250000 79.453125 20.576269
36.450000 78.828125 20.576703
36.325000 77.390625 20.577702
36.225000 76.390625 20.578396
36.400000 75.125000 20.579275
35.050000 88.546875 20.729299
35.100000 87.421875 20.730080
34.825000 86.125000 20.730981
34.525000 85.390625 20.731491
34.450000 84.203125 20.732316
34.600000 82.843750 20.733260
34.950000 82.078125 20.733791
36.325000 77.453125 20.737003
36.175000 76.171875 20.737893
36.325000 75.359375 20.738457
35.000000 88.546875 20.898772
35.075000 87.453125 20.899531
34.700000 83.937500 20.901973
34.475000 82.703125 20.902830
34.725000 81.796875 20.903459
36.200000 77.718750 20.906291
36.025000 76.312500 20.907268
36.250000 75.390625 20.907908
35.075000 89.187500 21.054337
34.975000 88.015625 21.055151
34.975000 87.078125 21.055802
34.600000 85.921875 21.056605
34.225000 84.765625 21.057408
34.225000 83.421875 21.058341
34.325000 82.828125 21.058753
34.600000 81.140625 21.059925
36.150000 76.953125 21.062833
36.000000 76.140625 21.063397
36.350000 75.062500 21.064146
34.700000 88.203125 21.210812
34.900000 87.093750 21.211582
34.800000 85.703125 21.212548
34.425000 84.281250 21.213536
34.250000 83.187500 21.214295
34.350000 82.468750 21.214794
34.650000 81.203125 21.215673
35.350000 77.687500 21.218115
35.850000 76.718750 21.218787
35.950000 75.718750 21.219482
36.450000 74.593750 21.220263
34.700000 89.468750 21.379773
34.600000 88.734375 21.380283
34.775000 87.406250 21.381205
34.850000 86.625000 21.381747
34.925000 85.046875 21.382843
34.625000 84.093750 21.383505
34.300000 82.890625 21.384341
34.425000 81.828125 21.385079
34.750000 80.921875 21.385708
35.400000 80.015625 21.386338
35.650000 78.828125 21.387162
35.550000 77.609375 21.388008
35.725000 76.171875 21.389007
36.050000 75.328125 21.389593
34.725000 86.578125 21.536096
34.525000 83.171875 21.538461
34.375000 82.312500 21.539058
34.625000 81.281250 21.539774
35.050000 79.890625 21.540740
35.325000 79.109375 21.541282
35.450000 77.750000 21.542227
35.650000 76.875000 21.542834
35.925000 75.500000 21.543789
36.425000 74.843750 21.544245
35.100000 89.390625 21.694579
34.675000 88.359375 21.695295
34.650000 87.250000 21.696065
34.700000 85.828125 21.697052
34.650000 85.000000 21.697628
34.575000 84.000000 21.698322
34.525000 82.812500 21.699147
34.600000 81.718750 21.699906
34.925000 80.312500 21.700883
35.125000 79.062500 21.701751
35.275000 78.328125 21.702261
35.450000 77.156250 21.703075
35.650000 75.953125 21.703910
36.025000 75.140625 21.704474
34.450000 89.468750 21.859152
34.300000 88.343750 21.859933
34.575000 87.640625 21.860422
34.625000 86.515625 21.861203
34.675000 85.078125 21.862201
34.675000 83.781250 21.863102
34.675000 82.875000 21.863731
34.725000 82.140625 21.864241
34.875000 80.640625 21.865283
34.950000 79.859375 21.865825
35.100000 78.718750 21.866617
35.300000 77.187500 21.867681
35.500000 76.484375 21.868169
35.825000 75.281250 21.869004
34.300000 88.281250 22.031838
34.550000 87.578125 22.032326
34.600000 86.531250 22.033053
34.650000 85.000000 22.034117
34.650000 84.000000 22.034811
34.650000 82.843750 22.035614
34.850000 81.984375 22.036211
34.850000 80.937500 22.036938
34.825000 79.500000 22.037936
35.075000 78.640625 22.038533
35.275000 77.343750 22.039433
35.475000 76.296875 22.040160
35.800000 75.078125 22.041007
34.550000 88.718750 22.192066
34.425000 87.937500 22.192608
34.550000 86.609375 22.193531
34.575000 85.578125 22.194247
34.600000 84.484375 22.195006
34.625000 83.562500 22.195647
34.750000 82.265625 22.196547
34.725000 81.125000 22.197339
34.675000 79.828125 22.198240
34.875000 78.843750 22.198924
35.100000 77.750000 22.199683
35.300000 76.718750 22.200399
35.550000 75.390625 22.201322
36.100000 74.484375 22.201951
34.550000 88.484375 22.357735
34.400000 87.921875 22.358125
34.525000 86.531250 22.359091
34.550000 85.406250 22.359872
34.575000 84.250000 22.360675
34.600000 83.031250 22.361522
34.725000 82.468750 22.361912
34.725000 80.750000 22.363106
34.650000 80.187500 22.363497
34.825000 79.078125 22.364267
35.050000 77.984375 22.365026
35.300000 76.859375 22.365808
35.500000 75.687500 22.366621
35.950000 74.328125 22.367566
34.375000 88.359375 22.506840
34.525000 87.265625 22.507600
34.525000 86.531250 22.508110
34.500000 85.078125 22.509119
34.550000 83.812500 22.509998
34.625000 82.828125 22.510682
34.850000 82.015625 22.511246
34.875000 80.968750 22.511973
34.700000 79.718750 22.512841
34.825000 78.265625 22.513850
35.050000 77.046875 22.514696
35.225000 76.140625 22.515326
35.500000 74.937500 22.516161
34.450000 89.234375 22.669341
34.375000 87.875000 22.670285
34.500000 86.750000 22.671066
34.550000 85.781250 22.671739
34.600000 84.734375 22.672466
34.600000 83.281250 22.673475
34.750000 82.359375 22.674115
34.650000 81.343750 22.674821
34.575000 80.296875 22.675548
34.800000 79.078125 22.676394
34.975000 77.546875 22.677457
35.200000 76.968750 22.677859
35.450000 75.609375 22.678803
35.825000 74.453125 22.679606
34.325000 88.531250 22.840443
34.500000 87.484375 22.841170
34.500000 86.281250 22.842006
34.500000 85.437500 22.842592
34.575000 84.062500 22.843546
34.650000 83.015625 22.844273
34.850000 82.046875 22.844946
34.925000 81.109375 22.845597
34.750000 79.375000 22.846802
34.800000 78.578125 22.847355
35.025000 77.484375 22.848114
35.225000 76.625000 22.848711
34.525000 87.187500 23.001325
34.525000 85.781250 23.002302
34.575000 84.656250 23.003083
34.600000 83.703125 23.003745
34.700000 82.437500 23.004624
34.700000 81.203125 23.005481
34.600000 80.093750 23.006251
34.675000 79.406250 23.006729
34.850000 77.828125 23.007825
35.050000 76.765625 23.008563
35.250000 76.031250 23.009073
35.575000 74.921875 23.009843
34.500000 89.156250 23.154618
34.375000 87.750000 23.155594
34.500000 87.000000 23.156115
34.525000 85.281250 23.157308
34.550000 84.406250 23.157916
34.600000 83.406250 23.158611
34.875000 82.500000 23.159240
34.850000 80.796875 23.160423
34.625000 79.937500 23.161019
34.800000 78.734375 23.161855
34.975000 77.718750 23.162560
35.175000 76.843750 23.163168
35.425000 75.531250 23.164079
35.800000 74.125000 23.165056
34.300000 87.984375 23.323039
34.500000 86.859375 23.323821
34.550000 85.828125 23.324537
34.600000 84.906250 23.325177
34.650000 83.734375 23.325991
34.875000 82.156250 23.327087
34.750000 81.156250 23.327781
34.575000 80.265625 23.328399
34.800000 79.187500 23.329148
34.950000 77.625000 23.330233
35.150000 76.468750 23.331036
35.375000 75.781250 23.331514
35.775000 74.468750 23.332425
34.825000 88.890625 23.480071
34.475000 87.406250 23.481102
34.500000 86.718750 23.481579
34.525000 85.562500 23.482382
34.575000 84.375000 23.483207
34.625000 83.000000 23.484162
34.825000 81.640625 23.485106
34.850000 80.562500 23.485854
34.700000 79.750000 23.486418
34.800000 78.343750 23.487395
35.025000 77.609375 23.487905
35.225000 76.328125 23.488795
34.500000 87.062500 23.637558
34.550000 85.687500 23.638513
34.575000 84.718750 23.639185
34.650000 83.781250 23.639836
34.875000 82.562500 23.640683
34.825000 81.468750 23.641442
34.650000 80.031250 23.642441
34.825000 79.125000 23.643070
34.975000 77.671875 23.644079
35.150000 76.796875 23.644687
35.375000 75.875000 23.645327
35.750000 74.734375 23.646119
34.500000 87.031250 23.812097
34.525000 85.406250 23.813225
34.575000 84.265625 23.814017
34.675000 83.640625 23.814451
34.925000 82.562500 23.815200
34.825000 80.890625 23.816361
34.625000 79.828125 23.817099
34.775000 78.796875 23.817815
34.975000 77.546875 23.818683
35.200000 76.796875 23.819204
35.450000 75.765625 23.819920
35.775000 74.281250 23.820951
34.550000 88.421875 23.962839
34.450000 87.718750 23.963327
34.525000 86.765625 23.963989
34.575000 85.296875 23.965009
34.600000 84.062500 23.965866
34.650000 83.062500 23.966561
34.900000 82.109375 23.967223
34.975000 80.718750 23.968189
34.800000 79.750000 23.968861
34.950000 78.953125 23.969414
35.125000 77.484375 23.970434
35.325000 76.187500 23.971335
35.575000 75.656250 23.971704
36.125000 74.328125 23.972626
34.575000 88.562500 24.129424
34.450000 87.718750 24.130010
34.525000 86.687500 24.130726
34.575000 85.593750 24.131486
34.625000 84.312500 24.132375
34.675000 83.062500 24.133244
34.925000 82.265625 24.133797
34.950000 81.140625 24.134578
34.775000 79.750000 24.135544
34.975000 78.812500 24.136195
35.250000 77.515625 24.137095
35.425000 76.390625 24.137877
34.650000 88.468750 24.288969
34.450000 87.296875 24.289783
34.575000 86.468750 24.290358
34.625000 85.390625 24.291107
34.650000 84.437500 24.291769
34.750000 83.312500 24.292550
34.900000 82.203125 24.293320
34.875000 80.921875 24.294210
34.775000 79.656250 24.295089
34.975000 78.859375 24.295642
35.250000 77.578125 24.296532
35.425000 76.250000 24.297454
35.700000 75.156250 24.298214
34.675000 89.406250 24.445433
34.575000 88.218750 24.446258
34.650000 87.156250 24.446995
34.700000 85.656250 24.448037
34.775000 85.078125 24.448439
34.800000 83.656250 24.449426
34.850000 82.640625 24.450131
35.000000 81.703125 24.450782
35.000000 80.156250 24.451857
35.050000 79.406250 24.452378
35.300000 78.328125 24.453126
35.500000 77.140625 24.453951
35.700000 75.859375 24.454841
36.050000 74.906250 24.455503
34.750000 89.078125 24.602793
34.575000 88.343750 24.603303
34.650000 87.234375 24.604074
34.700000 85.671875 24.605159
34.775000 85.078125 24.605571
34.975000 83.921875 24.606374
34.975000 82.687500 24.607231
34.900000 81.656250 24.607947
35.175000 80.343750 24.608859
35.325000 79.015625 24.609781
35.325000 78.125000 24.610399
35.500000 76.859375 24.611279
35.750000 75.656250 24.612114
36.100000 75.125000 24.612483
34.750000 89.000000 24.772621
34.675000 88.281250 24.773120
34.775000 87.031250 24.773988
34.850000 85.703125 24.774911
34.675000 84.453125 24.775779
34.575000 83.828125 24.776213
34.675000 82.187500 24.777352
34.800000 81.406250 24.777895
35.250000 80.546875 24.778491
35.475000 79.468750 24.779240
35.475000 78.343750 24.780021
35.675000 77.125000 24.780868
35.875000 75.765625 24.781812
36.250000 74.671875 24.782571
34.775000 88.578125 24.928995
34.750000 87.296875 24.929885
34.875000 86.546875 24.930406
34.750000 83.140625 24.932771
34.650000 81.593750 24.933846
34.950000 81.015625 24.934247
35.575000 79.671875 24.935180
35.775000 78.515625 24.935983
35.650000 77.390625 24.936764
35.825000 76.375000 24.937470
36.125000 75.296875 24.938218
34.925000 86.234375 25.100814
34.700000 85.296875 25.101465
34.625000 82.250000 25.103581
34.950000 81.171875 25.104330
35.575000 79.812500 25.105273
35.775000 78.562500 25.106142
35.675000 77.437500 25.106923
35.925000 76.593750 25.107509
36.200000 75.359375 25.108366
35.050000 86.281250 25.260348
34.775000 84.937500 25.261281
34.525000 84.421875 25.261639
34.600000 83.296875 25.262420
34.650000 81.687500 25.263538
35.925000 77.703125 25.266305
36.050000 76.109375 25.267412
36.300000 75.000000 25.268182
34.850000 89.640625 25.426568
34.925000 88.421875 25.427415
35.150000 87.312500 25.428185
35.175000 86.375000 25.428836
35.350000 85.390625 25.429520
35.025000 83.890625 25.430561
34.700000 82.671875 25.431408
34.950000 81.890625 25.431950
36.200000 77.500000 25.434999
36.200000 75.890625 25.436117
36.525000 75.203125 25.436594
35.125000 89.421875 25.582332
35.050000 88.468750 25.582994
35.175000 87.234375 25.583851
34.950000 83.984375 25.586108
34.850000 82.859375 25.586889
35.100000 81.218750 25.588028
36.475000 77.203125 25.590817
36.350000 75.703125 25.591859
36.700000 75.046875 25.592314
34.850000 89.546875 25.738008
34.875000 88.750000 25.738561
35.150000 87.203125 25.739635
35.275000 86.593750 25.740058
35.525000 85.453125 25.740850
35.225000 84.078125 25.741805
35.025000 82.890625 25.742630
35.375000 81.546875 25.743563
36.500000 77.421875 25.746428
36.400000 75.937500 25.747458
36.675000 75.359375 25.747860
35.400000 89.312500 25.907901
35.200000 87.812500 25.908943
35.300000 86.828125 25.909627
35.175000 83.609375 25.911862
36.650000 79.046875 25.915030
36.750000 77.953125 25.915790
36.575000 77.000000 25.916452
35.225000 89.484375 26.067447
35.250000 88.296875 26.068272
35.375000 87.453125 26.068857
35.200000 83.765625 26.071418
35.250000 82.687500 26.072167
35.800000 81.765625 26.072807
36.225000 80.875000 26.073426
36.725000 79.687500 26.074250
36.875000 78.281250 26.075227
36.625000 77.046875 26.076084
36.600000 76.109375 26.076735
36.900000 74.781250 26.077657
35.300000 88.640625 26.235945
35.450000 87.468750 26.236759
35.525000 86.171875 26.237660
35.850000 85.015625 26.238463
35.275000 82.890625 26.239939
35.800000 81.640625 26.240807
36.300000 80.859375 26.241349
36.800000 79.546875 26.242261
36.850000 78.546875 26.242955
36.625000 77.296875 26.243823
36.625000 76.171875 26.244604
36.900000 75.187500 26.245288
35.550000 86.843750 26.385376
35.275000 85.375000 26.386396
34.975000 84.250000 26.387177
35.175000 83.515625 26.387687
35.500000 82.187500 26.388610
35.900000 81.406250 26.389152
36.525000 80.312500 26.389912
36.850000 78.953125 26.390856
36.750000 77.906250 26.391583
36.750000 76.703125 26.392418
36.850000 75.703125 26.393113
35.550000 89.375000 26.546514
35.525000 88.234375 26.547306
35.550000 87.484375 26.547827
35.300000 83.609375 26.550518
36.875000 79.281250 26.553524
36.825000 78.515625 26.554055
36.700000 77.171875 26.554989
36.900000 76.281250 26.555607
37.175000 75.015625 26.556486
35.500000 88.796875 26.718781
35.625000 87.406250 26.719746
35.700000 86.671875 26.720256
35.925000 85.609375 26.720994
35.675000 84.359375 26.721862
35.375000 83.109375 26.722730
35.875000 82.187500 26.723371
36.500000 80.890625 26.724271
36.900000 80.000000 26.724890
36.850000 78.468750 26.725953
36.700000 77.500000 26.726626
36.775000 76.156250 26.727559
37.075000 75.343750 26.728123
35.675000 89.625000 26.874924
35.750000 88.265625 26.875868
35.725000 87.156250 26.876638
35.550000 83.765625 26.878993
35.425000 82.500000 26.879872
35.900000 81.875000 26.880306
36.600000 80.921875 26.880968
37.075000 79.562500 26.881912
36.925000 78.375000 26.882736
36.700000 77.093750 26.883626
36.875000 76.203125 26.884245
37.175000 75.312500 26.884863
35.800000 89.312500 27.028421
35.550000 87.765625 27.029495
35.775000 87.015625 27.030016
35.625000 85.859375 27.030819
35.400000 84.406250 27.031828
35.375000 83.312500 27.032588
35.525000 82.359375 27.033250
36.075000 81.562500 27.033803
36.725000 80.296875 27.034682
36.850000 79.234375 27.035420
36.675000 78.234375 27.036114
36.700000 77.093750 27.036906
37.000000 75.984375 27.037677
35.675000 88.625000 27.194543
35.800000 87.968750 27.194999
35.850000 86.640625 27.195921
35.975000 85.546875 27.196681
35.725000 84.406250 27.197473
35.450000 83.203125 27.198308
35.750000 81.781250 27.199296
36.400000 81.171875 27.199719
36.900000 79.859375 27.200630
36.825000 78.671875 27.201455
36.650000 77.437500 27.202312
36.750000 76.765625 27.202779
37.100000 75.578125 27.203604
36.200000 89.578125 27.353611
36.125000 88.531250 27.354337
35.850000 87.187500 27.355271
35.875000 85.984375 27.356106
36.150000 85.312500 27.356573
35.950000 83.921875 27.357538
37.175000 79.875000 27.360349
37.025000 78.109375 27.361575
36.675000 77.062500 27.362302
36.875000 76.171875 27.362920
37.275000 75.125000 27.363647
36.375000 89.312500 27.509291
36.250000 88.046875 27.510170
35.900000 87.312500 27.510680
36.025000 85.812500 27.511721
36.025000 85.015625 27.512275
35.750000 83.765625 27.513143
35.725000 82.406250 27.514087
36.275000 81.531250 27.514694
36.700000 80.765625 27.515226
36.725000 79.546875 27.516073
36.675000 78.265625 27.516962
36.675000 77.328125 27.517613
36.975000 76.093750 27.518471
37.425000 74.812500 27.519360
36.075000 88.968750 27.688943
35.925000 88.000000 27.689615
35.950000 87.234375 27.690147
36.125000 85.921875 27.691059
35.950000 84.921875 27.691753
35.650000 83.859375 27.692491
36.775000 79.125000 27.695779
36.600000 78.171875 27.696441
36.700000 76.765625 27.697417
35.900000 89.625000 27.836890
35.650000 88.546875 27.837639
35.850000 87.953125 27.838051
36.000000 86.546875 27.839028
36.075000 85.437500 27.839798
35.900000 84.515625 27.840438
35.700000 83.109375 27.841415
35.975000 81.984375 27.842196
36.525000 81.187500 27.842750
36.875000 80.125000 27.843488
36.775000 78.937500 27.844312
36.625000 77.875000 27.845050
36.725000 76.468750 27.846027
37.100000 75.312500 27.846829
36.475000 89.562500 28.006253
36.375000 88.015625 28.007327
35.950000 87.546875 28.007653
36.050000 86.203125 28.008586
36.375000 85.000000 28.009421
36.250000 83.953125 28.010148
35.925000 82.515625 28.011147
36.450000 81.937500 28.011548
36.875000 80.484375 28.012557
36.750000 79.406250 28.013306
36.575000 78.265625 28.014098
36.675000 77.187500 28.014847
36.900000 75.953125 28.015704
37.375000 75.125000 28.016279
35.625000 89.015625 28.162075
35.800000 87.843750 28.162889
35.975000 86.828125 28.163594
36.000000 85.750000 28.164343
36.300000 84.859375 28.164962
36.275000 83.453125 28.165938
36.150000 82.265625 28.166763
36.600000 81.578125 28.167240
36.875000 80.187500 28.168206
36.700000 79.203125 28.168890
36.575000 77.812500 28.169855
36.725000 76.953125 28.170452
37.075000 75.828125 28.171233
35.975000 87.062500 28.332911
36.050000 86.265625 28.333464
36.200000 85.156250 28.334234
36.175000 83.843750 28.335146
36.225000 82.890625 28.335808
36.575000 81.640625 28.336676
36.900000 80.343750 28.337576
36.725000 78.984375 28.338520
36.525000 78.031250 28.339182
36.700000 77.015625 28.339888
36.075000 88.640625 28.485715
36.000000 87.734375 28.486344
36.075000 86.375000 28.487288
36.100000 85.593750 28.487831
36.100000 84.062500 28.488894
36.200000 83.359375 28.489382
36.525000 82.265625 28.490142
36.875000 81.203125 28.490880
36.975000 79.640625 28.491965
36.725000 78.750000 28.492583
36.500000 77.500000 28.493451
36.700000 76.187500 28.494363
37.200000 75.171875 28.495068
36.000000 87.359375 28.643234
36.050000 85.812500 28.644308
36.125000 84.843750 28.644981
36.150000 83.984375 28.645578
36.250000 82.953125 28.646294
36.575000 81.531250 28.647281
36.875000 80.718750 28.647846
36.700000 79.515625 28.648681
36.500000 78.281250 28.649538
36.625000 77.125000 28.650341
36.925000 75.968750 28.651144
37.500000 74.843750 28.651926
36.200000 88.640625 28.815373
36.025000 87.437500 28.816208
36.075000 86.312500 28.816990
36.125000 85.484375 28.817565
36.125000 84.250000 28.818422
36.225000 82.859375 28.819388
36.525000 82.156250 28.819876
36.825000 81.015625 28.820668
36.725000 79.515625 28.821710
36.500000 78.500000 28.822415
36.500000 77.593750 28.823044
36.750000 76.296875 28.823945
37.225000 75.031250 28.824824
35.975000 86.859375 28.969250
36.125000 86.015625 28.969836
36.225000 85.109375 28.970465
36.175000 83.484375 28.971594
36.275000 82.640625 28.972180
36.650000 81.328125 28.973091
36.900000 80.500000 28.973666
36.725000 79.328125 28.974480
36.500000 78.156250 28.975294
36.700000 77.171875 28.975978
37.000000 76.109375 28.976715
37.600000 74.703125 28.977692
36.050000 89.218750 29.129614
36.100000 87.750000 29.130634
35.975000 86.875000 29.131241
36.100000 86.062500 29.131805
36.175000 85.000000 29.132543
36.175000 83.468750 29.133607
36.400000 82.546875 29.134247
36.725000 81.328125 29.135093
36.850000 80.250000 29.135842
36.650000 78.859375 29.136807
36.500000 77.859375 29.137502
36.650000 76.609375 29.138370
36.975000 75.750000 29.138967
35.650000 89.015625 29.294621
35.925000 87.984375 29.295337
36.000000 86.906250 29.296086
36.075000 85.875000 29.296802
36.150000 84.609375 29.297681
36.200000 83.718750 29.298299
36.500000 82.312500 29.299276
36.775000 81.453125 29.299873
36.850000 80.015625 29.300871
36.675000 79.000000 29.301576
36.550000 77.906250 29.302336
36.700000 76.984375 29.302976
37.050000 75.812500 29.303790
35.600000 88.593750 29.448489
35.825000 87.812500 29.449032
36.025000 86.406250 29.450008
36.100000 85.671875 29.450518
36.175000 84.687500 29.451202
36.275000 83.375000 29.452113
36.575000 82.093750 29.453003
36.825000 80.953125 29.453795
37.025000 79.718750 29.454652
36.850000 78.812500 29.455282
36.525000 77.390625 29.456269
36.675000 76.750000 29.456714
37.075000 75.250000 29.457756
35.875000 88.812500 29.623475
35.925000 87.718750 29.624235
36.050000 86.531250 29.625059
36.125000 85.515625 29.625765
36.100000 84.156250 29.626709
36.175000 83.000000 29.627512
36.500000 82.203125 29.628065
36.850000 80.703125 29.629107
37.175000 79.843750 29.629704
36.925000 78.421875 29.630691
36.500000 77.687500 29.631201
36.675000 76.265625 29.632188
37.150000 75.109375 29.632991
35.625000 89.250000 29.779506
35.750000 88.015625 29.780363
35.975000 87.078125 29.781014
36.200000 85.562500 29.782067
36.000000 84.796875 29.782598
35.700000 83.328125 29.783618
35.875000 82.156250 29.784432
36.375000 81.515625 29.784877
36.800000 80.015625 29.785919
36.650000 79.093750 29.786559
36.450000 78.078125 29.787264
36.575000 76.859375 29.788110
36.950000 75.765625 29.788870
35.525000 88.906250 29.943480
35.675000 87.968750 29.944131
35.800000 86.421875 29.945206
35.625000 85.765625 29.945662
35.375000 84.078125 29.946833
35.700000 82.125000 29.948190
36.350000 81.203125 29.948830
36.875000 80.218750 29.949513
36.725000 78.906250 29.950425
36.500000 77.921875 29.951108
36.575000 76.453125 29.952128
36.950000 75.562500 29.952747
36.450000 89.500000 30.105328
35.725000 87.468750 30.106739
36.050000 86.281250 30.107563
35.375000 83.578125 30.109441
36.350000 81.562500 30.110840
36.725000 80.781250 30.111383
36.675000 79.140625 30.112522
36.425000 78.312500 30.113097
36.425000 77.218750 30.113857
36.650000 75.796875 30.114844
37.250000 75.062500 30.115354
35.875000 89.578125 30.260942
35.925000 88.484375 30.261701
35.600000 87.625000 30.262298
35.950000 86.609375 30.263003
35.000000 84.187500 30.264685
35.325000 83.265625 30.265325
36.775000 78.765625 30.268450
36.475000 77.687500 30.269199
36.550000 76.437500 30.270067
36.900000 75.437500 30.270761
35.200000 85.343750 30.421184
34.975000 84.281250 30.421922
35.225000 83.218750 30.422660
36.750000 78.390625 30.426013
36.400000 77.187500 30.426848
36.475000 76.281250 30.427478
36.875000 74.921875 30.428421
35.475000 87.734375 30.589904
35.850000 86.609375 30.590685
34.925000 84.156250 30.592389
35.200000 83.187500 30.593062
36.675000 78.500000 30.596317
36.375000 77.171875 30.597239
36.475000 76.156250 30.597944
36.775000 75.187500 30.598617
35.600000 89.468750 30.751096
35.450000 87.921875 30.752170
35.000000 84.609375 30.754470
34.950000 83.484375 30.755251
35.375000 82.359375 30.756033
35.700000 81.562500 30.756586
36.200000 80.421875 30.757378
36.625000 79.546875 30.757986
36.525000 78.328125 30.758832
36.425000 77.187500 30.759624
36.500000 75.687500 30.760666
36.925000 74.718750 30.761339
35.325000 88.843750 30.916226
35.075000 87.734375 30.916996
35.175000 87.203125 30.917365
35.475000 85.578125 30.918494
34.775000 83.453125 30.919969
35.000000 82.109375 30.920902
35.350000 81.328125 30.921445
36.150000 80.218750 30.922215
36.575000 79.156250 30.922953
36.475000 77.812500 30.923886
36.300000 77.046875 30.924418
35.250000 89.281250 31.069828
35.050000 87.578125 31.071011
34.850000 84.531250 31.073127
34.675000 83.187500 31.074060
35.100000 82.171875 31.074765
35.500000 81.531250 31.075210
36.075000 80.359375 31.076024
36.525000 79.031250 31.076946
36.475000 77.953125 31.077695
36.275000 76.578125 31.078650
35.025000 87.921875 31.229122
34.700000 84.218750 31.231694
34.525000 83.312500 31.232323
35.000000 82.015625 31.233223
35.375000 81.296875 31.233723
35.975000 80.234375 31.234460
36.450000 78.968750 31.235339
36.325000 77.968750 31.236034
36.200000 76.656250 31.236945
36.275000 75.312500 31.237878
35.075000 89.046875 31.397784
34.900000 88.062500 31.398467
35.075000 86.843750 31.399313
35.075000 85.984375 31.399910
34.625000 84.750000 31.400768
34.275000 83.750000 31.401462
34.450000 82.343750 31.402438
36.500000 78.203125 31.405314
36.175000 77.000000 31.406149
36.050000 75.546875 31.407159
36.475000 74.546875 31.407853
34.925000 88.640625 31.553705
34.975000 87.718750 31.554346
34.650000 84.234375 31.556766
34.300000 83.484375 31.557286
34.450000 81.843750 31.558426
34.775000 81.140625 31.558914
35.375000 79.859375 31.559804
36.100000 79.140625 31.560303
36.200000 77.687500 31.561312
35.950000 76.328125 31.562256
36.125000 75.453125 31.562864
35.125000 89.343750 31.724443
34.900000 88.375000 31.725116
34.900000 87.296875 31.725865
34.600000 86.125000 31.726679
34.375000 84.453125 31.727839
34.350000 83.875000 31.728241
34.350000 82.765625 31.729012
34.600000 81.281250 31.730042
35.925000 76.781250 31.733167
35.950000 75.953125 31.733742
36.350000 74.625000 31.734665
34.850000 88.078125 31.883378
34.775000 87.109375 31.884051
34.525000 83.984375 31.886221
34.300000 82.750000 31.887078
34.500000 81.484375 31.887957
34.850000 80.796875 31.888434
35.475000 79.406250 31.889400
35.675000 78.546875 31.889997
35.600000 77.234375 31.890908
35.800000 76.031250 31.891744
36.100000 74.828125 31.892579
34.975000 89.515625 32.035525
34.750000 88.390625 32.036306
34.750000 87.062500 32.037228
34.800000 86.078125 32.037912
34.850000 84.859375 32.038758
34.575000 83.890625 32.039431
34.300000 82.406250 32.040462
34.500000 81.750000 32.040917
34.850000 80.625000 32.041699
35.200000 79.484375 32.042491
35.400000 78.187500 32.043391
35.575000 77.062500 32.044173
35.775000 75.812500 32.045041
36.075000 74.921875 32.045659
34.475000 89.484375 32.197589
34.325000 88.875000 32.198012
34.600000 87.296875 32.199108
34.675000 86.500000 32.199661
34.625000 85.593750 32.200291
34.725000 84.187500 32.201267
34.700000 82.843750 32.202200
34.525000 81.718750 32.202982
34.825000 80.718750 32.203676
35.100000 79.484375 32.204533
35.225000 78.531250 32.205195
35.425000 77.656250 32.205803
35.600000 76.156250 32.206845
35.875000 75.015625 32.207637
34.450000 88.578125 32.361008
34.525000 87.812500 32.361540
34.625000 86.203125 32.362657
34.650000 85.328125 32.363265
34.650000 84.453125 32.363873
34.675000 82.796875 32.365023
34.650000 81.890625 32.365652
