31.225000 87.921875 18.089293
31.250000 87.187500 18.089565
31.300000 85.890625 18.090045
31.375000 84.640625 18.090508
31.450000 83.687500 18.090861
31.650000 82.187500 18.091416
31.150000 87.500000 18.248166
31.275000 85.984375 18.248727
31.350000 85.000000 18.249091
31.400000 83.484375 18.249653
31.525000 82.437500 18.250041
31.025000 87.218750 18.397723
31.075000 86.140625 18.398122
31.200000 85.281250 18.398440
31.300000 83.437500 18.399123
30.775000 88.843750 18.545617
30.950000 87.515625 18.546109
30.975000 86.921875 18.546329
31.000000 85.546875 18.546838
31.050000 84.343750 18.547284
31.175000 82.937500 18.547804
31.425000 82.171875 18.548088
30.575000 89.015625 18.706064
30.850000 87.703125 18.706551
30.900000 86.921875 18.706840
30.900000 85.906250 18.707216
30.950000 84.796875 18.707627
31.000000 83.609375 18.708067
31.175000 82.453125 18.708495
30.325000 89.078125 18.855421
30.600000 88.296875 18.855711
30.625000 86.609375 18.856336
30.675000 85.859375 18.856613
30.725000 84.718750 18.857036
30.775000 83.718750 18.857406
30.900000 81.953125 18.858060
30.475000 86.687500 19.010483
30.525000 85.625000 19.010876
30.575000 84.625000 19.011247
30.650000 83.781250 19.011559
30.750000 87.531250 19.165794
30.775000 86.078125 19.166332
30.825000 85.296875 19.166622
30.875000 84.281250 19.166998
30.725000 88.734375 19.319237
30.875000 87.437500 19.319717
30.900000 86.203125 19.320174
30.950000 85.171875 19.320556
31.025000 84.343750 19.320863
31.075000 83.078125 19.321332
31.325000 81.609375 19.321876
30.775000 89.234375 19.465960
30.950000 87.640625 19.466550
31.050000 86.859375 19.466840
31.075000 85.218750 19.467447
31.075000 84.562500 19.467690
31.200000 83.281250 19.468165
31.425000 82.234375 19.468553
31.225000 87.187500 19.629420
31.250000 86.140625 19.629808
31.325000 84.484375 19.630421
31.400000 83.968750 19.630612
31.175000 89.062500 19.775681
31.300000 87.921875 19.776103
31.325000 86.875000 19.776491
31.400000 85.640625 19.776948
31.450000 84.203125 19.777480
31.050000 89.375000 19.926742
31.375000 88.171875 19.927188
31.425000 87.046875 19.927605
31.425000 86.015625 19.927987
31.475000 84.984375 19.928369
31.625000 83.593750 19.928884
31.825000 82.062500 19.929451
31.350000 88.781250 20.087548
31.425000 87.843750 20.087895
31.475000 86.796875 20.088283
31.600000 85.031250 20.088937
31.700000 84.500000 20.089134
31.750000 82.640625 20.089822
32.075000 81.671875 20.090181
31.125000 89.406250 20.239392
31.450000 87.906250 20.239948
31.450000 87.250000 20.240191
31.500000 85.640625 20.240787
31.625000 84.750000 20.241117
31.725000 83.406250 20.241615
31.825000 82.328125 20.242014
31.550000 87.531250 20.398139
31.625000 86.375000 20.398568
31.675000 84.875000 20.399123
31.750000 84.031250 20.399436
31.300000 88.812500 20.547754
31.550000 88.015625 20.548049
31.600000 86.875000 20.548471
31.625000 86.062500 20.548772
31.700000 84.312500 20.549420
31.775000 83.406250 20.549756
31.975000 82.031250 20.550265
31.450000 87.218750 20.707653
31.550000 86.453125 20.707936
31.650000 84.765625 20.708561
31.700000 83.734375 20.708943
31.800000 82.328125 20.709464
31.450000 87.359375 20.861092
31.550000 86.421875 20.861439
31.650000 84.765625 20.862052
31.725000 84.156250 20.862278
31.350000 87.875000 21.002294
31.400000 86.234375 21.002902
31.525000 85.343750 21.003232
31.575000 83.812500 21.003799
31.650000 82.750000 21.004193
32.025000 81.593750 21.004621
31.075000 88.968750 21.156461
31.150000 88.078125 21.156791
31.200000 86.953125 21.157208
31.325000 85.578125 21.157717
31.450000 84.640625 21.158065
31.525000 83.609375 21.158447
31.700000 82.421875 21.158886
30.900000 89.062500 21.311813
31.075000 88.296875 21.312097
31.100000 87.015625 21.312571
31.100000 85.500000 21.313133
31.225000 84.437500 21.313526
31.350000 83.406250 21.313908
31.475000 82.640625 21.314191
30.750000 89.062500 21.461929
30.925000 87.890625 21.462363
30.950000 86.812500 21.462763
31.025000 85.656250 21.463191
31.075000 84.593750 21.463584
31.100000 83.218750 21.464093
31.225000 82.031250 21.464533
30.675000 87.187500 21.625236
30.700000 86.343750 21.625549
30.750000 84.859375 21.626099
30.825000 83.734375 21.626515
30.950000 83.171875 21.626724
31.275000 81.734375 21.627256
30.275000 89.281250 21.774580
30.350000 88.187500 21.774985
30.375000 86.562500 21.775587
30.400000 86.046875 21.775778
30.450000 84.562500 21.776328
30.525000 83.500000 21.776721
30.700000 82.140625 21.777225
29.950000 88.375000 21.934461
29.975000 87.296875 21.934860
30.025000 86.640625 21.935103
30.050000 85.031250 21.935699
30.125000 84.125000 21.936035
30.225000 82.781250 21.936532
30.350000 81.531250 21.936996
30.000000 88.921875 22.085555
30.125000 88.281250 22.085792
30.125000 86.593750 22.086417
30.150000 85.562500 22.086799
30.175000 84.234375 22.087291
30.300000 83.734375 22.087476
30.225000 87.875000 22.232359
30.300000 86.250000 22.232961
30.400000 85.390625 22.233279
30.450000 84.437500 22.233633
30.525000 82.578125 22.234321
30.675000 82.031250 22.234524
30.450000 88.546875 22.386166
30.475000 86.890625 22.386779
30.550000 86.453125 22.386941
30.650000 85.156250 22.387422
30.725000 84.187500 22.387780
30.775000 83.000000 22.388220
31.050000 81.343750 22.388834
30.625000 87.609375 22.541289
30.550000 86.343750 22.541757
30.650000 85.593750 22.542035
30.775000 84.359375 22.542492
30.825000 83.500000 22.542810
30.950000 82.000000 22.543366
30.675000 87.281250 22.695736
30.700000 86.578125 22.695997
30.750000 85.171875 22.696517
30.825000 84.046875 22.696934
30.925000 82.828125 22.697386
31.250000 81.625000 22.697831
30.550000 87.859375 22.848710
30.575000 87.000000 22.849028
30.700000 85.375000 22.849630
30.825000 84.578125 22.849925
30.875000 83.062500 22.850486
31.025000 82.421875 22.850724
30.800000 87.937500 23.006182
30.825000 86.796875 23.006604
30.850000 85.734375 23.006998
30.850000 84.437500 23.007478
30.850000 83.000000 23.008011
31.025000 82.218750 23.008300
30.700000 89.000000 23.156274
30.775000 87.875000 23.156691
30.800000 86.531250 23.157189
30.825000 85.500000 23.157571
30.825000 84.468750 23.157953
30.875000 83.156250 23.158438
31.025000 82.437500 23.158705
30.775000 87.109375 23.319572
30.800000 86.125000 23.319937
30.850000 85.156250 23.320296
30.900000 83.968750 23.320736
30.675000 87.687500 23.466183
30.700000 86.093750 23.466774
30.750000 85.328125 23.467057
30.825000 84.078125 23.467520
30.925000 82.890625 23.467960
31.225000 81.968750 23.468301
30.600000 87.843750 23.616117
30.750000 87.062500 23.616406
30.700000 85.781250 23.616881
30.700000 84.453125 23.617373
30.825000 83.484375 23.617731
30.900000 81.625000 23.618420
30.275000 89.453125 23.778180
30.425000 88.265625 23.778619
30.425000 87.250000 23.778996
30.425000 86.093750 23.779424
30.550000 84.609375 23.779974
30.650000 83.390625 23.780425
30.150000 87.640625 23.925374
30.150000 86.046875 23.925965
30.200000 85.234375 23.926265
30.325000 84.125000 23.926677
30.450000 83.359375 23.926960
30.550000 81.578125 23.927620
30.000000 88.218750 24.085439
30.000000 86.718750 24.085995
30.025000 85.500000 24.086447
30.075000 84.531250 24.086805
30.125000 83.562500 24.087164
29.575000 88.437500 24.236076
29.650000 87.296875 24.236499
29.675000 86.171875 24.236916
29.725000 85.359375 24.237216
29.850000 83.421875 24.237934
29.900000 82.906250 24.238125
30.075000 81.531250 24.238634
29.300000 87.984375 24.397017
29.325000 86.062500 24.397729
29.375000 85.578125 24.397908
29.425000 83.953125 24.398510
29.525000 82.796875 24.398939
29.675000 81.296875 24.399494
29.600000 88.031250 24.550155
29.625000 87.031250 24.550526
29.750000 85.609375 24.551052
29.875000 84.812500 24.551347
29.925000 83.078125 24.551990
29.850000 88.437500 24.693272
29.950000 87.515625 24.693613
29.975000 85.796875 24.694250
30.025000 84.734375 24.694643
30.075000 84.062500 24.694892
30.125000 82.390625 24.695511
30.375000 81.843750 24.695714
30.125000 87.375000 24.848129
30.150000 86.875000 24.848314
30.250000 85.671875 24.848760
30.325000 84.546875 24.849176
30.350000 83.156250 24.849691
30.450000 82.109375 24.850079
30.100000 89.093750 25.002485
30.325000 88.562500 25.002682
30.375000 87.328125 25.003139
30.375000 85.953125 25.003649
30.375000 84.765625 25.004088
30.425000 83.562500 25.004534
25.350000 89.718750 25.152468
30.425000 87.953125 25.153122
30.425000 86.921875 25.153504
30.425000 85.937500 25.153868
30.425000 84.687500 25.154331
30.450000 83.703125 25.154696
30.450000 87.656250 25.314447
30.475000 86.468750 25.314887
30.600000 85.390625 25.315286
30.750000 84.218750 25.315721
30.775000 82.640625 25.316305
30.975000 81.406250 25.316762
30.525000 87.656250 25.463176
30.525000 86.312500 25.463674
30.500000 85.562500 25.463952
30.650000 84.500000 25.464345
30.750000 82.718750 25.465005
30.850000 81.781250 25.465352
30.475000 89.562500 25.611509
30.500000 88.375000 25.611949
30.525000 86.765625 25.612545
30.625000 85.906250 25.612863
30.675000 84.078125 25.613540
30.750000 83.328125 25.613818
30.825000 81.718750 25.614414
30.475000 87.343750 25.774316
30.625000 86.156250 25.774756
30.725000 85.359375 25.775051
30.750000 84.109375 25.775514
30.775000 82.468750 25.776121
31.075000 81.796875 25.776370
30.250000 88.937500 25.922789
30.400000 87.843750 25.923194
30.500000 86.718750 25.923611
30.550000 85.921875 25.923906
30.625000 84.906250 25.924282
30.700000 83.828125 25.924682
30.450000 87.687500 26.083672
30.475000 86.312500 26.084181
30.475000 85.140625 26.084615
30.525000 84.187500 26.084968
30.675000 83.078125 26.085379
30.950000 82.078125 26.085749
30.350000 88.140625 26.232867
30.425000 86.828125 26.233353
30.475000 85.203125 26.233955
30.500000 84.593750 26.234181
30.525000 83.093750 26.234737
30.700000 82.328125 26.235020
30.100000 89.656250 26.394565
30.175000 88.453125 26.395010
30.175000 87.062500 26.395525
30.250000 85.984375 26.395925
30.350000 84.562500 26.396451
30.425000 82.984375 26.397036
30.050000 87.796875 26.543568
30.050000 86.640625 26.543996
30.075000 85.437500 26.544442
30.100000 84.234375 26.544887
30.225000 83.406250 26.545194
30.425000 82.171875 26.545651
29.850000 88.046875 26.705804
29.875000 87.125000 26.706146
29.900000 85.859375 26.706614
29.950000 84.609375 26.707078
30.000000 83.562500 26.707465
29.650000 89.765625 26.840210
29.800000 88.078125 26.840836
29.850000 86.656250 26.841362
29.925000 86.125000 26.841559
29.975000 84.859375 26.842028
30.025000 83.187500 26.842647
30.100000 82.406250 26.842936
30.425000 81.453125 26.843289
30.075000 87.640625 26.996556
30.100000 86.609375 26.996938
30.150000 85.453125 26.997366
30.250000 83.984375 26.997910
30.350000 83.421875 26.998118
30.550000 82.218750 26.998564
30.250000 89.562500 27.151869
30.425000 87.843750 27.152506
30.450000 87.421875 27.152662
30.500000 85.687500 27.153304
30.575000 84.968750 27.153570
30.675000 83.671875 27.154051
30.750000 87.703125 27.306213
30.775000 86.703125 27.306583
30.800000 85.203125 27.307139
30.850000 84.171875 27.307521
30.900000 82.968750 27.307966
31.175000 81.968750 27.308337
30.600000 89.640625 27.463080
30.825000 88.000000 27.463687
30.850000 86.750000 27.464150
30.900000 86.046875 27.464411
30.925000 84.968750 27.464810
30.975000 84.031250 27.465157
30.925000 87.375000 27.617195
30.950000 86.906250 27.617369
31.000000 85.546875 27.617872
31.100000 83.906250 27.618480
31.200000 82.750000 27.618908
31.450000 81.968750 27.619198
30.875000 88.781250 27.772780
30.975000 88.000000 27.773069
31.075000 87.218750 27.773359
31.175000 85.625000 27.773949
31.250000 84.781250 27.774261
31.300000 83.437500 27.774759
31.450000 81.937500 27.775315
30.825000 89.453125 27.926858
31.050000 88.218750 27.927315
31.125000 86.906250 27.927801
31.225000 86.234375 27.928050
31.300000 85.093750 27.928473
31.375000 83.640625 27.929011
31.250000 87.500000 28.086040
31.275000 86.281250 28.086491
31.325000 85.343750 28.086838
31.375000 83.937500 28.087359
31.450000 82.968750 28.087718
31.800000 81.843750 28.088135
31.150000 89.031250 28.237050
31.325000 87.921875 28.237461
31.325000 86.640625 28.237936
31.350000 85.765625 28.238260
31.400000 84.578125 28.238699
31.475000 83.406250 28.239133
31.725000 81.906250 28.239689
31.100000 89.421875 28.391365
31.300000 88.140625 28.391840
31.325000 86.796875 28.392337
31.350000 85.640625 28.392765
31.400000 84.703125 28.393112
31.475000 83.515625 28.393552
31.700000 82.609375 28.393888
31.325000 87.718750 28.548165
31.350000 86.468750 28.548628
31.400000 84.734375 28.549270
31.400000 83.953125 28.549560
31.175000 88.953125 28.687457
31.250000 87.750000 28.687902
31.300000 86.531250 28.688354
31.350000 85.687500 28.688666
31.425000 84.171875 28.689228
31.600000 82.906250 28.689696
31.875000 82.125000 28.689986
31.100000 88.765625 28.840127
31.300000 87.968750 28.840422
31.300000 86.359375 28.841018
31.325000 85.484375 28.841342
31.375000 84.546875 28.841690
31.450000 83.015625 28.842257
31.700000 82.203125 28.842558
30.925000 89.093750 28.997264
31.125000 88.218750 28.997588
31.225000 86.406250 28.998260
31.300000 85.937500 28.998433
31.375000 84.312500 28.999035
31.450000 82.968750 28.999533
31.625000 81.875000 28.999938
30.700000 89.343750 29.151412
31.000000 87.968750 29.151921
31.100000 87.250000 29.152187
31.125000 85.562500 29.152812
31.075000 84.296875 29.153281
31.200000 83.468750 29.153588
31.425000 82.140625 29.154079
30.925000 87.203125 29.307053
30.950000 86.031250 29.307487
31.000000 85.078125 29.307840
31.050000 84.000000 29.308240
30.650000 88.656250 29.463137
30.800000 88.093750 29.463345
30.825000 86.296875 29.464011
30.850000 85.359375 29.464358
30.925000 84.531250 29.464664
30.975000 82.890625 29.465272
31.225000 81.921875 29.465631
30.550000 87.671875 29.617710
30.600000 86.328125 29.618208
30.625000 85.125000 29.618654
30.675000 84.125000 29.619024
30.750000 82.796875 29.619516
31.075000 81.187500 29.620112
30.350000 88.796875 29.774196
30.550000 87.781250 29.774572
30.575000 86.625000 29.775000
30.600000 85.609375 29.775376
30.650000 84.078125 29.775943
30.750000 83.234375 29.776256
30.925000 82.062500 29.776690
30.800000 87.265625 29.928292
30.825000 85.921875 29.928789
30.850000 84.671875 29.929252
30.900000 84.046875 29.929484
30.650000 89.125000 30.084718
30.925000 87.718750 30.085239
30.950000 87.187500 30.085436
30.975000 85.421875 30.086090
31.000000 84.265625 30.086518
31.075000 83.484375 30.086808
31.300000 82.250000 30.087265
30.700000 89.000000 30.223196
30.975000 87.812500 30.223635
31.000000 86.875000 30.223983
31.125000 86.093750 30.224272
31.250000 84.828125 30.224741
31.300000 83.281250 30.225314
31.425000 81.890625 30.225829
31.225000 87.281250 30.380717
31.275000 86.375000 30.381053
31.350000 84.968750 30.381574
31.400000 83.984375 30.381938
31.550000 82.156250 30.382616
31.350000 87.750000 30.534229
31.400000 85.859375 30.534929
31.400000 84.718750 30.535352
31.475000 84.218750 30.535537
31.175000 89.046875 30.690442
31.400000 87.796875 30.690905
31.425000 86.937500 30.691223
31.475000 85.546875 30.691739
31.500000 84.203125 30.692236
31.625000 83.593750 30.692462
31.925000 82.156250 30.692994
31.150000 89.421875 30.845776
31.425000 87.859375 30.846354
31.450000 86.921875 30.846702
31.500000 85.421875 30.847257
31.550000 84.671875 30.847535
31.675000 83.718750 30.847888
31.900000 82.218750 30.848444
31.150000 88.921875 31.001166
31.425000 88.093750 31.001472
31.450000 87.171875 31.001814
31.550000 85.500000 31.002433
31.675000 84.421875 31.002832
31.725000 83.203125 31.003284
31.875000 82.359375 31.003596
31.450000 87.234375 31.153711
31.475000 86.234375 31.154081
31.625000 85.484375 31.154359
31.725000 83.625000 31.155047
31.250000 89.187500 31.298444
31.500000 88.343750 31.298757
31.625000 86.750000 31.299347
31.650000 85.750000 31.299717
31.675000 84.656250 31.300122
31.725000 83.500000 31.300551
31.900000 82.562500 31.300898
31.150000 89.265625 31.462862
31.475000 88.734375 31.463058
31.525000 87.187500 31.463631
31.575000 85.687500 31.464187
31.625000 85.015625 31.464436
31.700000 83.593750 31.464962
31.800000 82.703125 31.465292
31.475000 88.125000 31.611760
31.500000 86.484375 31.612367
31.525000 85.265625 31.612819
31.625000 84.187500 31.613218
31.700000 82.765625 31.613744
32.000000 82.046875 31.614011
31.150000 89.265625 31.769068
31.375000 87.906250 31.769572
31.375000 87.312500 31.769792
31.475000 85.875000 31.770324
31.550000 84.484375 31.770839
31.625000 83.843750 31.771076
31.775000 82.640625 31.771522
31.175000 87.218750 31.923266
31.200000 86.281250 31.923613
31.325000 84.968750 31.924099
31.425000 83.906250 31.924493
31.050000 87.828125 32.081612
31.075000 87.062500 32.081895
31.100000 85.875000 32.082335
31.150000 83.984375 32.083035
31.300000 83.437500 32.083238
31.550000 81.718750 32.083874
30.925000 88.234375 32.233621
30.875000 87.328125 32.233957
30.900000 85.906250 32.234483
31.000000 84.937500 32.234842
31.075000 83.546875 32.235358
30.400000 89.421875 32.373538
30.625000 88.140625 32.374013
30.625000 87.203125 32.374360
30.675000 86.437500 32.374644
30.700000 84.625000 32.375315
30.775000 83.515625 32.375726
30.275000 88.312500 32.527686
30.300000 87.437500 32.528010
30.325000 86.046875 32.528525
30.350000 84.890625 32.528953
30.400000 83.734375 32.529381
30.500000 82.687500 32.529769
30.825000 81.078125 32.530365
30.025000 88.156250 32.685514
30.025000 86.953125 32.685960
30.100000 85.265625 32.686585
30.125000 84.687500 32.686799
30.200000 83.312500 32.687308
30.325000 82.390625 32.687649
30.000000 89.671875 32.839229
30.150000 88.328125 32.839727
30.150000 86.953125 32.840236
30.200000 86.187500 32.840520
30.225000 84.906250 32.840994
30.325000 83.218750 32.841619
30.475000 82.375000 32.841932
30.800000 81.687500 32.842186
30.275000 87.000000 32.998204
30.350000 86.531250 32.998378
30.500000 85.593750 32.998725
30.550000 84.015625 32.999309
30.600000 82.906250 32.999720
30.750000 81.390625 33.000281
30.275000 89.421875 33.148329
30.475000 87.859375 33.148908
30.475000 87.234375 33.149139
30.550000 86.140625 33.149544
30.675000 84.796875 33.150042
30.725000 83.281250 33.150603
30.550000 87.718750 33.309669
30.650000 87.078125 33.309906
30.675000 85.046875 33.310658
30.725000 84.421875 33.310890
30.825000 82.843750 33.311474
30.950000 82.125000 33.311740
30.350000 89.640625 33.457743
30.600000 87.984375 33.458356
30.700000 87.468750 33.458547
30.800000 85.984375 33.459097
30.825000 84.968750 33.459473
30.875000 83.718750 33.459936
30.450000 89.546875 33.606006
30.575000 88.593750 33.606359
30.725000 86.687500 33.607065
30.850000 86.093750 33.607285
30.875000 84.718750 33.607795
30.875000 83.343750 33.608304
30.800000 88.062500 33.761495
30.800000 86.187500 33.762189
30.825000 85.296875 33.762519
30.875000 84.250000 33.762907
30.925000 83.109375 33.763329
31.100000 81.640625 33.763873
30.525000 89.250000 33.917495
30.800000 88.250000 33.917865
30.800000 87.125000 33.918282
30.800000 86.281250 33.918594
30.825000 84.953125 33.919086
30.875000 83.406250 33.919659
30.775000 87.562500 34.080933
30.775000 86.578125 34.081298
30.800000 85.375000 34.081743
30.850000 84.093750 34.082218
30.850000 83.343750 34.082496
31.025000 81.703125 34.083103
30.600000 88.703125 34.229602
30.725000 88.078125 34.229834
30.750000 86.890625 34.230273
30.750000 85.828125 34.230667
30.800000 84.625000 34.231112
30.850000 83.406250 34.231564
30.950000 81.890625 34.232125
30.550000 87.718750 34.385418
30.550000 86.781250 34.385765
30.650000 85.046875 34.386407
30.775000 83.968750 34.386806
30.825000 83.125000 34.387119
30.950000 81.640625 34.387669
30.200000 89.078125 34.527368
30.375000 88.390625 34.527623
30.425000 87.375000 34.527999
30.450000 85.859375 34.528560
30.525000 84.609375 34.529023
30.575000 83.203125 34.529544
30.175000 87.609375 34.682247
30.125000 86.187500 34.682774
30.175000 85.296875 34.683103
30.225000 84.000000 34.683584
30.375000 83.203125 34.683879
30.575000 81.718750 34.684429
29.825000 89.750000 34.840586
29.950000 87.781250 34.841315
29.950000 87.015625 34.841599
29.975000 85.921875 34.842004
30.025000 84.468750 34.842542
30.075000 83.843750 34.842773
30.100000 81.875000 34.843503
30.375000 81.218750 34.843745
29.400000 88.484375 34.991616
29.425000 87.609375 34.991940
29.450000 86.656250 34.992292
29.525000 84.578125 34.993062
29.625000 84.000000 34.993276
29.700000 82.890625 34.993687
29.825000 81.468750 34.994214
29.350000 87.859375 35.147456
29.400000 87.000000 35.147774
29.450000 85.796875 35.148220
29.450000 84.546875 35.148683
29.600000 83.437500 35.149094
29.800000 82.093750 35.149591
29.550000 88.984375 35.299927
29.625000 88.468750 35.300118
29.675000 86.968750 35.300674
29.700000 85.796875 35.301108
29.875000 84.781250 35.301484
30.050000 83.703125 35.301883
29.975000 87.546875 35.461581
30.000000 86.093750 35.462119
30.025000 84.718750 35.462628
30.075000 83.578125 35.463050
30.150000 82.718750 35.463369
30.375000 81.671875 35.463756
30.150000 88.156250 35.611910
30.250000 87.125000 35.612292
30.275000 85.515625 35.612888
30.325000 84.281250 35.613346
30.400000 82.750000 35.613913
30.550000 82.359375 35.614057
30.050000 89.656250 35.769782
30.300000 88.437500 35.770233
30.350000 87.625000 35.770534
30.375000 85.859375 35.771188
30.400000 84.531250 35.771680
30.450000 84.125000 35.771830
30.375000 87.703125 35.920504
30.425000 86.171875 35.921071
30.475000 85.296875 35.921395
30.500000 83.750000 35.921968
30.550000 83.312500 35.922130
30.825000 81.703125 35.922726
30.475000 88.578125 36.080456
30.475000 86.953125 36.081057
30.475000 85.687500 36.081526
30.525000 85.140625 36.081729
30.575000 83.562500 36.082313
30.700000 82.578125 36.082678
31.100000 81.875000 36.082938
30.475000 87.046875 36.218507
30.500000 86.375000 36.218756
30.575000 85.015625 36.219259
30.675000 83.500000 36.219820
30.600000 87.515625 36.373619
30.600000 86.921875 36.373839
30.550000 85.734375 36.374279
30.650000 84.203125 36.374846
30.800000 82.671875 36.375413
30.925000 82.046875 36.375644
30.250000 89.468750 36.542668
30.475000 88.171875 36.543149
30.475000 87.500000 36.543398
30.525000 86.015625 36.543947
30.675000 84.875000 36.544370
30.775000 83.312500 36.544949
30.500000 87.265625 36.684611
30.450000 86.625000 36.684849
30.575000 85.187500 36.685381
30.700000 84.546875 36.685618
30.650000 82.875000 36.686237
30.800000 81.875000 36.686608
30.300000 89.656250 36.837221
30.425000 88.406250 36.837684
30.425000 87.078125 36.838176
30.475000 85.546875 36.838743
30.500000 84.765625 36.839032
30.575000 83.859375 36.839368
30.325000 87.078125 36.995631
30.375000 86.671875 36.995781
30.425000 85.578125 36.996186
30.450000 83.781250 36.996852
30.525000 82.515625 36.997320
30.750000 81.812500 36.997581
30.150000 88.203125 37.148443
30.175000 86.640625 37.149021
30.150000 85.218750 37.149548
30.250000 84.468750 37.149826
30.350000 82.906250 37.150404
29.825000 89.656250 37.307762
30.000000 88.484375 37.308196
30.025000 87.343750 37.308618
30.050000 86.296875 37.309006
30.075000 84.343750 37.309729
30.100000 83.359375 37.310094
29.750000 87.015625 37.449553
29.800000 86.375000 37.449790
29.850000 85.265625 37.450201
29.900000 83.453125 37.450872
29.950000 82.531250 37.451214
30.125000 81.671875 37.451532
29.900000 87.890625 37.605886
29.925000 86.078125 37.606557
30.000000 85.718750 37.606690
30.050000 83.906250 37.607362
30.100000 82.953125 37.607715
30.250000 81.953125 37.608085
30.175000 87.609375 37.760870
30.200000 86.765625 37.761182
30.275000 85.468750 37.761662
30.350000 84.031250 37.762195
30.450000 82.843750 37.762635
30.625000 81.765625 37.763034
30.350000 89.562500 37.914070
30.475000 88.218750 37.914567
30.525000 87.062500 37.914995
30.575000 85.421875 37.915603
30.650000 84.046875 37.916112
30.725000 83.000000 37.916500
30.825000 81.734375 37.916969
30.775000 87.437500 38.069223
30.775000 85.890625 38.069796
30.825000 85.343750 38.069999
30.875000 84.062500 38.070473
30.850000 87.171875 38.217375
30.875000 86.078125 38.217780
30.925000 85.468750 38.218006
30.975000 83.812500 38.218619
31.025000 83.171875 38.218856
31.350000 81.718750 38.219395
25.375000 89.546875 38.379852
30.875000 89.375000 38.379916
30.950000 87.515625 38.380605
30.950000 86.671875 38.380917
31.000000 85.609375 38.381311
31.100000 84.781250 38.381617
31.225000 83.250000 38.382185
31.400000 82.281250 38.382543
30.875000 89.343750 38.524295
30.975000 87.765625 38.524880
31.100000 86.703125 38.525273
31.200000 85.453125 38.525736
31.225000 84.656250 38.526031
31.275000 83.468750 38.526471
31.450000 82.015625 38.527009
31.050000 88.562500 38.677426
31.125000 86.812500 38.678074
31.250000 86.000000 38.678375
31.325000 85.031250 38.678734
31.375000 83.625000 38.679255
31.275000 87.234375 38.840019
31.300000 86.203125 38.840401
31.350000 84.843750 38.840904
31.425000 84.218750 38.841136
31.300000 87.765625 38.989182
31.325000 86.328125 38.989715
31.350000 85.375000 38.990068
31.400000 84.125000 38.990531
31.500000 82.640625 38.991081
31.825000 81.640625 38.991451
31.300000 88.234375 39.148144
31.300000 87.281250 39.148497
31.325000 85.859375 39.149023
31.350000 84.953125 39.149359
31.400000 83.578125 39.149868
31.300000 87.781250 39.298939
31.325000 86.671875 39.299350
31.350000 85.109375 39.299929
31.400000 84.218750 39.300259
31.575000 82.765625 39.300797
31.900000 82.203125 39.301005
31.275000 86.750000 39.459887
31.300000 86.156250 39.460107
31.350000 85.015625 39.460530
31.425000 83.562500 39.461068
30.950000 89.000000 39.613291
31.175000 88.156250 39.613604
31.250000 86.937500 39.614055
31.275000 85.921875 39.614431
31.350000 84.687500 39.614888
31.450000 83.265625 39.615415
31.650000 82.171875 39.615820
30.925000 89.593750 39.753721
31.100000 88.437500 39.754149
31.100000 87.093750 39.754647
31.200000 85.578125 39.755208
31.325000 84.328125 39.755672
31.375000 83.671875 39.755914
31.500000 82.515625 39.756343
30.850000 89.390625 39.911080
31.050000 88.343750 39.911468
31.025000 86.968750 39.911977
31.050000 85.484375 39.912527
31.150000 84.421875 39.912920
31.275000 83.312500 39.913332
31.475000 81.953125 39.913835
30.725000 89.312500 40.066684
30.925000 88.031250 40.067158
31.000000 86.578125 40.067696
31.000000 85.140625 40.068229
31.000000 84.140625 40.068599
31.050000 83.359375 40.068888
31.275000 82.000000 40.069392
30.475000 89.125000 40.220570
30.750000 88.093750 40.220952
30.775000 86.718750 40.221461
30.825000 86.046875 40.221710
30.850000 84.687500 40.222214
30.925000 83.406250 40.222688
31.050000 82.562500 40.223001
30.275000 88.828125 40.376731
30.475000 87.515625 40.377217
30.525000 86.671875 40.377529
30.575000 85.953125 40.377795
30.600000 84.546875 40.378316
30.650000 83.046875 40.378872
30.775000 81.906250 40.379294
30.275000 89.265625 40.525851
30.500000 88.046875 40.526303
30.525000 86.843750 40.526748
30.575000 85.906250 40.527095
30.675000 84.593750 40.527581
30.800000 83.578125 40.527958
30.925000 82.375000 40.528403
30.850000 87.265625 40.686712
30.850000 85.937500 40.687204
30.900000 85.250000 40.687459
30.925000 84.187500 40.687852
30.850000 89.125000 40.833521
30.950000 87.703125 40.834048
30.975000 86.750000 40.834401
31.000000 85.156250 40.834991
31.050000 83.921875 40.835448
30.800000 89.093750 40.981755
31.025000 87.875000 40.982206
31.025000 86.921875 40.982559
31.125000 85.859375 40.982953
31.275000 84.718750 40.983375
31.350000 83.171875 40.983948
31.550000 82.359375 40.984249
31.250000 87.312500 41.145715
31.275000 86.109375 41.146161
31.375000 85.421875 41.146415
31.425000 83.578125 41.147098
31.150000 89.296875 41.292228
31.350000 88.109375 41.292668
31.375000 86.875000 41.293125
31.450000 85.890625 41.293489
31.500000 84.140625 41.294137
31.550000 83.125000 41.294514
31.800000 81.781250 41.295011
25.600000 89.546875 41.446710
31.350000 86.765625 41.447740
31.450000 86.171875 41.447960
31.525000 85.109375 41.448353
31.625000 83.984375 41.448770
31.450000 87.437500 41.605223
31.475000 86.093750 41.605721
31.600000 84.875000 41.606172
31.725000 83.750000 41.606589
31.450000 87.812500 41.759931
31.550000 86.375000 41.760463
31.675000 85.718750 41.760707
31.725000 84.046875 41.761326
31.775000 82.718750 41.761818
32.125000 81.609375 41.762228
31.400000 88.718750 41.905339
31.550000 88.125000 41.905559
31.600000 86.625000 41.906115
31.650000 85.359375 41.906584
31.700000 84.125000 41.907041
31.775000 83.359375 41.907324
32.100000 81.968750 41.907839
31.325000 89.109375 42.065269
31.525000 88.312500 42.065565
31.600000 87.171875 42.065987
31.625000 85.250000 42.066699
31.675000 84.671875 42.066913
31.775000 83.328125 42.067410
32.025000 82.015625 42.067897
31.525000 87.265625 42.214282
31.525000 85.765625 42.214837
31.525000 85.250000 42.215028
31.650000 84.078125 42.215462
31.475000 87.546875 42.375453
31.475000 86.843750 42.375714
31.500000 85.078125 42.376368
31.625000 84.265625 42.376668
31.750000 83.484375 42.376958
32.000000 82.078125 42.377479
31.100000 89.265625 42.527168
31.225000 88.125000 42.527590
31.300000 87.281250 42.527903
31.425000 85.343750 42.528620
31.525000 84.843750 42.528805
31.600000 83.640625 42.529251
31.750000 82.296875 42.529749
31.150000 87.500000 42.671831
31.175000 86.343750 42.672259
31.275000 84.859375 42.672809
31.400000 83.640625 42.673260
31.025000 87.546875 42.833128
31.050000 86.937500 42.833354
31.075000 85.125000 42.834025
31.150000 84.421875 42.834286
31.225000 82.828125 42.834876
31.475000 82.109375 42.835142
30.600000 89.218750 42.982339
30.850000 88.640625 42.982553
30.825000 87.078125 42.983132
30.850000 86.015625 42.983526
30.925000 84.921875 42.983931
31.025000 84.046875 42.984255
30.550000 87.390625 43.145534
30.600000 86.656250 43.145805
30.650000 85.500000 43.146234
30.700000 83.875000 43.146836
30.750000 82.640625 43.147293
31.000000 82.015625 43.147524
30.225000 88.921875 43.292472
30.225000 87.343750 43.293056
30.250000 86.046875 43.293536
30.300000 84.609375 43.294069
30.325000 83.750000 43.294387
30.425000 83.109375 43.294624
30.650000 81.687500 43.295151
29.975000 89.125000 43.448089
30.075000 88.140625 43.448453
30.075000 86.765625 43.448962
30.100000 85.593750 43.449397
30.175000 84.750000 43.449709
30.225000 83.562500 43.450149
30.150000 87.406250 43.606722
30.200000 86.765625 43.606960
30.275000 85.531250 43.607417
30.325000 83.718750 43.608088
30.450000 83.078125 43.608325
30.650000 82.078125 43.608696
30.325000 87.375000 43.760783
30.425000 86.359375 43.761159
30.475000 85.046875 43.761645
30.600000 83.859375 43.762085
30.725000 82.609375 43.762548
30.950000 81.343750 43.763017
30.375000 89.578125 43.914410
30.500000 88.125000 43.914948
30.525000 86.687500 43.915480
30.550000 85.875000 43.915781
30.650000 84.921875 43.916134
30.750000 83.187500 43.916777
30.700000 88.187500 44.071005
30.650000 86.937500 44.071468
30.700000 85.718750 44.071919
30.800000 84.171875 44.072492
30.850000 83.125000 44.072880
30.975000 82.359375 44.073164
30.625000 87.781250 44.215488
30.625000 86.437500 44.215985
30.750000 85.406250 44.216367
30.850000 83.765625 44.216975
30.900000 83.281250 44.217154
31.075000 81.468750 44.217826
30.625000 88.406250 44.365046
30.700000 87.562500 44.365359
30.825000 85.937500 44.365960
30.900000 85.281250 44.366203
30.925000 84.000000 44.366678
30.700000 89.484375 44.528172
30.800000 88.109375 44.528681
30.800000 87.265625 44.528994
30.825000 85.593750 44.529613
30.825000 84.703125 44.529943
30.875000 83.468750 44.530400
31.000000 82.500000 44.530759
30.625000 89.703125 44.675694
30.800000 88.390625 44.676180
30.800000 86.984375 44.676701
30.825000 85.718750 44.677170
30.875000 84.890625 44.677476
30.900000 83.625000 44.677945
30.775000 87.718750 44.835901
30.800000 86.453125 44.836370
30.825000 84.796875 44.836984
30.850000 84.015625 44.837273
30.925000 82.546875 44.837817
31.250000 81.828125 44.838083
30.550000 89.000000 44.986233
30.725000 88.421875 44.986447
30.775000 87.015625 44.986968
30.800000 86.078125 44.987315
30.850000 84.765625 44.987801
30.900000 83.125000 44.988409
30.525000 87.390625 45.147641
30.600000 85.781250 45.148237
30.675000 85.031250 45.148515
30.750000 83.718750 45.149001
30.775000 82.281250 45.149533
31.075000 81.453125 45.149840
30.375000 87.546875 45.297770
30.375000 86.468750 45.298169
30.400000 85.437500 45.298551
30.500000 84.531250 45.298887
30.575000 82.984375 45.299460
30.650000 82.343750 45.299697
29.900000 89.093750 45.459416
30.075000 88.218750 45.459740
30.100000 87.343750 45.460064
30.125000 86.281250 45.460458
30.175000 84.968750 45.460944
30.225000 83.796875 45.461378
30.350000 82.734375 45.461771
30.650000 81.390625 45.462269
29.875000 87.906250 45.607548
29.925000 86.390625 45.608109
29.950000 85.406250 45.608474
29.975000 84.046875 45.608978
30.050000 83.453125 45.609197
29.375000 87.453125 45.764684
29.400000 87.140625 45.764800
29.425000 85.546875 45.765390
29.500000 84.203125 45.765888
29.600000 82.625000 45.766473
29.300000 88.968750 45.904494
29.450000 88.328125 45.904731
29.425000 86.656250 45.905350
29.450000 85.578125 45.905750
29.575000 84.765625 45.906051
29.700000 83.609375 45.906479
29.825000 82.843750 45.906763
30.125000 81.671875 45.907197
29.700000 88.093750 46.060937
29.700000 86.281250 46.061609
29.825000 85.640625 46.061846
29.975000 84.781250 46.062164
30.025000 83.031250 46.062812
30.075000 87.421875 46.213945
30.100000 86.234375 46.214385
30.150000 85.531250 46.214645
30.200000 84.125000 46.215166
30.175000 83.015625 46.215577
30.425000 81.187500 46.216254
30.050000 89.453125 46.370014
30.250000 87.843750 46.370610
30.250000 87.140625 46.370870
30.300000 85.625000 46.371431
30.350000 84.796875 46.371738
30.375000 83.093750 46.372369
30.350000 87.312500 46.523093
30.375000 87.031250 46.523197
30.400000 85.218750 46.523868
30.425000 84.156250 46.524262
30.600000 82.812500 46.524759
30.775000 82.312500 46.524945
30.150000 89.296875 46.670325
30.425000 88.640625 46.670568
30.450000 87.125000 46.671130
30.475000 86.406250 46.671396
30.525000 84.703125 46.672027
30.600000 83.515625 46.672467
30.425000 89.093750 46.840403
30.475000 88.281250 46.840704
30.475000 86.578125 46.841335
30.525000 85.796875 46.841624
30.575000 84.328125 46.842168
30.700000 83.234375 46.842573
30.850000 82.140625 46.842978
30.475000 87.031250 46.983121
30.500000 86.312500 46.983387
30.600000 84.609375 46.984018
30.675000 83.718750 46.984348
30.625000 88.015625 47.136168
30.600000 86.734375 47.136642
30.550000 85.937500 47.136938
30.650000 84.609375 47.137429
30.725000 83.171875 47.137962
30.850000 81.953125 47.138413
30.350000 88.781250 47.291713
30.475000 88.156250 47.291944
30.500000 87.281250 47.292268
30.550000 85.921875 47.292772
30.575000 84.359375 47.293350
30.725000 83.500000 47.293669
30.175000 89.656250 47.445991
30.450000 88.453125 47.446437
30.450000 87.687500 47.446720
30.475000 86.000000 47.447345
30.575000 85.375000 47.447577
30.650000 83.515625 47.448266
30.725000 82.765625 47.448543
31.100000 81.218750 47.449116
30.425000 88.234375 47.602972
30.450000 87.171875 47.603365
30.500000 85.578125 47.603956
30.550000 84.703125 47.604280
30.675000 83.421875 47.604754
30.800000 82.250000 47.605188
30.200000 88.968750 47.758601
30.250000 88.406250 47.758809
30.325000 87.125000 47.759284
30.425000 85.843750 47.759758
30.425000 84.640625 47.760204
30.475000 83.281250 47.760707
29.825000 89.421875 47.903160
30.100000 88.015625 47.903681
30.100000 87.218750 47.903976
30.100000 85.968750 47.904439
30.175000 85.140625 47.904746
30.300000 83.578125 47.905324
30.375000 82.625000 47.905678
30.675000 81.703125 47.906019
29.975000 87.796875 48.055401
29.975000 86.937500 48.055719
30.025000 85.625000 48.056205
30.050000 83.890625 48.056847
30.100000 82.953125 48.057194
30.250000 82.125000 48.057501
29.525000 89.218750 48.212808
29.625000 88.828125 48.212952
29.650000 87.546875 48.213427
29.700000 86.015625 48.213994
29.750000 84.546875 48.214538
29.825000 84.015625 48.214735
29.950000 82.171875 48.215418
30.150000 81.734375 48.215580
29.875000 88.703125 48.364394
29.975000 87.937500 48.364677
30.000000 86.734375 48.365123
30.050000 85.781250 48.365476
30.100000 84.281250 48.366031
30.150000 83.359375 48.366373
30.325000 87.281250 48.526949
30.325000 86.703125 48.527163
30.375000 84.750000 48.527887
30.500000 83.953125 48.528182
30.575000 82.703125 48.528645
30.750000 81.437500 48.529113
30.275000 89.546875 48.676644
30.500000 88.125000 48.677171
30.525000 86.640625 48.677721
30.600000 86.171875 48.677894
30.700000 85.156250 48.678271
30.775000 83.265625 48.678971
30.775000 87.718750 48.834590
30.800000 86.468750 48.835053
30.850000 85.562500 48.835388
30.875000 84.156250 48.835909
30.950000 82.984375 48.836343
31.150000 81.796875 48.836783
30.900000 87.531250 48.987802
30.925000 86.609375 48.988144
30.950000 84.734375 48.988838
31.000000 83.953125 48.989128
30.850000 89.250000 49.145676
30.950000 88.250000 49.146047
30.975000 86.734375 49.146608
31.025000 85.906250 49.146915
31.075000 84.484375 49.147441
31.175000 83.281250 49.147887
31.400000 82.515625 49.148171
30.900000 89.593750 49.297790
30.975000 87.656250 49.298507
31.075000 86.484375 49.298941
31.200000 85.625000 49.299260
31.275000 84.234375 49.299775
31.275000 83.062500 49.300209
31.425000 82.546875 49.300400
31.075000 89.343750 49.451948
31.200000 88.203125 49.452370
31.250000 86.984375 49.452822
31.300000 85.468750 49.453383
31.300000 84.156250 49.453869
31.375000 83.390625 49.454153
31.650000 82.031250 49.454656
31.150000 88.875000 49.592456
31.325000 87.718750 49.592884
31.300000 86.984375 49.593156
31.325000 85.406250 49.593740
31.400000 84.437500 49.594099
31.425000 83.281250 49.594527
31.650000 82.468750 49.594828
31.275000 88.437500 49.746995
31.300000 86.859375 49.747580
31.325000 85.609375 49.748043
31.375000 84.875000 49.748315
31.450000 83.406250 49.748859
31.625000 82.718750 49.749114
31.300000 87.812500 49.901334
31.325000 86.171875 49.901941
31.375000 85.031250 49.902364
31.475000 84.328125 49.902624
31.625000 83.250000 49.903023
32.000000 81.625000 49.903625
31.125000 89.203125 50.054970
31.300000 87.593750 50.055566
31.300000 86.453125 50.055988
31.300000 85.609375 50.056301
31.375000 84.250000 50.056804
31.550000 83.234375 50.057180
31.800000 82.406250 50.057487
31.275000 87.265625 50.212392
31.325000 86.390625 50.212716
31.375000 85.484375 50.213052
31.450000 84.015625 50.213596
31.575000 82.890625 50.214012
31.975000 81.671875 50.214464
31.050000 88.671875 50.364625
31.150000 87.671875 50.364996
31.250000 86.906250 50.365279
31.325000 85.406250 50.365835
31.375000 83.859375 50.366408
31.450000 83.031250 50.366714
31.750000 82.125000 50.367050
25.375000 89.718750 50.525444
31.125000 87.390625 50.526306
31.200000 86.015625 50.526815
31.250000 85.093750 50.527157
31.325000 83.562500 50.527724
30.925000 89.265625 50.677676
31.025000 87.750000 50.678238
31.025000 86.609375 50.678660
31.050000 85.125000 50.679210
31.150000 84.187500 50.679557
31.275000 83.078125 50.679968
31.525000 81.984375 50.680373
30.900000 87.500000 50.836677
30.925000 85.687500 50.837348
30.950000 84.656250 50.837730
31.000000 83.984375 50.837979
30.525000 88.843750 50.974496
30.675000 87.468750 50.975005
30.750000 86.203125 50.975474
30.800000 85.593750 50.975700
30.850000 83.890625 50.976331
30.900000 83.140625 50.976608
31.125000 81.453125 50.977233
30.200000 89.515625 51.130544
30.400000 88.187500 51.131036
30.425000 86.687500 51.131591
30.475000 85.531250 51.132019
30.550000 84.687500 51.132332
30.650000 83.734375 51.132685
30.575000 88.843750 51.285667
30.675000 87.906250 51.286014
30.725000 85.984375 51.286726
30.775000 85.531250 51.286894
30.825000 83.593750 51.287611
30.875000 83.218750 51.287750
31.150000 81.890625 51.288242
30.875000 86.781250 51.441103
30.900000 85.937500 51.441416
30.950000 84.546875 51.441931
31.000000 83.578125 51.442290
31.100000 82.453125 51.442706
30.925000 87.656250 51.592623
30.975000 86.171875 51.593172
31.025000 84.968750 51.593618
31.075000 84.046875 51.593959
31.225000 82.875000 51.594393
31.675000 82.015625 51.594712
31.075000 87.093750 51.750872
31.150000 86.375000 51.751138
31.275000 85.109375 51.751607
31.350000 83.281250 51.752284
31.300000 87.781250 51.901639
31.300000 86.359375 51.902165
31.350000 85.437500 51.902507
31.450000 84.359375 51.902906
31.575000 83.234375 51.903322
31.975000 81.875000 51.903826
31.200000 88.828125 52.059394
31.375000 87.812500 52.059770
31.400000 86.750000 52.060163
31.425000 85.546875 52.060609
31.475000 83.953125 52.061199
31.625000 82.828125 52.061616
31.950000 81.906250 52.061957
31.450000 87.500000 52.214870
31.475000 85.953125 52.215443
31.575000 84.546875 52.215964
31.675000 83.453125 52.216369
31.800000 82.781250 52.216618
31.425000 87.531250 52.371350
31.425000 86.171875 52.371853
31.450000 84.968750 52.372299
31.600000 84.468750 52.372484
31.750000 83.328125 52.372906
32.075000 82.187500 52.373329
31.225000 89.031250 52.522052
31.500000 88.390625 52.522289
31.600000 87.125000 52.522758
31.600000 85.843750 52.523232
31.650000 84.531250 52.523718
31.750000 83.093750 52.524251
31.900000 82.125000 52.524609
31.550000 87.453125 52.681473
31.550000 86.203125 52.681936
31.650000 85.281250 52.682277
31.700000 83.359375 52.682989
31.325000 88.812500 52.822047
31.525000 87.750000 52.822441
31.575000 86.859375 52.822771
31.625000 85.953125 52.823106
31.700000 84.453125 52.823662
31.700000 83.421875 52.824044
31.925000 82.390625 52.824426
31.200000 89.093750 52.974789
31.475000 88.046875 52.975177
31.575000 86.968750 52.975576
31.600000 85.906250 52.975970
31.625000 84.515625 52.976485
31.725000 83.468750 52.976873
31.875000 82.093750 52.977382
31.400000 87.437500 53.132471
31.425000 86.125000 53.132957
31.500000 85.343750 53.133246
31.650000 84.125000 53.133698
31.150000 89.000000 53.287387
31.250000 87.859375 53.287809
31.275000 86.546875 53.288296
31.350000 85.890625 53.288539
31.500000 84.718750 53.288973
31.600000 83.218750 53.289528
31.800000 81.828125 53.290043
30.800000 89.718750 53.442392
31.125000 88.296875 53.442918
31.125000 87.000000 53.443398
31.150000 86.531250 53.443572
31.225000 85.109375 53.444099
31.325000 83.828125 53.444573
30.925000 89.234375 53.591155
31.000000 87.890625 53.591653
31.000000 86.687500 53.592099
31.025000 85.421875 53.592567
31.125000 84.656250 53.592851
31.250000 83.609375 53.593239
31.450000 81.906250 53.593869
30.750000 88.328125 53.753968
30.750000 87.171875 53.754397
30.825000 86.312500 53.754715
30.900000 84.890625 53.755242
30.950000 83.921875 53.755600
30.400000 89.265625 53.902831
30.450000 87.812500 53.903369
30.500000 87.203125 53.903595
30.575000 85.859375 53.904093
30.600000 84.546875 53.904579
30.675000 83.156250 53.905094
30.800000 82.203125 53.905447
29.950000 89.515625 54.050023
30.100000 88.015625 54.050578
30.100000 87.203125 54.050879
30.150000 86.250000 54.051232
30.200000 85.203125 54.051620
30.250000 83.656250 54.052193
30.350000 82.781250 54.052517
30.625000 81.171875 54.053113
30.100000 87.609375 54.214530
30.125000 85.937500 54.215150
30.175000 85.437500 54.215335
30.200000 84.031250 54.215856
30.325000 83.187500 54.216168
30.550000 81.625000 54.216747
30.125000 89.500000 54.360424
30.200000 87.640625 54.361112
30.200000 86.781250 54.361430
30.300000 85.656250 54.361847
30.350000 84.765625 54.362177
30.450000 83.531250 54.362634
30.100000 89.562500 54.518923
30.425000 88.546875 54.519299
30.450000 87.406250 54.519722
30.525000 86.515625 54.520052
30.575000 84.859375 54.520665
30.625000 83.500000 54.521168
30.725000 82.203125 54.521649
31.000000 81.140625 54.522043
30.475000 87.703125 54.670522
30.600000 85.890625 54.671194
30.700000 85.078125 54.671495
30.775000 84.296875 54.671784
30.825000 82.812500 54.672334
31.075000 81.750000 54.672727
30.700000 87.390625 54.832435
30.725000 86.531250 54.832754
30.775000 85.250000 54.833228
30.825000 84.406250 54.833541
30.875000 83.046875 54.834044
31.025000 82.203125 54.834357
30.600000 87.781250 54.982476
30.650000 86.921875 54.982794
30.725000 85.078125 54.983477
30.825000 84.578125 54.983662
30.875000 82.703125 54.984357
31.050000 82.296875 54.984507
30.625000 88.937500 55.144051
30.725000 88.187500 55.144329
30.825000 86.812500 55.144838
30.825000 86.046875 55.145122
30.875000 84.578125 55.145666
30.925000 83.500000 55.146065
31.000000 82.406250 55.146470
30.550000 89.687500 55.279846
30.800000 88.609375 55.280245
30.800000 87.031250 55.280830
30.825000 86.046875 55.281194
30.850000 84.421875 55.281796
30.900000 83.406250 55.282172
30.750000 87.734375 55.437088
30.725000 86.296875 55.437621
30.775000 85.421875 55.437945
30.875000 84.000000 55.438471
30.875000 82.796875 55.438917
31.175000 81.890625 55.439253
30.525000 89.406250 55.589533
30.750000 87.906250 55.590089
30.775000 86.968750 55.590436
30.800000 85.640625 55.590928
30.850000 85.046875 55.591148
30.875000 83.781250 55.591617
30.650000 87.734375 55.750145
30.725000 86.750000 55.750510
30.725000 84.765625 55.751245
30.800000 84.031250 55.751517
30.850000 82.406250 55.752119
31.075000 81.453125 55.752471
30.300000 89.578125 55.903332
30.450000 87.781250 55.903998
30.475000 87.187500 55.904218
30.525000 85.765625 55.904745
30.600000 84.671875 55.905150
30.700000 83.781250 55.905480
30.300000 87.171875 56.048947
30.325000 86.171875 56.049318
30.400000 85.328125 56.049630
30.450000 84.265625 56.050024
30.500000 82.718750 56.050596
30.675000 81.484375 56.051054
30.050000 87.796875 56.212762
30.050000 86.312500 56.213312
30.075000 85.687500 56.213543
30.125000 84.812500 56.213867
30.200000 83.531250 56.214342
29.825000 87.218750 56.360373
29.850000 86.203125 56.360749
29.875000 85.375000 56.361056
29.925000 83.703125 56.361675
29.950000 82.421875 56.362149
30.125000 81.046875 56.362659
29.325000 87.578125 56.521798
29.350000 86.625000 56.522151
29.375000 85.140625 56.522701
29.425000 84.171875 56.523060
29.525000 83.187500 56.523425
29.425000 88.812500 56.669615
29.525000 88.109375 56.669875
29.550000 86.515625 56.670465
29.575000 85.859375 56.670708
29.700000 84.046875 56.671380
29.825000 83.234375 56.671681
29.800000 87.625000 56.823840
29.850000 86.218750 56.824361
29.900000 84.515625 56.824991
29.975000 83.453125 56.825385
30.075000 82.359375 56.825790
30.300000 81.515625 56.826102
30.000000 89.171875 56.978779
30.025000 88.187500 56.979143
30.125000 87.140625 56.979531
30.225000 85.406250 56.980173
30.200000 84.187500 56.980624
30.250000 83.593750 56.980844
30.075000 89.515625 57.133217
30.275000 88.343750 57.133651
30.275000 87.234375 57.134061
30.325000 85.812500 57.134588
30.375000 85.109375 57.134848
30.425000 83.500000 57.135444
30.400000 88.765625 57.290570
30.450000 86.953125 57.291242
30.425000 86.015625 57.291589
30.450000 84.812500 57.292035
30.500000 84.015625 57.292330
30.600000 82.718750 57.292810
31.050000 81.453125 57.293279
30.425000 88.015625 57.444221
30.450000 86.515625 57.444776
30.500000 85.281250 57.445233
30.550000 84.609375 57.445482
30.600000 82.968750 57.446090
30.750000 81.953125 57.446466
30.150000 89.250000 57.586882
30.400000 88.484375 57.587165
30.450000 87.531250 57.587518
30.500000 86.453125 57.587918
30.550000 85.015625 57.588450
30.650000 83.640625 57.588959
30.400000 88.875000 57.741001
30.475000 87.968750 57.741337
30.575000 87.187500 57.741626
30.675000 86.156250 57.742008
30.700000 84.656250 57.742564
30.775000 83.375000 57.743038
30.525000 88.078125 57.900867
30.600000 86.468750 57.901463
30.725000 85.265625 57.901908
30.800000 84.109375 57.902337
30.850000 83.406250 57.902597
30.950000 81.609375 57.903262
30.450000 88.625000 58.051049
30.475000 86.937500 58.051674
30.600000 85.640625 58.052154
30.625000 84.828125 58.052455
30.650000 83.796875 58.052837
30.400000 89.234375 58.210001
30.450000 87.750000 58.210551
30.450000 86.968750 58.210841
30.500000 85.593750 58.211350
30.550000 84.781250 58.211651
30.700000 83.656250 58.212068
30.825000 82.203125 58.212606
30.400000 87.531250 58.364158
30.400000 85.953125 58.364743
30.450000 84.703125 58.365206
30.600000 84.000000 58.365466
30.725000 82.359375 58.366074
30.925000 81.187500 58.366508
30.075000 89.265625 58.521753
30.225000 88.250000 58.522129
30.200000 87.218750 58.522511
30.275000 85.500000 58.523148
