43.325000 84.546875 4.103139
42.350000 89.750000 4.255869
42.750000 88.875000 4.256193
42.850000 87.796875 4.256592
42.850000 86.234375 4.257171
42.450000 89.593750 4.411060
42.550000 88.312500 4.411535
42.600000 87.125000 4.411975
42.650000 85.968750 4.412403
42.775000 84.671875 4.412883
42.225000 89.921875 4.566026
42.450000 88.671875 4.566489
42.525000 87.578125 4.566894
42.600000 86.671875 4.567230
42.675000 85.281250 4.567745
43.300000 84.234375 4.568133
37.825000 91.046875 4.714051
42.725000 89.203125 4.714734
42.825000 88.187500 4.715110
42.900000 87.250000 4.715457
42.975000 85.812500 4.715989
43.125000 84.875000 4.716336
42.775000 90.031250 4.877643
43.100000 88.609375 4.878169
43.175000 87.750000 4.878488
43.300000 86.609375 4.878910
43.400000 88.031250 5.029624
43.475000 86.921875 5.030035
43.550000 85.781250 5.030458
43.900000 84.546875 5.030915
37.200000 90.906250 5.176910
43.450000 89.531250 5.177419
43.550000 88.296875 5.177876
43.575000 87.281250 5.178252
43.650000 86.046875 5.178710
43.900000 84.796875 5.179173
43.725000 87.984375 5.336869
43.775000 86.531250 5.337407
43.825000 85.390625 5.337829
44.450000 84.406250 5.338194
43.525000 89.671875 5.488102
43.825000 88.593750 5.488502
43.825000 87.375000 5.488953
43.900000 86.390625 5.489317
44.000000 84.890625 5.489873
43.925000 88.062500 5.648334
43.975000 86.859375 5.648779
44.025000 85.734375 5.649196
44.425000 84.718750 5.649572
44.000000 88.046875 5.800942
44.000000 86.937500 5.801353
44.075000 85.765625 5.801787
44.575000 84.359375 5.802307
43.600000 89.578125 5.956794
44.075000 88.453125 5.957211
44.075000 87.468750 5.957575
44.125000 86.171875 5.958055
44.225000 84.984375 5.958495
44.100000 87.718750 6.110690
44.175000 86.687500 6.111072
43.575000 89.796875 6.252094
44.100000 88.375000 6.252620
44.125000 87.296875 6.253020
44.200000 85.984375 6.253506
44.350000 85.062500 6.253847
44.100000 87.937500 6.406415
44.175000 86.734375 6.406861
44.250000 85.531250 6.407306
44.925000 84.421875 6.407717
43.850000 89.203125 6.561549
44.150000 88.390625 6.561850
44.175000 86.875000 6.562412
44.225000 85.656250 6.562863
44.525000 84.843750 6.563164
44.075000 87.718750 6.719388
44.150000 86.531250 6.719828
44.225000 85.343750 6.720268
43.650000 89.406250 6.875318
44.025000 88.406250 6.875688
44.100000 87.062500 6.876186
44.125000 85.921875 6.876608
44.350000 84.625000 6.877089
44.075000 87.484375 7.027877
44.125000 86.375000 7.028287
44.125000 85.031250 7.028785
43.975000 87.921875 7.186260
43.975000 86.421875 7.186816
43.975000 85.234375 7.187256
44.600000 84.343750 7.187586
43.225000 89.500000 7.332611
43.700000 88.375000 7.333028
43.800000 87.171875 7.333473
43.875000 86.328125 7.333786
43.925000 85.000000 7.334278
43.650000 87.796875 7.482637
43.675000 86.531250 7.483105
43.725000 85.593750 7.483453
44.300000 84.343750 7.483916
42.925000 89.687500 7.636429
43.350000 88.609375 7.636828
43.400000 87.265625 7.637326
43.525000 86.390625 7.637650
43.600000 85.125000 7.638118
43.100000 87.796875 7.791274
43.250000 86.656250 7.791696
43.250000 85.390625 7.792165
43.650000 84.515625 7.792489
42.525000 89.421875 7.945710
42.750000 88.546875 7.946034
42.775000 87.265625 7.946509
42.825000 86.000000 7.946978
42.900000 85.171875 7.947284
42.475000 89.359375 8.100402
42.550000 88.359375 8.100773
42.600000 86.921875 8.101305
42.700000 85.843750 8.101705
42.825000 84.625000 8.102156
42.750000 88.109375 8.254874
42.825000 86.640625 8.255418
42.850000 85.343750 8.255898
43.350000 84.281250 8.256292
42.850000 88.875000 8.410454
42.875000 87.484375 8.410969
42.925000 86.609375 8.411293
37.175000 90.875000 8.565999
42.825000 89.187500 8.566624
42.925000 88.390625 8.566919
42.975000 87.046875 8.567417
43.025000 85.781250 8.567886
43.275000 84.734375 8.568274
42.700000 89.406250 8.713738
42.950000 88.531250 8.714062
43.000000 87.437500 8.714467
43.075000 86.218750 8.714918
43.200000 84.781250 8.715451
43.025000 87.984375 8.878735
43.050000 87.031250 8.879088
43.100000 85.687500 8.879586
43.575000 84.562500 8.880003
42.700000 89.859375 9.028011
43.025000 88.750000 9.028422
43.000000 87.593750 9.028850
43.075000 86.250000 9.029348
43.200000 84.921875 9.029840
42.575000 89.984375 9.175596
42.950000 88.843750 9.176019
42.900000 87.703125 9.176441
42.950000 86.328125 9.176950
43.100000 85.296875 9.177332
43.000000 87.906250 9.338820
43.025000 87.015625 9.339149
43.075000 85.812500 9.339595
43.550000 84.562500 9.340058
42.700000 89.781250 9.488977
42.925000 88.515625 9.489446
42.975000 87.296875 9.489897
43.050000 85.968750 9.490389
43.175000 84.968750 9.490760
42.875000 87.875000 9.647556
42.925000 86.796875 9.647955
43.025000 85.781250 9.648331
43.400000 84.468750 9.648817
42.725000 89.187500 9.800804
42.725000 88.078125 9.801215
42.750000 86.953125 9.801632
42.800000 85.968750 9.801996
43.075000 84.718750 9.802459
42.475000 89.015625 9.955661
42.500000 87.921875 9.956066
42.525000 86.390625 9.956633
42.625000 85.265625 9.957050
43.175000 84.218750 9.957438
42.250000 89.359375 10.109307
42.250000 88.296875 10.109700
42.275000 86.968750 10.110192
42.325000 85.734375 10.110649
42.500000 84.937500 10.110945
42.050000 88.609375 10.251778
42.075000 87.671875 10.252126
42.100000 86.656250 10.252502
42.125000 85.093750 10.253081
42.675000 83.968750 10.253497
41.625000 89.734375 10.403099
41.650000 88.625000 10.403509
41.675000 87.062500 10.404088
41.725000 85.890625 10.404522
41.825000 84.984375 10.404858
41.175000 87.937500 10.563104
41.225000 86.859375 10.563504
41.300000 85.437500 10.564030
41.350000 84.250000 10.564470
41.300000 88.500000 10.714474
41.400000 87.843750 10.714717
41.525000 86.671875 10.715151
41.600000 85.093750 10.715736
42.025000 84.265625 10.716043
41.525000 89.515625 10.876187
41.550000 88.093750 10.876714
41.625000 87.125000 10.877072
41.700000 85.828125 10.877553
41.850000 84.593750 10.878010
41.700000 88.843750 11.026629
41.725000 87.484375 11.027133
41.825000 86.343750 11.027555
41.875000 85.218750 11.027972
42.425000 84.250000 11.028331
41.825000 88.250000 11.173279
41.900000 87.062500 11.173718
41.950000 85.921875 11.174141
42.125000 84.734375 11.174581
41.850000 89.437500 11.335235
41.850000 88.109375 11.335727
41.925000 87.125000 11.336092
41.950000 85.734375 11.336607
42.125000 84.609375 11.337023
41.625000 89.859375 11.484294
41.900000 88.531250 11.484786
41.975000 87.578125 11.485139
42.000000 86.281250 11.485620
42.025000 88.031250 11.645787
42.000000 87.015625 11.646163
42.050000 85.718750 11.646644
42.350000 84.468750 11.647107
41.775000 89.750000 11.793616
41.925000 88.500000 11.794079
41.950000 87.468750 11.794461
42.000000 86.046875 11.794988
42.075000 85.062500 11.795352
41.850000 88.828125 11.954337
41.900000 87.921875 11.954673
41.925000 86.468750 11.955211
41.975000 85.578125 11.955541
42.425000 84.218750 11.956044
41.775000 89.687500 12.103610
41.875000 88.437500 12.104073
41.875000 86.953125 12.104623
41.900000 85.937500 12.104999
42.025000 84.640625 12.105479
41.775000 88.281250 12.259375
41.775000 86.843750 12.259907
41.850000 85.812500 12.260289
42.000000 84.484375 12.260781
41.425000 89.625000 12.404785
41.525000 88.546875 12.405184
41.500000 87.218750 12.405676
41.575000 86.296875 12.406018
41.675000 85.000000 12.406498
41.250000 89.046875 12.555170
41.300000 87.875000 12.555604
41.325000 86.781250 12.556009
41.375000 85.421875 12.556513
41.700000 84.406250 12.556889
41.150000 88.843750 12.713755
41.175000 87.390625 12.714293
41.250000 86.250000 12.714715
41.350000 85.312500 12.715063
41.825000 84.234375 12.715462
41.625000 87.890625 12.864580
41.675000 87.031250 12.864898
41.775000 85.546875 12.865448
41.925000 84.375000 12.865882
41.875000 88.421875 13.029805
41.950000 87.531250 13.030134
42.000000 86.265625 13.030603
42.075000 89.312500 13.173997
42.150000 88.515625 13.174292
42.200000 87.109375 13.174813
42.250000 85.890625 13.175264
42.275000 84.953125 13.175611
42.375000 88.734375 13.334357
42.375000 87.625000 13.334768
42.425000 86.406250 13.335219
42.500000 85.421875 13.335584
43.100000 84.453125 13.335943
42.575000 88.046875 13.485864
42.600000 86.937500 13.486274
42.625000 85.875000 13.486668
42.875000 84.453125 13.487195
42.325000 90.046875 13.643733
42.675000 88.484375 13.644312
42.675000 87.468750 13.644688
42.750000 86.421875 13.645076
42.575000 89.703125 13.797933
42.775000 88.531250 13.798367
42.800000 87.250000 13.798841
42.875000 86.140625 13.799252
43.025000 84.953125 13.799692
42.375000 89.796875 13.952422
42.825000 88.625000 13.952856
42.800000 87.718750 13.953192
42.850000 86.265625 13.953730
42.875000 87.812500 14.093655
42.950000 86.906250 14.093991
43.025000 85.781250 14.094408
43.500000 84.593750 14.094847
42.675000 89.671875 14.248918
42.925000 88.593750 14.249317
42.900000 87.468750 14.249734
42.925000 86.046875 14.250261
43.075000 85.046875 14.250631
42.325000 90.125000 14.402704
42.850000 88.984375 14.403127
42.950000 87.828125 14.403555
43.000000 86.703125 14.403972
42.775000 89.234375 14.558666
42.800000 88.187500 14.559054
42.875000 87.015625 14.559488
43.000000 85.875000 14.559911
43.225000 84.781250 14.560316
42.575000 89.906250 14.713734
42.825000 88.343750 14.714312
42.900000 87.265625 14.714712
42.950000 86.187500 14.715111
43.075000 85.140625 14.715499
42.850000 87.937500 14.869475
42.900000 86.859375 14.869874
42.925000 85.625000 14.870332
43.250000 84.375000 14.870795
42.500000 89.718750 15.024376
42.625000 88.375000 15.024874
42.650000 87.296875 15.025273
42.700000 86.234375 15.025667
42.850000 85.046875 15.026106
42.450000 87.968750 15.179050
42.525000 86.937500 15.179432
42.625000 85.359375 15.180017
43.025000 84.343750 15.180393
42.550000 89.125000 15.335290
42.575000 87.609375 15.335851
42.675000 86.796875 15.336152
42.725000 85.218750 15.336736
43.175000 84.343750 15.337061
42.750000 89.703125 15.487282
42.900000 88.437500 15.487751
42.900000 87.093750 15.488249
42.925000 86.125000 15.488607
43.075000 85.078125 15.488995
43.225000 88.093750 15.643328
43.325000 86.828125 15.643796
43.400000 85.468750 15.644300
43.750000 84.593750 15.644624
42.925000 89.937500 15.795276
43.425000 88.843750 15.795681
43.450000 87.593750 15.796144
43.475000 86.687500 15.796480
43.625000 85.421875 15.796949
44.250000 84.078125 15.797446
43.575000 89.125000 15.956086
43.625000 88.343750 15.956376
43.675000 86.921875 15.956902
43.750000 85.687500 15.957359
44.050000 84.796875 15.957689
43.350000 89.671875 16.092258
43.700000 88.734375 16.092605
43.750000 87.390625 16.093103
43.800000 86.312500 16.093502
43.900000 85.046875 16.093971
43.825000 87.765625 16.262856
43.900000 86.828125 16.263203
44.000000 85.453125 16.263712
44.550000 84.359375 16.264117
43.700000 89.375000 16.400471
43.950000 88.484375 16.400801
43.975000 87.125000 16.401304
44.050000 85.984375 16.401726
44.225000 84.968750 16.402103
43.525000 89.609375 16.558571
43.975000 88.562500 16.558959
44.025000 87.421875 16.559381
44.075000 86.109375 16.559867
44.175000 85.187500 16.560209
43.475000 89.734375 16.714947
43.975000 88.390625 16.715444
44.025000 87.406250 16.715809
44.075000 86.234375 16.716243
44.175000 85.312500 16.716584
43.900000 89.437500 16.867748
44.075000 88.218750 16.868200
44.125000 87.062500 16.868628
44.225000 86.015625 16.869016
44.525000 84.750000 16.869485
43.475000 89.703125 17.025388
44.000000 88.703125 17.025759
44.125000 87.312500 17.026274
44.175000 86.406250 17.026610
44.175000 85.125000 17.027084
44.125000 87.640625 17.181924
44.150000 86.562500 17.182323
37.250000 91.062500 17.321079
43.525000 89.375000 17.321704
43.975000 88.296875 17.322103
44.075000 87.312500 17.322468
44.200000 86.203125 17.322879
44.325000 85.000000 17.323324
44.075000 87.812500 17.478240
44.125000 86.656250 17.478668
43.775000 89.203125 17.632356
44.050000 88.421875 17.632645
44.100000 87.031250 17.633160
44.200000 85.968750 17.633554
44.425000 84.718750 17.634017
43.950000 88.671875 17.788561
43.975000 87.296875 17.789070
44.050000 86.046875 17.789533
44.150000 85.046875 17.789904
43.825000 87.765625 17.944021
43.875000 86.546875 17.944473
43.950000 85.265625 17.944947
44.550000 84.546875 17.945213
43.725000 87.812500 18.093748
43.800000 86.625000 18.094187
43.825000 85.375000 18.094651
44.275000 84.468750 18.094986
43.575000 87.625000 18.253829
43.650000 86.656250 18.254188
43.700000 85.234375 18.254715
43.250000 88.078125 18.402669
43.400000 86.968750 18.403080
43.525000 85.609375 18.403584
43.825000 84.640625 18.403943
42.875000 89.468750 18.551373
43.075000 88.609375 18.551692
43.075000 87.328125 18.552166
43.150000 86.218750 18.552577
43.325000 84.765625 18.553115
42.700000 88.500000 18.711979
42.700000 87.437500 18.712372
42.750000 86.156250 18.712847
42.850000 85.343750 18.713148
42.625000 87.796875 18.862484
42.650000 86.750000 18.862871
42.700000 85.468750 18.863346
43.125000 84.312500 18.863774
42.575000 89.656250 19.024712
42.725000 88.578125 19.025111
42.750000 87.265625 19.025597
42.875000 86.218750 19.025985
43.025000 85.078125 19.026407
42.875000 87.781250 19.174234
42.950000 86.859375 19.174576
43.000000 85.484375 19.175085
43.550000 84.593750 19.175415
42.925000 87.890625 19.333051
42.950000 86.625000 19.333520
43.000000 85.296875 19.334012
43.600000 84.281250 19.334388
42.700000 89.500000 19.484827
42.925000 88.281250 19.485278
43.025000 87.218750 19.485672
43.000000 85.953125 19.486140
43.175000 84.984375 19.486499
43.025000 87.843750 19.643815
43.025000 86.531250 19.644301
43.125000 85.531250 19.644671
43.675000 84.296875 19.645129
42.975000 89.265625 19.780828
43.000000 88.343750 19.781170
43.050000 87.015625 19.781662
43.100000 85.718750 19.782142
43.400000 84.859375 19.782460
42.925000 87.984375 19.940590
43.000000 86.625000 19.941093
43.050000 85.453125 19.941527
43.625000 84.343750 19.941938
42.850000 89.546875 20.095959
43.025000 88.515625 20.096341
43.025000 87.250000 20.096810
43.000000 85.921875 20.097301
43.200000 84.875000 20.097689
42.375000 89.890625 20.251171
42.875000 88.843750 20.251559
42.900000 87.640625 20.252004
42.950000 86.421875 20.252455
42.775000 89.453125 20.400478
42.800000 88.234375 20.400929
42.825000 86.937500 20.401410
42.900000 85.703125 20.401867
43.200000 84.562500 20.402289
42.400000 89.765625 20.551198
42.700000 88.765625 20.551569
42.700000 87.375000 20.552083
42.750000 86.281250 20.552489
42.825000 85.328125 20.552842
42.500000 87.953125 20.714436
42.550000 86.921875 20.714818
42.575000 85.546875 20.715328
43.000000 84.500000 20.715715
42.250000 88.109375 20.863295
42.250000 86.718750 20.863810
42.275000 85.750000 20.864168
42.575000 84.390625 20.864672
41.950000 88.078125 21.021612
42.000000 86.906250 21.022046
42.050000 85.671875 21.022503
42.175000 84.765625 21.022839
41.450000 89.718750 21.171753
41.550000 88.671875 21.172141
41.575000 87.328125 21.172638
41.625000 86.468750 21.172957
41.700000 85.234375 21.173414
42.275000 83.953125 21.173888
41.200000 89.250000 21.333722
41.250000 87.937500 21.334208
41.275000 86.484375 21.334746
41.375000 85.750000 21.335018
41.525000 84.312500 21.335550
41.450000 88.656250 21.485481
41.525000 87.328125 21.485972
41.600000 86.218750 21.486383
41.675000 84.890625 21.486875
42.275000 84.203125 21.487130
41.625000 87.875000 21.627074
41.750000 86.750000 21.627491
41.775000 85.609375 21.627914
42.075000 84.390625 21.628365
41.725000 88.625000 21.795619
41.750000 87.515625 21.796030
41.850000 86.562500 21.796383
41.825000 88.828125 21.935879
41.850000 87.640625 21.936318
41.900000 86.359375 21.936793
41.975000 85.468750 21.937123
42.450000 84.234375 21.937580
41.900000 88.062500 22.092851
41.975000 86.843750 22.093302
42.025000 85.859375 22.093667
42.175000 84.593750 22.094136
41.875000 87.609375 22.247434
41.925000 86.781250 22.247741
41.975000 85.484375 22.248221
42.450000 84.171875 22.248708
41.900000 89.234375 22.399223
41.950000 88.281250 22.399576
41.975000 87.203125 22.399976
42.000000 85.734375 22.400520
42.175000 84.859375 22.400844
41.850000 88.468750 22.558878
41.900000 87.390625 22.559277
41.875000 86.453125 22.559624
41.875000 88.156250 22.716171
41.925000 87.062500 22.716576
41.975000 85.796875 22.717044
42.150000 84.750000 22.717432
41.550000 89.765625 22.868073
41.775000 88.578125 22.868512
41.850000 87.640625 22.868860
41.875000 86.437500 22.869305
41.600000 87.890625 23.025692
41.725000 86.656250 23.026150
41.775000 85.765625 23.026479
42.075000 84.437500 23.026971
41.300000 89.468750 23.164058
41.425000 88.687500 23.164347
41.475000 87.234375 23.164885
41.550000 86.328125 23.165221
41.650000 84.859375 23.165765
41.175000 88.828125 23.320050
41.200000 87.875000 23.320403
41.250000 86.484375 23.320918
41.325000 85.453125 23.321300
41.575000 84.296875 23.321728
41.325000 88.359375 23.476081
41.350000 86.828125 23.476648
41.400000 85.703125 23.477064
41.525000 84.546875 23.477493
41.725000 88.734375 23.631275
41.775000 87.281250 23.631813
41.825000 86.250000 23.632195
41.975000 89.484375 23.785656
42.000000 88.281250 23.786102
42.075000 86.906250 23.786611
42.125000 85.625000 23.787086
42.275000 84.656250 23.787445
42.175000 88.484375 23.941903
42.275000 87.500000 23.942267
42.300000 86.546875 23.942620
42.450000 88.250000 24.091480
42.475000 86.937500 24.091966
42.525000 85.765625 24.092400
42.825000 84.734375 24.092782
42.425000 89.468750 24.252249
42.600000 88.484375 24.252614
42.625000 87.203125 24.253088
42.700000 86.187500 24.253465
42.800000 84.906250 24.253939
42.750000 87.859375 24.402276
42.775000 86.593750 24.402745
42.850000 85.671875 24.403086
43.350000 84.453125 24.403538
42.500000 89.875000 24.551892
42.775000 88.546875 24.552384
42.825000 87.468750 24.552783
42.925000 86.265625 24.553229
43.025000 85.156250 24.553640
42.800000 88.062500 24.711706
42.900000 87.046875 24.712082
42.975000 85.812500 24.712539
43.325000 84.484375 24.713031
42.350000 89.921875 24.862064
42.875000 88.890625 24.862446
42.900000 87.687500 24.862892
42.950000 86.406250 24.863366
43.075000 85.453125 24.863719
43.775000 84.468750 24.864084
42.875000 89.343750 25.021661
42.900000 88.453125 25.021991
42.975000 87.109375 25.022488
43.025000 85.984375 25.022905
43.250000 84.812500 25.023339
42.475000 90.015625 25.172675
42.850000 88.734375 25.173149
42.925000 87.406250 25.173641
42.975000 86.437500 25.174000
43.075000 85.093750 25.174498
42.775000 89.250000 25.334325
42.875000 88.234375 25.334701
42.925000 86.968750 25.335170
43.000000 85.906250 25.335563
43.200000 84.718750 25.336003
42.425000 89.796875 25.470829
42.850000 88.796875 25.471200
42.900000 87.593750 25.471645
42.950000 86.312500 25.472120
42.800000 87.796875 25.646204
42.825000 86.843750 25.646557
42.850000 85.593750 25.647020
43.300000 84.593750 25.647391
42.550000 89.375000 25.777322
42.650000 88.093750 25.777796
42.675000 87.046875 25.778184
42.700000 85.968750 25.778583
42.950000 84.546875 25.779110
42.325000 89.828125 25.935270
42.425000 88.578125 25.935733
42.500000 87.609375 25.936091
42.600000 86.281250 25.936583
42.650000 84.828125 25.937121
42.350000 89.765625 26.090523
42.575000 88.796875 26.090881
42.675000 87.750000 26.091269
42.775000 86.421875 26.091761
42.575000 90.046875 26.244315
42.975000 88.875000 26.244749
43.000000 87.406250 26.245293
43.025000 86.343750 26.245687
43.325000 88.093750 26.399654
43.375000 86.656250 26.400186
43.500000 85.796875 26.400505
43.825000 84.312500 26.401054
43.475000 89.453125 26.552755
43.550000 88.343750 26.553166
43.575000 86.843750 26.553721
43.625000 85.687500 26.554149
43.875000 84.500000 26.554589
43.225000 89.781250 26.711626
43.600000 88.625000 26.712054
43.675000 87.375000 26.712517
43.725000 86.390625 26.712882
43.800000 85.078125 26.713368
43.650000 89.328125 26.864011
43.725000 88.406250 26.864352
43.800000 87.140625 26.864821
43.875000 85.875000 26.865290
44.125000 84.875000 26.865660
43.400000 90.000000 27.019323
43.925000 88.937500 27.019717
43.925000 87.656250 27.020191
43.950000 86.593750 27.020585
44.000000 85.312500 27.021060
43.850000 89.375000 27.159953
43.975000 88.218750 27.160381
44.000000 87.140625 27.160780
44.100000 85.734375 27.161301
44.400000 84.671875 27.161695
43.700000 89.859375 27.317238
44.025000 88.500000 27.317741
44.075000 87.328125 27.318175
44.125000 86.031250 27.318655
44.225000 84.984375 27.319043
44.025000 87.609375 27.472931
44.125000 86.640625 27.473290
43.800000 89.359375 27.629965
44.050000 88.234375 27.630382
44.100000 87.062500 27.630816
44.100000 85.671875 27.631331
44.400000 84.578125 27.631736
43.625000 89.812500 27.778505
44.075000 88.593750 27.778957
44.075000 87.234375 27.779460
44.125000 86.062500 27.779894
44.250000 85.125000 27.780241
44.025000 87.640625 27.941379
44.125000 86.718750 27.941720
44.200000 85.328125 27.942235
44.875000 84.421875 27.942571
43.775000 89.500000 28.086764
44.050000 88.406250 28.087169
44.150000 87.281250 28.087585
44.200000 85.875000 28.088106
44.425000 84.687500 28.088546
43.425000 89.515625 28.249752
44.025000 88.671875 28.250064
44.075000 87.203125 28.250608
44.125000 86.218750 28.250973
44.200000 84.968750 28.251436
43.975000 87.578125 28.398382
44.000000 86.406250 28.398817
44.050000 85.062500 28.399314
43.950000 87.937500 28.546227
43.975000 86.625000 28.546713
44.050000 85.750000 28.547037
44.500000 84.296875 28.547575
43.825000 87.421875 28.709621
43.900000 86.359375 28.710015
43.950000 85.375000 28.710379
43.675000 87.718750 28.856507
43.750000 86.812500 28.856842
43.850000 85.625000 28.857282
44.425000 84.531250 28.857687
42.950000 89.546875 29.010723
43.450000 88.671875 29.011047
43.525000 87.328125 29.011545
43.625000 86.265625 29.011939
43.675000 85.140625 29.012355
43.275000 87.921875 29.166404
43.350000 86.718750 29.166850
43.450000 85.453125 29.167318
43.800000 84.359375 29.167723
42.625000 89.828125 29.319668
42.975000 88.656250 29.320102
42.975000 87.515625 29.320524
43.025000 86.203125 29.321010
43.100000 85.062500 29.321433
42.575000 89.468750 29.474597
42.675000 88.390625 29.474996
42.700000 87.296875 29.475401
42.700000 85.828125 29.475945
42.775000 84.640625 29.476385
42.675000 88.218750 29.629502
42.725000 87.093750 29.629919
42.800000 85.515625 29.630503
43.125000 84.500000 29.630879
42.800000 88.656250 29.777999
42.825000 87.796875 29.778317
42.875000 86.531250 29.778786
42.700000 89.609375 29.939468
42.900000 88.546875 29.939861
42.950000 87.125000 29.940388
43.000000 86.046875 29.940787
43.175000 84.968750 29.941186
42.975000 88.125000 30.089380
43.025000 86.875000 30.089843
43.075000 85.578125 30.090323
43.600000 84.421875 30.090752
42.625000 89.781250 30.250727
42.950000 88.515625 30.251196
42.975000 87.562500 30.251549
43.025000 86.390625 30.251983
43.125000 84.984375 30.252504
42.550000 90.000000 30.398156
43.075000 88.718750 30.398631
43.075000 87.546875 30.399065
43.075000 86.421875 30.399482
37.400000 91.046875 30.546205
42.900000 89.390625 30.546819
42.950000 88.296875 30.547224
43.000000 87.234375 30.547617
43.025000 85.703125 30.548184
43.350000 84.921875 30.548474
42.975000 87.937500 30.708482
43.025000 86.671875 30.708950
43.075000 85.703125 30.709309
43.675000 84.531250 30.709743
42.700000 89.750000 30.861729
42.950000 88.703125 30.862117
42.950000 87.328125 30.862627
43.000000 86.359375 30.862985
43.125000 85.015625 30.863483
42.950000 88.140625 31.019560
43.000000 86.640625 31.020115
43.000000 85.421875 31.020566
43.450000 84.281250 31.020989
42.725000 89.484375 31.171154
42.850000 88.156250 31.171646
42.900000 87.203125 31.171999
42.950000 85.812500 31.172514
43.150000 84.968750 31.172826
42.650000 88.937500 31.313287
42.625000 87.968750 31.313646
42.650000 86.781250 31.314086
42.750000 85.328125 31.314624
43.300000 84.515625 31.314925
42.475000 88.968750 31.468238
42.375000 88.000000 31.468597
42.450000 86.578125 31.469124
42.500000 85.500000 31.469523
42.975000 84.312500 31.469963
42.175000 87.953125 31.623802
42.225000 86.953125 31.624172
42.250000 85.828125 31.624589
42.450000 84.687500 31.625011
41.850000 88.468750 31.775805
41.875000 87.437500 31.776186
41.950000 86.359375 31.776586
42.000000 84.968750 31.777101
42.550000 83.906250 31.777494
41.450000 87.781250 31.935920
41.475000 86.781250 31.936290
41.575000 85.718750 31.936683
41.700000 84.421875 31.937164
41.100000 89.906250 32.088654
41.200000 88.343750 32.089233
41.275000 87.531250 32.089534
41.400000 86.187500 32.090031
41.425000 89.375000 32.244967
41.475000 88.343750 32.245349
41.550000 87.046875 32.245830
41.650000 86.093750 32.246182
41.775000 84.875000 32.246634
41.525000 89.062500 32.401504
41.600000 87.968750 32.401910
41.750000 86.578125 32.402425
41.800000 85.265625 32.402911
42.175000 84.359375 32.403246
41.775000 89.421875 32.540646
41.800000 88.187500 32.541103
41.850000 87.281250 32.541438
41.875000 85.765625 32.542000
42.000000 84.812500 32.542353
41.725000 89.796875 32.712707
41.850000 88.453125 32.713204
41.900000 87.546875 32.713540
41.975000 86.203125 32.714037
42.025000 84.843750 32.714541
41.900000 88.703125 32.852265
41.950000 87.656250 32.852652
42.000000 86.375000 32.853127
42.025000 85.437500 32.853474
42.525000 84.406250 32.853856
42.000000 88.109375 33.005149
42.075000 86.734375 33.005658
42.125000 85.687500 33.006046
42.375000 84.328125 33.006549
41.775000 89.500000 33.158136
41.900000 88.515625 33.158500
41.950000 87.500000 33.158877
42.025000 86.187500 33.159363
42.050000 84.796875 33.159878
41.925000 88.031250 33.314690
41.975000 87.093750 33.315038
42.000000 85.609375 33.315588
42.175000 84.453125 33.316016
41.750000 89.546875 33.464525
41.875000 88.328125 33.464977
41.925000 87.140625 33.465416
41.975000 85.859375 33.465891
42.025000 84.765625 33.466296
41.750000 89.062500 33.621252
41.825000 87.765625 33.621732
41.800000 86.500000 33.622201
41.900000 85.359375 33.622624
42.400000 84.421875 33.622971
41.575000 88.062500 33.777227
41.725000 86.640625 33.777754
41.775000 85.468750 33.778188
42.025000 84.437500 33.778570
41.375000 89.359375 33.933478
41.350000 88.328125 33.933860
41.400000 87.078125 33.934323
41.450000 85.750000 33.934814
41.625000 84.781250 33.935173
41.150000 88.828125 34.087492
41.200000 87.750000 34.087892
41.275000 86.593750 34.088320
41.300000 85.125000 34.088864
41.675000 84.015625 34.089275
41.400000 88.187500 34.248114
41.450000 86.859375 34.248606
41.500000 85.765625 34.249011
41.625000 84.562500 34.249457
41.725000 88.921875 34.401464
41.825000 87.796875 34.401881
41.825000 86.546875 34.402344
41.875000 85.234375 34.402830
42.325000 84.281250 34.403183
41.975000 89.703125 34.545516
42.075000 88.437500 34.545984
42.125000 87.250000 34.546424
42.175000 86.281250 34.546783
42.250000 84.734375 34.547356
42.300000 89.406250 34.706332
42.300000 88.093750 34.706818
42.325000 86.937500 34.707246
42.375000 85.671875 34.707715
42.550000 84.843750 34.708022
42.450000 87.718750 34.856684
42.525000 86.578125 34.857106
42.600000 85.359375 34.857558
43.200000 84.328125 34.857939
42.600000 88.171875 35.010652
42.650000 86.593750 35.011236
42.700000 85.531250 35.011630
43.075000 84.437500 35.012035
42.700000 89.531250 35.153566
42.750000 88.203125 35.154058
42.775000 86.875000 35.154550
42.850000 85.859375 35.154926
43.100000 84.656250 35.155371
42.600000 89.687500 35.319945
42.825000 88.531250 35.320373
42.875000 87.406250 35.320790
42.925000 86.203125 35.321235
43.000000 84.843750 35.321739
42.850000 88.968750 35.466484
42.875000 87.765625 35.466929
42.925000 86.421875 35.467427
42.875000 89.421875 35.617060
42.900000 88.093750 35.617552
42.950000 87.187500 35.617888
42.950000 85.906250 35.618362
43.200000 84.890625 35.618738
42.550000 89.890625 35.778526
42.875000 88.593750 35.779006
42.925000 87.359375 35.779464
43.000000 86.296875 35.779857
43.100000 85.125000 35.780291
42.675000 89.734375 35.927469
42.850000 88.453125 35.927944
42.875000 87.390625 35.928338
42.925000 86.281250 35.928748
43.025000 84.828125 35.929286
42.875000 88.031250 36.086888
42.925000 86.843750 36.087328
43.025000 85.640625 36.087774
43.500000 84.281250 36.088277
42.425000 89.796875 36.237435
42.850000 88.640625 36.237863
42.875000 87.484375 36.238291
42.925000 86.515625 36.238650
42.575000 89.562500 36.400874
42.775000 88.468750 36.401279
42.825000 87.281250 36.401718
42.850000 85.906250 36.402228
42.950000 84.812500 36.402633
42.600000 89.000000 36.549751
42.600000 87.937500 36.550144
42.625000 86.656250 36.550619
42.625000 85.234375 36.551146
43.200000 84.140625 36.551551
42.475000 89.468750 36.705863
42.500000 88.546875 36.706204
42.575000 87.406250 36.706627
42.625000 86.109375 36.707107
42.675000 85.015625 36.707512
42.800000 87.781250 36.859571
42.850000 86.906250 36.859895
42.975000 85.468750 36.860428
43.300000 84.421875 36.860815
42.875000 89.953125 37.019845
43.125000 88.468750 37.020395
43.125000 87.562500 37.020730
43.200000 86.406250 37.021158
43.325000 85.140625 37.021627
43.325000 89.390625 37.156011
43.325000 88.140625 37.156474
43.400000 87.000000 37.156897
43.500000 85.875000 37.157313
43.700000 84.718750 37.157742
43.000000 89.968750 37.310333
43.500000 88.718750 37.310796
43.575000 87.718750 37.311167
43.625000 86.500000 37.311618
43.700000 85.453125 37.312006
44.350000 84.250000 37.312451
38.225000 91.015625 37.464562
43.625000 89.156250 37.465251
43.700000 88.156250 37.465621
43.725000 87.078125 37.466021
43.800000 86.015625 37.466414
44.100000 84.609375 37.466935
43.525000 89.562500 37.621413
43.825000 88.687500 37.621737
43.825000 87.343750 37.622235
43.875000 86.031250 37.622721
44.000000 84.859375 37.623155
43.925000 88.062500 37.776199
43.950000 86.828125 37.776656
44.025000 85.468750 37.777160
44.500000 84.421875 37.777548
43.975000 87.718750 37.929841
44.025000 86.640625 37.930240
43.625000 89.812500 38.088030
44.025000 88.359375 38.088568
44.050000 87.375000 38.088933
44.125000 85.968750 38.089454
44.200000 85.031250 38.089801
44.000000 87.953125 38.243083
44.100000 86.437500 38.243644
44.200000 85.281250 38.244072
44.875000 84.265625 38.244448
44.100000 88.000000 38.403335
44.225000 86.875000 38.403752
44.225000 85.703125 38.404186
44.650000 84.546875 38.404614
43.475000 89.921875 38.540570
44.075000 88.796875 38.540987
44.100000 87.359375 38.541519
44.175000 86.453125 38.541855
44.275000 85.000000 38.542393
44.125000 87.546875 38.696438
44.200000 86.484375 38.696831
44.250000 85.156250 38.697323
44.075000 88.046875 38.850880
44.150000 86.781250 38.851349
44.200000 85.468750 38.851835
44.850000 84.500000 38.852194
43.425000 89.656250 39.005029
44.050000 88.421875 39.005486
44.075000 87.281250 39.005908
44.125000 86.312500 39.006267
44.200000 84.984375 39.006759
44.050000 88.046875 39.161733
44.050000 86.578125 39.162277
44.075000 85.390625 39.162717
44.725000 84.328125 39.163111
43.925000 87.546875 39.317647
43.950000 86.234375 39.318133
44.000000 84.984375 39.318596
43.425000 89.234375 39.464690
43.700000 88.390625 39.465003
43.725000 86.906250 39.465552
43.850000 86.000000 39.465888
44.125000 84.609375 39.466403
43.650000 87.484375 39.615349
43.700000 86.437500 39.615737
43.750000 85.250000 39.616177
43.450000 88.031250 39.779616
43.550000 86.984375 39.780004
43.600000 85.828125 39.780432
43.950000 84.343750 39.780982
43.175000 88.531250 39.928001
43.225000 87.640625 39.928331
43.300000 86.109375 39.928898
43.225000 85.140625 39.929257
42.775000 89.328125 40.087259
42.825000 88.359375 40.087618
42.875000 86.953125 40.088139
42.950000 85.812500 40.088561
43.050000 84.546875 40.089030
42.550000 88.718750 40.237622
42.600000 87.625000 40.238027
42.675000 86.359375 40.238496
42.625000 89.343750 40.397301
42.775000 88.265625 40.397701
42.800000 87.078125 40.398140
42.875000 86.062500 40.398517
42.975000 84.750000 40.399003
42.825000 87.718750 40.549502
42.875000 86.531250 40.549942
42.925000 85.500000 40.550324
43.475000 84.593750 40.550659
42.775000 89.375000 40.705760
42.850000 88.296875 40.706160
42.950000 87.109375 40.706599
43.000000 85.984375 40.707016
43.300000 84.859375 40.707433
42.425000 89.828125 40.844463
42.925000 88.890625 40.844810
42.975000 87.781250 40.845222
43.025000 86.265625 40.845783
42.825000 89.546875 41.000655
42.875000 88.234375 41.001142
42.975000 87.218750 41.001518
43.050000 85.937500 41.001992
43.300000 84.921875 41.002368
43.000000 87.734375 41.155050
43.050000 86.484375 41.155513
43.125000 85.375000 41.155924
43.775000 84.328125 41.156311
42.850000 89.546875 41.310034
42.900000 88.187500 41.310538
42.975000 87.046875 41.310960
43.050000 86.046875 41.311330
43.325000 84.765625 41.311805
42.550000 89.937500 41.465506
42.950000 88.906250 41.465888
42.975000 87.750000 41.466316
43.025000 86.640625 41.466727
42.875000 88.234375 41.622321
42.975000 86.984375 41.622784
43.050000 85.781250 41.623230
43.350000 84.609375 41.623664
42.725000 89.359375 41.775086
42.775000 88.281250 41.775485
42.850000 87.281250 41.775855
42.925000 86.078125 41.776301
43.100000 85.000000 41.776700
42.775000 88.156250 41.930929
42.775000 87.031250 41.931346
42.825000 85.734375 41.931826
43.225000 84.343750 41.932341
42.225000 89.828125 42.087859
42.550000 88.890625 42.088207
42.575000 87.625000 42.088675
42.600000 86.281250 42.089173
42.275000 88.671875 42.240970
42.300000 87.640625 42.241352
42.350000 86.609375 42.241734
42.400000 85.578125 42.242115
42.925000 84.375000 42.242561
42.100000 88.078125 42.399479
42.125000 86.937500 42.399902
42.150000 85.484375 42.400440
42.425000 84.671875 42.400741
41.750000 89.312500 42.538072
41.725000 88.421875 42.538402
41.775000 87.234375 42.538841
41.875000 85.859375 42.539351
41.950000 84.687500 42.539785
41.250000 89.000000 42.692262
41.275000 87.593750 42.692783
41.275000 86.468750 42.693200
41.350000 85.328125 42.693622
41.625000 84.250000 42.694021
41.250000 88.812500 42.850044
41.300000 88.000000 42.850345
41.400000 86.671875 42.850837
41.475000 85.687500 42.851201
41.700000 84.515625 42.851635
41.500000 88.218750 43.006359
41.575000 86.796875 43.006886
41.675000 85.640625 43.007314
41.825000 84.437500 43.007759
41.700000 88.718750 43.154748
41.725000 87.921875 43.155043
41.825000 86.625000 43.155524
41.900000 85.265625 43.156027
42.275000 84.453125 43.156328
41.800000 87.937500 43.315635
41.875000 86.765625 43.316069
41.925000 85.671875 43.316474
42.100000 84.671875 43.316845
41.850000 88.609375 43.464152
41.900000 87.421875 43.464592
41.950000 86.546875 43.464916
41.925000 87.734375 43.612593
41.925000 86.750000 43.612957
42.000000 85.734375 43.613333
42.400000 84.578125 43.613762
41.850000 89.578125 43.773601
42.000000 88.125000 43.774140
41.975000 87.140625 43.774504
41.925000 85.906250 43.774961
42.125000 84.734375 43.775395
41.650000 89.937500 43.921858
41.850000 88.781250 43.922287
41.925000 87.281250 43.922842
41.975000 86.078125 43.923288
42.050000 85.125000 43.923641
41.825000 89.000000 44.084487
41.850000 87.781250 44.084938
41.850000 86.640625 44.085361
41.925000 85.640625 44.085731
42.325000 84.156250 44.086281
41.750000 89.359375 44.234078
41.825000 88.437500 44.234420
41.850000 87.281250 44.234848
41.875000 86.046875 44.235305
41.975000 84.828125 44.235756
41.825000 88.781250 44.389684
41.850000 87.671875 44.390095
41.900000 86.546875 44.390512
41.675000 88.921875 44.542783
41.650000 87.718750 44.543229
41.650000 86.718750 44.543599
41.700000 85.265625 44.544137
42.075000 84.421875 44.544450
41.275000 88.093750 44.698726
41.350000 87.078125 44.699102
41.450000 85.890625 44.699542
41.650000 84.718750 44.699976
41.050000 89.250000 44.854314
41.100000 88.234375 44.854690
41.175000 86.890625 44.855188
41.225000 86.078125 44.855489
41.300000 84.718750 44.855992
41.350000 89.734375 44.996381
41.550000 88.453125 44.996856
41.600000 87.531250 44.997197
41.650000 86.109375 44.997724
41.700000 85.093750 44.998100
41.875000 89.156250 45.151010
41.900000 87.953125 45.151456
41.975000 86.750000 45.151901
42.025000 85.281250 45.152445
42.400000 84.437500 45.152758
42.025000 89.656250 45.303976
42.150000 88.671875 45.304340
42.175000 87.437500 45.304798
42.225000 85.906250 45.305365
42.275000 84.765625 45.305787
42.300000 88.046875 45.464123
42.375000 86.625000 45.464650
42.475000 85.453125 45.465084
42.950000 84.406250 45.465472
42.550000 88.312500 45.616745
42.600000 86.812500 45.617301
42.650000 85.890625 45.617642
42.900000 84.515625 45.618152
42.700000 88.015625 45.776457
42.750000 86.484375 45.777024
42.800000 85.265625 45.777475
43.375000 84.359375 45.777811
42.775000 89.515625 45.926326
42.775000 88.296875 45.926777
42.800000 87.203125 45.927182
42.875000 85.703125 45.927738
43.125000 84.796875 45.928073
42.600000 89.781250 46.086563
42.825000 88.734375 46.086951
42.875000 87.515625 46.087402
42.950000 85.984375 46.087969
43.050000 85.062500 46.088311
42.900000 87.968750 46.237379
42.975000 86.765625 46.237824
43.050000 85.656250 46.238235
43.550000 84.609375 46.238623
42.800000 89.375000 46.393661
42.925000 88.359375 46.394037
42.950000 87.312500 46.394425
43.000000 85.890625 46.394952
43.150000 84.656250 46.395409
42.900000 87.921875 46.548521
42.950000 86.640625 46.548996
43.050000 85.531250 46.549407
43.550000 84.421875 46.549817
42.475000 89.937500 46.688176
42.875000 88.703125 46.688633
42.925000 87.468750 46.689090
42.975000 86.453125 46.689466
37.600000 91.046875 46.856672
42.825000 89.375000 46.857291
42.825000 88.140625 46.857748
42.875000 87.250000 46.858078
42.950000 85.984375 46.858547
43.125000 84.765625 46.858998
42.450000 90.078125 46.997707
42.850000 88.875000 46.998153
42.800000 87.734375 46.998575
42.850000 86.359375 46.999084
43.025000 85.093750 46.999553
42.700000 87.921875 47.153006
42.700000 86.671875 47.153469
42.725000 85.468750 47.153915
43.200000 84.390625 47.154314
42.425000 89.468750 47.306559
42.500000 88.328125 47.306982
42.550000 87.203125 47.307398
42.625000 86.234375 47.307757
42.725000 84.796875 47.308290
42.225000 89.843750 47.462573
42.525000 88.734375 47.462984
42.575000 87.484375 47.463447
42.675000 86.390625 47.463852
42.750000 85.375000 47.464228
43.325000 84.015625 47.464731
42.400000 89.937500 47.614838
42.800000 88.656250 47.615313
42.825000 87.703125 47.615666
42.975000 86.437500 47.616135
43.025000 85.437500 47.616505
43.550000 84.453125 47.616870
43.175000 87.906250 47.773945
43.225000 86.937500 47.774303
43.350000 85.859375 47.774703
43.700000 84.484375 47.775212
43.375000 89.281250 47.924494
43.450000 88.453125 47.924800
43.500000 87.234375 47.925252
43.575000 86.015625 47.925703
43.775000 84.765625 47.926166
43.200000 89.968750 48.082934
43.600000 88.781250 48.083374
43.625000 87.515625 48.083843
43.675000 86.562500 48.084196
43.750000 85.359375 48.084641
43.250000 89.890625 48.235472
43.650000 88.484375 48.235993
43.700000 87.453125 48.236375
43.725000 86.296875 48.236803
43.800000 85.328125 48.237162
43.825000 88.062500 48.393683
43.900000 86.562500 48.394238
43.975000 85.593750 48.394597
44.475000 84.312500 48.395072
43.750000 89.343750 48.531418
43.875000 88.312500 48.531800
43.900000 87.156250 48.532228
44.000000 85.875000 48.532702
44.250000 84.828125 48.533090
43.325000 89.812500 48.686849
43.925000 88.609375 48.687295
44.000000 87.671875 48.687642
44.075000 86.625000 48.688030
44.125000 85.281250 48.688528
43.700000 89.468750 48.843517
44.050000 88.421875 48.843905
44.000000 87.109375 48.844391
44.075000 86.031250 48.844790
44.325000 85.046875 48.845155
44.075000 87.796875 48.997947
44.150000 86.812500 48.998312
44.225000 85.484375 48.998804
44.775000 84.250000 48.999261
43.675000 89.625000 49.150577
44.050000 88.453125 49.151011
44.125000 87.093750 49.151514
44.200000 86.046875 49.151902
44.325000 84.875000 49.152336
43.875000 89.343750 49.309183
44.100000 88.406250 49.309530
44.150000 87.171875 49.309987
44.225000 86.015625 49.310416
44.550000 84.812500 49.310861
44.100000 87.796875 49.465613
44.100000 86.656250 49.466035
44.125000 85.468750 49.466475
43.800000 89.265625 49.617823
44.075000 88.187500 49.618222
44.125000 86.953125 49.618679
44.150000 85.812500 49.619102
44.450000 84.531250 49.619576
43.425000 89.468750 49.773892
44.000000 88.656250 49.774193
44.050000 87.171875 49.774743
44.125000 86.109375 49.775136
44.225000 85.031250 49.775536
44.000000 87.609375 49.928116
44.025000 86.328125 49.928591
44.075000 85.203125 49.929008
43.850000 87.906250 50.087510
43.900000 86.484375 50.088036
43.950000 85.296875 50.088476
44.600000 84.187500 50.088887
43.750000 87.828125 50.223596
43.800000 86.968750 50.223914
43.850000 85.781250 50.224354
44.325000 84.437500 50.224851
43.525000 88.531250 50.378823
43.600000 87.406250 50.379239
43.700000 86.375000 50.379621
43.725000 84.906250 50.380165
43.350000 88.156250 50.534567
43.450000 86.890625 50.535036
43.575000 85.890625 50.535406
43.850000 84.703125 50.535846
43.125000 88.562500 50.688742
43.175000 87.343750 50.689193
43.250000 86.218750 50.689610
43.175000 85.203125 50.689986
42.750000 88.171875 50.844903
42.800000 86.687500 50.845453
42.875000 85.531250 50.845881
43.125000 84.734375 50.846177
42.375000 89.781250 51.001305
42.550000 88.468750 51.001791
42.550000 87.390625 51.002190
42.650000 86.109375 51.002665
42.750000 85.078125 51.003047
42.775000 88.093750 51.151578
42.800000 86.625000 51.152122
42.875000 85.562500 51.152515
43.375000 84.515625 51.152903
42.725000 89.437500 51.313160
42.875000 88.375000 51.313553
42.925000 87.343750 51.313935
42.975000 85.906250 51.314467
43.175000 84.640625 51.314936
42.450000 89.859375 51.460033
42.925000 88.796875 51.460426
42.975000 87.484375 51.460912
43.000000 86.453125 51.461294
42.975000 87.921875 51.610892
43.050000 86.859375 51.611286
43.075000 85.531250 51.611778
43.650000 84.437500 51.612183
43.050000 88.093750 51.769346
43.050000 86.812500 51.769821
43.075000 85.609375 51.770266
43.600000 84.609375 51.770637
42.800000 89.750000 51.921771
42.950000 88.343750 51.922292
43.000000 87.343750 51.922662
43.050000 86.078125 51.923131
43.200000 84.921875 51.923560
42.450000 90.312500 52.083097
42.975000 88.937500 52.083606
42.975000 87.843750 52.084011
43.050000 86.609375 52.084468
43.125000 85.531250 52.084867
43.700000 84.125000 52.085388
43.000000 87.984375 52.234825
43.025000 86.906250 52.235225
43.050000 85.593750 52.235711
43.500000 84.671875 52.236052
42.850000 89.578125 52.375909
42.900000 88.359375 52.376360
42.925000 87.125000 52.376817
42.975000 85.828125 52.377298
43.250000 84.531250 52.377778
42.575000 89.500000 52.532031
42.800000 88.484375 52.532407
42.875000 87.468750 52.532783
42.925000 86.406250 52.533177
43.025000 85.218750 52.533616
42.650000 89.515625 52.686038
42.700000 88.156250 52.686541
42.725000 86.921875 52.686998
42.800000 85.765625 52.687426
43.075000 84.484375 52.687901
42.400000 89.562500 52.840984
42.475000 88.609375 52.841336
42.525000 87.203125 52.841857
42.550000 86.234375 52.842216
42.675000 84.984375 52.842679
42.275000 87.968750 52.998430
42.325000 86.906250 52.998824
42.350000 85.718750 52.999264
42.675000 84.312500 52.999784
41.875000 89.531250 53.150861
42.000000 88.390625 53.151284
42.075000 87.515625 53.151608
42.100000 86.218750 53.152088
42.150000 85.125000 53.152493
41.650000 89.031250 53.310220
41.650000 87.937500 53.310625
41.675000 86.781250 53.311053
41.750000 85.578125 53.311498
41.975000 84.546875 53.311880
41.150000 89.843750 53.458882
41.200000 88.531250 53.459368
41.225000 87.515625 53.459744
41.275000 86.281250 53.460202
41.375000 89.078125 53.606567
41.400000 88.015625 53.606960
41.475000 86.796875 53.607412
41.525000 85.531250 53.607880
41.850000 84.515625 53.608257
41.525000 89.453125 53.768972
41.550000 88.328125 53.769389
41.650000 87.328125 53.769759
41.725000 85.968750 53.770263
41.850000 84.984375 53.770627
41.750000 88.859375 53.920206
41.775000 87.421875 53.920738
41.825000 86.265625 53.921166
41.825000 88.062500 54.081598
41.875000 86.968750 54.082003
41.950000 85.656250 54.082489
42.200000 84.609375 54.082877
41.825000 89.734375 54.231244
41.900000 88.343750 54.231759
41.925000 87.312500 54.232141
42.025000 85.875000 54.232673
42.100000 85.000000 54.232997
41.725000 89.421875 54.385618
41.875000 88.234375 54.386058
41.925000 87.218750 54.386434
42.025000 86.250000 54.386793
42.100000 84.734375 54.387354
41.825000 88.750000 54.542198
41.950000 87.468750 54.542672
42.025000 86.531250 54.543020
41.850000 88.109375 54.695817
41.900000 86.859375 54.696280
41.975000 85.656250 54.696725
42.225000 84.750000 54.697061
41.725000 89.781250 54.837864
41.875000 88.625000 54.838292
41.900000 87.359375 54.838761
42.000000 86.171875 54.839201
42.100000 84.968750 54.839646
41.775000 88.984375 54.992902
41.825000 87.703125 54.993377
41.875000 86.359375 54.993875
41.925000 85.359375 54.994245
42.450000 84.109375 54.994708
41.700000 87.640625 55.150656
41.750000 86.750000 55.150986
41.825000 85.250000 55.151542
42.175000 84.359375 55.151871
41.400000 89.671875 55.300057
41.525000 88.359375 55.300543
41.600000 87.265625 55.300948
41.600000 86.296875 55.301307
41.650000 84.828125 55.301851
41.125000 89.500000 55.460359
41.250000 88.562500 55.460706
41.275000 87.343750 55.461158
41.300000 86.187500 55.461586
41.175000 88.531250 55.608769
41.225000 87.390625 55.609192
41.275000 86.359375 55.609574
41.375000 85.218750 55.609996
41.875000 84.218750 55.610366
41.675000 88.312500 55.770354
41.725000 86.906250 55.770875
41.775000 85.609375 55.771355
41.925000 84.546875 55.771748
41.875000 89.515625 55.918527
41.925000 88.546875 55.918885
41.950000 87.312500 55.919343
42.025000 86.000000 55.919829
42.175000 84.671875 55.920321
42.150000 88.671875 56.080849
42.175000 87.437500 56.081306
42.225000 86.375000 56.081700
42.400000 87.796875 56.231850
42.425000 86.484375 56.232336
42.500000 85.437500 56.232724
43.000000 84.515625 56.233065
42.550000 88.140625 56.371835
42.500000 86.687500 56.372373
42.625000 85.750000 56.372720
43.125000 84.468750 56.373194
42.650000 88.093750 56.540696
42.750000 86.859375 56.541153
42.775000 85.468750 56.541668
43.125000 84.484375 56.542032
42.725000 87.968750 56.679690
42.750000 86.796875 56.680124
42.850000 85.640625 56.680552
43.225000 84.656250 56.680917
42.725000 89.484375 56.838412
42.850000 88.437500 56.838800
42.900000 87.203125 56.839257
42.950000 85.843750 56.839761
43.100000 85.000000 56.840073
42.700000 89.828125 56.989472
42.900000 88.578125 56.989935
42.925000 87.125000 56.990473
42.950000 86.109375 56.990849
43.075000 84.750000 56.991353
42.900000 89.031250 57.147646
42.950000 87.953125 57.148045
42.975000 86.359375 57.148635
43.050000 85.406250 57.148988
43.750000 84.359375 57.149376
42.725000 89.562500 57.299145
42.875000 88.625000 57.299492
42.900000 87.171875 57.300030
42.950000 86.031250 57.300452
43.100000 84.718750 57.300939
42.450000 90.031250 57.457046
42.900000 88.843750 57.457485
42.925000 87.625000 57.457937
42.950000 86.296875 57.458429
42.850000 88.296875 57.609770
42.850000 86.765625 57.610337
42.875000 85.937500 57.610643
43.225000 84.750000 57.611083
42.525000 89.656250 57.766582
42.800000 88.531250 57.766999
42.850000 87.281250 57.767462
42.850000 86.093750 57.767902
42.975000 85.046875 57.768289
42.725000 88.250000 57.908109
42.750000 87.109375 57.908531
42.750000 85.593750 57.909093
43.025000 84.765625 57.909400
42.225000 89.562500 58.076428
42.425000 88.437500 58.076845
42.475000 87.484375 58.077198
42.550000 86.171875 58.077684
42.600000 85.031250 58.078106
42.700000 88.203125 58.232172
42.725000 86.937500 58.232641
42.725000 85.750000 58.233081
42.975000 84.578125 58.233515
42.500000 90.203125 58.370879
42.900000 88.703125 58.371435
42.925000 87.843750 58.371753
42.975000 86.593750 58.372216
43.050000 85.515625 58.372615
43.725000 84.062500 58.373153
43.225000 89.187500 58.527573
43.225000 88.281250 58.527909
43.275000 87.062500 58.528360
43.375000 85.953125 58.528771
43.625000 84.546875 58.529292
42.925000 89.765625 58.682759
43.400000 88.781250 58.683123
43.475000 87.687500 58.683528
43.550000 86.453125 58.683985
43.600000 85.140625 58.684472
44.250000 84.390625 58.684749
43.500000 89.500000 58.843796
43.625000 88.343750 58.844224
43.675000 87.203125 58.844646
43.725000 85.968750 58.845104
43.950000 84.953125 58.845480
37.225000 91.031250 58.990896
43.600000 89.578125 58.991434
43.700000 88.125000 58.991972
43.700000 87.062500 58.992366
