38.025000 -18.843750 7.330029
37.400000 -18.000000 7.330029
37.250000 -16.640625 7.330029
37.600000 -15.125000 7.330029
37.775000 -14.062500 7.330029
37.725000 -12.687500 7.330029
37.400000 -11.218750 7.330029
37.075000 -10.093750 7.330029
36.825000 -8.640625 7.330029
36.950000 -7.546875 7.330029
38.900000 -22.015625 7.469031
38.700000 -20.703125 7.469031
38.300000 -19.593750 7.469031
37.725000 -17.781250 7.469031
37.375000 -16.828125 7.469031
37.750000 -15.265625 7.469031
37.500000 -11.500000 7.469031
36.950000 -10.296875 7.469031
36.725000 -8.703125 7.469031
36.900000 -7.750000 7.469031
38.850000 -22.078125 7.623025
38.675000 -21.171875 7.623025
38.300000 -19.734375 7.623025
38.500000 -18.671875 7.623025
37.825000 -15.734375 7.623025
38.025000 -14.359375 7.623025
37.975000 -13.218750 7.623025
37.700000 -11.859375 7.623025
36.950000 -10.437500 7.623025
36.675000 -9.078125 7.623025
36.725000 -7.875000 7.623025
38.675000 -20.109375 7.758024
38.500000 -18.609375 7.758024
37.600000 -16.015625 7.758024
37.775000 -14.437500 7.758024
37.700000 -13.234375 7.758024
37.575000 -12.187500 7.758024
37.075000 -10.546875 7.758024
36.675000 -9.562500 7.758024
38.400000 -22.703125 7.895025
38.750000 -20.359375 7.895025
38.350000 -18.781250 7.895025
37.700000 -17.734375 7.895025
37.250000 -13.593750 7.895025
37.300000 -12.156250 7.895025
37.150000 -11.078125 7.895025
36.900000 -9.593750 7.895025
36.775000 -8.359375 7.895025
37.100000 -7.406250 7.895025
39.475000 -21.843750 8.045999
38.500000 -18.875000 8.045999
37.850000 -17.984375 8.045999
37.400000 -16.218750 8.045999
37.600000 -15.171875 8.045999
37.900000 -14.078125 8.045999
37.750000 -12.750000 8.045999
37.200000 -10.953125 8.045999
36.900000 -9.968750 8.045999
36.725000 -8.515625 8.045999
36.950000 -7.328125 8.045999
39.400000 -22.203125 8.178000
39.075000 -20.984375 8.178000
38.550000 -19.562500 8.178000
38.175000 -18.000000 8.178000
37.575000 -16.781250 8.178000
37.675000 -15.906250 8.178000
38.000000 -14.218750 8.178000
38.400000 -13.078125 8.178000
36.950000 -10.375000 8.178000
36.675000 -9.171875 8.178000
36.800000 -7.734375 8.178000
39.025000 -20.015625 8.328000
38.500000 -18.890625 8.328000
37.800000 -17.515625 8.328000
37.175000 -15.984375 8.328000
37.450000 -14.625000 8.328000
37.875000 -13.828125 8.328000
37.625000 -12.218750 8.328000
37.150000 -10.640625 8.328000
36.900000 -9.453125 8.328000
36.825000 -7.968750 8.328000
37.275000 -6.921875 8.328000
39.500000 -20.703125 8.462025
38.725000 -19.390625 8.462025
38.075000 -18.000000 8.462025
37.575000 -16.906250 8.462025
37.725000 -15.546875 8.462025
38.000000 -14.234375 8.462025
37.875000 -12.906250 8.462025
37.375000 -11.718750 8.462025
37.025000 -10.328125 8.462025
36.800000 -8.828125 8.462025
36.900000 -7.390625 8.462025
38.775000 -19.890625 8.602030
38.550000 -18.218750 8.602030
37.850000 -17.125000 8.602030
37.650000 -15.437500 8.602030
38.050000 -14.390625 8.602030
38.075000 -13.203125 8.602030
37.600000 -11.796875 8.602030
37.075000 -10.359375 8.602030
36.775000 -9.328125 8.602030
36.825000 -7.546875 8.602030
39.375000 -19.718750 8.744024
38.725000 -18.765625 8.744024
37.675000 -15.828125 8.744024
38.025000 -14.718750 8.744024
38.150000 -13.468750 8.744024
37.675000 -12.109375 8.744024
37.100000 -10.609375 8.744024
36.875000 -9.500000 8.744024
38.725000 -18.812500 8.887029
38.025000 -17.421875 8.887029
37.600000 -16.218750 8.887029
37.775000 -14.984375 8.887029
37.875000 -13.312500 8.887029
37.600000 -12.281250 8.887029
37.225000 -10.640625 8.887029
37.000000 -9.453125 8.887029
38.850000 -19.140625 9.028000
38.150000 -17.375000 9.028000
37.550000 -16.203125 9.028000
37.675000 -14.875000 9.028000
38.000000 -13.734375 9.028000
37.725000 -12.281250 9.028000
37.225000 -11.328125 9.028000
37.050000 -9.765625 9.028000
36.875000 -8.640625 9.028000
37.100000 -7.187500 9.028000
38.825000 -19.437500 9.171000
38.675000 -18.296875 9.171000
38.100000 -16.515625 9.171000
37.725000 -15.578125 9.171000
37.975000 -14.234375 9.171000
37.850000 -13.062500 9.171000
37.375000 -11.281250 9.171000
37.000000 -10.312500 9.171000
36.800000 -8.812500 9.171000
36.925000 -7.843750 9.171000
39.425000 -20.031250 9.315999
38.800000 -18.546875 9.315999
38.175000 -17.359375 9.315999
37.700000 -15.796875 9.315999
37.875000 -14.562500 9.315999
38.050000 -13.562500 9.315999
37.650000 -12.218750 9.315999
37.200000 -10.625000 9.315999
36.950000 -9.187500 9.315999
38.850000 -18.890625 9.453029
38.600000 -17.812500 9.453029
38.100000 -16.484375 9.453029
37.900000 -14.984375 9.453029
38.200000 -14.093750 9.453029
37.900000 -12.703125 9.453029
37.400000 -11.250000 9.453029
37.125000 -9.671875 9.453029
36.925000 -8.625000 9.453029
37.150000 -7.140625 9.453029
39.450000 -19.921875 9.597029
38.775000 -18.328125 9.597029
38.200000 -17.093750 9.597029
37.875000 -15.734375 9.597029
38.050000 -14.578125 9.597029
38.200000 -13.234375 9.597029
37.750000 -11.937500 9.597029
37.075000 -10.218750 9.597029
36.850000 -9.281250 9.597029
36.900000 -7.796875 9.597029
39.300000 -20.453125 9.728000
38.750000 -18.859375 9.728000
38.200000 -17.609375 9.728000
37.850000 -16.359375 9.728000
37.850000 -15.109375 9.728000
37.975000 -13.734375 9.728000
37.725000 -12.468750 9.728000
37.175000 -11.015625 9.728000
37.000000 -9.734375 9.728000
36.925000 -8.234375 9.728000
37.275000 -7.093750 9.728000
39.425000 -20.656250 9.883000
38.800000 -19.390625 9.883000
38.300000 -18.171875 9.883000
37.750000 -16.859375 9.883000
37.725000 -15.578125 9.883000
37.950000 -13.968750 9.883000
37.925000 -12.984375 9.883000
37.525000 -11.359375 9.883000
37.100000 -10.250000 9.883000
36.900000 -8.703125 9.883000
37.075000 -7.500000 9.883000
39.150000 -20.671875 10.016999
38.625000 -19.656250 10.016999
38.300000 -18.218750 10.016999
37.650000 -16.625000 10.016999
37.575000 -15.500000 10.016999
37.900000 -14.218750 10.016999
38.325000 -13.296875 10.016999
37.075000 -10.078125 10.016999
36.775000 -8.703125 10.016999
36.850000 -7.812500 10.016999
39.150000 -20.140625 10.162015
38.700000 -18.828125 10.162015
38.100000 -17.421875 10.162015
37.625000 -16.031250 10.162015
37.775000 -14.515625 10.162015
37.925000 -13.437500 10.162015
37.700000 -11.859375 10.162015
37.250000 -10.718750 10.162015
36.975000 -9.390625 10.162015
39.775000 -21.859375 10.301000
38.625000 -19.156250 10.301000
37.950000 -17.375000 10.301000
37.650000 -16.359375 10.301000
37.875000 -14.765625 10.301000
37.550000 -13.625000 10.301000
37.450000 -12.390625 10.301000
37.425000 -11.125000 10.301000
37.025000 -9.718750 10.301000
36.900000 -8.484375 10.301000
37.275000 -7.343750 10.301000
39.375000 -22.234375 10.446000
39.225000 -20.718750 10.446000
38.625000 -19.296875 10.446000
37.925000 -18.062500 10.446000
37.525000 -16.468750 10.446000
37.575000 -15.125000 10.446000
37.800000 -14.218750 10.446000
38.500000 -12.812500 10.446000
37.100000 -9.984375 10.446000
36.900000 -8.656250 10.446000
37.100000 -7.312500 10.446000
39.025000 -21.093750 10.582019
38.525000 -19.406250 10.582019
37.975000 -18.359375 10.582019
37.350000 -16.796875 10.582019
37.400000 -15.484375 10.582019
37.725000 -14.515625 10.582019
38.025000 -13.109375 10.582019
37.850000 -11.625000 10.582019
37.250000 -10.468750 10.582019
36.950000 -8.984375 10.582019
37.025000 -7.531250 10.582019
38.675000 -22.562500 10.727000
38.925000 -20.156250 10.727000
38.725000 -18.640625 10.727000
37.475000 -15.812500 10.727000
37.675000 -14.984375 10.727000
37.275000 -13.140625 10.727000
37.225000 -12.046875 10.727000
37.425000 -10.593750 10.727000
37.050000 -9.484375 10.727000
36.950000 -8.406250 10.727000
37.475000 -6.796875 10.727000
39.350000 -22.062500 10.869024
39.150000 -20.734375 10.869024
38.425000 -19.171875 10.869024
37.775000 -17.984375 10.869024
37.275000 -16.312500 10.869024
37.375000 -15.187500 10.869024
37.475000 -11.343750 10.869024
37.300000 -10.078125 10.869024
37.025000 -8.437500 10.869024
37.100000 -7.218750 10.869024
38.850000 -20.921875 11.011001
38.425000 -19.671875 11.011001
37.950000 -18.281250 11.011001
37.400000 -16.875000 11.011001
37.500000 -15.828125 11.011001
37.725000 -14.437500 11.011001
37.600000 -13.140625 11.011001
37.425000 -11.703125 11.011001
37.375000 -10.218750 11.011001
37.050000 -8.859375 11.011001
37.000000 -7.703125 11.011001
38.875000 -20.046875 11.152999
38.425000 -18.765625 11.152999
37.750000 -17.406250 11.152999
37.225000 -16.203125 11.152999
37.425000 -14.640625 11.152999
37.800000 -13.375000 11.152999
37.900000 -12.062500 11.152999
37.575000 -11.171875 11.152999
37.250000 -9.562500 11.152999
37.075000 -8.109375 11.152999
37.375000 -6.906250 11.152999
39.300000 -21.750000 11.294000
39.075000 -20.703125 11.294000
38.375000 -19.468750 11.294000
37.650000 -17.859375 11.294000
37.475000 -13.937500 11.294000
38.150000 -12.656250 11.294000
37.950000 -11.156250 11.294000
37.300000 -9.953125 11.294000
37.025000 -8.875000 11.294000
37.100000 -7.531250 11.294000
38.825000 -21.078125 11.425999
38.375000 -19.750000 11.425999
38.500000 -18.671875 11.425999
37.600000 -15.921875 11.425999
37.775000 -14.671875 11.425999
37.600000 -13.171875 11.425999
37.725000 -11.906250 11.425999
37.500000 -10.312500 11.425999
37.150000 -9.468750 11.425999
37.000000 -7.843750 11.425999
38.775000 -21.031250 11.575999
38.375000 -19.796875 11.575999
38.225000 -18.406250 11.575999
37.525000 -17.453125 11.575999
37.175000 -15.796875 11.575999
37.275000 -14.640625 11.575999
37.475000 -13.546875 11.575999
37.700000 -12.015625 11.575999
37.450000 -10.500000 11.575999
37.100000 -9.515625 11.575999
37.000000 -8.234375 11.575999
37.475000 -6.734375 11.575999
38.725000 -20.281250 11.721000
38.175000 -19.218750 11.721000
36.875000 -16.062500 11.721000
37.050000 -15.187500 11.721000
37.300000 -13.781250 11.721000
37.900000 -12.750000 11.721000
37.875000 -11.140625 11.721000
37.350000 -9.875000 11.721000
37.075000 -8.734375 11.721000
37.175000 -7.234375 11.721000
39.375000 -22.187500 11.860999
39.050000 -20.437500 11.860999
38.350000 -19.328125 11.860999
37.975000 -18.000000 11.860999
37.325000 -16.484375 11.860999
36.825000 -15.546875 11.860999
37.075000 -14.109375 11.860999
37.350000 -12.781250 11.860999
37.450000 -11.546875 11.860999
37.325000 -9.859375 11.860999
37.025000 -8.921875 11.860999
37.075000 -7.718750 11.860999
38.775000 -21.156250 12.005999
38.325000 -20.015625 12.005999
37.825000 -18.671875 12.005999
36.975000 -17.312500 12.005999
36.650000 -15.734375 12.005999
36.750000 -14.421875 12.005999
37.125000 -13.328125 12.005999
37.750000 -11.984375 12.005999
37.575000 -11.046875 12.005999
37.000000 -9.593750 12.005999
36.950000 -8.281250 12.005999
37.375000 -6.843750 12.005999
39.075000 -21.531250 12.139999
38.675000 -20.343750 12.139999
38.175000 -19.078125 12.139999
37.450000 -17.781250 12.139999
36.850000 -16.390625 12.139999
36.750000 -14.765625 12.139999
37.025000 -13.578125 12.139999
37.475000 -12.453125 12.139999
37.425000 -11.109375 12.139999
37.175000 -9.906250 12.139999
37.000000 -8.390625 12.139999
37.100000 -7.484375 12.139999
38.775000 -20.765625 12.284999
38.200000 -19.531250 12.284999
37.925000 -17.968750 12.284999
37.225000 -16.828125 12.284999
36.725000 -15.578125 12.284999
36.850000 -14.296875 12.284999
37.375000 -13.125000 12.284999
37.700000 -11.734375 12.284999
37.425000 -10.234375 12.284999
37.050000 -8.812500 12.284999
36.975000 -7.828125 12.284999
38.725000 -21.343750 12.416030
38.300000 -20.062500 12.416030
38.125000 -18.593750 12.416030
37.550000 -17.453125 12.416030
36.950000 -16.015625 12.416030
36.750000 -14.906250 12.416030
37.125000 -13.656250 12.416030
37.600000 -12.156250 12.416030
37.475000 -10.953125 12.416030
37.025000 -9.687500 12.416030
36.875000 -8.000000 12.416030
37.275000 -7.203125 12.416030
38.675000 -21.015625 12.556999
38.175000 -19.375000 12.556999
37.825000 -18.109375 12.556999
37.250000 -16.703125 12.556999
36.875000 -15.218750 12.556999
36.850000 -14.484375 12.556999
37.375000 -13.265625 12.556999
37.800000 -11.796875 12.556999
37.375000 -10.453125 12.556999
36.800000 -8.906250 12.556999
36.900000 -7.562500 12.556999
38.775000 -21.390625 12.700028
38.275000 -20.109375 12.700028
38.100000 -18.625000 12.700028
37.950000 -17.546875 12.700028
37.500000 -16.171875 12.700028
36.950000 -14.796875 12.700028
37.125000 -13.671875 12.700028
37.425000 -12.015625 12.700028
37.175000 -10.921875 12.700028
36.900000 -9.750000 12.700028
36.850000 -8.265625 12.700028
37.250000 -7.187500 12.700028
38.700000 -20.703125 12.841027
38.200000 -19.375000 12.841027
37.950000 -17.593750 12.841027
37.750000 -16.578125 12.841027
37.400000 -15.250000 12.841027
37.150000 -14.031250 12.841027
37.400000 -12.875000 12.841027
37.300000 -11.218750 12.841027
36.850000 -9.828125 12.841027
36.700000 -8.453125 12.841027
36.925000 -7.250000 12.841027
38.175000 -19.656250 12.982038
37.975000 -18.015625 12.982038
37.700000 -16.687500 12.982038
37.400000 -15.656250 12.982038
37.200000 -14.265625 12.982038
37.575000 -12.828125 12.982038
37.550000 -11.437500 12.982038
36.875000 -10.453125 12.982038
36.650000 -9.203125 12.982038
36.850000 -7.781250 12.982038
38.125000 -19.437500 13.131025
38.000000 -18.156250 13.131025
37.750000 -17.031250 13.131025
37.475000 -15.531250 13.131025
37.375000 -14.125000 13.131025
37.700000 -13.125000 13.131025
37.525000 -11.781250 13.131025
36.850000 -10.109375 13.131025
36.575000 -8.984375 13.131025
36.750000 -7.593750 13.131025
38.550000 -20.828125 13.269019
38.100000 -19.906250 13.269019
38.050000 -18.203125 13.269019
37.825000 -16.968750 13.269019
37.525000 -15.718750 13.269019
37.375000 -14.703125 13.269019
37.600000 -12.984375 13.269019
37.425000 -11.968750 13.269019
36.825000 -10.328125 13.269019
36.525000 -8.890625 13.269019
36.625000 -7.953125 13.269019
38.250000 -20.062500 13.408029
38.200000 -18.656250 13.408029
37.925000 -17.203125 13.408029
37.650000 -16.000000 13.408029
37.450000 -14.343750 13.408029
37.500000 -13.578125 13.408029
37.425000 -12.109375 13.408029
36.900000 -10.437500 13.408029
36.475000 -9.515625 13.408029
38.825000 -20.078125 13.548021
38.250000 -19.046875 13.548021
38.025000 -17.609375 13.548021
37.775000 -16.093750 13.548021
37.550000 -15.078125 13.548021
37.300000 -13.375000 13.548021
37.200000 -12.062500 13.548021
36.900000 -11.062500 13.548021
36.425000 -9.781250 13.548021
36.450000 -8.421875 13.548021
36.950000 -7.171875 13.548021
38.225000 -19.265625 13.699029
38.025000 -17.859375 13.699029
37.825000 -16.781250 13.699029
37.600000 -15.031250 13.699029
37.500000 -13.812500 13.699029
37.350000 -12.484375 13.699029
36.900000 -11.468750 13.699029
36.425000 -10.078125 13.699029
36.300000 -8.750000 13.699029
36.750000 -7.609375 13.699029
38.250000 -19.734375 13.832000
38.175000 -18.109375 13.832000
37.975000 -16.828125 13.832000
37.650000 -15.515625 13.832000
37.475000 -14.437500 13.832000
38.075000 -13.203125 13.832000
36.450000 -10.390625 13.832000
36.225000 -8.921875 13.832000
36.475000 -7.390625 13.832000
38.200000 -18.765625 13.989033
38.025000 -17.515625 13.989033
37.775000 -16.359375 13.989033
37.575000 -14.796875 13.989033
37.475000 -13.468750 13.989033
37.075000 -12.125000 13.989033
36.575000 -11.031250 13.989033
36.275000 -9.171875 13.989033
38.275000 -19.156250 14.116024
38.125000 -17.906250 14.116024
37.975000 -16.406250 14.116024
37.700000 -15.531250 14.116024
37.550000 -14.171875 14.116024
37.175000 -12.781250 14.116024
36.425000 -11.125000 14.116024
35.975000 -9.781250 14.116024
36.025000 -8.781250 14.116024
36.550000 -7.187500 14.116024
38.200000 -19.734375 14.260030
38.150000 -18.296875 14.260030
37.975000 -17.125000 14.260030
37.825000 -15.828125 14.260030
35.725000 -10.421875 14.260030
35.775000 -8.953125 14.260030
36.300000 -7.812500 14.260030
38.150000 -20.078125 14.402023
38.200000 -18.625000 14.402023
37.925000 -17.031250 14.402023
37.725000 -15.984375 14.402023
37.625000 -14.468750 14.402023
37.600000 -13.500000 14.402023
35.650000 -10.406250 14.402023
35.600000 -9.312500 14.402023
38.275000 -18.984375 14.545033
38.050000 -17.703125 14.545033
37.800000 -16.093750 14.545033
37.575000 -15.140625 14.545033
37.225000 -13.375000 14.545033
36.450000 -12.234375 14.545033
35.650000 -10.796875 14.545033
35.425000 -9.562500 14.545033
35.850000 -8.156250 14.545033
36.775000 -7.281250 14.545033
38.825000 -20.312500 14.688032
38.225000 -19.156250 14.688032
38.025000 -17.843750 14.688032
37.900000 -16.421875 14.688032
37.675000 -15.437500 14.688032
37.575000 -13.875000 14.688032
35.775000 -11.203125 14.688032
35.450000 -10.031250 14.688032
35.800000 -8.531250 14.688032
36.550000 -7.203125 14.688032
38.200000 -19.437500 14.827000
38.175000 -18.140625 14.827000
38.000000 -17.031250 14.827000
37.800000 -15.593750 14.827000
37.650000 -14.640625 14.827000
37.700000 -12.968750 14.827000
35.475000 -10.328125 14.827000
35.600000 -9.234375 14.827000
36.225000 -7.890625 14.827000
38.250000 -18.640625 14.963010
38.000000 -17.343750 14.963010
37.775000 -16.156250 14.963010
37.575000 -14.765625 14.963010
37.525000 -13.718750 14.963010
35.900000 -10.671875 14.963010
35.650000 -9.703125 14.963010
38.450000 -20.734375 15.111002
38.225000 -19.500000 15.111002
38.150000 -18.375000 15.111002
37.975000 -17.000000 15.111002
37.650000 -15.343750 15.111002
37.500000 -14.406250 15.111002
37.400000 -12.890625 15.111002
35.900000 -10.125000 15.111002
35.950000 -8.765625 15.111002
36.450000 -7.843750 15.111002
38.200000 -18.562500 15.256001
37.975000 -17.453125 15.256001
37.750000 -16.000000 15.256001
37.575000 -15.031250 15.256001
37.525000 -13.390625 15.256001
37.200000 -12.343750 15.256001
36.500000 -10.625000 15.256001
36.100000 -9.671875 15.256001
38.175000 -19.171875 15.389000
38.100000 -18.359375 15.389000
37.950000 -16.875000 15.389000
37.650000 -15.234375 15.389000
37.500000 -14.375000 15.389000
37.525000 -12.734375 15.389000
36.975000 -11.328125 15.389000
36.275000 -10.187500 15.389000
36.125000 -8.531250 15.389000
36.425000 -7.609375 15.389000
38.200000 -18.796875 15.536029
37.975000 -17.625000 15.536029
37.725000 -16.046875 15.536029
37.550000 -14.890625 15.536029
37.500000 -13.515625 15.536029
37.350000 -12.515625 15.536029
36.725000 -10.968750 15.536029
36.175000 -9.500000 15.536029
36.150000 -8.437500 15.536029
36.775000 -7.234375 15.536029
38.150000 -19.375000 15.678032
38.075000 -18.093750 15.678032
37.800000 -16.718750 15.678032
37.525000 -15.546875 15.678032
37.525000 -14.156250 15.678032
37.525000 -12.531250 15.678032
36.975000 -11.453125 15.678032
36.300000 -9.953125 15.678032
36.175000 -8.531250 15.678032
36.525000 -7.562500 15.678032
38.125000 -21.046875 15.813036
38.100000 -19.796875 15.813036
38.050000 -18.546875 15.813036
37.850000 -16.828125 15.813036
37.575000 -15.812500 15.813036
37.400000 -14.515625 15.813036
37.225000 -13.171875 15.813036
36.900000 -11.718750 15.813036
36.475000 -10.328125 15.813036
36.200000 -9.046875 15.813036
36.350000 -7.671875 15.813036
37.950000 -20.171875 15.962001
38.075000 -18.890625 15.962001
37.925000 -17.531250 15.962001
37.600000 -16.078125 15.962001
37.325000 -14.687500 15.962001
37.375000 -13.218750 15.962001
37.550000 -11.984375 15.962001
36.250000 -9.562500 15.962001
36.350000 -8.140625 15.962001
37.100000 -7.218750 15.962001
38.500000 -20.375000 16.105030
38.025000 -19.203125 16.105030
37.800000 -17.562500 16.105030
37.550000 -16.453125 16.105030
37.325000 -14.890625 16.105030
37.325000 -13.593750 16.105030
37.675000 -12.421875 16.105030
36.425000 -10.046875 16.105030
36.375000 -8.484375 16.105030
36.850000 -7.328125 16.105030
39.075000 -22.093750 16.234000
38.525000 -20.500000 16.234000
38.050000 -19.265625 16.234000
37.850000 -18.046875 16.234000
37.625000 -16.703125 16.234000
37.250000 -15.093750 16.234000
37.150000 -14.187500 16.234000
37.075000 -12.765625 16.234000
36.775000 -11.187500 16.234000
36.475000 -9.812500 16.234000
36.300000 -8.421875 16.234000
36.650000 -7.218750 16.234000
38.850000 -22.484375 16.383000
37.975000 -19.906250 16.383000
37.925000 -18.656250 16.383000
37.675000 -16.890625 16.383000
37.400000 -15.781250 16.383000
37.150000 -14.625000 16.383000
37.250000 -13.187500 16.383000
37.525000 -12.203125 16.383000
37.025000 -10.718750 16.383000
36.425000 -9.265625 16.383000
36.550000 -8.125000 16.383000
38.475000 -20.125000 16.530030
37.950000 -19.078125 16.530030
37.750000 -17.609375 16.530030
37.650000 -16.359375 16.530030
37.200000 -14.812500 16.530030
36.800000 -11.046875 16.530030
36.575000 -9.796875 16.530030
36.400000 -8.640625 16.530030
36.850000 -7.281250 16.530030
38.650000 -20.781250 16.661043
38.075000 -19.640625 16.661043
37.850000 -18.328125 16.661043
37.775000 -16.671875 16.661043
37.300000 -15.468750 16.661043
36.900000 -14.171875 16.661043
36.750000 -9.906250 16.661043
36.500000 -8.781250 16.661043
36.775000 -7.468750 16.661043
38.700000 -22.453125 16.803032
37.950000 -19.765625 16.803032
37.875000 -18.734375 16.803032
38.000000 -17.406250 16.803032
36.725000 -14.703125 16.803032
37.200000 -10.796875 16.803032
36.800000 -9.046875 16.803032
36.700000 -7.953125 16.803032
38.475000 -20.156250 16.951029
37.975000 -19.062500 16.951029
38.075000 -17.937500 16.951029
36.650000 -15.031250 16.951029
36.725000 -11.000000 16.951029
36.675000 -9.890625 16.951029
36.625000 -8.453125 16.951029
37.100000 -7.468750 16.951029
38.050000 -19.328125 17.101000
37.825000 -18.421875 17.101000
37.075000 -16.828125 17.101000
36.575000 -15.218750 17.101000
36.725000 -14.343750 17.101000
36.950000 -10.406250 17.101000
36.850000 -9.156250 17.101000
36.825000 -8.000000 17.101000
38.450000 -21.359375 17.230033
37.975000 -19.765625 17.230033
37.700000 -18.703125 17.230033
36.950000 -17.156250 17.230033
36.600000 -15.625000 17.230033
36.725000 -14.765625 17.230033
37.050000 -13.578125 17.230033
37.375000 -12.031250 17.230033
37.175000 -10.703125 17.230033
36.775000 -9.484375 17.230033
38.550000 -20.140625 17.373000
38.025000 -19.281250 17.373000
37.450000 -17.468750 17.373000
36.775000 -16.140625 17.373000
36.700000 -14.890625 17.373000
36.975000 -11.406250 17.373000
36.900000 -9.875000 17.373000
36.650000 -8.671875 17.373000
37.000000 -7.421875 17.373000
39.025000 -22.265625 17.513013
38.650000 -20.984375 17.513013
36.725000 -15.265625 17.513013
36.950000 -14.281250 17.513013
37.475000 -12.750000 17.513013
37.575000 -11.656250 17.513013
37.150000 -10.328125 17.513013
36.775000 -8.687500 17.513013
36.775000 -7.703125 17.513013
38.525000 -22.703125 17.655035
38.550000 -21.515625 17.655035
38.150000 -20.312500 17.655035
37.875000 -18.906250 17.655035
37.175000 -17.578125 17.655035
36.850000 -16.203125 17.655035
37.075000 -14.656250 17.655035
37.350000 -13.328125 17.655035
37.550000 -12.140625 17.655035
37.350000 -10.859375 17.655035
36.850000 -9.718750 17.655035
36.650000 -8.343750 17.655035
37.200000 -7.109375 17.655035
39.250000 -21.734375 17.797000
37.975000 -19.031250 17.797000
37.325000 -17.812500 17.797000
37.075000 -16.390625 17.797000
37.175000 -15.109375 17.797000
37.175000 -11.218750 17.797000
37.100000 -9.781250 17.797000
36.875000 -8.750000 17.797000
36.975000 -7.281250 17.797000
38.575000 -21.343750 17.942037
38.225000 -20.046875 17.942037
38.450000 -18.593750 17.942037
37.225000 -16.093750 17.942037
37.550000 -14.328125 17.942037
37.350000 -13.093750 17.942037
37.225000 -11.921875 17.942037
37.125000 -10.671875 17.942037
36.775000 -9.218750 17.942037
36.750000 -8.078125 17.942037
38.250000 -23.000000 18.077043
38.550000 -20.046875 18.077043
37.925000 -18.859375 18.077043
37.225000 -17.640625 18.077043
37.375000 -13.500000 18.077043
37.650000 -12.421875 18.077043
37.275000 -11.234375 18.077043
36.900000 -9.828125 18.077043
36.725000 -8.171875 18.077043
37.100000 -7.468750 18.077043
38.850000 -22.203125 18.222026
38.725000 -21.093750 18.222026
38.325000 -19.500000 18.222026
38.150000 -18.437500 18.222026
37.850000 -14.468750 18.222026
38.150000 -13.125000 18.222026
36.950000 -10.125000 18.222026
36.675000 -9.171875 18.222026
36.825000 -7.593750 18.222026
38.600000 -20.328125 18.364000
38.250000 -18.843750 18.364000
37.600000 -17.296875 18.364000
36.950000 -16.015625 18.364000
37.275000 -14.703125 18.364000
37.400000 -13.703125 18.364000
37.225000 -12.140625 18.364000
37.150000 -10.656250 18.364000
36.775000 -9.296875 18.364000
36.700000 -8.468750 18.364000
37.200000 -6.984375 18.364000
39.075000 -22.203125 18.508030
38.975000 -20.703125 18.508030
38.450000 -19.296875 18.508030
37.800000 -17.765625 18.508030
37.400000 -16.718750 18.508030
37.625000 -15.265625 18.508030
37.800000 -14.062500 18.508030
37.800000 -13.015625 18.508030
37.375000 -11.562500 18.508030
36.925000 -10.203125 18.508030
36.675000 -8.656250 18.508030
36.875000 -7.250000 18.508030
38.750000 -20.093750 18.640029
38.525000 -18.500000 18.640029
37.450000 -16.171875 18.640029
37.650000 -14.468750 18.640029
37.825000 -13.609375 18.640029
37.600000 -11.875000 18.640029
37.075000 -10.828125 18.640029
36.750000 -9.062500 18.640029
38.425000 -19.015625 18.790044
37.775000 -17.546875 18.790044
37.075000 -15.968750 18.790044
37.350000 -15.250000 18.790044
37.850000 -13.578125 18.790044
37.650000 -12.578125 18.790044
37.200000 -10.781250 18.790044
36.925000 -9.609375 18.790044
36.825000 -8.234375 18.790044
37.075000 -6.953125 18.790044
39.375000 -22.156250 18.932999
39.300000 -20.687500 18.932999
38.675000 -19.515625 18.932999
38.025000 -18.062500 18.932999
37.475000 -16.843750 18.932999
37.675000 -15.281250 18.932999
38.025000 -13.984375 18.932999
37.875000 -12.656250 18.932999
37.375000 -11.578125 18.932999
36.925000 -10.000000 18.932999
36.650000 -8.875000 18.932999
36.850000 -7.546875 18.932999
39.125000 -19.734375 19.073030
38.675000 -18.765625 19.073030
37.500000 -16.031250 19.073030
37.800000 -14.765625 19.073030
38.275000 -13.281250 19.073030
37.050000 -10.578125 19.073030
36.700000 -9.171875 19.073030
38.675000 -18.968750 19.215999
37.925000 -17.625000 19.215999
37.450000 -16.593750 19.215999
37.725000 -15.046875 19.215999
38.025000 -14.031250 19.215999
37.800000 -12.250000 19.215999
37.250000 -11.218750 19.215999
37.025000 -9.890625 19.215999
36.825000 -8.281250 19.215999
37.075000 -7.312500 19.215999
38.675000 -19.781250 19.359001
38.475000 -18.234375 19.359001
37.875000 -16.609375 19.359001
37.675000 -15.515625 19.359001
38.025000 -14.343750 19.359001
37.900000 -12.843750 19.359001
37.425000 -11.875000 19.359001
36.950000 -10.250000 19.359001
36.650000 -8.765625 19.359001
36.775000 -7.546875 19.359001
40.175000 -21.703125 19.487030
38.750000 -19.078125 19.487030
38.050000 -17.609375 19.487030
37.575000 -16.265625 19.487030
37.750000 -15.015625 19.487030
37.875000 -13.640625 19.487030
37.625000 -12.343750 19.487030
37.250000 -11.031250 19.487030
37.050000 -9.734375 19.487030
36.825000 -8.234375 19.487030
37.175000 -7.343750 19.487030
39.600000 -21.031250 19.638021
38.825000 -19.593750 19.638021
38.650000 -18.390625 19.638021
37.550000 -15.250000 19.638021
37.900000 -14.484375 19.638021
37.875000 -12.968750 19.638021
37.275000 -11.703125 19.638021
36.850000 -10.062500 19.638021
36.775000 -8.796875 19.638021
36.875000 -7.546875 19.638021
40.175000 -21.468750 19.770029
38.750000 -18.750000 19.770029
38.100000 -17.171875 19.770029
37.625000 -16.062500 19.770029
37.850000 -14.890625 19.770029
37.975000 -13.359375 19.770029
37.550000 -12.390625 19.770029
37.200000 -11.062500 19.770029
37.050000 -9.500000 19.770029
36.850000 -8.187500 19.770029
37.300000 -7.187500 19.770029
39.700000 -20.609375 19.913002
38.900000 -19.250000 19.913002
38.675000 -17.875000 19.913002
38.125000 -16.296875 19.913002
37.775000 -15.359375 19.913002
38.050000 -13.906250 19.913002
37.825000 -12.546875 19.913002
37.350000 -11.328125 19.913002
37.025000 -9.671875 19.913002
36.800000 -8.343750 19.913002
36.975000 -7.593750 19.913002
39.375000 -19.515625 20.055032
38.600000 -18.515625 20.055032
38.000000 -17.046875 20.055032
37.800000 -15.859375 20.055032
38.000000 -14.343750 20.055032
38.125000 -13.406250 20.055032
37.700000 -11.609375 20.055032
37.100000 -10.687500 20.055032
36.900000 -9.265625 20.055032
36.900000 -7.984375 20.055032
39.475000 -19.875000 20.203002
38.800000 -18.906250 20.203002
38.350000 -17.140625 20.203002
38.075000 -15.890625 20.203002
38.075000 -14.796875 20.203002
38.075000 -13.375000 20.203002
37.600000 -12.187500 20.203002
37.100000 -10.515625 20.203002
36.850000 -9.296875 20.203002
39.975000 -21.781250 20.341024
38.850000 -18.984375 20.341024
38.450000 -17.609375 20.341024
38.150000 -16.296875 20.341024
37.975000 -15.156250 20.341024
38.050000 -13.937500 20.341024
37.825000 -12.390625 20.341024
37.350000 -11.203125 20.341024
37.100000 -9.718750 20.341024
36.900000 -8.328125 20.341024
37.250000 -7.046875 20.341024
39.300000 -20.812500 20.484000
38.725000 -19.546875 20.484000
38.400000 -17.984375 20.484000
37.775000 -16.578125 20.484000
37.675000 -15.625000 20.484000
37.975000 -14.171875 20.484000
37.950000 -12.750000 20.484000
37.575000 -11.578125 20.484000
37.075000 -10.281250 20.484000
36.775000 -9.000000 20.484000
36.950000 -7.421875 20.484000
39.250000 -19.875000 20.627000
38.700000 -18.906250 20.627000
38.100000 -17.062500 20.627000
37.675000 -16.062500 20.627000
37.825000 -14.828125 20.627000
37.925000 -13.609375 20.627000
37.600000 -11.875000 20.627000
37.100000 -10.843750 20.627000
36.925000 -9.625000 20.627000
36.900000 -8.109375 20.627000
37.425000 -7.125000 20.627000
39.650000 -22.062500 20.770026
39.500000 -20.515625 20.770026
38.750000 -19.375000 20.770026
38.075000 -17.546875 20.770026
37.800000 -16.718750 20.770026
37.875000 -15.421875 20.770026
37.900000 -13.937500 20.770026
37.775000 -12.468750 20.770026
37.350000 -11.187500 20.770026
37.050000 -9.765625 20.770026
36.900000 -8.812500 20.770026
37.150000 -7.265625 20.770026
39.150000 -20.859375 20.911999
38.675000 -19.765625 20.911999
38.175000 -18.062500 20.911999
37.450000 -16.687500 20.911999
37.475000 -15.437500 20.911999
37.900000 -14.375000 20.911999
38.350000 -12.859375 20.911999
37.025000 -10.296875 20.911999
36.800000 -8.906250 20.911999
36.900000 -7.750000 20.911999
39.100000 -19.796875 21.052029
38.525000 -18.453125 21.052029
37.900000 -16.890625 21.052029
37.500000 -15.656250 21.052029
37.675000 -14.484375 21.052029
37.700000 -13.218750 21.052029
37.575000 -12.187500 21.052029
37.250000 -10.687500 21.052029
36.900000 -9.500000 21.052029
39.650000 -21.562500 21.194043
38.550000 -18.906250 21.194043
37.875000 -17.531250 21.194043
37.575000 -16.328125 21.194043
37.750000 -15.218750 21.194043
37.950000 -13.812500 21.194043
37.925000 -12.406250 21.194043
37.475000 -10.890625 21.194043
37.100000 -9.609375 21.194043
36.925000 -8.703125 21.194043
37.250000 -7.265625 21.194043
39.275000 -22.093750 21.333000
39.125000 -20.718750 21.333000
38.575000 -19.453125 21.333000
37.875000 -17.953125 21.333000
37.325000 -16.828125 21.333000
37.400000 -15.093750 21.333000
37.725000 -13.843750 21.333000
38.450000 -13.031250 21.333000
37.225000 -10.343750 21.333000
37.025000 -8.828125 21.333000
37.075000 -7.640625 21.333000
38.800000 -21.078125 21.476029
38.400000 -19.890625 21.476029
38.000000 -18.265625 21.476029
37.450000 -17.265625 21.476029
37.525000 -15.765625 21.476029
37.675000 -14.312500 21.476029
37.500000 -13.140625 21.476029
37.375000 -11.609375 21.476029
37.350000 -10.281250 21.476029
37.000000 -9.281250 21.476029
36.900000 -8.078125 21.476029
38.525000 -18.687500 21.617000
37.400000 -16.234375 21.617000
37.550000 -14.484375 21.617000
37.850000 -13.703125 21.617000
37.850000 -11.921875 21.617000
37.475000 -10.984375 21.617000
37.100000 -9.671875 21.617000
36.975000 -8.171875 21.617000
37.475000 -7.078125 21.617000
39.475000 -21.968750 21.759000
38.400000 -19.156250 21.759000
37.675000 -17.562500 21.759000
37.125000 -16.437500 21.759000
37.300000 -15.109375 21.759000
37.725000 -13.937500 21.759000
38.300000 -12.468750 21.759000
37.250000 -10.078125 21.759000
37.100000 -8.578125 21.759000
37.225000 -7.187500 21.759000
39.425000 -21.890625 21.900001
38.375000 -19.296875 21.900001
37.650000 -17.453125 21.900001
37.550000 -13.671875 21.900001
38.325000 -12.421875 21.900001
37.325000 -10.015625 21.900001
37.100000 -8.312500 21.900001
37.200000 -7.203125 21.900001
39.725000 -22.031250 22.042024
38.875000 -21.078125 22.042024
38.400000 -19.453125 22.042024
37.850000 -18.312500 22.042024
37.450000 -14.234375 22.042024
37.175000 -13.062500 22.042024
37.175000 -11.765625 22.042024
37.400000 -10.640625 22.042024
37.125000 -9.109375 22.042024
37.025000 -7.796875 22.042024
38.850000 -20.015625 22.189028
38.275000 -18.734375 22.189028
37.150000 -16.109375 22.189028
37.325000 -14.562500 22.189028
37.550000 -13.640625 22.189028
37.875000 -12.468750 22.189028
37.650000 -10.937500 22.189028
37.300000 -9.531250 22.189028
37.100000 -8.156250 22.189028
37.375000 -6.890625 22.189028
39.725000 -22.046875 22.323025
38.875000 -20.546875 22.323025
38.375000 -19.343750 22.323025
37.125000 -16.562500 22.323025
37.150000 -15.406250 22.323025
37.250000 -14.281250 22.323025
37.250000 -13.109375 22.323025
37.325000 -11.546875 22.323025
37.400000 -10.328125 22.323025
37.075000 -9.000000 22.323025
36.975000 -7.406250 22.323025
38.800000 -22.593750 22.457025
38.775000 -21.406250 22.457025
38.350000 -20.046875 22.457025
38.150000 -18.406250 22.457025
36.875000 -15.625000 22.457025
37.025000 -14.625000 22.457025
37.350000 -13.031250 22.457025
37.700000 -12.250000 22.457025
37.500000 -10.656250 22.457025
37.125000 -9.046875 22.457025
37.025000 -8.062500 22.457025
37.575000 -6.687500 22.457025
38.800000 -20.640625 22.600024
38.250000 -18.984375 22.600024
36.825000 -16.296875 22.600024
36.800000 -15.125000 22.600024
37.100000 -13.828125 22.600024
37.625000 -12.734375 22.600024
37.625000 -10.937500 22.600024
37.325000 -9.953125 22.600024
37.100000 -8.718750 22.600024
37.175000 -7.500000 22.600024
38.700000 -20.953125 22.743000
38.150000 -19.609375 22.743000
37.950000 -18.515625 22.743000
37.225000 -16.734375 22.743000
36.750000 -15.640625 22.743000
36.825000 -14.234375 22.743000
37.275000 -13.203125 22.743000
37.675000 -11.656250 22.743000
37.375000 -10.546875 22.743000
37.000000 -9.375000 22.743000
37.000000 -7.859375 22.743000
38.675000 -21.343750 22.886034
38.250000 -20.000000 22.886034
37.950000 -18.453125 22.886034
37.125000 -17.328125 22.886034
36.650000 -15.687500 22.886034
36.700000 -14.546875 22.886034
37.100000 -13.609375 22.886034
37.725000 -12.109375 22.886034
37.525000 -11.000000 22.886034
37.025000 -9.484375 22.886034
37.000000 -8.234375 22.886034
37.450000 -6.968750 22.886034
38.175000 -18.718750 23.027032
37.500000 -17.625000 23.027032
36.850000 -16.343750 23.027032
36.725000 -14.546875 23.027032
37.075000 -13.500000 23.027032
37.625000 -12.343750 23.027032
37.525000 -11.125000 23.027032
37.075000 -9.406250 23.027032
36.900000 -8.218750 23.027032
37.200000 -7.093750 23.027032
38.150000 -19.109375 23.170000
38.075000 -17.687500 23.170000
36.725000 -14.984375 23.170000
37.025000 -13.656250 23.170000
37.300000 -12.546875 23.170000
37.250000 -10.968750 23.170000
37.050000 -9.453125 23.170000
36.900000 -8.625000 23.170000
37.150000 -7.031250 23.170000
38.775000 -20.421875 23.315003
38.225000 -19.312500 23.315003
37.875000 -17.750000 23.315003
37.325000 -16.359375 23.315003
36.900000 -14.953125 23.315003
36.975000 -13.718750 23.315003
37.375000 -12.781250 23.315003
37.400000 -11.484375 23.315003
37.025000 -9.984375 23.315003
36.800000 -8.437500 23.315003
37.000000 -7.296875 23.315003
38.175000 -19.359375 23.453025
37.875000 -17.703125 23.453025
37.450000 -16.828125 23.453025
37.100000 -15.515625 23.453025
37.050000 -14.203125 23.453025
37.425000 -12.500000 23.453025
37.450000 -11.546875 23.453025
37.000000 -10.046875 23.453025
36.775000 -8.781250 23.453025
36.950000 -7.750000 23.453025
38.075000 -19.781250 23.598000
38.050000 -18.562500 23.598000
37.800000 -17.046875 23.598000
37.325000 -15.578125 23.598000
37.050000 -14.640625 23.598000
37.325000 -13.109375 23.598000
37.875000 -12.203125 23.598000
36.675000 -8.953125 23.598000
38.725000 -20.281250 23.739000
38.150000 -19.250000 23.739000
37.925000 -17.421875 23.739000
37.700000 -16.437500 23.739000
37.400000 -14.796875 23.739000
37.350000 -14.000000 23.739000
37.475000 -12.437500 23.739000
37.200000 -11.312500 23.739000
36.700000 -9.609375 23.739000
36.625000 -8.625000 23.739000
37.000000 -7.390625 23.739000
38.125000 -19.437500 23.881032
38.050000 -18.328125 23.881032
37.800000 -17.156250 23.881032
37.550000 -15.781250 23.881032
37.400000 -14.234375 23.881032
37.625000 -13.265625 23.881032
37.500000 -11.890625 23.881032
36.850000 -10.390625 23.881032
36.550000 -9.031250 23.881032
36.700000 -7.781250 23.881032
38.275000 -20.031250 24.016001
38.175000 -18.687500 24.016001
37.900000 -17.515625 24.016001
37.650000 -16.093750 24.016001
37.400000 -14.734375 24.016001
37.350000 -13.296875 24.016001
37.400000 -12.437500 24.016001
37.000000 -10.750000 24.016001
36.500000 -9.609375 24.016001
36.525000 -8.109375 24.016001
37.075000 -6.921875 24.016001
38.750000 -20.703125 24.165026
38.225000 -19.062500 24.165026
38.000000 -18.000000 24.165026
37.825000 -16.812500 24.165026
37.575000 -14.984375 24.165026
37.450000 -14.000000 24.165026
37.425000 -12.765625 24.165026
37.050000 -11.390625 24.165026
36.575000 -9.984375 24.165026
36.450000 -8.890625 24.165026
36.750000 -7.203125 24.165026
38.675000 -21.171875 24.294000
38.150000 -19.625000 24.294000
38.125000 -18.281250 24.294000
37.950000 -17.125000 24.294000
37.650000 -15.781250 24.294000
37.475000 -14.265625 24.294000
38.000000 -13.359375 24.294000
36.700000 -10.359375 24.294000
36.375000 -8.843750 24.294000
36.575000 -8.031250 24.294000
38.250000 -19.765625 24.440017
38.200000 -18.437500 24.440017
38.000000 -17.359375 24.440017
37.750000 -16.125000 24.440017
37.525000 -14.484375 24.440017
37.550000 -13.328125 24.440017
37.350000 -12.046875 24.440017
36.725000 -10.703125 24.440017
36.300000 -9.078125 24.440017
38.850000 -20.468750 24.579002
38.250000 -19.093750 24.579002
38.075000 -17.781250 24.579002
37.750000 -16.328125 24.579002
37.550000 -15.187500 24.579002
37.350000 -13.609375 24.579002
37.050000 -12.203125 24.579002
36.675000 -10.828125 24.579002
36.275000 -9.593750 24.579002
36.300000 -8.234375 24.579002
36.875000 -7.296875 24.579002
38.200000 -19.453125 24.719085
38.100000 -18.156250 24.719085
37.925000 -16.843750 24.719085
37.650000 -15.250000 24.719085
37.575000 -14.093750 24.719085
37.250000 -12.500000 24.719085
36.725000 -11.031250 24.719085
36.350000 -9.750000 24.719085
36.200000 -8.593750 24.719085
36.600000 -7.656250 24.719085
38.175000 -19.406250 24.862024
38.125000 -18.328125 24.862024
37.950000 -17.109375 24.862024
37.800000 -15.906250 24.862024
35.875000 -10.453125 24.862024
35.975000 -9.109375 24.862024
36.425000 -7.859375 24.862024
38.200000 -18.734375 25.012030
38.000000 -17.265625 25.012030
37.825000 -16.171875 25.012030
37.675000 -14.546875 25.012030
37.600000 -13.609375 25.012030
35.750000 -10.531250 25.012030
35.675000 -9.468750 25.012030
38.250000 -19.156250 25.149002
38.000000 -17.843750 25.149002
37.875000 -16.468750 25.149002
37.750000 -14.937500 25.149002
37.325000 -13.875000 25.149002
36.575000 -12.546875 25.149002
35.750000 -11.281250 25.149002
35.425000 -9.984375 25.149002
35.850000 -8.625000 25.149002
36.625000 -7.390625 25.149002
38.175000 -19.656250 25.288000
38.125000 -18.406250 25.288000
37.975000 -17.015625 25.288000
37.800000 -15.703125 25.288000
37.600000 -14.281250 25.288000
38.025000 -13.203125 25.288000
35.425000 -10.453125 25.288000
35.575000 -9.234375 25.288000
36.225000 -7.515625 25.288000
38.800000 -20.203125 25.431026
38.200000 -18.921875 25.431026
38.000000 -17.156250 25.431026
37.825000 -15.921875 25.431026
37.650000 -14.515625 25.431026
37.450000 -13.546875 25.431026
35.550000 -10.437500 25.431026
35.450000 -9.500000 25.431026
38.750000 -20.328125 25.572003
38.250000 -19.125000 25.572003
38.025000 -17.500000 25.572003
37.850000 -16.328125 25.572003
37.725000 -15.093750 25.572003
37.600000 -13.765625 25.572003
35.750000 -10.968750 25.572003
35.425000 -9.484375 25.572003
35.850000 -8.203125 25.572003
36.675000 -7.093750 25.572003
38.250000 -19.062500 25.715001
38.100000 -17.890625 25.715001
37.900000 -16.796875 25.715001
37.650000 -15.140625 25.715001
37.600000 -14.187500 25.715001
38.075000 -12.781250 25.715001
35.650000 -9.656250 25.715001
35.900000 -8.328125 25.715001
36.575000 -7.609375 25.715001
38.425000 -20.593750 25.856020
38.250000 -19.437500 25.856020
38.175000 -18.109375 25.856020
37.950000 -17.031250 25.856020
37.675000 -15.296875 25.856020
37.550000 -14.203125 25.856020
37.425000 -12.859375 25.856020
36.800000 -11.578125 25.856020
36.100000 -10.171875 25.856020
36.000000 -8.750000 25.856020
36.400000 -7.796875 25.856020
38.100000 -19.593750 25.997030
38.100000 -18.515625 25.997030
37.925000 -17.218750 25.997030
37.725000 -15.781250 25.997030
37.525000 -14.718750 25.997030
37.025000 -12.859375 25.997030
36.600000 -11.609375 25.997030
36.375000 -10.687500 25.997030
36.100000 -8.890625 25.997030
36.300000 -8.140625 25.997030
38.150000 -18.578125 26.142000
37.975000 -17.359375 26.142000
37.725000 -16.359375 26.142000
37.525000 -15.046875 26.142000
37.475000 -13.609375 26.142000
37.100000 -12.109375 26.142000
36.500000 -11.031250 26.142000
36.175000 -9.640625 26.142000
38.850000 -20.500000 26.280024
38.200000 -19.015625 26.280024
37.975000 -17.390625 26.280024
37.700000 -16.265625 26.280024
37.525000 -15.062500 26.280024
37.550000 -13.515625 26.280024
38.025000 -12.328125 26.280024
36.200000 -9.750000 26.280024
36.175000 -8.484375 26.280024
36.675000 -7.328125 26.280024
38.175000 -19.468750 26.422000
38.025000 -18.093750 26.422000
37.750000 -16.906250 26.422000
37.500000 -15.281250 26.422000
37.450000 -13.890625 26.422000
37.425000 -12.906250 26.422000
36.975000 -11.468750 26.422000
36.350000 -9.750000 26.422000
36.175000 -8.515625 26.422000
36.525000 -7.359375 26.422000
38.525000 -21.156250 26.569034
38.150000 -19.578125 26.569034
38.100000 -18.500000 26.569034
37.850000 -17.015625 26.569034
37.525000 -15.703125 26.569034
37.425000 -14.500000 26.569034
37.100000 -12.750000 26.569034
36.725000 -11.921875 26.569034
36.475000 -10.281250 26.569034
36.200000 -8.765625 26.569034
36.400000 -8.046875 26.569034
37.950000 -19.765625 26.702000
38.000000 -18.781250 26.702000
37.825000 -17.125000 26.702000
37.625000 -16.265625 26.702000
37.400000 -14.859375 26.702000
37.375000 -13.578125 26.702000
37.775000 -12.031250 26.702000
36.275000 -9.437500 26.702000
39.075000 -21.765625 26.846026
38.550000 -20.468750 26.846026
38.050000 -18.828125 26.846026
37.800000 -17.671875 26.846026
37.575000 -16.437500 26.846026
37.300000 -15.203125 26.846026
37.275000 -13.609375 26.846026
37.950000 -12.546875 26.846026
36.375000 -9.937500 26.846026
36.400000 -8.593750 26.846026
36.800000 -7.250000 26.846026
39.075000 -21.750000 26.986038
38.550000 -20.546875 26.986038
37.975000 -18.937500 26.986038
37.775000 -17.500000 26.986038
37.575000 -16.250000 26.986038
37.200000 -14.937500 26.986038
37.150000 -13.781250 26.986038
37.475000 -12.437500 26.986038
37.125000 -11.000000 26.986038
36.475000 -10.093750 26.986038
36.425000 -8.578125 26.986038
36.850000 -7.031250 26.986038
38.525000 -20.609375 27.132029
38.000000 -19.437500 27.132029
37.825000 -17.953125 27.132029
37.625000 -16.968750 27.132029
37.225000 -15.406250 27.132029
37.075000 -13.859375 27.132029
36.725000 -12.703125 27.132029
36.525000 -11.375000 27.132029
36.625000 -10.015625 27.132029
36.450000 -8.562500 27.132029
36.750000 -7.656250 27.132029
39.450000 -22.093750 27.267024
38.525000 -20.906250 27.267024
38.000000 -19.500000 27.267024
37.850000 -18.140625 27.267024
37.700000 -16.703125 27.267024
37.225000 -15.328125 27.267024
36.875000 -14.093750 27.267024
36.725000 -10.281250 27.267024
36.550000 -8.796875 27.267024
36.750000 -7.953125 27.267024
39.250000 -22.140625 27.415000
38.650000 -20.875000 27.415000
38.025000 -19.453125 27.415000
37.875000 -18.093750 27.415000
37.875000 -17.062500 27.415000
36.800000 -14.515625 27.415000
36.700000 -10.453125 27.415000
36.550000 -9.250000 27.415000
36.675000 -7.750000 27.415000
39.575000 -21.984375 27.556030
38.500000 -20.609375 27.556030
37.975000 -19.375000 27.556030
37.825000 -18.140625 27.556030
37.400000 -16.796875 27.556030
36.850000 -15.421875 27.556030
36.775000 -14.171875 27.556030
36.800000 -10.046875 27.556030
36.625000 -9.109375 27.556030
36.725000 -7.609375 27.556030
38.025000 -19.875000 27.703000
37.850000 -18.296875 27.703000
37.250000 -16.765625 27.703000
36.700000 -15.468750 27.703000
36.700000 -14.546875 27.703000
36.900000 -10.703125 27.703000
36.775000 -9.281250 27.703000
36.700000 -7.984375 27.703000
38.525000 -21.171875 27.839000
38.075000 -20.265625 27.839000
38.000000 -18.515625 27.839000
37.425000 -17.609375 27.839000
36.775000 -15.937500 27.839000
36.650000 -14.984375 27.839000
36.775000 -11.125000 27.839000
36.700000 -9.781250 27.839000
36.675000 -8.109375 27.839000
37.275000 -6.906250 27.839000
38.625000 -20.234375 27.979000
38.075000 -18.968750 27.979000
38.100000 -17.578125 27.979000
36.675000 -15.062500 27.979000
36.950000 -11.328125 27.979000
36.900000 -9.609375 27.979000
36.600000 -8.656250 27.979000
36.950000 -7.187500 27.979000
38.550000 -20.828125 28.119026
38.125000 -19.843750 28.119026
38.325000 -18.562500 28.119026
36.650000 -15.343750 28.119026
36.850000 -14.468750 28.119026
36.900000 -13.187500 28.119026
37.050000 -11.750000 28.119026
37.175000 -10.484375 28.119026
36.825000 -9.156250 28.119026
36.850000 -7.984375 28.119026
38.725000 -22.609375 28.261000
38.525000 -21.406250 28.261000
38.150000 -19.703125 28.261000
38.000000 -18.515625 28.261000
37.200000 -17.453125 28.261000
36.750000 -15.812500 28.261000
36.925000 -14.765625 28.261000
36.925000 -13.046875 28.261000
37.150000 -12.265625 28.261000
37.300000 -10.625000 28.261000
36.825000 -9.250000 28.261000
39.175000 -21.812500 28.399029
38.125000 -19.312500 28.399029
37.475000 -17.796875 28.399029
37.000000 -16.343750 28.399029
37.100000 -15.218750 28.399029
37.175000 -11.250000 28.399029
37.175000 -9.875000 28.399029
36.900000 -8.890625 28.399029
37.000000 -7.671875 28.399029
39.050000 -22.234375 28.541000
38.750000 -20.500000 28.541000
38.200000 -19.093750 28.541000
37.575000 -17.656250 28.541000
37.050000 -16.671875 28.541000
37.200000 -15.312500 28.541000
37.250000 -11.562500 28.541000
37.075000 -9.921875 28.541000
36.800000 -8.875000 28.541000
36.900000 -7.656250 28.541000
38.875000 -22.250000 28.680029
38.600000 -20.796875 28.680029
38.200000 -19.812500 28.680029
38.525000 -18.265625 28.680029
37.725000 -15.890625 28.680029
37.925000 -14.515625 28.680029
37.925000 -13.031250 28.680029
37.725000 -11.656250 28.680029
37.000000 -10.078125 28.680029
36.725000 -9.156250 28.680029
36.825000 -8.000000 28.680029
38.875000 -22.406250 28.830000
38.625000 -21.109375 28.830000
38.225000 -19.812500 28.830000
38.375000 -18.515625 28.830000
37.750000 -15.734375 28.830000
38.000000 -14.375000 28.830000
38.000000 -13.000000 28.830000
37.700000 -11.562500 28.830000
36.975000 -10.437500 28.830000
36.700000 -8.953125 28.830000
36.800000 -7.796875 28.830000
38.650000 -21.156250 28.961000
38.325000 -19.968750 28.961000
38.500000 -18.500000 28.961000
37.650000 -15.875000 28.961000
37.825000 -14.578125 28.961000
37.700000 -13.218750 28.961000
37.475000 -11.812500 28.961000
37.025000 -10.546875 28.961000
36.675000 -9.421875 28.961000
36.725000 -7.703125 28.961000
38.850000 -22.312500 29.107033
38.650000 -20.875000 29.107033
38.300000 -19.765625 29.107033
38.475000 -18.234375 29.107033
37.775000 -15.750000 29.107033
37.975000 -14.453125 29.107033
37.950000 -13.437500 29.107033
37.700000 -11.609375 29.107033
36.950000 -10.203125 29.107033
36.650000 -9.125000 29.107033
36.825000 -8.140625 29.107033
39.500000 -22.203125 29.253000
38.650000 -20.859375 29.253000
38.325000 -19.875000 29.253000
38.575000 -18.484375 29.253000
37.725000 -15.640625 29.253000
37.925000 -14.671875 29.253000
37.925000 -13.234375 29.253000
37.675000 -11.656250 29.253000
36.950000 -10.296875 29.253000
36.600000 -9.031250 29.253000
36.700000 -7.906250 29.253000
