36.850000 5.765625 31.578544
38.150000 10.781250 31.578544
37.875000 11.609375 31.578544
37.950000 12.765625 31.578544
38.375000 14.046875 31.578544
37.050000 1.968750 31.735240
37.300000 3.437500 31.735240
36.850000 4.703125 31.735240
36.425000 5.468750 31.735240
36.675000 6.968750 31.735240
37.450000 10.218750 31.735240
37.925000 11.078125 31.735240
37.875000 12.453125 31.735240
37.100000 2.765625 31.889086
36.800000 3.828125 31.889086
38.100000 10.890625 31.889086
37.875000 12.046875 31.889086
37.950000 13.421875 31.889086
38.375000 14.250000 31.889086
36.875000 2.218750 32.053476
37.125000 3.187500 32.053476
36.775000 4.453125 32.053476
36.375000 5.875000 32.053476
36.725000 6.953125 32.053476
37.250000 7.953125 32.053476
37.775000 10.078125 32.053476
37.925000 11.312500 32.053476
37.850000 12.906250 32.053476
38.100000 13.968750 32.053476
36.800000 2.796875 32.198949
36.525000 4.187500 32.198949
36.300000 5.125000 32.198949
36.675000 6.531250 32.198949
38.100000 10.984375 32.198949
37.850000 12.250000 32.198949
37.925000 13.281250 32.198949
38.300000 14.125000 32.198949
36.600000 2.109375 32.361898
36.625000 3.187500 32.361898
36.400000 4.156250 32.361898
38.100000 11.015625 32.361898
37.900000 12.187500 32.361898
38.000000 13.578125 32.361898
38.425000 14.562500 32.361898
36.575000 2.218750 32.513949
36.600000 3.093750 32.513949
36.400000 4.453125 32.513949
38.100000 11.000000 32.513949
37.900000 12.406250 32.513949
36.375000 5.406250 32.671942
36.250000 6.812500 32.671942
36.825000 7.671875 32.671942
37.375000 9.000000 32.671942
38.000000 10.015625 32.671942
38.100000 11.265625 32.671942
37.875000 12.265625 32.671942
36.525000 2.312500 32.825195
36.325000 5.734375 32.825195
36.150000 6.640625 32.825195
36.475000 7.859375 32.825195
37.775000 12.406250 32.825195
36.575000 2.546875 32.986854
36.450000 3.796875 32.986854
36.000000 5.046875 32.986854
35.825000 6.515625 32.986854
36.000000 7.687500 32.986854
37.850000 11.859375 32.986854
37.600000 13.218750 32.986854
37.800000 14.109375 32.986854
36.450000 2.062500 33.137588
36.150000 5.968750 33.137588
35.850000 6.750000 33.137588
36.150000 8.125000 33.137588
37.800000 12.625000 33.137588
36.550000 2.671875 33.298202
36.300000 4.265625 33.298202
35.900000 5.406250 33.298202
35.850000 6.421875 33.298202
36.000000 7.296875 33.298202
37.775000 12.187500 33.298202
37.525000 12.953125 33.298202
37.825000 14.156250 33.298202
36.325000 2.171875 33.450181
36.475000 3.093750 33.450181
36.500000 4.125000 33.450181
36.150000 5.406250 33.450181
35.850000 6.531250 33.450181
36.100000 7.781250 33.450181
36.750000 11.093750 33.450181
37.325000 12.234375 33.450181
37.525000 13.421875 33.450181
38.100000 14.718750 33.450181
36.425000 2.453125 33.612478
36.175000 6.093750 33.612478
35.975000 7.703125 33.612478
36.325000 8.562500 33.612478
36.875000 9.593750 33.612478
37.125000 10.640625 33.612478
37.225000 11.718750 33.612478
37.450000 13.265625 33.612478
37.775000 13.968750 33.612478
36.375000 2.906250 33.762335
36.225000 4.625000 33.762335
36.300000 5.468750 33.762335
36.350000 6.703125 33.762335
36.175000 8.046875 33.762335
36.575000 8.890625 33.762335
36.925000 10.328125 33.762335
37.100000 11.484375 33.762335
37.300000 12.500000 33.762335
37.500000 13.734375 33.762335
38.075000 14.500000 33.762335
36.375000 3.312500 33.922052
36.350000 4.359375 33.922052
36.425000 5.921875 33.922052
36.350000 6.687500 33.922052
36.250000 7.796875 33.922052
36.625000 9.031250 33.922052
36.875000 10.171875 33.922052
36.975000 11.656250 33.922052
37.175000 12.625000 33.922052
36.200000 2.546875 34.075247
36.325000 3.359375 34.075247
36.325000 4.765625 34.075247
36.325000 5.875000 34.075247
36.375000 6.953125 34.075247
36.625000 8.140625 34.075247
36.750000 9.375000 34.075247
36.750000 10.656250 34.075247
36.975000 11.453125 34.075247
37.175000 12.765625 34.075247
37.450000 13.812500 34.075247
36.200000 2.234375 34.239431
36.300000 3.484375 34.239431
36.350000 4.984375 34.239431
36.350000 5.906250 34.239431
36.375000 7.234375 34.239431
36.600000 8.140625 34.239431
36.675000 9.296875 34.239431
36.700000 10.750000 34.239431
36.925000 11.718750 34.239431
37.125000 13.078125 34.239431
37.425000 13.750000 34.239431
36.200000 2.234375 34.384288
36.275000 3.656250 34.384288
36.325000 4.531250 34.384288
36.325000 6.093750 34.384288
36.350000 7.312500 34.384288
36.450000 8.453125 34.384288
36.525000 9.468750 34.384288
36.675000 10.859375 34.384288
36.900000 11.906250 34.384288
37.100000 13.015625 34.384288
36.250000 2.781250 34.550610
36.275000 3.640625 34.550610
36.325000 4.703125 34.550610
36.350000 5.781250 34.550610
36.375000 7.484375 34.550610
36.450000 8.125000 34.550610
36.500000 9.453125 34.550610
36.675000 10.671875 34.550610
36.900000 11.687500 34.550610
37.100000 13.015625 34.550610
37.400000 13.843750 34.550610
36.225000 2.656250 34.708589
36.300000 3.796875 34.708589
36.350000 4.734375 34.708589
36.350000 5.937500 34.708589
36.500000 7.031250 34.708589
36.600000 8.234375 34.708589
36.575000 9.515625 34.708589
36.700000 10.515625 34.708589
36.850000 12.031250 34.708589
37.050000 13.171875 34.708589
37.350000 14.109375 34.708589
36.150000 2.187500 34.861781
36.275000 3.390625 34.861781
36.275000 4.656250 34.861781
36.325000 5.375000 34.861781
36.400000 6.625000 34.861781
36.550000 8.140625 34.861781
36.575000 9.343750 34.861781
36.550000 10.343750 34.861781
36.750000 11.109375 34.861781
36.950000 12.531250 34.861781
37.150000 13.875000 34.861781
37.600000 14.921875 34.861781
36.225000 2.578125 35.010648
36.275000 4.015625 35.010648
36.325000 4.984375 35.010648
36.350000 6.359375 35.010648
36.525000 7.421875 35.010648
36.600000 8.453125 35.010648
36.550000 9.609375 35.010648
36.675000 11.093750 35.010648
36.825000 11.859375 35.010648
37.050000 12.937500 35.010648
37.325000 14.281250 35.010648
36.325000 3.281250 35.184571
36.325000 4.359375 35.184571
36.350000 5.343750 35.184571
36.450000 6.406250 35.184571
36.700000 7.453125 35.184571
36.700000 9.093750 35.184571
36.575000 10.343750 35.184571
36.725000 11.031250 35.184571
36.925000 12.375000 35.184571
37.150000 13.687500 35.184571
37.500000 14.875000 35.184571
36.225000 2.109375 35.324278
36.325000 3.171875 35.324278
36.350000 4.531250 35.324278
36.425000 5.593750 35.324278
36.550000 6.968750 35.324278
36.550000 8.281250 35.324278
36.550000 9.218750 35.324278
36.625000 10.328125 35.324278
36.775000 11.640625 35.324278
36.975000 12.984375 35.324278
37.175000 14.062500 35.324278
37.700000 14.765625 35.324278
36.250000 2.640625 35.486754
36.275000 3.937500 35.486754
36.325000 5.031250 35.486754
36.350000 6.203125 35.486754
36.625000 6.937500 35.486754
36.700000 8.234375 35.486754
36.500000 9.703125 35.486754
36.650000 10.812500 35.486754
36.850000 11.671875 35.486754
37.050000 12.750000 35.486754
37.325000 14.375000 35.486754
36.300000 3.015625 35.636445
36.325000 3.718750 35.636445
36.375000 4.968750 35.636445
36.425000 6.500000 35.636445
36.725000 7.296875 35.636445
36.775000 8.375000 35.636445
36.575000 9.953125 35.636445
36.700000 11.015625 35.636445
36.900000 12.203125 35.636445
37.125000 13.109375 35.636445
37.375000 14.437500 35.636445
36.300000 2.734375 35.800303
36.350000 3.812500 35.800303
36.400000 5.015625 35.800303
36.500000 6.437500 35.800303
36.800000 7.671875 35.800303
36.800000 8.468750 35.800303
36.575000 9.890625 35.800303
36.725000 10.828125 35.800303
36.925000 12.406250 35.800303
37.125000 13.281250 35.800303
37.400000 14.515625 35.800303
36.325000 3.218750 35.951543
36.350000 4.140625 35.951543
36.350000 5.171875 35.951543
36.450000 6.625000 35.951543
36.700000 7.593750 35.951543
36.675000 8.718750 35.951543
36.575000 10.281250 35.951543
36.725000 11.109375 35.951543
36.950000 12.265625 35.951543
37.150000 13.281250 35.951543
37.500000 14.375000 35.951543
36.350000 3.187500 36.115614
36.350000 4.359375 36.115614
36.400000 5.593750 36.115614
36.600000 6.562500 36.115614
36.625000 7.734375 36.115614
36.500000 9.187500 36.115614
36.575000 10.250000 36.115614
36.750000 11.218750 36.115614
37.025000 12.562500 36.115614
37.250000 13.578125 36.115614
37.600000 15.000000 36.115614
36.250000 2.703125 36.273732
36.300000 3.734375 36.273732
36.425000 4.796875 36.273732
36.525000 6.421875 36.273732
36.750000 7.125000 36.273732
36.750000 8.734375 36.273732
36.575000 9.468750 36.273732
36.700000 10.703125 36.273732
36.975000 11.718750 36.273732
37.175000 13.125000 36.273732
37.400000 14.375000 36.273732
36.350000 3.062500 36.427481
36.425000 4.171875 36.427481
36.425000 5.828125 36.427481
36.550000 6.906250 36.427481
36.750000 8.000000 36.427481
36.650000 9.000000 36.427481
36.575000 9.921875 36.427481
36.825000 11.390625 36.427481
37.100000 12.421875 36.427481
37.250000 13.828125 36.427481
37.600000 14.703125 36.427481
36.275000 2.515625 36.576682
36.325000 3.765625 36.576682
36.400000 5.062500 36.576682
36.525000 5.937500 36.576682
36.700000 7.156250 36.576682
36.725000 8.656250 36.576682
36.625000 9.859375 36.576682
36.725000 10.703125 36.576682
36.975000 11.859375 36.576682
37.150000 13.203125 36.576682
37.375000 14.359375 36.576682
36.350000 2.093750 36.740374
36.300000 3.218750 36.740374
36.375000 4.078125 36.740374
36.450000 5.468750 36.740374
36.550000 6.390625 36.740374
36.725000 7.750000 36.740374
36.700000 8.765625 36.740374
36.600000 10.015625 36.740374
36.825000 11.296875 36.740374
37.125000 12.031250 36.740374
37.250000 13.437500 36.740374
37.525000 14.609375 36.740374
36.325000 3.468750 36.898388
36.400000 4.500000 36.898388
36.475000 5.640625 36.898388
36.550000 6.984375 36.898388
36.750000 7.750000 36.898388
36.775000 8.937500 36.898388
36.750000 10.109375 36.898388
37.000000 11.437500 36.898388
37.175000 12.781250 36.898388
37.400000 13.562500 36.898388
37.850000 14.750000 36.898388
36.275000 2.781250 37.050388
36.400000 3.500000 37.050388
36.500000 5.015625 37.050388
36.550000 6.187500 37.050388
36.625000 7.000000 37.050388
36.750000 8.593750 37.050388
36.825000 9.421875 37.050388
36.900000 10.453125 37.050388
37.075000 11.578125 37.050388
37.275000 12.796875 37.050388
37.600000 14.140625 37.050388
36.450000 2.843750 37.209949
36.525000 4.453125 37.209949
36.500000 5.187500 37.209949
36.375000 6.718750 37.209949
36.450000 8.015625 37.209949
36.900000 8.640625 37.209949
37.100000 10.015625 37.209949
37.050000 11.421875 37.209949
37.175000 12.343750 37.209949
37.375000 13.312500 37.209949
37.875000 14.484375 37.209949
36.300000 2.156250 37.366318
36.500000 3.640625 37.366318
36.525000 4.750000 37.366318
36.950000 5.609375 37.366318
36.825000 7.187500 37.366318
36.400000 8.406250 37.366318
36.950000 9.234375 37.366318
37.225000 10.296875 37.366318
37.200000 11.406250 37.366318
37.375000 12.687500 37.366318
37.625000 14.062500 37.366318
36.450000 2.750000 37.523884
36.525000 3.609375 37.523884
36.350000 5.046875 37.523884
36.125000 6.109375 37.523884
36.200000 7.093750 37.523884
36.475000 8.640625 37.523884
37.000000 9.734375 37.523884
37.200000 10.906250 37.523884
37.200000 11.609375 37.523884
37.400000 12.750000 37.523884
37.700000 14.093750 37.523884
36.475000 2.390625 37.680139
36.600000 3.765625 37.680139
36.425000 5.093750 37.680139
36.125000 6.343750 37.680139
36.175000 7.468750 37.680139
36.450000 8.656250 37.680139
36.900000 9.437500 37.680139
37.200000 10.593750 37.680139
37.300000 12.062500 37.680139
37.400000 13.078125 37.680139
37.700000 13.953125 37.680139
36.600000 2.687500 37.839202
36.700000 4.000000 37.839202
36.925000 4.859375 37.839202
36.600000 6.421875 37.839202
36.200000 7.437500 37.839202
36.500000 8.625000 37.839202
37.050000 9.703125 37.839202
37.350000 11.078125 37.839202
37.400000 11.750000 37.839202
37.575000 13.046875 37.839202
37.900000 14.187500 37.839202
36.550000 2.125000 37.990737
36.675000 2.953125 37.990737
36.600000 4.328125 37.990737
36.775000 5.218750 37.990737
36.700000 6.984375 37.990737
36.400000 7.703125 37.990737
36.975000 11.390625 37.990737
37.475000 12.281250 37.990737
37.700000 13.562500 37.990737
38.225000 14.703125 37.990737
36.600000 2.359375 38.150498
36.775000 3.718750 38.150498
36.775000 4.640625 38.150498
36.450000 6.000000 38.150498
36.375000 6.828125 38.150498
36.650000 7.937500 38.150498
37.025000 9.531250 38.150498
37.400000 10.546875 38.150498
37.525000 11.343750 38.150498
37.600000 12.718750 38.150498
37.800000 14.046875 38.150498
36.750000 2.531250 38.307909
36.525000 5.968750 38.307909
36.350000 7.437500 38.307909
36.700000 8.218750 38.307909
36.975000 9.546875 38.307909
37.300000 10.609375 38.307909
37.600000 11.765625 38.307909
37.625000 12.890625 38.307909
37.925000 14.281250 38.307909
36.675000 2.203125 38.463020
36.850000 3.171875 38.463020
36.375000 4.218750 38.463020
36.100000 5.343750 38.463020
36.525000 6.515625 38.463020
36.950000 7.718750 38.463020
37.200000 8.828125 38.463020
37.700000 9.859375 38.463020
37.900000 10.984375 38.463020
37.775000 12.265625 38.463020
37.900000 13.421875 38.463020
38.275000 14.687500 38.463020
36.725000 2.015625 38.618487
36.900000 3.000000 38.618487
36.625000 4.687500 38.618487
36.300000 5.531250 38.618487
36.575000 6.890625 38.618487
37.175000 7.859375 38.618487
37.650000 11.578125 38.618487
37.875000 12.250000 38.618487
38.025000 13.656250 38.618487
38.550000 14.890625 38.618487
36.825000 2.046875 38.773655
36.900000 3.390625 38.773655
36.625000 4.187500 38.773655
36.325000 5.593750 38.773655
36.625000 6.703125 38.773655
37.225000 7.546875 38.773655
37.650000 8.921875 38.773655
38.150000 9.968750 38.773655
38.300000 11.156250 38.773655
37.950000 12.234375 38.773655
38.000000 13.390625 38.773655
38.525000 14.453125 38.773655
36.950000 2.921875 38.941993
36.650000 3.968750 38.941993
36.550000 4.984375 38.941993
36.750000 6.593750 38.941993
36.875000 7.718750 38.941993
37.325000 8.531250 38.941993
37.725000 9.656250 38.941993
38.000000 10.843750 38.941993
38.100000 12.281250 38.941993
38.025000 13.343750 38.941993
38.350000 14.468750 38.941993
36.875000 2.218750 39.089019
37.025000 3.328125 39.089019
37.125000 4.343750 39.089019
36.800000 5.546875 39.089019
36.750000 7.140625 39.089019
37.275000 8.125000 39.089019
37.825000 11.453125 39.089019
38.175000 12.828125 39.089019
38.200000 13.671875 39.089019
36.825000 1.890625 39.244994
37.025000 2.578125 39.244994
36.900000 6.281250 39.244994
36.875000 7.406250 39.244994
37.375000 8.421875 39.244994
37.875000 11.906250 39.244994
38.125000 12.953125 39.244994
38.375000 14.062500 39.244994
36.950000 2.156250 39.402366
37.100000 3.078125 39.402366
36.950000 4.468750 39.402366
36.725000 5.343750 39.402366
36.800000 6.390625 39.402366
37.225000 7.640625 39.402366
37.725000 9.109375 39.402366
38.250000 10.125000 39.402366
38.425000 10.937500 39.402366
38.200000 12.515625 39.402366
38.225000 13.593750 39.402366
38.625000 14.781250 39.402366
37.150000 1.921875 39.560113
37.125000 2.828125 39.560113
36.950000 4.281250 39.560113
36.750000 5.046875 39.560113
36.750000 6.328125 39.560113
37.150000 7.390625 39.560113
37.600000 8.531250 39.560113
38.150000 9.796875 39.560113
38.425000 11.046875 39.560113
38.225000 11.984375 39.560113
38.275000 13.250000 39.560113
38.575000 14.609375 39.560113
37.125000 2.890625 39.716265
36.950000 3.953125 39.716265
36.725000 5.468750 39.716265
36.750000 6.578125 39.716265
37.050000 7.421875 39.716265
37.525000 8.750000 39.716265
38.150000 9.843750 39.716265
38.425000 10.984375 39.716265
38.200000 12.156250 39.716265
38.250000 13.031250 39.716265
38.550000 14.515625 39.716265
37.175000 2.937500 39.868373
36.925000 3.937500 39.868373
36.725000 5.109375 39.868373
36.750000 6.203125 39.868373
37.050000 7.406250 39.868373
37.625000 8.390625 39.868373
38.250000 9.812500 39.868373
38.400000 11.015625 39.868373
38.175000 12.109375 39.868373
38.225000 13.078125 39.868373
38.525000 14.562500 39.868373
37.275000 2.703125 40.027584
37.125000 3.890625 40.027584
36.825000 5.203125 40.027584
36.800000 6.375000 40.027584
37.175000 7.625000 40.027584
37.825000 8.953125 40.027584
38.375000 9.750000 40.027584
38.300000 10.906250 40.027584
38.075000 12.484375 40.027584
38.225000 13.531250 40.027584
38.625000 14.515625 40.027584
37.200000 1.937500 40.180739
37.275000 2.937500 40.180739
37.375000 4.156250 40.180739
37.075000 5.562500 40.180739
36.800000 6.687500 40.180739
37.075000 7.625000 40.180739
37.725000 8.671875 40.180739
38.350000 10.046875 40.180739
38.275000 11.109375 40.180739
38.075000 12.125000 40.180739
38.225000 13.515625 40.180739
38.625000 14.593750 40.180739
37.300000 3.265625 40.343011
37.425000 4.234375 40.343011
37.225000 5.187500 40.343011
38.425000 10.031250 40.343011
38.275000 11.359375 40.343011
38.050000 12.328125 40.343011
38.300000 13.656250 40.343011
38.850000 14.593750 40.343011
37.075000 1.937500 40.492462
37.325000 2.968750 40.492462
37.350000 4.328125 40.492462
37.150000 5.468750 40.492462
38.450000 10.171875 40.492462
38.300000 11.281250 40.492462
38.025000 12.562500 40.492462
38.300000 13.796875 40.492462
37.300000 2.109375 40.652650
37.350000 3.328125 40.652650
37.550000 4.437500 40.652650
37.450000 5.828125 40.652650
37.250000 6.859375 40.652650
37.650000 8.140625 40.652650
38.275000 9.125000 40.652650
38.275000 10.343750 40.652650
37.975000 11.390625 40.652650
38.075000 12.843750 40.652650
38.425000 13.718750 40.652650
37.350000 2.531250 40.805313
37.400000 3.843750 40.805313
37.575000 5.218750 40.805313
37.525000 6.234375 40.805313
37.550000 7.421875 40.805313
38.000000 8.296875 40.805313
38.500000 9.531250 40.805313
38.325000 10.953125 40.805313
37.925000 11.984375 40.805313
38.100000 12.906250 40.805313
38.500000 14.468750 40.805313
37.325000 2.968750 40.965433
37.375000 4.421875 40.965433
37.500000 5.468750 40.965433
37.575000 6.281250 40.965433
37.700000 7.468750 40.965433
38.125000 8.765625 40.965433
38.475000 9.921875 40.965433
38.200000 11.312500 40.965433
37.975000 12.234375 40.965433
38.300000 13.515625 40.965433
38.850000 14.437500 40.965433
37.325000 2.031250 41.121502
37.375000 3.375000 41.121502
37.375000 4.593750 41.121502
37.425000 5.734375 41.121502
37.600000 6.640625 41.121502
37.925000 7.843750 41.121502
38.400000 9.187500 41.121502
38.250000 10.562500 41.121502
37.825000 11.625000 41.121502
38.100000 12.687500 41.121502
38.500000 13.640625 41.121502
37.375000 2.375000 41.278372
37.425000 3.578125 41.278372
37.450000 5.000000 41.278372
37.500000 5.843750 41.278372
37.625000 7.125000 41.278372
38.000000 8.281250 41.278372
38.500000 9.171875 41.278372
38.300000 10.796875 41.278372
37.825000 11.875000 41.278372
38.000000 13.203125 41.278372
38.525000 14.156250 41.278372
37.375000 2.765625 41.434344
37.475000 3.687500 41.434344
37.550000 4.828125 41.434344
37.525000 6.437500 41.434344
37.650000 7.203125 41.434344
38.100000 8.515625 41.434344
38.450000 9.437500 41.434344
38.150000 10.921875 41.434344
37.900000 12.046875 41.434344
38.150000 13.109375 41.434344
38.550000 14.453125 41.434344
37.425000 3.156250 41.590259
37.600000 4.312500 41.590259
37.575000 5.750000 41.590259
37.600000 6.734375 41.590259
37.900000 7.671875 41.590259
38.300000 9.109375 41.590259
38.175000 10.328125 41.590259
37.850000 11.468750 41.590259
38.000000 12.531250 41.590259
38.275000 13.578125 41.590259
37.325000 2.359375 41.746775
37.450000 3.296875 41.746775
37.550000 4.718750 41.746775
37.500000 5.968750 41.746775
37.550000 7.250000 41.746775
38.000000 7.875000 41.746775
38.550000 9.250000 41.746775
38.275000 10.390625 41.746775
37.850000 11.828125 41.746775
38.000000 12.843750 41.746775
38.375000 13.796875 41.746775
37.375000 2.578125 41.902950
37.475000 4.125000 41.902950
37.525000 4.875000 41.902950
37.525000 6.187500 41.902950
37.800000 7.265625 41.902950
38.250000 8.343750 41.902950
38.425000 9.718750 41.902950
38.125000 10.750000 41.902950
37.875000 11.906250 41.902950
38.100000 13.343750 41.902950
38.575000 14.187500 41.902950
37.400000 2.906250 42.057795
37.550000 4.031250 42.057795
37.500000 5.234375 42.057795
37.525000 6.218750 42.057795
37.875000 7.781250 42.057795
38.225000 8.593750 42.057795
38.300000 9.953125 42.057795
38.025000 11.015625 42.057795
37.825000 12.281250 42.057795
38.050000 13.421875 42.057795
38.700000 14.312500 42.057795
37.650000 2.031250 42.214020
37.425000 3.343750 42.214020
37.600000 4.343750 42.214020
37.300000 5.671875 42.214020
37.125000 6.406250 42.214020
37.700000 7.640625 42.214020
38.325000 8.828125 42.214020
38.250000 10.078125 42.214020
37.900000 11.265625 42.214020
37.875000 12.593750 42.214020
37.375000 2.031250 42.370597
37.325000 3.078125 42.370597
37.000000 4.234375 42.370597
36.650000 5.406250 42.370597
36.825000 6.812500 42.370597
37.375000 7.828125 42.370597
38.150000 8.578125 42.370597
38.350000 9.953125 42.370597
37.975000 11.171875 42.370597
37.850000 12.140625 42.370597
37.175000 3.125000 42.526792
36.850000 3.828125 42.526792
36.450000 5.203125 42.526792
38.125000 11.203125 42.526792
37.825000 12.218750 42.526792
37.950000 13.125000 42.526792
38.475000 14.390625 42.526792
36.875000 1.984375 42.682354
37.100000 3.218750 42.682354
36.725000 4.546875 42.682354
36.350000 5.734375 42.682354
36.600000 6.687500 42.682354
38.000000 11.515625 42.682354
37.850000 12.734375 42.682354
36.625000 4.687500 42.837461
36.550000 5.921875 42.837461
36.925000 7.203125 42.837461
37.475000 8.078125 42.837461
38.150000 9.171875 42.837461
38.150000 10.640625 42.837461
37.875000 11.796875 42.837461
37.925000 13.171875 42.837461
38.300000 14.187500 42.837461
36.700000 2.062500 42.996848
36.700000 3.281250 42.996848
36.425000 4.281250 42.996848
36.275000 5.343750 42.996848
36.300000 6.828125 42.996848
38.100000 11.421875 42.996848
37.850000 12.109375 42.996848
38.025000 13.265625 42.996848
38.575000 14.656250 42.996848
36.800000 2.500000 43.149890
37.000000 3.343750 43.149890
36.675000 5.078125 43.149890
36.300000 5.828125 43.149890
36.700000 6.890625 43.149890
37.525000 10.453125 43.149890
37.975000 11.750000 43.149890
37.875000 12.953125 43.149890
37.925000 14.187500 43.149890
36.800000 2.968750 43.307582
37.125000 4.046875 43.307582
36.200000 6.531250 43.307582
36.650000 7.515625 43.307582
37.100000 8.328125 43.307582
37.775000 9.515625 43.307582
38.050000 10.718750 43.307582
37.950000 11.765625 43.307582
37.875000 13.312500 43.307582
38.075000 14.296875 43.307582
36.325000 5.484375 43.464048
36.225000 6.593750 43.464048
36.850000 7.890625 43.464048
37.325000 8.656250 43.464048
37.925000 9.859375 43.464048
38.100000 11.234375 43.464048
37.850000 12.312500 43.464048
37.800000 13.390625 43.464048
38.200000 14.437500 43.464048
36.300000 5.703125 43.622751
36.125000 6.421875 43.622751
36.375000 7.859375 43.622751
37.775000 12.578125 43.622751
37.725000 13.406250 43.622751
38.075000 14.546875 43.622751
36.650000 2.703125 43.777192
36.775000 3.890625 43.777192
36.250000 5.500000 43.777192
35.825000 6.546875 43.777192
36.025000 7.640625 43.777192
37.775000 12.296875 43.777192
37.575000 13.265625 43.777192
37.875000 14.218750 43.777192
36.575000 3.015625 43.945050
36.425000 4.000000 43.945050
35.975000 5.140625 43.945050
35.775000 6.421875 43.945050
35.950000 7.625000 43.945050
37.825000 11.812500 43.945050
37.625000 13.093750 43.945050
37.900000 14.515625 43.945050
36.575000 2.937500 44.104465
36.325000 4.093750 44.104465
35.975000 5.328125 44.104465
35.875000 6.218750 44.104465
35.950000 7.578125 44.104465
37.825000 11.812500 44.104465
37.600000 13.031250 44.104465
37.875000 14.203125 44.104465
36.275000 2.359375 44.257902
36.500000 2.984375 44.257902
36.550000 4.281250 44.257902
36.200000 5.453125 44.257902
35.925000 6.781250 44.257902
36.125000 8.062500 44.257902
36.725000 11.562500 44.257902
37.275000 12.750000 44.257902
37.500000 13.750000 44.257902
38.125000 14.609375 44.257902
36.425000 2.578125 44.411952
36.225000 6.468750 44.411952
36.075000 7.703125 44.411952
36.375000 8.406250 44.411952
36.875000 9.468750 44.411952
37.175000 10.875000 44.411952
37.225000 11.843750 44.411952
37.375000 12.968750 44.411952
37.700000 14.250000 44.411952
36.450000 3.234375 44.569062
36.325000 4.578125 44.569062
36.425000 5.312500 44.569062
36.375000 6.937500 44.569062
36.150000 7.781250 44.569062
36.600000 9.125000 44.569062
36.950000 10.328125 44.569062
37.075000 11.234375 44.569062
37.250000 12.218750 44.569062
37.475000 13.578125 44.569062
38.075000 14.500000 44.569062
36.375000 2.390625 44.723803
36.425000 3.828125 44.723803
36.350000 5.046875 44.723803
36.350000 6.140625 44.723803
36.375000 7.484375 44.723803
36.525000 8.671875 44.723803
36.750000 9.843750 44.723803
36.875000 10.843750 44.723803
37.125000 11.718750 44.723803
37.350000 13.234375 44.723803
37.675000 14.421875 44.723803
36.250000 2.015625 44.879978
36.300000 3.296875 44.879978
36.325000 4.093750 44.879978
36.325000 5.437500 44.879978
36.350000 6.359375 44.879978
36.475000 7.812500 44.879978
36.600000 8.828125 44.879978
36.675000 10.046875 44.879978
36.825000 11.265625 44.879978
37.025000 12.312500 44.879978
37.275000 13.625000 44.879978
37.700000 14.578125 44.879978
36.300000 3.171875 45.037915
36.350000 4.718750 45.037915
36.350000 5.437500 45.037915
36.350000 7.078125 45.037915
36.625000 8.125000 45.037915
36.700000 8.921875 45.037915
36.650000 10.296875 45.037915
36.875000 11.312500 45.037915
37.050000 12.812500 45.037915
37.275000 13.937500 45.037915
37.900000 14.906250 45.037915
36.275000 3.140625 45.193245
36.325000 4.421875 45.193245
36.350000 5.921875 45.193245
36.375000 6.593750 45.193245
36.550000 8.265625 45.193245
36.600000 9.328125 45.193245
36.600000 10.187500 45.193245
36.800000 11.656250 45.193245
36.975000 12.406250 45.193245
37.300000 13.906250 45.193245
37.925000 15.062500 45.193245
36.175000 2.250000 45.348686
36.250000 3.515625 45.348686
36.325000 4.390625 45.348686
36.350000 5.843750 45.348686
36.375000 6.859375 45.348686
36.475000 7.828125 45.348686
36.525000 9.359375 45.348686
36.600000 10.687500 45.348686
36.800000 11.312500 45.348686
36.975000 12.562500 45.348686
37.275000 13.796875 45.348686
37.925000 14.843750 45.348686
36.175000 2.140625 45.505509
36.250000 3.296875 45.505509
36.300000 4.609375 45.505509
36.325000 5.546875 45.505509
36.375000 7.171875 45.505509
36.475000 7.937500 45.505509
36.500000 9.281250 45.505509
36.600000 10.375000 45.505509
36.800000 11.703125 45.505509
36.975000 12.750000 45.505509
36.300000 2.500000 45.659853
36.350000 3.796875 45.659853
36.300000 5.093750 45.659853
36.325000 6.328125 45.659853
36.500000 6.937500 45.659853
36.525000 8.171875 45.659853
36.475000 9.593750 45.659853
36.650000 10.875000 45.659853
36.800000 11.890625 45.659853
37.000000 12.812500 45.659853
37.275000 14.062500 45.659853
36.200000 1.953125 45.817839
36.275000 3.140625 45.817839
36.325000 4.140625 45.817839
36.325000 5.500000 45.817839
36.375000 6.750000 45.817839
36.700000 7.390625 45.817839
36.775000 9.000000 45.817839
36.625000 10.156250 45.817839
36.700000 11.203125 45.817839
36.825000 12.578125 45.817839
37.075000 13.484375 45.817839
37.450000 14.531250 45.817839
36.125000 2.093750 45.973117
36.300000 3.062500 45.973117
36.325000 4.093750 45.973117
36.350000 5.593750 45.973117
36.375000 6.546875 45.973117
36.575000 7.578125 45.973117
36.650000 8.734375 45.973117
36.625000 10.062500 45.973117
36.725000 11.328125 45.973117
36.875000 12.515625 45.973117
37.125000 13.625000 45.973117
37.500000 14.734375 45.973117
36.225000 2.203125 46.127533
36.250000 3.359375 46.127533
36.300000 4.406250 46.127533
36.325000 5.890625 46.127533
36.475000 7.031250 46.127533
36.550000 8.171875 46.127533
36.500000 9.343750 46.127533
36.600000 10.468750 46.127533
36.775000 11.281250 46.127533
36.975000 12.437500 46.127533
37.175000 13.859375 46.127533
37.600000 14.812500 46.127533
36.300000 2.062500 46.284561
36.300000 2.890625 46.284561
36.325000 4.046875 46.284561
36.400000 4.953125 46.284561
36.475000 6.156250 46.284561
36.775000 7.656250 46.284561
36.775000 8.812500 46.284561
36.550000 9.765625 46.284561
36.725000 10.843750 46.284561
36.925000 12.015625 46.284561
37.125000 13.265625 46.284561
37.400000 14.687500 46.284561
36.275000 3.578125 46.442685
36.300000 4.687500 46.442685
36.400000 5.625000 46.442685
36.550000 6.656250 46.442685
36.550000 7.937500 46.442685
36.525000 9.218750 46.442685
36.625000 10.390625 46.442685
36.800000 11.875000 46.442685
37.000000 12.984375 46.442685
37.200000 13.796875 46.442685
37.700000 14.906250 46.442685
36.300000 2.859375 46.596197
36.325000 3.890625 46.596197
36.375000 5.078125 46.596197
36.450000 6.546875 46.596197
36.750000 7.375000 46.596197
36.775000 8.531250 46.596197
36.550000 9.812500 46.596197
36.725000 11.125000 46.596197
36.950000 12.015625 46.596197
37.125000 13.250000 46.596197
37.425000 14.578125 46.596197
36.300000 2.875000 46.751315
36.325000 4.031250 46.751315
36.350000 5.500000 46.751315
36.450000 6.484375 46.751315
36.650000 8.015625 46.751315
36.650000 8.750000 46.751315
36.600000 10.250000 46.751315
36.825000 11.203125 46.751315
37.000000 12.328125 46.751315
37.150000 13.328125 46.751315
37.500000 14.812500 46.751315
36.275000 3.328125 46.907659
36.325000 4.718750 46.907659
36.425000 5.781250 46.907659
36.575000 6.546875 46.907659
36.675000 7.734375 46.907659
36.600000 8.906250 46.907659
36.600000 10.187500 46.907659
36.825000 11.453125 46.907659
37.025000 12.578125 46.907659
37.250000 13.890625 46.907659
37.675000 14.937500 46.907659
36.250000 2.140625 47.061050
36.325000 3.281250 47.061050
36.400000 4.781250 47.061050
36.425000 5.625000 47.061050
36.600000 6.984375 47.061050
36.675000 7.921875 47.061050
36.575000 9.156250 47.061050
36.625000 10.593750 47.061050
36.875000 11.718750 47.061050
37.100000 12.859375 47.061050
36.300000 3.609375 47.218017
36.400000 4.812500 47.218017
36.475000 5.656250 47.218017
36.550000 6.828125 47.218017
36.625000 8.093750 47.218017
36.600000 9.406250 47.218017
36.700000 10.218750 47.218017
36.975000 11.390625 47.218017
37.175000 12.453125 47.218017
37.275000 13.906250 47.218017
37.800000 14.640625 47.218017
36.325000 2.562500 47.377707
36.325000 3.968750 47.377707
36.400000 4.656250 47.377707
36.525000 6.343750 47.377707
36.675000 7.062500 47.377707
36.675000 8.593750 47.377707
36.550000 9.625000 47.377707
36.675000 10.671875 47.377707
36.950000 11.734375 47.377707
37.150000 13.234375 47.377707
37.400000 14.031250 47.377707
36.275000 3.218750 47.534478
36.325000 4.062500 47.534478
36.425000 5.203125 47.534478
36.525000 6.375000 47.534478
36.675000 7.718750 47.534478
36.750000 8.875000 47.534478
36.700000 10.125000 47.534478
36.850000 11.250000 47.534478
37.100000 12.062500 47.534478
37.300000 13.343750 47.534478
37.650000 14.515625 47.534478
36.300000 3.250000 47.689797
36.450000 4.265625 47.689797
36.525000 5.609375 47.689797
36.575000 6.953125 47.689797
36.775000 7.937500 47.689797
36.850000 8.937500 47.689797
36.825000 10.453125 47.689797
37.000000 11.203125 47.689797
37.200000 12.328125 47.689797
37.325000 13.671875 47.689797
37.850000 15.031250 47.689797
36.300000 2.125000 47.843257
36.400000 3.640625 47.843257
36.425000 4.671875 47.843257
36.450000 6.171875 47.843257
36.525000 6.890625 47.843257
36.625000 8.218750 47.843257
36.675000 9.343750 47.843257
36.825000 10.593750 47.843257
37.000000 11.625000 47.843257
37.225000 12.812500 47.843257
36.350000 2.484375 48.013718
36.400000 4.093750 48.013718
36.450000 5.296875 48.013718
36.675000 6.359375 48.013718
36.650000 7.187500 48.013718
36.575000 8.562500 48.013718
36.825000 9.656250 48.013718
36.950000 11.031250 48.013718
37.175000 11.734375 48.013718
37.375000 12.875000 48.013718
37.675000 14.359375 48.013718
36.475000 3.296875 48.156849
36.575000 4.062500 48.156849
36.825000 5.359375 48.156849
36.600000 6.515625 48.156849
36.350000 7.734375 48.156849
36.650000 9.203125 48.156849
36.900000 10.015625 48.156849
37.100000 11.171875 48.156849
37.300000 12.546875 48.156849
37.550000 13.765625 48.156849
37.975000 14.531250 48.156849
36.450000 2.187500 48.325419
36.500000 3.000000 48.325419
36.350000 6.765625 48.325419
36.325000 7.890625 48.325419
36.625000 8.890625 48.325419
36.975000 10.343750 48.325419
37.175000 11.578125 48.325419
37.325000 12.515625 48.325419
37.550000 13.593750 48.325419
38.050000 14.750000 48.325419
36.600000 2.781250 48.481911
36.375000 6.828125 48.481911
36.225000 7.687500 48.481911
36.625000 9.125000 48.481911
37.200000 9.703125 48.481911
37.425000 11.062500 48.481911
37.425000 12.156250 48.481911
37.625000 13.484375 48.481911
38.000000 14.593750 48.481911
36.500000 2.015625 48.637640
36.600000 2.921875 48.637640
36.375000 6.609375 48.637640
36.300000 7.593750 48.637640
36.675000 8.828125 48.637640
37.325000 9.984375 48.637640
37.550000 11.312500 48.637640
37.375000 12.359375 48.637640
37.575000 13.375000 48.637640
38.125000 14.625000 48.637640
36.475000 2.187500 48.793379
36.625000 3.468750 48.793379
36.525000 4.203125 48.793379
36.250000 5.765625 48.793379
36.300000 6.609375 48.793379
36.425000 7.765625 48.793379
36.825000 8.812500 48.793379
37.450000 10.281250 48.793379
37.625000 11.109375 48.793379
37.550000 12.718750 48.793379
37.800000 13.390625 48.793379
38.400000 14.656250 48.793379
36.700000 2.687500 48.948871
36.475000 6.500000 48.948871
36.275000 7.312500 48.948871
36.575000 8.687500 48.948871
36.900000 9.500000 48.948871
37.250000 10.531250 48.948871
37.525000 11.937500 48.948871
37.650000 13.218750 48.948871
37.950000 14.406250 48.948871
36.825000 3.234375 49.105714
36.450000 4.406250 49.105714
36.150000 5.515625 49.105714
36.475000 6.593750 49.105714
36.800000 7.687500 49.105714
37.175000 11.312500 49.105714
37.625000 12.328125 49.105714
37.875000 13.437500 49.105714
38.400000 14.437500 49.105714
36.775000 2.421875 49.257235
36.500000 6.125000 49.257235
36.300000 7.375000 49.257235
36.800000 8.375000 49.257235
37.125000 9.890625 49.257235
37.425000 10.671875 49.257235
37.775000 11.843750 49.257235
37.850000 13.140625 49.257235
38.075000 14.046875 49.257235
36.700000 2.046875 49.412511
36.950000 3.265625 49.412511
36.875000 4.718750 49.412511
36.500000 5.703125 49.412511
36.575000 7.078125 49.412511
37.250000 7.859375 49.412511
37.675000 11.593750 49.412511
37.875000 12.484375 49.412511
38.050000 13.859375 49.412511
36.975000 2.750000 49.571108
36.775000 6.281250 49.571108
37.925000 13.296875 49.571108
38.200000 14.343750 49.571108
36.725000 2.296875 49.738635
36.925000 2.984375 49.738635
36.800000 4.734375 49.738635
36.500000 5.781250 49.738635
36.725000 7.031250 49.738635
37.400000 8.062500 49.738635
37.975000 11.171875 49.738635
38.100000 12.609375 49.738635
36.900000 2.781250 49.883463
36.775000 5.843750 49.883463
37.975000 12.859375 49.883463
38.175000 14.390625 49.883463
37.025000 3.062500 50.045218
36.875000 4.312500 50.045218
36.600000 5.046875 50.045218
36.700000 6.515625 50.045218
37.125000 7.453125 50.045218
37.575000 8.656250 50.045218
38.100000 9.750000 50.045218
38.375000 11.171875 50.045218
38.250000 12.093750 50.045218
38.175000 13.468750 50.045218
38.425000 14.406250 50.045218
37.075000 1.921875 50.195401
37.100000 3.312500 50.195401
36.875000 4.421875 50.195401
36.700000 5.468750 50.195401
36.775000 6.406250 50.195401
37.200000 7.859375 50.195401
37.700000 8.625000 50.195401
38.250000 10.125000 50.195401
38.475000 11.234375 50.195401
38.200000 12.484375 50.195401
38.175000 13.687500 50.195401
38.575000 14.546875 50.195401
36.950000 1.953125 50.356413
37.175000 3.031250 50.356413
37.200000 4.609375 50.356413
36.925000 5.562500 50.356413
36.850000 6.656250 50.356413
37.375000 8.031250 50.356413
37.925000 8.984375 50.356413
38.475000 10.000000 50.356413
38.500000 11.171875 50.356413
38.225000 12.390625 50.356413
37.125000 2.562500 50.507372
37.200000 3.656250 50.507372
37.650000 4.343750 50.507372
36.825000 6.796875 50.507372
37.325000 8.343750 50.507372
37.975000 9.406250 50.507372
38.425000 10.250000 50.507372
38.375000 11.781250 50.507372
38.175000 12.953125 50.507372
38.350000 13.875000 50.507372
37.150000 2.421875 50.673308
36.925000 5.656250 50.673308
36.800000 7.109375 50.673308
37.325000 8.125000 50.673308
37.900000 9.406250 50.673308
38.325000 10.531250 50.673308
38.350000 11.687500 50.673308
38.175000 12.703125 50.673308
38.350000 14.046875 50.673308
37.150000 2.078125 50.820525
36.925000 5.718750 50.820525
36.800000 6.968750 50.820525
37.325000 8.109375 50.820525
37.900000 9.046875 50.820525
38.325000 10.453125 50.820525
38.325000 11.421875 50.820525
38.150000 12.906250 50.820525
38.325000 13.593750 50.820525
37.250000 2.953125 50.976142
37.325000 3.687500 50.976142
37.150000 5.109375 50.976142
36.900000 6.343750 50.976142
36.925000 7.343750 50.976142
37.400000 8.390625 50.976142
38.275000 9.484375 50.976142
38.400000 10.875000 50.976142
38.050000 11.984375 50.976142
38.125000 13.140625 50.976142
38.525000 14.468750 50.976142
37.100000 2.046875 51.132687
37.275000 2.921875 51.132687
37.225000 4.343750 51.132687
37.050000 5.500000 51.132687
36.825000 6.781250 51.132687
37.225000 7.781250 51.132687
38.000000 8.968750 51.132687
38.550000 10.125000 51.132687
38.375000 11.140625 51.132687
38.025000 12.343750 51.132687
38.250000 13.859375 51.132687
38.925000 14.703125 51.132687
37.325000 2.453125 51.294651
37.375000 3.468750 51.294651
37.400000 4.875000 51.294651
37.200000 6.125000 51.294651
37.125000 7.328125 51.294651
37.675000 8.203125 51.294651
38.500000 9.453125 51.294651
38.400000 10.781250 51.294651
37.975000 12.000000 51.294651
38.075000 13.250000 51.294651
38.475000 14.156250 51.294651
37.325000 2.796875 51.447316
37.425000 3.859375 51.447316
37.375000 5.218750 51.447316
37.275000 6.546875 51.447316
37.425000 7.375000 51.447316
37.900000 8.531250 51.447316
38.350000 10.000000 51.447316
38.175000 11.218750 51.447316
37.950000 12.312500 51.447316
38.100000 13.140625 51.447316
38.575000 14.375000 51.447316
37.375000 2.781250 51.601564
37.375000 4.218750 51.601564
37.450000 5.265625 51.601564
37.375000 6.812500 51.601564
37.500000 7.593750 51.601564
38.075000 9.000000 51.601564
38.475000 10.156250 51.601564
38.325000 11.015625 51.601564
38.050000 12.156250 51.601564
38.300000 13.625000 51.601564
38.850000 14.687500 51.601564
37.350000 2.031250 51.755964
37.400000 3.609375 51.755964
37.425000 4.734375 51.755964
37.450000 6.078125 51.755964
37.575000 6.812500 51.755964
37.925000 8.125000 51.755964
38.400000 9.234375 51.755964
38.250000 10.687500 51.755964
37.875000 11.718750 51.755964
38.050000 12.562500 51.755964
38.425000 13.656250 51.755964
37.350000 2.515625 51.912529
37.425000 3.406250 51.912529
37.425000 4.656250 51.912529
37.425000 5.875000 51.912529
37.600000 7.296875 51.912529
37.950000 8.078125 51.912529
38.500000 9.484375 51.912529
38.350000 10.500000 51.912529
37.800000 11.796875 51.912529
38.000000 12.953125 51.912529
38.525000 13.890625 51.912529
37.375000 2.687500 52.069383
37.475000 4.265625 52.069383
37.500000 5.125000 52.069383
37.550000 6.484375 52.069383
37.750000 7.765625 52.069383
38.175000 8.437500 52.069383
38.350000 9.625000 52.069383
38.050000 10.906250 52.069383
37.850000 12.234375 52.069383
38.125000 13.171875 52.069383
38.775000 14.250000 52.069383
37.375000 2.140625 52.225589
37.425000 3.437500 52.225589
37.475000 4.609375 52.225589
37.475000 5.640625 52.225589
37.600000 7.000000 52.225589
37.950000 7.953125 52.225589
38.425000 9.265625 52.225589
38.275000 10.359375 52.225589
37.875000 11.515625 52.225589
38.075000 12.890625 52.225589
38.450000 13.718750 52.225589
37.350000 3.312500 52.392040
37.500000 4.187500 52.392040
37.550000 5.203125 52.392040
37.600000 6.515625 52.392040
37.850000 7.625000 52.392040
38.250000 8.734375 52.392040
38.150000 10.078125 52.392040
37.800000 11.140625 52.392040
37.950000 12.312500 52.392040
38.275000 13.265625 52.392040
38.850000 14.687500 52.392040
37.325000 2.328125 52.552207
37.425000 3.562500 52.552207
37.475000 4.687500 52.552207
37.475000 5.703125 52.552207
37.575000 6.859375 52.552207
38.000000 8.015625 52.552207
38.500000 9.046875 52.552207
38.250000 10.671875 52.552207
37.850000 11.328125 52.552207
38.000000 12.687500 52.552207
38.375000 13.890625 52.552207
37.350000 2.562500 52.693489
37.425000 3.812500 52.693489
37.475000 4.921875 52.693489
37.475000 5.906250 52.693489
37.575000 7.109375 52.693489
37.925000 8.109375 52.693489
38.525000 9.250000 52.693489
38.350000 10.328125 52.693489
37.850000 11.484375 52.693489
37.975000 12.765625 52.693489
38.350000 13.765625 52.693489
37.275000 2.796875 52.862961
37.400000 3.968750 52.862961
37.525000 4.984375 52.862961
37.625000 6.359375 52.862961
37.750000 7.593750 52.862961
38.075000 8.250000 52.862961
38.325000 9.687500 52.862961
38.075000 11.046875 52.862961
37.825000 12.312500 52.862961
38.050000 13.390625 52.862961
38.500000 14.343750 52.862961
37.300000 2.750000 53.018826
37.550000 3.781250 53.018826
37.200000 5.203125 53.018826
36.975000 6.421875 53.018826
37.350000 7.640625 53.018826
37.850000 8.703125 53.018826
38.325000 9.750000 53.018826
38.075000 11.093750 53.018826
37.825000 11.890625 53.018826
38.025000 13.343750 53.018826
38.500000 14.421875 53.018826
37.225000 2.406250 53.176449
37.400000 3.421875 53.176449
37.000000 4.546875 53.176449
36.725000 5.640625 53.176449
37.175000 6.953125 53.176449
37.650000 10.250000 53.176449
37.850000 11.531250 53.176449
37.950000 12.640625 53.176449
38.325000 13.937500 53.176449
37.025000 1.937500 53.330690
37.250000 3.390625 53.330690
36.825000 4.203125 53.330690
36.450000 5.421875 53.330690
36.675000 6.578125 53.330690
37.900000 11.343750 53.330690
37.800000 12.484375 53.330690
37.050000 2.671875 53.486566
36.750000 3.906250 53.486566
36.375000 5.234375 53.486566
38.075000 10.890625 53.486566
37.850000 11.937500 53.486566
38.000000 13.062500 53.486566
38.450000 14.546875 53.486566
37.025000 2.906250 53.641894
36.725000 4.078125 53.641894
38.125000 10.734375 53.641894
37.900000 11.906250 53.641894
37.950000 13.156250 53.641894
38.250000 14.375000 53.641894
36.675000 1.984375 53.800863
36.675000 3.031250 53.800863
36.425000 4.203125 53.800863
36.275000 5.640625 53.800863
38.150000 11.250000 53.800863
37.850000 12.031250 53.800863
37.975000 13.500000 53.800863
38.425000 14.343750 53.800863
36.625000 2.062500 53.952743
36.600000 3.156250 53.952743
36.375000 4.546875 53.952743
38.125000 11.187500 53.952743
37.900000 12.281250 53.952743
38.025000 13.515625 53.952743
38.425000 14.625000 53.952743
36.700000 2.218750 54.109229
36.650000 3.546875 54.109229
36.250000 4.578125 54.109229
36.050000 6.156250 54.109229
36.450000 6.921875 54.109229
38.100000 11.281250 54.109229
37.875000 12.546875 54.109229
37.875000 13.703125 54.109229
36.750000 2.437500 54.265378
36.600000 3.453125 54.265378
36.125000 5.031250 54.265378
35.950000 5.921875 54.265378
36.300000 6.968750 54.265378
37.925000 11.703125 54.265378
37.775000 13.093750 54.265378
37.875000 13.875000 54.265378
36.700000 2.703125 54.425670
36.575000 3.906250 54.425670
36.075000 5.015625 54.425670
35.900000 6.484375 54.425670
36.200000 7.140625 54.425670
37.925000 12.031250 54.425670
37.750000 12.968750 54.425670
37.875000 14.187500 54.425670
36.625000 2.234375 54.576815
35.750000 4.906250 54.576815
35.850000 6.062500 54.576815
35.950000 7.000000 54.576815
37.975000 11.671875 54.576815
37.750000 12.687500 54.576815
37.825000 14.015625 54.576815
36.500000 2.343750 54.742016
36.075000 3.500000 54.742016
35.875000 4.703125 54.742016
35.975000 5.875000 54.742016
35.925000 7.000000 54.742016
37.900000 11.953125 54.742016
37.600000 13.109375 54.742016
37.700000 14.093750 54.742016
36.500000 2.625000 54.888419
36.200000 5.781250 54.888419
35.950000 7.453125 54.888419
36.225000 8.531250 54.888419
36.950000 11.656250 54.888419
37.500000 13.109375 54.888419
37.675000 14.000000 54.888419
36.475000 2.218750 55.051349
36.175000 5.968750 55.051349
35.950000 6.968750 55.051349
36.225000 8.062500 55.051349
36.775000 9.359375 55.051349
37.400000 10.640625 55.051349
37.475000 11.562500 55.051349
37.375000 12.921875 55.051349
37.650000 14.109375 55.051349
36.400000 3.437500 55.205350
36.225000 4.296875 55.205350
36.025000 5.859375 55.205350
36.025000 6.828125 55.205350
36.150000 8.140625 55.205350
36.550000 8.875000 55.205350
36.950000 10.343750 55.205350
37.100000 11.406250 55.205350
37.250000 12.234375 55.205350
37.500000 13.500000 55.205350
38.075000 14.421875 55.205350
36.425000 1.937500 55.364347
36.375000 2.906250 55.364347
36.400000 4.265625 55.364347
36.600000 5.031250 55.364347
36.450000 6.578125 55.364347
36.175000 7.406250 55.364347
36.475000 8.781250 55.364347
36.800000 9.921875 55.364347
37.000000 10.890625 55.364347
37.200000 12.140625 55.364347
37.400000 13.218750 55.364347
37.750000 14.312500 55.364347
36.275000 2.109375 55.518284
36.375000 3.265625 55.518284
36.350000 4.515625 55.518284
36.400000 5.906250 55.518284
36.400000 6.796875 55.518284
36.425000 8.359375 55.518284
36.650000 9.156250 55.518284
36.825000 10.546875 55.518284
37.000000 11.500000 55.518284
37.200000 12.937500 55.518284
37.475000 13.687500 55.518284
36.325000 3.468750 55.675391
36.325000 4.281250 55.675391
36.275000 5.781250 55.675391
36.275000 7.125000 55.675391
36.575000 7.796875 55.675391
36.725000 9.140625 55.675391
36.675000 10.281250 55.675391
36.950000 11.234375 55.675391
37.150000 12.859375 55.675391
36.350000 3.187500 55.830161
36.350000 4.718750 55.830161
36.300000 5.734375 55.830161
36.300000 6.593750 55.830161
36.600000 7.890625 55.830161
36.700000 9.062500 55.830161
36.650000 10.218750 55.830161
36.925000 11.437500 55.830161
37.125000 12.546875 55.830161
37.375000 13.734375 55.830161
38.000000 14.875000 55.830161
36.250000 2.281250 55.989015
36.325000 3.437500 55.989015
36.375000 4.656250 55.989015
36.325000 5.906250 55.989015
36.375000 6.875000 55.989015
36.500000 8.218750 55.989015
36.575000 9.265625 55.989015
36.675000 10.359375 55.989015
36.875000 12.000000 55.989015
37.125000 12.890625 55.989015
37.400000 13.890625 55.989015
36.250000 2.562500 56.142408
36.300000 3.515625 56.142408
36.325000 5.093750 56.142408
36.350000 6.234375 56.142408
36.475000 7.046875 56.142408
36.525000 8.453125 56.142408
36.525000 9.765625 56.142408
36.650000 10.781250 56.142408
36.850000 11.796875 56.142408
37.050000 13.062500 56.142408
37.325000 14.375000 56.142408
36.250000 2.375000 56.305179
36.275000 3.953125 56.305179
36.300000 4.843750 56.305179
36.325000 6.312500 56.305179
36.400000 7.031250 56.305179
36.450000 8.484375 56.305179
36.525000 9.750000 56.305179
36.675000 10.937500 56.305179
36.850000 11.625000 56.305179
37.025000 13.156250 56.305179
37.300000 14.187500 56.305179
36.250000 2.406250 56.456095
36.325000 3.265625 56.456095
36.325000 4.500000 56.456095
36.300000 5.984375 56.456095
36.425000 6.765625 56.456095
36.525000 7.937500 56.456095
36.525000 9.359375 56.456095
36.625000 10.328125 56.456095
36.800000 11.546875 56.456095
36.975000 12.968750 56.456095
36.150000 2.234375 56.616367
36.350000 2.906250 56.616367
36.375000 4.125000 56.616367
36.350000 5.687500 56.616367
36.400000 6.968750 56.616367
36.575000 7.750000 56.616367
36.625000 8.781250 56.616367
36.575000 10.406250 56.616367
36.750000 11.250000 56.616367
36.925000 12.671875 56.616367
37.125000 13.562500 56.616367
37.550000 14.562500 56.616367
36.200000 2.343750 56.768369
36.325000 3.031250 56.768369
36.350000 4.593750 56.768369
36.400000 5.437500 56.768369
36.450000 6.953125 56.768369
36.550000 7.656250 56.768369
36.600000 9.046875 56.768369
36.575000 10.046875 56.768369
36.750000 11.187500 56.768369
36.900000 12.828125 56.768369
37.125000 13.703125 56.768369
37.550000 14.609375 56.768369
36.325000 1.937500 56.929369
36.350000 2.640625 56.929369
36.375000 3.984375 56.929369
36.375000 5.343750 56.929369
36.400000 6.421875 56.929369
36.750000 7.359375 56.929369
36.800000 8.859375 56.929369
36.600000 9.875000 56.929369
36.725000 11.078125 56.929369
36.925000 11.937500 56.929369
37.125000 13.312500 56.929369
37.375000 14.640625 56.929369
36.250000 2.343750 57.081367
36.325000 3.593750 57.081367
36.325000 4.531250 57.081367
36.400000 5.828125 57.081367
36.625000 6.796875 57.081367
36.625000 8.296875 57.081367
36.525000 9.546875 57.081367
36.625000 10.468750 57.081367
36.775000 11.468750 57.081367
36.975000 12.531250 57.081367
37.200000 13.687500 57.081367
