35.500000 85.781250 11.310539
35.100000 84.562500 11.320695
34.850000 83.687500 11.327987
35.250000 82.328125 11.339315
35.600000 81.406250 11.346997
36.025000 80.000000 11.358716
36.650000 78.937500 11.367570
36.750000 78.062500 11.374862
36.500000 76.656250 11.386581
36.575000 75.765625 11.394003
35.425000 89.656250 11.428815
35.425000 88.640625 11.437279
35.425000 87.453125 11.447175
35.250000 86.312500 11.456680
34.875000 84.671875 11.470352
34.750000 83.750000 11.478034
34.875000 82.656250 11.487149
36.825000 78.250000 11.523867
36.525000 76.656250 11.537149
35.425000 89.421875 11.590809
35.400000 88.125000 11.601616
35.400000 87.015625 11.610861
35.100000 85.781250 11.621147
34.725000 84.718750 11.630001
34.725000 83.359375 11.641330
34.850000 82.765625 11.646277
35.125000 81.687500 11.655262
36.500000 77.156250 11.693022
35.300000 86.531250 11.770905
35.750000 85.828125 11.776764
34.650000 82.984375 11.800462
34.850000 82.140625 11.807493
36.600000 77.812500 11.843561
36.375000 76.265625 11.856452
36.600000 75.234375 11.865046
35.425000 89.265625 11.901148
35.200000 88.312500 11.909091
35.275000 86.843750 11.921330
35.175000 86.015625 11.928231
34.850000 84.734375 11.938909
34.675000 83.546875 11.948804
34.800000 82.453125 11.957919
35.050000 81.406250 11.966643
35.625000 80.046875 11.977971
36.425000 79.218750 11.984872
36.425000 77.921875 11.995679
36.125000 76.640625 12.006356
36.450000 75.531250 12.015601
35.550000 89.140625 12.061125
35.275000 88.328125 12.067896
35.200000 87.000000 12.078964
34.950000 83.593750 12.107349
34.775000 82.296875 12.118156
35.050000 81.578125 12.124146
35.525000 80.375000 12.134172
35.900000 79.406250 12.142245
36.000000 78.250000 12.151880
36.075000 76.953125 12.162688
34.950000 88.656250 12.220316
35.125000 87.687500 12.228389
35.175000 86.046875 12.242061
35.450000 85.296875 12.248311
35.200000 83.671875 12.261853
34.775000 82.984375 12.267582
34.975000 81.296875 12.281644
35.350000 80.640625 12.287113
35.650000 79.593750 12.295837
35.850000 78.296875 12.306644
36.025000 76.921875 12.318103
36.250000 75.890625 12.326696
36.800000 74.734375 12.336332
34.850000 88.578125 12.379087
35.100000 87.265625 12.390024
35.150000 86.296875 12.398097
35.075000 85.171875 12.407472
34.925000 84.156250 12.415936
34.850000 82.859375 12.426743
34.975000 81.421875 12.438722
35.350000 80.718750 12.444582
35.650000 79.187500 12.457342
35.775000 78.046875 12.466847
35.950000 77.015625 12.475441
36.150000 75.843750 12.485207
36.625000 74.625000 12.495363
35.425000 89.718750 12.536844
35.050000 88.281250 12.548824
35.000000 87.187500 12.557938
35.075000 86.281250 12.565490
35.025000 84.968750 12.576428
35.000000 83.671875 12.587235
34.975000 82.578125 12.596349
35.050000 81.593750 12.604553
35.300000 80.406250 12.614449
35.475000 78.812500 12.627730
35.650000 77.968750 12.634761
35.875000 76.625000 12.645959
34.975000 89.453125 12.695210
34.875000 88.593750 12.702371
35.000000 87.546875 12.711095
35.025000 86.250000 12.721902
35.025000 84.984375 12.732449
35.000000 83.937500 12.741173
35.025000 82.781250 12.750809
35.175000 81.718750 12.759663
35.300000 80.296875 12.771512
35.375000 79.281250 12.779975
35.525000 78.296875 12.788178
35.700000 77.218750 12.797163
35.950000 76.125000 12.806277
36.475000 74.718750 12.817996
35.300000 89.156250 12.853653
34.875000 88.125000 12.862247
34.925000 86.937500 12.872143
35.000000 86.203125 12.878263
35.025000 84.781250 12.890112
35.000000 83.718750 12.898966
35.075000 82.671875 12.907690
35.150000 81.078125 12.920971
35.125000 79.781250 12.931778
35.275000 78.890625 12.939200
35.525000 77.984375 12.946752
35.750000 76.890625 12.955867
34.550000 89.843750 13.003659
34.625000 88.625000 13.013816
34.850000 87.593750 13.022409
34.875000 86.437500 13.032045
34.950000 85.234375 13.042071
34.975000 83.765625 13.054310
34.975000 83.000000 13.060691
35.175000 81.484375 13.073321
35.200000 80.484375 13.081654
35.175000 79.296875 13.091550
35.375000 78.546875 13.097800
35.525000 76.968750 13.110951
35.750000 75.984375 13.119154
36.225000 75.000000 13.127357
34.850000 87.046875 13.181613
34.875000 85.562500 13.193983
34.875000 84.562500 13.202316
34.925000 83.546875 13.210780
35.075000 82.156250 13.222368
35.100000 80.796875 13.233696
35.100000 80.140625 13.239165
35.250000 78.562500 13.252316
35.425000 77.781250 13.258826
35.650000 76.718750 13.267681
35.900000 75.046875 13.281613
34.825000 89.125000 13.317148
34.650000 88.140625 13.325352
34.825000 86.640625 13.337852
34.850000 85.359375 13.348529
34.850000 84.265625 13.357643
34.900000 83.343750 13.365326
35.075000 81.921875 13.377175
35.100000 81.187500 13.383294
35.000000 79.609375 13.396446
35.175000 78.828125 13.402956
35.400000 77.281250 13.415847
35.625000 76.562500 13.421836
35.900000 75.281250 13.432513
34.725000 88.265625 13.495731
34.800000 87.593750 13.501330
34.800000 86.531250 13.510184
34.825000 85.062500 13.522424
34.850000 84.203125 13.529585
34.925000 82.734375 13.541825
34.975000 81.515625 13.551981
34.975000 80.750000 13.558361
35.075000 79.406250 13.569559
35.300000 78.343750 13.578413
35.475000 76.750000 13.591694
35.625000 76.078125 13.597293
36.000000 75.046875 13.605887
34.950000 89.281250 13.629289
34.725000 88.218750 13.638143
34.750000 86.968750 13.648560
34.775000 85.984375 13.656763
34.800000 84.796875 13.666659
34.900000 83.468750 13.677727
35.000000 82.843750 13.682935
34.950000 81.578125 13.693482
34.900000 80.218750 13.704810
35.025000 78.875000 13.716008
35.250000 78.140625 13.722128
35.425000 76.937500 13.732154
35.625000 75.921875 13.740617
36.050000 74.781250 13.750123
34.725000 89.125000 13.800838
34.625000 87.937500 13.810734
34.800000 86.546875 13.822323
34.825000 85.593750 13.830266
34.850000 84.656250 13.838078
34.875000 83.531250 13.847453
35.075000 82.390625 13.856958
35.025000 81.000000 13.868547
34.900000 79.734375 13.879094
35.125000 78.765625 13.887167
35.350000 77.859375 13.894719
35.500000 76.468750 13.906307
35.700000 75.343750 13.915682
34.750000 89.203125 13.956354
34.625000 87.453125 13.970938
34.700000 86.796875 13.976406
34.750000 85.406250 13.987995
34.800000 84.421875 13.996198
34.800000 83.343750 14.005183
35.025000 82.109375 14.015469
35.075000 81.062500 14.024193
34.950000 80.046875 14.032656
35.075000 78.906250 14.042162
35.325000 77.718750 14.052058
35.500000 76.406250 14.062995
35.700000 75.093750 14.073932
34.875000 88.437500 14.123240
34.650000 87.625000 14.130011
34.700000 86.281250 14.141209
34.725000 85.250000 14.149803
34.825000 84.234375 14.158266
34.900000 83.093750 14.167772
34.925000 81.671875 14.179621
34.900000 80.578125 14.188735
34.900000 79.687500 14.196157
35.025000 78.328125 14.207485
35.225000 77.406250 14.215167
35.400000 75.875000 14.227928
35.700000 74.734375 14.237433
34.775000 89.046875 14.269841
34.600000 87.750000 14.280649
34.675000 86.546875 14.290675
34.700000 85.171875 14.302133
34.750000 84.265625 14.309685
34.800000 83.406250 14.316847
35.000000 82.187500 14.327003
34.950000 80.593750 14.340284
34.775000 79.421875 14.350050
35.000000 78.468750 14.357992
35.250000 77.406250 14.366847
35.425000 76.046875 14.378175
35.675000 74.953125 14.387289
34.550000 89.156250 14.430041
34.450000 88.031250 14.439416
34.625000 86.734375 14.450224
34.700000 85.562500 14.459989
34.750000 84.515625 14.468713
34.775000 83.359375 14.478349
35.000000 82.015625 14.489547
34.975000 80.828125 14.499442
34.800000 79.750000 14.508427
34.950000 78.703125 14.517151
35.150000 77.515625 14.527047
35.350000 76.609375 14.534599
35.600000 75.312500 14.545406
36.075000 74.421875 14.552828
34.750000 88.781250 14.586847
34.575000 87.703125 14.595831
34.650000 86.812500 14.603253
34.675000 85.625000 14.613149
34.725000 84.265625 14.624477
34.825000 83.203125 14.633331
34.950000 81.843750 14.644659
34.875000 80.812500 14.653253
34.750000 79.890625 14.660935
34.975000 78.468750 14.672784
35.225000 77.078125 14.684373
35.400000 76.203125 14.691664
35.650000 75.000000 14.701690
34.375000 88.687500 14.746951
34.575000 87.109375 14.760102
34.575000 85.921875 14.769998
34.650000 85.265625 14.775466
34.700000 83.687500 14.788617
34.825000 83.062500 14.793826
34.850000 81.906250 14.803461
34.725000 80.437500 14.815701
34.775000 79.015625 14.827550
35.050000 78.296875 14.833539
35.325000 76.859375 14.845518
35.500000 75.968750 14.852940
35.750000 74.687500 14.863617
34.900000 89.234375 14.895400
34.450000 87.984375 14.905816
34.550000 87.437500 14.910374
34.575000 85.890625 14.923264
34.625000 85.031250 14.930426
34.675000 84.000000 14.939019
34.825000 82.265625 14.953473
34.900000 81.234375 14.962066
34.800000 80.312500 14.969749
34.800000 78.843750 14.981988
35.050000 77.781250 14.990842
35.325000 76.718750 14.999696
35.525000 75.515625 15.009723
35.825000 74.468750 15.018447
34.525000 86.890625 15.075703
34.575000 85.750000 15.085208
34.650000 84.531250 15.095364
34.750000 83.484375 15.104088
34.850000 82.015625 15.116328
34.725000 80.984375 15.124921
34.675000 80.187500 15.131562
34.925000 78.703125 15.143932
35.150000 77.453125 15.154348
35.350000 76.578125 15.161640
34.425000 89.234375 15.205317
34.325000 88.359375 15.212609
34.550000 87.593750 15.218989
34.575000 85.937500 15.232791
34.625000 85.328125 15.237869
34.675000 83.953125 15.249327
34.725000 82.421875 15.262088
34.975000 81.828125 15.267036
34.950000 80.703125 15.276411
34.800000 79.359375 15.287609
35.025000 77.890625 15.299848
35.300000 76.859375 15.308442
35.500000 75.562500 15.319249
35.825000 74.750000 15.326020
34.350000 89.656250 15.368287
34.275000 88.687500 15.376360
34.500000 87.390625 15.387167
34.550000 86.062500 15.398235
34.625000 85.203125 15.405396
34.675000 83.921875 15.416073
34.725000 82.921875 15.424407
34.775000 81.625000 15.435214
34.750000 80.359375 15.445761
34.800000 79.125000 15.456047
35.025000 78.375000 15.462297
35.300000 76.671875 15.476490
35.500000 75.718750 15.484433
35.825000 74.500000 15.494589
34.500000 88.500000 15.537751
34.475000 87.312500 15.547647
34.650000 86.671875 15.552985
34.700000 85.125000 15.565876
34.725000 84.421875 15.571735
34.600000 83.203125 15.581891
34.575000 81.890625 15.592829
34.925000 80.921875 15.600902
35.050000 79.687500 15.611188
35.125000 78.500000 15.621084
35.375000 77.218750 15.631761
35.575000 76.343750 15.639053
35.825000 74.828125 15.651683
34.575000 88.437500 15.690718
34.550000 87.609375 15.697619
34.675000 86.515625 15.706733
34.700000 84.953125 15.719754
35.125000 83.953125 15.728088
34.975000 82.984375 15.736161
34.550000 81.781250 15.746186
34.825000 80.843750 15.753999
35.075000 79.156250 15.768062
35.200000 78.390625 15.774442
35.350000 76.921875 15.786681
35.600000 76.031250 15.794103
35.950000 74.828125 15.804129
34.475000 89.640625 15.839541
34.350000 88.265625 15.850999
34.550000 87.062500 15.861025
34.650000 85.875000 15.870921
34.475000 84.890625 15.879124
34.225000 83.843750 15.887848
34.325000 82.859375 15.896051
34.500000 81.734375 15.905426
34.825000 80.562500 15.915192
35.150000 79.296875 15.925739
35.375000 77.953125 15.936937
35.550000 77.171875 15.943447
35.775000 75.937500 15.953733
36.150000 74.843750 15.962848
34.775000 89.062500 15.999760
34.600000 87.968750 16.008874
34.700000 87.140625 16.015775
34.775000 85.453125 16.029838
35.225000 84.890625 16.034526
34.275000 82.406250 16.055229
34.575000 81.062500 16.066427
35.000000 80.234375 16.073328
35.350000 78.765625 16.085567
35.475000 77.843750 16.093250
35.650000 76.453125 16.104838
35.900000 75.328125 16.114213
34.550000 88.375000 16.160874
34.575000 87.671875 16.166733
34.750000 86.656250 16.175197
34.625000 85.125000 16.187957
34.325000 84.000000 16.197332
34.350000 82.578125 16.209181
34.525000 81.406250 16.218946
35.100000 78.296875 16.244858
35.650000 77.203125 16.253973
35.825000 76.015625 16.263868
36.150000 74.921875 16.272983
34.650000 87.687500 16.323213
34.825000 86.703125 16.331416
34.425000 85.359375 16.342614
34.150000 84.171875 16.352509
34.425000 83.078125 16.361624
34.550000 81.875000 16.371650
34.850000 80.656250 16.381806
35.375000 79.921875 16.387926
35.875000 78.765625 16.397562
35.900000 77.328125 16.409541
35.850000 76.203125 16.418916
36.125000 74.937500 16.429463
34.725000 88.609375 16.469679
34.775000 87.468750 16.479184
34.850000 86.359375 16.488429
34.650000 85.500000 16.495590
34.425000 84.093750 16.507309
34.625000 83.062500 16.515903
34.950000 81.531250 16.528663
36.075000 77.281250 16.564080
35.875000 76.140625 16.573585
36.200000 75.234375 16.581137
34.800000 88.875000 16.625340
34.850000 87.281250 16.638621
34.950000 86.625000 16.644090
35.050000 85.421875 16.654116
34.775000 83.828125 16.667397
34.725000 82.593750 16.677683
35.350000 82.062500 16.682111
35.700000 80.890625 16.691876
36.050000 79.515625 16.703334
36.325000 78.078125 16.715314
36.100000 76.968750 16.724558
36.050000 76.171875 16.731199
36.275000 74.984375 16.741095
34.650000 89.296875 16.792464
34.725000 88.468750 16.799365
35.000000 87.484375 16.807568
34.800000 83.546875 16.840380
34.800000 82.937500 16.845459
35.375000 81.468750 16.857698
35.800000 80.640625 16.864599
36.250000 79.281250 16.875927
36.450000 78.234375 16.884651
36.200000 77.171875 16.893505
36.150000 75.546875 16.907047
36.525000 74.703125 16.914078
35.050000 89.234375 16.946480
34.975000 88.062500 16.956246
35.075000 86.703125 16.967574
34.950000 85.718750 16.975777
35.075000 84.562500 16.985412
35.050000 83.125000 16.997392
36.250000 78.812500 17.033329
36.350000 77.968750 17.040360
36.250000 76.687500 17.051038
36.325000 75.640625 17.059762
35.050000 89.406250 17.098179
35.000000 87.906250 17.110679
35.150000 87.015625 17.118100
35.000000 85.562500 17.130210
34.850000 84.281250 17.140887
34.875000 83.468750 17.147658
35.000000 82.437500 17.156252
35.425000 81.187500 17.166668
36.050000 80.078125 17.175913
36.400000 78.718750 17.187241
36.325000 77.859375 17.194403
36.250000 76.406250 17.206512
36.325000 75.531250 17.213804
34.900000 89.109375 17.256756
35.150000 87.640625 17.268995
35.275000 86.343750 17.279803
35.225000 85.203125 17.289308
34.975000 84.406250 17.295949
34.950000 83.187500 17.306105
35.400000 82.000000 17.316000
35.900000 81.000000 17.324334
36.275000 79.937500 17.333188
36.400000 78.796875 17.342693
36.300000 77.203125 17.355974
36.350000 76.125000 17.364959
36.575000 75.218750 17.372511
35.300000 89.187500 17.426542
35.075000 87.937500 17.436959
35.300000 87.046875 17.444381
35.100000 85.578125 17.456620
34.900000 84.812500 17.463001
34.925000 83.406250 17.474719
35.075000 82.437500 17.482792
35.575000 81.343750 17.491907
36.250000 80.187500 17.501542
36.500000 78.671875 17.514173
36.325000 77.593750 17.523157
36.275000 76.546875 17.531881
36.550000 75.218750 17.542948
35.525000 88.343750 17.589574
35.375000 87.718750 17.594782
35.150000 83.875000 17.626813
35.100000 82.765625 17.636058
35.500000 81.906250 17.643220
36.100000 80.437500 17.655459
36.600000 79.640625 17.662100
36.500000 78.390625 17.672517
36.275000 77.046875 17.683715
36.450000 75.734375 17.694652
36.850000 74.718750 17.703115
35.775000 89.671875 17.737942
35.650000 88.218750 17.750051
35.450000 86.843750 17.761509
35.475000 86.187500 17.766978
35.225000 84.484375 17.781171
34.975000 83.500000 17.789374
35.225000 82.265625 17.799660
35.850000 81.234375 17.808254
36.425000 80.171875 17.817108
36.450000 78.984375 17.827004
36.275000 78.031250 17.834947
36.300000 76.890625 17.844452
36.575000 75.500000 17.856040
35.800000 88.437500 17.902102
35.500000 87.171875 17.912649
35.575000 86.015625 17.922285
35.625000 84.718750 17.933092
35.325000 83.468750 17.943509
36.450000 79.531250 17.976321
36.300000 78.296875 17.986608
36.200000 76.765625 17.999368
36.475000 75.796875 18.007441
37.125000 74.906250 18.014863
36.050000 89.625000 18.050702
35.825000 88.109375 18.063333
35.475000 87.406250 18.069192
35.625000 86.109375 18.079999
35.575000 85.093750 18.088463
35.275000 83.625000 18.100702
35.400000 82.515625 18.109947
36.050000 81.406250 18.119192
36.500000 80.093750 18.130130
36.425000 79.296875 18.136770
36.300000 77.890625 18.148489
36.350000 77.015625 18.155781
36.600000 75.703125 18.166718
35.900000 89.828125 18.202527
35.700000 88.765625 18.211381
35.550000 87.453125 18.222318
35.625000 86.578125 18.229610
35.800000 85.093750 18.241980
35.600000 84.265625 18.248881
36.650000 79.562500 18.288074
36.475000 78.140625 18.299922
36.300000 77.250000 18.307344
36.525000 76.125000 18.316719
36.900000 75.062500 18.325573
36.225000 89.812500 18.364714
35.875000 88.781250 18.373308
35.650000 87.671875 18.382553
35.725000 86.531250 18.392058
35.825000 85.187500 18.403256
35.825000 83.859375 18.414323
35.750000 82.859375 18.422657
36.100000 81.453125 18.434376
36.475000 80.609375 18.441407
36.350000 79.250000 18.452735
36.225000 77.921875 18.463803
36.350000 77.062500 18.470964
36.625000 75.718750 18.482162
37.125000 74.953125 18.488542
36.325000 89.656250 18.517303
35.975000 88.562500 18.526418
35.600000 87.156250 18.538137
35.650000 86.203125 18.546079
35.800000 84.750000 18.558189
35.825000 83.859375 18.565611
35.875000 82.406250 18.577720
36.200000 81.781250 18.582928
36.500000 80.593750 18.592824
36.375000 79.234375 18.604152
36.250000 78.171875 18.613007
36.450000 76.843750 18.624074
36.725000 75.781250 18.632928
37.275000 74.671875 18.642173
36.250000 89.750000 18.677216
35.850000 88.750000 18.685549
35.675000 87.625000 18.694924
35.725000 86.078125 18.707815
35.800000 85.000000 18.716799
35.825000 83.968750 18.725393
35.950000 82.640625 18.736461
36.275000 81.703125 18.744273
36.475000 80.671875 18.752867
36.325000 79.515625 18.762502
36.200000 78.421875 18.771617
36.325000 76.765625 18.785419
36.600000 75.640625 18.794794
37.250000 74.734375 18.802346
36.450000 89.312500 18.831997
36.150000 88.234375 18.840981
35.775000 86.953125 18.851658
35.850000 85.500000 18.863767
35.900000 84.375000 18.873142
35.900000 83.375000 18.881476
36.100000 82.265625 18.890721
36.450000 81.234375 18.899314
36.625000 79.843750 18.910903
36.500000 79.015625 18.917804
36.350000 77.781250 18.928090
36.675000 76.625000 18.937726
37.125000 75.734375 18.945148
36.475000 89.453125 18.988759
36.175000 88.531250 18.996441
35.800000 87.015625 19.009071
35.875000 85.906250 19.018316
35.900000 85.031250 19.025608
35.900000 83.687500 19.036806
36.050000 82.609375 19.045790
36.325000 81.250000 19.057118
36.500000 80.375000 19.064410
36.425000 79.375000 19.072743
36.300000 77.781250 19.086025
36.525000 77.093750 19.091754
36.175000 89.343750 19.142865
36.125000 87.875000 19.155105
35.875000 86.921875 19.163048
35.950000 85.828125 19.172162
36.000000 84.765625 19.181016
36.050000 83.156250 19.194428
36.350000 82.390625 19.200808
36.600000 81.281250 19.210053
36.875000 79.812500 19.222292
36.750000 78.890625 19.229975
36.350000 77.578125 19.240912
36.550000 76.453125 19.250287
37.000000 75.062500 19.261876
35.475000 89.187500 19.304722
35.675000 88.109375 19.313706
35.875000 86.796875 19.324644
35.975000 85.796875 19.332977
36.025000 84.640625 19.342613
36.075000 83.328125 19.353550
36.350000 82.140625 19.363446
36.600000 81.125000 19.371909
37.000000 79.937500 19.381805
36.850000 78.562500 19.393264
36.375000 77.281250 19.403941
36.600000 76.390625 19.411362
37.100000 75.453125 19.419175
35.775000 89.562500 19.466116
35.725000 88.562500 19.474449
35.875000 87.421875 19.483955
35.950000 86.281250 19.493460
36.000000 84.984375 19.504267
36.025000 83.796875 19.514163
36.075000 83.046875 19.520413
36.400000 81.875000 19.530179
36.350000 80.453125 19.542027
36.225000 79.500000 19.549970
36.400000 78.046875 19.562080
36.425000 76.953125 19.571194
36.725000 76.171875 19.577705
37.325000 74.875000 19.588512
35.475000 88.718750 19.623533
35.750000 87.671875 19.632257
35.875000 86.406250 19.642803
36.000000 85.640625 19.649184
36.025000 84.531250 19.658428
36.050000 83.328125 19.668454
36.350000 82.156250 19.678220
36.675000 80.843750 19.689157
37.100000 79.812500 19.697751
36.900000 78.484375 19.708819
36.375000 77.265625 19.718975
36.575000 76.265625 19.727309
37.150000 75.250000 19.735772
35.675000 89.781250 19.775895
35.700000 88.500000 19.786572
35.875000 87.750000 19.792822
35.925000 86.562500 19.802718
36.100000 85.515625 19.811442
36.125000 83.812500 19.825634
36.000000 82.796875 19.834098
36.350000 82.015625 19.840608
36.625000 80.625000 19.852197
36.850000 79.515625 19.861442
36.750000 78.500000 19.869905
36.425000 76.906250 19.883187
36.725000 76.187500 19.889176
37.300000 74.718750 19.901416
35.650000 88.953125 19.934033
35.675000 87.796875 19.943669
35.875000 87.046875 19.949919
36.175000 85.609375 19.961898
36.050000 84.500000 19.971143
35.775000 83.296875 19.981169
35.900000 81.968750 19.992237
36.275000 80.875000 20.001351
36.800000 80.062500 20.008122
36.650000 78.765625 20.018929
36.375000 77.750000 20.027393
36.600000 76.296875 20.039502
37.025000 75.343750 20.047445
35.750000 89.546875 20.090427
35.775000 88.593750 20.098370
35.850000 87.437500 20.108006
35.900000 86.265625 20.117771
35.725000 84.953125 20.128709
35.650000 83.921875 20.137302
35.800000 83.171875 20.143552
36.125000 81.968750 20.153579
36.500000 80.453125 20.166209
36.925000 79.531250 20.173891
36.825000 78.062500 20.186131
36.425000 77.375000 20.191860
36.700000 76.218750 20.201495
37.275000 75.125000 20.210610
36.000000 89.500000 20.243699
35.875000 88.062500 20.255678
36.750000 79.218750 20.329376
36.625000 77.875000 20.340574
36.600000 76.875000 20.348907
35.600000 89.812500 20.399212
35.750000 88.734375 20.408196
35.825000 87.812500 20.415878
36.025000 86.703125 20.425123
35.700000 84.968750 20.439576
35.300000 83.921875 20.448300
35.625000 82.953125 20.456373
36.025000 81.781250 20.466139
36.425000 80.531250 20.476555
36.925000 79.796875 20.482675
36.800000 78.468750 20.493743
36.425000 77.390625 20.502727
36.700000 76.015625 20.514185
37.225000 74.937500 20.523170
36.025000 88.828125 20.563028
35.650000 88.062500 20.569408
35.775000 86.609375 20.581517
35.450000 85.734375 20.588809
35.200000 84.515625 20.598965
35.375000 83.328125 20.608861
36.100000 79.859375 20.637768
36.600000 78.640625 20.647924
36.500000 77.515625 20.657299
36.600000 76.140625 20.668757
37.000000 75.015625 20.678132
35.700000 88.953125 20.719408
35.650000 88.109375 20.726439
35.750000 86.546875 20.739460
35.425000 85.250000 20.750267
35.150000 84.203125 20.758991
36.675000 78.796875 20.804043
36.525000 77.484375 20.814981
36.625000 76.578125 20.822533
37.000000 75.187500 20.834121
35.425000 88.968750 20.876598
35.600000 87.562500 20.888316
35.900000 86.390625 20.898082
35.100000 84.359375 20.915009
35.525000 82.812500 20.927900
36.850000 78.234375 20.966051
36.600000 77.312500 20.973733
36.775000 75.953125 20.985061
37.100000 74.984375 20.993134
35.775000 89.671875 21.047818
35.825000 88.484375 21.057714
35.325000 85.125000 21.085709
35.275000 83.843750 21.096386
35.725000 82.718750 21.105761
36.000000 81.625000 21.114875
36.325000 80.312500 21.125813
36.900000 79.500000 21.132584
36.900000 78.031250 21.144823
36.650000 77.281250 21.151073
36.750000 75.671875 21.164485
37.225000 74.609375 21.173339
35.675000 89.546875 21.196476
35.625000 88.062500 21.208845
35.525000 87.390625 21.214444
35.950000 86.156250 21.224731
35.325000 83.625000 21.245824
36.900000 79.343750 21.281502
36.750000 77.796875 21.294392
36.600000 77.046875 21.300642
35.550000 88.890625 21.358007
35.350000 87.765625 21.367383
35.400000 86.750000 21.375846
35.225000 85.906250 21.382877
35.000000 84.640625 21.393424
35.250000 83.218750 21.405273
35.575000 82.328125 21.412695
35.850000 81.062500 21.423242
36.525000 80.218750 21.430273
36.800000 79.031250 21.440169
36.675000 77.500000 21.452929
36.650000 76.312500 21.462825
36.800000 75.140625 21.472591
35.550000 89.062500 21.512290
35.350000 87.906250 21.521925
35.375000 86.593750 21.532863
35.225000 85.656250 21.540675
35.025000 84.406250 21.551092
35.250000 83.218750 21.560988
35.525000 81.812500 21.572706
35.825000 80.750000 21.581561
36.525000 79.687500 21.590415
36.800000 78.906250 21.596925
36.675000 77.296875 21.610337
36.600000 76.140625 21.619972
36.775000 75.218750 21.627654
35.750000 88.937500 21.666819
35.425000 87.640625 21.677626
35.300000 86.375000 21.688173
35.275000 85.109375 21.698720
35.125000 84.203125 21.706272
36.525000 79.640625 21.744293
36.800000 78.750000 21.751715
36.650000 77.562500 21.761611
36.575000 75.953125 21.775022
36.850000 75.296875 21.780491
35.475000 89.156250 21.821057
35.400000 88.359375 21.827698
35.500000 87.281250 21.836682
35.675000 85.671875 21.850094
34.900000 83.421875 21.868844
35.375000 82.531250 21.876266
35.775000 81.031250 21.888766
36.100000 80.109375 21.896448
36.625000 78.937500 21.906213
36.700000 78.031250 21.913765
36.500000 76.359375 21.927698
36.650000 75.390625 21.935771
35.050000 84.421875 22.031371
34.900000 82.812500 22.044782
35.175000 81.609375 22.054809
36.550000 77.109375 22.092309
36.450000 76.468750 22.097647
36.775000 75.296875 22.107413
35.725000 89.453125 22.144557
35.425000 88.500000 22.152500
35.350000 87.171875 22.163568
35.000000 86.125000 22.172292
34.625000 84.609375 22.184922
34.675000 84.031250 22.189739
34.825000 82.453125 22.202890
35.100000 81.531250 22.210573
36.475000 76.984375 22.248463
35.425000 88.890625 22.308206
35.100000 87.953125 22.316018
35.275000 87.046875 22.323570
35.425000 85.531250 22.336201
35.050000 84.437500 22.345315
34.600000 83.359375 22.354300
34.775000 82.281250 22.363284
35.125000 81.109375 22.373050
35.750000 80.015625 22.382164
36.525000 78.859375 22.391800
36.625000 77.984375 22.399091
36.325000 76.406250 22.412242
36.500000 75.468750 22.420055
35.300000 88.562500 22.461119
35.250000 87.500000 22.469973
35.000000 83.875000 22.500181
34.800000 82.328125 22.513072
35.000000 81.187500 22.522577
35.650000 77.906250 22.549921
36.150000 76.640625 22.560468
35.225000 86.453125 22.641264
35.175000 85.421875 22.649858
34.825000 84.125000 22.660666
34.650000 83.203125 22.668348
34.850000 81.968750 22.678634
35.450000 78.875000 22.704416
36.025000 77.734375 22.713921
36.200000 76.578125 22.723556
36.550000 75.234375 22.734754
35.200000 86.562500 22.789382
34.925000 85.703125 22.796543
34.800000 84.328125 22.808001
34.875000 83.062500 22.818548
34.800000 82.250000 22.825319
35.100000 80.828125 22.837168
35.600000 80.109375 22.843158
35.825000 78.625000 22.855527
35.925000 77.531250 22.864642
36.150000 76.390625 22.874147
36.475000 75.078125 22.885085
35.175000 86.859375 22.948662
35.000000 85.750000 22.957906
35.150000 84.265625 22.970276
35.150000 83.000000 22.980823
34.800000 82.312500 22.986552
35.100000 81.265625 22.995276
35.450000 79.734375 23.008037
35.675000 78.812500 23.015719
35.900000 77.406250 23.027438
36.075000 76.281250 23.036813
36.400000 75.359375 23.044495
35.100000 86.953125 23.098331
35.075000 85.703125 23.108747
35.150000 84.390625 23.119685
35.100000 82.984375 23.131404
34.950000 81.875000 23.140648
35.250000 81.093750 23.147159
35.475000 79.468750 23.160701
35.575000 78.390625 23.169685
35.800000 77.218750 23.179451
36.000000 76.109375 23.188695
36.375000 75.312500 23.195336
34.875000 89.765625 23.237427
34.675000 88.718750 23.246150
34.950000 87.750000 23.254223
35.000000 86.468750 23.264900
35.025000 85.093750 23.276359
35.025000 83.812500 23.287036
35.000000 82.578125 23.297322
35.150000 81.625000 23.305265
35.250000 80.718750 23.312817
35.350000 79.140625 23.325968
35.550000 78.015625 23.335343
35.725000 77.109375 23.342895
35.975000 76.093750 23.351359
36.450000 75.062500 23.359952
34.900000 87.062500 23.422889
34.975000 85.546875 23.435519
35.000000 84.484375 23.444373
34.975000 83.343750 23.453878
35.075000 81.968750 23.465337
35.150000 81.281250 23.471066
35.175000 79.531250 23.485649
35.375000 78.750000 23.492159
35.575000 77.421875 23.503227
35.775000 76.515625 23.510779
36.100000 75.125000 23.522368
34.875000 86.640625 23.578177
34.950000 85.796875 23.585208
34.950000 84.593750 23.595234
34.925000 82.875000 23.609557
35.125000 82.187500 23.615287
35.200000 80.843750 23.626484
35.150000 79.515625 23.637552
35.350000 78.703125 23.644323
35.550000 77.343750 23.655651
35.750000 76.093750 23.666068
36.100000 75.281250 23.672839
34.550000 88.593750 23.720604
34.825000 87.250000 23.731802
34.825000 86.109375 23.741307
34.850000 85.265625 23.748339
34.900000 84.046875 23.758495
34.975000 83.109375 23.766308
35.125000 81.640625 23.778547
35.100000 80.546875 23.787662
35.075000 79.578125 23.795735
35.300000 78.000000 23.808886
35.500000 77.203125 23.815526
35.750000 75.921875 23.826203
36.125000 74.984375 23.834016
34.850000 89.078125 23.870371
34.750000 87.421875 23.884173
34.850000 86.812500 23.889251
34.850000 85.500000 23.900189
34.875000 84.375000 23.909564
34.900000 82.937500 23.921543
35.100000 81.750000 23.931439
35.175000 81.078125 23.937038
35.025000 79.390625 23.951100
35.175000 78.265625 23.960475
35.400000 77.390625 23.967767
35.550000 76.078125 23.978704
35.850000 75.343750 23.984824
34.850000 89.015625 24.029445
34.725000 88.062500 24.037388
34.750000 87.203125 24.044550
34.800000 86.140625 24.053404
34.825000 84.687500 24.065513
34.850000 83.296875 24.077102
35.000000 82.484375 24.083873
35.000000 81.328125 24.093508
34.925000 80.203125 24.102883
35.050000 78.750000 24.114992
35.275000 78.125000 24.120201
35.475000 76.937500 24.130096
35.700000 75.812500 24.139472
36.275000 74.703125 24.148716
34.850000 88.578125 24.189196
34.775000 87.781250 24.195836
34.775000 86.296875 24.208206
34.800000 85.406250 24.215628
34.850000 84.125000 24.226305
34.875000 83.062500 24.235159
35.050000 81.750000 24.246097
35.050000 80.609375 24.255602
34.950000 79.453125 24.265237
35.125000 78.390625 24.274091
35.350000 76.953125 24.286071
35.550000 76.234375 24.292060
35.850000 74.859375 24.303519
34.975000 89.250000 24.338562
34.750000 88.390625 24.345723
34.725000 86.968750 24.357572
34.750000 86.015625 24.365515
34.775000 84.718750 24.376322
34.825000 83.906250 24.383093
34.900000 82.484375 24.394942
34.900000 81.203125 24.405619
34.900000 80.562500 24.410958
34.975000 79.156250 24.422676
35.150000 78.250000 24.430228
35.375000 77.125000 24.439603
35.600000 75.640625 24.451973
35.950000 74.921875 24.457963
34.900000 89.812500 24.491972
34.725000 88.859375 24.499915
34.775000 87.656250 24.509941
34.775000 86.281250 24.521399
34.800000 85.093750 24.531295
34.850000 84.062500 24.539889
34.900000 83.156250 24.547441
34.950000 81.921875 24.557727
34.900000 80.750000 24.567493
34.925000 79.765625 24.575696
35.125000 78.609375 24.585331
35.325000 77.062500 24.598222
35.475000 75.765625 24.609029
35.775000 74.734375 24.617623
34.725000 88.562500 24.671302
34.700000 87.765625 24.677943
34.725000 86.468750 24.688750
34.750000 85.609375 24.695911
34.825000 84.093750 24.708542
34.875000 82.921875 24.718307
34.975000 82.140625 24.724818
34.975000 80.640625 24.737318
34.900000 79.390625 24.747735
35.100000 78.703125 24.753464
35.350000 77.234375 24.765703
35.500000 76.328125 24.773255
35.700000 74.859375 24.785495
34.675000 87.250000 24.837646
34.700000 85.718750 24.850407
34.725000 84.531250 24.860303
34.775000 83.296875 24.870589
35.025000 82.234375 24.879443
35.050000 81.125000 24.888688
34.850000 79.890625 24.898975
34.975000 78.906250 24.907178
35.200000 77.718750 24.917074
35.400000 76.453125 24.927621
35.600000 75.406250 24.936345
36.100000 74.515625 24.943766
34.975000 88.390625 24.983794
34.625000 87.281250 24.993039
34.675000 86.734375 24.997596
34.750000 85.234375 25.010096
34.800000 84.312500 25.017778
34.850000 83.093750 25.027935
34.900000 82.109375 25.036138
34.875000 80.468750 25.049809
34.825000 79.265625 25.059836
35.025000 78.062500 25.069862
35.300000 77.484375 25.074679
35.450000 75.937500 25.087570
35.725000 74.843750 25.096684
34.675000 88.562500 25.139563
34.500000 87.453125 25.148808
34.625000 86.593750 25.155969
34.725000 85.593750 25.164303
34.725000 84.125000 25.176542
34.775000 83.000000 25.185917
34.975000 82.265625 25.192037
34.875000 80.953125 25.202974
34.725000 79.546875 25.214693
34.925000 78.375000 25.224459
35.225000 77.125000 25.234875
35.450000 75.921875 25.244901
35.675000 74.984375 25.252714
34.425000 88.328125 25.296162
34.600000 87.578125 25.302412
34.700000 86.453125 25.311787
34.725000 85.015625 25.323766
34.750000 83.781250 25.334052
34.825000 82.562500 25.344208
34.750000 81.187500 25.355667
34.750000 80.281250 25.363219
34.875000 79.125000 25.372854
35.050000 77.765625 25.384182
35.325000 77.140625 25.389391
35.500000 75.703125 25.401370
35.775000 74.703125 25.409703
34.425000 88.812500 25.446693
34.400000 87.625000 25.456589
34.600000 86.500000 25.465964
34.650000 85.609375 25.473386
34.650000 84.625000 25.481589
34.700000 83.109375 25.494219
34.950000 81.953125 25.503855
34.925000 80.796875 25.513490
34.700000 79.656250 25.522995
34.900000 78.468750 25.532891
35.175000 77.671875 25.539532
35.375000 76.343750 25.550600
35.625000 75.078125 25.561146
34.375000 89.765625 25.593310
34.200000 88.421875 25.604507
34.550000 87.531250 25.611929
34.600000 86.328125 25.621955
34.625000 85.234375 25.631070
34.675000 84.187500 25.639794
34.725000 82.890625 25.650601
34.950000 81.734375 25.660237
34.925000 80.468750 25.670784
34.800000 79.265625 25.680810
35.000000 78.484375 25.687320
35.300000 76.906250 25.700471
35.500000 76.171875 25.706591
35.775000 74.953125 25.716747
34.675000 89.406250 25.753460
34.450000 88.078125 25.764528
34.550000 87.093750 25.772731
34.650000 85.718750 25.784189
34.675000 84.484375 25.794476
34.725000 83.171875 25.805413
34.800000 82.421875 25.811663
34.900000 80.843750 25.824814
34.900000 80.000000 25.831845
34.900000 78.828125 25.841611
35.125000 77.703125 25.850986
35.375000 76.281250 25.862835
35.600000 75.390625 25.870257
36.100000 74.468750 25.877939
34.500000 88.906250 25.927198
34.350000 87.687500 25.937355
34.550000 86.500000 25.947251
34.625000 85.718750 25.953761
34.650000 84.531250 25.963657
34.700000 83.437500 25.972771
34.700000 81.765625 25.986704
35.000000 80.656250 25.995949
35.050000 79.671875 26.004152
34.925000 78.750000 26.011834
35.175000 77.421875 26.022902
35.400000 76.593750 26.029803
35.650000 75.234375 26.041131
34.450000 89.468750 26.077163
34.300000 88.515625 26.085106
34.525000 87.046875 26.097345
34.625000 85.812500 26.107632
34.700000 84.625000 26.117527
34.825000 83.671875 26.125470
34.750000 82.875000 26.132111
34.725000 81.296875 26.145262
35.050000 80.312500 26.153465
35.175000 78.906250 26.165184
35.175000 78.000000 26.172736
35.375000 77.156250 26.179767
35.525000 75.531250 26.193309
35.950000 74.453125 26.202293
34.525000 89.750000 26.234615
34.450000 88.390625 26.245943
34.400000 87.640625 26.252193
34.600000 86.390625 26.262610
34.700000 85.625000 26.268990
34.925000 84.062500 26.282011
34.725000 83.187500 26.289302
34.425000 81.593750 26.302584
34.650000 80.859375 26.308703
35.000000 79.484375 26.320162
35.225000 78.750000 26.326282
35.350000 77.156250 26.339563
35.525000 75.953125 26.349589
35.850000 75.062500 26.357011
34.600000 89.421875 26.389310
34.550000 88.406250 26.397774
34.575000 87.453125 26.405716
34.675000 86.531250 26.413399
34.525000 82.843750 26.444128
34.425000 81.937500 26.451680
34.775000 80.609375 26.462747
35.150000 79.265625 26.473945
35.400000 78.578125 26.479674
35.500000 76.890625 26.493737
35.675000 75.968750 26.501419
36.075000 75.000000 26.509492
34.725000 89.093750 26.554326
34.625000 88.109375 26.562529
34.650000 86.687500 26.574378
34.750000 85.703125 26.582582
35.175000 84.468750 26.592868
34.275000 82.015625 26.613311
34.550000 80.921875 26.622425
34.950000 80.218750 26.628284
35.300000 78.875000 26.639482
35.450000 77.625000 26.649899
35.575000 76.578125 26.658623
35.850000 75.484375 26.667738
34.550000 89.328125 26.703850
34.500000 88.546875 26.710360
34.700000 87.015625 26.723120
34.825000 85.890625 26.732496
34.950000 85.218750 26.738095
34.600000 83.734375 26.750464
34.325000 82.812500 26.758147
34.550000 81.437500 26.769605
35.125000 78.125000 26.797209
35.675000 77.093750 26.805803
35.850000 75.437500 26.819605
36.350000 74.609375 26.826506
34.675000 88.906250 26.866901
34.650000 87.265625 26.880573
34.750000 86.281250 26.888776
34.600000 85.015625 26.899323
34.325000 84.031250 26.907526
34.400000 82.703125 26.918594
34.525000 81.500000 26.928620
35.100000 78.140625 26.956614
35.700000 77.437500 26.962474
35.850000 75.781250 26.976276
36.125000 74.984375 26.982917
34.750000 89.343750 27.014410
34.700000 88.015625 27.025478
34.875000 87.093750 27.033160
34.700000 83.140625 27.066103
34.550000 82.328125 27.072874
34.850000 80.875000 27.084983
35.400000 80.015625 27.092145
36.150000 79.000000 27.100608
36.250000 77.515625 27.112978
36.000000 76.875000 27.118317
34.900000 89.171875 27.185196
34.775000 88.125000 27.193920
34.875000 86.875000 27.204337
34.750000 83.703125 27.230769
36.225000 78.812500 27.271524
36.325000 77.984375 27.278425
36.100000 76.640625 27.289623
35.050000 89.296875 27.338059
34.800000 88.140625 27.347694
34.975000 86.859375 27.358371
34.525000 85.578125 27.369048
34.300000 84.234375 27.380246
34.625000 83.234375 27.388580
34.800000 82.093750 27.398085
35.250000 80.734375 27.409413
35.850000 79.828125 27.416965
36.200000 79.062500 27.423345
36.225000 77.515625 27.436236
36.125000 76.218750 27.447043
36.275000 75.531250 27.452772
34.875000 88.781250 27.499053
35.000000 87.484375 27.509861
35.125000 86.656250 27.516762
35.075000 85.078125 27.529913
34.750000 84.046875 27.538507
34.800000 82.921875 27.547882
35.300000 82.187500 27.554002
35.675000 80.984375 27.564028
36.150000 79.437500 27.576918
36.425000 78.421875 27.585382
36.250000 77.531250 27.592803
36.225000 76.359375 27.602569
36.400000 74.921875 27.614548
34.725000 89.468750 27.648418
34.850000 88.500000 27.656491
35.125000 87.281250 27.666647
35.200000 86.390625 27.674069
35.425000 85.125000 27.684616
35.125000 83.968750 27.694251
34.925000 82.562500 27.705970
35.425000 81.906250 27.711439
35.925000 80.593750 27.722376
36.400000 79.609375 27.730580
36.400000 78.390625 27.740736
36.275000 77.343750 27.749460
36.400000 75.953125 27.761048
36.675000 74.921875 27.769642
35.175000 89.531250 27.807358
35.150000 87.921875 27.820769
35.200000 86.890625 27.829363
35.000000 83.546875 27.857228
34.875000 82.671875 27.864519
35.400000 81.625000 27.873243
36.075000 80.218750 27.884962
36.450000 79.187500 27.893556
36.350000 77.890625 27.904363
36.300000 77.015625 27.911655
36.550000 75.750000 27.922202
37.100000 74.625000 27.931576
35.250000 89.593750 27.958474
35.225000 88.031250 27.971495
35.250000 86.968750 27.980349
35.150000 83.843750 28.006391
36.425000 79.359375 28.043761
36.350000 77.984375 28.055219
36.275000 76.968750 28.063683
36.525000 75.984375 28.071886
37.050000 74.703125 28.082563
35.225000 88.015625 28.133709
35.375000 86.500000 28.146339
35.325000 85.671875 28.153240
35.050000 84.109375 28.166261
34.950000 83.093750 28.174725
35.250000 82.296875 28.181365
35.850000 80.843750 28.193475
36.275000 79.968750 28.200767
36.350000 78.875000 28.209881
36.325000 77.562500 28.220819
36.375000 76.171875 28.232407
36.625000 75.203125 28.240480
35.750000 89.093750 28.274722
35.600000 88.125000 28.282795
35.425000 87.328125 28.289435
35.400000 86.093750 28.299722
35.175000 84.734375 28.311050
35.000000 83.593750 28.320555
35.200000 82.156250 28.332534
35.825000 81.078125 28.341519
36.450000 80.140625 28.349331
36.475000 78.859375 28.360008
36.275000 77.843750 28.368472
36.325000 76.921875 28.376154
36.600000 75.484375 28.388133
35.300000 88.906250 28.434163
35.375000 87.812500 28.443277
35.450000 86.906250 28.450829
35.500000 85.718750 28.460725
35.175000 84.062500 28.474527
34.975000 82.828125 28.484814
36.400000 78.796875 28.518408
36.225000 77.328125 28.530647
36.425000 76.187500 28.540152
36.800000 75.375000 28.546923
35.525000 89.015625 28.602183
35.300000 88.218750 28.608824
35.550000 87.046875 28.618589
35.725000 85.906250 28.628094
35.500000 84.328125 28.641245
35.150000 83.078125 28.651662
36.300000 78.609375 28.688902
36.225000 77.421875 28.698797
36.350000 76.312500 28.708042
36.700000 75.312500 28.716376
36.075000 89.578125 28.745310
35.875000 88.093750 28.757679
35.600000 86.859375 28.767966
35.675000 86.156250 28.773825
35.800000 85.078125 28.782810
35.550000 83.312500 28.797523
35.500000 82.359375 28.805466
36.125000 81.281250 28.814450
36.550000 80.187500 28.823565
36.450000 79.046875 28.833070
36.250000 77.796875 28.843487
36.325000 76.796875 28.851820
36.650000 75.843750 28.859763
36.075000 89.593750 28.908785
35.875000 88.250000 28.919983
35.600000 87.093750 28.929619
35.650000 85.703125 28.941207
35.900000 84.609375 28.950322
35.825000 83.328125 28.960999
35.775000 82.156250 28.970764
36.225000 81.109375 28.979488
36.450000 80.343750 28.985868
36.300000 78.843750 28.998369
36.200000 77.828125 29.006832
36.350000 76.843750 29.015035
36.625000 75.703125 29.024540
36.150000 89.843750 29.062152
35.875000 88.796875 29.070876
35.700000 87.671875 29.080251
35.725000 86.484375 29.090147
35.775000 85.187500 29.100954
35.850000 83.875000 29.111891
35.900000 82.609375 29.122438
36.150000 81.562500 29.131162
36.500000 80.453125 29.140407
36.425000 79.296875 29.150042
36.250000 78.250000 29.158766
36.350000 76.984375 29.169313
36.675000 75.921875 29.178167
37.125000 74.843750 29.187152
36.275000 89.203125 29.221747
35.925000 88.046875 29.231382
35.625000 86.953125 29.240497
35.750000 86.031250 29.248179
35.875000 84.656250 29.259638
35.875000 83.734375 29.267320
36.025000 82.562500 29.277085
36.325000 81.390625 29.286851
36.450000 80.281250 29.296096
36.300000 78.812500 29.308335
36.200000 78.031250 29.314846
36.500000 76.625000 29.326565
36.900000 75.468750 29.336200
35.275000 88.765625 29.377887
35.550000 87.828125 29.385700
35.750000 86.703125 29.395074
35.850000 85.453125 29.405491
35.875000 84.375000 29.414475
35.925000 82.906250 29.426715
36.200000 82.140625 29.433095
36.550000 80.734375 29.444814
37.075000 79.640625 29.453928
36.225000 77.140625 29.474762
36.525000 76.187500 29.482705
37.000000 75.437500 29.488955
35.825000 89.765625 29.528635
35.575000 88.718750 29.537359
35.700000 87.328125 29.548948
35.725000 86.234375 29.558062
35.875000 85.203125 29.566656
35.925000 84.109375 29.575770
36.000000 82.937500 29.585536
36.325000 81.828125 29.594781
36.525000 80.890625 29.602593
36.375000 79.265625 29.616135
36.250000 78.359375 29.623687
36.250000 77.375000 29.631890
36.550000 75.921875 29.644000
37.125000 75.031250 29.651422
35.850000 86.734375 29.722770
35.875000 85.578125 29.732405
35.950000 84.531250 29.741129
35.975000 83.343750 29.751025
36.200000 82.562500 29.757535
36.475000 81.015625 29.770426
36.550000 79.937500 29.779410
36.475000 78.750000 29.789306
36.300000 77.453125 29.800113
36.500000 76.484375 29.808186
36.900000 75.500000 29.816390
36.200000 89.140625 29.864393
36.125000 88.203125 29.872205
35.850000 86.781250 29.884054
35.925000 85.500000 29.894731
36.025000 84.765625 29.900851
36.050000 83.531250 29.911138
36.275000 82.140625 29.922726
36.550000 81.187500 29.930669
36.825000 80.140625 29.939393
36.675000 78.875000 29.949940
36.375000 77.625000 29.960356
36.575000 76.500000 29.969731
36.975000 75.296875 29.979757
35.725000 89.015625 30.015877
35.675000 87.890625 30.025253
35.900000 86.906250 30.033456
35.975000 85.937500 30.041529
36.025000 84.343750 30.054810
36.050000 83.234375 30.064055
36.250000 82.453125 30.070565
36.525000 81.015625 30.082544
36.950000 80.062500 30.090487
36.800000 78.828125 30.100773
36.375000 77.390625 30.112753
36.575000 76.546875 30.119784
37.000000 75.578125 30.127857
35.525000 88.593750 30.180918
35.800000 87.968750 30.186126
35.950000 86.437500 30.198886
36.050000 85.265625 30.208652
36.075000 84.406250 30.215814
36.075000 83.031250 30.227272
36.375000 81.734375 30.238079
36.700000 80.937500 30.244720
37.025000 79.500000 30.256699
36.875000 78.609375 30.264121
36.450000 77.093750 30.276751
36.650000 75.859375 30.287038
37.175000 75.296875 30.291725
35.825000 88.437500 30.333078
35.800000 87.687500 30.339329
35.900000 86.031250 30.353131
36.050000 85.062500 30.361203
36.125000 83.812500 30.371620
35.975000 82.781250 30.380214
36.325000 81.515625 30.390761
36.500000 80.828125 30.396490
36.575000 79.562500 30.407037
36.700000 78.500000 30.415891
36.500000 77.109375 30.427480
36.775000 76.140625 30.435552
37.325000 74.906250 30.445839
36.250000 89.312500 30.488471
36.000000 88.234375 30.497456
35.825000 86.875000 30.508784
36.050000 85.656250 30.518940
35.950000 84.390625 30.529487
35.775000 83.453125 30.537299
36.225000 79.968750 30.566336
36.450000 78.953125 30.574799
36.400000 77.765625 30.584695
36.575000 76.531250 30.594982
36.925000 75.656250 30.602273
36.025000 89.546875 30.635664
35.950000 88.296875 30.646080
35.800000 87.546875 30.652330
36.000000 86.171875 30.663789
35.825000 85.218750 30.671731
35.725000 84.000000 30.681887
35.925000 82.906250 30.691002
36.275000 81.562500 30.702200
36.700000 80.531250 30.710794
36.725000 79.140625 30.722382
36.550000 78.250000 30.729804
36.475000 76.828125 30.741653
36.775000 75.656250 30.751419
37.450000 74.765625 30.758841
35.750000 89.015625 30.794938
35.675000 87.765625 30.805354
35.750000 86.484375 30.816031
35.600000 85.484375 30.824365
35.450000 84.312500 30.834131
35.525000 83.390625 30.841813
35.725000 82.281250 30.851058
36.250000 80.984375 30.861865
36.850000 79.625000 30.873193
36.725000 78.531250 30.882308
36.500000 77.609375 30.889990
36.625000 76.406250 30.900016
37.100000 75.468750 30.907828
35.575000 89.078125 30.951566
35.675000 87.765625 30.962503
35.825000 86.734375 30.971097
35.575000 85.625000 30.980342
35.250000 84.046875 30.993493
35.450000 83.281250 30.999873
35.725000 82.156250 31.009248
36.275000 80.843750 31.020185
36.875000 79.671875 31.029951
36.775000 78.734375 31.037764
36.475000 77.562500 31.047529
36.625000 76.234375 31.058597
37.100000 75.390625 31.065628
35.725000 89.390625 31.119694
35.500000 88.109375 31.130372
35.650000 87.187500 31.138054
35.450000 85.906250 31.148731
35.225000 84.546875 31.160059
36.225000 80.125000 31.196908
36.575000 78.656250 31.209148
36.525000 77.656250 31.217481
36.575000 76.375000 31.228158
36.975000 75.453125 31.235840
35.550000 88.687500 31.278047
35.375000 85.359375 31.305781
35.175000 83.937500 31.317630
35.425000 82.671875 31.328177
35.775000 81.843750 31.335078
36.350000 80.515625 31.346146
36.925000 79.906250 31.351224
36.775000 78.250000 31.365026
36.475000 77.500000 31.371276
36.675000 75.875000 31.384818
37.125000 75.093750 31.391328
35.875000 89.578125 31.431273
35.875000 88.578125 31.439606
35.625000 87.187500 31.451194
35.850000 86.343750 31.458225
35.550000 84.921875 31.470074
35.325000 84.000000 31.477757
35.800000 82.781250 31.487913
36.125000 81.500000 31.498590
36.525000 80.468750 31.507184
36.900000 79.375000 31.516299
36.775000 77.781250 31.529580
36.625000 76.984375 31.536220
35.750000 89.671875 31.579785
35.775000 88.390625 31.590462
35.300000 85.140625 31.617546
35.300000 83.671875 31.629785
35.500000 82.515625 31.639421
35.800000 81.703125 31.646192
36.400000 80.484375 31.656348
36.825000 79.312500 31.666113
36.750000 78.218750 31.675228
36.600000 77.062500 31.684863
35.225000 89.843750 31.736566
35.450000 88.671875 31.746332
35.550000 87.796875 31.753623
35.750000 86.312500 31.765993
35.475000 85.015625 31.776801
35.075000 83.843750 31.786566
35.350000 82.859375 31.794769
35.750000 81.578125 31.805446
36.300000 80.750000 31.812347
36.900000 79.781250 31.820420
36.875000 78.250000 31.833181
36.700000 77.375000 31.840472
36.775000 75.875000 31.852973
37.025000 74.906250 31.861045
35.625000 89.328125 31.894982
35.700000 88.140625 31.904878
35.575000 87.437500 31.910737
35.925000 86.468750 31.918810
35.150000 83.703125 31.941857
35.500000 82.406250 31.952664
35.850000 81.718750 31.958394
36.275000 80.593750 31.967768
36.850000 79.218750 31.979227
36.875000 78.031250 31.989123
36.625000 77.156250 31.996414
35.575000 89.734375 32.052824
35.625000 88.046875 32.066887
35.550000 87.203125 32.073918
35.825000 85.890625 32.084856
