37.575000 -16.140625 18.865175
37.175000 -14.437500 18.865175
36.725000 -13.375000 18.865175
36.550000 -12.000000 18.865175
36.375000 -10.687500 18.865175
36.200000 -9.593750 18.865175
36.325000 -8.265625 18.865175
38.375000 -19.484375 19.008119
38.025000 -17.937500 19.008119
37.625000 -16.687500 19.008119
37.325000 -15.453125 19.008119
36.950000 -14.046875 19.008119
36.625000 -12.578125 19.008119
36.425000 -11.593750 19.008119
36.275000 -10.203125 19.008119
36.200000 -8.578125 19.008119
36.525000 -7.437500 19.008119
38.375000 -20.468750 19.135641
38.225000 -19.281250 19.135641
37.900000 -17.671875 19.135641
37.500000 -16.375000 19.135641
37.100000 -14.984375 19.135641
36.750000 -13.609375 19.135641
36.525000 -12.468750 19.135641
36.400000 -11.265625 19.135641
36.225000 -9.937500 19.135641
36.250000 -8.531250 19.135641
36.825000 -7.062500 19.135641
38.400000 -19.890625 19.284816
38.100000 -18.671875 19.284816
37.700000 -17.062500 19.284816
37.500000 -16.000000 19.284816
37.175000 -14.343750 19.284816
36.700000 -13.265625 19.284816
36.525000 -11.593750 19.284816
36.375000 -10.781250 19.284816
36.275000 -9.140625 19.284816
36.375000 -7.718750 19.284816
39.050000 -20.906250 19.426371
38.300000 -19.140625 19.426371
37.900000 -18.046875 19.426371
37.550000 -16.484375 19.426371
37.300000 -15.250000 19.426371
36.925000 -13.953125 19.426371
36.600000 -12.890625 19.426371
36.425000 -11.421875 19.426371
36.250000 -9.828125 19.426371
36.225000 -8.843750 19.426371
36.575000 -7.671875 19.426371
38.300000 -20.218750 19.568990
38.100000 -18.781250 19.568990
37.750000 -17.750000 19.568990
37.475000 -16.265625 19.568990
37.050000 -14.656250 19.568990
36.650000 -13.609375 19.568990
36.525000 -12.359375 19.568990
36.350000 -10.968750 19.568990
36.225000 -9.515625 19.568990
38.250000 -19.656250 19.707561
38.000000 -18.578125 19.707561
37.675000 -17.406250 19.707561
37.425000 -15.640625 19.707561
37.025000 -14.531250 19.707561
36.600000 -13.031250 19.707561
36.475000 -11.546875 19.707561
36.350000 -10.453125 19.707561
36.250000 -9.078125 19.707561
36.375000 -8.093750 19.707561
38.400000 -20.578125 19.840377
38.150000 -19.265625 19.840377
37.825000 -17.937500 19.840377
37.525000 -16.531250 19.840377
37.300000 -15.453125 19.840377
36.875000 -14.187500 19.840377
36.500000 -12.406250 19.840377
36.400000 -11.609375 19.840377
36.300000 -10.265625 19.840377
36.250000 -8.515625 19.840377
36.550000 -7.531250 19.840377
38.275000 -20.250000 19.987044
38.075000 -18.828125 19.987044
37.725000 -17.593750 19.987044
37.450000 -16.375000 19.987044
37.025000 -14.703125 19.987044
36.625000 -13.515625 19.987044
36.500000 -12.390625 19.987044
36.325000 -10.921875 19.987044
36.200000 -9.468750 19.987044
38.600000 -20.734375 20.129519
38.175000 -19.531250 20.129519
37.900000 -18.390625 20.129519
37.575000 -16.921875 20.129519
37.275000 -15.812500 20.129519
36.850000 -14.093750 20.129519
36.525000 -13.046875 20.129519
36.450000 -11.812500 20.129519
36.325000 -10.171875 20.129519
36.225000 -8.859375 20.129519
36.475000 -7.828125 20.129519
38.775000 -21.515625 20.269741
38.275000 -20.250000 20.269741
38.050000 -19.000000 20.269741
37.725000 -17.437500 20.269741
37.400000 -16.109375 20.269741
37.225000 -15.156250 20.269741
36.875000 -13.406250 20.269741
36.500000 -12.187500 20.269741
36.400000 -11.281250 20.269741
36.225000 -9.500000 20.269741
36.250000 -8.234375 20.269741
36.850000 -7.203125 20.269741
38.600000 -21.531250 20.409832
38.225000 -19.953125 20.409832
38.025000 -18.703125 20.409832
37.775000 -17.171875 20.409832
37.200000 -15.875000 20.409832
36.975000 -14.437500 20.409832
36.875000 -13.093750 20.409832
36.500000 -12.062500 20.409832
36.350000 -10.406250 20.409832
36.225000 -9.218750 20.409832
36.350000 -8.171875 20.409832
38.650000 -20.921875 20.548778
38.225000 -19.656250 20.548778
37.850000 -18.234375 20.548778
37.200000 -16.609375 20.548778
36.700000 -15.562500 20.548778
36.975000 -13.984375 20.548778
36.975000 -12.828125 20.548778
36.525000 -11.234375 20.548778
36.275000 -10.015625 20.548778
36.275000 -8.671875 20.548778
36.650000 -7.359375 20.548778
38.750000 -21.703125 20.690010
38.275000 -20.187500 20.690010
38.150000 -18.906250 20.690010
38.300000 -17.875000 20.690010
36.675000 -14.875000 20.690010
36.875000 -13.828125 20.690010
36.825000 -12.515625 20.690010
36.500000 -11.171875 20.690010
36.325000 -9.562500 20.690010
38.600000 -21.109375 20.830355
38.225000 -19.890625 20.830355
38.025000 -18.765625 20.830355
36.625000 -15.906250 20.830355
36.625000 -14.562500 20.830355
36.850000 -13.437500 20.830355
36.850000 -12.109375 20.830355
36.475000 -10.265625 20.830355
36.275000 -9.437500 20.830355
36.500000 -7.812500 20.830355
38.850000 -22.593750 20.971122
38.625000 -20.875000 20.971122
38.250000 -19.515625 20.971122
37.750000 -18.265625 20.971122
36.950000 -16.953125 20.971122
36.575000 -15.703125 20.971122
36.675000 -14.437500 20.971122
37.150000 -13.093750 20.971122
37.075000 -11.796875 20.971122
36.525000 -10.359375 20.971122
36.425000 -8.968750 20.971122
36.675000 -7.843750 20.971122
38.600000 -20.781250 21.111502
38.275000 -19.171875 21.111502
38.225000 -18.218750 21.111502
36.650000 -15.406250 21.111502
36.775000 -14.140625 21.111502
37.350000 -12.734375 21.111502
37.200000 -11.125000 21.111502
36.550000 -10.281250 21.111502
36.500000 -8.796875 21.111502
36.850000 -7.375000 21.111502
38.875000 -21.593750 21.252348
38.475000 -20.250000 21.252348
38.300000 -19.062500 21.252348
38.125000 -17.703125 21.252348
37.450000 -16.546875 21.252348
36.750000 -14.843750 21.252348
36.850000 -13.843750 21.252348
37.650000 -12.671875 21.252348
36.525000 -9.812500 21.252348
36.500000 -8.343750 21.252348
36.975000 -7.562500 21.252348
38.850000 -21.218750 21.393246
38.375000 -20.171875 21.393246
37.975000 -18.781250 21.393246
37.225000 -17.265625 21.393246
37.000000 -15.828125 21.393246
37.025000 -14.500000 21.393246
37.150000 -13.390625 21.393246
37.550000 -11.875000 21.393246
36.525000 -9.281250 21.393246
36.600000 -8.109375 21.393246
39.125000 -20.828125 21.533761
38.425000 -19.656250 21.533761
38.100000 -18.625000 21.533761
37.350000 -16.796875 21.533761
37.225000 -15.984375 21.533761
37.350000 -14.515625 21.533761
37.175000 -13.343750 21.533761
37.375000 -12.031250 21.533761
37.100000 -10.562500 21.533761
36.575000 -9.312500 21.533761
36.675000 -8.078125 21.533761
39.000000 -21.625000 21.666025
38.600000 -20.437500 21.666025
38.400000 -18.875000 21.666025
37.100000 -16.046875 21.666025
37.150000 -14.625000 21.666025
37.275000 -13.484375 21.666025
37.600000 -12.390625 21.666025
37.325000 -10.859375 21.666025
36.725000 -9.671875 21.666025
36.650000 -8.562500 21.666025
39.050000 -21.281250 21.809433
38.475000 -19.593750 21.809433
38.125000 -18.203125 21.809433
37.400000 -16.796875 21.809433
36.675000 -15.718750 21.809433
36.850000 -14.671875 21.809433
37.500000 -13.281250 21.809433
37.600000 -11.781250 21.809433
37.225000 -10.734375 21.809433
36.800000 -9.250000 21.809433
36.800000 -8.093750 21.809433
38.950000 -20.375000 21.949439
38.525000 -19.359375 21.949439
38.425000 -18.109375 21.949439
37.575000 -15.343750 21.949439
37.675000 -13.921875 21.949439
37.625000 -12.531250 21.949439
37.450000 -11.000000 21.949439
36.975000 -10.093750 21.949439
36.750000 -8.859375 21.949439
37.050000 -7.515625 21.949439
39.000000 -21.796875 22.093393
38.600000 -20.406250 22.093393
38.425000 -18.796875 22.093393
37.800000 -17.593750 22.093393
37.400000 -16.375000 22.093393
37.550000 -14.968750 22.093393
37.725000 -13.859375 22.093393
37.850000 -12.218750 22.093393
37.475000 -11.031250 22.093393
36.950000 -9.546875 22.093393
39.150000 -21.359375 22.230211
38.700000 -19.593750 22.230211
38.400000 -18.484375 22.230211
37.650000 -16.953125 22.230211
37.200000 -15.734375 22.230211
37.500000 -14.390625 22.230211
37.850000 -13.062500 22.230211
37.725000 -11.953125 22.230211
37.200000 -10.765625 22.230211
36.925000 -9.109375 22.230211
36.900000 -8.000000 22.230211
39.100000 -20.562500 22.385359
38.600000 -19.078125 22.385359
38.925000 -17.843750 22.385359
37.575000 -15.312500 22.385359
37.825000 -13.828125 22.385359
37.775000 -12.515625 22.385359
37.450000 -11.375000 22.385359
37.025000 -9.828125 22.385359
36.850000 -8.500000 22.385359
37.100000 -7.609375 22.385359
39.675000 -22.000000 22.523600
39.350000 -20.593750 22.523600
38.700000 -19.156250 22.523600
38.075000 -17.890625 22.523600
37.500000 -16.375000 22.523600
37.650000 -14.937500 22.523600
37.950000 -13.968750 22.523600
38.100000 -12.359375 22.523600
37.600000 -10.812500 22.523600
36.950000 -9.796875 22.523600
36.875000 -8.484375 22.523600
37.350000 -7.312500 22.523600
39.500000 -21.640625 22.656202
39.075000 -20.125000 22.656202
38.675000 -19.031250 22.656202
38.025000 -17.500000 22.656202
37.500000 -16.046875 22.656202
37.675000 -15.046875 22.656202
37.950000 -13.484375 22.656202
37.725000 -12.015625 22.656202
37.250000 -10.656250 22.656202
37.000000 -9.312500 22.656202
36.900000 -8.359375 22.656202
39.525000 -21.125000 22.789803
38.925000 -19.921875 22.789803
38.775000 -18.468750 22.789803
37.475000 -15.953125 22.789803
37.675000 -14.546875 22.789803
37.950000 -13.125000 22.789803
37.625000 -11.687500 22.789803
37.100000 -10.593750 22.789803
36.925000 -9.453125 22.789803
36.925000 -8.000000 22.789803
39.725000 -21.125000 22.933446
39.000000 -19.843750 22.933446
38.725000 -18.218750 22.933446
38.000000 -16.734375 22.933446
37.550000 -15.796875 22.933446
37.875000 -14.296875 22.933446
38.075000 -13.234375 22.933446
37.600000 -11.843750 22.933446
37.075000 -10.609375 22.933446
36.925000 -8.812500 22.933446
37.025000 -7.875000 22.933446
39.000000 -19.687500 23.071577
38.750000 -18.250000 23.071577
38.100000 -17.187500 23.071577
37.625000 -15.734375 23.071577
37.925000 -14.343750 23.071577
38.125000 -12.984375 23.071577
37.600000 -11.828125 23.071577
37.050000 -10.468750 23.071577
36.975000 -9.171875 23.071577
37.075000 -7.828125 23.071577
38.975000 -19.609375 23.217816
38.800000 -17.828125 23.217816
38.175000 -16.656250 23.217816
37.750000 -15.296875 23.217816
38.025000 -14.000000 23.217816
38.075000 -12.687500 23.217816
37.550000 -11.484375 23.217816
37.000000 -10.093750 23.217816
36.975000 -9.000000 23.217816
37.225000 -7.250000 23.217816
39.475000 -20.296875 23.369371
38.975000 -18.984375 23.369371
38.775000 -18.078125 23.369371
38.225000 -16.453125 23.369371
37.925000 -15.421875 23.369371
38.125000 -13.906250 23.369371
37.750000 -12.328125 23.369371
37.200000 -11.375000 23.369371
36.950000 -9.593750 23.369371
37.000000 -8.859375 23.369371
37.375000 -7.406250 23.369371
40.125000 -21.812500 23.494968
39.525000 -20.062500 23.494968
38.925000 -18.828125 23.494968
38.700000 -17.593750 23.494968
38.325000 -16.453125 23.494968
38.150000 -15.218750 23.494968
38.150000 -13.890625 23.494968
37.725000 -12.125000 23.494968
37.225000 -10.812500 23.494968
37.025000 -9.421875 23.494968
37.075000 -8.109375 23.494968
37.625000 -7.125000 23.494968
40.300000 -21.546875 23.636209
39.550000 -20.187500 23.636209
38.925000 -18.953125 23.636209
38.675000 -17.718750 23.636209
38.325000 -15.984375 23.636209
38.200000 -14.765625 23.636209
38.175000 -13.656250 23.636209
37.700000 -11.968750 23.636209
37.150000 -10.796875 23.636209
36.950000 -9.265625 23.636209
37.050000 -8.343750 23.636209
40.050000 -21.218750 23.783707
39.450000 -20.078125 23.783707
38.925000 -18.515625 23.783707
38.625000 -17.296875 23.783707
38.300000 -15.953125 23.783707
38.275000 -14.875000 23.783707
38.300000 -13.609375 23.783707
37.650000 -11.750000 23.783707
37.025000 -10.625000 23.783707
37.025000 -9.234375 23.783707
37.125000 -7.750000 23.783707
40.125000 -21.375000 23.915901
39.550000 -20.171875 23.915901
38.925000 -18.640625 23.915901
38.625000 -17.546875 23.915901
38.300000 -16.203125 23.915901
38.275000 -14.718750 23.915901
38.300000 -13.375000 23.915901
37.650000 -12.156250 23.915901
37.025000 -10.781250 23.915901
37.000000 -9.156250 23.915901
37.100000 -7.843750 23.915901
39.850000 -21.046875 24.069037
39.300000 -19.765625 24.069037
38.925000 -18.500000 24.069037
38.625000 -17.375000 24.069037
38.350000 -15.765625 24.069037
38.150000 -14.546875 24.069037
38.125000 -13.093750 24.069037
37.625000 -11.640625 24.069037
37.025000 -10.390625 24.069037
37.025000 -9.171875 24.069037
37.200000 -7.781250 24.069037
39.700000 -20.968750 24.196006
39.150000 -19.828125 24.196006
38.925000 -18.437500 24.196006
38.650000 -16.953125 24.196006
38.350000 -15.625000 24.196006
38.200000 -14.484375 24.196006
38.100000 -13.031250 24.196006
37.600000 -11.609375 24.196006
37.100000 -10.500000 24.196006
37.100000 -8.828125 24.196006
37.250000 -7.687500 24.196006
39.650000 -20.843750 24.347119
39.000000 -19.640625 24.347119
38.800000 -18.281250 24.347119
38.550000 -16.671875 24.347119
38.275000 -15.187500 24.347119
38.175000 -14.093750 24.347119
38.075000 -12.906250 24.347119
37.550000 -11.468750 24.347119
37.000000 -9.906250 24.347119
37.000000 -8.781250 24.347119
37.225000 -7.437500 24.347119
40.025000 -21.796875 24.476636
39.525000 -20.406250 24.476636
38.950000 -18.843750 24.476636
38.675000 -17.625000 24.476636
38.300000 -16.218750 24.476636
38.150000 -14.921875 24.476636
38.150000 -13.828125 24.476636
37.725000 -12.468750 24.476636
37.225000 -11.046875 24.476636
37.025000 -9.343750 24.476636
37.075000 -8.531250 24.476636
37.625000 -7.015625 24.476636
39.575000 -21.171875 24.630305
39.150000 -19.546875 24.630305
39.025000 -18.468750 24.630305
38.775000 -17.078125 24.630305
38.200000 -15.484375 24.630305
38.100000 -14.296875 24.630305
38.200000 -13.062500 24.630305
37.625000 -11.906250 24.630305
37.075000 -10.234375 24.630305
37.025000 -9.093750 24.630305
37.225000 -7.703125 24.630305
39.650000 -20.828125 24.759181
39.050000 -19.296875 24.759181
38.675000 -18.375000 24.759181
38.350000 -16.843750 24.759181
38.050000 -15.312500 24.759181
38.100000 -14.109375 24.759181
38.150000 -12.968750 24.759181
37.600000 -11.531250 24.759181
37.125000 -10.234375 24.759181
37.050000 -8.812500 24.759181
37.225000 -7.703125 24.759181
39.600000 -20.781250 24.912155
39.000000 -19.218750 24.912155
38.500000 -17.937500 24.912155
38.325000 -16.968750 24.912155
38.075000 -15.546875 24.912155
38.000000 -14.125000 24.912155
38.150000 -12.625000 24.912155
37.575000 -11.687500 24.912155
37.050000 -9.953125 24.912155
37.000000 -9.078125 24.912155
37.300000 -7.609375 24.912155
39.650000 -20.500000 25.050393
38.975000 -19.203125 25.050393
38.375000 -17.671875 25.050393
37.675000 -15.312500 25.050393
37.800000 -14.015625 25.050393
38.000000 -12.625000 25.050393
37.525000 -11.140625 25.050393
37.025000 -9.890625 25.050393
37.000000 -8.609375 25.050393
37.375000 -7.187500 25.050393
39.275000 -20.578125 25.180453
39.125000 -19.046875 25.180453
37.675000 -15.187500 25.180453
37.850000 -13.687500 25.180453
38.050000 -12.265625 25.180453
37.600000 -10.828125 25.180453
37.100000 -9.875000 25.180453
37.075000 -8.531250 25.180453
37.475000 -7.015625 25.180453
39.550000 -21.500000 25.332436
39.275000 -20.406250 25.332436
38.625000 -18.968750 25.332436
37.950000 -17.671875 25.332436
37.675000 -16.265625 25.332436
37.800000 -14.890625 25.332436
37.975000 -13.343750 25.332436
38.150000 -12.125000 25.332436
37.725000 -10.765625 25.332436
37.075000 -9.421875 25.332436
37.050000 -8.218750 25.332436
37.625000 -7.187500 25.332436
39.375000 -21.250000 25.472929
38.975000 -20.078125 25.472929
38.400000 -18.406250 25.472929
37.775000 -17.265625 25.472929
37.600000 -16.250000 25.472929
37.800000 -14.703125 25.472929
38.025000 -13.453125 25.472929
38.025000 -12.156250 25.472929
37.575000 -10.468750 25.472929
37.075000 -9.562500 25.472929
39.350000 -21.500000 25.603355
39.025000 -20.265625 25.603355
38.450000 -18.531250 25.603355
37.825000 -17.375000 25.603355
37.675000 -15.781250 25.603355
37.725000 -14.937500 25.603355
37.950000 -13.328125 25.603355
38.025000 -12.281250 25.603355
37.600000 -10.875000 25.603355
37.075000 -9.562500 25.603355
39.400000 -20.921875 25.751766
38.825000 -19.843750 25.751766
38.225000 -18.406250 25.751766
37.675000 -17.015625 25.751766
37.650000 -15.703125 25.751766
37.750000 -14.234375 25.751766
37.850000 -13.343750 25.751766
37.775000 -11.687500 25.751766
37.450000 -10.265625 25.751766
37.050000 -9.375000 25.751766
37.075000 -8.062500 25.751766
39.500000 -22.140625 25.894287
39.350000 -20.984375 25.894287
38.725000 -19.359375 25.894287
38.100000 -18.125000 25.894287
37.750000 -16.640625 25.894287
37.650000 -15.531250 25.894287
37.625000 -14.375000 25.894287
38.000000 -13.140625 25.894287
37.850000 -11.546875 25.894287
37.250000 -10.062500 25.894287
36.950000 -9.062500 25.894287
37.200000 -7.656250 25.894287
39.175000 -20.578125 26.027203
38.750000 -19.281250 26.027203
37.725000 -16.437500 26.027203
37.725000 -15.000000 26.027203
37.700000 -14.046875 26.027203
38.050000 -12.843750 26.027203
37.775000 -11.375000 26.027203
37.150000 -9.937500 26.027203
36.950000 -8.625000 26.027203
37.375000 -7.375000 26.027203
39.175000 -20.531250 26.176416
38.725000 -19.125000 26.176416
37.575000 -16.234375 26.176416
37.700000 -14.968750 26.176416
37.625000 -13.578125 26.176416
37.975000 -12.671875 26.176416
37.750000 -10.875000 26.176416
37.125000 -9.750000 26.176416
36.925000 -8.750000 26.176416
37.375000 -7.093750 26.176416
39.275000 -21.437500 26.315406
38.875000 -20.312500 26.315406
38.675000 -18.671875 26.315406
37.275000 -15.875000 26.315406
37.425000 -15.093750 26.315406
37.750000 -13.406250 26.315406
38.050000 -12.031250 26.315406
37.700000 -10.984375 26.315406
36.975000 -9.359375 26.315406
39.275000 -21.468750 26.456267
38.850000 -20.250000 26.456267
38.625000 -18.828125 26.456267
36.800000 -16.031250 26.456267
36.975000 -14.687500 26.456267
37.650000 -13.656250 26.456267
38.050000 -12.328125 26.456267
37.725000 -10.843750 26.456267
36.975000 -9.406250 26.456267
39.225000 -21.609375 26.596093
38.775000 -19.921875 26.596093
38.750000 -18.718750 26.596093
37.200000 -16.218750 26.596093
37.350000 -14.781250 26.596093
37.525000 -13.406250 26.596093
38.125000 -11.937500 26.596093
36.950000 -9.500000 26.596093
36.925000 -8.000000 26.596093
39.225000 -21.156250 26.737580
38.775000 -19.656250 26.737580
38.875000 -18.562500 26.737580
37.050000 -15.750000 26.737580
37.200000 -14.687500 26.737580
37.550000 -13.000000 26.737580
37.900000 -11.734375 26.737580
37.425000 -10.578125 26.737580
36.900000 -9.359375 26.737580
37.025000 -8.156250 26.737580
39.400000 -22.015625 26.877097
39.325000 -20.625000 26.877097
38.725000 -19.375000 26.877097
37.100000 -16.765625 26.877097
37.000000 -15.421875 26.877097
37.200000 -14.078125 26.877097
37.575000 -12.812500 26.877097
37.650000 -11.640625 26.877097
37.250000 -10.312500 26.877097
36.925000 -9.078125 26.877097
37.100000 -7.671875 26.877097
38.975000 -20.671875 27.016824
38.600000 -19.250000 27.016824
37.025000 -16.468750 27.016824
36.950000 -15.375000 27.016824
37.175000 -13.953125 27.016824
37.775000 -12.812500 27.016824
37.600000 -11.062500 27.016824
36.950000 -10.046875 27.016824
36.850000 -8.453125 27.016824
37.300000 -7.625000 27.016824
39.375000 -21.546875 27.158230
38.925000 -20.531250 27.158230
38.550000 -19.156250 27.158230
37.075000 -16.234375 27.158230
37.000000 -14.765625 27.158230
37.225000 -13.937500 27.158230
37.325000 -12.390625 27.158230
37.075000 -10.781250 27.158230
36.850000 -9.765625 27.158230
36.850000 -8.140625 27.158230
37.425000 -7.250000 27.158230
39.325000 -21.093750 27.298868
38.650000 -19.781250 27.298868
38.225000 -18.718750 27.298868
37.425000 -17.078125 27.298868
36.900000 -15.734375 27.298868
36.925000 -14.390625 27.298868
37.375000 -13.437500 27.298868
37.350000 -11.625000 27.298868
36.950000 -10.703125 27.298868
36.850000 -9.265625 27.298868
36.900000 -7.984375 27.298868
39.025000 -20.546875 27.438474
38.575000 -19.375000 27.438474
38.500000 -18.234375 27.438474
36.900000 -14.937500 27.438474
37.025000 -13.703125 27.438474
37.125000 -12.468750 27.438474
36.975000 -11.546875 27.438474
36.800000 -9.765625 27.438474
36.775000 -8.500000 27.438474
37.150000 -7.656250 27.438474
39.125000 -21.515625 27.578908
38.550000 -20.000000 27.578908
38.400000 -18.734375 27.578908
37.775000 -17.375000 27.578908
37.075000 -15.921875 27.578908
36.975000 -14.500000 27.578908
37.175000 -13.625000 27.578908
37.100000 -11.906250 27.578908
36.850000 -10.968750 27.578908
36.750000 -9.515625 27.578908
36.825000 -8.312500 27.578908
38.700000 -22.296875 27.722208
38.950000 -21.109375 27.722208
38.525000 -19.687500 27.722208
38.100000 -18.390625 27.722208
37.475000 -17.031250 27.722208
37.025000 -15.406250 27.722208
37.100000 -14.015625 27.722208
37.175000 -13.125000 27.722208
36.950000 -11.750000 27.722208
36.775000 -10.093750 27.722208
36.700000 -8.984375 27.722208
36.950000 -7.828125 27.722208
39.225000 -21.671875 27.859513
38.675000 -20.156250 27.859513
38.425000 -19.171875 27.859513
38.150000 -17.593750 27.859513
37.525000 -16.203125 27.859513
37.075000 -14.703125 27.859513
37.000000 -13.406250 27.859513
36.950000 -12.328125 27.859513
36.800000 -10.859375 27.859513
36.700000 -9.718750 27.859513
38.550000 -19.906250 27.999472
38.325000 -18.578125 27.999472
38.000000 -17.281250 27.999472
37.500000 -15.968750 27.999472
37.225000 -14.390625 27.999472
37.100000 -13.515625 27.999472
36.850000 -12.000000 27.999472
36.750000 -10.640625 27.999472
36.725000 -9.078125 27.999472
36.800000 -8.187500 27.999472
39.100000 -22.031250 28.138922
38.900000 -21.093750 28.138922
38.475000 -19.578125 28.138922
38.175000 -18.328125 28.138922
37.775000 -16.890625 28.138922
37.475000 -15.656250 28.138922
37.150000 -14.250000 28.138922
36.875000 -13.109375 28.138922
36.750000 -11.750000 28.138922
36.625000 -10.296875 28.138922
36.575000 -9.078125 28.138922
36.850000 -7.734375 28.138922
38.700000 -20.500000 28.282368
38.425000 -19.562500 28.282368
38.075000 -18.125000 28.282368
37.675000 -16.453125 28.282368
37.475000 -15.375000 28.282368
37.175000 -14.125000 28.282368
36.800000 -12.484375 28.282368
36.675000 -11.265625 28.282368
36.550000 -10.218750 28.282368
36.550000 -9.000000 28.282368
36.950000 -7.562500 28.282368
39.050000 -21.421875 28.435173
38.500000 -20.375000 28.435173
38.275000 -19.125000 28.435173
37.950000 -17.781250 28.435173
37.575000 -16.046875 28.435173
37.175000 -15.093750 28.435173
36.900000 -13.765625 28.435173
36.725000 -12.312500 28.435173
36.575000 -11.046875 28.435173
36.500000 -9.687500 28.435173
38.850000 -21.156250 28.560308
38.450000 -19.687500 28.560308
38.100000 -18.640625 28.560308
37.725000 -17.390625 28.560308
37.425000 -15.953125 28.560308
37.100000 -14.531250 28.560308
36.800000 -13.125000 28.560308
36.625000 -11.718750 28.560308
36.500000 -10.281250 28.560308
36.450000 -8.890625 28.560308
36.600000 -7.890625 28.560308
39.400000 -22.093750 28.700316
38.675000 -20.890625 28.700316
38.400000 -19.375000 28.700316
38.050000 -18.000000 28.700316
37.675000 -16.921875 28.700316
37.400000 -15.328125 28.700316
37.075000 -14.156250 28.700316
36.775000 -12.484375 28.700316
36.650000 -11.296875 28.700316
36.425000 -10.015625 28.700316
36.375000 -8.625000 28.700316
36.775000 -7.250000 28.700316
38.475000 -20.250000 28.841865
38.225000 -19.000000 28.841865
37.900000 -17.281250 28.841865
37.550000 -16.109375 28.841865
37.175000 -14.875000 28.841865
36.850000 -13.343750 28.841865
36.600000 -12.187500 28.841865
36.425000 -10.843750 28.841865
36.300000 -9.359375 28.841865
36.450000 -8.140625 28.841865
38.900000 -20.734375 28.981091
38.375000 -19.281250 28.981091
38.075000 -17.968750 28.981091
37.675000 -16.812500 28.981091
37.475000 -15.609375 28.981091
37.150000 -14.187500 28.981091
36.775000 -13.093750 28.981091
36.650000 -11.609375 28.981091
36.350000 -9.875000 28.981091
36.275000 -9.015625 28.981091
36.600000 -7.421875 28.981091
38.475000 -20.015625 29.132743
38.250000 -19.046875 29.132743
37.925000 -17.765625 29.132743
37.525000 -16.375000 29.132743
37.150000 -15.125000 29.132743
36.875000 -13.578125 29.132743
36.650000 -12.171875 29.132743
36.425000 -10.812500 29.132743
36.275000 -9.656250 29.132743
38.425000 -19.875000 29.258540
38.125000 -18.718750 29.258540
37.825000 -17.015625 29.258540
37.575000 -15.843750 29.258540
37.175000 -14.343750 29.258540
36.725000 -12.968750 29.258540
36.500000 -12.140625 29.258540
36.300000 -10.375000 29.258540
36.275000 -9.421875 29.258540
36.475000 -8.015625 29.258540
38.400000 -19.546875 29.404457
38.050000 -18.062500 29.404457
37.725000 -16.906250 29.404457
37.525000 -15.843750 29.404457
37.125000 -13.984375 29.404457
36.700000 -13.031250 29.404457
36.450000 -11.593750 29.404457
36.275000 -10.296875 29.404457
36.300000 -9.015625 29.404457
36.575000 -7.687500 29.404457
38.350000 -19.578125 29.541142
38.050000 -17.906250 29.541142
37.650000 -17.015625 29.541142
37.350000 -15.390625 29.541142
37.000000 -14.187500 29.541142
36.675000 -12.781250 29.541142
36.475000 -11.625000 29.541142
36.275000 -10.343750 29.541142
36.250000 -8.781250 29.541142
36.550000 -7.546875 29.541142
38.300000 -20.687500 29.693280
38.300000 -19.093750 29.693280
38.000000 -17.703125 29.693280
37.600000 -16.453125 29.693280
37.275000 -15.406250 29.693280
36.900000 -13.859375 29.693280
36.575000 -12.656250 29.693280
36.375000 -11.109375 29.693280
36.250000 -10.125000 29.693280
36.225000 -8.437500 29.693280
36.625000 -7.156250 29.693280
38.375000 -20.203125 29.821801
38.200000 -19.250000 29.821801
37.875000 -17.453125 29.821801
37.550000 -16.593750 29.821801
37.150000 -15.000000 29.821801
36.750000 -13.531250 29.821801
36.525000 -12.546875 29.821801
36.350000 -10.984375 29.821801
36.125000 -9.734375 29.821801
38.400000 -19.796875 29.969687
38.100000 -18.328125 29.969687
37.725000 -17.109375 29.969687
37.500000 -16.078125 29.969687
37.150000 -14.796875 29.969687
36.700000 -13.203125 29.969687
36.500000 -12.046875 29.969687
36.300000 -10.484375 29.969687
36.200000 -9.062500 29.969687
36.350000 -7.718750 29.969687
38.325000 -19.359375 30.103589
38.000000 -18.000000 30.103589
37.625000 -16.781250 30.103589
37.350000 -15.375000 30.103589
37.000000 -14.187500 30.103589
36.625000 -12.765625 30.103589
36.500000 -11.734375 30.103589
36.325000 -10.250000 30.103589
36.250000 -8.765625 30.103589
36.475000 -7.437500 30.103589
38.375000 -20.218750 30.243743
38.150000 -18.843750 30.243743
37.800000 -17.593750 30.243743
37.425000 -16.437500 30.243743
37.075000 -14.671875 30.243743
36.700000 -13.750000 30.243743
36.525000 -12.359375 30.243743
36.400000 -10.953125 30.243743
36.250000 -9.625000 30.243743
38.375000 -21.031250 30.385534
38.275000 -19.812500 30.385534
38.000000 -18.437500 30.385534
37.675000 -17.015625 30.385534
37.500000 -15.875000 30.385534
37.100000 -14.468750 30.385534
36.575000 -12.718750 30.385534
36.425000 -11.953125 30.385534
36.300000 -10.531250 30.385534
36.225000 -9.031250 30.385534
36.425000 -7.703125 30.385534
39.175000 -21.953125 30.534389
38.500000 -20.640625 30.534389
38.200000 -19.546875 30.534389
37.825000 -17.859375 30.534389
37.500000 -16.812500 30.534389
37.250000 -15.343750 30.534389
36.850000 -14.015625 30.534389
36.550000 -12.343750 30.534389
36.400000 -11.281250 30.534389
36.250000 -10.015625 30.534389
36.200000 -8.750000 30.534389
36.600000 -7.312500 30.534389
38.225000 -20.000000 30.664052
38.075000 -18.812500 30.664052
37.775000 -17.687500 30.664052
37.425000 -16.218750 30.664052
37.000000 -14.859375 30.664052
36.675000 -13.468750 30.664052
36.550000 -12.062500 30.664052
36.375000 -10.843750 30.664052
36.250000 -9.671875 30.664052
36.300000 -8.062500 30.664052
38.675000 -22.328125 30.813080
38.725000 -21.343750 30.813080
38.225000 -19.640625 30.813080
37.975000 -18.531250 30.813080
37.650000 -16.906250 30.813080
37.300000 -15.843750 30.813080
36.900000 -14.562500 30.813080
36.550000 -13.109375 30.813080
36.425000 -11.562500 30.813080
36.275000 -10.484375 30.813080
36.200000 -9.031250 30.813080
36.375000 -8.093750 30.813080
38.375000 -20.656250 30.955873
38.125000 -19.578125 30.955873
37.850000 -17.890625 30.955873
37.550000 -16.906250 30.955873
37.350000 -15.562500 30.955873
36.925000 -13.734375 30.955873
36.550000 -12.671875 30.955873
36.425000 -11.296875 30.955873
36.275000 -10.093750 30.955873
36.200000 -8.640625 30.955873
36.550000 -7.671875 30.955873
38.350000 -20.578125 31.098541
38.150000 -19.109375 31.098541
37.825000 -17.890625 31.098541
37.400000 -16.578125 31.098541
37.125000 -15.265625 31.098541
36.850000 -13.500000 31.098541
36.575000 -12.406250 31.098541
36.375000 -11.312500 31.098541
36.225000 -9.859375 31.098541
36.250000 -8.296875 31.098541
36.800000 -7.265625 31.098541
38.250000 -20.156250 31.232666
38.125000 -18.765625 31.232666
37.775000 -17.375000 31.232666
37.175000 -15.921875 31.232666
36.800000 -14.921875 31.232666
36.700000 -13.468750 31.232666
36.525000 -12.265625 31.232666
36.375000 -10.640625 31.232666
36.225000 -9.718750 31.232666
38.575000 -21.156250 31.373505
38.225000 -20.156250 31.373505
38.025000 -18.531250 31.373505
38.050000 -17.265625 31.373505
36.650000 -14.609375 31.373505
36.625000 -13.187500 31.373505
36.500000 -11.906250 31.373505
36.375000 -10.750000 31.373505
36.275000 -9.359375 31.373505
36.375000 -8.171875 31.373505
38.800000 -20.812500 31.514790
38.250000 -19.796875 31.514790
37.975000 -18.265625 31.514790
36.600000 -15.687500 31.514790
36.625000 -14.437500 31.514790
36.725000 -12.921875 31.514790
36.600000 -11.828125 31.514790
36.425000 -10.484375 31.514790
36.325000 -8.906250 31.514790
36.575000 -7.718750 31.514790
38.725000 -20.562500 31.658860
38.275000 -19.421875 31.658860
37.900000 -17.843750 31.658860
37.075000 -16.734375 31.658860
36.550000 -15.515625 31.658860
36.650000 -13.875000 31.658860
36.725000 -12.859375 31.658860
36.550000 -11.265625 31.658860
36.300000 -9.875000 31.658860
36.250000 -9.015625 31.658860
36.675000 -7.765625 31.658860
38.900000 -21.531250 31.793416
38.475000 -20.328125 31.793416
36.575000 -15.093750 31.793416
36.800000 -13.531250 31.793416
36.875000 -12.562500 31.793416
36.675000 -11.281250 31.793416
36.475000 -9.437500 31.793416
38.750000 -21.140625 31.936906
38.325000 -19.984375 31.936906
38.050000 -18.375000 31.936906
36.600000 -15.875000 31.936906
36.650000 -14.343750 31.936906
37.075000 -13.250000 31.936906
37.075000 -11.812500 31.936906
36.575000 -10.406250 31.936906
36.450000 -9.031250 31.936906
36.675000 -7.843750 31.936906
38.875000 -21.937500 32.076054
38.450000 -20.468750 32.076054
38.250000 -18.828125 32.076054
37.000000 -16.156250 32.076054
36.800000 -15.187500 32.076054
36.925000 -13.671875 32.076054
37.600000 -12.312500 32.076054
36.500000 -9.843750 32.076054
36.500000 -8.281250 32.076054
37.150000 -7.109375 32.076054
39.025000 -22.531250 32.218204
38.825000 -21.015625 32.218204
38.350000 -19.703125 32.218204
38.050000 -18.218750 32.218204
36.825000 -15.828125 32.218204
37.000000 -14.453125 32.218204
37.100000 -13.250000 32.218204
37.225000 -11.718750 32.218204
36.975000 -10.265625 32.218204
36.575000 -8.968750 32.218204
36.700000 -7.562500 32.218204
38.875000 -21.953125 32.354584
38.550000 -20.656250 32.354584
38.400000 -19.046875 32.354584
37.800000 -17.546875 32.354584
37.125000 -16.281250 32.354584
37.000000 -15.125000 32.354584
37.200000 -13.765625 32.354584
37.675000 -12.750000 32.354584
37.450000 -11.234375 32.354584
36.750000 -9.890625 32.354584
36.625000 -8.359375 32.354584
37.150000 -7.390625 32.354584
39.100000 -22.218750 32.499230
38.950000 -20.921875 32.499230
38.375000 -19.781250 32.499230
38.125000 -18.500000 32.499230
37.425000 -17.015625 32.499230
36.825000 -15.703125 32.499230
37.000000 -14.250000 32.499230
37.325000 -13.203125 32.499230
37.450000 -11.781250 32.499230
37.075000 -10.234375 32.499230
36.675000 -9.328125 32.499230
36.750000 -7.562500 32.499230
38.650000 -20.328125 32.638402
38.400000 -18.984375 32.638402
37.950000 -17.859375 32.638402
37.450000 -16.609375 32.638402
37.650000 -15.421875 32.638402
37.675000 -13.906250 32.638402
37.575000 -12.421875 32.638402
37.400000 -11.062500 32.638402
36.825000 -9.734375 32.638402
36.650000 -8.734375 32.638402
37.100000 -7.203125 32.638402
39.000000 -21.093750 32.784100
38.600000 -19.906250 32.784100
38.250000 -18.609375 32.784100
37.525000 -17.078125 32.784100
36.775000 -15.843750 32.784100
36.975000 -14.421875 32.784100
37.625000 -13.140625 32.784100
37.650000 -11.906250 32.784100
37.275000 -10.609375 32.784100
36.850000 -9.296875 32.784100
36.800000 -8.187500 32.784100
39.000000 -20.593750 32.919710
38.575000 -19.187500 32.919710
38.600000 -18.109375 32.919710
37.600000 -15.406250 32.919710
37.775000 -14.156250 32.919710
37.750000 -12.421875 32.919710
37.475000 -11.078125 32.919710
37.025000 -9.765625 32.919710
36.775000 -8.515625 32.919710
37.075000 -7.406250 32.919710
39.200000 -21.093750 33.061705
38.725000 -19.906250 33.061705
38.425000 -18.250000 33.061705
37.675000 -17.062500 33.061705
37.275000 -15.906250 33.061705
37.550000 -14.687500 33.061705
37.875000 -13.187500 33.061705
37.675000 -11.546875 33.061705
37.175000 -10.515625 33.061705
36.950000 -9.187500 33.061705
36.900000 -7.703125 33.061705
39.575000 -21.812500 33.201970
39.300000 -20.546875 33.201970
38.650000 -18.843750 33.201970
38.050000 -17.750000 33.201970
37.425000 -16.484375 33.201970
37.550000 -15.140625 33.201970
37.900000 -13.812500 33.201970
38.075000 -12.390625 33.201970
37.600000 -10.859375 33.201970
36.950000 -10.000000 33.201970
36.850000 -8.625000 33.201970
37.250000 -7.421875 33.201970
39.300000 -21.125000 33.342610
38.725000 -19.640625 33.342610
38.550000 -18.437500 33.342610
37.925000 -17.078125 33.342610
37.250000 -15.937500 33.342610
37.425000 -14.203125 33.342610
37.875000 -13.093750 33.342610
37.675000 -11.703125 33.342610
37.150000 -10.656250 33.342610
36.950000 -9.296875 33.342610
36.900000 -7.796875 33.342610
39.900000 -21.625000 33.479455
38.675000 -18.937500 33.479455
38.050000 -17.734375 33.479455
37.500000 -16.359375 33.479455
37.625000 -14.828125 33.479455
37.900000 -13.781250 33.479455
38.075000 -12.296875 33.479455
37.600000 -11.015625 33.479455
36.950000 -9.921875 33.479455
36.850000 -8.187500 33.479455
37.275000 -7.109375 33.479455
39.550000 -20.843750 33.622122
38.950000 -19.953125 33.622122
38.750000 -18.500000 33.622122
37.500000 -15.687500 33.622122
37.775000 -14.453125 33.622122
38.000000 -12.921875 33.622122
37.600000 -11.734375 33.622122
37.075000 -10.203125 33.622122
36.925000 -8.812500 33.622122
36.975000 -7.796875 33.622122
39.525000 -20.453125 33.763122
38.825000 -19.109375 33.763122
38.250000 -17.671875 33.763122
37.625000 -16.656250 33.763122
37.625000 -15.203125 33.763122
37.975000 -13.890625 33.763122
38.025000 -12.406250 33.763122
37.475000 -11.343750 33.763122
36.950000 -9.671875 33.763122
37.000000 -8.718750 33.763122
37.400000 -7.156250 33.763122
40.175000 -21.671875 33.905482
38.875000 -19.109375 33.905482
38.300000 -17.531250 33.905482
37.650000 -16.015625 33.905482
37.850000 -15.062500 33.905482
38.150000 -13.500000 33.905482
37.675000 -12.562500 33.905482
37.200000 -10.875000 33.905482
36.950000 -9.390625 33.905482
36.975000 -8.500000 33.905482
39.025000 -20.031250 34.041726
38.775000 -18.734375 34.041726
38.275000 -17.093750 34.041726
37.925000 -15.984375 34.041726
38.075000 -14.375000 34.041726
38.200000 -13.515625 34.041726
37.725000 -11.765625 34.041726
37.125000 -10.250000 34.041726
37.025000 -9.156250 34.041726
37.075000 -7.984375 34.041726
39.775000 -21.046875 34.185952
39.050000 -19.593750 34.185952
38.800000 -17.984375 34.185952
38.350000 -17.031250 34.185952
38.050000 -15.562500 34.185952
38.125000 -14.250000 34.185952
38.025000 -12.984375 34.185952
37.525000 -11.703125 34.185952
37.075000 -10.390625 34.185952
36.975000 -8.750000 34.185952
37.125000 -7.843750 34.185952
40.275000 -21.437500 34.326263
39.525000 -20.406250 34.326263
38.900000 -18.921875 34.326263
38.700000 -17.421875 34.326263
38.325000 -16.218750 34.326263
38.175000 -15.156250 34.326263
38.200000 -13.484375 34.326263
37.725000 -12.000000 34.326263
37.175000 -10.640625 34.326263
37.025000 -9.609375 34.326263
37.075000 -8.437500 34.326263
39.000000 -19.609375 34.468656
38.825000 -18.281250 34.468656
38.550000 -17.125000 34.468656
38.250000 -15.718750 34.468656
38.150000 -14.281250 34.468656
38.125000 -13.031250 34.468656
37.625000 -11.906250 34.468656
37.050000 -10.171875 34.468656
36.950000 -9.015625 34.468656
37.100000 -7.484375 34.468656
39.875000 -21.750000 34.600443
39.450000 -20.328125 34.600443
38.975000 -19.156250 34.600443
38.725000 -17.734375 34.600443
38.425000 -16.437500 34.600443
38.225000 -15.312500 34.600443
38.150000 -13.812500 34.600443
37.700000 -12.609375 34.600443
37.125000 -11.250000 34.600443
36.950000 -9.812500 34.600443
37.075000 -8.562500 34.600443
37.500000 -7.078125 34.600443
39.750000 -20.828125 34.747030
39.075000 -19.437500 34.747030
38.825000 -18.359375 34.747030
38.525000 -17.046875 34.747030
38.225000 -15.546875 34.747030
38.100000 -14.218750 34.747030
37.975000 -13.000000 34.747030
37.500000 -11.375000 34.747030
37.150000 -10.000000 34.747030
37.125000 -9.046875 34.747030
37.200000 -7.562500 34.747030
40.075000 -21.796875 34.887559
39.575000 -20.359375 34.887559
39.025000 -18.875000 34.887559
38.725000 -17.328125 34.887559
38.400000 -16.359375 34.887559
38.325000 -15.125000 34.887559
38.300000 -13.453125 34.887559
37.725000 -12.390625 34.887559
37.150000 -10.703125 34.887559
37.000000 -9.734375 34.887559
39.600000 -20.968750 35.028605
39.025000 -19.875000 35.028605
38.850000 -18.453125 35.028605
38.550000 -16.843750 35.028605
38.250000 -15.531250 35.028605
38.150000 -14.234375 35.028605
38.125000 -13.171875 35.028605
37.625000 -11.718750 35.028605
37.050000 -10.468750 35.028605
37.075000 -9.296875 35.028605
37.225000 -7.562500 35.028605
39.725000 -20.843750 35.165724
39.125000 -19.187500 35.165724
38.850000 -18.218750 35.165724
38.550000 -16.906250 35.165724
38.275000 -15.250000 35.165724
38.150000 -14.281250 35.165724
38.050000 -12.531250 35.165724
37.550000 -11.062500 35.165724
37.075000 -10.062500 35.165724
37.050000 -8.562500 35.165724
37.300000 -7.625000 35.165724
39.450000 -20.546875 35.306197
38.975000 -19.109375 35.306197
38.825000 -17.718750 35.306197
38.500000 -16.312500 35.306197
38.125000 -15.218750 35.306197
38.125000 -13.750000 35.306197
37.925000 -12.328125 35.306197
37.350000 -11.156250 35.306197
37.025000 -9.671875 35.306197
37.075000 -8.625000 35.306197
37.500000 -7.250000 35.306197
39.650000 -21.437500 35.448027
39.325000 -20.093750 35.448027
38.975000 -18.546875 35.448027
38.275000 -17.500000 35.448027
37.850000 -15.984375 35.448027
38.050000 -14.515625 35.448027
38.150000 -13.437500 35.448027
37.775000 -12.125000 35.448027
37.200000 -10.750000 35.448027
37.025000 -9.343750 35.448027
39.600000 -21.125000 35.602414
39.100000 -19.750000 35.602414
38.725000 -18.156250 35.602414
38.400000 -16.921875 35.602414
38.050000 -15.390625 35.602414
38.075000 -14.375000 35.602414
38.200000 -13.031250 35.602414
37.600000 -11.562500 35.602414
37.125000 -9.953125 35.602414
37.050000 -8.875000 35.602414
37.250000 -7.796875 35.602414
39.875000 -21.718750 35.731473
39.400000 -20.203125 35.731473
38.950000 -19.156250 35.731473
38.325000 -17.703125 35.731473
37.775000 -15.140625 35.731473
37.950000 -13.796875 35.731473
38.175000 -12.562500 35.731473
37.625000 -11.046875 35.731473
37.050000 -10.000000 35.731473
37.075000 -8.421875 35.731473
37.500000 -7.250000 35.731473
39.425000 -20.890625 35.868324
38.975000 -19.609375 35.868324
38.475000 -18.234375 35.868324
37.975000 -17.171875 35.868324
37.800000 -15.671875 35.868324
37.875000 -14.453125 35.868324
38.075000 -12.953125 35.868324
37.750000 -11.750000 35.868324
37.150000 -10.671875 35.868324
37.000000 -9.218750 35.868324
37.200000 -7.718750 35.868324
39.225000 -20.375000 36.007003
39.100000 -19.312500 36.007003
37.625000 -15.281250 36.007003
37.875000 -13.703125 36.007003
38.075000 -12.515625 36.007003
37.525000 -11.000000 36.007003
37.075000 -9.734375 36.007003
37.075000 -8.328125 36.007003
37.500000 -7.187500 36.007003
39.400000 -20.921875 36.152528
38.950000 -19.796875 36.152528
38.300000 -18.078125 36.152528
37.800000 -17.140625 36.152528
37.675000 -15.515625 36.152528
37.775000 -14.375000 36.152528
38.075000 -12.937500 36.152528
37.750000 -11.812500 36.152528
37.275000 -10.609375 36.152528
37.125000 -9.125000 36.152528
37.150000 -7.562500 36.152528
39.375000 -20.750000 36.288617
39.100000 -19.343750 36.288617
37.700000 -15.031250 36.288617
37.775000 -13.953125 36.288617
37.950000 -12.468750 36.288617
37.550000 -11.250000 36.288617
37.150000 -10.062500 36.288617
37.000000 -8.671875 36.288617
37.400000 -7.359375 36.288617
39.375000 -21.500000 36.429102
39.000000 -20.125000 36.429102
38.400000 -18.828125 36.429102
37.825000 -17.468750 36.429102
37.700000 -16.015625 36.429102
37.750000 -14.796875 36.429102
37.925000 -13.281250 36.429102
38.050000 -12.296875 36.429102
37.675000 -10.765625 36.429102
37.125000 -9.609375 36.429102
39.375000 -20.796875 36.571949
38.875000 -19.828125 36.571949
38.200000 -18.375000 36.571949
37.725000 -16.984375 36.571949
37.550000 -15.609375 36.571949
37.550000 -14.484375 36.571949
37.925000 -12.796875 36.571949
37.825000 -11.906250 36.571949
37.375000 -10.078125 36.571949
37.050000 -8.937500 36.571949
37.100000 -7.906250 36.571949
39.300000 -20.890625 36.710557
38.800000 -19.687500 36.710557
38.200000 -18.109375 36.710557
37.750000 -17.109375 36.710557
37.550000 -15.812500 36.710557
37.525000 -14.203125 36.710557
37.900000 -12.953125 36.710557
37.825000 -11.578125 36.710557
37.325000 -10.093750 36.710557
37.000000 -9.078125 36.710557
37.075000 -7.562500 36.710557
39.450000 -22.078125 36.850510
39.300000 -20.921875 36.850510
38.750000 -19.578125 36.850510
38.100000 -17.796875 36.850510
37.750000 -16.734375 36.850510
37.700000 -15.265625 36.850510
37.600000 -14.375000 36.850510
37.875000 -12.828125 36.850510
37.800000 -11.718750 36.850510
37.325000 -10.156250 36.850510
37.000000 -9.046875 36.850510
37.125000 -7.562500 36.850510
39.225000 -20.281250 36.990074
38.725000 -18.953125 36.990074
37.600000 -16.671875 36.990074
37.675000 -15.078125 36.990074
37.600000 -14.078125 36.990074
38.025000 -12.765625 36.990074
37.750000 -11.015625 36.990074
37.075000 -9.828125 36.990074
36.900000 -8.468750 36.990074
37.350000 -7.609375 36.990074
39.300000 -21.468750 37.143953
38.775000 -19.765625 37.143953
38.725000 -18.515625 37.143953
37.525000 -15.718750 37.143953
37.650000 -14.640625 37.143953
37.775000 -13.171875 37.143953
38.025000 -12.203125 37.143953
37.625000 -10.390625 37.143953
37.000000 -9.406250 37.143953
36.950000 -8.046875 37.143953
39.300000 -20.875000 37.271265
38.775000 -19.781250 37.271265
37.400000 -16.828125 37.271265
37.875000 -15.828125 37.271265
38.025000 -14.453125 37.271265
37.450000 -13.078125 37.271265
37.400000 -11.437500 37.271265
37.325000 -10.531250 37.271265
36.975000 -8.953125 37.271265
37.075000 -7.625000 37.271265
39.225000 -21.281250 37.413449
38.750000 -19.906250 37.413449
38.675000 -18.734375 37.413449
37.175000 -16.031250 37.413449
37.300000 -14.921875 37.413449
37.500000 -13.265625 37.413449
38.125000 -12.250000 37.413449
36.950000 -9.328125 37.413449
36.925000 -8.296875 37.413449
39.950000 -21.812500 37.552221
39.150000 -20.796875 37.552221
38.425000 -19.359375 37.552221
37.525000 -17.687500 37.552221
37.200000 -16.687500 37.552221
37.200000 -15.328125 37.552221
37.300000 -13.609375 37.552221
37.775000 -12.421875 37.552221
37.625000 -11.062500 37.552221
37.000000 -9.953125 37.552221
36.875000 -8.859375 37.552221
37.275000 -7.468750 37.552221
39.275000 -21.062500 37.692541
38.725000 -19.921875 37.692541
38.725000 -18.546875 37.692541
36.950000 -15.906250 37.692541
37.100000 -14.390625 37.692541
37.500000 -13.078125 37.692541
37.850000 -11.828125 37.692541
37.425000 -10.468750 37.692541
36.900000 -9.203125 37.692541
36.950000 -7.703125 37.692541
39.000000 -20.656250 37.833109
38.525000 -19.328125 37.833109
37.000000 -16.500000 37.833109
36.950000 -15.281250 37.833109
37.200000 -13.734375 37.833109
37.750000 -12.468750 37.833109
37.575000 -11.000000 37.833109
36.925000 -10.078125 37.833109
36.850000 -8.671875 37.833109
37.275000 -7.140625 37.833109
39.225000 -21.250000 37.986215
38.725000 -20.015625 37.986215
38.500000 -18.968750 37.986215
36.975000 -15.828125 37.986215
37.000000 -14.515625 37.986215
37.275000 -13.578125 37.986215
37.250000 -11.875000 37.986215
36.875000 -10.906250 37.986215
36.775000 -9.296875 37.986215
36.900000 -7.906250 37.986215
39.150000 -22.359375 38.125026
38.925000 -20.953125 38.125026
38.575000 -19.390625 38.125026
38.525000 -18.046875 38.125026
36.875000 -15.578125 38.125026
37.025000 -14.312500 38.125026
37.250000 -12.828125 38.125026
37.175000 -11.703125 38.125026
36.875000 -10.359375 38.125026
36.800000 -8.968750 38.125026
37.075000 -7.765625 38.125026
38.800000 -20.265625 38.266014
38.500000 -18.953125 38.266014
37.975000 -17.671875 38.266014
37.225000 -16.421875 38.266014
36.925000 -15.328125 38.266014
37.125000 -13.890625 38.266014
37.225000 -12.734375 38.266014
36.975000 -10.890625 38.266014
36.775000 -9.609375 38.266014
36.825000 -8.718750 38.266014
37.325000 -7.281250 38.266014
39.125000 -21.250000 38.393166
38.550000 -19.828125 38.393166
38.375000 -18.765625 38.393166
37.700000 -17.171875 38.393166
37.050000 -16.218750 38.393166
37.000000 -14.500000 38.393166
37.150000 -13.484375 38.393166
37.125000 -12.156250 38.393166
36.875000 -10.656250 38.393166
36.775000 -9.703125 38.393166
36.850000 -8.015625 38.393166
38.525000 -19.390625 38.536365
38.150000 -18.093750 38.536365
37.500000 -17.156250 38.536365
37.025000 -15.265625 38.536365
37.050000 -14.062500 38.536365
37.200000 -12.937500 38.536365
37.050000 -11.890625 38.536365
36.800000 -10.531250 38.536365
36.700000 -9.250000 38.536365
36.950000 -7.578125 38.536365
39.100000 -21.390625 38.684168
38.625000 -20.343750 38.684168
38.375000 -19.046875 38.684168
38.125000 -17.390625 38.684168
37.550000 -16.375000 38.684168
37.075000 -14.703125 38.684168
37.025000 -13.343750 38.684168
36.925000 -12.234375 38.684168
36.800000 -10.812500 38.684168
36.700000 -9.656250 38.684168
38.450000 -19.421875 38.825205
38.200000 -18.468750 38.825205
37.950000 -16.718750 38.825205
37.450000 -15.765625 38.825205
37.125000 -14.156250 38.825205
37.000000 -12.765625 38.825205
36.800000 -11.453125 38.825205
36.700000 -10.437500 38.825205
36.675000 -8.843750 38.825205
36.875000 -7.718750 38.825205
39.125000 -21.859375 38.967242
38.600000 -20.140625 38.967242
38.350000 -18.921875 38.967242
37.975000 -17.593750 38.967242
37.600000 -16.421875 38.967242
37.425000 -14.937500 38.967242
37.150000 -13.312500 38.967242
36.875000 -12.281250 38.967242
36.750000 -11.000000 38.967242
36.625000 -9.484375 38.967242
38.425000 -19.890625 39.098999
38.175000 -18.375000 39.098999
37.775000 -16.953125 39.098999
37.475000 -15.468750 39.098999
37.125000 -14.484375 39.098999
36.825000 -12.812500 39.098999
36.775000 -11.750000 39.098999
36.600000 -10.140625 39.098999
36.500000 -9.234375 39.098999
36.775000 -7.593750 39.098999
38.750000 -20.671875 39.248521
38.375000 -19.062500 39.248521
38.000000 -17.906250 39.248521
37.600000 -16.546875 39.248521
37.325000 -14.968750 39.248521
37.000000 -13.609375 39.248521
36.750000 -12.312500 39.248521
36.625000 -11.281250 39.248521
36.475000 -10.078125 39.248521
36.500000 -8.593750 39.248521
37.025000 -7.156250 39.248521
38.450000 -19.968750 39.388556
38.175000 -18.906250 39.388556
37.850000 -17.218750 39.388556
37.500000 -16.203125 39.388556
37.125000 -14.546875 39.388556
36.850000 -13.531250 39.388556
36.675000 -12.250000 39.388556
36.500000 -10.734375 39.388556
36.450000 -9.578125 39.388556
36.600000 -8.406250 39.388556
39.175000 -22.171875 39.531203
38.900000 -20.656250 39.531203
38.425000 -19.546875 39.531203
38.025000 -17.921875 39.531203
37.650000 -16.984375 39.531203
37.525000 -15.718750 39.531203
37.175000 -13.859375 39.531203
36.800000 -13.093750 39.531203
36.650000 -11.281250 39.531203
36.400000 -10.046875 39.531203
36.400000 -8.750000 39.531203
36.750000 -7.734375 39.531203
39.150000 -21.890625 39.663639
38.550000 -20.328125 39.663639
