41.000000 91.031250 0.109375
40.525000 92.156250 0.109375
40.025000 93.531250 0.109375
39.375000 93.640625 0.265033
40.450000 92.125000 0.404184
39.725000 93.171875 0.404184
41.350000 91.562500 0.558934
41.350000 91.640625 0.701222
41.275000 92.781250 0.701222
41.375000 91.671875 0.854441
41.375000 91.750000 0.993712
41.025000 93.062500 0.993712
39.700000 93.296875 1.149828
41.450000 91.703125 1.290744
41.450000 91.593750 1.446903
41.450000 91.390625 1.586337
41.350000 91.703125 1.727433
41.250000 93.000000 1.727433
41.350000 91.578125 1.886243
41.225000 92.937500 1.886243
41.225000 91.656250 2.022085
40.550000 93.281250 2.022085
41.150000 91.750000 2.175423
40.575000 93.359375 2.175423
41.400000 91.578125 2.331594
41.300000 93.171875 2.331594
41.600000 91.656250 2.471530
41.425000 92.968750 2.471530
41.600000 91.296875 2.612707
41.425000 92.734375 2.612707
41.625000 91.468750 2.767195
41.575000 91.796875 2.907461
41.050000 91.765625 3.060623
40.700000 93.187500 3.060623
41.625000 91.703125 3.204686
39.975000 93.109375 3.357525
40.500000 93.015625 3.498954
40.975000 91.906250 3.654797
40.825000 92.718750 3.654797
40.775000 91.500000 3.794583
40.575000 92.843750 3.794583
12.025000 129.468750 3.794583
40.975000 91.937500 3.950551
40.075000 93.375000 3.950551
40.500000 93.000000 4.089494
40.525000 93.187500 4.230900
41.800000 91.453125 4.384663
41.550000 91.562500 4.540199
41.325000 92.968750 4.540199
41.800000 91.406250 4.680443
41.650000 91.250000 4.840289
41.550000 92.484375 4.840289
41.775000 91.359375 4.975152
41.700000 92.828125 4.975152
41.125000 92.000000 5.116083
40.350000 93.156250 5.116083
41.200000 92.125000 5.275292
40.425000 93.343750 5.275292
41.200000 91.968750 5.414023
40.425000 93.265625 5.414023
41.375000 91.109375 5.567920
34.725000 103.265625 5.567920
41.500000 90.984375 5.714526
41.625000 91.468750 5.861835
41.525000 92.750000 5.861835
41.675000 91.515625 6.002945
41.525000 92.828125 6.002945
41.225000 92.015625 6.149324
40.425000 93.328125 6.149324
41.300000 91.875000 6.298081
40.500000 93.484375 6.298081
41.425000 91.796875 6.453775
41.600000 91.593750 6.598423
41.250000 93.156250 6.598423
41.050000 92.125000 6.748939
40.075000 93.218750 6.748939
41.425000 91.906250 6.888471
41.550000 91.453125 7.042674
41.175000 93.109375 7.042674
41.375000 91.984375 7.183473
41.025000 93.265625 7.183473
41.200000 91.171875 7.336858
40.800000 92.468750 7.336858
40.700000 93.546875 7.336858
41.525000 91.296875 7.476610
41.475000 92.921875 7.476610
41.350000 91.656250 7.633646
41.050000 93.125000 7.633646
40.675000 92.125000 7.772380
40.000000 93.718750 7.772380
40.700000 92.109375 7.912786
40.000000 93.234375 7.912786
40.700000 91.875000 8.083565
39.975000 93.468750 8.083565
40.525000 91.765625 8.225854
40.025000 93.031250 8.225854
40.525000 92.203125 8.364706
39.925000 93.625000 8.364706
40.425000 91.875000 8.506445
40.025000 93.265625 8.506445
40.575000 91.937500 8.666107
40.750000 93.203125 8.666107
41.200000 91.421875 8.812360
40.950000 92.640625 8.812360
40.600000 91.453125 8.952981
40.925000 92.750000 8.952981
40.550000 91.718750 9.106081
40.775000 93.203125 9.106081
40.525000 92.031250 9.245814
40.750000 92.968750 9.245814
40.375000 92.093750 9.400198
39.675000 93.281250 9.400198
40.525000 91.296875 9.541676
40.525000 92.562500 9.541676
40.250000 91.984375 9.694142
39.675000 93.500000 9.694142
40.975000 90.859375 9.847352
40.625000 92.328125 9.847352
40.100000 93.406250 9.847352
40.625000 91.328125 9.984854
40.575000 92.453125 9.984854
41.000000 93.671875 9.984854
34.700000 103.265625 9.984854
40.725000 91.062500 10.144828
40.575000 91.468750 10.284462
40.700000 92.781250 10.284462
40.600000 91.468750 10.424624
40.725000 92.828125 10.424624
40.875000 90.593750 10.577203
40.500000 92.046875 10.577203
39.675000 93.609375 10.577203
41.000000 91.031250 10.717678
40.575000 92.125000 10.717678
40.350000 93.546875 10.717678
34.825000 103.250000 10.717678
41.150000 91.046875 10.872739
41.000000 90.968750 11.011152
40.675000 92.390625 11.011152
40.725000 93.343750 11.011152
34.825000 103.312500 11.011152
41.000000 91.281250 11.164528
41.000000 90.906250 11.304158
40.850000 92.203125 11.304158
41.250000 93.531250 11.304158
41.125000 90.953125 11.459534
41.125000 90.984375 11.600376
34.550000 103.343750 11.600376
41.325000 91.671875 11.754571
39.325000 93.421875 11.894812
39.600000 93.468750 12.056011
41.075000 90.843750 12.192286
40.625000 92.406250 12.192286
40.175000 93.296875 12.192286
12.675000 128.343750 12.192286
41.075000 90.703125 12.346065
39.900000 93.562500 12.346065
41.225000 91.375000 12.497912
12.575000 128.250000 12.497912
41.450000 91.125000 12.641242
41.275000 91.671875 12.781758
41.025000 93.265625 12.781758
41.225000 91.843750 12.922554
41.200000 91.109375 13.077992
40.975000 92.156250 13.077992
40.550000 93.468750 13.077992
12.675000 129.281250 13.077992
41.200000 92.250000 13.233836
41.200000 92.062500 13.375474
41.400000 91.796875 13.526090
41.275000 93.015625 13.526090
41.400000 91.718750 13.665765
41.150000 93.109375 13.665765
41.500000 91.734375 13.815396
41.225000 93.125000 13.815396
41.200000 91.765625 13.960633
40.900000 93.296875 13.960633
39.875000 93.421875 14.104111
40.075000 93.531250 14.252618
41.250000 90.796875 14.413425
41.075000 92.125000 14.413425
40.675000 93.468750 14.413425
41.450000 90.859375 14.552850
41.125000 92.000000 14.552850
40.275000 93.296875 14.552850
41.425000 91.093750 14.693530
41.150000 92.046875 14.693530
40.525000 93.406250 14.693530
41.475000 91.156250 14.848132
41.175000 92.296875 14.848132
41.100000 93.671875 14.848132
41.650000 91.125000 14.987996
41.550000 90.984375 15.142722
34.625000 103.359375 15.142722
41.525000 91.406250 15.295445
41.450000 92.593750 15.295445
41.450000 90.828125 15.435364
41.175000 92.562500 15.435364
40.875000 93.531250 15.435364
41.025000 91.765625 15.577476
40.875000 93.343750 15.577476
41.775000 91.453125 15.730116
41.650000 91.437500 15.885562
41.400000 91.125000 16.026177
34.625000 103.468750 16.026177
41.450000 91.218750 16.167941
41.025000 92.203125 16.167941
40.750000 93.531250 16.167941
34.975000 103.250000 16.167941
41.150000 92.125000 16.325385
40.500000 93.500000 16.325385
41.125000 92.328125 16.464568
40.500000 93.656250 16.464568
41.325000 90.968750 16.618951
41.050000 92.531250 16.618951
40.925000 93.515625 16.618951
41.325000 91.140625 16.763796
34.800000 103.406250 16.763796
41.625000 91.234375 16.914948
41.650000 91.343750 17.054807
41.525000 92.562500 17.054807
41.550000 91.890625 17.202664
41.550000 93.062500 17.202664
12.000000 128.937500 17.202664
41.625000 91.703125 17.350312
41.425000 92.765625 17.350312
41.600000 91.968750 17.506257
41.375000 93.296875 17.506257
41.600000 91.921875 17.641688
41.350000 93.296875 17.641688
41.575000 91.750000 17.800231
41.450000 93.171875 17.800231
41.475000 91.203125 17.939403
41.450000 92.796875 17.939403
41.525000 91.593750 18.092675
41.425000 92.921875 18.092675
41.500000 91.671875 18.246062
41.350000 92.953125 18.246062
41.500000 91.375000 18.385192
41.550000 92.546875 18.385192
41.475000 91.375000 18.541929
41.575000 92.750000 18.541929
41.475000 91.609375 18.680475
41.250000 93.109375 18.680475
40.850000 92.078125 18.820773
40.825000 91.984375 18.977048
40.650000 91.953125 19.117348
39.950000 93.265625 19.117348
40.650000 92.406250 19.275248
39.925000 93.734375 19.275248
41.025000 91.093750 19.414072
40.725000 92.312500 19.414072
40.400000 93.765625 19.414072
12.650000 129.515625 19.414072
41.000000 91.140625 19.567414
40.625000 92.421875 19.567414
40.175000 93.890625 19.567414
41.050000 91.046875 19.714180
40.625000 92.437500 19.714180
40.725000 93.750000 19.714180
41.000000 91.015625 19.863283
40.600000 92.734375 19.863283
40.700000 93.562500 19.863283
34.750000 103.390625 19.863283
40.975000 91.000000 20.003297
40.575000 92.609375 20.003297
40.525000 93.515625 20.003297
34.850000 103.140625 20.003297
40.775000 91.125000 20.143854
40.375000 92.515625 20.143854
39.725000 93.656250 20.143854
40.275000 92.140625 20.299366
39.650000 93.656250 20.299366
40.950000 91.375000 20.452780
40.675000 92.578125 20.452780
40.650000 93.984375 20.452780
34.775000 103.281250 20.452780
40.350000 91.296875 20.595774
34.550000 103.156250 20.595774
40.650000 91.859375 20.744663
40.550000 93.015625 20.744663
40.450000 92.031250 20.885014
40.550000 93.390625 20.885014
40.850000 90.984375 21.032809
40.550000 92.515625 21.032809
40.400000 93.703125 21.032809
34.825000 103.359375 21.032809
40.700000 91.500000 21.180361
34.550000 103.218750 21.180361
40.750000 91.656250 21.335480
40.775000 92.546875 21.335480
40.750000 91.718750 21.474088
40.800000 93.062500 21.474088
12.075000 128.859375 21.474088
40.875000 91.031250 21.627853
40.475000 92.328125 21.627853
39.650000 93.718750 21.627853
40.950000 90.890625 21.769301
40.525000 92.609375 21.769301
39.975000 93.546875 21.769301
40.975000 91.484375 21.922566
34.700000 103.343750 21.922566
41.100000 91.421875 22.062722
40.925000 92.750000 22.062722
41.150000 91.906250 22.217458
41.025000 93.171875 22.217458
41.150000 91.468750 22.358632
41.025000 92.828125 22.358632
41.150000 91.671875 22.511461
41.000000 92.937500 22.511461
39.400000 93.406250 22.654259
40.950000 91.187500 22.807371
40.550000 92.531250 22.807371
40.475000 93.843750 22.807371
41.325000 91.156250 22.948056
41.200000 91.265625 23.105943
34.700000 103.437500 23.105943
41.100000 90.984375 23.245902
40.975000 92.359375 23.245902
41.075000 93.765625 23.245902
41.200000 91.484375 23.401445
34.825000 103.609375 23.401445
41.300000 91.421875 23.544631
34.700000 103.468750 23.544631
41.275000 91.500000 23.682255
34.675000 103.515625 23.682255
41.525000 91.390625 23.837373
41.525000 91.484375 23.984454
41.500000 91.343750 24.132383
41.225000 91.109375 24.288574
40.975000 92.406250 24.288574
40.950000 93.578125 24.288574
41.225000 91.093750 24.427507
41.625000 91.609375 24.580924
41.400000 92.750000 24.580924
41.175000 91.796875 24.720186
40.125000 93.406250 24.720186
41.500000 90.734375 24.860264
40.525000 93.687500 24.860264
35.000000 103.187500 24.860264
41.325000 90.953125 25.013315
34.725000 103.359375 25.013315
41.725000 91.390625 25.167512
39.950000 93.359375 25.306452
40.025000 93.390625 25.461968
41.325000 91.109375 25.601949
41.100000 92.281250 25.601949
40.650000 93.343750 25.601949
34.975000 103.125000 25.601949
41.625000 91.171875 25.756038
41.550000 91.437500 25.896924
41.700000 91.359375 26.055463
41.675000 91.281250 26.190220
41.225000 91.703125 26.345032
41.000000 93.078125 26.345032
40.675000 93.250000 26.483990
40.150000 93.375000 26.638571
41.600000 91.390625 26.779668
41.375000 92.593750 26.779668
41.150000 91.859375 26.936465
40.375000 93.343750 26.936465
41.575000 91.312500 27.075293
41.350000 92.562500 27.075293
41.725000 91.453125 27.215480
41.650000 92.984375 27.215480
41.450000 91.000000 27.372179
41.050000 92.078125 27.372179
40.525000 93.531250 27.372179
41.325000 91.140625 27.524662
41.000000 92.234375 27.524662
40.725000 93.546875 27.524662
34.975000 103.140625 27.524662
41.400000 90.953125 27.665520
41.025000 92.328125 27.665520
40.775000 93.468750 27.665520
41.325000 90.875000 27.814353
41.000000 92.359375 27.814353
40.800000 93.265625 27.814353
41.450000 91.109375 27.961886
41.250000 92.609375 27.961886
12.550000 130.125000 27.961886
41.475000 91.218750 28.101590
41.400000 92.437500 28.101590
41.625000 91.437500 28.272745
41.475000 92.562500 28.272745
41.650000 91.656250 28.398792
41.350000 92.812500 28.398792
41.475000 91.968750 28.552354
41.250000 92.890625 28.552354
41.200000 90.937500 28.692600
39.975000 93.484375 28.692600
41.275000 90.812500 28.847727
41.525000 91.312500 28.988278
41.550000 92.796875 28.988278
41.125000 90.671875 29.144880
40.800000 92.093750 29.144880
40.675000 93.328125 29.144880
41.525000 91.796875 29.286061
41.200000 93.000000 29.286061
41.125000 90.828125 29.426423
40.750000 92.140625 29.426423
40.500000 93.328125 29.426423
41.400000 91.390625 29.581602
41.325000 92.921875 29.581602
41.250000 91.562500 29.722849
41.150000 93.109375 29.722849
41.100000 91.046875 29.878862
40.850000 92.390625 29.878862
40.725000 93.515625 29.878862
41.300000 91.296875 30.020937
41.150000 92.484375 30.020937
40.600000 92.171875 30.174215
39.900000 93.281250 30.174215
41.275000 91.062500 30.315414
40.875000 91.703125 30.456494
41.000000 92.953125 30.456494
40.750000 91.734375 30.608862
40.900000 93.015625 30.608862
40.775000 90.890625 30.766539
40.425000 91.859375 30.766539
39.900000 93.328125 30.766539
41.025000 91.109375 30.902125
40.700000 91.656250 31.056720
40.875000 92.718750 31.056720
40.850000 90.781250 31.200989
40.475000 92.125000 31.200989
40.350000 93.718750 31.200989
40.700000 91.515625 31.338137
40.750000 93.093750 31.338137
40.375000 91.015625 31.492720
40.525000 91.578125 31.645333
40.725000 92.734375 31.645333
40.625000 91.078125 31.787530
40.550000 92.234375 31.787530
40.525000 93.593750 31.787530
34.825000 103.171875 31.787530
40.475000 91.187500 31.927714
40.550000 92.703125 31.927714
40.975000 91.000000 32.078421
40.675000 92.343750 32.078421
40.150000 93.296875 32.078421
40.550000 91.796875 32.223483
40.625000 93.062500 32.223483
40.725000 91.359375 32.377716
40.775000 92.921875 32.377716
40.425000 92.046875 32.517758
39.675000 93.609375 32.517758
41.075000 91.312500 32.672731
40.925000 92.468750 32.672731
40.925000 91.515625 32.813958
40.950000 92.984375 32.813958
40.450000 91.750000 32.969540
39.950000 93.046875 32.969540
40.950000 90.921875 33.109248
40.675000 92.203125 33.109248
39.975000 93.343750 33.109248
12.675000 128.937500 33.109248
41.075000 91.031250 33.263212
41.200000 91.203125 33.404550
41.050000 92.656250 33.404550
41.225000 91.390625 33.559696
40.925000 93.109375 33.559696
39.600000 93.203125 33.699890
41.250000 91.375000 33.853985
39.475000 93.140625 33.993119
39.700000 93.375000 34.151104
41.475000 91.187500 34.288035
41.375000 92.562500 34.288035
12.050000 128.656250 34.288035
39.875000 93.625000 34.441453
41.125000 91.781250 34.588727
40.875000 93.171875 34.588727
41.275000 91.953125 34.736047
40.675000 93.218750 34.736047
41.450000 91.187500 34.876367
41.250000 92.703125 34.876367
41.100000 91.687500 35.030732
40.975000 92.859375 35.030732
41.100000 91.656250 35.171779
40.950000 92.953125 35.171779
41.125000 91.359375 35.326364
41.000000 92.750000 35.326364
40.200000 93.156250 35.468870
41.475000 90.750000 35.618623
40.825000 93.296875 35.618623
41.275000 90.750000 35.760993
41.650000 90.828125 35.917259
40.000000 92.843750 36.058811
41.450000 90.968750 36.197345
40.675000 93.109375 36.492652
41.500000 90.796875 36.646859
41.350000 91.828125 36.646859
40.700000 93.421875 36.646859
12.700000 129.250000 36.646859
41.800000 91.156250 36.788311
41.200000 91.250000 36.943599
41.000000 92.546875 36.943599
41.000000 92.125000 37.082847
40.125000 93.312500 37.082847
41.425000 90.750000 37.235837
41.175000 91.937500 37.235837
40.825000 93.250000 37.235837
41.525000 90.812500 37.374955
34.600000 103.296875 37.374955
41.650000 91.062500 37.529844
41.800000 91.515625 37.669005
41.625000 92.500000 37.669005
41.550000 90.593750 37.837502
40.475000 93.250000 37.837502
41.400000 90.687500 37.982030
41.650000 91.218750 38.117710
41.500000 92.453125 38.117710
41.450000 91.734375 38.260090
41.475000 92.968750 38.260090
41.375000 91.062500 38.416961
41.650000 91.062500 38.557351
41.475000 92.671875 38.557351
41.675000 91.343750 38.710479
41.725000 92.656250 38.710479
12.000000 128.453125 38.710479
41.500000 91.484375 38.856738
41.550000 92.812500 38.856738
41.350000 90.500000 39.004960
41.075000 92.203125 39.004960
40.700000 93.156250 39.004960
12.675000 128.203125 39.004960
41.325000 90.531250 39.144404
41.075000 91.843750 39.144404
40.425000 93.343750 39.144404
41.200000 90.937500 39.295930
41.025000 92.031250 39.295930
41.075000 93.437500 39.295930
41.225000 90.906250 39.440136
41.200000 90.781250 39.596050
41.200000 91.031250 39.736257
41.500000 91.062500 39.892224
41.550000 92.593750 39.892224
39.875000 93.140625 40.032955
41.500000 91.328125 40.174757
41.350000 92.421875 40.174757
40.575000 91.718750 40.330277
39.750000 93.296875 40.330277
41.050000 90.671875 40.469039
40.825000 92.015625 40.469039
40.775000 93.171875 40.469039
41.200000 91.250000 40.622344
41.375000 91.312500 40.762522
41.300000 92.562500 40.762522
41.150000 91.312500 40.917240
41.175000 93.000000 40.917240
40.600000 91.875000 41.057972
40.150000 93.281250 41.057972
41.275000 90.843750 41.213131
41.125000 91.078125 41.353568
41.175000 92.734375 41.353568
40.500000 92.093750 41.508980
39.775000 93.140625 41.508980
40.850000 90.984375 41.648520
40.600000 92.015625 41.648520
40.250000 93.218750 41.648520
41.200000 91.328125 41.807556
40.825000 92.359375 41.807556
12.000000 128.781250 41.943258
40.900000 90.718750 42.098702
40.450000 92.156250 42.098702
39.875000 93.656250 42.098702
40.425000 91.359375 42.245438
40.625000 92.625000 42.245438
40.475000 91.875000 42.393076
40.675000 92.828125 42.393076
40.550000 91.000000 42.532718
40.675000 92.328125 42.532718
40.825000 93.375000 42.532718
12.600000 128.734375 42.532718
40.425000 91.406250 42.690119
40.575000 91.265625 42.843843
40.550000 92.812500 42.843843
40.400000 91.781250 42.982377
40.575000 93.171875 42.982377
40.850000 90.828125 43.125009
40.600000 92.203125 43.125009
40.475000 93.578125 43.125009
40.975000 91.296875 43.264559
40.675000 91.390625 43.419375
40.625000 92.937500 43.419375
40.375000 91.828125 43.573792
40.525000 93.093750 43.573792
40.425000 91.875000 43.712938
39.775000 93.500000 43.712938
40.400000 91.906250 43.867671
39.825000 93.015625 43.867671
40.700000 92.156250 44.003121
39.775000 93.359375 44.003121
41.225000 91.109375 44.150905
41.100000 92.718750 44.150905
39.575000 93.406250 44.307045
41.250000 91.265625 44.447502
41.275000 92.703125 44.447502
39.450000 93.125000 44.590071
41.375000 91.250000 44.744592
41.450000 92.781250 44.744592
39.550000 93.328125 44.901978
40.375000 93.500000 45.040916
41.050000 92.718750 45.198514
40.100000 93.359375 45.336760
41.475000 91.015625 45.479094
41.400000 91.343750 45.636712
41.075000 92.890625 45.636712
41.175000 91.375000 45.775627
40.875000 93.031250 45.775627
40.600000 93.687500 45.916635
41.525000 91.078125 46.075026
41.175000 91.593750 46.211271
41.025000 93.015625 46.211271
40.900000 93.375000 46.365376
12.600000 129.812500 46.365376
41.350000 91.953125 46.510084
41.600000 91.500000 46.657089
41.400000 92.546875 46.657089
41.100000 93.609375 46.811645
34.825000 103.187500 46.811645
41.200000 91.531250 46.965553
40.775000 92.984375 46.965553
41.475000 90.843750 47.091190
41.350000 92.296875 47.091190
41.050000 93.234375 47.091190
41.725000 91.468750 47.245404
40.200000 93.140625 47.390547
41.750000 91.109375 47.542035
40.500000 92.812500 47.696122
40.350000 93.171875 47.837876
41.475000 91.031250 47.990284
41.325000 92.421875 47.990284
41.025000 93.421875 47.990284
41.675000 91.359375 48.130987
41.450000 93.000000 48.130987
40.325000 93.468750 48.272886
41.650000 91.109375 48.428096
41.550000 92.296875 48.428096
40.400000 93.015625 48.567935
41.875000 91.359375 48.722002
41.750000 92.828125 48.722002
41.650000 91.031250 48.861774
41.425000 91.953125 49.015563
40.700000 93.125000 49.015563
41.700000 91.140625 49.156073
41.250000 91.906250 49.311821
40.525000 93.250000 49.311821
41.625000 91.500000 49.452542
41.525000 92.531250 49.452542
41.225000 91.781250 49.606210
40.425000 93.296875 49.606210
41.625000 91.500000 49.745622
41.525000 92.546875 49.745622
41.325000 90.718750 49.901117
41.150000 92.218750 49.901117
40.775000 93.187500 49.901117
41.625000 91.593750 50.039078
41.525000 92.546875 50.039078
41.675000 91.593750 50.196879
41.525000 92.968750 50.196879
41.300000 90.937500 50.339035
40.950000 92.031250 50.339035
40.425000 93.671875 50.339035
41.600000 91.406250 50.490665
41.725000 92.703125 50.490665
39.900000 93.640625 50.630943
41.600000 91.625000 50.780526
41.725000 92.875000 50.780526
41.150000 91.187500 50.925078
40.900000 92.187500 50.925078
40.950000 93.437500 50.925078
12.600000 129.625000 50.925078
41.250000 91.937500 51.065271
41.550000 91.437500 51.218070
41.525000 92.843750 51.218070
41.100000 90.921875 51.358789
40.550000 92.406250 51.358789
39.825000 93.625000 51.358789
41.275000 91.250000 51.512517
40.725000 91.968750 51.659226
40.000000 93.375000 51.659226
41.325000 91.468750 51.806105
41.250000 92.765625 51.806105
41.275000 91.078125 51.960406
40.550000 92.171875 52.095959
39.975000 93.546875 52.095959
41.400000 91.234375 52.242022
41.125000 92.531250 52.242022
41.050000 91.671875 52.395837
41.200000 93.109375 52.395837
40.575000 92.140625 52.550653
39.825000 93.640625 52.550653
35.125000 103.109375 52.550653
40.925000 91.296875 52.691376
40.600000 92.203125 52.691376
40.275000 93.656250 52.691376
34.975000 103.156250 52.691376
41.100000 91.734375 52.832603
40.975000 92.890625 52.832603
40.675000 92.109375 52.985615
40.550000 93.203125 52.985615
41.000000 91.390625 53.139771
40.575000 92.359375 53.139771
40.600000 93.562500 53.139771
34.875000 103.156250 53.139771
12.575000 128.531250 53.139771
40.800000 92.062500 53.278266
41.050000 93.234375 53.278266
40.425000 91.328125 53.418198
40.325000 92.500000 53.573116
39.725000 93.703125 53.573116
40.425000 91.281250 53.731271
40.425000 92.078125 53.867882
39.725000 93.421875 53.867882
40.575000 91.859375 54.022741
40.625000 92.843750 54.022741
40.950000 90.953125 54.168644
40.625000 92.328125 54.168644
40.200000 93.750000 54.168644
34.975000 103.218750 54.168644
41.000000 91.500000 54.320271
40.700000 92.609375 54.320271
40.850000 93.640625 54.320271
41.000000 91.515625 54.461620
40.975000 92.796875 54.461620
40.375000 91.812500 54.605959
40.550000 93.140625 54.605959
40.525000 91.984375 54.757644
39.875000 93.531250 54.757644
40.700000 92.171875 54.898823
40.075000 93.546875 54.898823
41.225000 91.140625 55.045982
40.600000 91.765625 55.191951
40.525000 93.281250 55.191951
40.550000 92.218750 55.333258
39.750000 93.625000 55.333258
41.325000 91.296875 55.488349
41.250000 92.859375 55.488349
39.925000 93.406250 55.630415
34.975000 103.109375 55.630415
41.425000 91.765625 55.784857
41.150000 92.859375 55.784857
39.600000 93.562500 55.923033
41.375000 91.250000 56.078684
41.200000 91.703125 56.220096
40.875000 93.078125 56.220096
11.975000 129.187500 56.220096
40.025000 93.531250 56.373811
40.975000 93.734375 56.512881
40.850000 93.109375 56.666452
41.450000 92.187500 56.806361
40.400000 93.531250 56.806361
35.075000 103.046875 56.806361
41.150000 92.843750 57.099769
41.450000 91.984375 57.254035
40.375000 93.593750 57.254035
40.825000 92.750000 57.395849
41.400000 91.765625 57.549346
41.100000 93.171875 57.549346
40.675000 93.515625 57.689569
41.650000 91.765625 57.844612
41.275000 92.906250 57.844612
41.625000 91.328125 57.999838
40.175000 93.515625 58.277115
40.175000 93.421875 58.584742
41.625000 91.031250 58.726974
41.050000 93.750000 58.726974
41.875000 91.671875 58.873606
40.650000 93.031250 59.022552
40.500000 93.546875 59.162441
41.600000 91.281250 59.311334
34.825000 103.343750 59.311334
41.875000 91.593750 59.461501
41.400000 91.281250 59.614967
12.550000 129.687500 59.614967
41.650000 91.953125 59.751165
41.600000 92.875000 59.751165
41.575000 91.062500 59.897116
