33.850000 6.718750 24.648171
33.925000 8.140625 24.648171
34.025000 9.359375 24.648171
34.150000 10.531250 24.648171
34.300000 11.140625 24.648171
33.600000 0.500000 24.787170
33.475000 1.625000 24.787170
33.550000 2.906250 24.787170
33.575000 4.171875 24.787170
33.650000 5.359375 24.787170
33.800000 6.281250 24.787170
33.850000 7.546875 24.787170
33.950000 8.765625 24.787170
34.075000 9.796875 24.787170
34.200000 11.328125 24.787170
33.400000 0.796875 24.954172
33.425000 1.921875 24.954172
33.475000 2.656250 24.954172
33.525000 3.781250 24.954172
33.625000 5.015625 24.954172
33.725000 6.281250 24.954172
33.825000 7.296875 24.954172
33.900000 8.890625 24.954172
34.050000 10.015625 24.954172
34.175000 10.593750 24.954172
33.300000 1.265625 25.091170
33.300000 2.328125 25.091170
33.375000 3.265625 25.091170
33.475000 4.906250 25.091170
33.575000 5.484375 25.091170
33.675000 6.656250 25.091170
33.775000 8.000000 25.091170
33.875000 9.468750 25.091170
34.000000 10.187500 25.091170
34.250000 11.687500 25.091170
33.150000 0.890625 25.273170
33.175000 1.750000 25.273170
33.225000 2.968750 25.273170
33.275000 4.421875 25.273170
33.375000 5.203125 25.273170
33.500000 6.281250 25.273170
33.600000 7.890625 25.273170
33.700000 8.500000 25.273170
33.800000 9.875000 25.273170
33.900000 11.437500 25.273170
32.975000 0.640625 25.416170
33.000000 1.718750 25.416170
33.050000 2.828125 25.416170
33.125000 4.078125 25.416170
33.200000 4.953125 25.416170
33.275000 6.156250 25.416170
33.375000 7.281250 25.416170
33.500000 9.062500 25.416170
33.650000 9.640625 25.416170
33.750000 11.406250 25.416170
32.725000 0.765625 25.561171
32.725000 1.625000 25.561171
32.775000 2.625000 25.561171
32.850000 3.750000 25.561171
32.925000 5.203125 25.561171
33.025000 6.609375 25.561171
33.125000 7.125000 25.561171
33.200000 8.906250 25.561171
33.275000 10.093750 25.561171
32.350000 1.765625 25.751170
32.425000 3.031250 25.751170
32.500000 4.062500 25.751170
32.600000 5.453125 25.751170
32.675000 6.421875 25.751170
32.800000 7.843750 25.751170
32.925000 8.796875 25.751170
33.050000 9.796875 25.751170
33.125000 11.343750 25.751170
31.925000 1.843750 25.877171
31.975000 2.578125 25.877171
32.025000 3.906250 25.877171
32.100000 4.687500 25.877171
32.175000 6.546875 25.877171
32.275000 7.468750 25.877171
32.400000 8.171875 25.877171
32.475000 9.562500 25.877171
32.575000 10.906250 25.877171
32.750000 11.875000 25.877171
31.325000 1.109375 26.027171
31.350000 2.687500 26.027171
31.400000 3.843750 26.027171
31.450000 4.640625 26.027171
31.525000 5.718750 26.027171
31.625000 7.015625 26.027171
31.725000 8.796875 26.027171
31.825000 9.781250 26.027171
31.950000 11.000000 26.027171
32.050000 11.718750 26.027171
30.725000 1.406250 26.186172
30.725000 2.296875 26.186172
30.725000 3.765625 26.186172
30.800000 4.859375 26.186172
30.875000 5.765625 26.186172
30.950000 7.046875 26.186172
31.050000 8.156250 26.186172
31.175000 8.906250 26.186172
31.275000 10.828125 26.186172
31.400000 11.328125 26.186172
31.750000 12.765625 26.186172
30.550000 0.546875 26.336173
31.025000 1.546875 26.336173
31.075000 2.765625 26.336173
31.125000 4.171875 26.336173
31.200000 5.718750 26.336173
31.300000 6.218750 26.336173
31.375000 7.656250 26.336173
31.450000 8.796875 26.336173
31.600000 9.750000 26.336173
31.725000 10.796875 26.336173
31.900000 12.265625 26.336173
31.325000 1.750000 26.531172
31.375000 2.437500 26.531172
31.425000 4.031250 26.531172
31.475000 5.125000 26.531172
31.525000 6.484375 26.531172
31.625000 7.031250 26.531172
31.725000 8.375000 26.531172
31.875000 10.015625 26.531172
32.075000 10.843750 26.531172
32.250000 11.734375 26.531172
31.600000 1.375000 26.662170
31.650000 2.125000 26.662170
31.700000 3.218750 26.662170
31.750000 4.562500 26.662170
31.850000 5.546875 26.662170
31.925000 7.093750 26.662170
32.050000 7.875000 26.662170
32.200000 9.203125 26.662170
32.300000 10.625000 26.662170
32.425000 11.328125 26.662170
31.800000 0.890625 26.801188
31.825000 1.890625 26.801188
31.875000 2.796875 26.801188
31.925000 4.187500 26.801188
31.975000 5.359375 26.801188
32.075000 6.703125 26.801188
32.200000 7.312500 26.801188
32.300000 8.765625 26.801188
32.425000 10.078125 26.801188
32.600000 11.359375 26.801188
32.850000 12.171875 26.801188
31.950000 1.015625 26.976170
32.000000 2.593750 26.976170
32.025000 3.718750 26.976170
32.075000 4.671875 26.976170
32.200000 5.640625 26.976170
32.325000 7.234375 26.976170
32.425000 8.375000 26.976170
32.550000 9.453125 26.976170
32.675000 10.234375 26.976170
32.825000 11.265625 26.976170
32.125000 1.515625 27.120170
32.100000 3.046875 27.120170
32.175000 3.625000 27.120170
32.300000 5.093750 27.120170
32.400000 6.125000 27.120170
32.450000 7.125000 27.120170
32.550000 8.250000 27.120170
32.700000 9.609375 27.120170
32.850000 10.671875 27.120170
33.000000 12.078125 27.120170
32.200000 0.421875 27.299171
32.150000 1.718750 27.299171
32.150000 2.765625 27.299171
32.225000 3.796875 27.299171
32.325000 5.000000 27.299171
32.400000 5.968750 27.299171
32.500000 7.109375 27.299171
32.600000 8.515625 27.299171
32.700000 10.000000 27.299171
32.850000 10.890625 27.299171
33.100000 12.218750 27.299171
32.200000 1.531250 27.458175
32.150000 2.781250 27.458175
32.175000 3.671875 27.458175
32.325000 4.515625 27.458175
32.425000 6.078125 27.458175
32.500000 6.812500 27.458175
32.600000 8.171875 27.458175
32.750000 9.421875 27.458175
32.850000 10.468750 27.458175
33.000000 11.625000 27.458175
32.125000 0.843750 27.578171
32.175000 2.078125 27.578171
32.175000 3.484375 27.578171
32.250000 4.765625 27.578171
32.325000 5.734375 27.578171
32.425000 7.046875 27.578171
32.525000 7.687500 27.578171
32.625000 9.140625 27.578171
32.750000 9.937500 27.578171
32.900000 11.359375 27.578171
32.025000 1.015625 27.767169
32.050000 2.640625 27.767169
32.125000 3.109375 27.767169
32.175000 4.453125 27.767169
32.225000 5.593750 27.767169
32.325000 7.000000 27.767169
32.425000 8.015625 27.767169
32.550000 9.593750 27.767169
32.675000 10.562500 27.767169
32.825000 11.312500 27.767169
31.900000 1.078125 27.928171
31.875000 2.890625 27.928171
31.900000 4.000000 27.928171
32.000000 4.781250 27.928171
32.100000 6.171875 27.928171
32.200000 7.140625 27.928171
32.325000 8.328125 27.928171
32.475000 9.453125 27.928171
32.600000 10.703125 27.928171
32.700000 12.000000 27.928171
31.675000 1.703125 28.054170
31.675000 2.687500 28.054170
31.725000 3.984375 28.054170
31.800000 4.921875 28.054170
31.875000 5.687500 28.054170
32.000000 7.515625 28.054170
32.100000 8.187500 28.054170
32.250000 9.375000 28.054170
32.375000 10.921875 28.054170
32.500000 11.765625 28.054170
31.400000 1.265625 28.236171
31.425000 3.046875 28.236171
31.450000 4.140625 28.236171
31.550000 5.234375 28.236171
31.625000 6.234375 28.236171
31.700000 7.171875 28.236171
31.800000 8.156250 28.236171
31.925000 9.578125 28.236171
32.075000 10.765625 28.236171
32.225000 12.296875 28.236171
30.550000 0.031250 28.367170
31.025000 1.609375 28.367170
31.100000 2.828125 28.367170
31.150000 3.437500 28.367170
31.200000 4.859375 28.367170
31.250000 5.843750 28.367170
31.325000 6.875000 28.367170
31.425000 8.171875 28.367170
31.525000 9.843750 28.367170
31.625000 10.671875 28.367170
31.750000 11.890625 28.367170
30.525000 -0.156250 28.552170
30.625000 1.171875 28.552170
30.675000 1.921875 28.552170
30.675000 3.093750 28.552170
30.725000 4.312500 28.552170
30.800000 5.968750 28.552170
30.875000 6.640625 28.552170
30.975000 7.656250 28.552170
31.100000 9.453125 28.552170
31.200000 10.312500 28.552170
31.350000 11.468750 28.552170
31.575000 12.453125 28.552170
31.300000 2.281250 28.702171
31.325000 3.375000 28.702171
31.375000 4.296875 28.702171
31.425000 5.531250 28.702171
31.500000 6.859375 28.702171
31.575000 7.687500 28.702171
31.700000 8.968750 28.702171
31.850000 10.093750 28.702171
31.975000 11.171875 28.702171
32.150000 12.406250 28.702171
31.825000 1.140625 28.857171
31.875000 2.296875 28.857171
31.925000 3.625000 28.857171
31.950000 4.984375 28.857171
32.050000 5.703125 28.857171
32.150000 7.453125 28.857171
32.225000 8.468750 28.857171
32.325000 9.734375 28.857171
32.475000 10.812500 28.857171
32.650000 11.890625 28.857171
32.250000 1.000000 28.993170
32.275000 2.156250 28.993170
32.325000 3.328125 28.993170
32.400000 4.562500 28.993170
32.475000 6.140625 28.993170
32.575000 6.812500 28.993170
32.700000 8.078125 28.993170
32.800000 9.203125 28.993170
32.925000 10.640625 28.993170
33.075000 12.015625 28.993170
32.650000 1.046875 29.167170
32.675000 1.984375 29.167170
32.675000 3.640625 29.167170
32.725000 4.656250 29.167170
32.825000 5.765625 29.167170
32.900000 6.578125 29.167170
33.025000 8.093750 29.167170
33.125000 8.937500 29.167170
33.250000 10.437500 29.167170
33.350000 11.625000 29.167170
32.900000 2.265625 29.332171
32.925000 3.312500 29.332171
33.025000 4.546875 29.332171
33.100000 5.734375 29.332171
33.175000 6.359375 29.332171
33.275000 7.968750 29.332171
33.375000 8.765625 29.332171
33.525000 10.250000 29.332171
33.650000 11.453125 29.332171
33.100000 1.859375 29.461171
33.150000 3.375000 29.461171
33.200000 4.031250 29.461171
33.250000 5.593750 29.461171
33.350000 6.328125 29.461171
33.475000 7.453125 29.461171
33.625000 9.203125 29.461171
33.750000 10.312500 29.461171
33.850000 11.328125 29.461171
33.250000 0.640625 29.644173
33.300000 2.015625 29.644173
33.300000 2.781250 29.644173
33.300000 3.859375 29.644173
33.400000 5.500000 29.644173
33.525000 6.187500 29.644173
33.650000 7.484375 29.644173
33.750000 8.593750 29.644173
33.850000 9.765625 29.644173
33.975000 11.109375 29.644173
33.400000 0.406250 29.782171
33.350000 1.656250 29.782171
33.400000 2.843750 29.782171
33.475000 3.437500 29.782171
33.575000 5.093750 29.782171
33.625000 6.437500 29.782171
33.700000 7.015625 29.782171
33.800000 8.203125 29.782171
33.925000 9.640625 29.782171
34.100000 11.000000 29.782171
33.425000 0.703125 29.951170
33.475000 2.234375 29.951170
33.500000 3.437500 29.951170
33.575000 4.265625 29.951170
33.650000 5.406250 29.951170
33.750000 6.500000 29.951170
33.850000 7.828125 29.951170
33.950000 9.093750 29.951170
34.100000 10.437500 29.951170
34.250000 11.250000 29.951170
33.450000 0.093750 30.100171
33.425000 1.734375 30.100171
33.475000 2.421875 30.100171
33.500000 3.640625 30.100171
33.575000 4.828125 30.100171
33.700000 6.203125 30.100171
33.850000 7.093750 30.100171
33.975000 8.453125 30.100171
34.025000 9.468750 30.100171
34.150000 11.015625 30.100171
33.500000 -0.046875 30.255171
33.475000 1.625000 30.255171
33.525000 2.218750 30.255171
33.550000 3.453125 30.255171
33.625000 4.843750 30.255171
33.675000 5.968750 30.255171
33.775000 6.921875 30.255171
33.950000 8.437500 30.255171
34.050000 9.546875 30.255171
33.275000 -0.265625 30.403170
33.450000 0.875000 30.403170
33.475000 2.296875 30.403170
33.525000 3.390625 30.403170
33.550000 4.796875 30.403170
33.650000 5.625000 30.403170
33.750000 7.046875 30.403170
33.850000 7.750000 30.403170
33.975000 9.171875 30.403170
34.100000 10.046875 30.403170
34.275000 11.453125 30.403170
33.400000 0.906250 30.550172
33.375000 2.515625 30.550172
33.425000 2.937500 30.550172
33.475000 4.609375 30.550172
33.550000 5.609375 30.550172
33.725000 6.578125 30.550172
33.825000 7.968750 30.550172
33.925000 9.390625 30.550172
34.075000 10.234375 30.550172
34.200000 11.218750 30.550172
33.225000 0.656250 30.746171
33.200000 1.750000 30.746171
33.175000 3.125000 30.746171
33.225000 4.375000 30.746171
33.275000 4.984375 30.746171
33.425000 6.234375 30.746171
33.550000 7.578125 30.746171
33.650000 9.046875 30.746171
33.800000 9.953125 30.746171
33.925000 11.390625 30.746171
33.000000 0.656250 30.897170
33.025000 1.671875 30.897170
33.050000 2.953125 30.897170
33.100000 3.890625 30.897170
33.200000 5.078125 30.897170
33.275000 5.875000 30.897170
33.325000 7.640625 30.897170
33.425000 8.171875 30.897170
33.550000 9.546875 30.897170
33.700000 11.156250 30.897170
32.700000 0.515625 31.023170
32.700000 1.750000 31.023170
32.750000 2.421875 31.023170
32.825000 3.390625 31.023170
32.875000 5.140625 31.023170
32.950000 6.343750 31.023170
33.050000 7.328125 31.023170
33.150000 8.187500 31.023170
33.275000 9.156250 31.023170
33.375000 10.359375 31.023170
33.550000 11.765625 31.023170
32.300000 1.468750 31.176170
32.350000 2.328125 31.176170
32.400000 3.828125 31.176170
32.475000 4.593750 31.176170
32.575000 5.656250 31.176170
32.650000 7.375000 31.176170
32.725000 8.203125 31.176170
32.850000 9.812500 31.176170
33.025000 10.468750 31.176170
33.175000 11.953125 31.176170
31.850000 1.390625 31.336172
31.875000 2.343750 31.336172
31.900000 3.750000 31.336172
31.950000 5.062500 31.336172
32.050000 6.250000 31.336172
32.125000 7.000000 31.336172
32.225000 8.234375 31.336172
32.350000 9.765625 31.336172
32.450000 10.937500 31.336172
32.600000 11.562500 31.336172
31.125000 1.625000 31.487170
31.150000 2.140625 31.487170
31.200000 3.156250 31.487170
31.225000 4.796875 31.487170
31.300000 6.078125 31.487170
31.400000 6.828125 31.487170
31.500000 7.953125 31.487170
31.600000 9.031250 31.487170
31.725000 10.140625 31.487170
31.875000 11.812500 31.487170
30.375000 1.171875 31.652170
30.375000 2.312500 31.652170
30.425000 3.031250 31.652170
30.475000 4.593750 31.652170
30.525000 5.093750 31.652170
30.600000 6.265625 31.652170
30.675000 7.781250 31.652170
30.775000 8.906250 31.652170
30.875000 10.156250 31.652170
31.000000 11.078125 31.652170
31.125000 12.468750 31.652170
30.525000 0.453125 31.800171
30.600000 1.031250 31.800171
30.650000 2.703125 31.800171
30.700000 3.718750 31.800171
30.775000 4.828125 31.800171
30.825000 5.609375 31.800171
30.925000 7.484375 31.800171
31.050000 8.390625 31.800171
31.150000 9.656250 31.800171
31.250000 10.468750 31.800171
30.525000 1.125000 31.976170
30.975000 2.140625 31.976170
31.025000 2.796875 31.976170
31.100000 4.296875 31.976170
31.175000 5.812500 31.976170
31.300000 6.968750 31.976170
31.400000 7.546875 31.976170
31.425000 8.578125 31.976170
31.550000 9.718750 31.976170
31.650000 11.484375 31.976170
31.800000 12.125000 31.976170
31.225000 1.671875 32.152170
31.275000 2.843750 32.152170
31.325000 3.953125 32.152170
31.350000 5.359375 32.152170
31.450000 5.781250 32.152170
31.525000 7.421875 32.152170
31.625000 8.062500 32.152170
31.725000 9.484375 32.152170
31.850000 10.937500 32.152170
32.025000 11.921875 32.152170
31.375000 1.109375 32.265169
31.425000 1.937500 32.265169
31.475000 3.187500 32.265169
31.550000 4.343750 32.265169
31.625000 5.500000 32.265169
31.675000 6.671875 32.265169
31.775000 7.859375 32.265169
31.900000 9.203125 32.265169
32.050000 10.343750 32.265169
31.575000 1.109375 32.424172
31.650000 2.781250 32.424172
31.675000 3.859375 32.424172
31.700000 5.218750 32.424172
31.750000 5.828125 32.424172
31.825000 7.468750 32.424172
31.925000 8.718750 32.424172
32.050000 9.687500 32.424172
32.200000 10.750000 32.424172
32.375000 11.937500 32.424172
31.675000 2.390625 32.590171
31.700000 2.937500 32.590171
31.775000 4.062500 32.590171
31.850000 5.218750 32.590171
31.900000 6.406250 32.590171
32.000000 7.750000 32.590171
32.125000 9.046875 32.590171
32.275000 9.812500 32.590171
31.675000 1.656250 32.739171
31.725000 2.390625 32.739171
31.775000 3.531250 32.739171
31.825000 4.562500 32.739171
31.925000 6.375000 32.739171
32.000000 7.390625 32.739171
32.150000 8.406250 32.739171
32.275000 9.750000 32.739171
32.300000 10.437500 32.739171
32.450000 11.625000 32.739171
31.650000 0.921875 32.893171
31.675000 2.406250 32.893171
31.725000 3.765625 32.893171
31.750000 4.859375 32.893171
31.825000 6.218750 32.893171
31.925000 6.687500 32.893171
32.100000 8.281250 32.893171
32.250000 9.234375 32.893171
32.275000 10.437500 32.893171
32.375000 11.687500 32.893171
31.650000 0.890625 33.056170
31.675000 2.468750 33.056170
31.725000 3.062500 33.056170
31.775000 4.765625 33.056170
31.825000 6.156250 33.056170
31.900000 7.015625 33.056170
32.000000 7.921875 33.056170
32.150000 8.968750 33.056170
32.275000 10.296875 33.056170
32.375000 11.640625 33.056170
31.475000 2.203125 33.211171
31.500000 3.265625 33.211171
31.550000 4.703125 33.211171
31.675000 5.609375 33.211171
31.825000 6.828125 33.211171
31.850000 7.531250 33.211171
31.925000 8.718750 33.211171
32.075000 9.984375 33.211171
31.325000 2.109375 33.366171
31.350000 2.906250 33.366171
31.375000 3.890625 33.366171
31.450000 5.406250 33.366171
31.525000 6.515625 33.366171
31.625000 7.703125 33.366171
31.750000 9.156250 33.366171
31.850000 10.296875 33.366171
31.950000 11.406250 33.366171
32.200000 12.421875 33.366171
30.650000 0.640625 33.540171
31.100000 1.453125 33.540171
31.100000 3.000000 33.540171
31.125000 4.359375 33.540171
31.200000 5.218750 33.540171
31.275000 6.375000 33.540171
31.350000 7.781250 33.540171
31.450000 8.796875 33.540171
31.550000 9.984375 33.540171
31.675000 11.015625 33.540171
31.850000 12.093750 33.540171
30.675000 0.828125 33.699171
30.700000 1.906250 33.699171
30.750000 2.796875 33.699171
30.800000 4.062500 33.699171
30.825000 5.375000 33.699171
30.925000 6.375000 33.699171
31.025000 7.625000 33.699171
31.100000 8.703125 33.699171
31.225000 10.359375 33.699171
31.300000 11.609375 33.699171
31.450000 12.500000 33.699171
30.325000 0.921875 33.827182
30.325000 1.968750 33.827182
30.375000 2.906250 33.827182
30.400000 3.828125 33.827182
30.450000 5.125000 33.827182
30.525000 6.062500 33.827182
30.600000 7.265625 33.827182
30.725000 8.781250 33.827182
30.825000 10.156250 33.827182
30.925000 10.718750 33.827182
31.075000 12.000000 33.827182
30.475000 0.656250 34.010171
30.850000 1.406250 34.010171
30.875000 2.515625 34.010171
30.900000 3.687500 34.010171
30.950000 4.843750 34.010171
31.050000 5.953125 34.010171
31.175000 7.640625 34.010171
31.275000 8.750000 34.010171
31.375000 9.484375 34.010171
31.475000 10.843750 34.010171
31.600000 12.140625 34.010171
31.375000 1.437500 34.142177
31.400000 2.265625 34.142177
31.475000 3.546875 34.142177
31.550000 4.609375 34.142177
31.625000 5.796875 34.142177
31.725000 7.171875 34.142177
31.850000 7.921875 34.142177
31.975000 9.062500 34.142177
32.050000 10.640625 34.142177
32.175000 12.015625 34.142177
31.900000 1.109375 34.324171
31.925000 1.859375 34.324171
31.975000 3.515625 34.324171
32.050000 4.171875 34.324171
32.125000 5.671875 34.324171
32.200000 6.546875 34.324171
32.300000 7.734375 34.324171
32.425000 9.234375 34.324171
32.550000 10.343750 34.324171
32.675000 11.593750 34.324171
32.325000 0.265625 34.455176
32.350000 2.093750 34.455176
32.350000 2.843750 34.455176
32.400000 3.812500 34.455176
32.500000 5.421875 34.455176
32.625000 6.453125 34.455176
32.700000 7.578125 34.455176
32.775000 9.062500 34.455176
32.900000 9.609375 34.455176
33.075000 10.734375 34.455176
32.650000 0.984375 34.631171
32.675000 2.234375 34.631171
32.700000 3.781250 34.631171
32.750000 4.812500 34.631171
32.850000 5.906250 34.631171
32.950000 7.296875 34.631171
33.025000 8.015625 34.631171
33.175000 9.078125 34.631171
33.300000 10.796875 34.631171
33.475000 11.625000 34.631171
32.875000 0.781250 34.767171
32.900000 1.750000 34.767171
32.950000 2.968750 34.767171
33.000000 4.015625 34.767171
33.075000 5.281250 34.767171
33.150000 6.281250 34.767171
33.250000 7.296875 34.767171
33.350000 8.515625 34.767171
33.475000 9.921875 34.767171
33.625000 10.828125 34.767171
33.125000 1.750000 34.928177
33.150000 3.484375 34.928177
33.225000 4.437500 34.928177
33.300000 5.718750 34.928177
33.400000 6.906250 34.928177
33.525000 7.640625 34.928177
33.625000 9.187500 34.928177
33.750000 9.875000 34.928177
33.875000 11.234375 34.928177
33.125000 0.312500 35.080171
33.225000 1.703125 35.080171
33.275000 2.375000 35.080171
33.325000 3.828125 35.080171
33.400000 4.953125 35.080171
33.500000 5.890625 35.080171
33.600000 7.421875 35.080171
33.700000 8.156250 35.080171
33.850000 9.343750 35.080171
33.400000 -0.093750 35.255171
33.275000 1.281250 35.255171
33.325000 2.375000 35.255171
33.425000 3.312500 35.255171
33.500000 4.578125 35.255171
33.575000 6.140625 35.255171
33.750000 6.921875 35.255171
33.850000 7.984375 35.255171
33.925000 9.343750 35.255171
33.600000 0.406250 35.401170
33.550000 1.328125 35.401170
33.500000 2.453125 35.401170
33.525000 3.390625 35.401170
33.600000 4.609375 35.401170
33.675000 5.625000 35.401170
33.750000 6.781250 35.401170
33.850000 8.453125 35.401170
34.000000 9.421875 35.401170
34.150000 10.640625 35.401170
34.550000 11.828125 35.401170
33.650000 0.828125 35.560171
33.500000 2.593750 35.560171
33.575000 3.593750 35.560171
33.675000 4.703125 35.560171
33.725000 5.828125 35.560171
33.825000 7.093750 35.560171
33.975000 7.875000 35.560171
34.075000 8.921875 35.560171
34.150000 10.437500 35.560171
34.350000 11.734375 35.560171
33.500000 2.421875 35.714172
33.550000 3.468750 35.714172
33.650000 4.125000 35.714172
33.700000 5.343750 35.714172
33.800000 6.656250 35.714172
33.925000 7.625000 35.714172
34.025000 9.078125 35.714172
34.125000 10.015625 35.714172
34.300000 11.078125 35.714172
33.200000 -0.187500 35.878171
33.500000 0.968750 35.878171
33.475000 2.218750 35.878171
33.525000 3.156250 35.878171
33.625000 4.515625 35.878171
33.700000 5.421875 35.878171
33.800000 6.718750 35.878171
33.900000 7.593750 35.878171
34.000000 9.265625 35.878171
34.100000 10.328125 35.878171
34.275000 11.281250 35.878171
32.975000 -0.031250 36.034170
33.325000 1.140625 36.034170
33.400000 1.781250 36.034170
33.425000 3.000000 36.034170
33.475000 4.609375 36.034170
33.600000 5.281250 36.034170
33.775000 6.843750 36.034170
33.875000 8.125000 36.034170
33.975000 9.046875 36.034170
34.075000 10.203125 36.034170
34.200000 11.062500 36.034170
33.225000 0.546875 36.190170
33.275000 2.062500 36.190170
33.325000 2.562500 36.190170
33.350000 4.296875 36.190170
33.425000 5.265625 36.190170
33.550000 6.531250 36.190170
33.675000 7.375000 36.190170
33.800000 8.703125 36.190170
33.900000 9.953125 36.190170
34.000000 11.000000 36.190170
33.025000 0.437500 36.344171
33.125000 1.562500 36.344171
33.200000 2.578125 36.344171
33.275000 3.812500 36.344171
33.350000 4.953125 36.344171
33.400000 6.359375 36.344171
33.450000 7.218750 36.344171
33.600000 8.843750 36.344171
33.725000 9.703125 36.344171
33.825000 11.046875 36.344171
32.875000 0.218750 36.485181
32.875000 1.703125 36.485181
32.925000 3.015625 36.485181
32.975000 4.187500 36.485181
33.050000 5.296875 36.485181
33.150000 6.171875 36.485181
33.250000 7.218750 36.485181
33.350000 8.437500 36.485181
33.450000 9.828125 36.485181
33.575000 10.765625 36.485181
34.025000 12.125000 36.485181
32.525000 1.500000 36.644366
32.575000 2.828125 36.644366
32.675000 3.656250 36.644366
32.725000 4.812500 36.644366
32.825000 6.390625 36.644366
32.925000 7.375000 36.644366
33.025000 8.218750 36.644366
33.150000 9.265625 36.644366
33.275000 10.812500 36.644366
33.475000 11.890625 36.644366
32.150000 0.187500 36.819367
32.175000 1.640625 36.819367
32.200000 3.015625 36.819367
32.275000 3.546875 36.819367
32.350000 5.187500 36.819367
32.450000 5.921875 36.819367
32.550000 7.046875 36.819367
32.650000 8.609375 36.819367
32.775000 9.968750 36.819367
32.875000 10.656250 36.819367
33.075000 12.312500 36.819367
31.625000 1.937500 36.962368
31.675000 2.593750 36.962368
31.725000 4.234375 36.962368
31.825000 5.359375 36.962368
31.950000 5.937500 36.962368
32.000000 7.484375 36.962368
32.100000 8.109375 36.962368
32.175000 9.796875 36.962368
32.250000 10.843750 36.962368
32.400000 11.703125 36.962368
30.575000 0.109375 37.116367
30.975000 1.531250 37.116367
31.000000 2.656250 37.116367
31.050000 3.890625 37.116367
31.125000 5.062500 37.116367
31.200000 5.796875 37.116367
31.275000 7.609375 37.116367
31.350000 8.796875 37.116367
31.425000 9.703125 37.116367
31.550000 10.640625 37.116367
31.650000 12.171875 37.116367
30.700000 -0.171875 37.275026
30.800000 1.343750 37.275026
30.825000 2.671875 37.275026
30.875000 3.109375 37.275026
30.925000 4.750000 37.275026
31.025000 5.375000 37.275026
31.125000 6.828125 37.275026
31.200000 8.468750 37.275026
31.275000 9.609375 37.275026
31.375000 10.406250 37.275026
31.525000 11.906250 37.275026
31.875000 12.265625 37.275026
31.225000 1.453125 37.419013
31.225000 2.500000 37.419013
31.250000 3.781250 37.419013
31.325000 5.203125 37.419013
31.375000 6.000000 37.419013
31.475000 6.890625 37.419013
31.600000 7.984375 37.419013
31.725000 9.687500 37.419013
31.850000 10.406250 37.419013
32.025000 11.453125 37.419013
31.500000 0.609375 37.588231
31.525000 1.796875 37.588231
31.525000 3.140625 37.588231
31.575000 4.328125 37.588231
31.675000 5.828125 37.588231
31.775000 6.625000 37.588231
31.875000 7.781250 37.588231
32.025000 9.062500 37.588231
32.175000 10.062500 37.588231
31.750000 1.578125 37.731060
31.750000 2.828125 37.731060
31.775000 4.140625 37.731060
31.875000 5.203125 37.731060
31.975000 6.218750 37.731060
32.075000 7.593750 37.731060
32.200000 8.515625 37.731060
32.325000 9.687500 37.731060
32.450000 10.937500 37.731060
32.675000 12.265625 37.731060
31.875000 1.812500 37.885690
31.875000 2.765625 37.885690
31.950000 3.484375 37.885690
32.075000 4.921875 37.885690
32.150000 6.218750 37.885690
32.225000 7.359375 37.885690
32.350000 8.296875 37.885690
32.500000 9.984375 37.885690
32.650000 10.968750 37.885690
32.800000 11.859375 37.885690
32.000000 1.578125 38.042708
32.075000 3.031250 38.042708
32.050000 4.000000 38.042708
32.175000 4.593750 38.042708
32.325000 6.125000 38.042708
32.400000 6.921875 38.042708
32.450000 8.468750 38.042708
32.600000 9.953125 38.042708
32.750000 11.015625 38.042708
32.825000 12.265625 38.042708
32.150000 0.812500 38.197493
32.150000 2.062500 38.197493
32.175000 3.312500 38.197493
32.300000 4.281250 38.197493
32.425000 5.828125 38.197493
32.475000 7.234375 38.197493
32.575000 7.843750 38.197493
32.675000 9.234375 38.197493
32.825000 10.234375 38.197493
32.950000 11.828125 38.197493
32.175000 1.296875 38.354029
32.175000 2.562500 38.354029
32.200000 3.296875 38.354029
32.325000 4.468750 38.354029
32.425000 5.687500 38.354029
32.475000 7.062500 38.354029
32.575000 8.125000 38.354029
32.700000 9.062500 38.354029
32.800000 10.546875 38.354029
32.950000 11.515625 38.354029
32.150000 1.156250 38.512022
32.175000 2.187500 38.512022
32.200000 3.234375 38.512022
32.300000 4.843750 38.512022
32.375000 5.875000 38.512022
32.450000 6.765625 38.512022
32.550000 7.718750 38.512022
32.675000 9.093750 38.512022
32.800000 10.656250 38.512022
32.950000 11.718750 38.512022
32.150000 0.968750 38.667131
32.175000 2.125000 38.667131
32.200000 3.625000 38.667131
32.300000 4.953125 38.667131
32.375000 6.140625 38.667131
32.425000 7.312500 38.667131
32.525000 8.421875 38.667131
32.650000 9.562500 38.667131
32.800000 10.421875 38.667131
32.950000 11.421875 38.667131
31.950000 1.468750 38.834013
31.975000 2.625000 38.834013
32.025000 3.609375 38.834013
32.125000 4.781250 38.834013
32.200000 5.562500 38.834013
32.250000 7.234375 38.834013
32.350000 7.765625 38.834013
32.475000 9.437500 38.834013
32.625000 10.093750 38.834013
32.750000 11.437500 38.834013
31.850000 1.750000 38.976443
31.800000 2.437500 38.976443
31.825000 4.015625 38.976443
31.900000 5.187500 38.976443
32.025000 5.906250 38.976443
32.125000 7.062500 38.976443
32.275000 8.203125 38.976443
32.450000 9.250000 38.976443
32.500000 10.953125 38.976443
32.600000 12.156250 38.976443
31.550000 1.796875 39.134036
31.575000 3.125000 39.134036
31.625000 4.375000 39.134036
31.675000 5.218750 39.134036
31.775000 6.781250 39.134036
31.900000 7.703125 39.134036
32.025000 8.968750 39.134036
32.150000 10.140625 39.134036
32.275000 11.625000 39.134036
32.675000 12.687500 39.134036
31.275000 0.765625 39.289006
31.275000 2.609375 39.289006
31.300000 3.281250 39.289006
31.350000 4.656250 39.289006
31.425000 5.968750 39.289006
31.500000 6.937500 39.289006
31.600000 7.750000 39.289006
31.700000 9.250000 39.289006
31.850000 10.390625 39.289006
30.700000 0.328125 39.444353
30.825000 0.906250 39.444353
30.825000 2.671875 39.444353
30.850000 3.781250 39.444353
30.925000 4.265625 39.444353
31.025000 5.296875 39.444353
31.100000 7.234375 39.444353
31.200000 8.265625 39.444353
31.300000 9.078125 39.444353
31.425000 10.265625 39.444353
31.525000 11.515625 39.444353
31.775000 12.656250 39.444353
30.875000 0.843750 39.601125
30.925000 2.500000 39.601125
31.000000 3.625000 39.601125
31.025000 4.953125 39.601125
31.100000 5.453125 39.601125
31.225000 7.031250 39.601125
31.325000 8.000000 39.601125
31.400000 9.187500 39.601125
31.550000 10.453125 39.601125
31.700000 11.437500 39.601125
32.075000 12.828125 39.601125
31.550000 2.281250 39.753040
31.600000 3.046875 39.753040
31.650000 4.187500 39.753040
31.725000 5.281250 39.753040
31.825000 6.578125 39.753040
31.900000 7.515625 39.753040
32.025000 8.546875 39.753040
32.150000 9.828125 39.753040
32.275000 10.859375 39.753040
32.525000 12.171875 39.753040
32.025000 0.500000 39.913174
32.050000 1.796875 39.913174
32.075000 3.125000 39.913174
32.125000 3.781250 39.913174
32.200000 5.562500 39.913174
32.275000 6.468750 39.913174
32.400000 7.937500 39.913174
32.525000 8.921875 39.913174
32.650000 9.781250 39.913174
32.400000 0.843750 40.068565
32.400000 2.062500 40.068565
32.450000 3.234375 40.068565
32.500000 4.390625 40.068565
32.600000 5.296875 40.068565
32.700000 6.500000 40.068565
32.800000 7.625000 40.068565
32.925000 9.171875 40.068565
33.075000 10.250000 40.068565
33.200000 11.125000 40.068565
32.750000 1.359375 40.223929
32.750000 2.375000 40.223929
32.800000 3.046875 40.223929
32.900000 4.375000 40.223929
32.950000 5.625000 40.223929
33.025000 6.437500 40.223929
33.125000 8.281250 40.223929
33.225000 8.859375 40.223929
33.375000 10.093750 40.223929
33.500000 11.750000 40.223929
33.000000 2.421875 40.381109
33.050000 3.078125 40.381109
33.100000 4.390625 40.381109
33.150000 5.531250 40.381109
33.250000 6.515625 40.381109
33.400000 8.218750 40.381109
33.525000 8.828125 40.381109
33.650000 10.140625 40.381109
33.775000 11.531250 40.381109
33.200000 2.109375 40.535051
33.150000 3.328125 40.535051
33.200000 4.671875 40.535051
33.375000 5.406250 40.535051
33.475000 6.343750 40.535051
33.575000 7.984375 40.535051
33.700000 9.015625 40.535051
33.825000 10.453125 40.535051
33.975000 11.062500 40.535051
33.225000 -0.046875 40.691192
33.300000 0.875000 40.691192
33.375000 2.687500 40.691192
33.375000 3.140625 40.691192
33.425000 4.500000 40.691192
33.525000 6.156250 40.691192
33.625000 7.171875 40.691192
33.750000 8.375000 40.691192
33.875000 9.046875 40.691192
34.000000 10.656250 40.691192
34.250000 11.671875 40.691192
33.350000 0.453125 40.848635
33.400000 1.453125 40.848635
33.475000 2.750000 40.848635
33.500000 4.031250 40.848635
33.525000 4.734375 40.848635
33.650000 6.296875 40.848635
33.775000 7.468750 40.848635
33.875000 8.093750 40.848635
33.975000 9.343750 40.848635
34.100000 10.984375 40.848635
33.475000 0.609375 41.004058
33.475000 1.453125 41.004058
33.500000 2.906250 41.004058
33.575000 3.921875 41.004058
33.650000 5.171875 41.004058
33.725000 6.406250 41.004058
33.800000 7.421875 41.004058
33.900000 8.375000 41.004058
34.025000 9.953125 41.004058
34.150000 10.640625 41.004058
33.475000 0.468750 41.162331
33.475000 1.921875 41.162331
33.500000 2.593750 41.162331
33.575000 3.921875 41.162331
33.650000 5.203125 41.162331
33.725000 6.515625 41.162331
33.825000 7.218750 41.162331
33.950000 8.281250 41.162331
34.050000 9.953125 41.162331
34.175000 11.031250 41.162331
33.450000 0.671875 41.316144
33.475000 1.843750 41.316144
33.525000 2.609375 41.316144
33.600000 3.703125 41.316144
33.650000 4.968750 41.316144
33.725000 6.109375 41.316144
33.825000 7.562500 41.316144
33.925000 8.750000 41.316144
34.050000 10.109375 41.316144
34.175000 10.765625 41.316144
33.400000 2.171875 41.473804
33.450000 3.218750 41.473804
33.525000 4.578125 41.473804
33.600000 5.265625 41.473804
33.700000 6.562500 41.473804
33.800000 7.937500 41.473804
33.900000 9.250000 41.473804
34.000000 10.093750 41.473804
34.175000 11.265625 41.473804
33.200000 0.125000 41.625463
33.300000 0.968750 41.625463
33.350000 2.140625 41.625463
33.375000 3.453125 41.625463
33.400000 4.937500 41.625463
33.500000 5.765625 41.625463
33.600000 7.062500 41.625463
33.725000 7.937500 41.625463
33.850000 9.593750 41.625463
33.975000 10.656250 41.625463
34.225000 11.406250 41.625463
33.125000 0.656250 41.782839
33.125000 1.421875 41.782839
33.150000 2.625000 41.782839
33.225000 3.703125 41.782839
33.300000 4.859375 41.782839
33.350000 6.125000 41.782839
33.425000 7.390625 41.782839
33.550000 8.531250 41.782839
33.700000 9.843750 41.782839
33.825000 10.921875 41.782839
32.875000 0.656250 41.936895
32.850000 2.125000 41.936895
32.900000 3.015625 41.936895
33.000000 3.937500 41.936895
33.075000 5.593750 41.936895
33.150000 6.250000 41.936895
33.225000 7.875000 41.936895
33.325000 8.781250 41.936895
33.475000 9.984375 41.936895
33.600000 11.140625 41.936895
32.475000 0.828125 42.093038
32.500000 1.453125 42.093038
32.600000 2.921875 42.093038
32.625000 4.281250 42.093038
32.675000 5.453125 42.093038
32.775000 6.484375 42.093038
32.925000 7.156250 42.093038
33.025000 8.796875 42.093038
33.100000 9.921875 42.093038
32.125000 2.250000 42.249854
32.150000 2.968750 42.249854
32.200000 4.125000 42.249854
32.250000 5.281250 42.249854
32.325000 6.328125 42.249854
32.450000 7.375000 42.249854
32.525000 9.000000 42.249854
32.650000 10.171875 42.249854
31.500000 2.406250 42.406818
31.525000 3.468750 42.406818
31.575000 4.125000 42.406818
31.650000 5.921875 42.406818
31.775000 6.562500 42.406818
31.850000 8.218750 42.406818
31.925000 9.046875 42.406818
32.075000 9.890625 42.406818
30.650000 0.109375 42.563790
30.700000 1.265625 42.563790
30.725000 2.703125 42.563790
30.775000 3.187500 42.563790
30.850000 4.281250 42.563790
30.900000 5.765625 42.563790
30.975000 7.078125 42.563790
31.050000 8.343750 42.563790
31.150000 9.671875 42.563790
31.275000 10.359375 42.563790
31.425000 11.484375 42.563790
31.750000 13.031250 42.563790
30.425000 1.234375 42.716700
30.450000 2.140625 42.716700
30.500000 3.484375 42.716700
30.575000 4.640625 42.716700
30.625000 5.859375 42.716700
30.675000 6.750000 42.716700
30.775000 7.937500 42.716700
30.875000 9.625000 42.716700
31.000000 10.625000 42.716700
31.175000 11.281250 42.716700
31.375000 12.328125 42.716700
30.775000 0.765625 42.872957
30.800000 1.796875 42.872957
30.850000 2.984375 42.872957
30.900000 4.265625 42.872957
30.950000 5.359375 42.872957
31.075000 6.218750 42.872957
31.200000 7.515625 42.872957
31.275000 8.890625 42.872957
31.350000 9.921875 42.872957
31.475000 11.156250 42.872957
31.625000 12.328125 42.872957
31.125000 1.812500 43.027799
31.175000 2.484375 43.027799
31.225000 4.296875 43.027799
31.300000 4.890625 43.027799
31.400000 6.453125 43.027799
31.450000 7.687500 43.027799
31.550000 8.500000 43.027799
31.700000 9.468750 43.027799
31.775000 11.343750 43.027799
31.925000 11.859375 43.027799
31.350000 1.906250 43.185632
31.375000 2.656250 43.185632
31.425000 4.140625 43.185632
31.500000 5.265625 43.185632
31.575000 6.453125 43.185632
31.675000 7.234375 43.185632
31.775000 8.906250 43.185632
31.875000 9.593750 43.185632
32.025000 11.296875 43.185632
32.200000 12.000000 43.185632
31.500000 1.734375 43.341075
31.575000 3.343750 43.341075
31.600000 4.531250 43.341075
31.675000 5.281250 43.341075
31.775000 6.343750 43.341075
31.850000 7.515625 43.341075
31.950000 8.562500 43.341075
32.125000 10.359375 43.341075
32.250000 11.250000 43.341075
32.550000 12.281250 43.341075
31.625000 1.796875 43.498364
31.625000 2.875000 43.498364
31.675000 4.187500 43.498364
31.800000 5.281250 43.498364
31.850000 6.671875 43.498364
31.925000 7.890625 43.498364
32.100000 8.640625 43.498364
32.200000 10.312500 43.498364
32.325000 11.046875 43.498364
32.700000 12.328125 43.498364
31.675000 1.531250 43.641460
31.675000 2.906250 43.641460
31.725000 3.875000 43.641460
31.800000 5.406250 43.641460
31.950000 6.750000 43.641460
32.025000 7.390625 43.641460
32.100000 9.031250 43.641460
32.225000 9.843750 43.641460
32.325000 11.328125 43.641460
32.700000 12.515625 43.641460
31.700000 2.187500 43.797563
31.775000 2.812500 43.797563
31.825000 4.000000 43.797563
31.850000 5.250000 43.797563
31.875000 6.468750 43.797563
32.000000 7.875000 43.797563
32.175000 8.921875 43.797563
32.325000 10.234375 43.797563
32.450000 11.078125 43.797563
31.675000 2.000000 43.953540
31.750000 2.984375 43.953540
31.800000 4.171875 43.953540
31.850000 5.140625 43.953540
31.875000 6.812500 43.953540
31.950000 7.750000 43.953540
32.125000 9.062500 43.953540
32.300000 9.968750 43.953540
31.625000 1.640625 44.111750
31.600000 2.781250 44.111750
31.650000 3.765625 44.111750
31.700000 4.984375 44.111750
31.775000 5.765625 44.111750
31.875000 6.968750 44.111750
31.975000 8.375000 44.111750
32.100000 9.765625 44.111750
32.225000 10.656250 44.111750
32.350000 11.531250 44.111750
31.425000 1.906250 44.269294
31.425000 2.843750 44.269294
31.475000 3.984375 44.269294
31.525000 5.531250 44.269294
31.600000 6.453125 44.269294
31.700000 7.875000 44.269294
31.800000 9.046875 44.269294
31.925000 10.359375 44.269294
32.075000 11.328125 44.269294
32.375000 12.484375 44.269294
31.225000 0.921875 44.436298
31.275000 2.265625 44.436298
31.300000 3.906250 44.436298
31.325000 4.734375 44.436298
31.375000 5.937500 44.436298
31.425000 7.234375 44.436298
31.550000 7.906250 44.436298
31.675000 9.796875 44.436298
31.800000 10.890625 44.436298
31.925000 12.109375 44.436298
30.875000 1.140625 44.585661
30.875000 2.281250 44.585661
30.925000 3.593750 44.585661
30.975000 4.265625 44.585661
31.050000 5.656250 44.585661
31.150000 7.140625 44.585661
31.250000 8.062500 44.585661
31.325000 8.781250 44.585661
31.425000 10.171875 44.585661
31.525000 11.078125 44.585661
31.800000 12.625000 44.585661
30.375000 -0.281250 44.743546
30.525000 0.968750 44.743546
30.550000 2.218750 44.743546
30.575000 2.734375 44.743546
30.600000 3.843750 44.743546
30.650000 5.265625 44.743546
30.725000 6.765625 44.743546
30.800000 8.046875 44.743546
30.900000 9.234375 44.743546
31.025000 10.046875 44.743546
31.125000 11.281250 44.743546
31.250000 12.343750 44.743546
30.425000 -0.203125 44.897909
30.475000 0.906250 44.897909
30.500000 1.906250 44.897909
30.500000 3.062500 44.897909
30.575000 4.875000 44.897909
30.600000 6.046875 44.897909
30.700000 6.890625 44.897909
30.800000 8.453125 44.897909
30.875000 9.109375 44.897909
31.000000 10.421875 44.897909
31.125000 11.671875 44.897909
31.425000 12.781250 44.897909
31.125000 1.500000 45.060403
31.200000 2.640625 45.060403
31.275000 3.640625 45.060403
31.300000 5.156250 45.060403
31.325000 6.031250 45.060403
31.400000 7.093750 45.060403
31.525000 8.546875 45.060403
31.650000 9.687500 45.060403
31.750000 10.609375 45.060403
31.850000 12.031250 45.060403
31.600000 1.218750 45.210979
31.650000 2.437500 45.210979
31.700000 3.875000 45.210979
31.725000 4.437500 45.210979
31.850000 5.968750 45.210979
31.925000 7.062500 45.210979
32.025000 8.312500 45.210979
32.150000 9.187500 45.210979
32.275000 10.359375 45.210979
32.400000 11.937500 45.210979
32.125000 1.781250 45.353497
32.150000 2.359375 45.353497
32.175000 3.625000 45.353497
32.225000 5.109375 45.353497
32.325000 5.875000 45.353497
32.425000 7.171875 45.353497
32.550000 8.156250 45.353497
32.675000 9.343750 45.353497
32.750000 10.656250 45.353497
32.975000 11.671875 45.353497
32.450000 0.750000 45.512602
32.450000 1.890625 45.512602
32.500000 3.062500 45.512602
32.550000 4.281250 45.512602
32.650000 5.187500 45.512602
32.750000 6.234375 45.512602
32.825000 7.796875 45.512602
32.950000 9.046875 45.512602
33.075000 9.984375 45.512602
33.175000 11.046875 45.512602
32.775000 1.812500 45.676776
32.800000 3.281250 45.676776
32.850000 4.312500 45.676776
32.925000 5.812500 45.676776
33.025000 6.531250 45.676776
33.150000 8.046875 45.676776
33.250000 8.812500 45.676776
33.375000 10.062500 45.676776
33.525000 11.046875 45.676776
32.950000 1.250000 45.831159
33.000000 2.296875 45.831159
33.050000 3.500000 45.831159
33.100000 4.375000 45.831159
33.175000 5.296875 45.831159
33.300000 6.703125 45.831159
33.400000 7.906250 45.831159
33.525000 9.265625 45.831159
33.650000 10.359375 45.831159
33.800000 11.421875 45.831159
32.875000 -0.015625 45.985656
33.125000 0.875000 45.985656
33.175000 1.812500 45.985656
33.225000 3.468750 45.985656
33.275000 4.562500 45.985656
33.350000 5.390625 45.985656
33.475000 6.671875 45.985656
33.600000 7.859375 45.985656
33.725000 9.218750 45.985656
33.850000 10.093750 45.985656
34.025000 11.312500 45.985656
32.975000 -0.171875 46.141270
33.325000 1.234375 46.141270
33.350000 1.875000 46.141270
33.375000 3.296875 46.141270
33.425000 4.421875 46.141270
33.450000 5.625000 46.141270
33.500000 6.625000 46.141270
33.675000 7.937500 46.141270
33.800000 9.218750 46.141270
33.950000 10.328125 46.141270
34.100000 11.562500 46.141270
33.425000 0.828125 46.297024
33.375000 2.328125 46.297024
33.475000 3.281250 46.297024
33.575000 4.718750 46.297024
33.650000 5.687500 46.297024
33.750000 6.921875 46.297024
33.850000 8.078125 46.297024
33.925000 9.593750 46.297024
34.025000 10.531250 46.297024
34.325000 11.828125 46.297024
33.650000 0.140625 46.451700
33.550000 1.562500 46.451700
33.500000 2.546875 46.451700
33.500000 3.984375 46.451700
33.625000 4.734375 46.451700
33.775000 5.796875 46.451700
33.850000 7.296875 46.451700
33.925000 8.687500 46.451700
34.050000 9.796875 46.451700
34.175000 10.500000 46.451700
33.675000 0.296875 46.608732
33.525000 1.875000 46.608732
33.500000 2.937500 46.608732
33.575000 3.875000 46.608732
33.675000 5.234375 46.608732
33.775000 6.500000 46.608732
33.900000 7.437500 46.608732
34.000000 8.671875 46.608732
34.075000 10.031250 46.608732
34.225000 11.203125 46.608732
33.675000 0.625000 46.752000
33.500000 1.375000 46.752000
33.500000 2.968750 46.752000
33.550000 3.687500 46.752000
33.650000 5.250000 46.752000
33.800000 6.359375 46.752000
33.900000 7.421875 46.752000
33.975000 8.437500 46.752000
34.075000 9.812500 46.752000
34.225000 10.734375 46.752000
33.375000 0.578125 46.908396
33.400000 1.859375 46.908396
33.500000 2.859375 46.908396
33.575000 4.109375 46.908396
33.650000 5.593750 46.908396
33.750000 6.703125 46.908396
33.850000 7.859375 46.908396
33.950000 8.765625 46.908396
34.075000 10.031250 46.908396
34.200000 11.000000 46.908396
33.350000 2.062500 47.065640
33.375000 3.406250 47.065640
33.475000 4.359375 47.065640
33.575000 5.468750 47.065640
33.625000 6.500000 47.065640
33.750000 7.609375 47.065640
33.825000 9.062500 47.065640
33.950000 10.171875 47.065640
34.100000 11.562500 47.065640
33.175000 1.218750 47.219711
33.250000 2.375000 47.219711
33.350000 3.187500 47.219711
33.400000 4.609375 47.219711
33.425000 5.906250 47.219711
33.475000 6.781250 47.219711
33.650000 8.296875 47.219711
33.800000 9.265625 47.219711
33.950000 10.468750 47.219711
34.075000 11.453125 47.219711
32.975000 1.125000 47.375408
33.025000 2.015625 47.375408
33.125000 3.328125 47.375408
33.175000 4.687500 47.375408
33.225000 5.750000 47.375408
33.325000 6.718750 47.375408
33.425000 8.000000 47.375408
33.550000 8.968750 47.375408
33.675000 10.140625 47.375408
33.850000 11.250000 47.375408
32.750000 0.859375 47.544591
32.800000 1.890625 47.544591
32.850000 3.500000 47.544591
32.900000 4.375000 47.544591
33.000000 5.390625 47.544591
33.125000 6.640625 47.544591
33.200000 8.250000 47.544591
33.300000 9.187500 47.544591
33.400000 10.625000 47.544591
33.550000 11.687500 47.544591
32.425000 1.234375 47.692182
32.475000 2.359375 47.692182
32.550000 3.906250 47.692182
32.575000 4.890625 47.692182
32.650000 6.015625 47.692182
32.775000 6.921875 47.692182
32.900000 7.890625 47.692182
33.025000 9.125000 47.692182
33.150000 10.468750 47.692182
33.250000 11.687500 47.692182
31.975000 1.812500 47.852592
32.025000 2.875000 47.852592
32.100000 4.140625 47.852592
32.200000 4.640625 47.852592
32.275000 6.156250 47.852592
32.375000 7.609375 47.852592
32.450000 8.390625 47.852592
32.575000 9.828125 47.852592
32.675000 11.093750 47.852592
32.775000 12.015625 47.852592
31.125000 0.109375 47.998536
31.400000 0.937500 47.998536
31.400000 2.140625 47.998536
31.475000 2.921875 47.998536
31.575000 4.031250 47.998536
31.650000 5.453125 47.998536
31.700000 6.828125 47.998536
31.800000 7.578125 47.998536
31.925000 9.390625 47.998536
32.025000 9.968750 47.998536
32.125000 11.031250 47.998536
32.450000 12.250000 47.998536
30.475000 0.125000 48.153465
30.800000 1.156250 48.153465
30.800000 2.859375 48.153465
30.825000 3.406250 48.153465
30.925000 4.718750 48.153465
30.975000 6.531250 48.153465
31.050000 7.250000 48.153465
31.150000 8.171875 48.153465
31.250000 9.375000 48.153465
31.325000 10.984375 48.153465
31.425000 12.375000 48.153465
30.525000 0.359375 48.314494
30.950000 1.734375 48.314494
31.000000 2.921875 48.314494
31.050000 4.546875 48.314494
31.125000 5.593750 48.314494
31.200000 6.890625 48.314494
31.275000 7.484375 48.314494
31.400000 8.500000 48.314494
31.500000 10.218750 48.314494
31.650000 11.406250 48.314494
31.825000 11.968750 48.314494
31.375000 2.140625 48.463585
31.375000 3.375000 48.463585
31.400000 4.390625 48.463585
31.475000 5.312500 48.463585
31.575000 7.000000 48.463585
31.650000 7.734375 48.463585
31.775000 8.640625 48.463585
31.925000 9.984375 48.463585
32.100000 11.125000 48.463585
32.375000 12.109375 48.463585
31.550000 1.015625 48.628556
31.575000 2.625000 48.628556
31.600000 3.734375 48.628556
31.675000 4.343750 48.628556
31.750000 5.640625 48.628556
31.825000 7.031250 48.628556
31.950000 7.781250 48.628556
32.125000 9.468750 48.628556
32.250000 10.390625 48.628556
32.375000 11.640625 48.628556
31.775000 1.640625 48.776507
31.800000 2.875000 48.776507
31.850000 3.234375 48.776507
31.950000 5.046875 48.776507
32.025000 6.250000 48.776507
32.100000 7.078125 48.776507
32.225000 8.562500 48.776507
32.350000 9.265625 48.776507
32.475000 10.328125 48.776507
32.625000 11.890625 48.776507
31.950000 1.515625 48.940091
31.975000 2.250000 48.940091
32.000000 3.843750 48.940091
32.050000 4.765625 48.940091
32.125000 5.968750 48.940091
32.300000 7.312500 48.940091
32.375000 8.156250 48.940091
32.500000 9.031250 48.940091
32.675000 10.437500 48.940091
32.825000 11.453125 48.940091
32.075000 1.062500 49.088360
32.100000 1.906250 49.088360
32.100000 3.140625 49.088360
32.175000 4.968750 49.088360
32.275000 5.468750 49.088360
32.325000 6.890625 49.088360
32.475000 7.890625 49.088360
32.575000 9.468750 49.088360
32.675000 10.515625 49.088360
32.825000 11.796875 49.088360
32.200000 0.968750 49.249911
32.150000 2.250000 49.249911
32.175000 3.453125 49.249911
32.350000 4.671875 49.249911
32.425000 5.968750 49.249911
32.475000 6.750000 49.249911
32.550000 7.875000 49.249911
32.700000 9.437500 49.249911
32.850000 10.546875 49.249911
32.975000 11.515625 49.249911
32.200000 0.984375 49.399602
32.175000 2.484375 49.399602
32.175000 3.453125 49.399602
32.275000 4.609375 49.399602
32.350000 6.171875 49.399602
32.400000 7.312500 49.399602
32.475000 8.421875 49.399602
32.675000 9.359375 49.399602
32.825000 10.390625 49.399602
32.950000 11.562500 49.399602
32.175000 1.312500 49.561730
32.150000 2.921875 49.561730
32.175000 3.546875 49.561730
32.250000 4.953125 49.561730
32.350000 5.718750 49.561730
32.475000 7.343750 49.561730
32.500000 8.406250 49.561730
32.650000 9.234375 49.561730
32.850000 10.281250 49.561730
33.000000 11.562500 49.561730
32.050000 1.718750 49.713118
32.100000 2.578125 49.713118
32.100000 3.468750 49.713118
32.200000 5.015625 49.713118
32.300000 5.718750 49.713118
32.400000 7.296875 49.713118
32.475000 8.578125 49.713118
32.575000 9.265625 49.713118
32.775000 11.046875 49.713118
32.875000 11.953125 49.713118
31.900000 0.390625 49.875540
31.950000 1.406250 49.875540
31.950000 2.734375 49.875540
32.000000 3.859375 49.875540
32.100000 4.984375 49.875540
32.175000 6.468750 49.875540
32.275000 7.578125 49.875540
32.375000 8.546875 49.875540
32.475000 9.671875 49.875540
32.600000 11.218750 49.875540
32.875000 12.015625 49.875540
31.775000 1.687500 50.023990
31.775000 2.703125 50.023990
31.800000 3.812500 50.023990
31.875000 5.000000 50.023990
31.975000 6.187500 50.023990
