36.725000 75.906250 37.209000
37.125000 74.609375 37.214404
35.425000 89.812500 37.311792
35.425000 88.203125 37.318498
35.400000 87.421875 37.321753
35.300000 83.781250 37.336922
35.225000 82.343750 37.342912
35.675000 81.218750 37.347599
36.200000 80.375000 37.351115
36.600000 79.125000 37.356323
36.675000 78.062500 37.360750
36.550000 76.796875 37.366024
36.775000 75.421875 37.371753
35.450000 89.375000 37.464321
35.425000 88.250000 37.469009
35.525000 87.156250 37.473566
35.425000 85.703125 37.479621
35.250000 84.640625 37.484048
35.225000 83.234375 37.489907
35.375000 82.328125 37.493683
35.775000 81.343750 37.497785
36.400000 79.890625 37.503839
36.700000 79.046875 37.507355
36.525000 77.750000 37.512759
36.500000 76.578125 37.517642
36.725000 75.250000 37.523175
35.475000 89.343750 37.627840
35.425000 88.390625 37.631811
35.525000 86.937500 37.637866
35.375000 85.703125 37.643009
35.200000 84.812500 37.646720
35.175000 83.640625 37.651603
35.175000 82.125000 37.657918
35.625000 81.375000 37.661043
36.400000 79.984375 37.666837
36.700000 79.140625 37.670353
36.500000 77.656250 37.676538
36.450000 76.906250 37.679663
36.750000 75.406250 37.685913
35.625000 89.421875 37.776167
35.500000 88.234375 37.781116
35.525000 86.906250 37.786649
35.400000 85.687500 37.791727
35.225000 84.437500 37.796936
35.200000 83.578125 37.800516
35.375000 82.156250 37.806441
35.900000 81.031250 37.811128
36.625000 79.906250 37.815816
36.800000 79.093750 37.819201
36.475000 77.890625 37.824214
36.475000 76.562500 37.829748
36.850000 75.578125 37.833850
35.800000 89.125000 37.939718
35.425000 87.906250 37.944796
35.600000 86.531250 37.950526
35.775000 85.531250 37.954692
35.550000 84.421875 37.959315
35.250000 83.078125 37.964914
36.550000 78.703125 37.983143
36.450000 77.484375 37.988221
36.600000 76.265625 37.993299
36.950000 75.203125 37.997726
35.825000 89.546875 38.087758
35.800000 88.421875 38.092446
35.675000 87.625000 38.095766
35.725000 86.328125 38.101170
35.825000 85.203125 38.105857
35.550000 83.640625 38.112368
35.450000 82.500000 38.117120
36.050000 81.484375 38.121352
36.600000 80.140625 38.126951
36.600000 79.437500 38.129881
36.450000 77.937500 38.136131
36.525000 76.734375 38.141144
36.750000 75.593750 38.145896
36.175000 89.328125 38.242872
36.000000 87.984375 38.248471
35.725000 86.906250 38.252963
35.875000 86.140625 38.256153
35.700000 84.546875 38.262793
35.375000 83.234375 38.268262
36.525000 78.625000 38.287468
36.375000 77.953125 38.290267
36.500000 76.468750 38.296452
36.850000 75.515625 38.300424
35.600000 89.375000 38.398059
35.450000 87.843750 38.404439
35.625000 86.750000 38.408996
35.775000 85.406250 38.414595
35.750000 84.562500 38.418111
35.600000 83.593750 38.422147
35.750000 82.000000 38.428788
36.225000 81.218750 38.432043
36.600000 80.000000 38.437121
36.525000 78.656250 38.442720
36.425000 77.656250 38.446887
36.575000 76.593750 38.451314
36.925000 75.328125 38.456588
35.650000 88.531250 38.557523
35.675000 87.296875 38.562667
35.750000 86.500000 38.565987
35.825000 85.500000 38.570153
35.800000 84.296875 38.575166
35.725000 82.609375 38.582198
36.075000 81.984375 38.584802
36.575000 80.593750 38.590596
36.550000 79.546875 38.594958
36.325000 78.140625 38.600818
36.375000 77.015625 38.605505
36.650000 75.687500 38.611039
37.250000 74.750000 38.614945
35.675000 87.015625 38.719065
35.725000 85.812500 38.724078
35.825000 85.109375 38.727008
35.825000 83.859375 38.732216
35.925000 82.640625 38.737294
36.275000 81.250000 38.743088
36.600000 80.125000 38.747776
36.500000 79.265625 38.751357
36.325000 77.656250 38.758063
36.450000 76.546875 38.762685
36.750000 75.343750 38.767698
35.375000 88.921875 38.867678
35.450000 88.015625 38.871454
35.675000 86.781250 38.876597
35.800000 85.921875 38.880178
35.850000 84.390625 38.886558
35.900000 83.203125 38.891506
36.125000 82.265625 38.895412
36.425000 81.125000 38.900165
36.625000 79.656250 38.906285
36.450000 78.843750 38.909670
36.300000 77.750000 38.914227
36.525000 76.328125 38.920152
36.925000 75.375000 38.924123
35.550000 88.812500 39.024324
35.650000 87.671875 39.029077
35.725000 86.734375 39.032983
35.825000 85.484375 39.038191
35.800000 84.359375 39.042879
35.875000 82.750000 39.049585
36.200000 82.093750 39.052319
36.500000 80.890625 39.057332
36.375000 79.531250 39.062996
36.125000 78.171875 39.068660
36.050000 76.781250 39.074454
36.375000 76.125000 39.077189
37.125000 74.953125 39.082072
35.425000 89.140625 39.177061
35.475000 87.796875 39.182660
35.675000 86.562500 39.187803
35.775000 85.328125 39.192946
35.850000 84.656250 39.195746
35.875000 83.265625 39.201540
36.100000 82.062500 39.206553
36.425000 81.296875 39.209743
36.825000 79.734375 39.216254
36.625000 78.500000 39.221397
36.275000 77.640625 39.224977
36.475000 76.312500 39.230511
36.875000 75.437500 39.234157
35.600000 88.921875 39.326842
35.650000 87.296875 39.333612
35.700000 86.109375 39.338560
35.800000 85.093750 39.342792
35.800000 84.000000 39.347349
35.875000 83.125000 39.350995
36.200000 82.000000 39.355683
36.475000 80.359375 39.362519
36.325000 79.546875 39.365904
36.125000 77.937500 39.372610
36.300000 77.015625 39.376451
36.650000 75.843750 39.381334
37.200000 74.937500 39.385110
35.550000 88.796875 39.488904
35.650000 87.843750 39.492875
35.700000 86.468750 39.498605
35.800000 85.421875 39.502967
35.825000 83.968750 39.509021
35.875000 82.984375 39.513123
36.200000 81.671875 39.518592
36.450000 80.437500 39.523735
36.300000 79.281250 39.528553
36.100000 77.906250 39.534282
36.275000 77.296875 39.536821
36.625000 76.171875 39.541508
37.125000 74.875000 39.546912
35.875000 88.687500 39.646459
35.650000 87.421875 39.651732
35.725000 86.171875 39.656940
35.800000 84.718750 39.662995
35.850000 83.734375 39.667097
35.900000 82.437500 39.672500
36.150000 81.640625 39.675821
36.450000 80.531250 39.680443
36.325000 79.234375 39.685847
36.175000 77.781250 39.691901
36.325000 76.843750 39.695808
36.575000 75.468750 39.701537
36.100000 89.406250 39.799012
35.800000 88.250000 39.803829
35.625000 87.000000 39.809038
35.800000 85.562500 39.815027
35.750000 84.437500 39.819715
35.675000 83.562500 39.823360
35.800000 82.406250 39.828178
36.075000 81.343750 39.832605
36.400000 80.218750 39.837293
36.300000 78.906250 39.842762
36.175000 77.375000 39.849142
36.325000 76.562500 39.852527
36.700000 75.187500 39.858256
35.550000 89.218750 39.950255
35.425000 87.515625 39.957352
35.625000 86.468750 39.961714
35.950000 85.515625 39.965685
35.775000 84.656250 39.969266
35.450000 83.218750 39.975255
35.675000 81.984375 39.980399
36.100000 80.906250 39.984891
36.650000 79.656250 39.990099
36.500000 78.484375 39.994982
36.175000 77.546875 39.998888
36.275000 76.343750 40.003901
36.750000 75.062500 40.009240
35.450000 88.656250 40.113254
35.450000 87.718750 40.117160
35.500000 86.437500 40.122499
35.225000 85.312500 40.127186
35.050000 84.140625 40.132069
35.350000 82.656250 40.138254
35.775000 81.921875 40.141314
36.200000 80.484375 40.147303
36.725000 79.515625 40.151340
36.550000 78.062500 40.157394
36.175000 76.921875 40.162147
36.400000 76.109375 40.165532
36.925000 74.734375 40.171262
35.500000 88.937500 40.264231
35.200000 87.781250 40.269049
35.375000 87.015625 40.272239
35.100000 85.453125 40.278749
34.825000 84.625000 40.282200
36.225000 78.906250 40.306028
36.175000 77.421875 40.312213
36.300000 76.609375 40.315598
36.700000 75.171875 40.321588
35.425000 89.750000 40.423426
35.400000 88.109375 40.430262
35.300000 87.093750 40.434494
35.075000 86.031250 40.438921
34.750000 84.890625 40.443673
35.025000 83.640625 40.448882
35.925000 80.015625 40.463986
36.375000 78.968750 40.468348
36.225000 77.718750 40.473556
36.275000 76.546875 40.478439
36.525000 75.593750 40.482410
35.425000 88.953125 40.574929
35.100000 87.671875 40.580268
35.200000 86.609375 40.584695
34.900000 85.265625 40.590294
34.650000 84.312500 40.594265
36.200000 78.531250 40.618354
36.175000 77.562500 40.622390
36.300000 76.250000 40.627859
36.550000 75.187500 40.632286
35.050000 90.046875 40.734509
35.175000 88.734375 40.739978
35.175000 87.656250 40.744470
35.550000 86.640625 40.748702
34.725000 83.750000 40.760746
35.075000 82.718750 40.765043
35.425000 81.531250 40.769991
35.900000 80.515625 40.774223
36.500000 79.640625 40.777869
36.425000 78.062500 40.784444
36.175000 77.218750 40.787960
36.300000 75.812500 40.793819
36.750000 74.750000 40.798246
35.125000 88.953125 40.887301
35.000000 87.765625 40.892250
35.025000 86.609375 40.897067
34.750000 85.671875 40.900973
34.850000 82.000000 40.916273
35.475000 81.296875 40.919203
36.075000 79.781250 40.925518
36.325000 78.453125 40.931051
36.250000 77.218750 40.936195
36.175000 76.562500 40.938929
36.350000 75.343750 40.944007
35.225000 89.015625 41.036245
34.975000 87.718750 41.041648
34.950000 86.281250 41.047638
34.750000 85.656250 41.050242
34.575000 84.125000 41.056622
34.825000 82.875000 41.061831
35.150000 82.203125 41.064630
35.475000 80.734375 41.070750
36.175000 79.578125 41.075567
36.375000 78.296875 41.080906
36.225000 77.140625 41.085724
36.150000 76.328125 41.089109
36.375000 74.796875 41.095490
34.875000 89.796875 41.192102
34.900000 88.312500 41.198287
35.075000 87.703125 41.200826
34.825000 86.515625 41.205774
34.425000 85.078125 41.211764
34.375000 83.750000 41.217298
36.225000 79.406250 41.235397
36.400000 78.390625 41.239629
36.250000 76.890625 41.245878
36.175000 76.109375 41.249134
36.450000 75.031250 41.253626
35.000000 89.359375 41.347749
35.000000 88.312500 41.352111
35.075000 87.343750 41.356148
34.825000 86.140625 41.361161
34.400000 85.031250 41.365783
34.350000 83.390625 41.372619
34.450000 82.421875 41.376656
34.825000 81.171875 41.381864
35.550000 80.187500 41.385966
36.300000 79.187500 41.390132
36.450000 77.937500 41.395340
36.125000 76.562500 41.401070
35.525000 90.187500 41.505095
35.325000 88.921875 41.510369
34.875000 88.078125 41.513884
34.575000 84.390625 41.529249
34.400000 83.281250 41.533871
34.675000 81.609375 41.540838
35.050000 80.812500 41.544158
35.750000 79.953125 41.547739
36.225000 78.671875 41.553077
36.125000 77.234375 41.559067
35.975000 76.281250 41.563038
36.250000 75.265625 41.567270
34.825000 89.031250 41.660136
34.900000 87.421875 41.666842
34.575000 84.000000 41.681100
34.325000 82.640625 41.686764
34.575000 81.890625 41.689889
36.100000 77.000000 41.710266
35.950000 76.265625 41.713326
36.275000 74.765625 41.719576
34.750000 87.593750 41.827229
34.950000 86.968750 41.829833
35.050000 85.625000 41.835432
34.625000 84.187500 41.841422
34.250000 83.187500 41.845588
34.450000 81.843750 41.851187
34.750000 80.796875 41.855549
35.375000 79.812500 41.859651
35.925000 78.718750 41.864208
36.000000 77.375000 41.869807
35.950000 76.171875 41.874820
36.200000 75.406250 41.878010
34.925000 90.265625 41.964623
34.925000 88.984375 41.969962
34.800000 87.859375 41.974649
34.950000 86.859375 41.978816
35.025000 85.484375 41.984545
34.650000 83.890625 41.991186
34.300000 82.687500 41.996199
34.550000 81.937500 41.999324
34.900000 80.890625 42.003686
35.450000 79.468750 42.009610
35.675000 78.125000 42.015209
35.700000 77.500000 42.017813
35.925000 76.328125 42.022696
36.275000 74.781250 42.029142
34.850000 88.640625 42.135974
34.775000 87.718750 42.139815
34.900000 86.687500 42.144112
34.775000 85.046875 42.150948
34.425000 84.359375 42.153813
34.300000 82.750000 42.160518
34.525000 81.875000 42.164164
34.875000 80.328125 42.170609
35.250000 79.531250 42.173930
35.475000 78.109375 42.179854
35.675000 77.343750 42.183044
35.900000 75.968750 42.188774
36.250000 74.656250 42.194242
34.850000 89.953125 42.277511
34.825000 88.687500 42.282784
34.750000 87.875000 42.286170
34.875000 86.484375 42.291964
34.675000 85.343750 42.296717
34.650000 84.250000 42.301274
34.600000 83.125000 42.305961
34.550000 81.531250 42.312602
34.900000 80.453125 42.317094
35.250000 79.515625 42.321001
35.450000 78.531250 42.325102
35.650000 77.156250 42.330831
35.875000 76.156250 42.334998
36.225000 74.875000 42.340337
35.025000 89.281250 42.443524
34.725000 88.406250 42.447170
34.725000 87.125000 42.452508
34.800000 86.281250 42.456024
34.725000 84.796875 42.462209
34.725000 83.656250 42.466961
34.750000 82.375000 42.472300
34.875000 81.562500 42.475685
35.100000 80.203125 42.481349
35.250000 79.109375 42.485907
35.425000 77.812500 42.491310
35.600000 76.609375 42.496323
34.775000 88.828125 42.594874
34.575000 88.062500 42.598064
34.750000 86.781250 42.603403
34.800000 85.750000 42.607699
34.775000 84.218750 42.614080
34.800000 83.000000 42.619158
34.900000 82.078125 42.622999
34.950000 80.890625 42.627947
35.075000 79.656250 42.633090
35.275000 78.500000 42.637908
35.450000 77.578125 42.641749
35.675000 76.265625 42.647218
36.025000 74.843750 42.653142
34.825000 89.281250 42.753624
34.650000 88.687500 42.756099
34.725000 87.234375 42.762153
34.775000 86.140625 42.766710
34.800000 84.656250 42.772895
34.800000 83.828125 42.776346
34.825000 82.781250 42.780708
35.000000 81.453125 42.786242
35.025000 80.140625 42.791710
35.050000 78.859375 42.797049
35.325000 78.000000 42.800630
35.550000 76.562500 42.806619
35.800000 75.484375 42.811111
36.350000 74.656250 42.814562
34.875000 89.078125 42.907568
34.650000 88.125000 42.911539
34.700000 86.937500 42.916487
34.775000 85.625000 42.921956
34.800000 84.671875 42.925927
34.775000 83.828125 42.929442
34.875000 82.390625 42.935432
34.875000 81.515625 42.939078
34.850000 79.906250 42.945784
35.050000 78.781250 42.950471
35.275000 77.656250 42.955159
35.525000 76.828125 42.958609
34.775000 89.109375 43.065927
34.550000 87.609375 43.072177
34.700000 86.703125 43.075953
34.750000 85.703125 43.080120
34.775000 84.437500 43.085393
34.800000 83.171875 43.090667
34.975000 82.203125 43.094703
35.000000 80.703125 43.100953
34.975000 79.500000 43.105966
35.175000 78.437500 43.110393
35.375000 77.640625 43.113714
35.525000 76.453125 43.118662
35.850000 74.875000 43.125237
34.700000 89.515625 43.216096
34.575000 88.531250 43.220197
34.700000 87.156250 43.225926
34.700000 86.203125 43.229898
34.750000 85.421875 43.233153
34.775000 84.171875 43.238361
34.850000 82.875000 43.243765
34.900000 81.312500 43.250275
34.925000 80.609375 43.253205
34.950000 79.093750 43.259520
35.150000 78.296875 43.262841
35.375000 77.140625 43.267658
35.600000 75.796875 43.273257
36.000000 74.718750 43.277749
35.000000 89.484375 43.377869
34.675000 88.671875 43.381254
34.725000 87.296875 43.386983
34.750000 86.203125 43.391541
34.775000 84.875000 43.397074
34.800000 83.843750 43.401371
34.850000 82.281250 43.407882
34.875000 81.453125 43.411332
34.875000 80.390625 43.415759
35.025000 79.343750 43.420121
35.225000 77.937500 43.425981
35.375000 76.734375 43.430994
35.625000 75.750000 43.435095
36.125000 74.765625 43.439197
35.000000 89.578125 43.529568
34.700000 88.562500 43.533800
34.700000 87.296875 43.539073
34.750000 86.250000 43.543435
34.775000 84.578125 43.550401
34.800000 83.578125 43.554568
34.925000 82.531250 43.558930
34.950000 81.015625 43.565245
34.850000 79.906250 43.569867
35.025000 79.250000 43.572602
35.225000 77.937500 43.578070
35.400000 76.500000 43.584060
35.650000 75.687500 43.587445
36.200000 74.500000 43.592393
34.700000 87.046875 43.701296
34.750000 85.796875 43.706504
34.800000 84.562500 43.711647
34.825000 83.046875 43.717962
35.100000 82.078125 43.721999
35.150000 81.062500 43.726230
35.000000 80.078125 43.730332
35.200000 78.812500 43.735605
35.375000 77.562500 43.740814
35.525000 76.000000 43.747324
35.775000 75.234375 43.750514
35.025000 89.671875 43.842487
34.600000 88.390625 43.847826
34.725000 87.218750 43.852709
34.750000 86.156250 43.857136
34.775000 85.031250 43.861823
34.875000 83.671875 43.867487
35.050000 82.531250 43.872240
35.025000 81.250000 43.877578
34.925000 80.171875 43.882071
35.050000 79.296875 43.885716
35.250000 78.062500 43.890860
35.400000 77.156250 43.894636
35.600000 75.531250 43.901407
36.050000 74.578125 43.905378
35.050000 89.625000 44.002337
34.600000 88.125000 44.008587
34.725000 87.343750 44.011842
34.750000 86.484375 44.015423
34.800000 85.046875 44.021412
34.900000 83.953125 44.025970
35.050000 82.890625 44.030397
35.000000 81.281250 44.037102
34.925000 80.187500 44.041660
35.050000 78.890625 44.047063
35.250000 77.781250 44.051686
35.400000 76.906250 44.055332
35.600000 75.625000 44.060670
36.025000 74.343750 44.066009
35.225000 89.468750 44.143193
34.875000 88.640625 44.146644
34.750000 87.734375 44.150420
34.775000 86.015625 44.157582
34.800000 85.343750 44.160381
34.900000 84.078125 44.165654
35.050000 82.781250 44.171058
35.000000 81.640625 44.175811
34.925000 80.156250 44.181996
35.075000 79.468750 44.184860
35.275000 78.312500 44.189678
35.400000 77.140625 44.194561
35.600000 75.453125 44.201592
36.025000 74.515625 44.205498
34.800000 88.453125 44.303858
34.800000 87.390625 44.308285
34.775000 86.156250 44.313428
34.875000 85.109375 44.317791
34.975000 83.421875 44.324822
35.150000 82.343750 44.329314
35.050000 81.328125 44.333546
34.825000 80.046875 44.338884
35.025000 78.937500 44.343507
35.250000 77.625000 44.348975
35.425000 76.531250 44.353533
35.675000 75.718750 44.356918
36.225000 74.390625 44.362452
34.825000 87.031250 44.464637
34.825000 85.781250 44.469845
34.875000 84.921875 44.473426
34.975000 83.468750 44.479480
35.175000 82.640625 44.482931
35.075000 80.968750 44.489897
34.950000 80.296875 44.492696
35.125000 79.046875 44.497905
35.275000 78.015625 44.502202
35.525000 76.546875 44.508321
34.850000 87.046875 44.621062
34.850000 85.718750 44.626596
34.900000 84.171875 44.633041
35.000000 83.328125 44.636557
35.225000 81.921875 44.642416
35.175000 81.015625 44.646192
34.975000 79.781250 44.651336
35.175000 78.343750 44.657325
35.425000 77.671875 44.660125
35.600000 76.375000 44.665528
35.850000 75.343750 44.669825
34.900000 89.937500 44.765301
34.550000 88.703125 44.770445
34.750000 87.093750 44.777150
34.775000 86.484375 44.779689
34.825000 85.140625 44.785288
34.900000 84.015625 44.789976
35.050000 82.640625 44.795705
35.050000 81.375000 44.800978
35.050000 80.453125 44.804820
35.150000 79.062500 44.810614
35.350000 77.796875 44.815887
35.500000 76.828125 44.819924
35.700000 75.578125 44.825132
36.225000 74.796875 44.828387
34.825000 86.968750 44.933530
34.875000 86.078125 44.937241
34.925000 84.609375 44.943361
34.975000 83.203125 44.949220
35.175000 82.234375 44.953257
35.150000 81.187500 44.957619
35.000000 80.015625 44.962502
35.225000 78.734375 44.967840
35.475000 77.296875 44.973830
35.650000 76.328125 44.977866
35.850000 75.281250 44.982228
34.850000 90.093750 45.074828
34.700000 88.609375 45.081012
34.800000 87.640625 45.085049
34.825000 86.062500 45.091624
34.900000 85.375000 45.094489
34.975000 83.828125 45.100934
35.025000 82.828125 45.105101
35.200000 81.750000 45.109593
35.200000 80.421875 45.115127
35.150000 79.187500 45.120270
35.350000 78.296875 45.123981
35.600000 77.015625 45.129320
35.800000 75.984375 45.133617
36.200000 74.703125 45.138955
34.975000 89.312500 45.235237
34.800000 88.000000 45.240706
34.850000 86.843750 45.245524
34.900000 85.750000 45.250081
34.950000 84.250000 45.256331
35.000000 83.109375 45.261084
35.175000 82.265625 45.264599
35.125000 80.671875 45.271240
35.000000 79.734375 45.275146
35.300000 78.750000 45.279248
35.550000 77.343750 45.285107
35.750000 76.250000 45.289665
36.050000 75.140625 45.294287
34.975000 89.546875 45.390728
34.825000 88.406250 45.395481
34.825000 87.156250 45.400689
34.900000 85.578125 45.407264
34.975000 84.734375 45.410780
34.975000 83.750000 45.414882
35.075000 82.453125 45.420285
35.350000 81.437500 45.424517
35.425000 80.125000 45.429986
35.325000 78.546875 45.436561
35.550000 77.906250 45.439231
35.725000 76.656250 45.444439
35.950000 75.218750 45.450428
34.750000 89.453125 45.546567
34.650000 88.250000 45.551580
34.900000 87.609375 45.554249
34.950000 86.031250 45.560825
35.050000 85.046875 45.564926
35.050000 84.046875 45.569093
35.050000 82.906250 45.573846
35.175000 81.718750 45.578794
35.250000 80.625000 45.583351
35.350000 78.906250 45.590512
35.500000 78.093750 45.593898
35.700000 77.062500 45.598195
36.025000 76.000000 45.602622
36.550000 74.531250 45.608742
34.925000 89.265625 45.698205
34.825000 88.109375 45.703023
34.900000 87.218750 45.706734
35.025000 85.875000 45.712333
35.000000 84.359375 45.718648
35.075000 83.187500 45.723531
35.100000 82.187500 45.727697
35.100000 81.000000 45.732645
35.250000 79.765625 45.737789
35.450000 78.609375 45.742606
35.700000 77.875000 45.745666
35.925000 76.468750 45.751526
36.125000 75.453125 45.755757
35.050000 88.875000 45.860759
34.775000 87.937500 45.864666
34.975000 86.453125 45.870851
35.100000 85.390625 45.875278
35.300000 84.328125 45.879705
35.125000 82.765625 45.886215
34.875000 81.843750 45.890056
35.150000 80.890625 45.894028
35.400000 79.390625 45.900278
35.600000 78.609375 45.903533
35.750000 77.421875 45.908481
35.925000 76.328125 45.913038
36.275000 74.890625 45.919028
34.825000 89.406250 46.011186
34.750000 88.203125 46.016199
34.925000 87.468750 46.019259
34.975000 86.031250 46.025248
34.775000 84.859375 46.030131
34.625000 83.640625 46.035209
34.775000 82.609375 46.039506
34.975000 81.593750 46.043738
35.300000 80.078125 46.050053
35.600000 79.250000 46.053504
35.775000 77.812500 46.059493
35.875000 76.750000 46.063920
35.050000 89.203125 46.171909
34.925000 88.250000 46.175880
35.075000 87.093750 46.180698
35.150000 86.031250 46.185125
35.225000 84.484375 46.191571
34.925000 83.593750 46.195281
34.800000 82.640625 46.199253
35.050000 81.484375 46.204070
35.375000 80.093750 46.209865
35.700000 78.765625 46.215399
35.875000 78.015625 46.218524
36.025000 76.578125 46.224513
36.275000 75.437500 46.229266
35.050000 89.359375 46.325601
34.950000 88.500000 46.329181
35.100000 87.031250 46.335301
35.150000 86.000000 46.339598
35.375000 84.656250 46.345197
35.075000 83.343750 46.350666
34.775000 82.578125 46.353856
35.025000 81.531250 46.358218
35.350000 79.968750 46.364728
35.700000 79.156250 46.368114
35.875000 77.968750 46.373062
36.025000 76.437500 46.379442
36.275000 75.343750 46.383999
35.175000 89.250000 46.483832
35.000000 88.062500 46.488780
35.100000 86.781250 46.494119
34.925000 83.453125 46.507986
34.800000 82.515625 46.511892
35.050000 81.062500 46.517947
35.375000 80.093750 46.521983
35.775000 78.765625 46.527517
35.975000 77.937500 46.530967
36.100000 76.406250 46.537348
36.425000 75.656250 46.540473
35.175000 89.046875 46.632075
34.950000 88.125000 46.635916
35.200000 86.796875 46.641450
34.750000 85.671875 46.646137
34.525000 83.984375 46.653168
34.900000 83.406250 46.655577
34.975000 81.906250 46.661827
35.250000 80.890625 46.666059
35.900000 79.828125 46.670486
36.175000 78.843750 46.674588
36.075000 77.578125 46.679861
36.225000 76.062500 46.686176
36.600000 75.218750 46.689692
35.200000 88.906250 46.798518
35.100000 88.015625 46.802229
35.250000 86.875000 46.806982
35.150000 83.031250 46.822997
35.150000 81.921875 46.827620
35.425000 81.187500 46.830680
35.775000 80.015625 46.835562
36.375000 78.906250 46.840185
36.525000 77.796875 46.844807
36.325000 76.500000 46.850211
36.600000 75.375000 46.854898
35.325000 88.671875 46.950091
35.025000 88.093750 46.952499
35.225000 86.984375 46.957122
34.875000 85.343750 46.963958
34.650000 84.515625 46.967408
35.000000 83.343750 46.972291
35.400000 82.125000 46.977369
35.700000 80.843750 46.982708
36.175000 79.640625 46.987721
36.675000 78.453125 46.992669
36.550000 77.328125 46.997356
36.400000 76.453125 47.001002
36.700000 75.171875 47.006341
35.075000 89.625000 47.095640
35.050000 88.234375 47.101434
35.275000 87.015625 47.106512
35.100000 83.828125 47.119793
36.650000 79.125000 47.139390
36.800000 78.109375 47.143622
36.475000 76.562500 47.150067
36.575000 75.531250 47.154364
35.400000 88.890625 47.258308
35.225000 88.265625 47.260912
35.275000 87.062500 47.265925
34.875000 85.906250 47.270742
34.700000 84.390625 47.277058
35.050000 83.156250 47.282201
35.225000 82.109375 47.286563
35.650000 81.109375 47.290730
36.200000 80.031250 47.295222
36.575000 78.578125 47.301276
36.575000 77.296875 47.306615
36.525000 76.343750 47.310586
36.750000 75.140625 47.315599
35.275000 88.390625 47.413101
35.325000 87.531250 47.416682
35.425000 86.359375 47.421565
35.650000 84.937500 47.427490
35.400000 83.953125 47.431591
35.250000 83.125000 47.435041
35.775000 81.812500 47.440510
36.300000 78.062500 47.456135
36.600000 77.171875 47.459846
36.625000 75.843750 47.465380
37.050000 74.781250 47.469807
35.425000 88.875000 47.570110
35.250000 88.078125 47.573430
35.450000 87.140625 47.577336
35.175000 85.687500 47.583391
34.900000 84.140625 47.589836
35.125000 83.312500 47.593287
35.500000 81.953125 47.598951
35.850000 81.203125 47.602076
36.475000 80.187500 47.606308
36.825000 78.500000 47.613339
36.650000 77.687500 47.616724
36.600000 76.359375 47.622258
36.750000 75.359375 47.626425
35.475000 89.343750 47.719494
35.300000 88.062500 47.724832
35.450000 87.109375 47.728803
35.175000 85.515625 47.735444
34.900000 84.734375 47.738699
35.125000 83.406250 47.744233
35.525000 82.328125 47.748725
35.875000 80.828125 47.754975
36.475000 80.140625 47.757840
36.800000 78.796875 47.763439
36.650000 77.750000 47.767801
36.625000 76.312500 47.773790
36.775000 75.375000 47.777697
35.225000 89.671875 47.880095
35.300000 88.203125 47.886215
35.450000 87.171875 47.890512
35.200000 83.765625 47.904705
36.550000 79.078125 47.924236
36.700000 77.921875 47.929054
36.575000 76.875000 47.933415
35.525000 88.890625 48.031433
35.250000 87.765625 48.036120
35.450000 86.796875 48.040157
35.350000 85.390625 48.046016
35.200000 84.171875 48.051094
35.225000 83.171875 48.055261
35.550000 81.984375 48.060209
36.050000 80.812500 48.065091
36.575000 79.656250 48.069909
36.725000 78.500000 48.074727
36.550000 77.265625 48.079870
36.625000 76.359375 48.083646
36.850000 75.421875 48.087552
35.475000 89.375000 48.193013
35.425000 88.484375 48.196723
35.550000 87.359375 48.201411
35.400000 85.750000 48.208117
35.200000 84.437500 48.213586
35.225000 83.765625 48.216385
35.300000 82.046875 48.223547
35.700000 81.437500 48.226086
36.475000 80.015625 48.232010
36.750000 78.937500 48.236502
36.500000 77.953125 48.240604
36.550000 76.750000 48.245617
36.825000 75.562500 48.250565
35.250000 88.890625 48.344973
35.550000 88.000000 48.348684
35.600000 86.421875 48.355259
35.825000 85.203125 48.360337
35.525000 83.953125 48.365546
35.175000 83.265625 48.368410
35.650000 82.078125 48.373358
36.325000 80.625000 48.379413
36.850000 79.828125 48.382733
36.700000 78.250000 48.389309
36.450000 77.140625 48.393931
36.625000 76.187500 48.397902
37.000000 74.984375 48.402915
35.625000 89.593750 48.504217
35.600000 88.421875 48.509100
35.600000 87.093750 48.514634
35.575000 86.031250 48.519061
35.475000 84.562500 48.525181
35.300000 83.859375 48.528111
35.475000 82.453125 48.533970
36.050000 81.140625 48.539439
36.600000 80.406250 48.542499
36.700000 79.015625 48.548293
36.450000 78.000000 48.552525
36.525000 76.953125 48.556887
36.825000 75.703125 48.562095
35.725000 89.250000 48.653181
35.550000 88.203125 48.657543
35.675000 86.984375 48.662621
35.850000 85.750000 48.667764
35.600000 84.234375 48.674079
35.225000 83.140625 48.678636
36.550000 78.703125 48.697126
36.400000 77.765625 48.701032
36.550000 76.515625 48.706241
36.900000 75.453125 48.710668
35.775000 89.687500 48.805949
35.800000 88.421875 48.811222
35.700000 87.250000 48.816105
35.750000 86.218750 48.820402
35.850000 85.328125 48.824113
35.575000 84.031250 48.829516
35.500000 82.812500 48.834595
36.075000 81.500000 48.840063
36.575000 80.406250 48.844621
36.600000 79.390625 48.848852
36.450000 78.093750 48.854256
36.500000 77.078125 48.858488
35.575000 88.890625 48.964942
35.475000 87.718750 48.969825
35.675000 86.765625 48.973796
35.825000 85.593750 48.978679
35.725000 84.515625 48.983171
35.550000 83.140625 48.988900
35.700000 82.328125 48.992286
36.200000 80.859375 48.998406
36.600000 79.906250 49.002377
36.525000 78.500000 49.008236
36.400000 77.453125 49.012599
36.525000 76.593750 49.016179
36.950000 75.281250 49.021648
35.475000 88.859375 49.120308
35.550000 87.921875 49.124215
35.750000 86.875000 49.128577
35.750000 85.609375 49.133850
35.850000 84.312500 49.139254
35.725000 83.390625 49.143095
35.800000 82.187500 49.148108
36.325000 81.234375 49.152079
36.625000 79.984375 49.157288
36.500000 78.703125 49.162626
36.375000 77.468750 49.167769
36.500000 76.406250 49.172196
36.925000 75.078125 49.177730
35.375000 89.234375 49.273037
35.450000 88.000000 49.278181
35.675000 86.546875 49.284235
35.750000 85.656250 49.287946
35.925000 84.312500 49.293545
35.925000 83.546875 49.296736
35.925000 82.390625 49.301553
36.325000 80.875000 49.307868
36.625000 80.125000 49.310993
36.500000 78.640625 49.317178
36.350000 77.609375 49.321475
36.450000 76.109375 49.327725
36.875000 75.375000 49.330785
35.800000 88.734375 49.430519
35.700000 87.359375 49.436248
35.750000 86.343750 49.440480
35.850000 84.968750 49.446209
35.875000 83.968750 49.450376
35.925000 83.046875 49.454217
36.225000 81.781250 49.459490
36.575000 80.734375 49.463852
36.450000 79.515625 49.468930
36.250000 78.000000 49.475245
36.400000 76.828125 49.480128
36.675000 76.062500 49.483318
37.250000 74.656250 49.489177
35.925000 88.406250 49.601289
35.675000 87.125000 49.606627
35.725000 86.140625 49.610729
35.825000 85.296875 49.614244
35.825000 84.140625 49.619062
35.900000 82.953125 49.624010
36.200000 81.718750 49.629153
36.525000 80.312500 49.635013
36.425000 79.453125 49.638593
36.225000 78.187500 49.643867
36.375000 76.859375 49.649401
36.675000 76.000000 49.652982
37.275000 74.640625 49.658646
35.575000 87.125000 49.748262
35.725000 86.203125 49.752103
35.800000 84.843750 49.757767
35.800000 83.609375 49.762911
36.000000 82.437500 49.767793
36.300000 81.062500 49.773523
36.500000 80.328125 49.776582
36.375000 79.187500 49.781335
36.200000 77.859375 49.786869
36.450000 76.359375 49.793119
36.850000 75.703125 49.795853
35.600000 88.796875 49.910969
35.650000 87.484375 49.916438
35.725000 86.531250 49.920410
35.800000 85.421875 49.925032
35.825000 84.187500 49.930175
35.900000 82.796875 49.935970
36.225000 81.562500 49.941113
36.550000 80.375000 49.946061
36.350000 79.218750 49.950878
36.150000 78.218750 49.955045
36.350000 77.093750 49.959733
36.675000 76.046875 49.964095
37.250000 74.796875 49.969303
35.400000 88.625000 50.070421
35.625000 87.750000 50.074067
35.725000 86.734375 50.078299
35.800000 85.015625 50.085460
35.825000 84.000000 50.089692
35.900000 83.109375 50.093403
36.225000 82.093750 50.097635
36.475000 80.828125 50.102908
36.300000 79.578125 50.108116
36.100000 78.218750 50.113780
36.225000 77.218750 50.117947
36.525000 75.906250 50.123416
37.075000 75.031250 50.127062
36.450000 89.265625 50.205835
35.725000 86.890625 50.215731
35.775000 86.078125 50.219117
35.875000 84.390625 50.226148
35.875000 83.562500 50.229598
36.025000 82.312500 50.234807
36.300000 81.328125 50.238908
36.475000 80.250000 50.243401
36.325000 78.812500 50.249390
36.175000 77.703125 50.254012
36.350000 76.343750 50.259676
36.725000 75.281250 50.264104
35.575000 88.890625 50.363410
35.450000 87.812500 50.367902
35.650000 86.750000 50.372329
35.750000 85.656250 50.376886
35.750000 84.515625 50.381639
35.750000 83.281250 50.386782
35.950000 82.062500 50.391860
36.300000 80.671875 50.397654
36.700000 79.859375 50.401040
36.575000 78.625000 50.406183
36.275000 77.484375 50.410935
36.425000 76.281250 50.415949
36.850000 74.984375 50.421352
35.850000 88.375000 50.522957
35.600000 87.546875 50.526407
35.700000 86.390625 50.531225
35.550000 85.078125 50.536694
35.500000 83.890625 50.541641
35.675000 82.390625 50.547891
36.075000 81.546875 50.551407
36.450000 80.125000 50.557332
36.350000 79.234375 50.561043
36.200000 77.734375 50.567292
36.275000 76.859375 50.570938
35.825000 89.750000 50.672085
35.775000 88.093750 50.678986
35.575000 87.468750 50.681590
35.800000 86.234375 50.686733
35.475000 84.578125 50.693635
35.350000 83.468750 50.698257
36.150000 80.046875 50.712515
36.350000 78.953125 50.717072
36.200000 77.890625 50.721499
36.225000 76.671875 50.726577
36.500000 75.843750 50.730028
35.525000 88.812500 50.828529
35.250000 88.015625 50.831849
35.425000 86.890625 50.836537
35.175000 85.375000 50.842852
34.900000 84.484375 50.846563
36.275000 78.546875 50.871303
36.200000 77.546875 50.875469
36.375000 76.578125 50.879506
36.725000 75.359375 50.884584
35.225000 88.578125 50.988625
35.275000 87.484375 50.993182
35.450000 86.484375 50.997349
35.175000 85.609375 51.000994
34.800000 83.906250 51.008091
34.900000 82.890625 51.012322
36.375000 78.171875 51.031984
36.150000 77.078125 51.036541
36.325000 75.828125 51.041749
36.675000 74.750000 51.046242
35.100000 89.875000 51.136166
35.325000 88.421875 51.142221
34.950000 85.187500 51.155698
34.750000 84.062500 51.160385
35.100000 82.562500 51.166635
35.525000 81.625000 51.170541
36.050000 80.546875 51.175033
36.575000 79.343750 51.180046
36.500000 77.953125 51.185841
36.250000 77.234375 51.188835
36.400000 76.046875 51.193784
36.825000 74.656250 51.199578
35.400000 89.796875 51.297749
35.450000 88.265625 51.304129
34.950000 85.109375 51.317280
34.875000 83.859375 51.322488
35.375000 82.906250 51.326460
35.675000 81.500000 51.332319
36.000000 80.484375 51.336551
36.475000 78.953125 51.342931
36.400000 78.234375 51.345926
36.225000 77.046875 51.350874
35.025000 89.703125 51.447299
35.175000 88.296875 51.453159
35.175000 87.203125 51.457716
35.450000 86.218750 51.461818
34.725000 83.687500 51.472364
35.075000 82.734375 51.476336
35.400000 81.296875 51.482325
35.875000 80.296875 51.486492
36.425000 79.437500 51.490073
36.425000 77.890625 51.496518
36.225000 76.718750 51.501401
36.275000 75.984375 51.504461
36.700000 74.718750 51.509734
35.275000 89.703125 51.610166
35.275000 88.390625 51.615635
35.175000 87.265625 51.620322
35.550000 86.265625 51.624489
34.625000 83.484375 51.636078
34.850000 82.468750 51.640309
35.150000 81.609375 51.643890
35.825000 80.093750 51.650205
36.325000 79.218750 51.653851
36.375000 77.593750 51.660622
36.200000 76.734375 51.664203
36.300000 75.640625 51.668760
35.200000 88.890625 51.766685
34.950000 87.531250 51.772349
34.975000 86.703125 51.775799
35.225000 85.437500 51.781072
34.725000 83.046875 51.791034
35.100000 82.218750 51.794484
35.450000 80.828125 51.800278
36.050000 79.703125 51.804966
36.350000 78.531250 51.809849
36.175000 77.390625 51.814601
36.125000 76.484375 51.818377
36.325000 74.937500 51.824822
34.925000 89.625000 51.926800
34.900000 88.609375 51.931032
35.025000 87.718750 51.934743
34.700000 86.046875 51.941709
34.300000 85.156250 51.945420
34.350000 84.156250 51.949587
36.200000 79.250000 51.970030
36.400000 77.937500 51.975498
36.125000 77.093750 51.979014
36.100000 75.875000 51.984092
36.450000 74.703125 51.988975
35.100000 89.687500 52.072200
35.000000 88.046875 52.079036
35.025000 87.265625 52.082291
35.075000 85.765625 52.088541
34.650000 84.359375 52.094401
34.350000 83.578125 52.097656
34.625000 82.609375 52.101692
34.975000 80.906250 52.108789
35.575000 78.015625 52.120833
36.000000 76.296875 52.127994
36.200000 75.171875 52.132682
34.900000 87.484375 52.233377
34.600000 83.968750 52.248026
34.325000 83.125000 52.251541
34.575000 82.000000 52.256229
34.975000 80.843750 52.261047
35.650000 79.687500 52.265864
36.150000 78.562500 52.270552
36.075000 77.421875 52.275305
35.975000 76.046875 52.281034
36.275000 75.093750 52.285005
35.125000 89.671875 52.384285
35.025000 88.343750 52.389819
34.950000 86.968750 52.395548
34.525000 85.734375 52.400692
34.200000 85.015625 52.403686
34.275000 83.593750 52.409611
34.375000 82.109375 52.415796
34.650000 81.171875 52.419702
35.900000 76.937500 52.437345
35.250000 90.156250 52.533364
34.950000 88.781250 52.539093
34.750000 87.609375 52.543976
34.875000 86.343750 52.549249
34.975000 85.593750 52.552374
34.625000 84.484375 52.556997
34.300000 83.250000 52.562140
34.550000 82.125000 52.566827
35.125000 78.437500 52.582192
35.650000 77.578125 52.585773
35.825000 76.250000 52.591306
36.225000 74.781250 52.597426
34.925000 88.437500 52.701422
34.775000 87.687500 52.704547
34.875000 86.546875 52.709300
34.925000 85.265625 52.714638
34.600000 83.828125 52.720628
34.350000 82.828125 52.724795
34.550000 81.796875 52.729092
34.900000 80.656250 52.733844
35.300000 79.578125 52.738336
35.500000 78.218750 52.744000
35.650000 77.218750 52.748167
35.875000 76.062500 52.752985
36.225000 74.609375 52.759040
35.175000 89.187500 52.846879
34.800000 88.328125 52.850460
34.800000 86.812500 52.856775
34.625000 83.593750 52.870187
34.475000 82.359375 52.875330
34.750000 80.812500 52.881775
35.200000 80.093750 52.884770
35.450000 78.859375 52.889913
35.525000 77.468750 52.895707
35.750000 76.625000 52.899223
36.050000 75.515625 52.903846
34.925000 88.937500 53.011206
34.650000 87.937500 53.015373
34.850000 86.640625 53.020776
34.800000 85.484375 53.025594
34.925000 84.281250 53.030607
34.775000 82.765625 53.036922
34.625000 82.093750 53.039721
35.025000 80.859375 53.044865
35.275000 79.640625 53.049943
35.375000 78.484375 53.054760
35.575000 77.578125 53.058537
35.800000 75.968750 53.065242
36.175000 74.843750 53.069930
34.575000 89.968750 53.156492
34.500000 88.625000 53.162091
34.725000 87.781250 53.165606
34.775000 86.562500 53.170685
34.800000 85.421875 53.175437
34.825000 84.265625 53.180255
34.825000 82.968750 53.185658
34.900000 81.640625 53.191192
35.075000 80.453125 53.196140
35.150000 79.453125 53.200307
35.325000 77.968750 53.206492
35.525000 77.109375 53.210073
35.725000 75.546875 53.216583
36.175000 74.750000 53.219903
34.775000 89.531250 53.319401
34.575000 88.546875 53.323503
34.700000 87.515625 53.327800
34.750000 86.140625 53.333529
34.775000 85.062500 53.338021
34.775000 83.640625 53.343945
34.800000 82.875000 53.347135
35.025000 81.421875 53.353190
35.100000 80.078125 53.358789
35.150000 78.875000 53.363802
35.375000 77.984375 53.367513
35.525000 77.015625 53.371549
35.750000 75.515625 53.377800
36.300000 74.562500 53.381771
34.750000 88.875000 53.472430
34.575000 87.812500 53.476857
34.700000 86.468750 53.482456
34.750000 85.562500 53.486232
34.775000 84.609375 53.490204
34.775000 83.000000 53.496909
34.975000 81.859375 53.501662
35.000000 81.046875 53.505047
34.925000 79.671875 53.510777
35.150000 78.359375 53.516245
35.350000 77.562500 53.519566
35.525000 76.203125 53.525230
35.875000 75.312500 53.528941
34.675000 89.562500 53.635651
34.575000 88.437500 53.640339
34.700000 87.390625 53.644701
34.725000 86.281250 53.649323
34.775000 84.718750 53.655833
34.750000 83.953125 53.659024
34.825000 82.640625 53.664492
34.875000 81.468750 53.669375
34.900000 80.453125 53.673607
35.025000 79.156250 53.679010
35.275000 77.765625 53.684805
35.500000 76.921875 53.688320
35.725000 75.468750 53.694375
36.200000 74.312500 53.699193
34.775000 89.656250 53.782735
34.675000 88.546875 53.787357
34.700000 87.140625 53.793216
34.725000 86.312500 53.796667
34.750000 85.171875 53.801420
34.750000 83.968750 53.806433
34.800000 82.312500 53.813334
34.825000 81.453125 53.816914
34.850000 80.375000 53.821407
35.000000 78.859375 53.827722
35.250000 78.234375 53.830326
35.475000 76.734375 53.836576
35.700000 75.953125 53.839831
36.150000 74.687500 53.845104
34.950000 89.375000 53.942388
34.700000 88.562500 53.945773
34.725000 87.421875 53.950526
34.725000 85.734375 53.957557
34.750000 84.906250 53.961008
34.775000 83.390625 53.967323
34.825000 82.562500 53.970773
34.825000 81.234375 53.976307
34.875000 80.453125 53.979563
35.050000 78.968750 53.985747
35.250000 78.187500 53.989002
35.450000 76.812500 53.994732
35.675000 75.562500 53.999940
36.200000 74.312500 54.005148
34.850000 89.218750 54.094895
34.625000 88.250000 54.098932
34.775000 86.640625 54.105637
34.800000 85.890625 54.108763
34.800000 84.765625 54.113450
34.825000 83.437500 54.118984
35.025000 82.296875 54.123736
35.050000 81.078125 54.128814
34.975000 80.203125 54.132460
35.100000 78.890625 54.137929
35.275000 77.328125 54.144439
35.450000 76.187500 54.149192
35.725000 75.312500 54.152838
34.725000 87.031250 54.263964
34.775000 85.765625 54.269237
34.775000 84.562500 54.274250
34.825000 83.078125 54.280435
35.100000 82.375000 54.283365
35.100000 80.671875 54.290461
34.925000 79.937500 54.293521
35.125000 78.828125 54.298143
35.325000 77.765625 54.302570
35.500000 76.187500 54.309146
35.750000 75.000000 54.314094
34.825000 88.734375 54.407047
34.750000 87.609375 54.411734
34.850000 86.734375 54.415380
34.850000 85.000000 54.422607
34.875000 83.859375 54.427359
34.950000 82.734375 54.432047
34.975000 82.000000 54.435107
35.025000 80.656250 54.440706
35.075000 79.109375 54.447151
35.200000 78.187500 54.450992
35.375000 77.109375 54.455484
35.600000 75.812500 54.460888
35.925000 74.546875 54.466161
34.725000 86.781250 54.577013
34.775000 85.734375 54.581375
34.850000 84.250000 54.587560
34.900000 83.000000 54.592768
35.100000 82.156250 54.596284
35.100000 81.171875 54.600385
34.950000 79.890625 54.605724
35.125000 78.687500 54.610737
35.325000 77.734375 54.614708
35.500000 76.250000 54.620893
35.750000 75.421875 54.624344
34.900000 88.828125 54.720698
34.725000 87.296875 54.727078
34.800000 86.296875 54.731245
34.825000 85.125000 54.736128
34.875000 83.921875 54.741141
34.975000 82.968750 54.745112
34.975000 81.750000 54.750190
35.025000 80.265625 54.756375
35.125000 79.625000 54.759044
35.225000 77.968750 54.765945
35.425000 77.140625 54.769396
35.650000 76.000000 54.774148
35.925000 74.656250 54.779747
35.275000 89.578125 54.876007
34.925000 88.593750 54.880108
34.775000 87.546875 54.884470
34.825000 86.390625 54.889288
34.800000 85.109375 54.894627
34.850000 83.796875 54.900095
35.000000 82.562500 54.905239
34.975000 81.609375 54.909210
34.975000 80.296875 54.914679
35.125000 79.390625 54.918455
35.275000 78.250000 54.923207
35.475000 77.218750 54.927504
35.700000 75.546875 54.934470
36.075000 74.687500 54.938051
34.700000 88.234375 55.032883
34.775000 87.109375 55.037570
34.850000 86.109375 55.041737
34.850000 85.250000 55.045318
34.925000 84.046875 55.050331
35.075000 82.656250 55.056125
34.950000 81.421875 55.061269
34.875000 80.421875 55.065435
35.075000 78.859375 55.071946
35.250000 78.140625 55.074940
35.450000 76.703125 55.080930
35.675000 75.843750 55.084511
36.150000 74.750000 55.089068
34.825000 86.765625 55.202123
34.850000 85.578125 55.207071
34.900000 84.437500 55.211824
35.000000 83.625000 55.215209
35.200000 82.234375 55.221004
35.150000 81.218750 55.225235
34.975000 79.828125 55.231030
35.175000 78.687500 55.235782
35.400000 77.578125 55.240405
35.600000 76.671875 55.244181
34.775000 86.906250 55.352656
34.850000 86.125000 55.355911
34.900000 84.406250 55.363073
34.975000 83.750000 55.365807
35.200000 82.343750 55.371667
35.125000 80.843750 55.377917
34.950000 79.812500 55.382213
35.150000 78.796875 55.386445
35.400000 77.625000 55.391328
35.600000 76.687500 55.395234
34.775000 86.937500 55.511623
34.775000 85.640625 55.517027
34.925000 84.171875 55.523147
35.025000 82.968750 55.528160
35.250000 82.140625 55.531610
35.325000 80.937500 55.536623
35.075000 79.484375 55.542678
35.225000 78.468750 55.546910
35.525000 77.687500 55.550165
35.700000 76.468750 55.555243
35.950000 75.406250 55.559670
35.225000 90.015625 55.650002
34.875000 89.156250 55.653582
34.650000 87.906250 55.658791
34.825000 86.906250 55.662957
34.900000 85.421875 55.669142
34.975000 84.125000 55.674546
35.025000 83.156250 55.678582
35.275000 82.281250 55.682228
35.300000 80.625000 55.689129
35.125000 79.812500 55.692514
35.300000 78.281250 55.698895
35.525000 77.203125 55.703387
35.750000 75.890625 55.708856
36.025000 74.984375 55.712632
34.900000 89.812500 55.812970
34.850000 88.828125 55.817072
34.750000 87.453125 55.822801
34.825000 86.421875 55.827098
34.925000 85.125000 55.832502
34.950000 83.859375 55.837775
34.975000 83.140625 55.840770
35.225000 81.578125 55.847280
35.275000 80.765625 55.850666
35.200000 79.718750 55.855028
35.400000 78.171875 55.861473
35.600000 77.296875 55.865119
35.800000 75.671875 55.871890
36.100000 75.031250 55.874559
34.800000 89.265625 55.965589
34.575000 88.546875 55.968584
34.775000 87.468750 55.973076
34.850000 86.437500 55.977373
34.950000 84.968750 55.983493
35.025000 84.046875 55.987334
35.075000 82.328125 55.994496
35.350000 81.390625 55.998402
35.350000 80.500000 56.002113
35.250000 79.359375 56.006865
35.525000 78.187500 56.011748
35.725000 76.640625 56.018193
35.925000 75.515625 56.022881
36.450000 74.375000 56.027634
35.000000 90.031250 56.119303
34.850000 88.671875 56.124967
34.725000 87.828125 56.128483
34.825000 86.218750 56.135189
34.950000 85.125000 56.139746
34.950000 83.843750 56.145084
35.025000 82.828125 56.149316
35.175000 81.953125 56.152962
35.150000 80.312500 56.159798
35.250000 79.656250 56.162532
35.450000 78.046875 56.169238
35.675000 77.046875 56.173405
35.875000 75.859375 56.178353
36.225000 74.937500 56.182194
34.925000 89.812500 56.274022
34.900000 89.000000 56.277407
34.750000 88.015625 56.281508
34.875000 86.234375 56.288930
35.000000 85.156250 56.293423
35.025000 84.265625 56.297133
34.975000 83.250000 56.301365
35.075000 81.953125 56.306769
35.450000 80.828125 56.311456
35.600000 79.703125 56.316144
35.525000 78.671875 56.320441
35.750000 77.437500 56.325584
35.900000 75.921875 56.331899
36.275000 75.093750 56.335350
34.900000 90.250000 56.426641
34.875000 88.421875 56.434258
34.825000 87.718750 56.437188
35.025000 86.453125 56.442461
35.075000 85.343750 56.447083
35.275000 84.000000 56.452682
35.125000 82.890625 56.457305
34.950000 81.968750 56.461146
35.325000 80.875000 56.465703
35.500000 79.718750 56.470521
35.575000 78.562500 56.475339
35.775000 77.390625 56.480222
36.000000 76.171875 56.485300
36.375000 75.093750 56.489792
34.975000 89.796875 56.583675
34.950000 89.015625 56.586931
34.825000 87.625000 56.592725
35.025000 86.265625 56.598389
34.925000 82.812500 56.612777
34.925000 81.812500 56.616944
35.175000 80.531250 56.622282
35.375000 79.281250 56.627491
35.550000 78.140625 56.632243
35.750000 77.125000 56.636475
36.000000 76.187500 56.640381
36.350000 74.906250 56.645720
34.975000 89.343750 56.740797
34.800000 88.078125 56.746070
35.025000 87.390625 56.748935
35.125000 86.312500 56.753427
35.075000 85.078125 56.758570
34.775000 83.828125 56.763779
34.725000 82.421875 56.769638
35.000000 81.312500 56.774261
35.325000 79.937500 56.779990
35.650000 78.859375 56.784482
35.825000 77.687500 56.789365
35.975000 76.437500 56.794573
36.200000 75.703125 56.797633
34.975000 89.890625 56.884081
34.950000 88.531250 56.889745
34.825000 87.765625 56.892936
35.100000 86.671875 56.897493
34.975000 82.734375 56.913899
34.850000 81.968750 56.917089
35.125000 80.937500 56.921386
35.800000 79.781250 56.926204
36.075000 78.125000 56.933105
35.950000 77.156250 56.937141
36.175000 75.843750 56.942610
36.600000 74.953125 56.946321
34.875000 89.703125 57.052258
34.800000 88.187500 57.058573
35.050000 87.265625 57.062414
35.200000 86.109375 57.067232
35.325000 84.906250 57.072245
34.975000 83.500000 57.078104
34.725000 82.500000 57.082271
35.000000 81.312500 57.087219
35.475000 80.312500 57.091385
35.900000 78.984375 57.096919
36.000000 77.906250 57.101412
36.050000 76.937500 57.105448
36.250000 75.500000 57.111438
35.200000 89.359375 57.200383
35.075000 88.375000 57.204484
35.150000 86.765625 57.211190
34.975000 83.515625 57.224732
34.825000 82.406250 57.229354
35.125000 81.187500 57.234432
35.475000 80.234375 57.238404
35.850000 78.640625 57.245044
36.075000 77.390625 57.250252
36.200000 76.703125 57.253117
36.500000 75.218750 57.259302
35.250000 89.093750 57.363970
35.050000 88.046875 57.368332
35.250000 86.671875 57.374061
35.150000 83.187500 57.388580
35.050000 82.062500 57.393267
35.350000 80.734375 57.398801
35.875000 79.937500 57.402121
36.225000 78.734375 57.407134
36.250000 77.640625 57.411692
36.275000 76.218750 57.417616
36.600000 75.312500 57.421392
35.225000 88.781250 57.522178
35.225000 87.218750 57.528689
