36.775000 78.828125 15.438337
36.575000 77.796875 15.438767
36.700000 76.406250 15.439346
36.900000 75.375000 15.439776
35.625000 89.734375 15.610848
35.700000 88.718750 15.611271
35.650000 87.390625 15.611824
35.725000 86.515625 15.612189
35.850000 85.703125 15.612528
35.550000 84.453125 15.613048
35.300000 82.921875 15.613686
35.675000 82.062500 15.614044
36.225000 81.156250 15.614422
36.775000 80.078125 15.614871
36.825000 78.890625 15.615366
36.600000 77.687500 15.615867
36.675000 76.546875 15.616343
36.975000 75.578125 15.616746
35.800000 89.406250 15.761456
35.750000 88.265625 15.761931
35.750000 87.265625 15.762347
35.500000 83.953125 15.763728
36.975000 79.375000 15.765635
36.900000 78.109375 15.766163
36.550000 77.109375 15.766579
36.700000 76.343750 15.766898
37.075000 75.156250 15.767393
36.025000 89.515625 15.928897
35.950000 88.515625 15.929314
35.750000 87.390625 15.929783
35.775000 86.156250 15.930297
36.025000 85.046875 15.930759
35.750000 83.671875 15.931332
36.975000 79.687500 15.932992
36.875000 78.281250 15.933578
36.525000 77.234375 15.934015
36.700000 76.296875 15.934405
37.050000 75.140625 15.934887
35.975000 88.562500 16.089711
35.800000 87.765625 16.090043
35.825000 86.265625 16.090668
35.975000 85.562500 16.090961
35.750000 84.000000 16.091612
35.375000 82.750000 16.092133
35.725000 82.031250 16.092432
36.400000 81.171875 16.092790
36.850000 79.859375 16.093337
36.725000 78.515625 16.093897
36.525000 77.671875 16.094249
36.725000 76.500000 16.094737
37.075000 75.250000 16.095258
35.825000 89.640625 16.258528
35.750000 88.531250 16.258991
35.725000 87.453125 16.259440
35.750000 86.468750 16.259850
35.850000 85.250000 16.260358
35.700000 84.328125 16.260742
35.425000 83.187500 16.261217
35.650000 82.015625 16.261705
36.300000 80.937500 16.262155
36.750000 79.875000 16.262597
36.600000 78.640625 16.263112
36.425000 77.812500 16.263457
36.600000 76.468750 16.264017
36.975000 75.750000 16.264316
35.800000 89.671875 16.429987
35.750000 88.531250 16.430462
35.750000 87.625000 16.430840
35.775000 86.687500 16.431230
35.875000 85.640625 16.431667
35.850000 84.140625 16.432292
36.225000 81.281250 16.433483
36.750000 79.796875 16.434101
36.575000 78.843750 16.434499
36.425000 77.453125 16.435078
36.600000 76.531250 16.435462
36.950000 75.718750 16.435801
35.575000 88.890625 16.582940
35.775000 87.968750 16.583324
35.900000 86.875000 16.583780
35.925000 85.546875 16.584334
36.075000 84.515625 16.584763
36.000000 83.390625 16.585232
36.000000 82.468750 16.585616
36.500000 81.093750 16.586189
36.750000 80.250000 16.586541
36.550000 78.968750 16.587075
36.425000 77.875000 16.587530
36.500000 76.906250 16.587934
36.800000 75.390625 16.588565
35.550000 88.687500 16.746668
35.750000 87.859375 16.747013
35.875000 86.687500 16.747501
35.900000 85.703125 16.747911
35.975000 84.468750 16.748426
36.025000 83.328125 16.748901
36.125000 82.453125 16.749265
36.475000 81.031250 16.749858
36.725000 80.171875 16.750216
36.525000 79.015625 16.750698
36.400000 77.640625 16.751271
36.575000 76.937500 16.751564
36.075000 89.687500 16.909416
35.900000 88.875000 16.909755
35.750000 87.703125 16.910243
35.800000 86.453125 16.910764
35.875000 85.515625 16.911155
35.925000 84.375000 16.911630
36.025000 83.156250 16.912138
36.275000 82.015625 16.912613
36.600000 81.312500 16.912906
36.800000 79.671875 16.913589
36.625000 79.015625 16.913863
36.400000 77.578125 16.914462
36.575000 76.671875 16.914840
36.950000 75.640625 16.915269
35.775000 87.109375 17.082798
35.800000 86.109375 17.083215
35.925000 85.296875 17.083553
35.975000 83.718750 17.084211
36.025000 82.765625 17.084608
36.350000 81.906250 17.084966
36.625000 80.859375 17.085402
36.550000 79.734375 17.085871
36.400000 78.656250 17.086320
36.400000 77.625000 17.086750
36.600000 76.406250 17.087258
37.050000 75.046875 17.087824
35.450000 88.890625 17.242326
35.700000 88.046875 17.242677
35.850000 86.968750 17.243126
35.900000 85.593750 17.243699
35.950000 84.359375 17.244214
36.000000 83.640625 17.244513
36.200000 82.609375 17.244943
36.550000 81.328125 17.245476
36.675000 80.093750 17.245991
36.500000 79.312500 17.246316
36.325000 78.093750 17.246824
36.525000 76.703125 17.247404
35.875000 89.843750 17.407622
35.650000 88.828125 17.408046
35.750000 87.437500 17.408625
35.800000 86.500000 17.409016
35.875000 85.593750 17.409393
35.925000 84.109375 17.410012
35.975000 83.484375 17.410272
36.250000 82.500000 17.410682
36.575000 81.359375 17.411158
36.725000 79.890625 17.411770
36.575000 79.125000 17.412089
36.400000 77.984375 17.412564
36.475000 76.921875 17.413007
36.850000 75.468750 17.413612
35.950000 88.953125 17.566325
36.025000 88.281250 17.566605
35.875000 86.890625 17.567184
35.950000 85.953125 17.567575
36.000000 84.718750 17.568089
36.000000 83.546875 17.568578
36.150000 82.437500 17.569040
36.400000 81.546875 17.569411
36.575000 80.515625 17.569841
36.375000 79.203125 17.570388
36.225000 78.031250 17.570876
36.400000 76.796875 17.571390
36.725000 75.734375 17.571833
37.375000 74.718750 17.572256
35.275000 89.015625 17.739435
35.600000 87.843750 17.739923
35.850000 86.937500 17.740300
35.900000 85.625000 17.740847
35.950000 84.375000 17.741368
36.000000 83.515625 17.741726
36.200000 82.546875 17.742130
36.525000 81.328125 17.742638
36.600000 79.890625 17.743237
36.350000 79.203125 17.743523
36.275000 78.078125 17.743992
36.450000 76.937500 17.744467
35.500000 88.812500 17.906773
35.675000 87.703125 17.907235
35.825000 86.500000 17.907736
35.975000 85.609375 17.908107
35.950000 84.375000 17.908622
35.900000 83.328125 17.909058
36.100000 82.359375 17.909461
36.425000 80.875000 17.910080
36.675000 79.781250 17.910536
36.550000 79.046875 17.910842
36.350000 77.640625 17.911428
36.450000 76.546875 17.911883
36.750000 75.546875 17.912300
35.850000 89.593750 18.056530
35.825000 88.656250 18.056921
35.650000 87.734375 18.057305
35.775000 86.468750 18.057832
35.650000 85.218750 18.058353
35.575000 84.531250 18.058640
35.675000 83.078125 18.059245
35.950000 81.968750 18.059707
36.425000 81.093750 18.060072
36.750000 80.031250 18.060515
36.600000 78.468750 18.061166
36.325000 77.718750 18.061478
36.425000 76.281250 18.062077
36.775000 75.234375 18.062513
35.950000 89.687500 18.218848
35.875000 88.296875 18.219428
35.600000 87.625000 18.219708
35.750000 86.515625 18.220170
35.475000 85.015625 18.220795
35.200000 84.140625 18.221160
35.450000 83.000000 18.221635
35.850000 81.687500 18.222182
36.375000 80.578125 18.222644
36.850000 79.609375 18.223048
36.650000 78.468750 18.223523
36.300000 77.593750 18.223888
36.425000 76.421875 18.224376
36.800000 75.531250 18.224747
35.850000 89.859375 18.387693
35.875000 88.375000 18.388312
35.575000 87.234375 18.388787
35.850000 86.218750 18.389210
34.975000 84.312500 18.390004
35.350000 83.046875 18.390532
35.725000 82.109375 18.390922
36.225000 80.812500 18.391463
36.825000 79.656250 18.391944
36.625000 78.312500 18.392504
36.275000 77.734375 18.392745
36.425000 76.406250 18.393299
36.775000 75.500000 18.393676
35.625000 89.703125 18.553881
35.575000 88.515625 18.554376
35.475000 87.421875 18.554832
35.925000 86.218750 18.555333
34.925000 84.062500 18.556231
35.175000 82.515625 18.556876
35.550000 81.796875 18.557175
36.250000 80.843750 18.557572
36.825000 79.906250 18.557963
36.600000 78.375000 18.558601
36.275000 77.078125 18.559141
36.425000 76.046875 18.559571
36.775000 75.015625 18.560001
35.475000 89.421875 18.714135
35.175000 87.968750 18.714741
35.250000 87.046875 18.715125
34.975000 85.703125 18.715685
34.750000 84.625000 18.716134
35.100000 83.781250 18.716485
36.025000 80.312500 18.717931
36.600000 79.531250 18.718256
36.450000 78.156250 18.718829
36.300000 77.015625 18.719304
36.500000 75.781250 18.719819
36.900000 74.671875 18.720281
35.075000 89.812500 18.886451
35.125000 88.968750 18.886802
35.250000 87.687500 18.887336
35.250000 86.625000 18.887779
34.950000 85.718750 18.888156
34.675000 84.375000 18.888716
34.975000 83.203125 18.889205
36.475000 78.921875 18.890988
36.375000 77.875000 18.891424
36.325000 76.562500 18.891971
35.025000 88.140625 19.049889
35.150000 86.718750 19.050481
35.525000 86.062500 19.050755
34.725000 83.703125 19.051738
34.950000 82.359375 19.052298
35.250000 81.718750 19.052565
35.950000 80.390625 19.053118
36.450000 79.578125 19.053457
36.475000 77.968750 19.054127
36.275000 77.093750 19.054492
36.300000 75.640625 19.055097
36.600000 74.812500 19.055442
35.150000 89.765625 19.212856
35.125000 88.734375 19.213285
35.100000 87.937500 19.213617
34.975000 86.687500 19.214138
34.975000 85.359375 19.214691
34.875000 84.328125 19.215121
34.850000 83.296875 19.215551
35.150000 82.296875 19.215967
35.475000 81.093750 19.216469
36.050000 80.218750 19.216833
36.450000 78.984375 19.217348
36.450000 78.062500 19.217732
36.300000 76.890625 19.218220
35.125000 88.984375 19.369503
34.950000 87.843750 19.369978
35.100000 87.171875 19.370258
35.150000 86.203125 19.370662
34.775000 84.453125 19.371391
34.500000 83.718750 19.371697
34.725000 82.640625 19.372146
35.075000 81.656250 19.372556
35.725000 80.500000 19.373038
36.400000 79.406250 19.373494
36.475000 78.203125 19.373995
36.275000 77.171875 19.374425
36.200000 75.890625 19.374959
36.425000 74.968750 19.375343
34.900000 87.937500 19.541705
35.075000 87.015625 19.542089
35.400000 85.765625 19.542610
34.450000 83.234375 19.543665
34.625000 82.109375 19.544134
36.475000 77.750000 19.545950
36.200000 76.875000 19.546315
36.175000 76.015625 19.546673
36.600000 74.578125 19.547272
34.825000 88.093750 19.697705
35.050000 86.953125 19.698180
35.150000 85.984375 19.698584
34.675000 84.406250 19.699241
34.275000 83.390625 19.699664
34.450000 82.390625 19.700081
34.750000 81.015625 19.700654
36.175000 76.921875 19.702360
36.075000 75.578125 19.702919
36.425000 74.546875 19.703349
35.125000 89.781250 19.869992
35.025000 88.468750 19.870538
34.925000 87.281250 19.871033
34.600000 84.187500 19.872322
34.350000 83.046875 19.872798
34.550000 82.000000 19.873234
36.075000 77.312500 19.875187
35.975000 76.515625 19.875519
36.200000 75.109375 19.876105
34.875000 89.343750 20.021548
34.750000 87.984375 20.022114
34.950000 87.078125 20.022492
34.650000 85.937500 20.022967
34.500000 84.671875 20.023494
34.550000 83.781250 20.023865
34.425000 82.296875 20.024484
34.700000 81.187500 20.024946
35.175000 80.390625 20.025278
35.700000 79.109375 20.025812
35.775000 77.781250 20.026365
35.700000 76.765625 20.026788
35.925000 75.859375 20.027166
36.400000 75.031250 20.027511
34.950000 89.484375 20.191474
34.750000 88.562500 20.191858
34.825000 87.187500 20.192431
34.900000 86.000000 20.192926
34.875000 84.968750 20.193356
34.575000 83.968750 20.193772
34.375000 82.750000 20.194280
34.550000 81.671875 20.194729
34.850000 80.703125 20.195133
35.275000 79.640625 20.195576
35.500000 78.734375 20.195953
35.625000 77.671875 20.196396
35.875000 76.312500 20.196962
36.125000 75.359375 20.197360
34.750000 89.187500 20.365060
34.700000 88.125000 20.365503
34.800000 86.640625 20.366121
34.800000 86.000000 20.366388
35.000000 84.984375 20.366812
34.775000 83.359375 20.367489
34.450000 82.375000 20.367899
34.700000 81.328125 20.368335
35.075000 80.281250 20.368771
35.325000 78.875000 20.369357
35.475000 78.140625 20.369663
35.675000 77.218750 20.370047
35.900000 75.687500 20.370685
36.275000 75.015625 20.370965
34.725000 89.015625 20.519235
34.625000 88.203125 20.519573
34.725000 87.093750 20.520036
34.800000 86.078125 20.520459
34.750000 84.953125 20.520927
34.775000 83.625000 20.521481
34.750000 82.390625 20.521995
34.850000 81.062500 20.522549
35.050000 80.359375 20.522841
35.200000 79.171875 20.523336
35.400000 78.296875 20.523701
35.575000 76.859375 20.524300
35.800000 75.843750 20.524723
36.200000 75.093750 20.525036
34.575000 89.875000 20.683266
34.475000 88.390625 20.683885
34.625000 87.406250 20.684295
34.725000 86.859375 20.684523
34.750000 85.656250 20.685024
34.675000 84.218750 20.685623
34.700000 83.187500 20.686053
34.875000 82.125000 20.686496
34.950000 80.718750 20.687081
34.975000 80.140625 20.687322
35.175000 78.687500 20.687928
35.350000 77.921875 20.688247
35.475000 76.406250 20.688878
35.775000 75.703125 20.689171
36.375000 74.437500 20.689699
34.625000 88.828125 20.845033
34.525000 87.968750 20.845391
34.700000 86.765625 20.845892
34.725000 85.937500 20.846237
34.700000 84.812500 20.846706
34.750000 83.453125 20.847273
34.825000 82.328125 20.847741
34.900000 81.093750 20.848256
34.925000 80.375000 20.848555
34.975000 79.156250 20.849063
35.250000 78.328125 20.849408
35.475000 77.171875 20.849890
35.625000 75.781250 20.850469
35.975000 74.656250 20.850938
34.600000 89.765625 21.016860
34.475000 88.750000 21.017283
34.600000 87.515625 21.017797
34.700000 86.562500 21.018194
34.725000 85.281250 21.018728
34.650000 84.015625 21.019255
34.700000 83.031250 21.019665
34.925000 82.437500 21.019913
34.950000 81.031250 21.020499
34.850000 79.968750 21.020941
35.000000 78.640625 21.021495
35.250000 77.640625 21.021912
35.450000 76.328125 21.022459
35.675000 75.687500 21.022725
36.175000 74.593750 21.023181
34.600000 88.750000 21.178501
34.500000 87.968750 21.178827
34.625000 86.671875 21.179367
34.700000 85.562500 21.179829
34.725000 84.640625 21.180213
34.750000 83.406250 21.180728
34.875000 82.250000 21.181209
34.825000 81.406250 21.181561
34.775000 79.890625 21.182193
34.900000 79.078125 21.182531
35.125000 77.734375 21.183091
35.350000 76.812500 21.183475
35.525000 75.875000 21.183866
35.925000 74.406250 21.184478
34.550000 88.718750 21.344896
34.600000 87.531250 21.345391
34.675000 86.765625 21.345710
34.700000 85.359375 21.346296
34.650000 84.140625 21.346803
34.700000 83.203125 21.347194
34.925000 81.921875 21.347728
34.975000 81.171875 21.348040
34.850000 79.890625 21.348574
34.975000 78.890625 21.348991
35.200000 77.906250 21.349401
35.425000 76.609375 21.349941
35.650000 75.546875 21.350384
36.150000 74.546875 21.350801
34.550000 89.125000 21.502658
34.500000 87.812500 21.503205
34.675000 87.093750 21.503504
34.725000 85.656250 21.504103
34.725000 84.531250 21.504572
34.750000 83.843750 21.504858
34.900000 82.468750 21.505431
34.800000 81.265625 21.505933
34.725000 79.984375 21.506466
34.950000 78.859375 21.506935
35.125000 77.750000 21.507397
35.350000 77.109375 21.507664
35.550000 75.906250 21.508166
35.825000 74.468750 21.508765
34.600000 88.609375 21.679239
34.675000 87.531250 21.679688
34.700000 86.562500 21.680092
34.750000 85.500000 21.680535
34.800000 84.328125 21.681023
34.825000 83.218750 21.681485
35.000000 81.765625 21.682091
35.025000 80.953125 21.682429
34.875000 79.406250 21.683074
35.000000 78.875000 21.683295
35.200000 77.515625 21.683861
35.375000 76.218750 21.684402
34.725000 89.046875 21.831954
34.500000 87.875000 21.832443
34.650000 87.093750 21.832768
34.700000 85.671875 21.833361
34.725000 84.515625 21.833843
34.750000 83.218750 21.834383
35.025000 82.171875 21.834819
34.975000 81.281250 21.835190
34.775000 80.406250 21.835555
34.900000 79.265625 21.836030
35.100000 77.609375 21.836720
35.325000 76.796875 21.837059
35.525000 75.656250 21.837534
35.825000 74.578125 21.837983
34.725000 86.953125 21.994036
34.750000 86.250000 21.994329
34.750000 85.218750 21.994759
34.825000 84.062500 21.995241
34.925000 82.546875 21.995872
34.925000 81.703125 21.996224
34.900000 80.250000 21.996829
34.950000 79.437500 21.997168
35.100000 78.171875 21.997695
35.325000 77.093750 21.998144
35.525000 75.859375 21.998659
35.750000 75.000000 21.999017
34.950000 88.484375 22.159100
34.675000 87.843750 22.159367
34.700000 86.296875 22.160011
34.700000 85.640625 22.160285
34.775000 84.468750 22.160773
34.875000 83.250000 22.161281
35.125000 81.984375 22.161808
35.100000 80.609375 22.162381
34.925000 79.781250 22.162726
35.050000 78.593750 22.163221
35.200000 77.453125 22.163696
35.375000 76.421875 22.164126
35.625000 75.453125 22.164530
36.150000 74.671875 22.164855
34.725000 88.296875 22.330416
34.725000 87.515625 22.330741
34.800000 85.968750 22.331386
34.825000 85.265625 22.331679
34.800000 83.796875 22.332291
34.875000 82.750000 22.332727
34.950000 81.828125 22.333111
34.925000 80.531250 22.333651
34.975000 79.656250 22.334016
35.150000 78.562500 22.334472
35.325000 77.500000 22.334914
35.500000 76.203125 22.335455
34.700000 87.140625 22.493578
34.750000 86.140625 22.493995
34.750000 84.750000 22.494574
34.800000 84.093750 22.494848
35.000000 82.953125 22.495323
34.975000 81.406250 22.495967
34.875000 80.453125 22.496365
34.975000 79.125000 22.496918
35.150000 78.375000 22.497230
35.350000 76.890625 22.497849
35.525000 75.921875 22.498253
35.750000 74.781250 22.498728
34.950000 88.906250 22.657510
34.600000 87.921875 22.657920
34.675000 86.859375 22.658363
34.725000 85.593750 22.658890
34.775000 84.218750 22.659463
34.875000 83.015625 22.659964
35.150000 82.328125 22.660251
35.100000 80.968750 22.660817
34.850000 79.687500 22.661351
35.000000 78.609375 22.661800
35.225000 77.578125 22.662230
35.425000 76.843750 22.662536
35.675000 75.765625 22.662985
36.100000 74.609375 22.663467
34.475000 88.468750 22.813518
34.700000 87.187500 22.814052
34.700000 86.265625 22.814436
34.750000 85.437500 22.814781
34.800000 83.984375 22.815387
34.825000 82.937500 22.815823
35.075000 81.906250 22.816252
35.175000 80.859375 22.816689
35.025000 79.437500 22.817281
35.150000 78.515625 22.817665
35.350000 77.296875 22.818173
35.525000 76.531250 22.818492
34.625000 89.187500 22.989085
34.525000 88.109375 22.989534
34.675000 86.406250 22.990244
34.725000 85.671875 22.990550
34.825000 84.765625 22.990927
34.850000 83.312500 22.991533
35.025000 82.187500 22.992002
35.000000 81.109375 22.992451
34.825000 80.265625 22.992802
35.075000 78.937500 22.993356
35.375000 77.687500 22.993877
35.500000 76.906250 22.994202
35.675000 75.359375 22.994847
36.100000 74.562500 22.995179
35.075000 89.562500 23.141240
34.700000 88.531250 23.141669
34.625000 87.765625 23.141988
34.700000 86.375000 23.142568
34.800000 85.093750 23.143101
34.850000 84.281250 23.143440
34.875000 82.875000 23.144026
35.025000 82.343750 23.144247
35.075000 81.015625 23.144801
35.000000 79.625000 23.145380
35.175000 78.890625 23.145686
35.475000 77.937500 23.146083
35.575000 76.343750 23.146747
34.900000 88.875000 23.306474
34.700000 88.234375 23.306741
34.700000 87.109375 23.307210
34.800000 85.593750 23.307841
34.900000 84.656250 23.308232
34.875000 83.718750 23.308622
34.925000 82.484375 23.309137
35.275000 81.218750 23.309664
35.300000 80.359375 23.310022
35.200000 78.937500 23.310615
35.400000 78.234375 23.310908
35.600000 77.218750 23.311331
35.800000 76.062500 23.311813
36.175000 74.593750 23.312425
34.700000 89.359375 23.469310
34.625000 88.609375 23.469622
34.775000 87.359375 23.470143
34.800000 86.031250 23.470697
34.925000 84.796875 23.471211
34.950000 84.203125 23.471458
34.925000 82.953125 23.471979
34.950000 81.750000 23.472481
35.250000 80.437500 23.473027
35.425000 79.578125 23.473386
35.400000 78.296875 23.473919
35.625000 77.125000 23.474408
35.800000 76.109375 23.474831
36.050000 75.421875 23.475117
35.000000 89.109375 23.640499
34.750000 88.328125 23.640825
34.800000 87.218750 23.641287
34.875000 85.796875 23.641880
34.975000 85.031250 23.642199
35.275000 83.875000 23.642680
35.225000 83.015625 23.643038
34.975000 81.640625 23.643611
35.375000 80.484375 23.644093
35.550000 79.640625 23.644445
35.500000 78.250000 23.645024
35.650000 77.203125 23.645460
35.825000 75.937500 23.645988
36.150000 75.015625 23.646372
34.550000 88.609375 23.803743
34.900000 87.390625 23.804251
34.975000 86.625000 23.804570
34.925000 82.984375 23.806087
34.875000 81.765625 23.806595
35.100000 80.984375 23.806920
35.425000 79.687500 23.807461
35.650000 78.703125 23.807871
35.775000 77.562500 23.808346
35.950000 76.453125 23.808808
36.200000 75.500000 23.809205
34.925000 88.500000 23.968235
34.750000 87.796875 23.968527
35.000000 86.375000 23.969120
34.850000 83.312500 23.970396
34.725000 82.265625 23.970832
35.000000 81.156250 23.971294
35.450000 79.750000 23.971880
35.700000 78.953125 23.972212
35.775000 77.734375 23.972720
35.925000 76.859375 23.973085
34.750000 89.218750 24.120878
34.675000 88.234375 24.121289
34.925000 87.250000 24.121699
35.000000 86.531250 24.121998
34.725000 85.234375 24.122539
34.575000 84.140625 24.122994
34.750000 82.875000 24.123522
34.800000 82.078125 24.123854
35.325000 78.437500 24.125371
35.875000 77.718750 24.125670
36.025000 76.343750 24.126243
36.225000 75.390625 24.126640
35.125000 89.078125 24.300446
34.925000 87.890625 24.300941
35.075000 86.937500 24.301338
35.175000 86.109375 24.301683
35.500000 84.906250 24.302184
34.725000 82.703125 24.303102
34.975000 81.437500 24.303630
35.550000 78.234375 24.304964
36.050000 77.281250 24.305362
36.175000 75.843750 24.305960
36.625000 75.125000 24.306260
34.825000 89.812500 24.451115
34.900000 88.343750 24.451727
35.125000 87.406250 24.452117
35.175000 86.109375 24.452658
35.125000 85.140625 24.453061
34.900000 84.218750 24.453445
34.875000 83.234375 24.453856
34.950000 82.015625 24.454363
35.225000 80.671875 24.454923
35.900000 79.890625 24.455249
36.250000 78.593750 24.455789
36.100000 77.468750 24.456258
36.125000 76.437500 24.456687
36.475000 75.515625 24.457072
35.175000 89.203125 24.621299
35.100000 88.578125 24.621560
35.225000 87.015625 24.622211
35.300000 86.265625 24.622523
35.725000 84.906250 24.623090
34.925000 82.828125 24.623955
35.150000 81.640625 24.624450
36.500000 77.203125 24.626299
36.325000 76.187500 24.626722
36.625000 74.906250 24.627256
35.050000 88.796875 24.779824
35.200000 87.296875 24.780449
35.325000 86.375000 24.780833
35.300000 85.062500 24.781380
35.000000 84.078125 24.781790
35.025000 83.046875 24.782220
35.500000 82.031250 24.782643
35.800000 81.046875 24.783053
36.250000 79.593750 24.783659
36.700000 78.484375 24.784121
36.525000 77.656250 24.784466
36.400000 76.500000 24.784948
36.625000 75.265625 24.785462
35.150000 88.453125 24.950937
35.275000 87.578125 24.951301
35.350000 86.546875 24.951731
35.325000 85.265625 24.952265
35.000000 84.000000 24.952792
35.025000 82.921875 24.953241
35.575000 82.156250 24.953560
35.950000 80.750000 24.954146
36.325000 79.703125 24.954582
36.700000 78.796875 24.954960
36.525000 77.421875 24.955533
36.450000 76.406250 24.955956
36.700000 75.562500 24.956308
34.950000 88.656250 25.114331
35.275000 87.812500 25.114682
35.350000 86.171875 25.115366
35.450000 85.234375 25.115757
35.225000 83.828125 25.116342
35.125000 83.015625 25.116681
35.575000 82.218750 25.117013
36.050000 80.718750 25.117638
36.550000 79.640625 25.118087
36.800000 78.828125 25.118426
36.625000 77.484375 25.118986
36.550000 76.484375 25.119402
36.650000 75.546875 25.119793
35.075000 88.500000 25.281050
35.300000 87.906250 25.281298
35.450000 86.906250 25.281714
35.225000 85.531250 25.282287
34.900000 84.484375 25.282723
35.100000 83.468750 25.283147
35.450000 82.031250 25.283746
35.825000 81.156250 25.284110
36.275000 79.812500 25.284670
36.675000 78.906250 25.285048
36.675000 77.937500 25.285451
36.600000 76.718750 25.285959
35.500000 88.890625 25.434475
35.250000 88.078125 25.434813
35.475000 86.656250 25.435406
35.375000 85.921875 25.435712
35.575000 84.468750 25.436317
35.550000 83.718750 25.436630
36.650000 79.187500 25.438518
36.700000 78.031250 25.438999
36.625000 76.921875 25.439462
36.750000 75.640625 25.439996
37.075000 75.031250 25.440249
35.425000 89.031250 25.610049
35.400000 87.968750 25.610492
35.500000 87.156250 25.610831
35.300000 83.718750 25.612263
37.050000 79.640625 25.613962
37.000000 78.312500 25.614516
36.625000 77.265625 25.614952
36.775000 75.921875 25.615512
37.025000 75.093750 25.615857
35.425000 88.953125 25.776351
35.550000 87.828125 25.776819
35.600000 86.546875 25.777353
35.650000 85.234375 25.777900
35.450000 84.046875 25.778395
35.250000 83.328125 25.778694
35.600000 82.109375 25.779202
36.125000 81.234375 25.779567
36.675000 79.796875 25.780166
36.850000 79.031250 25.780485
36.600000 77.609375 25.781077
36.650000 76.718750 25.781448
36.900000 75.468750 25.781969
35.550000 89.625000 25.931615
35.550000 88.171875 25.932221
35.550000 87.359375 25.932559
35.400000 83.718750 25.934076
35.375000 82.593750 25.934545
35.825000 82.000000 25.934792
36.475000 80.625000 25.935365
36.925000 79.828125 25.935697
36.825000 78.750000 25.936146
36.625000 77.250000 25.936771
36.750000 76.250000 25.937188
37.000000 74.984375 25.937716
35.725000 89.343750 26.089645
35.525000 88.390625 26.090043
35.675000 87.156250 26.090557
35.450000 85.781250 26.091130
35.400000 84.750000 26.091559
35.425000 83.656250 26.092015
36.825000 79.281250 26.093838
36.775000 78.515625 26.094157
36.575000 76.984375 26.094795
36.725000 76.187500 26.095127
37.125000 74.796875 26.095707
35.550000 89.781250 26.261286
35.675000 88.921875 26.261645
35.650000 87.718750 26.262146
35.750000 86.671875 26.262582
35.850000 85.703125 26.262986
35.550000 84.359375 26.263546
35.250000 83.125000 26.264060
36.825000 78.718750 26.265896
36.575000 77.609375 26.266358
36.600000 76.828125 26.266684
36.850000 75.828125 26.267100
35.625000 89.859375 26.425546
35.700000 88.875000 26.425956
35.775000 87.671875 26.426457
35.800000 86.453125 26.426965
35.800000 85.656250 26.427297
35.500000 84.156250 26.427922
35.275000 82.875000 26.428456
36.650000 78.906250 26.430110
36.525000 77.921875 26.430520
36.650000 76.750000 26.431008
36.975000 75.812500 26.431399
36.200000 89.343750 26.589972
36.050000 87.953125 26.590551
35.775000 87.265625 26.590838
35.925000 86.062500 26.591339
35.900000 84.609375 26.591945
35.575000 84.031250 26.592185
35.575000 82.703125 26.592739
36.175000 81.484375 26.593247
36.725000 80.515625 26.593650
36.875000 79.578125 26.594041
36.700000 78.171875 26.594627
36.550000 77.125000 26.595063
36.725000 75.984375 26.595538
37.125000 74.890625 26.595994
36.275000 89.281250 26.759318
36.125000 88.078125 26.759820
35.775000 86.984375 26.760275
35.875000 85.921875 26.760718
36.100000 85.000000 26.761102
35.850000 84.031250 26.761506
35.525000 83.015625 26.761929
36.075000 81.750000 26.762456
36.650000 80.671875 26.762906
36.950000 79.750000 26.763290
36.775000 78.234375 26.763921
36.525000 77.171875 26.764364
36.725000 76.171875 26.764781
37.100000 75.296875 26.765145
36.300000 89.171875 26.914649
36.250000 88.421875 26.914962
35.850000 87.390625 26.915392
35.900000 85.828125 26.916043
36.225000 85.078125 26.916355
36.075000 83.796875 26.916889
35.750000 82.468750 26.917443
36.175000 81.593750 26.917807
36.625000 80.687500 26.918185
36.725000 79.750000 26.918575
36.575000 78.468750 26.919109
36.500000 77.421875 26.919545
36.725000 76.125000 26.920086
37.125000 74.953125 26.920574
35.850000 87.390625 27.085194
35.900000 85.875000 27.085825
36.125000 84.953125 27.086210
35.975000 83.906250 27.086646
35.875000 82.531250 27.087219
36.325000 81.437500 27.087674
36.650000 80.734375 27.087967
36.550000 79.187500 27.088612
36.425000 78.250000 27.089003
36.550000 76.921875 27.089556
36.750000 76.140625 27.089881
37.200000 75.203125 27.090272
35.450000 88.906250 27.243251
35.675000 87.796875 27.243713
35.775000 86.843750 27.244110
35.850000 85.937500 27.244488
35.975000 84.562500 27.245061
36.000000 83.265625 27.245601
36.100000 82.406250 27.245959
36.475000 81.125000 27.246493
36.725000 80.109375 27.246916
36.525000 79.093750 27.247339
36.375000 78.078125 27.247762
36.575000 76.875000 27.248264
35.775000 88.640625 27.409282
35.775000 87.796875 27.409634
35.825000 86.343750 27.410239
35.875000 85.250000 27.410695
35.950000 84.390625 27.411053
36.025000 83.234375 27.411535
36.275000 82.343750 27.411906
36.600000 81.156250 27.412401
36.775000 79.890625 27.412928
36.550000 78.781250 27.413390
36.350000 77.671875 27.413853
36.575000 76.640625 27.414282
36.975000 75.718750 27.414666
35.475000 88.859375 27.566673
35.650000 88.203125 27.566946
35.875000 87.093750 27.567409
35.950000 85.843750 27.567930
36.000000 84.765625 27.568379
35.975000 83.343750 27.568971
36.075000 82.390625 27.569368
36.450000 81.625000 27.569687
36.750000 80.609375 27.570111
36.550000 78.937500 27.570807
36.350000 78.296875 27.571074
36.425000 76.781250 27.571706
36.725000 75.890625 27.572077
37.325000 74.765625 27.572545
35.425000 89.046875 27.741022
35.650000 87.859375 27.741517
35.775000 86.765625 27.741972
35.875000 85.890625 27.742337
35.950000 84.843750 27.742773
35.975000 83.406250 27.743372
36.175000 82.375000 27.743802
36.550000 81.328125 27.744238
36.700000 80.375000 27.744635
36.500000 78.953125 27.745228
36.325000 78.062500 27.745599
36.525000 76.953125 27.746061
36.875000 75.968750 27.746471
37.475000 74.625000 27.747031
36.025000 88.765625 27.893137
35.825000 87.265625 27.893762
35.875000 86.546875 27.894061
35.950000 85.031250 27.894693
35.950000 84.312500 27.894992
36.025000 83.312500 27.895409
36.350000 81.937500 27.895982
36.650000 81.218750 27.896281
36.950000 79.921875 27.896822
36.750000 78.906250 27.897245
36.375000 77.484375 27.897837
36.550000 76.218750 27.898365
36.950000 75.468750 27.898677
35.400000 88.515625 28.058152
35.650000 87.781250 28.058458
35.775000 86.421875 28.059024
35.875000 85.296875 28.059493
35.950000 84.312500 28.059903
36.000000 83.437500 28.060268
36.325000 82.328125 28.060730
36.625000 81.453125 28.061095
36.700000 80.140625 28.061642
36.550000 78.671875 28.062254
36.400000 77.859375 28.062592
36.500000 76.812500 28.063028
36.850000 75.765625 28.063465
36.700000 89.890625 28.233331
35.825000 87.531250 28.234314
35.875000 86.218750 28.234861
35.950000 84.765625 28.235466
35.975000 84.015625 28.235779
36.050000 82.656250 28.236345
36.300000 81.578125 28.236794
36.575000 80.437500 28.237270
36.525000 79.750000 28.237556
36.375000 78.625000 28.238025
36.400000 77.328125 28.238565
36.600000 76.203125 28.239034
37.075000 75.281250 28.239418
35.425000 88.687500 28.388683
35.650000 87.687500 28.389099
35.775000 86.718750 28.389503
35.875000 85.375000 28.390063
35.875000 84.203125 28.390551
35.900000 83.437500 28.390870
36.100000 82.015625 28.391463
36.400000 81.296875 28.391762
36.600000 80.031250 28.392289
36.425000 78.953125 28.392739
36.350000 78.046875 28.393116
36.475000 76.500000 28.393761
36.725000 75.421875 28.394210
35.650000 89.062500 28.554196
35.475000 88.140625 28.554580
35.725000 87.015625 28.555049
35.975000 85.734375 28.555583
35.775000 84.453125 28.556116
35.550000 83.484375 28.556520
35.675000 82.640625 28.556872
36.050000 81.140625 28.557497
36.600000 80.375000 28.557816
36.525000 79.000000 28.558388
36.325000 78.234375 28.558707
36.375000 77.031250 28.559209
36.675000 76.062500 28.559613
37.275000 74.625000 28.560211
35.625000 88.890625 28.715100
35.450000 87.703125 28.715595
35.700000 87.062500 28.715862
35.625000 86.031250 28.716291
35.300000 84.390625 28.716975
36.425000 79.390625 28.719058
36.325000 77.734375 28.719748
36.375000 76.765625 28.720152
36.650000 75.953125 28.720491
37.300000 74.734375 28.720999
35.425000 87.890625 28.885203
35.575000 87.218750 28.885483
35.325000 85.921875 28.886023
36.500000 79.250000 28.888803
36.350000 78.218750 28.889233
36.325000 76.968750 28.889754
36.550000 75.781250 28.890249
37.175000 74.875000 28.890626
35.450000 88.921875 29.040626
35.350000 87.671875 29.041147
35.425000 86.546875 29.041615
35.125000 85.750000 29.041947
34.850000 84.546875 29.042449
36.425000 79.218750 29.044669
36.375000 78.140625 29.045118
36.450000 76.906250 29.045632
35.625000 89.828125 29.210769
35.525000 88.109375 29.211485
35.025000 84.718750 29.212898
34.850000 83.671875 29.213334
35.175000 82.546875 29.213803
36.525000 78.203125 29.215613
36.300000 77.500000 29.215906
36.400000 76.203125 29.216446
36.650000 75.203125 29.216863
35.275000 89.296875 29.368014
35.075000 88.078125 29.368521
35.150000 87.140625 29.368912
35.100000 85.843750 29.369452
34.950000 84.859375 29.369863
35.025000 83.468750 29.370442
35.500000 82.531250 29.370833
35.725000 81.734375 29.371165
36.075000 80.281250 29.371770
36.625000 79.359375 29.372154
36.550000 78.312500 29.372591
36.300000 77.000000 29.373137
36.400000 75.968750 29.373567
36.750000 74.812500 29.374049
35.175000 88.796875 29.538558
35.225000 87.875000 29.538942
35.225000 86.390625 29.539560
34.925000 85.390625 29.539977
34.625000 83.828125 29.540628
34.925000 82.906250 29.541012
36.400000 78.640625 29.542789
36.350000 77.734375 29.543167
36.300000 76.218750 29.543799
36.375000 75.546875 29.544079
35.150000 88.984375 29.695404
35.075000 88.109375 29.695769
35.150000 86.796875 29.696316
35.400000 85.875000 29.696700
34.600000 83.734375 29.697592
35.025000 82.718750 29.698015
35.375000 81.609375 29.698477
35.875000 80.453125 29.698959
36.475000 79.406250 29.699395
36.550000 78.375000 29.699825
36.350000 77.328125 29.700261
36.300000 75.906250 29.700853
36.475000 74.828125 29.701303
35.125000 89.515625 29.866861
35.100000 88.343750 29.867349
35.150000 87.640625 29.867642
34.875000 86.375000 29.868170
34.475000 85.140625 29.868684
34.425000 83.828125 29.869231
34.600000 82.890625 29.869622
35.175000 81.734375 29.870103
35.600000 80.625000 29.870565
36.025000 79.890625 29.870872
36.400000 78.781250 29.871334
36.275000 77.531250 29.871855
36.200000 76.718750 29.872193
36.300000 75.500000 29.872701
35.000000 89.250000 30.022803
34.850000 87.953125 30.023344
35.050000 86.765625 30.023839
35.100000 85.906250 30.024197
34.700000 84.390625 30.024828
34.400000 83.875000 30.025043
34.575000 82.625000 30.025564
34.875000 81.390625 30.026078
35.475000 80.593750 30.026410
36.275000 79.171875 30.027003
36.475000 78.109375 30.027445
36.125000 76.859375 30.027966
36.100000 76.093750 30.028285
36.450000 74.828125 30.028812
35.025000 89.234375 30.193552
34.850000 88.296875 30.193943
35.050000 87.203125 30.194398
34.900000 85.984375 30.194906
34.475000 84.875000 30.195369
34.275000 83.843750 30.195798
34.475000 82.203125 30.196482
34.775000 81.156250 30.196918
36.200000 77.218750 30.198559
36.075000 76.109375 30.199021
36.425000 74.671875 30.199620
34.850000 89.562500 30.349201
34.800000 88.984375 30.349442
34.950000 87.468750 30.350074
34.575000 84.328125 30.351382
34.325000 83.078125 30.351903
34.500000 81.765625 30.352450
34.800000 80.687500 30.352899
35.475000 77.437500 30.354254
35.925000 76.656250 30.354579
36.100000 75.578125 30.355028
35.075000 89.578125 30.520254
34.900000 88.250000 30.520808
34.875000 87.218750 30.521237
34.575000 83.640625 30.522728
34.325000 82.812500 30.523073
34.550000 81.968750 30.523425
35.125000 78.421875 30.524902
35.675000 77.296875 30.525371
35.875000 75.953125 30.525931
36.175000 75.078125 30.526296
35.225000 89.656250 30.682354
34.850000 88.281250 30.682927
34.825000 87.343750 30.683318
34.900000 85.859375 30.683936
35.175000 85.250000 30.684190
34.350000 82.437500 30.685362
34.575000 81.796875 30.685629
34.900000 80.281250 30.686261
35.300000 79.515625 30.686580
35.525000 78.156250 30.687146
35.650000 77.390625 30.687465
35.850000 76.359375 30.687895
36.150000 75.312500 30.688331
35.125000 89.078125 30.846483
34.775000 88.343750 30.846789
34.750000 86.953125 30.847369
34.825000 86.000000 30.847766
34.800000 85.046875 30.848163
34.625000 83.796875 30.848684
34.500000 82.984375 30.849022
34.600000 81.734375 30.849543
34.975000 80.468750 30.850070
35.350000 79.718750 30.850383
35.475000 78.625000 30.850839
35.625000 77.218750 30.851425
35.825000 76.078125 30.851900
36.075000 74.875000 30.852401
34.825000 89.562500 31.015578
34.625000 88.359375 31.016079
34.750000 87.625000 31.016385
34.775000 86.578125 31.016821
34.725000 84.859375 31.017538
34.800000 83.734375 31.018006
34.775000 82.890625 31.018358
34.750000 82.015625 31.018723
35.025000 80.859375 31.019204
35.225000 79.828125 31.019634
35.300000 78.265625 31.020285
35.475000 77.687500 31.020526
35.675000 76.578125 31.020988
35.950000 75.343750 31.021502
34.550000 89.281250 31.179599
34.425000 88.765625 31.179814
34.675000 87.546875 31.180322
34.700000 86.250000 31.180862
34.700000 85.062500 31.181357
34.700000 83.921875 31.181832
34.775000 83.171875 31.182145
34.925000 81.828125 31.182705
35.025000 81.109375 31.183004
35.025000 79.796875 31.183551
35.200000 78.906250 31.183922
35.425000 77.625000 31.184456
35.575000 76.640625 31.184866
35.825000 75.453125 31.185361
34.725000 88.906250 31.344793
34.550000 88.015625 31.345164
34.650000 86.609375 31.345750
34.675000 85.562500 31.346186
34.725000 84.906250 31.346459
34.750000 83.484375 31.347052
34.800000 82.718750 31.347371
34.900000 81.062500 31.348061
34.900000 80.234375 31.348406
35.000000 79.359375 31.348771
35.225000 78.281250 31.349220
35.425000 77.265625 31.349643
35.650000 75.968750 31.350183
36.025000 75.078125 31.350554
34.675000 89.812500 31.498738
34.525000 88.515625 31.499279
34.650000 87.171875 31.499839
34.700000 86.296875 31.500203
34.725000 85.468750 31.500548
34.700000 84.078125 31.501127
34.750000 82.937500 31.501603
35.000000 81.828125 31.502065
35.000000 80.515625 31.502612
34.925000 79.843750 31.502892
35.100000 78.828125 31.503315
35.275000 77.375000 31.503921
35.475000 76.171875 31.504422
35.775000 75.359375 31.504761
34.650000 89.593750 31.675144
34.575000 88.500000 31.675600
34.575000 87.859375 31.675867
34.650000 86.593750 31.676394
34.750000 85.593750 31.676811
34.750000 84.062500 31.677449
34.750000 83.546875 31.677664
34.900000 82.062500 31.678282
34.900000 81.187500 31.678647
34.800000 80.218750 31.679051
34.925000 78.640625 31.679708
35.175000 77.593750 31.680145
35.375000 76.515625 31.680594
35.625000 75.375000 31.681069
36.050000 74.500000 31.681433
34.725000 89.781250 31.826965
34.575000 88.531250 31.827486
34.625000 87.312500 31.827994
34.675000 85.984375 31.828547
34.700000 85.281250 31.828840
34.700000 84.046875 31.829354
34.750000 83.000000 31.829791
34.975000 81.968750 31.830220
35.000000 80.890625 31.830669
34.900000 79.906250 31.831079
35.075000 78.703125 31.831581
35.250000 77.453125 31.832102
35.400000 76.421875 31.832531
34.575000 88.875000 31.992513
34.575000 87.937500 31.992904
34.650000 86.781250 31.993385
34.675000 85.671875 31.993848
34.725000 84.406250 31.994375
34.775000 83.453125 31.994772
35.025000 82.140625 31.995319
35.050000 80.937500 31.995820
34.850000 79.703125 31.996335
34.925000 78.625000 31.996784
35.150000 77.750000 31.997149
35.375000 76.781250 31.997552
35.600000 75.296875 31.998171
36.100000 74.250000 31.998607
34.525000 88.656250 32.153960
34.625000 87.484375 32.154448
34.675000 86.562500 32.154832
34.700000 85.328125 32.155347
34.725000 84.093750 32.155861
34.750000 83.171875 32.156245
34.950000 81.828125 32.156805
35.025000 80.906250 32.157189
34.925000 79.968750 32.157580
35.050000 78.765625 32.158081
35.225000 77.593750 32.158569
35.400000 76.609375 32.158979
34.675000 86.984375 32.324272
34.725000 86.281250 32.324565
34.725000 85.140625 32.325041
34.800000 84.187500 32.325438
34.900000 83.156250 32.325867
34.875000 81.593750 32.326518
34.850000 80.546875 32.326955
34.925000 79.484375 32.327397
35.075000 78.625000 32.327755
35.275000 77.046875 32.328413
35.475000 76.125000 32.328797
35.725000 75.015625 32.329259
34.925000 89.031250 32.494719
34.575000 88.015625 32.495142
34.725000 86.609375 32.495728
34.725000 85.578125 32.496158
34.725000 84.265625 32.496705
34.800000 83.437500 32.497050
35.100000 82.265625 32.497538
35.000000 80.984375 32.498072
34.825000 80.359375 32.498332
34.975000 79.125000 32.498847
35.150000 77.609375 32.499478
35.325000 76.515625 32.499934
35.525000 75.656250 32.500292
35.925000 74.765625 32.500663
35.225000 89.875000 32.647927
34.850000 88.281250 32.648591
34.625000 87.687500 32.648839
34.675000 86.406250 32.649373
34.700000 85.296875 32.649835
34.725000 84.078125 32.650342
34.875000 83.343750 32.650649
35.050000 81.953125 32.651228
35.025000 80.968750 32.651638
34.925000 79.906250 32.652081
35.025000 78.546875 32.652647
35.225000 77.640625 32.653025
35.400000 76.109375 32.653663
35.600000 75.437500 32.653943
36.225000 74.312500 32.654412
34.725000 86.859375 32.808287
34.775000 86.250000 32.808541
34.825000 84.953125 32.809081
34.825000 83.671875 32.809615
34.975000 82.968750 32.809908
34.925000 81.343750 32.810585
34.800000 80.578125 32.810904
34.975000 79.281250 32.811444
35.150000 78.093750 32.811939
35.350000 77.328125 32.812258
35.550000 76.171875 32.812740
35.800000 75.218750 32.813137
34.675000 86.562500 32.975765
34.750000 85.718750 32.976117
34.775000 84.250000 32.976729
34.825000 83.109375 32.977204
35.100000 82.234375 32.977569
35.000000 81.390625 32.977920
34.775000 80.031250 32.978487
34.925000 78.781250 32.979007
35.225000 78.031250 32.979320
35.425000 76.781250 32.979841
35.600000 75.718750 32.980283
35.975000 74.812500 32.980661
34.675000 87.312500 33.145012
34.700000 85.609375 33.145722
34.775000 84.953125 33.145995
34.875000 83.421875 33.146633
35.050000 82.593750 33.146979
34.975000 81.250000 33.147538
34.825000 80.437500 33.147877
34.975000 79.265625 33.148365
35.200000 77.890625 33.148938
35.425000 76.859375 33.149368
35.575000 75.671875 33.149863
35.800000 74.828125 33.150214
34.725000 86.796875 33.307858
34.725000 85.812500 33.308268
34.750000 84.593750 33.308775
34.825000 83.203125 33.309355
35.075000 82.687500 33.309570
34.975000 80.937500 33.310299
34.800000 80.015625 33.310683
35.025000 78.921875 33.311139
35.225000 77.984375 33.311529
35.375000 77.046875 33.311920
35.550000 75.734375 33.312467
35.975000 74.531250 33.312968
34.750000 88.718750 33.469275
34.575000 87.515625 33.469776
34.675000 86.531250 33.470186
34.750000 85.859375 33.470466
34.775000 84.187500 33.471163
34.825000 83.421875 33.471482
35.075000 82.156250 33.472009
35.025000 81.250000 33.472387
34.900000 80.265625 33.472797
35.150000 79.140625 33.473265
35.350000 77.953125 33.473760
35.525000 76.593750 33.474327
35.775000 75.875000 33.474626
36.175000 74.796875 33.475075
34.800000 89.390625 33.638815
34.675000 88.031250 33.639382
34.700000 86.906250 33.639850
34.775000 85.734375 33.640339
34.850000 85.234375 33.640547
34.850000 83.703125 33.641185
34.900000 82.437500 33.641712
35.200000 81.578125 33.642070
35.175000 80.468750 33.642533
34.975000 79.375000 33.642988
35.200000 78.031250 33.643548
35.450000 77.437500 33.643796
35.650000 76.000000 33.644395
35.925000 74.906250 33.644850
34.750000 88.875000 33.800251
34.650000 87.828125 33.800687
34.825000 86.781250 33.801123
34.875000 85.625000 33.801605
34.900000 84.171875 33.802211
34.925000 83.250000 33.802595
35.000000 82.234375 33.803018
35.175000 81.046875 33.803513
35.250000 80.140625 33.803890
35.300000 78.609375 33.804528
35.450000 77.625000 33.804938
35.675000 76.562500 33.805381
35.900000 75.703125 33.805739
36.450000 74.515625 33.806234
34.750000 88.953125 33.964181
34.650000 87.812500 33.964656
34.825000 86.562500 33.965177
34.900000 85.625000 33.965568
34.925000 84.421875 33.966069
35.000000 83.218750 33.966570
35.075000 82.406250 33.966909
35.250000 81.343750 33.967352
35.325000 80.265625 33.967801
35.325000 78.953125 33.968348
35.525000 78.078125 33.968712
35.700000 76.640625 33.969311
35.875000 75.578125 33.969754
36.400000 74.296875 33.970288
34.750000 88.578125 34.119014
34.750000 87.390625 34.119509
34.900000 86.750000 34.119776
35.000000 85.656250 34.120231
35.050000 84.343750 34.120778
34.900000 82.890625 34.121384
34.850000 81.671875 34.121891
35.100000 80.828125 34.122243
35.250000 79.718750 34.122705
35.375000 78.562500 34.123187
35.625000 77.750000 34.123526
35.825000 76.328125 34.124118
36.050000 75.250000 34.124567
34.625000 88.437500 34.291471
34.900000 87.640625 34.291803
34.975000 86.312500 34.292356
34.875000 82.718750 34.293854
34.800000 81.968750 34.294166
35.075000 80.546875 34.294759
35.375000 79.421875 34.295228
35.575000 78.750000 34.295507
35.775000 77.265625 34.296126
35.925000 76.171875 34.296582
36.175000 75.078125 34.297037
35.025000 89.406250 34.449257
34.775000 87.968750 34.449856
34.950000 86.968750 34.450272
35.025000 85.984375 34.450682
34.750000 84.921875 34.451125
34.550000 83.546875 34.451698
34.700000 82.640625 34.452076
34.825000 81.406250 34.452590
35.125000 80.375000 34.453020
35.525000 79.281250 34.453475
35.675000 78.671875 34.453729
35.800000 77.484375 34.454224
36.000000 76.453125 34.454654
36.300000 75.062500 34.455233
35.150000 89.406250 34.615599
34.925000 87.890625 34.616230
35.025000 87.078125 34.616569
35.150000 85.718750 34.617135
35.400000 84.625000 34.617591
35.100000 83.812500 34.617930
34.700000 82.531250 34.618464
34.925000 81.234375 34.619004
35.325000 80.156250 34.619453
35.700000 79.359375 34.619785
35.825000 78.250000 34.620247
35.950000 76.906250 34.620807
36.125000 75.937500 34.621211
36.600000 74.812500 34.621680
35.125000 88.828125 34.775557
34.925000 88.046875 34.775883
35.100000 86.921875 34.776351
34.900000 83.406250 34.777816
34.725000 82.406250 34.778233
34.975000 81.046875 34.778799
35.475000 80.343750 34.779092
36.150000 79.312500 34.779522
36.200000 78.140625 34.780010
36.025000 76.906250 34.780524
36.175000 76.093750 34.780863
36.675000 75.031250 34.781306
34.875000 89.484375 34.945987
34.875000 88.156250 34.946540
35.125000 87.562500 34.946788
35.225000 86.078125 34.947406
35.250000 85.343750 34.947712
34.950000 84.140625 34.948213
34.775000 82.640625 34.948838
34.975000 81.921875 34.949138
35.300000 80.546875 34.949711
35.975000 79.796875 34.950023
36.200000 78.406250 34.950603
36.050000 77.328125 34.951052
36.200000 76.484375 34.951403
36.475000 75.125000 34.951970
35.300000 89.031250 35.102668
35.025000 87.734375 35.103209
35.225000 86.640625 35.103664
35.075000 83.171875 35.105109
34.950000 82.312500 35.105468
35.225000 81.359375 35.105865
35.800000 78.125000 35.107212
36.300000 76.812500 35.107759
36.475000 75.812500 35.108176
37.000000 74.687500 35.108645
35.325000 88.796875 35.273474
35.125000 88.015625 35.273799
35.275000 87.187500 35.274144
35.100000 83.656250 35.275616
34.825000 82.593750 35.276058
35.125000 81.218750 35.276631
35.750000 80.078125 35.277107
36.500000 79.609375 35.277302
36.750000 78.109375 35.277927
36.475000 77.140625 35.278331
36.475000 76.156250 35.278741
36.825000 74.703125 35.279346
35.175000 88.328125 35.435227
35.300000 87.750000 35.435468
35.375000 86.218750 35.436106
35.325000 85.015625 35.436607
35.000000 83.859375 35.437089
35.025000 82.968750 35.437460
35.575000 81.875000 35.437916
35.950000 81.171875 35.438209
36.375000 79.968750 35.438710
36.725000 78.531250 35.439309
36.550000 77.875000 35.439583
36.500000 76.328125 35.440227
36.625000 75.515625 35.440566
35.225000 88.750000 35.599269
35.300000 87.796875 35.599666
35.375000 86.359375 35.600265
35.350000 85.562500 35.600597
35.100000 84.328125 35.601112
35.100000 83.140625 35.601606
35.575000 81.984375 35.602088
36.025000 81.031250 35.602485
36.500000 79.812500 35.602993
36.750000 78.984375 35.603338
36.625000 77.671875 35.603885
36.575000 76.750000 35.604269
36.675000 75.328125 35.604861
35.425000 89.125000 35.769567
35.300000 88.125000 35.769984
35.450000 87.093750 35.770414
35.300000 83.312500 35.771989
36.700000 79.046875 35.773767
36.750000 78.031250 35.774190
36.575000 76.890625 35.774665
36.600000 76.171875 35.774965
36.950000 74.937500 35.775479
35.100000 88.953125 35.930413
35.375000 88.015625 35.930803
35.500000 86.640625 35.931376
35.225000 85.625000 35.931799
35.000000 84.343750 35.932333
35.200000 83.250000 35.932789
35.500000 82.031250 35.933297
35.900000 81.109375 35.933681
36.450000 80.171875 35.934072
36.775000 78.812500 35.934638
36.675000 77.703125 35.935100
36.650000 76.781250 35.935484
36.750000 75.546875 35.935999
35.125000 88.671875 36.081292
35.375000 87.828125 36.081644
35.500000 86.515625 36.082191
35.375000 85.718750 36.082522
35.125000 84.531250 36.083017
35.200000 83.156250 36.083590
35.600000 82.437500 36.083890
35.975000 81.031250 36.084476
36.450000 80.328125 36.084769
36.775000 78.781250 36.085413
36.675000 77.687500 36.085869
36.650000 76.859375 36.086214
36.725000 75.625000 36.086728
35.450000 88.718750 36.246530
35.525000 87.609375 36.246992
35.575000 86.625000 36.247402
35.725000 85.265625 36.247968
35.525000 84.359375 36.248346
35.250000 83.328125 36.248776
35.725000 82.125000 36.249277
