33.725000 90.968750 35.596346
33.850000 91.843750 35.596346
34.450000 78.921875 35.750559
34.175000 79.781250 35.750559
34.025000 81.015625 35.750559
33.850000 82.265625 35.750559
33.725000 83.515625 35.750559
33.700000 84.640625 35.750559
33.750000 86.421875 35.750559
33.725000 87.312500 35.750559
33.725000 88.625000 35.750559
33.725000 89.906250 35.750559
33.750000 91.093750 35.750559
33.950000 92.265625 35.750559
33.925000 94.968750 35.750559
34.425000 79.000000 35.891052
34.200000 80.281250 35.891052
34.000000 81.484375 35.891052
33.800000 82.937500 35.891052
33.775000 84.343750 35.891052
33.725000 85.078125 35.891052
33.700000 86.562500 35.891052
33.750000 87.843750 35.891052
33.750000 89.312500 35.891052
33.700000 90.406250 35.891052
33.675000 91.468750 35.891052
34.125000 92.765625 35.891052
34.275000 93.750000 35.891052
34.400000 79.046875 36.045154
34.200000 80.218750 36.045154
34.025000 81.921875 36.045154
33.800000 82.671875 36.045154
33.750000 84.468750 36.045154
33.725000 85.562500 36.045154
33.700000 86.937500 36.045154
33.750000 88.109375 36.045154
33.750000 89.046875 36.045154
33.750000 90.109375 36.045154
34.000000 93.921875 36.045154
34.600000 78.312500 36.184686
34.275000 79.531250 36.184686
34.075000 80.890625 36.184686
33.900000 81.859375 36.184686
33.750000 83.250000 36.184686
33.675000 84.921875 36.184686
33.725000 85.984375 36.184686
33.725000 87.109375 36.184686
33.675000 88.312500 36.184686
33.700000 89.812500 36.184686
33.725000 91.031250 36.184686
33.850000 92.187500 36.184686
34.350000 79.453125 36.340564
34.200000 80.859375 36.340564
34.025000 81.984375 36.340564
33.775000 83.156250 36.340564
33.675000 84.171875 36.340564
33.725000 86.015625 36.340564
33.725000 87.218750 36.340564
33.675000 88.437500 36.340564
33.700000 89.531250 36.340564
33.700000 90.859375 36.340564
33.750000 92.187500 36.340564
34.550000 78.765625 36.493747
34.350000 79.812500 36.493747
34.225000 81.015625 36.493747
33.975000 82.406250 36.493747
33.800000 83.562500 36.493747
33.675000 84.828125 36.493747
33.675000 86.468750 36.493747
33.750000 87.671875 36.493747
33.725000 88.890625 36.493747
33.725000 89.843750 36.493747
33.750000 91.406250 36.493747
33.950000 92.359375 36.493747
28.175000 105.906250 36.493747
34.425000 78.937500 36.634298
34.225000 80.546875 36.634298
34.100000 81.484375 36.634298
33.925000 83.046875 36.634298
33.825000 84.171875 36.634298
33.775000 85.562500 36.634298
33.775000 86.453125 36.634298
33.775000 87.921875 36.634298
33.750000 89.156250 36.634298
33.775000 89.921875 36.634298
33.800000 91.359375 36.634298
34.075000 92.765625 36.634298
34.125000 93.859375 36.634298
27.950000 106.187500 36.634298
34.475000 78.890625 36.782404
34.300000 80.421875 36.782404
34.150000 81.140625 36.782404
33.925000 82.937500 36.782404
33.825000 83.750000 36.782404
33.775000 85.546875 36.782404
33.750000 86.656250 36.782404
33.800000 87.828125 36.782404
33.800000 88.843750 36.782404
33.775000 90.078125 36.782404
33.775000 91.140625 36.782404
33.850000 93.984375 36.782404
34.475000 79.359375 36.928824
34.300000 80.140625 36.928824
34.175000 81.828125 36.928824
33.875000 82.968750 36.928824
33.750000 84.265625 36.928824
33.800000 85.671875 36.928824
33.775000 86.734375 36.928824
33.750000 88.203125 36.928824
33.750000 89.328125 36.928824
33.750000 90.312500 36.928824
33.975000 93.984375 36.928824
34.725000 78.718750 37.082314
34.425000 79.578125 37.082314
34.275000 81.062500 37.082314
34.100000 82.093750 37.082314
33.825000 83.625000 37.082314
33.700000 84.671875 37.082314
33.725000 86.265625 37.082314
33.725000 87.015625 37.082314
33.725000 88.578125 37.082314
33.750000 89.593750 37.082314
33.775000 90.640625 37.082314
33.950000 92.031250 37.082314
34.175000 93.109375 37.082314
34.525000 79.203125 37.225437
34.300000 80.156250 37.225437
34.175000 81.359375 37.225437
33.975000 83.125000 37.225437
33.725000 83.953125 37.225437
33.650000 85.234375 37.225437
33.750000 86.453125 37.225437
33.775000 87.953125 37.225437
33.750000 88.875000 37.225437
33.750000 90.406250 37.225437
33.975000 93.812500 37.225437
27.825000 106.093750 37.225437
34.475000 79.406250 37.378905
34.300000 80.234375 37.378905
34.275000 81.484375 37.378905
34.025000 82.921875 37.378905
33.825000 84.390625 37.378905
33.750000 85.875000 37.378905
33.775000 87.093750 37.378905
33.825000 87.984375 37.378905
33.775000 89.250000 37.378905
33.725000 90.500000 37.378905
33.750000 91.609375 37.378905
34.050000 92.859375 37.378905
34.825000 78.140625 37.535085
34.450000 79.890625 37.535085
34.325000 80.796875 37.535085
34.200000 82.140625 37.535085
33.975000 83.437500 37.535085
33.775000 84.765625 37.535085
33.700000 85.609375 37.535085
33.775000 87.156250 37.535085
33.800000 88.734375 37.535085
33.775000 89.828125 37.535085
33.775000 90.906250 37.535085
33.925000 91.906250 37.535085
34.150000 93.281250 37.535085
34.825000 78.734375 37.673833
34.525000 79.843750 37.673833
34.375000 81.421875 37.673833
34.200000 82.234375 37.673833
33.950000 83.796875 37.673833
33.675000 85.375000 37.673833
33.575000 86.484375 37.673833
33.775000 87.203125 37.673833
33.825000 88.578125 37.673833
33.750000 89.734375 37.673833
33.750000 91.421875 37.673833
33.950000 92.140625 37.673833
34.150000 93.390625 37.673833
33.925000 94.656250 37.673833
28.275000 106.250000 37.673833
34.675000 79.000000 37.827546
34.400000 80.109375 37.827546
34.275000 81.312500 37.827546
34.150000 82.796875 37.827546
33.875000 84.281250 37.827546
33.625000 85.296875 37.827546
33.600000 86.625000 37.827546
34.075000 87.468750 37.827546
34.100000 88.843750 37.827546
33.775000 90.156250 37.827546
33.975000 93.750000 37.827546
27.825000 107.078125 37.827546
34.675000 79.328125 37.982727
34.450000 80.843750 37.982727
34.275000 81.984375 37.982727
34.025000 82.984375 37.982727
33.700000 84.656250 37.982727
33.450000 85.312500 37.982727
33.500000 86.968750 37.982727
34.050000 87.656250 37.982727
34.100000 89.343750 37.982727
33.775000 90.750000 37.982727
33.775000 91.703125 37.982727
34.150000 93.000000 37.982727
34.300000 94.062500 37.982727
34.450000 79.921875 38.124049
34.275000 81.281250 38.124049
34.250000 82.046875 38.124049
34.075000 83.515625 38.124049
33.675000 84.484375 38.124049
33.400000 85.968750 38.124049
33.575000 89.484375 38.124049
33.775000 90.828125 38.124049
33.950000 92.312500 38.124049
34.150000 93.656250 38.124049
34.900000 79.000000 38.276842
34.525000 79.703125 38.276842
34.350000 80.968750 38.276842
34.175000 82.718750 38.276842
33.850000 83.937500 38.276842
33.475000 85.296875 38.276842
33.350000 86.078125 38.276842
33.575000 90.203125 38.276842
33.775000 90.984375 38.276842
33.950000 92.593750 38.276842
34.125000 93.750000 38.276842
28.175000 106.125000 38.276842
34.725000 78.875000 38.420991
34.475000 80.312500 38.420991
34.375000 81.703125 38.420991
34.375000 82.515625 38.420991
33.975000 84.281250 38.420991
33.475000 85.187500 38.420991
33.450000 86.531250 38.420991
33.550000 87.953125 38.420991
33.725000 88.875000 38.420991
33.775000 90.421875 38.420991
33.950000 94.140625 38.420991
34.750000 78.984375 38.571185
34.500000 80.375000 38.571185
34.450000 81.171875 38.571185
34.450000 82.640625 38.571185
34.000000 83.875000 38.571185
33.550000 85.312500 38.571185
33.475000 86.921875 38.571185
33.600000 90.296875 38.571185
33.825000 91.171875 38.571185
34.100000 92.703125 38.571185
34.150000 93.875000 38.571185
28.150000 106.406250 38.571185
34.750000 78.765625 38.727203
34.500000 80.203125 38.727203
34.425000 81.578125 38.727203
34.550000 82.625000 38.727203
33.550000 85.625000 38.727203
33.475000 86.875000 38.727203
33.600000 90.000000 38.727203
33.800000 91.484375 38.727203
34.075000 92.750000 38.727203
34.250000 93.812500 38.727203
28.150000 106.062500 38.727203
34.750000 79.062500 38.867025
34.475000 80.031250 38.867025
34.425000 81.421875 38.867025
34.650000 82.437500 38.867025
33.675000 85.640625 38.867025
33.525000 86.875000 38.867025
33.600000 90.281250 38.867025
33.800000 91.187500 38.867025
34.175000 92.765625 38.867025
34.325000 93.765625 38.867025
28.000000 106.203125 38.867025
34.625000 79.687500 39.022809
34.575000 80.562500 39.022809
34.650000 81.796875 39.022809
34.450000 83.171875 39.022809
33.950000 84.625000 39.022809
33.625000 85.734375 39.022809
33.525000 86.796875 39.022809
33.575000 88.046875 39.022809
33.775000 89.171875 39.022809
33.825000 90.640625 39.022809
33.775000 91.984375 39.022809
33.875000 94.265625 39.022809
34.650000 79.531250 39.164063
34.600000 80.609375 39.164063
34.700000 81.781250 39.164063
34.400000 83.500000 39.164063
33.775000 84.453125 39.164063
33.400000 86.078125 39.164063
33.425000 87.390625 39.164063
33.800000 88.265625 39.164063
33.975000 89.765625 39.164063
33.800000 90.984375 39.164063
33.850000 92.265625 39.164063
33.925000 93.593750 39.164063
34.575000 79.437500 39.318928
34.650000 81.265625 39.318928
34.600000 82.000000 39.318928
34.175000 83.890625 39.318928
33.600000 84.546875 39.318928
33.300000 86.218750 39.318928
33.525000 89.812500 39.318928
33.775000 91.046875 39.318928
33.950000 92.421875 39.318928
34.150000 93.421875 39.318928
34.775000 79.171875 39.459569
34.600000 79.921875 39.459569
34.700000 81.468750 39.459569
35.050000 82.562500 39.459569
34.075000 85.171875 39.459569
33.775000 86.781250 39.459569
33.525000 87.921875 39.459569
33.825000 88.703125 39.459569
33.850000 89.984375 39.459569
33.775000 91.156250 39.459569
34.000000 92.734375 39.459569
34.025000 93.734375 39.459569
28.125000 106.343750 39.459569
34.625000 79.296875 39.618855
34.575000 80.484375 39.618855
34.775000 81.890625 39.618855
34.650000 83.218750 39.618855
34.150000 84.625000 39.618855
33.675000 85.578125 39.618855
33.450000 86.968750 39.618855
33.550000 88.031250 39.618855
33.750000 89.187500 39.618855
33.825000 90.781250 39.618855
33.775000 91.671875 39.618855
34.825000 78.687500 39.770757
34.600000 79.968750 39.770757
34.725000 81.109375 39.770757
34.825000 82.203125 39.770757
34.425000 84.031250 39.770757
33.900000 84.875000 39.770757
33.525000 86.640625 39.770757
33.500000 87.281250 39.770757
34.025000 88.875000 39.770757
34.050000 90.250000 39.770757
33.750000 91.484375 39.770757
33.950000 92.453125 39.770757
34.025000 93.609375 39.770757
28.275000 105.671875 39.770757
34.775000 78.609375 39.910321
34.600000 80.468750 39.910321
34.700000 81.328125 39.910321
35.025000 82.265625 39.910321
33.925000 85.343750 39.910321
33.625000 86.312500 39.910321
33.450000 87.562500 39.910321
33.700000 89.031250 39.910321
33.800000 89.796875 39.910321
33.775000 91.640625 39.910321
33.975000 92.406250 39.910321
34.025000 93.531250 39.910321
28.125000 106.593750 39.910321
34.625000 79.312500 40.060624
34.575000 80.500000 40.060624
34.750000 81.531250 40.060624
34.625000 82.890625 40.060624
34.150000 84.203125 40.060624
33.925000 85.500000 40.060624
33.625000 86.859375 40.060624
33.300000 88.031250 40.060624
33.575000 89.187500 40.060624
33.800000 90.390625 40.060624
33.775000 91.734375 40.060624
27.925000 97.265625 40.060624
34.575000 79.593750 40.207604
34.575000 81.078125 40.207604
34.775000 81.796875 40.207604
34.500000 83.343750 40.207604
34.000000 84.500000 40.207604
33.625000 85.812500 40.207604
33.325000 87.109375 40.207604
33.550000 88.468750 40.207604
33.775000 89.703125 40.207604
33.775000 91.125000 40.207604
33.850000 91.968750 40.207604
33.950000 93.062500 40.207604
28.175000 105.906250 40.207604
34.750000 78.812500 40.362278
34.575000 80.093750 40.362278
34.600000 81.312500 40.362278
34.725000 82.328125 40.362278
34.500000 84.000000 40.362278
34.175000 84.875000 40.362278
33.725000 86.515625 40.362278
33.375000 87.640625 40.362278
33.750000 88.890625 40.362278
33.925000 90.031250 40.362278
33.775000 91.343750 40.362278
34.000000 92.359375 40.362278
34.025000 93.562500 40.362278
34.650000 79.234375 40.500503
34.425000 80.125000 40.500503
34.500000 81.750000 40.500503
34.775000 82.953125 40.500503
34.425000 84.046875 40.500503
33.850000 85.281250 40.500503
33.450000 86.890625 40.500503
33.200000 88.312500 40.500503
33.500000 89.203125 40.500503
33.775000 90.406250 40.500503
33.825000 94.046875 40.500503
34.700000 78.625000 40.657256
34.450000 79.781250 40.657256
34.325000 80.843750 40.657256
34.550000 82.390625 40.657256
34.500000 83.140625 40.657256
34.075000 84.953125 40.657256
33.700000 86.062500 40.657256
33.425000 87.250000 40.657256
33.550000 88.375000 40.657256
33.775000 89.421875 40.657256
33.775000 91.078125 40.657256
33.925000 91.984375 40.657256
34.100000 93.296875 40.657256
28.200000 106.031250 40.657256
34.675000 78.578125 40.812958
34.425000 79.609375 40.812958
34.225000 81.312500 40.812958
34.450000 81.953125 40.812958
34.500000 83.734375 40.812958
34.150000 84.625000 40.812958
33.850000 86.031250 40.812958
33.525000 87.484375 40.812958
33.525000 88.718750 40.812958
33.750000 89.890625 40.812958
33.775000 90.875000 40.812958
33.900000 92.171875 40.812958
34.125000 93.187500 40.812958
34.675000 78.218750 40.951570
34.375000 79.593750 40.951570
34.125000 81.031250 40.951570
34.175000 82.453125 40.951570
34.400000 83.265625 40.951570
34.200000 84.703125 40.951570
33.975000 86.000000 40.951570
33.800000 87.312500 40.951570
33.650000 88.546875 40.951570
33.775000 89.484375 40.951570
33.800000 90.562500 40.951570
34.350000 79.109375 41.106637
34.125000 80.453125 41.106637
34.125000 82.109375 41.106637
34.400000 83.265625 41.106637
34.275000 84.687500 41.106637
33.850000 85.875000 41.106637
33.725000 87.156250 41.106637
33.750000 88.093750 41.106637
33.825000 89.406250 41.106637
33.800000 90.671875 41.106637
33.750000 91.953125 41.106637
34.100000 92.906250 41.106637
34.325000 94.359375 41.106637
34.325000 79.421875 41.248390
34.100000 80.734375 41.248390
34.025000 81.953125 41.248390
34.300000 83.140625 41.248390
34.275000 84.640625 41.248390
33.825000 85.843750 41.248390
33.725000 87.187500 41.248390
33.775000 88.203125 41.248390
33.825000 89.296875 41.248390
33.775000 90.390625 41.248390
33.600000 94.500000 41.248390
34.600000 78.468750 41.403291
34.300000 79.796875 41.403291
34.025000 80.937500 41.403291
33.925000 81.906250 41.403291
34.225000 83.093750 41.403291
34.200000 84.937500 41.403291
33.750000 85.890625 41.403291
33.675000 87.156250 41.403291
33.725000 88.078125 41.403291
33.750000 89.484375 41.403291
33.750000 91.109375 41.403291
34.525000 78.171875 41.543277
34.275000 79.500000 41.543277
34.025000 80.718750 41.543277
33.925000 82.015625 41.543277
34.275000 83.328125 41.543277
34.250000 84.562500 41.543277
33.800000 85.781250 41.543277
33.700000 87.281250 41.543277
33.750000 88.015625 41.543277
33.775000 89.203125 41.543277
33.725000 90.812500 41.543277
33.725000 91.843750 41.543277
34.100000 93.406250 41.543277
34.325000 94.062500 41.543277
34.525000 78.015625 41.700843
34.200000 79.390625 41.700843
33.925000 80.546875 41.700843
33.900000 82.156250 41.700843
34.250000 83.375000 41.700843
34.250000 84.437500 41.700843
33.800000 85.515625 41.700843
33.675000 87.203125 41.700843
33.725000 88.609375 41.700843
33.750000 89.609375 41.700843
33.725000 90.750000 41.700843
33.800000 92.125000 41.700843
34.200000 93.015625 41.700843
34.225000 94.375000 41.700843
28.175000 105.843750 41.700843
34.400000 78.718750 41.851750
34.025000 80.078125 41.851750
33.850000 81.312500 41.851750
33.950000 82.218750 41.851750
34.175000 83.312500 41.851750
33.975000 84.718750 41.851750
33.625000 85.937500 41.851750
33.625000 87.609375 41.851750
33.625000 88.875000 41.851750
33.650000 89.906250 41.851750
33.650000 91.375000 41.851750
33.775000 92.062500 41.851750
33.575000 95.156250 41.851750
34.200000 79.265625 41.992111
33.900000 80.296875 41.992111
33.875000 81.421875 41.992111
34.150000 82.687500 41.992111
34.125000 84.093750 41.992111
33.700000 85.312500 41.992111
33.475000 86.468750 41.992111
33.300000 88.187500 41.992111
33.350000 89.031250 41.992111
33.550000 90.671875 41.992111
33.550000 91.609375 41.992111
33.775000 93.125000 41.992111
33.850000 94.171875 41.992111
34.400000 78.421875 42.140767
34.025000 79.218750 42.140767
33.875000 80.812500 42.140767
33.925000 81.765625 42.140767
34.200000 83.031250 42.140767
34.000000 84.421875 42.140767
33.375000 85.734375 42.140767
33.100000 87.140625 42.140767
33.025000 88.296875 42.140767
33.200000 89.125000 42.140767
33.450000 90.359375 42.140767
33.475000 91.703125 42.140767
33.800000 92.750000 42.140767
33.850000 94.109375 42.140767
34.375000 78.140625 42.287469
34.025000 79.375000 42.287469
33.900000 81.093750 42.287469
33.900000 81.953125 42.287469
34.050000 83.640625 42.287469
33.950000 84.890625 42.287469
33.575000 85.656250 42.287469
33.125000 87.187500 42.287469
32.850000 88.515625 42.287469
33.025000 89.906250 42.287469
33.300000 90.578125 42.287469
34.450000 78.375000 42.441606
34.025000 79.937500 42.441606
33.900000 80.671875 42.441606
34.050000 82.203125 42.441606
34.050000 83.421875 42.441606
33.825000 84.437500 42.441606
33.500000 86.265625 42.441606
33.025000 87.484375 42.441606
32.775000 88.500000 42.441606
32.950000 90.000000 42.441606
33.275000 90.687500 42.441606
33.425000 91.937500 42.441606
33.425000 93.109375 42.441606
28.225000 105.937500 42.441606
34.100000 79.140625 42.597837
33.950000 80.203125 42.597837
34.000000 81.171875 42.597837
34.125000 82.890625 42.597837
33.925000 83.750000 42.597837
33.700000 85.156250 42.597837
33.325000 86.875000 42.597837
32.775000 87.984375 42.597837
32.775000 89.343750 42.597837
33.125000 90.359375 42.597837
33.300000 91.328125 42.597837
33.300000 92.921875 42.597837
33.375000 93.875000 42.597837
28.125000 106.328125 42.597837
34.075000 79.265625 42.738180
33.950000 80.187500 42.738180
34.000000 81.078125 42.738180
34.125000 82.718750 42.738180
33.900000 83.609375 42.738180
33.675000 85.468750 42.738180
33.200000 86.515625 42.738180
32.700000 87.921875 42.738180
32.700000 89.390625 42.738180
33.025000 90.375000 42.738180
33.275000 91.812500 42.738180
33.375000 92.578125 42.738180
33.450000 93.671875 42.738180
28.125000 106.187500 42.738180
33.950000 79.015625 42.898406
33.900000 79.953125 42.898406
34.025000 81.781250 42.898406
34.200000 82.453125 42.898406
33.875000 83.921875 42.898406
33.400000 85.046875 42.898406
32.900000 86.406250 42.898406
32.625000 88.031250 42.898406
32.775000 88.921875 42.898406
32.975000 90.046875 42.898406
33.200000 91.218750 42.898406
33.350000 92.781250 42.898406
33.450000 93.656250 42.898406
28.000000 106.390625 42.898406
34.050000 78.984375 43.049312
33.925000 80.562500 43.049312
34.075000 81.109375 43.049312
34.275000 82.656250 43.049312
33.850000 84.156250 43.049312
33.175000 85.500000 43.049312
32.675000 86.609375 43.049312
32.525000 87.562500 43.049312
32.875000 88.750000 43.049312
33.125000 90.312500 43.049312
33.175000 91.546875 43.049312
33.350000 92.359375 43.049312
33.450000 94.093750 43.049312
28.175000 106.156250 43.049312
34.025000 78.812500 43.190354
33.900000 80.390625 43.190354
34.075000 81.062500 43.190354
34.400000 82.640625 43.190354
32.975000 85.187500 43.190354
32.525000 86.531250 43.190354
32.500000 87.671875 43.190354
32.850000 88.937500 43.190354
33.100000 90.125000 43.190354
33.175000 91.406250 43.190354
33.325000 92.656250 43.190354
33.525000 94.000000 43.190354
28.275000 105.687500 43.190354
34.050000 78.484375 43.337244
33.850000 80.203125 43.337244
34.050000 80.921875 43.337244
34.325000 82.328125 43.337244
32.900000 85.390625 43.337244
32.525000 86.312500 43.337244
32.425000 87.484375 43.337244
32.550000 89.187500 43.337244
32.875000 89.656250 43.337244
33.200000 91.250000 43.337244
33.375000 92.640625 43.337244
33.500000 93.609375 43.337244
33.075000 94.781250 43.337244
28.275000 105.734375 43.337244
34.000000 79.046875 43.484579
33.875000 80.203125 43.484579
34.000000 81.546875 43.484579
34.025000 83.000000 43.484579
32.775000 85.656250 43.484579
32.525000 86.953125 43.484579
32.775000 90.250000 43.484579
33.175000 91.609375 43.484579
33.325000 92.734375 43.484579
33.525000 93.656250 43.484579
33.975000 78.968750 43.640233
33.875000 80.406250 43.640233
33.850000 81.687500 43.640233
33.725000 82.796875 43.640233
33.175000 84.375000 43.640233
32.600000 85.750000 43.640233
32.425000 86.734375 43.640233
32.575000 88.453125 43.640233
33.075000 89.140625 43.640233
33.275000 90.515625 43.640233
33.400000 93.875000 43.640233
33.925000 79.656250 43.779491
33.725000 80.734375 43.779491
33.700000 82.093750 43.779491
33.425000 83.390625 43.779491
32.950000 84.375000 43.779491
32.600000 85.593750 43.779491
32.550000 86.765625 43.779491
32.675000 88.562500 43.779491
32.950000 89.765625 43.779491
33.175000 91.078125 43.779491
33.200000 92.156250 43.779491
33.525000 93.234375 43.779491
34.375000 78.343750 43.934438
33.975000 79.781250 43.934438
33.775000 80.812500 43.934438
33.675000 82.359375 43.934438
33.400000 83.218750 43.934438
32.950000 84.687500 43.934438
32.600000 85.984375 43.934438
32.650000 87.437500 43.934438
33.125000 88.125000 43.934438
33.300000 89.640625 43.934438
33.175000 90.937500 43.934438
33.300000 92.296875 43.934438
33.525000 93.078125 43.934438
34.200000 78.796875 44.076958
33.825000 80.062500 44.076958
33.700000 81.062500 44.076958
33.575000 82.656250 44.076958
33.275000 83.484375 44.076958
32.925000 85.109375 44.076958
32.725000 86.359375 44.076958
32.975000 90.093750 44.076958
33.200000 91.109375 44.076958
33.375000 92.109375 44.076958
33.500000 93.421875 44.076958
28.250000 106.000000 44.076958
34.150000 78.750000 44.220354
33.850000 79.890625 44.220354
33.725000 80.906250 44.220354
33.550000 82.421875 44.220354
33.250000 83.921875 44.220354
33.000000 85.359375 44.220354
32.950000 86.484375 44.220354
33.075000 87.515625 44.220354
33.225000 88.593750 44.220354
33.225000 89.843750 44.220354
33.200000 91.156250 44.220354
33.325000 92.656250 44.220354
33.475000 93.656250 44.220354
33.250000 94.984375 44.220354
28.250000 105.921875 44.220354
34.125000 78.687500 44.373738
33.850000 79.921875 44.373738
33.725000 81.156250 44.373738
33.500000 82.484375 44.373738
33.225000 83.703125 44.373738
33.100000 85.312500 44.373738
33.100000 86.828125 44.373738
33.175000 87.468750 44.373738
33.250000 89.062500 44.373738
33.225000 89.812500 44.373738
33.175000 91.656250 44.373738
33.325000 92.640625 44.373738
33.500000 93.687500 44.373738
33.975000 79.000000 44.529584
33.775000 80.031250 44.529584
33.625000 81.937500 44.529584
33.450000 82.937500 44.529584
33.225000 84.203125 44.529584
33.100000 85.343750 44.529584
33.175000 86.375000 44.529584
33.250000 87.859375 44.529584
33.250000 88.843750 44.529584
33.225000 90.468750 44.529584
33.200000 91.765625 44.529584
33.350000 93.859375 44.529584
27.900000 105.968750 44.529584
33.975000 79.296875 44.668404
33.800000 80.281250 44.668404
33.625000 81.828125 44.668404
33.425000 82.734375 44.668404
33.275000 84.218750 44.668404
33.225000 85.593750 44.668404
33.250000 86.781250 44.668404
33.250000 88.281250 44.668404
33.300000 89.296875 44.668404
33.275000 90.796875 44.668404
33.400000 93.921875 44.668404
34.175000 78.484375 44.837508
33.825000 79.921875 44.837508
33.675000 81.109375 44.837508
33.550000 82.109375 44.837508
33.350000 83.968750 44.837508
33.175000 84.687500 44.837508
33.200000 86.171875 44.837508
33.275000 87.062500 44.837508
33.275000 88.843750 44.837508
33.275000 90.046875 44.837508
33.275000 91.062500 44.837508
33.525000 92.046875 44.837508
33.375000 95.156250 44.837508
34.100000 79.234375 44.978719
33.825000 80.390625 44.978719
33.700000 81.656250 44.978719
33.500000 82.734375 44.978719
33.350000 83.890625 44.978719
33.300000 84.906250 44.978719
33.250000 86.421875 44.978719
33.275000 87.562500 44.978719
33.275000 88.890625 44.978719
33.325000 90.296875 44.978719
33.375000 91.265625 44.978719
33.600000 92.875000 44.978719
28.075000 106.375000 44.978719
33.950000 79.062500 45.120462
33.775000 80.812500 45.120462
33.625000 81.500000 45.120462
33.525000 82.656250 45.120462
33.375000 84.453125 45.120462
33.325000 85.828125 45.120462
33.350000 86.875000 45.120462
33.375000 88.171875 45.120462
33.425000 89.218750 45.120462
33.425000 90.781250 45.120462
33.500000 91.343750 45.120462
33.800000 92.640625 45.120462
33.850000 94.359375 45.120462
34.025000 79.343750 45.261231
33.775000 80.343750 45.261231
33.625000 81.531250 45.261231
33.550000 82.781250 45.261231
33.550000 84.140625 45.261231
33.450000 85.531250 45.261231
33.425000 86.484375 45.261231
33.450000 88.015625 45.261231
33.500000 89.265625 45.261231
33.525000 90.296875 45.261231
33.500000 91.953125 45.261231
33.875000 92.953125 45.261231
33.875000 94.421875 45.261231
34.025000 79.703125 45.418815
33.825000 81.015625 45.418815
33.675000 82.187500 45.418815
33.575000 82.968750 45.418815
33.525000 84.453125 45.418815
33.525000 85.453125 45.418815
33.500000 86.890625 45.418815
33.500000 88.140625 45.418815
33.575000 89.734375 45.418815
33.600000 90.968750 45.418815
33.900000 94.281250 45.418815
34.375000 78.656250 45.569693
33.975000 79.703125 45.569693
33.775000 80.765625 45.569693
33.700000 81.906250 45.569693
33.625000 83.546875 45.569693
33.575000 84.437500 45.569693
33.600000 86.203125 45.569693
33.575000 86.765625 45.569693
33.525000 88.046875 45.569693
33.550000 89.484375 45.569693
33.625000 90.843750 45.569693
33.650000 92.234375 45.569693
34.050000 94.375000 45.569693
28.200000 105.828125 45.569693
34.325000 78.546875 45.709001
34.000000 80.187500 45.709001
33.800000 80.906250 45.709001
33.750000 82.281250 45.709001
33.650000 83.500000 45.709001
33.625000 85.093750 45.709001
33.625000 86.359375 45.709001
33.625000 87.562500 45.709001
33.625000 89.000000 45.709001
33.650000 89.593750 45.709001
33.675000 90.984375 45.709001
33.850000 92.531250 45.709001
33.875000 94.593750 45.709001
28.250000 105.968750 45.709001
34.350000 78.562500 45.858763
34.100000 80.375000 45.858763
33.925000 81.687500 45.858763
33.750000 82.718750 45.858763
33.650000 84.171875 45.858763
33.550000 85.156250 45.858763
33.600000 86.125000 45.858763
33.700000 87.546875 45.858763
33.675000 88.828125 45.858763
33.700000 90.015625 45.858763
33.700000 91.453125 45.858763
34.000000 92.640625 45.858763
34.300000 93.703125 45.858763
28.225000 106.125000 45.858763
34.250000 79.250000 46.017687
34.050000 80.500000 46.017687
33.900000 81.406250 46.017687
33.750000 82.875000 46.017687
33.700000 84.156250 46.017687
33.625000 85.484375 46.017687
33.625000 86.625000 46.017687
33.700000 87.734375 46.017687
33.700000 89.296875 46.017687
33.700000 90.203125 46.017687
33.950000 93.906250 46.017687
34.475000 78.328125 46.158024
34.175000 79.734375 46.158024
33.975000 81.093750 46.158024
33.775000 82.546875 46.158024
33.675000 83.375000 46.158024
33.650000 84.718750 46.158024
33.725000 86.109375 46.158024
33.700000 87.578125 46.158024
33.650000 88.500000 46.158024
33.675000 89.562500 46.158024
33.675000 91.015625 46.158024
33.875000 92.203125 46.158024
33.875000 94.796875 46.158024
28.275000 106.015625 46.158024
34.350000 78.953125 46.313092
34.175000 79.968750 46.313092
34.000000 81.156250 46.313092
33.775000 82.359375 46.313092
33.725000 84.000000 46.313092
33.625000 85.359375 46.313092
33.600000 86.156250 46.313092
33.700000 87.468750 46.313092
33.675000 88.843750 46.313092
33.700000 90.343750 46.313092
33.700000 91.437500 46.313092
34.000000 92.265625 46.313092
28.225000 106.468750 46.313092
34.325000 79.531250 46.453868
34.175000 80.453125 46.453868
34.000000 81.609375 46.453868
33.825000 82.734375 46.453868
33.800000 84.218750 46.453868
33.700000 85.500000 46.453868
33.650000 86.953125 46.453868
33.725000 87.796875 46.453868
33.700000 89.296875 46.453868
33.700000 90.828125 46.453868
33.950000 94.343750 46.453868
34.550000 78.750000 46.607445
34.275000 79.750000 46.607445
34.125000 81.265625 46.607445
33.925000 82.296875 46.607445
33.700000 83.703125 46.607445
33.725000 84.562500 46.607445
33.800000 85.812500 46.607445
33.725000 87.203125 46.607445
33.725000 88.640625 46.607445
33.775000 89.687500 46.607445
33.775000 90.906250 46.607445
33.950000 92.000000 46.607445
33.600000 94.968750 46.607445
28.250000 105.984375 46.607445
34.475000 78.875000 46.762461
34.275000 80.187500 46.762461
34.100000 81.843750 46.762461
33.850000 82.734375 46.762461
33.800000 84.359375 46.762461
33.725000 85.484375 46.762461
33.675000 86.359375 46.762461
33.775000 87.765625 46.762461
33.775000 88.890625 46.762461
33.775000 90.031250 46.762461
33.775000 91.687500 46.762461
34.475000 78.671875 46.916299
34.250000 80.515625 46.916299
34.100000 81.796875 46.916299
33.875000 82.515625 46.916299
33.750000 83.984375 46.916299
33.675000 85.562500 46.916299
33.700000 86.656250 46.916299
33.775000 87.812500 46.916299
33.775000 88.828125 46.916299
33.775000 90.140625 46.916299
33.750000 91.375000 46.916299
34.000000 92.421875 46.916299
28.125000 105.906250 46.916299
34.475000 79.031250 47.061376
34.275000 80.484375 47.061376
34.100000 81.890625 47.061376
33.850000 82.875000 47.061376
33.800000 84.187500 47.061376
33.725000 85.375000 47.061376
33.675000 86.500000 47.061376
33.775000 87.734375 47.061376
33.775000 88.718750 47.061376
33.775000 90.187500 47.061376
33.775000 91.390625 47.061376
33.850000 93.812500 47.061376
27.975000 106.656250 47.061376
34.475000 79.125000 47.198349
34.275000 80.484375 47.198349
34.125000 81.281250 47.198349
33.875000 82.515625 47.198349
33.800000 84.406250 47.198349
33.800000 85.343750 47.198349
33.750000 86.515625 47.198349
33.725000 87.781250 47.198349
33.700000 88.875000 47.198349
33.725000 90.453125 47.198349
33.975000 93.765625 47.198349
34.700000 78.765625 47.351027
34.425000 79.937500 47.351027
34.275000 81.312500 47.351027
34.075000 82.218750 47.351027
33.800000 83.281250 47.351027
33.650000 84.500000 47.351027
33.700000 86.156250 47.351027
33.800000 87.312500 47.351027
33.750000 88.750000 47.351027
33.725000 90.093750 47.351027
33.775000 90.828125 47.351027
33.950000 92.218750 47.351027
34.175000 93.515625 47.351027
34.675000 78.890625 47.497343
34.425000 80.031250 47.497343
34.200000 81.343750 47.497343
33.975000 82.640625 47.497343
33.850000 84.078125 47.497343
33.775000 85.328125 47.497343
33.775000 86.562500 47.497343
33.775000 87.328125 47.497343
33.775000 88.843750 47.497343
33.700000 90.343750 47.497343
33.700000 91.078125 47.497343
33.875000 92.359375 47.497343
34.150000 93.937500 47.497343
28.225000 105.984375 47.497343
34.575000 79.015625 47.645020
34.300000 80.390625 47.645020
34.200000 81.781250 47.645020
34.050000 82.796875 47.645020
33.875000 84.312500 47.645020
33.775000 85.406250 47.645020
33.775000 86.734375 47.645020
33.775000 87.968750 47.645020
33.775000 88.828125 47.645020
33.775000 89.921875 47.645020
33.775000 91.421875 47.645020
33.975000 93.750000 47.645020
34.600000 79.265625 47.799937
34.375000 80.359375 47.799937
34.225000 82.140625 47.799937
33.950000 83.437500 47.799937
33.675000 84.609375 47.799937
33.675000 85.640625 47.799937
33.775000 86.890625 47.799937
33.800000 87.953125 47.799937
33.850000 89.015625 47.799937
33.825000 90.343750 47.799937
33.800000 91.812500 47.799937
34.200000 92.859375 47.799937
34.375000 94.015625 47.799937
34.800000 78.531250 47.953961
34.450000 79.593750 47.953961
34.300000 80.984375 47.953961
34.075000 82.515625 47.953961
33.875000 83.625000 47.953961
33.825000 84.562500 47.953961
33.775000 85.812500 47.953961
33.875000 87.015625 47.953961
33.900000 88.234375 47.953961
33.775000 89.468750 47.953961
33.775000 90.968750 47.953961
33.950000 92.234375 47.953961
34.150000 93.718750 47.953961
34.750000 78.968750 48.092980
34.425000 79.781250 48.092980
34.300000 81.109375 48.092980
34.175000 82.734375 48.092980
33.925000 83.687500 48.092980
33.775000 85.296875 48.092980
33.750000 86.515625 48.092980
33.925000 87.734375 48.092980
33.950000 89.000000 48.092980
33.725000 89.843750 48.092980
33.725000 91.453125 48.092980
33.900000 92.500000 48.092980
34.150000 94.000000 48.092980
34.700000 78.859375 48.247406
34.425000 80.140625 48.247406
34.250000 81.921875 48.247406
34.050000 83.171875 48.247406
33.875000 84.468750 48.247406
33.675000 85.140625 48.247406
33.650000 86.890625 48.247406
34.050000 87.578125 48.247406
34.125000 89.437500 48.247406
33.800000 90.265625 48.247406
33.950000 94.000000 48.247406
27.800000 106.515625 48.247406
34.650000 79.765625 48.404144
34.425000 81.187500 48.404144
34.250000 82.218750 48.404144
34.025000 83.343750 48.404144
33.725000 84.593750 48.404144
33.425000 86.062500 48.404144
33.275000 87.609375 48.404144
33.575000 88.437500 48.404144
33.850000 89.578125 48.404144
33.775000 91.140625 48.404144
33.925000 92.296875 48.404144
34.125000 93.671875 48.404144
34.825000 78.468750 48.544668
34.500000 80.171875 48.544668
34.325000 81.265625 48.544668
34.275000 82.250000 48.544668
34.000000 83.781250 48.544668
33.600000 85.203125 48.544668
33.450000 86.093750 48.544668
33.600000 89.906250 48.544668
33.750000 90.968750 48.544668
33.900000 92.718750 48.544668
34.150000 93.609375 48.544668
33.925000 95.250000 48.544668
28.300000 105.750000 48.544668
34.750000 79.156250 48.700412
34.500000 80.406250 48.700412
34.300000 81.843750 48.700412
34.050000 82.859375 48.700412
33.750000 84.328125 48.700412
33.450000 85.265625 48.700412
33.400000 86.359375 48.700412
33.625000 88.031250 48.700412
33.800000 89.140625 48.700412
33.800000 90.140625 48.700412
33.950000 93.812500 48.700412
27.975000 106.609375 48.700412
34.625000 79.406250 48.840230
34.425000 80.656250 48.840230
34.375000 81.843750 48.840230
34.275000 83.375000 48.840230
33.900000 84.265625 48.840230
33.400000 85.875000 48.840230
33.400000 86.953125 48.840230
33.950000 88.250000 48.840230
34.075000 89.609375 48.840230
33.825000 90.375000 48.840230
33.825000 91.765625 48.840230
34.125000 92.875000 48.840230
34.225000 94.562500 48.840230
35.000000 78.656250 48.993112
34.625000 79.609375 48.993112
34.400000 81.468750 48.993112
34.275000 82.343750 48.993112
34.025000 83.515625 48.993112
33.600000 84.937500 48.993112
33.350000 85.937500 48.993112
33.450000 87.453125 48.993112
33.900000 88.484375 48.993112
34.025000 89.593750 48.993112
33.775000 91.453125 48.993112
33.900000 92.328125 48.993112
34.100000 93.625000 48.993112
33.775000 94.765625 48.993112
34.825000 79.171875 49.138851
34.500000 80.015625 49.138851
34.425000 81.234375 49.138851
34.325000 82.703125 49.138851
33.975000 84.250000 49.138851
33.650000 85.468750 49.138851
33.475000 86.328125 49.138851
33.325000 87.750000 49.138851
33.600000 88.906250 49.138851
33.850000 90.218750 49.138851
33.750000 91.531250 49.138851
34.000000 92.656250 49.138851
34.200000 93.828125 49.138851
28.200000 106.546875 49.138851
34.700000 79.156250 49.288872
34.425000 80.656250 49.288872
34.425000 81.875000 49.288872
34.650000 82.578125 49.288872
33.600000 85.250000 49.288872
33.550000 87.078125 49.288872
33.625000 90.765625 49.288872
33.925000 93.906250 49.288872
34.775000 78.968750 49.429734
34.575000 80.390625 49.429734
34.475000 81.796875 49.429734
34.650000 82.828125 49.429734
33.700000 85.171875 49.429734
33.650000 86.640625 49.429734
33.625000 90.125000 49.429734
33.925000 93.843750 49.429734
27.850000 106.468750 49.429734
34.725000 79.312500 49.582836
34.600000 80.437500 49.582836
34.675000 81.671875 49.582836
34.500000 83.078125 49.582836
33.975000 84.500000 49.582836
33.625000 85.953125 49.582836
33.550000 87.093750 49.582836
33.625000 88.343750 49.582836
33.775000 89.453125 49.582836
33.850000 91.046875 49.582836
33.825000 92.187500 49.582836
33.875000 94.578125 49.582836
34.975000 78.515625 49.738000
34.625000 79.906250 49.738000
34.600000 81.171875 49.738000
34.575000 82.640625 49.738000
34.225000 83.343750 49.738000
33.625000 85.265625 49.738000
33.275000 85.937500 49.738000
33.575000 89.562500 49.738000
33.800000 91.125000 49.738000
33.975000 92.359375 49.738000
34.100000 93.609375 49.738000
34.750000 78.921875 49.878409
34.500000 80.171875 49.878409
34.600000 81.765625 49.878409
34.975000 82.781250 49.878409
34.100000 85.546875 49.878409
33.875000 86.687500 49.878409
33.475000 87.906250 49.878409
33.750000 88.906250 49.878409
33.875000 90.031250 49.878409
33.775000 91.171875 49.878409
34.025000 92.484375 49.878409
34.125000 93.921875 49.878409
28.175000 106.046875 49.878409
34.725000 79.312500 50.033586
34.650000 80.453125 50.033586
34.800000 81.609375 50.033586
34.750000 82.796875 50.033586
34.225000 84.609375 50.033586
34.200000 85.484375 50.033586
33.575000 90.203125 50.033586
33.800000 94.062500 50.033586
34.875000 78.921875 50.175591
34.625000 79.781250 50.175591
34.700000 80.906250 50.175591
34.750000 82.140625 50.175591
34.425000 83.593750 50.175591
33.900000 85.015625 50.175591
33.450000 86.031250 50.175591
33.425000 87.578125 50.175591
34.000000 88.281250 50.175591
34.125000 89.875000 50.175591
33.800000 91.031250 50.175591
33.975000 92.156250 50.175591
34.025000 93.859375 50.175591
33.375000 95.281250 50.175591
28.300000 105.687500 50.175591
34.700000 79.015625 50.334849
34.650000 80.562500 50.334849
34.800000 81.484375 50.334849
35.000000 83.140625 50.334849
34.125000 85.625000 50.334849
33.850000 86.921875 50.334849
33.250000 88.156250 50.334849
33.450000 89.609375 50.334849
33.825000 90.343750 50.334849
33.800000 94.359375 50.334849
34.625000 79.468750 50.471977
34.650000 80.578125 50.471977
34.850000 81.875000 50.471977
34.575000 83.281250 50.471977
34.050000 84.937500 50.471977
33.675000 86.187500 50.471977
33.450000 87.546875 50.471977
33.675000 88.421875 50.471977
33.850000 89.843750 50.471977
33.775000 91.093750 50.471977
33.900000 92.000000 50.471977
34.075000 93.234375 50.471977
34.750000 79.109375 50.628231
34.625000 80.328125 50.628231
34.700000 81.046875 50.628231
34.750000 82.281250 50.628231
34.450000 83.703125 50.628231
34.025000 84.859375 50.628231
33.650000 86.343750 50.628231
33.425000 87.625000 50.628231
33.775000 88.828125 50.628231
33.950000 90.359375 50.628231
33.750000 91.109375 50.628231
34.000000 92.437500 50.628231
34.050000 93.468750 50.628231
28.300000 106.265625 50.628231
34.750000 79.250000 50.779396
34.525000 80.312500 50.779396
34.600000 81.234375 50.779396
34.750000 82.937500 50.779396
34.450000 83.859375 50.779396
34.125000 85.125000 50.779396
33.725000 86.468750 50.779396
33.450000 87.437500 50.779396
33.825000 89.250000 50.779396
33.975000 89.968750 50.779396
33.775000 91.687500 50.779396
34.000000 92.515625 50.779396
34.075000 94.015625 50.779396
28.150000 105.968750 50.779396
34.650000 79.437500 50.924351
34.500000 80.718750 50.924351
34.575000 82.078125 50.924351
34.800000 83.000000 50.924351
34.500000 84.062500 50.924351
34.075000 85.296875 50.924351
33.700000 86.640625 50.924351
33.575000 90.796875 50.924351
33.775000 94.484375 50.924351
34.550000 79.421875 51.065020
34.375000 81.093750 51.065020
34.575000 82.140625 51.065020
34.475000 83.593750 51.065020
34.050000 84.515625 51.065020
33.800000 86.093750 51.065020
33.525000 87.031250 51.065020
33.500000 88.312500 51.065020
33.700000 89.937500 51.065020
33.775000 90.921875 51.065020
33.875000 92.250000 51.065020
33.975000 93.437500 51.065020
28.200000 106.156250 51.065020
34.650000 78.953125 51.218327
34.425000 80.250000 51.218327
34.375000 81.625000 51.218327
34.500000 82.875000 51.218327
34.325000 83.875000 51.218327
33.850000 85.718750 51.218327
33.575000 86.484375 51.218327
33.475000 88.015625 51.218327
33.600000 88.843750 51.218327
33.750000 90.593750 51.218327
33.775000 91.500000 51.218327
33.950000 92.703125 51.218327
34.100000 94.296875 51.218327
27.925000 106.390625 51.218327
34.425000 79.640625 51.373829
34.250000 80.734375 51.373829
34.275000 82.171875 51.373829
34.475000 83.718750 51.373829
34.225000 84.578125 51.373829
34.000000 85.765625 51.373829
33.750000 87.593750 51.373829
33.525000 88.515625 51.373829
33.700000 89.500000 51.373829
33.775000 91.093750 51.373829
28.225000 106.078125 51.373829
34.575000 79.156250 51.515139
34.300000 80.484375 51.515139
34.125000 81.687500 51.515139
34.400000 82.390625 51.515139
34.425000 83.828125 51.515139
34.000000 85.218750 51.515139
33.800000 86.281250 51.515139
33.700000 87.421875 51.515139
33.700000 88.937500 51.515139
33.750000 90.546875 51.515139
33.750000 91.312500 51.515139
33.800000 92.859375 51.515139
34.075000 93.781250 51.515139
34.500000 78.968750 51.672059
34.150000 80.109375 51.672059
34.000000 81.859375 51.672059
34.300000 82.906250 51.672059
34.325000 84.203125 51.672059
33.950000 85.390625 51.672059
33.800000 86.421875 51.672059
33.750000 88.015625 51.672059
33.775000 88.968750 51.672059
33.800000 90.078125 51.672059
33.775000 91.750000 51.672059
27.950000 106.328125 51.672059
34.375000 79.031250 51.826473
34.000000 80.796875 51.826473
33.900000 81.593750 51.826473
34.225000 82.640625 51.826473
34.350000 83.921875 51.826473
33.950000 85.406250 51.826473
33.750000 86.765625 51.826473
33.725000 88.281250 51.826473
33.775000 89.515625 51.826473
33.775000 90.390625 51.826473
33.750000 91.984375 51.826473
33.825000 93.218750 51.826473
34.100000 94.109375 51.826473
34.400000 79.296875 51.964973
34.125000 80.812500 51.964973
33.900000 82.078125 51.964973
34.200000 82.875000 51.964973
34.300000 84.203125 51.964973
33.875000 85.781250 51.964973
33.700000 87.031250 51.964973
33.750000 87.968750 51.964973
33.800000 89.468750 51.964973
33.775000 90.953125 51.964973
33.725000 92.078125 51.964973
34.050000 93.281250 51.964973
34.325000 94.390625 51.964973
34.575000 78.390625 52.121515
34.250000 80.078125 52.121515
34.000000 80.921875 52.121515
33.975000 82.453125 52.121515
34.275000 83.609375 52.121515
34.225000 85.218750 52.121515
33.800000 86.093750 52.121515
33.650000 87.359375 52.121515
33.700000 88.281250 52.121515
33.775000 89.906250 52.121515
33.775000 90.812500 52.121515
33.875000 92.343750 52.121515
34.250000 93.421875 52.121515
34.425000 78.765625 52.263068
34.025000 80.125000 52.263068
33.825000 81.250000 52.263068
33.975000 82.625000 52.263068
34.150000 83.593750 52.263068
33.900000 85.140625 52.263068
33.625000 86.421875 52.263068
33.675000 87.781250 52.263068
33.750000 88.687500 52.263068
33.750000 90.046875 52.263068
33.725000 91.062500 52.263068
33.775000 92.843750 52.263068
33.825000 95.218750 52.263068
34.300000 79.296875 52.419661
34.025000 80.687500 52.419661
33.975000 81.781250 52.419661
34.275000 82.812500 52.419661
34.325000 84.281250 52.419661
33.950000 85.343750 52.419661
33.675000 86.750000 52.419661
33.625000 87.796875 52.419661
33.725000 89.140625 52.419661
33.725000 90.093750 52.419661
33.650000 91.531250 52.419661
33.650000 93.156250 52.419661
33.725000 94.203125 52.419661
28.025000 106.156250 52.419661
34.475000 78.203125 52.559092
34.050000 79.984375 52.559092
33.850000 81.015625 52.559092
33.925000 82.078125 52.559092
34.225000 83.328125 52.559092
34.025000 84.765625 52.559092
33.500000 86.250000 52.559092
33.375000 87.375000 52.559092
33.300000 88.609375 52.559092
33.475000 89.640625 52.559092
33.625000 91.109375 52.559092
33.075000 94.703125 52.559092
28.225000 105.843750 52.559092
34.175000 79.375000 52.713896
33.925000 80.359375 52.713896
33.925000 81.687500 52.713896
34.250000 82.625000 52.713896
34.200000 83.875000 52.713896
33.825000 85.031250 52.713896
33.375000 87.656250 52.713896
32.875000 89.218750 52.713896
33.175000 90.218750 52.713896
33.550000 91.765625 52.713896
33.625000 92.953125 52.713896
33.625000 94.140625 52.713896
28.100000 106.125000 52.713896
34.425000 78.937500 52.857381
34.000000 80.125000 52.857381
33.875000 81.468750 52.857381
34.000000 82.250000 52.857381
34.150000 83.468750 52.857381
34.025000 85.156250 52.857381
33.675000 86.281250 52.857381
33.150000 87.375000 52.857381
32.825000 88.750000 52.857381
33.125000 89.671875 52.857381
33.400000 91.359375 52.857381
33.450000 92.453125 52.857381
28.225000 106.093750 52.857381
34.150000 79.062500 53.008682
33.925000 80.359375 53.008682
33.950000 81.546875 53.008682
34.175000 82.812500 53.008682
33.950000 84.296875 53.008682
33.600000 85.031250 53.008682
33.275000 86.390625 53.008682
32.800000 87.609375 53.008682
32.775000 89.125000 53.008682
33.175000 90.343750 53.008682
33.425000 91.203125 53.008682
33.575000 92.796875 53.008682
33.625000 94.156250 53.008682
34.350000 78.390625 53.164196
33.950000 79.406250 53.164196
33.850000 81.046875 53.164196
34.025000 82.234375 53.164196
34.025000 83.531250 53.164196
33.750000 84.484375 53.164196
33.400000 86.031250 53.164196
32.975000 87.093750 53.164196
32.775000 88.375000 53.164196
32.875000 89.890625 53.164196
33.150000 90.671875 53.164196
34.025000 78.875000 53.298398
33.925000 80.265625 53.298398
34.025000 81.937500 53.298398
34.175000 83.078125 53.298398
33.900000 83.968750 53.298398
33.650000 85.750000 53.298398
33.175000 86.531250 53.298398
32.725000 88.046875 53.298398
33.000000 91.781250 53.298398
33.225000 92.906250 53.298398
33.350000 94.125000 53.298398
28.000000 106.421875 53.298398
34.150000 78.390625 53.446235
33.925000 79.984375 53.446235
34.000000 81.343750 53.446235
34.125000 82.640625 53.446235
33.825000 83.906250 53.446235
33.525000 85.109375 53.446235
33.175000 86.109375 53.446235
32.750000 87.625000 53.446235
32.750000 88.687500 53.446235
33.075000 89.640625 53.446235
33.250000 91.078125 53.446235
33.325000 92.031250 53.446235
33.450000 93.312500 53.446235
28.200000 106.000000 53.446235
34.025000 79.046875 53.601250
33.925000 80.484375 53.601250
34.050000 81.515625 53.601250
34.200000 82.640625 53.601250
33.800000 83.937500 53.601250
33.150000 85.578125 53.601250
32.650000 86.593750 53.601250
32.525000 87.968750 53.601250
32.925000 89.046875 53.601250
33.175000 90.687500 53.601250
33.225000 91.843750 53.601250
33.400000 92.703125 53.601250
33.525000 94.125000 53.601250
28.100000 106.234375 53.601250
34.125000 78.734375 53.755762
33.875000 79.546875 53.755762
34.000000 80.781250 53.755762
34.000000 81.968750 53.755762
33.700000 83.781250 53.755762
33.275000 85.046875 53.755762
32.825000 85.937500 53.755762
32.525000 87.390625 53.755762
32.575000 88.593750 53.755762
33.025000 90.156250 53.755762
33.250000 91.031250 53.755762
33.225000 92.250000 53.755762
33.650000 93.593750 53.755762
28.200000 106.125000 53.755762
34.050000 78.718750 53.896080
33.850000 80.390625 53.896080
34.050000 81.218750 53.896080
34.275000 82.312500 53.896080
32.900000 85.484375 53.896080
32.575000 86.687500 53.896080
32.525000 88.078125 53.896080
32.825000 89.234375 53.896080
33.100000 90.546875 53.896080
33.200000 91.296875 53.896080
33.425000 92.375000 53.896080
33.525000 93.578125 53.896080
28.250000 105.953125 53.896080
34.025000 79.046875 54.052288
33.900000 80.187500 54.052288
34.025000 81.687500 54.052288
34.050000 82.968750 54.052288
32.775000 85.734375 54.052288
32.525000 86.750000 54.052288
32.775000 90.406250 54.052288
33.200000 91.375000 54.052288
33.375000 92.531250 54.052288
33.525000 94.234375 54.052288
28.175000 106.718750 54.052288
34.000000 79.265625 54.191915
33.850000 80.281250 54.191915
33.875000 81.640625 54.191915
33.875000 82.968750 54.191915
32.700000 85.890625 54.191915
32.450000 86.828125 54.191915
32.575000 88.187500 54.191915
33.150000 89.406250 54.191915
33.375000 90.500000 54.191915
33.200000 91.515625 54.191915
33.350000 92.890625 54.191915
33.500000 94.125000 54.191915
28.075000 106.578125 54.191915
33.975000 79.828125 54.345765
33.725000 80.906250 54.345765
33.700000 81.765625 54.345765
33.650000 83.109375 54.345765
33.175000 84.609375 54.345765
32.625000 85.640625 54.345765
32.525000 87.171875 54.345765
32.900000 90.953125 54.345765
33.375000 94.406250 54.345765
34.325000 78.375000 54.493824
33.975000 79.921875 54.493824
33.775000 81.125000 54.493824
33.625000 82.578125 54.493824
33.400000 83.468750 54.493824
33.000000 85.171875 54.493824
32.650000 86.546875 54.493824
32.750000 87.125000 54.493824
33.175000 88.687500 54.493824
33.375000 90.156250 54.493824
33.250000 91.140625 54.493824
33.250000 92.156250 54.493824
33.450000 93.140625 54.493824
34.325000 78.453125 54.640741
33.925000 80.203125 54.640741
33.775000 81.531250 54.640741
33.650000 82.234375 54.640741
33.375000 84.140625 54.640741
32.950000 84.953125 54.640741
32.775000 86.078125 54.640741
32.825000 87.781250 54.640741
33.100000 88.875000 54.640741
33.325000 90.031250 54.640741
33.250000 91.234375 54.640741
