30.400000 87.140625 12.126295
30.400000 88.671875 12.126295
30.425000 90.421875 12.126295
25.875000 94.203125 12.126295
30.325000 83.062500 12.270719
30.350000 84.968750 12.270719
30.325000 86.281250 12.270719
30.325000 87.578125 12.270719
30.325000 88.031250 12.270719
30.400000 89.578125 12.270719
30.300000 83.265625 12.422875
30.325000 85.109375 12.422875
30.300000 85.656250 12.422875
30.300000 87.609375 12.422875
30.300000 88.546875 12.422875
30.375000 89.468750 12.422875
30.225000 83.203125 12.561285
30.250000 84.718750 12.561285
30.225000 85.625000 12.561285
30.200000 87.203125 12.561285
30.175000 88.296875 12.561285
30.200000 89.484375 12.561285
25.625000 93.671875 12.561285
25.875000 94.593750 12.561285
30.100000 83.921875 12.711690
30.100000 85.031250 12.711690
30.075000 86.296875 12.711690
30.050000 87.375000 12.711690
30.100000 88.500000 12.711690
30.100000 90.015625 12.711690
25.775000 93.171875 12.711690
25.875000 94.718750 12.711690
29.975000 83.390625 12.854152
29.950000 85.093750 12.854152
29.925000 85.906250 12.854152
29.900000 87.671875 12.854152
29.900000 88.562500 12.854152
29.900000 89.937500 12.854152
29.775000 83.359375 12.994495
29.775000 84.750000 12.994495
29.725000 86.140625 12.994495
29.675000 87.531250 12.994495
29.675000 88.875000 12.994495
29.700000 90.031250 12.994495
29.750000 90.718750 12.994495
25.775000 94.687500 12.994495
29.475000 83.343750 13.148614
29.475000 84.890625 13.148614
29.425000 85.500000 13.148614
29.425000 86.609375 13.148614
29.425000 88.687500 13.148614
29.425000 89.171875 13.148614
26.000000 94.093750 13.148614
29.225000 83.140625 13.288984
29.250000 84.359375 13.288984
29.250000 86.171875 13.288984
29.250000 86.625000 13.288984
29.275000 88.562500 13.288984
29.275000 89.875000 13.288984
28.925000 92.031250 13.288984
25.900000 94.703125 13.288984
29.400000 82.578125 13.443935
29.575000 84.500000 13.443935
29.525000 85.781250 13.443935
29.500000 86.843750 13.443935
29.525000 87.734375 13.443935
29.600000 89.187500 13.443935
29.250000 92.468750 13.443935
29.675000 83.281250 13.585990
29.775000 83.953125 13.585990
29.750000 86.078125 13.585990
29.750000 86.500000 13.585990
29.750000 88.343750 13.585990
29.775000 88.984375 13.585990
29.725000 92.109375 13.585990
29.850000 82.625000 13.726743
29.925000 84.000000 13.726743
29.925000 85.953125 13.726743
29.900000 86.703125 13.726743
29.925000 87.734375 13.726743
29.975000 89.046875 13.726743
25.875000 94.234375 13.726743
25.875000 94.781250 13.726743
30.025000 83.187500 13.881931
30.075000 84.671875 13.881931
30.075000 85.968750 13.881931
30.100000 87.062500 13.881931
30.100000 87.796875 13.881931
30.125000 89.375000 13.881931
30.075000 82.765625 14.036426
30.200000 83.859375 14.036426
30.175000 85.171875 14.036426
30.175000 86.531250 14.036426
30.225000 87.609375 14.036426
30.275000 88.921875 14.036426
29.850000 92.156250 14.036426
25.875000 95.109375 14.036426
30.375000 83.625000 14.163650
30.275000 84.937500 14.163650
30.275000 86.671875 14.163650
30.325000 87.687500 14.163650
30.325000 88.843750 14.163650
25.850000 94.390625 14.163650
30.375000 83.812500 14.332030
30.375000 84.468750 14.332030
30.350000 85.656250 14.332030
30.350000 87.484375 14.332030
30.375000 88.937500 14.332030
30.400000 89.437500 14.332030
25.875000 94.375000 14.332030
30.400000 83.484375 14.464058
30.425000 84.187500 14.464058
30.400000 86.140625 14.464058
30.425000 86.968750 14.464058
30.425000 88.328125 14.464058
30.425000 89.421875 14.464058
30.400000 83.078125 14.613182
30.425000 84.859375 14.613182
30.400000 85.343750 14.613182
30.400000 87.046875 14.613182
30.425000 88.687500 14.613182
30.425000 89.406250 14.613182
30.400000 83.078125 14.768373
30.425000 84.281250 14.768373
30.400000 85.500000 14.768373
30.400000 87.062500 14.768373
30.425000 88.546875 14.768373
30.425000 89.562500 14.768373
30.375000 83.812500 14.899781
30.375000 85.109375 14.899781
30.350000 85.984375 14.899781
30.350000 86.812500 14.899781
30.375000 88.734375 14.899781
30.400000 90.203125 14.899781
25.650000 93.234375 14.899781
25.850000 94.421875 14.899781
30.375000 83.703125 15.049369
30.400000 84.390625 15.049369
30.400000 85.484375 15.049369
30.400000 87.312500 15.049369
30.400000 88.281250 15.049369
30.400000 89.500000 15.049369
30.225000 83.390625 15.190680
30.300000 84.343750 15.190680
30.275000 85.203125 15.190680
30.300000 87.093750 15.190680
30.300000 87.656250 15.190680
30.300000 89.218750 15.190680
25.700000 93.734375 15.190680
30.125000 83.234375 15.339372
30.200000 84.578125 15.339372
30.200000 85.843750 15.339372
30.175000 87.171875 15.339372
30.200000 87.718750 15.339372
30.250000 89.109375 15.339372
30.050000 91.703125 15.339372
29.975000 83.140625 15.498578
30.125000 84.312500 15.498578
30.100000 85.765625 15.498578
30.075000 86.453125 15.498578
30.100000 88.000000 15.498578
30.050000 89.046875 15.498578
29.875000 91.578125 15.498578
25.875000 94.578125 15.498578
29.850000 82.453125 15.637952
29.925000 84.484375 15.637952
29.900000 85.796875 15.637952
29.900000 87.031250 15.637952
29.900000 87.406250 15.637952
29.925000 88.906250 15.637952
29.625000 82.687500 15.777635
29.675000 84.406250 15.777635
29.625000 84.937500 15.777635
29.625000 86.500000 15.777635
29.675000 87.390625 15.777635
29.675000 88.703125 15.777635
25.875000 94.578125 15.777635
29.850000 83.437500 15.930991
29.875000 84.703125 15.930991
29.875000 86.718750 15.930991
29.875000 87.281250 15.930991
29.900000 88.546875 15.930991
30.075000 83.796875 16.086055
30.075000 85.156250 16.086055
30.100000 86.765625 16.086055
30.125000 87.734375 16.086055
30.150000 88.625000 16.086055
30.300000 83.546875 16.215633
30.275000 85.375000 16.215633
30.275000 86.062500 16.215633
30.325000 87.953125 16.215633
30.350000 88.906250 16.215633
25.850000 94.265625 16.215633
30.450000 83.171875 16.362360
30.450000 85.109375 16.362360
30.425000 85.953125 16.362360
30.500000 86.906250 16.362360
30.525000 88.281250 16.362360
30.550000 89.578125 16.362360
25.850000 92.843750 16.362360
25.850000 94.046875 16.362360
30.600000 83.109375 16.517282
30.625000 84.500000 16.517282
30.600000 86.140625 16.517282
30.600000 86.765625 16.517282
30.650000 88.296875 16.517282
30.700000 89.343750 16.517282
25.675000 93.062500 16.517282
25.850000 94.750000 16.517282
25.850000 95.187500 16.517282
30.775000 83.640625 16.657843
30.825000 84.390625 16.657843
30.825000 85.765625 16.657843
30.800000 87.156250 16.657843
30.775000 88.593750 16.657843
30.875000 84.218750 16.812061
30.875000 85.078125 16.812061
30.875000 86.484375 16.812061
30.875000 87.765625 16.812061
30.875000 88.906250 16.812061
26.075000 93.953125 16.812061
30.850000 82.812500 16.951213
31.000000 84.406250 16.951213
30.975000 85.609375 16.951213
30.950000 86.218750 16.951213
30.925000 87.515625 16.951213
30.950000 88.875000 16.951213
30.900000 83.218750 17.108440
31.025000 84.546875 17.108440
31.025000 85.312500 17.108440
31.025000 86.593750 17.108440
31.050000 87.859375 17.108440
31.050000 89.093750 17.108440
30.900000 83.078125 17.246017
31.025000 84.218750 17.246017
31.025000 85.421875 17.246017
31.025000 86.375000 17.246017
31.050000 87.796875 17.246017
31.050000 88.953125 17.246017
30.900000 83.093750 17.402694
31.050000 84.062500 17.402694
31.025000 85.937500 17.402694
31.025000 87.250000 17.402694
31.025000 88.421875 17.402694
31.025000 89.093750 17.402694
25.850000 95.140625 17.402694
31.025000 83.453125 17.542097
31.125000 84.109375 17.542097
31.100000 86.015625 17.542097
31.075000 86.625000 17.542097
31.075000 88.015625 17.542097
25.850000 94.765625 17.542097
31.050000 83.625000 17.681058
31.100000 84.484375 17.681058
31.050000 85.796875 17.681058
31.025000 86.921875 17.681058
31.025000 88.531250 17.681058
25.850000 94.968750 17.681058
31.050000 83.906250 17.836108
31.025000 85.265625 17.836108
30.975000 86.125000 17.836108
31.000000 87.406250 17.836108
31.000000 89.015625 17.836108
25.825000 94.765625 17.836108
31.025000 83.328125 17.978183
31.000000 85.062500 17.978183
30.950000 86.296875 17.978183
30.925000 87.765625 17.978183
30.925000 88.328125 17.978183
25.850000 94.359375 17.978183
30.925000 83.437500 18.117896
30.875000 84.468750 18.117896
30.875000 85.781250 18.117896
30.850000 87.578125 18.117896
30.850000 88.437500 18.117896
25.825000 94.312500 18.117896
30.825000 83.156250 18.270805
30.800000 84.703125 18.270805
30.750000 86.109375 18.270805
30.725000 87.125000 18.270805
30.725000 88.828125 18.270805
25.825000 94.312500 18.270805
30.675000 83.671875 18.413704
30.650000 85.000000 18.413704
30.625000 86.296875 18.413704
30.550000 87.296875 18.413704
30.525000 88.546875 18.413704
30.500000 83.343750 18.566717
30.450000 84.484375 18.566717
30.425000 85.781250 18.566717
30.400000 87.562500 18.566717
30.450000 88.328125 18.566717
30.475000 89.468750 18.566717
25.825000 94.484375 18.566717
30.200000 83.500000 18.706304
30.150000 85.031250 18.706304
30.125000 86.328125 18.706304
30.125000 87.406250 18.706304
30.125000 88.593750 18.706304
25.825000 94.125000 18.706304
30.200000 83.593750 18.860149
30.200000 84.671875 18.860149
30.200000 86.109375 18.860149
30.150000 87.078125 18.860149
30.125000 89.078125 18.860149
25.825000 94.937500 18.860149
30.425000 83.656250 19.001558
30.400000 84.984375 19.001558
30.375000 86.546875 19.001558
30.350000 87.468750 19.001558
30.375000 88.671875 19.001558
25.825000 94.203125 19.001558
30.500000 84.078125 19.158040
30.475000 84.531250 19.158040
30.525000 86.281250 19.158040
30.525000 87.171875 19.158040
30.525000 89.093750 19.158040
30.125000 91.531250 19.158040
25.850000 95.000000 19.158040
30.550000 82.890625 19.296002
30.650000 84.062500 19.296002
30.625000 85.296875 19.296002
30.625000 86.796875 19.296002
30.625000 88.093750 19.296002
30.650000 88.875000 19.296002
30.775000 83.781250 19.437032
30.775000 85.250000 19.437032
30.775000 86.171875 19.437032
30.775000 87.781250 19.437032
30.800000 88.671875 19.437032
30.350000 91.421875 19.437032
25.850000 95.109375 19.437032
30.875000 84.000000 19.592779
30.875000 84.890625 19.592779
30.875000 86.234375 19.592779
30.875000 87.421875 19.592779
30.875000 89.328125 19.592779
30.725000 91.406250 19.592779
30.850000 82.812500 19.733010
30.975000 83.984375 19.733010
30.975000 85.250000 19.733010
30.925000 86.390625 19.733010
30.900000 87.953125 19.733010
30.925000 89.468750 19.733010
30.975000 83.296875 19.889548
31.025000 84.750000 19.889548
30.925000 86.031250 19.889548
30.825000 87.203125 19.889548
30.925000 88.625000 19.889548
25.825000 94.218750 19.889548
31.000000 83.140625 20.031836
31.100000 84.796875 20.031836
31.075000 85.812500 20.031836
31.025000 87.296875 20.031836
31.025000 87.937500 20.031836
25.850000 94.625000 20.031836
31.000000 83.250000 20.169266
31.075000 84.093750 20.169266
31.050000 85.734375 20.169266
31.025000 87.125000 20.169266
31.000000 88.312500 20.169266
25.875000 94.078125 20.169266
25.825000 94.765625 20.169266
30.975000 83.203125 20.324503
31.000000 84.781250 20.324503
30.975000 85.531250 20.324503
31.000000 87.359375 20.324503
30.975000 88.375000 20.324503
31.000000 89.468750 20.324503
25.775000 93.468750 20.324503
25.800000 94.828125 20.324503
30.900000 82.609375 20.470440
31.025000 83.984375 20.470440
31.025000 85.390625 20.470440
31.000000 87.093750 20.470440
31.000000 87.906250 20.470440
31.000000 88.953125 20.470440
30.950000 83.843750 20.604253
30.925000 85.140625 20.604253
30.900000 86.671875 20.604253
30.850000 87.765625 20.604253
30.850000 88.421875 20.604253
25.850000 94.609375 20.604253
30.900000 83.453125 20.759403
30.900000 84.593750 20.759403
30.875000 85.640625 20.759403
30.875000 86.906250 20.759403
30.850000 88.625000 20.759403
25.900000 94.171875 20.759403
30.875000 84.046875 20.899332
30.775000 84.921875 20.899332
30.775000 86.265625 20.899332
30.775000 87.109375 20.899332
30.775000 88.531250 20.899332
25.875000 94.156250 20.899332
30.675000 84.265625 21.054468
30.650000 84.859375 21.054468
30.625000 86.078125 21.054468
30.625000 87.484375 21.054468
30.625000 88.718750 21.054468
30.175000 91.593750 21.054468
25.850000 94.609375 21.054468
30.525000 83.953125 21.193923
30.475000 85.062500 21.193923
30.450000 86.296875 21.193923
30.450000 87.609375 21.193923
30.450000 88.796875 21.193923
30.075000 91.453125 21.193923
25.850000 94.359375 21.193923
30.225000 82.578125 21.349197
30.275000 84.187500 21.349197
30.250000 84.984375 21.349197
30.200000 86.515625 21.349197
30.175000 87.437500 21.349197
30.200000 89.375000 21.349197
29.825000 91.593750 21.349197
25.850000 94.593750 21.349197
29.950000 82.968750 21.488358
30.000000 83.984375 21.488358
29.950000 85.046875 21.488358
29.925000 86.718750 21.488358
29.925000 87.546875 21.488358
29.900000 89.265625 21.488358
29.900000 90.546875 21.488358
29.525000 91.390625 21.488358
25.875000 95.125000 21.488358
29.550000 82.437500 21.642233
29.625000 84.156250 21.642233
29.575000 84.812500 21.642233
29.525000 86.453125 21.642233
29.500000 88.046875 21.642233
29.550000 88.484375 21.642233
25.875000 94.593750 21.642233
29.775000 83.343750 21.786088
29.750000 84.937500 21.786088
29.750000 86.250000 21.786088
29.750000 86.937500 21.786088
29.775000 88.203125 21.786088
29.800000 89.578125 21.786088
25.700000 93.421875 21.786088
25.800000 93.953125 21.786088
29.900000 82.812500 21.924040
29.925000 83.968750 21.924040
29.900000 85.218750 21.924040
29.875000 86.828125 21.924040
29.875000 87.765625 21.924040
29.900000 89.468750 21.924040
25.975000 93.437500 21.924040
25.875000 94.703125 21.924040
30.075000 83.062500 22.078416
30.100000 84.671875 22.078416
30.050000 85.812500 22.078416
30.050000 87.218750 22.078416
30.025000 88.031250 22.078416
30.075000 89.828125 22.078416
30.075000 83.187500 22.223668
30.100000 84.500000 22.223668
30.175000 85.359375 22.223668
30.225000 86.984375 22.223668
30.175000 87.718750 22.223668
30.225000 89.765625 22.223668
25.825000 95.093750 22.223668
30.300000 83.359375 22.359135
30.300000 84.078125 22.359135
30.275000 85.265625 22.359135
30.250000 87.093750 22.359135
30.225000 88.640625 22.359135
30.275000 89.625000 22.359135
25.625000 93.406250 22.359135
25.825000 94.218750 22.359135
25.850000 95.171875 22.359135
30.300000 82.953125 22.512209
30.300000 84.703125 22.512209
30.325000 85.531250 22.512209
30.350000 86.765625 22.512209
30.350000 87.734375 22.512209
30.325000 89.453125 22.512209
25.850000 94.875000 22.512209
30.325000 83.171875 22.664145
30.400000 83.906250 22.664145
30.375000 85.453125 22.664145
30.350000 86.421875 22.664145
30.375000 88.234375 22.664145
30.375000 89.609375 22.664145
25.850000 94.968750 22.664145
30.300000 82.718750 22.808534
30.325000 83.875000 22.808534
30.350000 85.281250 22.808534
30.350000 87.031250 22.808534
30.350000 88.203125 22.808534
30.375000 89.375000 22.808534
25.850000 94.781250 22.808534
30.300000 82.734375 22.949152
30.400000 84.546875 22.949152
30.350000 85.718750 22.949152
30.350000 86.578125 22.949152
30.375000 88.203125 22.949152
30.375000 88.812500 22.949152
30.300000 83.562500 23.118323
30.325000 84.703125 23.118323
30.325000 85.703125 23.118323
30.325000 86.890625 23.118323
30.325000 87.703125 23.118323
30.325000 89.140625 23.118323
25.850000 94.812500 23.118323
30.300000 82.859375 23.244265
30.300000 84.593750 23.244265
30.250000 85.593750 23.244265
30.250000 86.812500 23.244265
30.300000 88.000000 23.244265
30.325000 89.406250 23.244265
30.225000 83.421875 23.398361
30.175000 85.000000 23.398361
30.150000 86.046875 23.398361
30.150000 87.062500 23.398361
30.150000 88.781250 23.398361
30.175000 89.875000 23.398361
25.775000 93.687500 23.398361
25.800000 93.781250 23.398361
30.100000 82.875000 23.542482
30.075000 84.375000 23.542482
30.050000 85.687500 23.542482
30.025000 86.687500 23.542482
30.050000 88.093750 23.542482
30.050000 89.125000 23.542482
29.925000 83.328125 23.680434
30.000000 84.000000 23.680434
30.025000 85.437500 23.680434
29.950000 87.093750 23.680434
29.875000 87.828125 23.680434
29.900000 89.265625 23.680434
25.725000 93.437500 23.680434
29.725000 82.437500 23.833696
29.775000 84.031250 23.833696
29.700000 85.718750 23.833696
29.675000 86.406250 23.833696
29.700000 88.015625 23.833696
29.700000 88.734375 23.833696
25.875000 93.218750 23.833696
29.475000 82.687500 23.978623
29.475000 84.156250 23.978623
29.400000 85.640625 23.978623
29.400000 86.546875 23.978623
29.400000 87.796875 23.978623
29.400000 89.140625 23.978623
25.700000 93.656250 23.978623
25.800000 95.078125 23.978623
29.225000 83.156250 24.126741
29.200000 84.171875 24.126741
29.200000 85.421875 24.126741
29.175000 87.062500 24.126741
29.200000 87.781250 24.126741
29.225000 89.312500 24.126741
25.875000 94.812500 24.126741
29.400000 83.125000 24.267470
29.425000 83.953125 24.267470
29.425000 85.609375 24.267470
29.425000 87.000000 24.267470
29.475000 88.250000 24.267470
29.525000 89.640625 24.267470
25.950000 94.484375 24.267470
25.850000 94.968750 24.267470
29.600000 82.562500 24.421595
29.700000 83.953125 24.421595
29.725000 85.046875 24.421595
29.700000 86.828125 24.421595
29.725000 87.421875 24.421595
29.725000 89.093750 24.421595
25.950000 93.984375 24.421595
25.875000 94.656250 24.421595
29.875000 82.968750 24.563406
29.900000 84.078125 24.563406
29.850000 85.218750 24.563406
29.850000 86.281250 24.563406
29.875000 87.531250 24.563406
29.900000 88.828125 24.563406
29.975000 90.812500 24.563406
25.700000 94.046875 24.563406
29.925000 82.937500 24.701985
30.075000 83.656250 24.701985
30.100000 84.937500 24.701985
30.075000 86.765625 24.701985
30.075000 87.453125 24.701985
30.100000 89.312500 24.701985
25.925000 93.421875 24.701985
30.050000 82.125000 24.852000
30.200000 83.734375 24.852000
30.175000 84.640625 24.852000
30.175000 86.468750 24.852000
30.175000 87.359375 24.852000
30.225000 88.640625 24.852000
25.875000 94.328125 24.852000
30.300000 83.750000 24.997337
30.225000 84.984375 24.997337
30.250000 86.109375 24.997337
30.300000 87.671875 24.997337
30.325000 88.250000 24.997337
30.350000 83.515625 25.150395
30.350000 85.062500 25.150395
30.350000 86.000000 25.150395
30.375000 87.593750 25.150395
30.375000 88.546875 25.150395
25.850000 94.343750 25.150395
30.300000 82.875000 25.292136
30.425000 84.359375 25.292136
30.400000 85.140625 25.292136
30.425000 86.265625 25.292136
30.475000 87.625000 25.292136
30.450000 89.250000 25.292136
25.675000 93.234375 25.292136
25.850000 94.515625 25.292136
30.300000 82.359375 25.433278
30.400000 84.437500 25.433278
30.375000 85.734375 25.433278
30.400000 86.515625 25.433278
30.450000 87.984375 25.433278
30.450000 88.609375 25.433278
30.375000 82.828125 25.589499
30.450000 83.765625 25.589499
30.425000 85.109375 25.589499
30.400000 86.828125 25.589499
30.400000 88.125000 25.589499
30.425000 89.406250 25.589499
30.325000 83.187500 25.727955
30.400000 84.218750 25.727955
30.375000 85.265625 25.727955
30.400000 86.437500 25.727955
30.400000 88.031250 25.727955
30.425000 89.140625 25.727955
30.350000 83.140625 25.884891
30.300000 84.453125 25.884891
30.275000 85.937500 25.884891
30.325000 86.640625 25.884891
30.325000 88.671875 25.884891
30.350000 89.375000 25.884891
25.800000 94.781250 25.884891
30.350000 83.187500 26.023793
30.300000 84.640625 26.023793
30.300000 85.375000 26.023793
30.325000 87.109375 26.023793
30.325000 87.890625 26.023793
30.275000 89.343750 26.023793
25.800000 94.265625 26.023793
30.225000 83.234375 26.178839
30.200000 84.515625 26.178839
30.175000 86.234375 26.178839
30.225000 87.218750 26.178839
30.225000 88.984375 26.178839
25.825000 94.375000 26.178839
30.100000 83.453125 26.318915
30.075000 84.484375 26.318915
30.050000 86.578125 26.318915
30.050000 87.734375 26.318915
30.050000 88.984375 26.318915
25.825000 95.218750 26.318915
29.825000 82.593750 26.459103
29.950000 83.390625 26.459103
29.925000 85.187500 26.459103
29.975000 85.875000 26.459103
29.975000 87.515625 26.459103
29.975000 88.734375 26.459103
25.850000 94.390625 26.459103
29.775000 83.531250 26.613403
29.700000 84.406250 26.613403
29.650000 85.656250 26.613403
29.675000 87.421875 26.613403
29.675000 88.250000 26.613403
29.700000 89.859375 26.613403
25.775000 95.140625 26.613403
25.850000 95.093750 26.613403
29.750000 83.796875 26.753184
29.750000 85.093750 26.753184
29.750000 85.656250 26.753184
29.750000 87.171875 26.753184
29.750000 88.890625 26.753184
29.775000 89.921875 26.753184
25.825000 94.593750 26.753184
25.900000 95.171875 26.753184
30.025000 83.359375 26.908224
30.025000 84.812500 26.908224
30.000000 86.093750 26.908224
30.000000 87.203125 26.908224
30.025000 88.546875 26.908224
30.050000 89.765625 26.908224
25.775000 94.593750 26.908224
30.200000 83.453125 27.046977
30.225000 84.875000 27.046977
30.225000 86.312500 27.046977
30.225000 87.171875 27.046977
30.250000 88.421875 27.046977
25.775000 94.156250 27.046977
30.425000 83.421875 27.190075
30.425000 84.937500 27.190075
30.450000 85.531250 27.190075
30.450000 86.937500 27.190075
30.475000 88.312500 27.190075
25.800000 94.562500 27.190075
30.600000 83.484375 27.344937
30.575000 84.984375 27.344937
30.550000 86.281250 27.344937
30.575000 87.093750 27.344937
30.625000 88.296875 27.344937
25.825000 94.328125 27.344937
30.600000 82.875000 27.482651
30.725000 84.015625 27.482651
30.675000 85.218750 27.482651
30.725000 86.359375 27.482651
30.750000 88.046875 27.482651
30.750000 88.671875 27.482651
25.775000 95.078125 27.482651
30.800000 82.609375 27.640233
30.875000 84.421875 27.640233
30.850000 85.468750 27.640233
30.825000 86.921875 27.640233
30.850000 87.750000 27.640233
30.875000 89.343750 27.640233
25.575000 92.984375 27.640233
25.800000 93.890625 27.640233
25.850000 94.843750 27.640233
30.925000 82.781250 27.781007
30.925000 84.812500 27.781007
30.875000 85.296875 27.781007
30.900000 87.031250 27.781007
30.900000 87.921875 27.781007
25.775000 94.390625 27.781007
30.925000 83.437500 27.934987
30.925000 84.281250 27.934987
30.900000 85.375000 27.934987
30.925000 87.265625 27.934987
30.925000 88.046875 27.934987
25.775000 94.703125 27.934987
31.050000 83.359375 28.075341
31.050000 84.671875 28.075341
31.050000 85.609375 28.075341
31.050000 87.218750 28.075341
31.050000 88.875000 28.075341
25.825000 94.718750 28.075341
30.925000 82.859375 28.234190
31.075000 84.234375 28.234190
31.025000 85.531250 28.234190
30.975000 86.234375 28.234190
31.000000 87.890625 28.234190
31.000000 88.953125 28.234190
31.050000 83.812500 28.368562
31.050000 84.968750 28.368562
31.050000 85.921875 28.368562
31.050000 87.281250 28.368562
31.025000 88.250000 28.368562
31.025000 83.421875 28.521930
31.000000 85.125000 28.521930
31.000000 85.984375 28.521930
31.025000 87.078125 28.521930
31.025000 88.406250 28.521930
30.650000 91.578125 28.521930
25.850000 94.750000 28.521930
30.925000 82.734375 28.661601
31.025000 84.015625 28.661601
31.025000 85.015625 28.661601
30.975000 86.031250 28.661601
30.975000 87.578125 28.661601
30.975000 89.171875 28.661601
25.775000 95.046875 28.661601
30.875000 83.078125 28.816048
31.000000 83.937500 28.816048
31.000000 85.546875 28.816048
30.950000 86.562500 28.816048
30.975000 87.484375 28.816048
30.975000 88.890625 28.816048
25.800000 94.937500 28.816048
30.800000 82.812500 28.956789
30.875000 84.343750 28.956789
30.850000 85.765625 28.956789
30.825000 86.890625 28.956789
30.825000 88.015625 28.956789
30.850000 89.359375 28.956789
25.700000 92.734375 28.956789
25.800000 93.609375 28.956789
30.725000 83.000000 29.094939
30.800000 84.328125 29.094939
30.750000 85.812500 29.094939
30.725000 86.625000 29.094939
30.725000 87.578125 29.094939
30.750000 89.359375 29.094939
30.650000 82.687500 29.251744
30.675000 84.093750 29.251744
30.675000 85.468750 29.251744
30.700000 87.031250 29.251744
30.625000 88.375000 29.251744
30.575000 88.921875 29.251744
30.450000 82.968750 29.390115
30.450000 84.937500 29.390115
30.425000 85.390625 29.390115
30.400000 87.375000 29.390115
30.400000 88.546875 29.390115
30.425000 89.953125 29.390115
30.225000 84.046875 29.531730
30.175000 84.781250 29.531730
30.150000 86.578125 29.531730
30.150000 87.875000 29.531730
30.150000 88.625000 29.531730
25.825000 94.562500 29.531730
30.200000 83.484375 29.687986
30.150000 84.718750 29.687986
30.125000 86.000000 29.687986
30.125000 87.109375 29.687986
30.150000 88.453125 29.687986
25.825000 94.984375 29.687986
30.250000 82.546875 29.828893
30.375000 83.906250 29.828893
30.375000 85.343750 29.828893
30.350000 86.437500 29.828893
30.325000 88.093750 29.828893
30.300000 88.828125 29.828893
25.625000 93.515625 29.828893
30.450000 82.859375 29.970550
30.525000 84.046875 29.970550
30.475000 85.562500 29.970550
30.475000 87.171875 29.970550
30.500000 87.703125 29.970550
30.550000 89.703125 29.970550
30.525000 83.000000 30.125564
30.650000 84.468750 30.125564
30.600000 85.484375 30.125564
30.600000 86.578125 30.125564
30.550000 87.718750 30.125564
30.550000 88.796875 30.125564
25.825000 94.703125 30.125564
30.650000 82.890625 30.266928
30.750000 84.375000 30.266928
30.725000 85.218750 30.266928
30.675000 86.328125 30.266928
30.725000 87.984375 30.266928
30.775000 88.687500 30.266928
25.875000 94.890625 30.266928
30.700000 83.093750 30.423177
30.800000 84.453125 30.423177
30.800000 85.343750 30.423177
30.850000 86.203125 30.423177
30.800000 88.000000 30.423177
30.825000 88.921875 30.423177
30.925000 83.515625 30.562226
30.950000 84.390625 30.562226
30.850000 86.125000 30.562226
30.875000 87.015625 30.562226
30.950000 88.734375 30.562226
25.800000 94.125000 30.562226
30.975000 83.796875 30.702680
31.000000 85.093750 30.702680
31.000000 85.578125 30.702680
30.900000 87.312500 30.702680
30.825000 88.140625 30.702680
25.800000 94.750000 30.702680
31.050000 83.406250 30.862087
31.025000 84.609375 30.862087
30.975000 86.125000 30.862087
31.000000 87.843750 30.862087
31.025000 88.656250 30.862087
30.650000 91.656250 30.862087
30.975000 83.921875 31.000686
30.975000 85.250000 31.000686
30.975000 86.062500 31.000686
31.025000 87.093750 31.000686
31.050000 88.578125 31.000686
30.975000 83.687500 31.140685
30.975000 85.109375 31.140685
30.975000 86.187500 31.140685
31.000000 87.578125 31.140685
31.000000 88.765625 31.140685
30.600000 91.484375 31.140685
31.025000 83.437500 31.300959
31.000000 85.234375 31.300959
30.975000 85.828125 31.300959
30.975000 87.453125 31.300959
30.975000 88.390625 31.300959
31.000000 83.421875 31.436412
31.000000 85.343750 31.436412
30.950000 86.437500 31.436412
30.950000 87.859375 31.436412
30.950000 89.015625 31.436412
30.825000 91.531250 31.436412
30.750000 83.109375 31.591325
30.875000 84.000000 31.591325
30.875000 85.453125 31.591325
30.850000 86.234375 31.591325
30.825000 88.015625 31.591325
30.825000 89.218750 31.591325
25.825000 94.562500 31.591325
30.800000 83.078125 31.748055
30.850000 84.562500 31.748055
30.825000 85.406250 31.748055
30.800000 86.671875 31.748055
30.800000 87.796875 31.748055
30.825000 89.390625 31.748055
25.625000 93.593750 31.748055
25.800000 94.812500 31.748055
30.725000 82.937500 31.873387
30.725000 84.843750 31.873387
30.675000 86.062500 31.873387
30.650000 87.406250 31.873387
30.650000 88.750000 31.873387
25.800000 94.578125 31.873387
30.550000 83.625000 32.027798
30.450000 84.703125 32.027798
30.425000 86.265625 32.027798
30.450000 87.500000 32.027798
30.475000 88.750000 32.027798
30.475000 89.828125 32.027798
25.800000 94.750000 32.027798
25.900000 95.046875 32.027798
30.425000 83.031250 32.174358
30.425000 84.625000 32.174358
30.400000 85.531250 32.174358
30.325000 87.046875 32.174358
30.275000 87.953125 32.174358
30.275000 89.296875 32.174358
25.800000 94.578125 32.174358
30.125000 82.906250 32.323576
30.075000 84.312500 32.323576
30.000000 85.640625 32.323576
29.975000 87.562500 32.323576
30.000000 88.046875 32.323576
30.025000 89.375000 32.323576
26.000000 93.218750 32.323576
25.800000 94.265625 32.323576
29.750000 83.187500 32.463427
29.700000 85.296875 32.463427
29.650000 85.750000 32.463427
29.600000 87.515625 32.463427
29.600000 88.578125 32.463427
29.625000 90.015625 32.463427
25.800000 93.984375 32.463427
29.550000 82.187500 32.603064
29.725000 83.406250 32.603064
29.675000 84.609375 32.603064
29.650000 85.812500 32.603064
29.600000 87.468750 32.603064
29.600000 88.546875 32.603064
29.700000 82.250000 32.759512
29.850000 83.437500 32.759512
29.825000 85.187500 32.759512
29.825000 85.921875 32.759512
29.825000 87.187500 32.759512
29.850000 89.031250 32.759512
25.825000 94.437500 32.759512
29.900000 82.515625 32.915640
30.075000 83.562500 32.915640
30.050000 84.656250 32.915640
30.050000 86.390625 32.915640
29.950000 87.578125 32.915640
29.975000 89.062500 32.915640
25.825000 94.906250 32.915640
30.075000 82.468750 33.041443
30.175000 84.203125 33.041443
30.150000 85.156250 33.041443
30.125000 86.437500 33.041443
30.100000 88.250000 33.041443
30.125000 89.203125 33.041443
25.725000 93.640625 33.041443
25.800000 94.421875 33.041443
30.125000 82.468750 33.210290
30.250000 84.015625 33.210290
30.225000 85.046875 33.210290
30.175000 86.187500 33.210290
30.225000 87.906250 33.210290
30.325000 89.093750 33.210290
25.850000 94.359375 33.210290
25.875000 94.718750 33.210290
30.200000 82.234375 33.335348
30.325000 83.593750 33.335348
30.275000 85.312500 33.335348
30.200000 86.031250 33.335348
30.225000 87.546875 33.335348
30.325000 89.328125 33.335348
25.975000 94.296875 33.335348
30.250000 82.890625 33.491452
30.375000 84.296875 33.491452
30.325000 85.375000 33.491452
30.275000 86.171875 33.491452
30.300000 87.453125 33.491452
30.375000 88.781250 33.491452
25.800000 93.312500 33.491452
25.850000 94.937500 33.491452
30.400000 82.796875 33.627569
30.400000 84.031250 33.627569
30.400000 85.453125 33.627569
30.375000 86.890625 33.627569
30.375000 88.015625 33.627569
25.800000 93.656250 33.627569
30.275000 82.812500 33.782616
30.400000 84.046875 33.782616
30.400000 84.953125 33.782616
30.325000 86.687500 33.782616
30.300000 87.562500 33.782616
30.375000 88.718750 33.782616
25.825000 94.968750 33.782616
30.325000 82.640625 33.929691
30.350000 83.828125 33.929691
30.350000 85.203125 33.929691
30.350000 86.296875 33.929691
30.325000 88.203125 33.929691
30.350000 89.421875 33.929691
25.800000 94.703125 33.929691
30.325000 82.953125 34.078538
30.250000 84.250000 34.078538
30.225000 85.578125 34.078538
30.275000 86.937500 34.078538
30.300000 88.421875 34.078538
25.775000 94.546875 34.078538
30.125000 82.328125 34.218588
30.225000 83.750000 34.218588
30.200000 84.390625 34.218588
30.200000 85.703125 34.218588
30.150000 87.781250 34.218588
30.150000 88.984375 34.218588
25.800000 95.265625 34.218588
30.100000 83.046875 34.366757
30.100000 84.250000 34.366757
30.075000 85.453125 34.366757
30.050000 86.812500 34.366757
30.050000 87.984375 34.366757
30.100000 89.296875 34.366757
25.700000 93.562500 34.366757
25.800000 95.250000 34.366757
30.000000 83.437500 34.513211
29.975000 84.328125 34.513211
29.950000 85.843750 34.513211
29.925000 86.656250 34.513211
29.925000 88.234375 34.513211
29.950000 88.906250 34.513211
25.825000 95.046875 34.513211
29.825000 83.500000 34.654737
29.800000 84.359375 34.654737
29.775000 86.203125 34.654737
29.750000 87.250000 34.654737
29.725000 88.640625 34.654737
29.750000 89.859375 34.654737
25.800000 94.500000 34.654737
25.850000 94.890625 34.654737
29.500000 81.796875 34.803083
29.575000 83.718750 34.803083
29.525000 84.312500 34.803083
29.475000 86.250000 34.803083
29.450000 87.031250 34.803083
29.475000 88.593750 34.803083
29.475000 89.609375 34.803083
25.800000 94.890625 34.803083
29.175000 82.750000 34.953501
29.200000 84.250000 34.953501
29.200000 84.984375 34.953501
29.175000 86.000000 34.953501
29.175000 87.312500 34.953501
29.200000 89.015625 34.953501
29.250000 82.265625 35.093524
29.400000 83.546875 35.093524
29.375000 85.046875 35.093524
29.375000 85.687500 35.093524
29.425000 87.671875 35.093524
29.475000 88.515625 35.093524
29.500000 90.250000 35.093524
25.775000 95.140625 35.093524
29.525000 82.062500 35.244697
29.675000 83.390625 35.244697
29.650000 84.593750 35.244697
29.625000 86.281250 35.244697
29.650000 87.250000 35.244697
29.675000 88.703125 35.244697
25.800000 94.421875 35.244697
25.900000 95.125000 35.244697
29.825000 83.781250 35.390053
29.825000 84.406250 35.390053
29.825000 85.828125 35.390053
29.825000 86.875000 35.390053
29.850000 88.125000 35.390053
25.800000 94.031250 35.390053
29.875000 82.515625 35.543807
29.975000 83.468750 35.543807
29.950000 85.265625 35.543807
29.900000 86.593750 35.543807
29.900000 87.546875 35.543807
29.975000 88.359375 35.543807
29.975000 82.171875 35.680484
30.100000 84.078125 35.680484
30.075000 84.921875 35.680484
30.075000 86.734375 35.680484
30.100000 88.015625 35.680484
30.150000 88.515625 35.680484
25.850000 94.187500 35.680484
30.175000 82.640625 35.839452
30.225000 83.796875 35.839452
30.225000 85.140625 35.839452
30.250000 86.234375 35.839452
30.275000 88.062500 35.839452
30.325000 88.812500 35.839452
25.700000 93.531250 35.839452
25.850000 94.906250 35.839452
30.325000 82.968750 35.979896
30.375000 83.953125 35.979896
30.325000 85.265625 35.979896
30.325000 87.296875 35.979896
30.350000 87.750000 35.979896
30.375000 89.609375 35.979896
30.375000 83.546875 36.120593
30.375000 84.812500 36.120593
30.375000 85.531250 36.120593
30.425000 86.984375 36.120593
30.450000 88.609375 36.120593
25.775000 94.453125 36.120593
30.450000 83.515625 36.276908
30.400000 84.328125 36.276908
30.400000 85.765625 36.276908
30.400000 87.031250 36.276908
30.425000 88.406250 36.276908
25.800000 94.578125 36.276908
30.375000 83.453125 36.416142
30.375000 84.718750 36.416142
30.375000 85.546875 36.416142
30.400000 87.593750 36.416142
30.400000 88.546875 36.416142
25.800000 94.171875 36.416142
30.275000 82.015625 36.555850
30.400000 83.531250 36.555850
30.375000 84.875000 36.555850
30.400000 86.125000 36.555850
30.400000 87.265625 36.555850
30.400000 88.656250 36.555850
30.100000 91.093750 36.555850
25.850000 94.750000 36.555850
30.375000 82.562500 36.712694
30.425000 84.328125 36.712694
30.375000 85.109375 36.712694
30.375000 86.656250 36.712694
30.325000 88.062500 36.712694
30.350000 89.359375 36.712694
25.800000 95.093750 36.712694
30.425000 83.515625 36.852224
30.325000 85.062500 36.852224
30.325000 86.359375 36.852224
30.375000 87.609375 36.852224
30.375000 88.687500 36.852224
25.775000 94.890625 36.852224
30.125000 82.062500 37.008302
30.275000 83.484375 37.008302
30.225000 84.796875 37.008302
30.225000 85.687500 37.008302
30.225000 86.953125 37.008302
30.225000 88.781250 37.008302
25.800000 94.750000 37.008302
29.975000 82.359375 37.147910
30.100000 83.734375 37.147910
30.075000 85.062500 37.147910
30.050000 86.093750 37.147910
30.075000 87.859375 37.147910
30.100000 88.953125 37.147910
29.825000 91.093750 37.147910
25.825000 95.000000 37.147910
29.950000 82.734375 37.288613
29.975000 83.921875 37.288613
29.975000 84.937500 37.288613
29.975000 86.406250 37.288613
29.975000 88.203125 37.288613
29.975000 88.875000 37.288613
25.700000 94.031250 37.288613
25.850000 94.625000 37.288613
29.775000 82.671875 37.431851
29.775000 84.593750 37.431851
29.775000 85.171875 37.431851
29.725000 86.546875 37.431851
29.725000 87.828125 37.431851
29.775000 89.296875 37.431851
25.700000 94.437500 37.431851
29.625000 82.703125 37.582150
29.675000 84.125000 37.582150
29.675000 85.281250 37.582150
29.650000 86.031250 37.582150
29.700000 87.296875 37.582150
29.750000 89.265625 37.582150
25.850000 95.031250 37.582150
29.850000 82.765625 37.736416
29.975000 83.625000 37.736416
29.975000 85.328125 37.736416
29.975000 85.968750 37.736416
29.975000 87.296875 37.736416
30.000000 88.968750 37.736416
29.875000 91.687500 37.736416
30.125000 82.968750 37.875901
30.200000 83.953125 37.875901
30.200000 85.125000 37.875901
30.175000 87.093750 37.875901
30.225000 88.140625 37.875901
30.250000 89.140625 37.875901
25.800000 94.671875 37.875901
30.375000 83.437500 38.032299
30.350000 84.859375 38.032299
30.350000 85.859375 38.032299
30.400000 87.078125 38.032299
30.450000 87.953125 38.032299
30.450000 89.234375 38.032299
25.775000 94.281250 38.032299
30.525000 83.187500 38.170894
30.550000 84.781250 38.170894
30.525000 86.109375 38.170894
30.575000 86.906250 38.170894
30.575000 88.875000 38.170894
25.775000 94.671875 38.170894
30.675000 83.718750 38.309218
30.675000 84.765625 38.309218
30.700000 85.937500 38.309218
30.675000 87.453125 38.309218
30.675000 88.906250 38.309218
25.825000 94.468750 38.309218
30.700000 83.078125 38.468349
30.825000 84.203125 38.468349
30.825000 84.968750 38.468349
30.825000 86.718750 38.468349
30.825000 87.375000 38.468349
30.850000 88.687500 38.468349
30.775000 82.500000 38.608112
30.850000 84.062500 38.608112
30.825000 84.984375 38.608112
30.825000 86.593750 38.608112
30.850000 88.109375 38.608112
30.900000 89.265625 38.608112
25.800000 95.078125 38.608112
30.925000 82.593750 38.762945
31.025000 83.953125 38.762945
31.000000 85.843750 38.762945
31.000000 86.328125 38.762945
30.975000 87.687500 38.762945
30.950000 89.062500 38.762945
25.825000 94.921875 38.762945
31.000000 82.937500 38.903977
31.050000 84.734375 38.903977
31.025000 85.937500 38.903977
30.925000 87.359375 38.903977
30.950000 88.062500 38.903977
25.775000 94.609375 38.903977
31.075000 83.156250 39.042865
31.075000 84.671875 39.042865
31.025000 86.031250 39.042865
31.025000 86.906250 39.042865
31.025000 88.937500 39.042865
25.825000 94.359375 39.042865
31.100000 83.468750 39.198254
31.075000 84.953125 39.198254
31.025000 86.375000 39.198254
31.025000 87.234375 39.198254
31.075000 88.750000 39.198254
25.650000 93.734375 39.198254
30.925000 83.109375 39.354201
31.025000 84.000000 39.354201
31.000000 85.828125 39.354201
30.975000 86.328125 39.354201
30.975000 88.031250 39.354201
30.950000 88.843750 39.354201
25.625000 92.953125 39.354201
25.800000 94.468750 39.354201
31.000000 82.750000 39.477329
31.050000 84.062500 39.477329
31.000000 85.390625 39.477329
30.975000 86.890625 39.477329
31.000000 88.468750 39.477329
25.775000 93.781250 39.477329
25.850000 95.125000 39.477329
30.925000 83.437500 39.631226
30.975000 84.296875 39.631226
30.975000 85.718750 39.631226
30.950000 86.781250 39.631226
30.975000 87.921875 39.631226
25.800000 94.093750 39.631226
30.925000 82.984375 39.773142
30.950000 84.437500 39.773142
30.950000 85.671875 39.773142
30.925000 86.890625 39.773142
30.950000 88.062500 39.773142
25.800000 94.687500 39.773142
30.900000 82.921875 39.927842
30.875000 84.765625 39.927842
30.800000 85.609375 39.927842
30.775000 87.531250 39.927842
30.775000 88.609375 39.927842
25.800000 94.671875 39.927842
25.875000 95.078125 39.927842
30.625000 82.437500 40.066456
30.700000 84.078125 40.066456
30.700000 84.703125 40.066456
30.675000 86.531250 40.066456
30.650000 87.703125 40.066456
30.650000 89.187500 40.066456
25.625000 93.593750 40.066456
25.850000 94.765625 40.066456
30.450000 82.546875 40.223292
30.475000 83.812500 40.223292
30.450000 85.578125 40.223292
30.425000 86.953125 40.223292
30.450000 88.234375 40.223292
30.475000 89.281250 40.223292
25.825000 94.937500 40.223292
30.275000 83.015625 40.362677
30.225000 84.812500 40.362677
30.200000 85.640625 40.362677
30.200000 86.703125 40.362677
30.225000 87.968750 40.362677
25.800000 94.015625 40.362677
25.850000 95.015625 40.362677
30.125000 83.640625 40.518373
30.150000 84.500000 40.518373
30.125000 85.671875 40.518373
30.050000 86.765625 40.518373
30.075000 87.921875 40.518373
25.800000 94.703125 40.518373
25.850000 95.078125 40.518373
30.250000 83.031250 40.657742
30.225000 84.437500 40.657742
30.200000 85.812500 40.657742
30.225000 87.531250 40.657742
30.250000 88.031250 40.657742
25.800000 95.125000 40.657742
30.425000 83.109375 40.814440
30.425000 84.437500 40.814440
30.400000 85.843750 40.814440
30.400000 87.078125 40.814440
30.400000 88.593750 40.814440
30.050000 90.953125 40.814440
30.450000 82.328125 40.952078
30.550000 83.531250 40.952078
30.500000 85.250000 40.952078
30.500000 86.328125 40.952078
30.525000 87.453125 40.952078
30.550000 88.265625 40.952078
25.825000 94.093750 40.952078
30.575000 82.046875 41.091689
30.675000 83.718750 41.091689
30.575000 85.250000 41.091689
30.525000 86.156250 41.091689
30.525000 87.421875 41.091689
30.650000 88.718750 41.091689
30.725000 82.656250 41.247011
30.725000 83.875000 41.247011
30.700000 84.703125 41.247011
30.675000 86.593750 41.247011
30.650000 87.875000 41.247011
30.650000 88.828125 41.247011
25.500000 91.906250 41.247011
25.750000 93.437500 41.247011
30.825000 82.796875 41.385394
30.825000 83.578125 41.385394
30.775000 85.671875 41.385394
30.775000 86.250000 41.385394
30.775000 87.453125 41.385394
25.775000 93.531250 41.385394
30.950000 83.359375 41.537894
30.900000 84.046875 41.537894
30.825000 85.953125 41.537894
30.800000 86.875000 41.537894
30.800000 88.171875 41.537894
25.775000 95.171875 41.537894
25.825000 94.921875 41.537894
30.925000 83.140625 41.676515
30.950000 84.343750 41.676515
30.975000 86.250000 41.676515
30.975000 87.359375 41.676515
30.975000 88.484375 41.676515
30.775000 91.375000 41.676515
25.800000 94.859375 41.676515
30.850000 82.218750 41.831290
30.950000 83.265625 41.831290
30.975000 84.312500 41.831290
30.975000 85.843750 41.831290
30.950000 86.828125 41.831290
30.950000 88.515625 41.831290
25.875000 94.140625 41.831290
30.875000 82.140625 41.972008
31.050000 83.390625 41.972008
31.025000 84.781250 41.972008
30.950000 86.531250 41.972008
30.925000 87.359375 41.972008
30.950000 88.937500 41.972008
30.950000 83.171875 42.128841
30.900000 83.968750 42.128841
30.900000 85.234375 42.128841
30.925000 87.265625 42.128841
30.925000 87.765625 42.128841
25.775000 94.843750 42.128841
30.825000 82.546875 42.267640
30.900000 84.265625 42.267640
30.925000 85.328125 42.267640
30.925000 86.484375 42.267640
30.900000 88.000000 42.267640
25.775000 93.531250 42.267640
25.825000 95.234375 42.267640
30.925000 83.234375 42.409422
30.900000 84.875000 42.409422
30.900000 85.515625 42.409422
30.900000 87.312500 42.409422
30.900000 87.875000 42.409422
30.750000 82.468750 42.567024
30.800000 83.937500 42.567024
30.775000 84.750000 42.567024
30.800000 86.406250 42.567024
30.800000 87.312500 42.567024
30.775000 89.031250 42.567024
25.800000 95.140625 42.567024
30.800000 82.406250 42.704054
30.775000 83.921875 42.704054
30.700000 84.890625 42.704054
30.700000 86.078125 42.704054
30.675000 87.750000 42.704054
30.675000 89.203125 42.704054
25.675000 92.703125 42.704054
25.775000 93.375000 42.704054
25.825000 95.218750 42.704054
30.650000 82.859375 42.845367
30.575000 84.343750 42.845367
30.575000 85.640625 42.845367
30.600000 86.984375 42.845367
30.600000 87.921875 42.845367
25.775000 93.890625 42.845367
25.825000 94.921875 42.845367
30.350000 81.703125 43.001769
30.425000 83.328125 43.001769
30.400000 84.156250 43.001769
30.350000 85.828125 43.001769
30.350000 87.343750 43.001769
30.350000 88.656250 43.001769
29.925000 90.921875 43.001769
25.775000 94.968750 43.001769
30.100000 82.796875 43.140634
30.125000 83.734375 43.140634
30.075000 85.390625 43.140634
30.050000 86.750000 43.140634
30.050000 87.625000 43.140634
30.075000 88.765625 43.140634
25.675000 94.515625 43.140634
25.775000 94.468750 43.140634
29.775000 82.671875 43.294775
29.750000 84.171875 43.294775
29.700000 85.265625 43.294775
29.675000 86.328125 43.294775
29.675000 88.343750 43.294775
29.675000 88.968750 43.294775
25.800000 94.968750 43.294775
29.500000 82.250000 43.439660
29.625000 83.328125 43.439660
29.575000 84.609375 43.439660
29.550000 86.015625 43.439660
29.550000 87.421875 43.439660
29.600000 87.859375 43.439660
25.800000 94.750000 43.439660
29.575000 82.343750 43.588054
29.775000 83.156250 43.588054
29.775000 84.906250 43.588054
29.775000 85.671875 43.588054
29.775000 86.656250 43.588054
29.800000 88.453125 43.588054
25.775000 94.046875 43.588054
29.875000 81.812500 43.727794
30.000000 83.593750 43.727794
29.975000 84.453125 43.727794
29.950000 85.609375 43.727794
29.925000 87.453125 43.727794
29.975000 88.265625 43.727794
25.800000 94.609375 43.727794
29.975000 82.484375 43.867122
30.075000 83.500000 43.867122
30.125000 85.093750 43.867122
30.025000 85.921875 43.867122
30.000000 87.671875 43.867122
30.075000 88.218750 43.867122
25.750000 92.984375 43.867122
30.125000 82.953125 44.022341
30.150000 83.921875 44.022341
30.100000 84.765625 44.022341
30.075000 86.703125 44.022341
30.125000 87.906250 44.022341
30.225000 88.656250 44.022341
25.825000 95.109375 44.022341
30.325000 82.515625 44.162656
30.325000 84.046875 44.162656
30.275000 85.015625 44.162656
30.200000 86.781250 44.162656
30.250000 87.796875 44.162656
30.325000 89.437500 44.162656
25.800000 93.359375 44.162656
30.200000 82.062500 44.318902
30.400000 82.906250 44.318902
30.375000 84.578125 44.318902
30.350000 85.953125 44.318902
30.325000 87.390625 44.318902
30.350000 88.593750 44.318902
25.775000 94.343750 44.318902
25.850000 95.125000 44.318902
30.300000 82.656250 44.459101
30.350000 84.015625 44.459101
30.350000 84.796875 44.459101
30.350000 86.093750 44.459101
30.350000 87.765625 44.459101
30.350000 88.906250 44.459101
25.825000 94.593750 44.459101
30.400000 83.187500 44.612830
30.350000 84.062500 44.612830
30.350000 85.562500 44.612830
30.375000 87.062500 44.612830
30.325000 87.734375 44.612830
25.775000 94.609375 44.612830
30.225000 82.453125 44.756743
30.375000 83.093750 44.756743
30.350000 84.484375 44.756743
30.325000 85.656250 44.756743
30.325000 87.359375 44.756743
30.325000 88.828125 44.756743
25.775000 94.296875 44.756743
25.850000 95.125000 44.756743
30.200000 82.625000 44.893326
30.350000 83.359375 44.893326
30.325000 84.890625 44.893326
30.250000 86.156250 44.893326
30.225000 87.687500 44.893326
30.300000 88.234375 44.893326
25.850000 94.937500 44.893326
30.200000 82.437500 45.048059
30.200000 83.687500 45.048059
30.200000 85.406250 45.048059
30.150000 86.390625 45.048059
30.150000 88.171875 45.048059
30.225000 89.328125 45.048059
30.025000 81.593750 45.192706
30.125000 82.953125 45.192706
30.100000 84.359375 45.192706
30.075000 86.171875 45.192706
30.050000 86.812500 45.192706
30.075000 87.937500 45.192706
25.775000 94.921875 45.192706
30.000000 83.125000 45.328939
29.975000 84.187500 45.328939
29.975000 85.406250 45.328939
29.950000 86.406250 45.328939
29.925000 88.187500 45.328939
29.950000 89.484375 45.328939
25.825000 95.109375 45.328939
29.850000 82.656250 45.486309
29.800000 84.671875 45.486309
29.775000 85.234375 45.486309
29.750000 87.078125 45.486309
29.725000 88.562500 45.486309
29.750000 89.281250 45.486309
25.775000 93.531250 45.486309
29.500000 81.906250 45.629065
29.600000 82.984375 45.629065
29.550000 84.156250 45.629065
29.525000 85.781250 45.629065
29.500000 87.234375 45.629065
29.500000 88.625000 45.629065
29.550000 89.203125 45.629065
25.775000 93.750000 45.629065
29.225000 82.234375 45.781003
29.250000 83.593750 45.781003
29.225000 84.562500 45.781003
29.225000 85.703125 45.781003
29.225000 87.203125 45.781003
29.225000 88.828125 45.781003
25.775000 94.703125 45.781003
29.200000 82.203125 45.922272
29.250000 83.562500 45.922272
29.225000 84.750000 45.922272
29.250000 86.156250 45.922272
29.300000 86.890625 45.922272
29.350000 88.859375 45.922272
25.775000 94.500000 45.922272
29.600000 82.781250 46.065540
29.550000 84.687500 46.065540
29.525000 86.000000 46.065540
29.575000 86.609375 46.065540
29.625000 88.000000 46.065540
29.625000 89.171875 46.065540
25.775000 94.546875 46.065540
29.800000 83.281250 46.215012
29.800000 83.953125 46.215012
29.800000 85.468750 46.215012
29.800000 86.687500 46.215012
29.800000 87.937500 46.215012
29.825000 89.625000 46.215012
25.775000 94.593750 46.215012
25.825000 94.859375 46.215012
29.850000 81.937500 46.355180
30.000000 83.406250 46.355180
30.000000 84.781250 46.355180
29.950000 86.437500 46.355180
29.925000 86.906250 46.355180
29.975000 88.218750 46.355180
25.800000 95.250000 46.355180
30.000000 82.859375 46.509517
30.125000 83.734375 46.509517
30.075000 85.453125 46.509517
30.075000 86.000000 46.509517
30.075000 87.593750 46.509517
30.075000 88.375000 46.509517
26.125000 93.156250 46.509517
25.850000 95.187500 46.509517
30.125000 82.578125 46.648006
30.200000 84.093750 46.648006
