37.325000 87.671875 22.029982
37.350000 86.578125 22.029982
37.350000 84.921875 22.029982
37.400000 83.890625 22.029982
37.800000 83.078125 22.029982
37.875000 81.734375 22.029982
37.600000 80.312500 22.029982
37.700000 79.609375 22.029982
37.925000 78.078125 22.029982
38.100000 77.156250 22.029982
38.400000 75.875000 22.029982
37.225000 88.265625 22.183394
37.350000 87.296875 22.183394
37.350000 86.156250 22.183394
37.375000 84.703125 22.183394
37.425000 83.937500 22.183394
37.650000 82.437500 22.183394
37.725000 81.515625 22.183394
37.600000 80.375000 22.183394
37.775000 79.140625 22.183394
37.950000 78.203125 22.183394
38.150000 76.921875 22.183394
38.575000 76.000000 22.183394
37.375000 86.937500 22.343494
37.375000 85.812500 22.343494
37.400000 84.437500 22.343494
37.625000 83.265625 22.343494
37.675000 82.234375 22.343494
37.525000 80.750000 22.343494
37.625000 79.578125 22.343494
37.875000 78.484375 22.343494
38.075000 77.437500 22.343494
38.375000 76.546875 22.343494
37.375000 88.734375 22.496011
37.350000 87.406250 22.496011
37.350000 86.234375 22.496011
37.375000 85.046875 22.496011
37.425000 83.625000 22.496011
37.650000 82.718750 22.496011
37.700000 81.296875 22.496011
37.600000 80.375000 22.496011
37.775000 79.000000 22.496011
37.950000 78.171875 22.496011
38.150000 76.890625 22.496011
38.575000 75.796875 22.496011
37.375000 86.828125 22.652660
37.375000 85.578125 22.652660
37.400000 84.625000 22.652660
37.625000 83.484375 22.652660
37.650000 82.171875 22.652660
37.525000 81.125000 22.652660
37.650000 79.625000 22.652660
37.900000 78.500000 22.652660
38.075000 77.453125 22.652660
38.350000 76.187500 22.652660
37.100000 88.687500 22.809354
37.350000 87.921875 22.809354
37.350000 86.531250 22.809354
37.400000 85.468750 22.809354
37.450000 84.250000 22.809354
37.650000 82.812500 22.809354
37.700000 81.843750 22.809354
37.575000 80.718750 22.809354
37.700000 79.453125 22.809354
38.000000 78.296875 22.809354
38.200000 77.203125 22.809354
38.425000 75.875000 22.809354
37.350000 86.671875 22.961768
37.400000 85.625000 22.961768
37.425000 84.187500 22.961768
37.550000 83.203125 22.961768
37.600000 82.000000 22.961768
37.575000 80.687500 22.961768
37.700000 79.734375 22.961768
37.925000 78.578125 22.961768
38.175000 77.671875 22.961768
38.525000 76.531250 22.961768
37.525000 89.562500 23.119522
37.250000 88.406250 23.119522
37.350000 87.062500 23.119522
37.400000 85.984375 23.119522
37.425000 85.203125 23.119522
37.500000 83.843750 23.119522
37.700000 82.843750 23.119522
37.700000 81.531250 23.119522
37.700000 80.531250 23.119522
37.975000 79.203125 23.119522
38.175000 78.078125 23.119522
38.400000 77.046875 23.119522
38.925000 75.765625 23.119522
37.350000 89.984375 23.272024
37.450000 89.046875 23.272024
37.350000 87.859375 23.272024
37.375000 86.562500 23.272024
37.425000 85.468750 23.272024
37.450000 84.468750 23.272024
37.500000 82.953125 23.272024
37.900000 81.937500 23.272024
38.025000 80.750000 23.272024
37.950000 79.843750 23.272024
38.150000 78.375000 23.272024
38.300000 77.375000 23.272024
38.650000 76.437500 23.272024
37.500000 90.015625 23.432784
37.450000 88.718750 23.432784
37.350000 87.750000 23.432784
37.400000 86.812500 23.432784
37.450000 85.390625 23.432784
37.700000 84.328125 23.432784
37.725000 83.218750 23.432784
37.650000 81.796875 23.432784
37.800000 80.968750 23.432784
37.950000 79.484375 23.432784
38.150000 78.468750 23.432784
38.325000 77.234375 23.432784
38.650000 75.984375 23.432784
37.525000 89.171875 23.596233
37.300000 88.484375 23.596233
37.400000 87.218750 23.596233
37.500000 85.953125 23.596233
37.850000 85.078125 23.596233
37.700000 83.703125 23.596233
37.425000 82.359375 23.596233
37.850000 81.546875 23.596233
38.100000 80.406250 23.596233
38.175000 78.953125 23.596233
38.325000 77.671875 23.596233
37.575000 88.906250 23.744086
37.325000 87.812500 23.744086
37.550000 86.937500 23.744086
37.275000 85.421875 23.744086
37.075000 84.359375 23.744086
37.275000 83.203125 23.744086
37.525000 81.921875 23.744086
38.050000 81.031250 23.744086
38.275000 79.656250 23.744086
38.300000 78.843750 23.744086
38.525000 77.453125 23.744086
38.825000 76.328125 23.744086
37.675000 88.968750 23.906831
37.550000 87.687500 23.906831
37.625000 86.359375 23.906831
37.575000 85.171875 23.906831
37.325000 84.343750 23.906831
37.250000 82.812500 23.906831
37.575000 81.750000 23.906831
38.175000 80.593750 23.906831
38.425000 79.343750 23.906831
38.350000 78.640625 23.906831
38.575000 77.078125 23.906831
39.000000 76.171875 23.906831
37.575000 90.015625 24.056381
37.650000 89.078125 24.056381
37.500000 88.046875 24.056381
37.600000 86.546875 24.056381
37.700000 85.578125 24.056381
37.425000 84.062500 24.056381
37.225000 82.875000 24.056381
37.550000 82.171875 24.056381
37.950000 80.750000 24.056381
38.200000 79.921875 24.056381
38.350000 78.390625 24.056381
38.575000 77.593750 24.056381
39.025000 76.312500 24.056381
37.800000 89.140625 24.217238
37.550000 87.843750 24.217238
37.750000 86.640625 24.217238
38.050000 85.609375 24.217238
37.725000 84.578125 24.217238
37.275000 83.421875 24.217238
37.550000 82.140625 24.217238
37.925000 80.812500 24.217238
38.350000 79.562500 24.217238
38.625000 78.421875 24.217238
38.700000 77.546875 24.217238
39.025000 76.546875 24.217238
37.750000 89.484375 24.371018
37.575000 87.984375 24.371018
37.800000 87.015625 24.371018
37.500000 85.718750 24.371018
37.225000 84.390625 24.371018
37.550000 83.531250 24.371018
37.800000 82.328125 24.371018
38.275000 79.000000 24.371018
38.800000 77.671875 24.371018
39.000000 76.687500 24.371018
37.725000 89.421875 24.528810
37.600000 88.062500 24.528810
37.825000 86.906250 24.528810
37.675000 85.921875 24.528810
37.350000 84.484375 24.528810
37.525000 83.750000 24.528810
37.850000 82.609375 24.528810
38.450000 79.015625 24.528810
39.000000 78.000000 24.528810
39.100000 76.687500 24.528810
37.850000 89.234375 24.681591
37.700000 88.156250 24.681591
37.850000 87.031250 24.681591
37.675000 85.890625 24.681591
37.350000 84.671875 24.681591
37.625000 83.609375 24.681591
38.250000 82.421875 24.681591
38.850000 79.140625 24.681591
39.100000 78.000000 24.681591
39.100000 76.703125 24.681591
37.525000 88.765625 24.841402
37.850000 87.781250 24.841402
37.725000 84.437500 24.841402
37.900000 81.031250 24.841402
38.825000 79.953125 24.841402
39.150000 78.437500 24.841402
39.050000 77.343750 24.841402
39.225000 76.328125 24.841402
37.600000 89.031250 24.996812
37.925000 87.765625 24.996812
37.750000 84.531250 24.996812
38.025000 80.859375 24.996812
38.900000 80.000000 24.996812
39.150000 78.609375 24.996812
39.075000 77.500000 24.996812
39.250000 76.171875 24.996812
37.925000 89.296875 25.155361
37.950000 88.453125 25.155361
38.025000 87.218750 25.155361
37.675000 86.062500 25.155361
37.425000 84.656250 25.155361
37.800000 83.703125 25.155361
38.425000 82.812500 25.155361
38.950000 79.031250 25.155361
39.100000 77.968750 25.155361
37.900000 88.781250 25.307583
38.100000 87.968750 25.307583
37.900000 84.312500 25.307583
37.825000 82.875000 25.307583
38.325000 82.156250 25.307583
39.075000 80.734375 25.307583
39.350000 79.734375 25.307583
39.275000 78.421875 25.307583
39.300000 77.250000 25.307583
39.500000 76.171875 25.307583
38.100000 89.296875 25.466334
38.075000 88.312500 25.466334
38.225000 87.406250 25.466334
38.075000 85.812500 25.466334
37.800000 85.000000 25.466334
37.925000 83.781250 25.466334
38.450000 82.625000 25.466334
38.950000 79.125000 25.466334
39.125000 77.921875 25.466334
39.275000 76.906250 25.466334
37.925000 89.937500 25.621468
38.000000 88.468750 25.621468
38.250000 87.843750 25.621468
38.125000 86.593750 25.621468
37.950000 84.984375 25.621468
37.925000 84.265625 25.621468
38.250000 83.000000 25.621468
38.825000 81.906250 25.621468
39.350000 80.500000 25.621468
39.375000 79.515625 25.621468
39.175000 78.375000 25.621468
39.325000 77.093750 25.621468
39.725000 76.062500 25.621468
38.225000 89.640625 25.776725
38.050000 88.390625 25.776725
38.250000 86.890625 25.776725
38.475000 85.937500 25.776725
38.250000 84.703125 25.776725
38.000000 83.390625 25.776725
38.500000 82.625000 25.776725
39.100000 81.500000 25.776725
39.425000 80.093750 25.776725
39.325000 79.031250 25.776725
39.200000 77.750000 25.776725
39.500000 76.703125 25.776725
38.250000 89.484375 25.932735
38.150000 88.359375 25.932735
38.350000 87.343750 25.932735
38.475000 85.890625 25.932735
38.175000 84.515625 25.932735
37.900000 83.343750 25.932735
38.475000 82.656250 25.932735
39.075000 81.093750 25.932735
39.400000 80.093750 25.932735
39.325000 79.187500 25.932735
39.200000 77.953125 25.932735
39.500000 76.765625 25.932735
38.375000 88.859375 26.098266
38.350000 87.906250 26.098266
38.150000 84.531250 26.098266
38.200000 83.000000 26.098266
38.825000 81.890625 26.098266
39.425000 80.750000 26.098266
39.375000 79.640625 26.098266
39.175000 78.640625 26.098266
39.300000 77.171875 26.098266
39.650000 76.468750 26.098266
38.400000 88.875000 26.247046
38.400000 87.718750 26.247046
38.450000 86.843750 26.247046
38.550000 85.468750 26.247046
38.275000 84.453125 26.247046
39.350000 79.546875 26.247046
39.150000 78.593750 26.247046
39.275000 77.421875 26.247046
39.625000 76.296875 26.247046
38.825000 89.687500 26.410943
38.675000 88.640625 26.410943
38.500000 87.625000 26.410943
38.725000 86.468750 26.410943
38.500000 84.968750 26.410943
38.125000 84.156250 26.410943
38.350000 82.796875 26.410943
38.975000 81.953125 26.410943
39.625000 80.609375 26.410943
39.450000 79.468750 26.410943
39.125000 78.171875 26.410943
39.300000 76.953125 26.410943
39.875000 76.171875 26.410943
38.725000 89.343750 26.564916
38.650000 88.406250 26.564916
38.475000 87.265625 26.564916
38.600000 86.296875 26.564916
38.450000 85.031250 26.564916
38.775000 81.359375 26.564916
39.225000 80.171875 26.564916
39.125000 79.281250 26.564916
39.200000 77.984375 26.564916
39.500000 76.671875 26.564916
38.550000 87.843750 26.721208
38.600000 86.859375 26.721208
38.875000 85.421875 26.721208
38.750000 84.187500 26.721208
38.550000 83.421875 26.721208
39.125000 81.890625 26.721208
39.375000 80.875000 26.721208
39.175000 79.953125 26.721208
39.125000 78.453125 26.721208
39.250000 77.218750 26.721208
39.700000 76.437500 26.721208
38.700000 89.671875 26.873781
38.950000 88.218750 26.873781
38.625000 87.375000 26.873781
38.600000 85.890625 26.873781
38.625000 84.671875 26.873781
38.650000 83.875000 26.873781
38.975000 82.703125 26.873781
39.300000 81.375000 26.873781
39.200000 80.125000 26.873781
39.100000 78.953125 26.873781
39.175000 77.796875 26.873781
39.500000 76.796875 26.873781
38.600000 88.078125 27.034623
38.700000 86.687500 27.034623
38.700000 85.640625 27.034623
38.675000 84.406250 27.034623
38.750000 83.109375 27.034623
39.150000 81.984375 27.034623
39.375000 80.828125 27.034623
39.175000 79.562500 27.034623
39.075000 78.390625 27.034623
39.225000 77.421875 27.034623
39.700000 76.093750 27.034623
39.175000 88.562500 27.182639
38.600000 87.359375 27.182639
38.675000 86.062500 27.182639
38.775000 85.109375 27.182639
38.825000 83.875000 27.182639
39.075000 82.812500 27.182639
39.350000 81.453125 27.182639
39.250000 80.515625 27.182639
39.025000 79.265625 27.182639
39.100000 78.140625 27.182639
39.450000 76.734375 27.182639
38.575000 87.937500 27.346479
38.700000 86.750000 27.346479
38.750000 85.562500 27.346479
38.725000 84.328125 27.346479
38.800000 83.343750 27.346479
39.175000 82.171875 27.346479
39.400000 81.109375 27.346479
39.200000 79.593750 27.346479
39.025000 78.609375 27.346479
39.175000 77.312500 27.346479
39.600000 76.218750 27.346479
38.975000 88.562500 27.496773
38.600000 87.328125 27.496773
38.700000 86.281250 27.496773
38.800000 85.109375 27.496773
38.750000 83.843750 27.496773
39.000000 82.796875 27.496773
39.300000 81.828125 27.496773
39.400000 80.765625 27.496773
39.225000 79.406250 27.496773
39.075000 78.250000 27.496773
39.275000 77.031250 27.496773
39.950000 75.796875 27.496773
38.625000 87.531250 27.658197
38.700000 86.812500 27.658197
38.725000 85.343750 27.658197
38.750000 84.359375 27.658197
39.000000 83.015625 27.658197
39.250000 82.062500 27.658197
39.675000 81.046875 27.658197
39.550000 79.718750 27.658197
39.100000 78.515625 27.658197
39.225000 77.062500 27.658197
39.725000 76.281250 27.658197
37.950000 89.171875 27.808411
38.425000 88.140625 27.808411
38.700000 87.109375 27.808411
38.775000 85.968750 27.808411
38.800000 84.781250 27.808411
38.850000 83.390625 27.808411
39.075000 82.593750 27.808411
39.325000 81.203125 27.808411
39.175000 80.015625 27.808411
39.000000 79.015625 27.808411
39.100000 77.890625 27.808411
39.550000 76.640625 27.808411
38.775000 88.953125 27.970499
38.575000 87.421875 27.970499
38.650000 86.281250 27.970499
38.750000 85.281250 27.970499
38.775000 84.375000 27.970499
39.100000 83.156250 27.970499
39.350000 81.968750 27.970499
39.700000 80.578125 27.970499
39.500000 79.546875 27.970499
39.025000 78.406250 27.970499
39.300000 77.171875 27.970499
39.850000 76.156250 27.970499
37.900000 89.031250 28.124183
38.425000 88.265625 28.124183
38.700000 86.843750 28.124183
38.775000 85.687500 28.124183
38.800000 84.500000 28.124183
38.750000 83.593750 28.124183
39.000000 82.328125 28.124183
39.300000 81.359375 28.124183
39.175000 79.953125 28.124183
39.000000 78.640625 28.124183
39.100000 77.765625 28.124183
39.475000 76.500000 28.124183
39.075000 88.750000 28.284335
38.550000 87.718750 28.284335
38.750000 86.296875 28.284335
38.500000 84.921875 28.284335
38.350000 84.078125 28.284335
38.725000 82.812500 28.284335
39.125000 81.968750 28.284335
39.725000 80.640625 28.284335
39.575000 79.390625 28.284335
39.075000 78.265625 28.284335
39.275000 77.046875 28.284335
39.950000 76.140625 28.284335
38.525000 87.875000 28.439039
38.675000 86.828125 28.439039
38.300000 85.375000 28.439039
38.175000 84.625000 28.439039
38.350000 83.296875 28.439039
38.700000 82.125000 28.439039
39.150000 80.968750 28.439039
39.075000 79.968750 28.439039
39.000000 78.609375 28.439039
39.075000 77.296875 28.439039
39.500000 76.109375 28.439039
38.650000 88.734375 28.595548
38.475000 87.953125 28.595548
38.875000 86.703125 28.595548
39.225000 79.609375 28.595548
39.000000 78.578125 28.595548
39.200000 77.218750 28.595548
39.700000 76.234375 28.595548
38.225000 87.312500 28.749068
37.950000 86.093750 28.749068
37.675000 84.703125 28.749068
37.775000 83.578125 28.749068
38.125000 82.828125 28.749068
38.900000 81.390625 28.749068
39.600000 80.625000 28.749068
39.400000 79.203125 28.749068
39.025000 78.265625 28.749068
38.175000 89.281250 28.906776
38.025000 88.078125 28.906776
38.250000 87.187500 28.906776
37.950000 85.750000 28.906776
37.625000 84.781250 28.906776
37.875000 83.671875 28.906776
38.475000 82.609375 28.906776
39.075000 81.234375 28.906776
39.200000 80.250000 28.906776
39.075000 78.828125 28.906776
39.050000 78.000000 28.906776
39.400000 76.859375 28.906776
38.150000 89.656250 29.062338
38.050000 88.203125 29.062338
38.050000 87.140625 29.062338
37.725000 85.812500 29.062338
37.525000 84.906250 29.062338
37.800000 83.578125 29.062338
38.175000 82.562500 29.062338
38.775000 81.515625 29.062338
39.425000 80.093750 29.062338
39.275000 79.031250 29.062338
39.100000 77.859375 29.062338
39.300000 76.875000 29.062338
38.175000 89.546875 29.218399
38.000000 87.968750 29.218399
38.100000 87.218750 29.218399
37.725000 85.890625 29.218399
37.525000 84.359375 29.218399
37.925000 83.375000 29.218399
38.300000 82.140625 29.218399
38.800000 81.046875 29.218399
39.150000 79.843750 29.218399
39.075000 78.796875 29.218399
39.025000 77.562500 29.218399
39.175000 76.578125 29.218399
38.400000 89.390625 29.372522
37.975000 87.859375 29.372522
38.175000 86.968750 29.372522
37.850000 85.562500 29.372522
37.550000 84.343750 29.372522
37.950000 83.453125 29.372522
38.350000 82.187500 29.372522
38.800000 81.312500 29.372522
39.150000 79.796875 29.372522
39.075000 78.515625 29.372522
38.975000 77.312500 29.372522
39.125000 76.250000 29.372522
38.150000 89.343750 29.529407
37.875000 88.312500 29.529407
37.875000 86.703125 29.529407
37.400000 85.781250 29.529407
37.275000 84.734375 29.529407
37.700000 83.234375 29.529407
38.150000 82.156250 29.529407
38.700000 81.156250 29.529407
39.075000 80.265625 29.529407
39.075000 79.015625 29.529407
38.950000 77.515625 29.529407
39.050000 76.531250 29.529407
37.750000 88.953125 29.699181
37.850000 87.703125 29.699181
37.825000 86.750000 29.699181
37.400000 85.171875 29.699181
37.275000 84.250000 29.699181
37.750000 83.078125 29.699181
38.200000 81.812500 29.699181
38.775000 80.640625 29.699181
39.100000 79.875000 29.699181
38.950000 78.687500 29.699181
38.825000 77.187500 29.699181
39.075000 76.359375 29.699181
37.725000 89.562500 29.854657
37.575000 88.218750 29.854657
37.475000 84.937500 29.854657
37.150000 83.750000 29.854657
37.500000 82.562500 29.854657
38.225000 81.562500 29.854657
39.100000 80.406250 29.854657
39.250000 78.890625 29.854657
38.925000 77.625000 29.854657
38.950000 76.468750 29.854657
37.725000 89.093750 30.009732
37.475000 88.000000 30.009732
37.350000 84.406250 30.009732
37.200000 83.234375 30.009732
37.525000 82.593750 30.009732
38.325000 79.046875 30.009732
38.875000 77.984375 30.009732
38.925000 76.687500 30.009732
37.900000 89.625000 30.166443
37.725000 88.484375 30.166443
37.650000 87.625000 30.166443
37.850000 86.406250 30.166443
37.475000 84.781250 30.166443
37.050000 84.015625 30.166443
37.250000 82.484375 30.166443
38.850000 78.109375 30.166443
38.725000 76.796875 30.166443
39.225000 76.046875 30.166443
37.525000 88.921875 30.322804
37.600000 87.718750 30.322804
37.275000 86.421875 30.322804
37.075000 85.328125 30.322804
37.175000 84.296875 30.322804
37.150000 82.812500 30.322804
37.475000 82.078125 30.322804
38.100000 80.781250 30.322804
38.700000 79.609375 30.322804
38.750000 78.625000 30.322804
38.625000 77.140625 30.322804
38.925000 75.937500 30.322804
37.700000 89.015625 30.476935
37.375000 88.218750 30.476935
37.575000 86.781250 30.476935
37.925000 85.750000 30.476935
37.100000 83.359375 30.476935
37.375000 82.078125 30.476935
37.900000 81.328125 30.476935
38.225000 80.187500 30.476935
38.350000 79.093750 30.476935
38.475000 77.734375 30.476935
38.675000 76.625000 30.476935
37.375000 89.718750 30.633472
37.300000 88.906250 30.633472
37.500000 87.656250 30.633472
37.300000 84.156250 30.633472
37.175000 82.953125 30.633472
37.475000 81.781250 30.633472
38.000000 80.750000 30.633472
38.225000 79.781250 30.633472
38.275000 78.437500 30.633472
38.525000 77.343750 30.633472
38.900000 76.078125 30.633472
37.725000 89.890625 30.789956
37.450000 88.625000 30.789956
37.400000 87.406250 30.789956
37.425000 86.062500 30.789956
37.700000 85.062500 30.789956
37.550000 83.687500 30.789956
37.250000 82.484375 30.789956
37.675000 81.625000 30.789956
38.000000 80.500000 30.789956
38.075000 79.453125 30.789956
38.225000 78.343750 30.789956
38.500000 77.156250 30.789956
39.050000 75.984375 30.789956
37.700000 89.546875 30.946346
37.425000 88.406250 30.946346
37.375000 87.218750 30.946346
37.425000 86.250000 30.946346
37.450000 85.078125 30.946346
37.425000 83.671875 30.946346
37.400000 82.953125 30.946346
37.675000 81.375000 30.946346
37.950000 80.187500 30.946346
38.025000 79.171875 30.946346
38.200000 78.218750 30.946346
38.375000 77.062500 30.946346
38.900000 75.718750 30.946346
37.375000 87.234375 31.102767
37.425000 86.062500 31.102767
37.400000 84.625000 31.102767
37.425000 83.421875 31.102767
37.725000 82.515625 31.102767
37.800000 81.343750 31.102767
37.750000 80.109375 31.102767
37.975000 78.906250 31.102767
38.175000 77.671875 31.102767
38.500000 76.781250 31.102767
37.250000 89.984375 31.258107
37.100000 88.921875 31.258107
37.325000 87.593750 31.258107
37.375000 86.453125 31.258107
37.400000 85.015625 31.258107
37.400000 84.109375 31.258107
37.525000 83.000000 31.258107
37.550000 81.812500 31.258107
37.525000 80.437500 31.258107
37.700000 79.296875 31.258107
37.975000 78.546875 31.258107
38.250000 77.015625 31.258107
38.600000 76.218750 31.258107
37.500000 89.234375 31.414259
37.225000 88.437500 31.414259
37.300000 87.078125 31.414259
37.375000 86.015625 31.414259
37.400000 85.031250 31.414259
37.400000 83.515625 31.414259
37.700000 82.562500 31.414259
37.750000 81.359375 31.414259
37.650000 80.218750 31.414259
37.825000 79.140625 31.414259
38.025000 77.890625 31.414259
38.275000 76.609375 31.414259
38.850000 75.625000 31.414259
37.225000 89.718750 31.570074
37.100000 88.953125 31.570074
37.325000 87.843750 31.570074
37.350000 86.359375 31.570074
37.375000 85.125000 31.570074
37.375000 84.156250 31.570074
37.525000 82.812500 31.570074
37.550000 81.750000 31.570074
37.500000 80.671875 31.570074
37.675000 79.437500 31.570074
37.850000 78.171875 31.570074
38.125000 77.328125 31.570074
38.475000 75.843750 31.570074
37.375000 89.703125 31.727559
37.225000 88.218750 31.727559
37.325000 87.484375 31.727559
37.375000 86.359375 31.727559
37.400000 84.828125 31.727559
37.400000 84.015625 31.727559
37.725000 82.718750 31.727559
37.875000 81.468750 31.727559
37.675000 80.140625 31.727559
37.725000 79.421875 31.727559
37.925000 78.296875 31.727559
38.150000 76.953125 31.727559
38.575000 75.890625 31.727559
37.350000 89.359375 31.881489
37.250000 87.890625 31.881489
37.375000 86.859375 31.881489
37.375000 85.609375 31.881489
37.375000 84.640625 31.881489
37.475000 83.250000 31.881489
37.500000 82.312500 31.881489
37.475000 80.890625 31.881489
37.575000 79.750000 31.881489
37.775000 78.890625 31.881489
38.000000 77.703125 31.881489
37.275000 88.750000 32.036052
37.325000 87.531250 32.036052
37.350000 86.531250 32.036052
37.350000 85.281250 32.036052
37.375000 84.218750 32.036052
37.650000 82.968750 32.036052
37.675000 81.515625 32.036052
37.500000 80.781250 32.036052
37.675000 79.671875 32.036052
37.850000 78.390625 32.036052
38.050000 77.312500 32.036052
38.400000 76.031250 32.036052
37.350000 88.312500 32.190857
37.350000 87.296875 32.190857
37.375000 86.515625 32.190857
37.400000 84.859375 32.190857
37.425000 84.015625 32.190857
37.725000 82.734375 32.190857
37.875000 81.531250 32.190857
37.650000 80.593750 32.190857
37.725000 79.312500 32.190857
37.925000 78.218750 32.190857
38.125000 76.937500 32.190857
38.550000 75.828125 32.190857
37.325000 87.125000 32.348494
37.350000 86.093750 32.348494
37.375000 84.718750 32.348494
37.425000 83.593750 32.348494
37.500000 82.203125 32.348494
37.575000 81.359375 32.348494
37.675000 79.906250 32.348494
37.875000 78.953125 32.348494
38.075000 78.000000 32.348494
38.225000 76.640625 32.348494
38.825000 75.609375 32.348494
37.350000 86.921875 32.503536
37.375000 85.968750 32.503536
37.400000 84.781250 32.503536
37.575000 83.562500 32.503536
37.575000 82.312500 32.503536
37.500000 80.953125 32.503536
37.600000 79.796875 32.503536
37.775000 78.546875 32.503536
38.000000 77.718750 32.503536
38.225000 76.546875 32.503536
37.650000 89.562500 32.661397
37.225000 88.203125 32.661397
37.325000 87.281250 32.661397
37.375000 86.265625 32.661397
37.400000 84.609375 32.661397
37.475000 83.921875 32.661397
37.600000 82.406250 32.661397
37.575000 81.140625 32.661397
37.600000 80.156250 32.661397
37.800000 79.171875 32.661397
38.000000 78.046875 32.661397
38.225000 76.515625 32.661397
38.675000 75.484375 32.661397
37.600000 90.031250 32.818584
37.275000 88.812500 32.818584
37.350000 87.484375 32.818584
37.350000 86.187500 32.818584
37.375000 85.250000 32.818584
37.400000 83.812500 32.818584
37.725000 82.859375 32.818584
37.750000 81.765625 32.818584
37.550000 80.484375 32.818584
37.700000 79.671875 32.818584
37.925000 78.296875 32.818584
38.100000 76.953125 32.818584
38.400000 75.968750 32.818584
37.325000 86.968750 32.975785
37.350000 85.796875 32.975785
37.375000 84.671875 32.975785
37.450000 83.593750 32.975785
37.600000 82.375000 32.975785
37.575000 81.250000 32.975785
37.575000 80.375000 32.975785
37.775000 78.843750 32.975785
38.025000 78.062500 32.975785
38.250000 77.000000 32.975785
38.725000 75.578125 32.975785
37.175000 90.031250 33.131037
37.100000 88.750000 33.131037
37.325000 87.859375 33.131037
37.375000 86.609375 33.131037
37.400000 85.359375 33.131037
37.400000 84.093750 33.131037
37.675000 82.906250 33.131037
37.725000 81.687500 33.131037
37.525000 80.578125 33.131037
37.700000 79.687500 33.131037
38.000000 78.421875 33.131037
38.175000 77.171875 33.131037
38.425000 76.203125 33.131037
37.525000 89.750000 33.286577
37.200000 88.328125 33.286577
37.325000 87.609375 33.286577
37.350000 86.296875 33.286577
37.400000 85.078125 33.286577
37.425000 84.000000 33.286577
37.725000 82.859375 33.286577
37.850000 81.765625 33.286577
37.650000 80.578125 33.286577
37.750000 79.328125 33.286577
37.950000 78.078125 33.286577
38.150000 76.890625 33.286577
38.575000 75.859375 33.286577
37.325000 87.062500 33.456512
37.350000 86.125000 33.456512
37.400000 84.796875 33.456512
37.475000 83.828125 33.456512
37.825000 82.515625 33.456512
37.825000 81.109375 33.456512
37.625000 80.421875 33.456512
37.900000 79.093750 33.456512
38.100000 78.125000 33.456512
38.250000 76.906250 33.456512
38.825000 75.625000 33.456512
37.375000 89.203125 33.598588
37.225000 88.281250 33.598588
37.325000 87.000000 33.598588
37.350000 85.781250 33.598588
37.400000 84.750000 33.598588
37.475000 83.718750 33.598588
37.825000 82.640625 33.598588
37.850000 81.281250 33.598588
37.650000 80.218750 33.598588
37.900000 78.937500 33.598588
38.175000 77.796875 33.598588
38.450000 76.781250 33.598588
39.050000 75.609375 33.598588
37.175000 89.890625 33.753692
37.075000 88.718750 33.753692
37.325000 87.812500 33.753692
37.350000 86.312500 33.753692
37.400000 85.046875 33.753692
37.525000 83.812500 33.753692
37.575000 82.921875 33.753692
37.875000 81.875000 33.753692
38.025000 80.687500 33.753692
37.975000 79.281250 33.753692
38.200000 78.218750 33.753692
38.350000 76.875000 33.753692
38.675000 76.171875 33.753692
37.375000 89.828125 33.912308
37.300000 88.968750 33.912308
37.325000 87.609375 33.912308
37.375000 86.578125 33.912308
37.375000 85.046875 33.912308
37.625000 84.328125 33.912308
37.675000 83.171875 33.912308
37.700000 82.031250 33.912308
37.925000 80.718750 33.912308
38.025000 79.281250 33.912308
38.225000 78.468750 33.912308
38.375000 77.000000 33.912308
38.775000 76.078125 33.912308
37.550000 89.875000 34.067733
37.450000 88.937500 34.067733
37.350000 87.562500 34.067733
37.500000 86.562500 34.067733
37.375000 85.609375 34.067733
37.500000 84.437500 34.067733
37.575000 82.921875 34.067733
37.575000 81.796875 34.067733
37.975000 80.906250 34.067733
38.150000 79.531250 34.067733
38.225000 78.437500 34.067733
38.450000 77.515625 34.067733
38.775000 76.515625 34.067733
37.650000 89.171875 34.223610
37.425000 88.140625 34.223610
37.450000 86.750000 34.223610
37.425000 83.234375 34.223610
37.450000 82.593750 34.223610
37.825000 81.421875 34.223610
38.150000 80.234375 34.223610
38.275000 78.796875 34.223610
38.400000 77.953125 34.223610
38.675000 76.781250 34.223610
37.650000 89.125000 34.394223
37.500000 88.359375 34.394223
37.550000 87.093750 34.394223
37.425000 83.703125 34.394223
37.425000 82.234375 34.394223
37.825000 81.281250 34.394223
38.200000 80.062500 34.394223
38.325000 78.890625 34.394223
38.450000 77.984375 34.394223
38.725000 76.625000 34.394223
37.575000 89.062500 34.535716
37.350000 88.000000 34.535716
37.625000 87.015625 34.535716
37.350000 85.593750 34.535716
37.075000 84.484375 34.535716
37.250000 83.546875 34.535716
37.525000 82.296875 34.535716
38.000000 81.312500 34.535716
38.375000 79.921875 34.535716
38.475000 78.875000 34.535716
38.600000 77.531250 34.535716
38.900000 76.421875 34.535716
37.675000 89.296875 34.705137
37.525000 88.062500 34.705137
37.650000 87.312500 34.705137
37.375000 85.984375 34.705137
37.325000 84.796875 34.705137
37.525000 83.875000 34.705137
37.475000 82.593750 34.705137
38.075000 79.265625 34.705137
38.575000 77.843750 34.705137
37.700000 88.703125 34.860630
37.675000 87.890625 34.860630
37.525000 84.078125 34.860630
37.400000 83.125000 34.860630
37.775000 82.031250 34.860630
38.325000 80.718750 34.860630
38.650000 79.593750 34.860630
38.725000 78.625000 34.860630
38.850000 77.062500 34.860630
39.250000 76.343750 34.860630
37.850000 89.109375 35.019647
37.575000 88.000000 35.019647
37.800000 86.687500 35.019647
37.950000 85.765625 35.019647
37.675000 84.531250 35.019647
37.325000 83.046875 35.019647
37.650000 82.265625 35.019647
38.400000 78.968750 35.019647
38.900000 77.515625 35.019647
39.125000 76.703125 35.019647
37.725000 88.656250 35.160613
37.800000 87.437500 35.160613
37.750000 84.078125 35.160613
37.725000 82.828125 35.160613
38.125000 81.765625 35.160613
38.700000 80.484375 35.160613
39.150000 79.437500 35.160613
39.075000 78.156250 35.160613
38.925000 77.062500 35.160613
39.300000 76.265625 35.160613
37.850000 89.062500 35.331945
37.625000 88.093750 35.331945
37.900000 87.218750 35.331945
38.025000 85.921875 35.331945
37.725000 84.812500 35.331945
37.700000 83.515625 35.331945
38.375000 82.125000 35.331945
38.800000 79.046875 35.331945
39.025000 77.812500 35.331945
39.225000 76.765625 35.331945
37.825000 88.687500 35.472669
37.975000 87.984375 35.472669
37.800000 84.140625 35.472669
39.250000 79.515625 35.472669
39.175000 78.390625 35.472669
39.100000 77.171875 35.472669
39.350000 76.265625 35.472669
38.025000 88.812500 35.642600
38.075000 87.484375 35.642600
37.900000 83.937500 35.642600
37.900000 82.875000 35.642600
38.425000 81.843750 35.642600
39.175000 80.562500 35.642600
39.400000 79.812500 35.642600
39.225000 78.500000 35.642600
39.175000 77.437500 35.642600
39.400000 75.984375 35.642600
38.025000 89.484375 35.799289
38.050000 88.625000 35.799289
38.150000 87.375000 35.799289
37.875000 85.953125 35.799289
37.575000 84.640625 35.799289
37.850000 83.593750 35.799289
38.475000 82.375000 35.799289
38.900000 78.937500 35.799289
39.175000 78.171875 35.799289
39.325000 76.765625 35.799289
38.450000 89.156250 35.953760
38.025000 88.015625 35.953760
38.175000 87.140625 35.953760
38.550000 86.015625 35.953760
38.250000 84.343750 35.953760
38.225000 81.171875 35.953760
39.100000 79.781250 35.953760
39.275000 78.687500 35.953760
39.250000 77.796875 35.953760
39.475000 76.640625 35.953760
37.900000 89.796875 36.112738
38.025000 88.734375 36.112738
38.250000 87.828125 36.112738
38.275000 86.656250 36.112738
38.150000 85.078125 36.112738
38.000000 84.250000 36.112738
38.250000 82.703125 36.112738
38.700000 81.703125 36.112738
39.275000 80.968750 36.112738
39.450000 79.656250 36.112738
39.200000 78.296875 36.112738
39.300000 77.125000 36.112738
39.650000 76.109375 36.112738
38.075000 89.375000 36.265373
38.100000 88.562500 36.265373
38.325000 87.500000 36.265373
38.225000 86.031250 36.265373
37.950000 84.671875 36.265373
37.950000 83.750000 36.265373
38.400000 82.593750 36.265373
39.125000 81.531250 36.265373
39.825000 80.250000 36.265373
39.650000 79.296875 36.265373
39.200000 78.078125 36.265373
38.425000 89.156250 36.423920
38.175000 88.203125 36.423920
38.425000 87.265625 36.423920
38.750000 85.937500 36.423920
37.950000 83.593750 36.423920
38.525000 82.437500 36.423920
39.075000 81.203125 36.423920
39.275000 80.296875 36.423920
39.225000 78.984375 36.423920
39.150000 77.859375 36.423920
39.375000 76.828125 36.423920
38.300000 89.062500 36.576468
38.400000 87.921875 36.576468
38.125000 84.546875 36.576468
38.100000 82.968750 36.576468
38.775000 82.062500 36.576468
39.350000 81.187500 36.576468
39.375000 79.859375 36.576468
39.125000 78.796875 36.576468
39.225000 77.437500 36.576468
39.600000 76.312500 36.576468
38.400000 89.984375 36.737566
38.500000 88.640625 36.737566
38.450000 87.687500 36.737566
38.575000 86.453125 36.737566
38.350000 84.953125 36.737566
38.000000 83.765625 36.737566
39.575000 79.328125 36.737566
39.150000 78.125000 36.737566
39.375000 77.281250 36.737566
39.875000 75.984375 36.737566
38.750000 89.781250 36.889288
38.725000 88.343750 36.889288
38.450000 87.296875 36.889288
38.750000 86.343750 36.889288
38.550000 84.828125 36.889288
38.050000 83.562500 36.889288
38.400000 82.593750 36.889288
39.125000 81.437500 36.889288
39.675000 80.515625 36.889288
39.500000 79.234375 36.889288
39.200000 77.937500 36.889288
39.500000 77.093750 36.889288
40.300000 75.796875 36.889288
38.450000 87.812500 37.051652
38.550000 86.953125 37.051652
38.850000 85.875000 37.051652
38.625000 84.328125 37.051652
38.375000 83.171875 37.051652
39.050000 82.265625 37.051652
39.525000 80.875000 37.051652
39.275000 79.921875 37.051652
39.075000 78.843750 37.051652
39.250000 77.265625 37.051652
39.625000 76.250000 37.051652
38.775000 88.515625 37.202303
38.525000 87.406250 37.202303
38.575000 86.578125 37.202303
38.675000 85.328125 37.202303
38.550000 83.812500 37.202303
38.650000 83.078125 37.202303
39.125000 81.921875 37.202303
39.725000 80.562500 37.202303
39.575000 79.609375 37.202303
39.125000 78.453125 37.202303
39.400000 77.296875 37.202303
39.900000 75.828125 37.202303
38.275000 89.515625 37.364284
38.250000 88.187500 37.364284
38.550000 87.000000 37.364284
38.675000 85.734375 37.364284
38.625000 84.609375 37.364284
38.625000 83.734375 37.364284
39.025000 82.359375 37.364284
39.400000 81.453125 37.364284
39.225000 80.031250 37.364284
39.075000 78.781250 37.364284
39.150000 77.656250 37.364284
39.475000 76.546875 37.364284
38.925000 88.468750 37.514904
38.600000 87.390625 37.514904
38.675000 86.312500 37.514904
38.825000 85.015625 37.514904
38.900000 84.125000 37.514904
38.875000 82.765625 37.514904
39.150000 81.687500 37.514904
39.475000 80.515625 37.514904
39.325000 79.593750 37.514904
39.125000 78.390625 37.514904
39.375000 77.265625 37.514904
39.875000 76.046875 37.514904
38.475000 88.328125 37.674826
38.725000 87.187500 37.674826
38.700000 85.781250 37.674826
38.650000 84.453125 37.674826
38.775000 83.218750 37.674826
39.150000 82.406250 37.674826
39.475000 81.078125 37.674826
39.225000 79.750000 37.674826
39.000000 78.906250 37.674826
39.250000 77.687500 37.674826
39.600000 76.343750 37.674826
39.000000 88.640625 37.827360
38.575000 87.375000 37.827360
38.700000 86.203125 37.827360
38.750000 85.171875 37.827360
38.800000 83.890625 37.827360
39.050000 82.859375 37.827360
39.325000 81.796875 37.827360
39.375000 80.375000 37.827360
39.200000 79.187500 37.827360
38.875000 78.234375 37.827360
39.150000 76.875000 37.827360
39.900000 75.781250 37.827360
38.450000 87.890625 37.987915
38.625000 86.625000 37.987915
38.750000 85.640625 37.987915
38.750000 84.546875 37.987915
38.825000 83.109375 37.987915
39.125000 81.953125 37.987915
39.400000 80.875000 37.987915
39.250000 79.875000 37.987915
39.050000 78.859375 37.987915
39.225000 77.359375 37.987915
39.625000 76.406250 37.987915
37.825000 89.171875 38.138467
38.400000 88.234375 38.138467
38.675000 87.156250 38.138467
38.675000 85.687500 38.138467
38.725000 84.765625 38.138467
38.825000 83.750000 38.138467
39.125000 82.500000 38.138467
39.450000 81.187500 38.138467
39.250000 80.156250 38.138467
39.050000 79.031250 38.138467
39.150000 77.828125 38.138467
39.500000 76.468750 38.138467
38.550000 87.687500 38.300061
38.750000 86.750000 38.300061
38.800000 85.343750 38.300061
38.775000 84.468750 38.300061
38.950000 83.390625 38.300061
39.225000 82.156250 38.300061
39.425000 80.984375 38.300061
39.300000 79.859375 38.300061
39.050000 78.468750 38.300061
39.225000 77.500000 38.300061
39.675000 76.125000 38.300061
39.025000 88.437500 38.450927
38.575000 87.390625 38.450927
38.700000 86.328125 38.450927
38.725000 85.000000 38.450927
38.800000 84.125000 38.450927
39.150000 82.703125 38.450927
39.425000 81.609375 38.450927
39.375000 80.437500 38.450927
39.175000 79.265625 38.450927
39.075000 78.359375 38.450927
39.350000 76.843750 38.450927
40.075000 76.062500 38.450927
38.575000 87.390625 38.613171
38.775000 86.390625 38.613171
38.800000 85.031250 38.613171
38.825000 84.062500 38.613171
39.150000 82.531250 38.613171
39.425000 81.375000 38.613171
39.250000 80.171875 38.613171
39.075000 79.140625 38.613171
39.150000 77.765625 38.613171
39.350000 76.796875 38.613171
39.050000 88.671875 38.762637
38.600000 87.390625 38.762637
38.775000 86.500000 38.762637
38.550000 85.265625 38.762637
38.400000 84.218750 38.762637
38.725000 82.750000 38.762637
39.150000 81.656250 38.762637
39.725000 80.531250 38.762637
39.550000 79.437500 38.762637
39.075000 78.171875 38.762637
39.325000 77.265625 38.762637
39.925000 75.765625 38.762637
38.975000 88.531250 38.925369
38.575000 87.546875 38.925369
38.750000 86.671875 38.925369
38.425000 85.078125 38.925369
38.225000 84.062500 38.925369
38.500000 83.046875 38.925369
38.925000 81.890625 38.925369
39.750000 80.843750 38.925369
39.575000 79.593750 38.925369
39.050000 78.406250 38.925369
39.300000 76.984375 38.925369
39.900000 75.859375 38.925369
38.975000 89.828125 39.074301
38.950000 88.296875 39.074301
38.425000 87.421875 39.074301
38.100000 85.906250 39.074301
37.850000 84.890625 39.074301
37.975000 83.687500 39.074301
38.400000 82.625000 39.074301
39.050000 81.390625 39.074301
39.425000 80.250000 39.074301
39.250000 79.140625 39.074301
39.100000 78.015625 39.074301
39.300000 77.015625 39.074301
38.475000 89.281250 39.229483
38.175000 88.203125 39.229483
38.500000 86.906250 39.229483
38.150000 85.796875 39.229483
37.750000 84.750000 39.229483
38.200000 83.718750 39.229483
38.800000 82.250000 39.229483
39.275000 81.328125 39.229483
39.225000 79.953125 39.229483
39.025000 79.078125 39.229483
39.100000 77.578125 39.229483
39.450000 76.734375 39.229483
38.275000 87.718750 39.385536
38.000000 86.171875 39.385536
37.625000 85.359375 39.385536
39.200000 79.593750 39.385536
39.025000 78.281250 39.385536
39.150000 77.187500 39.385536
39.525000 75.890625 39.385536
38.000000 89.031250 39.554898
37.975000 87.984375 39.554898
38.225000 86.906250 39.554898
37.875000 85.921875 39.554898
37.550000 84.875000 39.554898
37.825000 83.609375 39.554898
38.325000 82.484375 39.554898
38.925000 81.171875 39.554898
39.200000 80.281250 39.554898
39.125000 78.718750 39.554898
39.100000 77.656250 39.554898
39.250000 76.484375 39.554898
38.175000 89.171875 39.710243
37.975000 88.296875 39.710243
38.200000 87.109375 39.710243
37.850000 85.515625 39.710243
37.550000 84.640625 39.710243
37.850000 83.265625 39.710243
38.250000 82.453125 39.710243
38.825000 81.078125 39.710243
39.200000 80.000000 39.710243
39.125000 78.984375 39.710243
39.075000 77.859375 39.710243
39.125000 76.671875 39.710243
38.250000 89.578125 39.867165
38.275000 88.718750 39.867165
37.875000 87.406250 39.867165
37.825000 86.140625 39.867165
39.175000 79.421875 39.867165
39.025000 78.312500 39.867165
39.050000 77.125000 39.867165
39.450000 75.875000 39.867165
37.950000 89.312500 40.022638
37.850000 88.265625 40.022638
37.825000 87.046875 40.022638
37.425000 85.703125 40.022638
37.300000 84.859375 40.022638
37.675000 83.671875 40.022638
38.150000 82.328125 40.022638
38.650000 81.140625 40.022638
39.225000 79.953125 40.022638
39.225000 78.718750 40.022638
38.950000 77.500000 40.022638
39.025000 76.734375 40.022638
38.000000 89.890625 40.179807
37.950000 88.640625 40.179807
37.850000 87.484375 40.179807
38.175000 86.250000 40.179807
37.400000 83.828125 40.179807
37.975000 83.140625 40.179807
38.350000 81.656250 40.179807
38.825000 80.750000 40.179807
39.100000 79.218750 40.179807
39.000000 78.343750 40.179807
39.025000 77.062500 40.179807
39.325000 76.203125 40.179807
37.675000 89.546875 40.332680
37.550000 88.343750 40.332680
37.425000 84.656250 40.332680
37.100000 83.468750 40.332680
37.475000 82.453125 40.332680
38.225000 81.250000 40.332680
39.050000 80.312500 40.332680
39.225000 78.890625 40.332680
38.975000 78.093750 40.332680
38.975000 76.765625 40.332680
37.525000 88.875000 40.489646
37.675000 88.062500 40.489646
37.325000 86.359375 40.489646
36.950000 85.578125 40.489646
37.075000 84.187500 40.489646
37.175000 83.296875 40.489646
37.600000 82.265625 40.489646
38.275000 80.937500 40.489646
38.875000 79.812500 40.489646
38.925000 78.640625 40.489646
38.700000 77.515625 40.489646
38.975000 76.125000 40.489646
37.800000 89.046875 40.643687
37.650000 88.000000 40.643687
36.775000 85.734375 40.643687
37.050000 84.390625 40.643687
37.150000 83.203125 40.643687
37.475000 81.968750 40.643687
38.125000 81.156250 40.643687
38.900000 79.906250 40.643687
38.950000 78.859375 40.643687
38.675000 77.328125 40.643687
38.850000 76.406250 40.643687
37.900000 89.609375 40.801986
37.700000 88.218750 40.801986
37.600000 87.437500 40.801986
37.700000 86.062500 40.801986
37.350000 85.218750 40.801986
37.050000 83.703125 40.801986
37.250000 82.500000 40.801986
38.625000 78.125000 40.801986
38.600000 77.031250 40.801986
39.200000 75.828125 40.801986
37.750000 88.828125 40.956212
37.475000 87.718750 40.956212
37.300000 84.421875 40.956212
37.125000 82.984375 40.956212
37.450000 82.203125 40.956212
37.950000 81.125000 40.956212
38.250000 80.046875 40.956212
38.325000 78.687500 40.956212
38.500000 77.531250 40.956212
38.850000 76.500000 40.956212
37.275000 88.718750 41.117250
37.475000 87.921875 41.117250
37.325000 83.843750 41.117250
37.175000 83.187500 41.117250
37.500000 81.875000 41.117250
38.025000 80.500000 41.117250
38.250000 79.625000 41.117250
38.250000 78.609375 41.117250
38.425000 77.125000 41.117250
38.875000 76.390625 41.117250
37.800000 89.500000 41.269749
37.500000 88.500000 41.269749
37.500000 87.343750 41.269749
37.300000 85.953125 41.269749
37.525000 85.109375 41.269749
37.575000 83.687500 41.269749
37.275000 82.828125 41.269749
37.725000 81.593750 41.269749
38.025000 80.250000 41.269749
38.075000 78.921875 41.269749
38.325000 78.187500 41.269749
37.425000 87.296875 41.426538
37.425000 85.734375 41.426538
37.550000 84.828125 41.426538
37.525000 83.531250 41.426538
37.500000 82.375000 41.426538
37.700000 81.359375 41.426538
37.875000 80.109375 41.426538
38.025000 78.796875 41.426538
38.225000 77.718750 41.426538
38.550000 76.781250 41.426538
37.375000 87.015625 41.581221
37.425000 85.593750 41.581221
37.400000 84.312500 41.581221
37.400000 83.406250 41.581221
37.750000 82.359375 41.581221
37.850000 81.000000 41.581221
37.750000 79.859375 41.581221
37.950000 78.765625 41.581221
38.200000 77.390625 41.581221
38.500000 76.625000 41.581221
37.225000 88.890625 41.742324
37.325000 88.000000 41.742324
37.350000 86.578125 41.742324
37.375000 85.531250 41.742324
37.375000 84.046875 41.742324
37.450000 83.218750 41.742324
37.575000 81.859375 41.742324
37.600000 80.796875 41.742324
37.750000 79.453125 41.742324
37.975000 78.718750 41.742324
38.200000 77.171875 41.742324
38.550000 76.046875 41.742324
37.625000 89.250000 41.894614
37.225000 88.500000 41.894614
37.325000 87.015625 41.894614
37.350000 86.093750 41.894614
37.375000 85.000000 41.894614
37.375000 83.484375 41.894614
37.700000 82.593750 41.894614
37.750000 81.656250 41.894614
37.625000 80.406250 41.894614
37.825000 79.000000 41.894614
38.025000 77.718750 41.894614
38.275000 76.984375 41.894614
38.850000 75.656250 41.894614
37.200000 88.609375 42.052438
37.300000 87.687500 42.052438
37.350000 86.843750 42.052438
37.375000 85.625000 42.052438
37.375000 84.265625 42.052438
37.550000 83.046875 42.052438
37.625000 81.921875 42.052438
37.575000 81.000000 42.052438
37.725000 79.375000 42.052438
37.950000 78.625000 42.052438
38.150000 77.328125 42.052438
38.475000 76.296875 42.052438
37.400000 89.453125 42.206372
37.200000 88.328125 42.206372
37.325000 87.375000 42.206372
37.350000 86.375000 42.206372
37.375000 85.109375 42.206372
37.375000 84.000000 42.206372
37.675000 82.828125 42.206372
37.750000 81.578125 42.206372
37.600000 80.468750 42.206372
37.800000 79.171875 42.206372
38.000000 77.890625 42.206372
38.250000 77.046875 42.206372
38.700000 75.625000 42.206372
37.300000 89.687500 42.367245
37.200000 88.312500 42.367245
37.325000 87.328125 42.367245
37.350000 86.000000 42.367245
37.350000 84.781250 42.367245
37.375000 83.906250 42.367245
37.675000 82.515625 42.367245
37.725000 81.390625 42.367245
37.600000 80.437500 42.367245
37.775000 78.906250 42.367245
37.975000 77.718750 42.367245
38.200000 76.890625 42.367245
38.675000 75.703125 42.367245
37.275000 89.468750 42.518411
37.200000 88.375000 42.518411
37.325000 87.500000 42.518411
37.325000 86.078125 42.518411
37.325000 84.796875 42.518411
37.400000 83.828125 42.518411
37.700000 82.671875 42.518411
37.825000 81.765625 42.518411
37.675000 80.437500 42.518411
37.750000 79.375000 42.518411
37.950000 78.171875 42.518411
38.175000 76.750000 42.518411
38.550000 75.765625 42.518411
37.300000 87.968750 42.678326
37.350000 86.890625 42.678326
37.375000 85.328125 42.678326
37.375000 84.265625 42.678326
37.550000 83.343750 42.678326
37.575000 81.921875 42.678326
37.500000 81.046875 42.678326
37.700000 79.796875 42.678326
37.950000 78.296875 42.678326
38.150000 77.281250 42.678326
38.300000 76.421875 42.678326
37.400000 87.125000 42.831254
37.400000 86.140625 42.831254
37.400000 84.531250 42.831254
37.500000 83.500000 42.831254
37.550000 82.421875 42.831254
37.575000 81.390625 42.831254
37.650000 80.359375 42.831254
37.775000 78.984375 42.831254
37.950000 77.828125 42.831254
38.175000 76.796875 42.831254
38.750000 75.640625 42.831254
37.675000 88.828125 42.991755
37.375000 87.984375 42.991755
37.350000 86.343750 42.991755
37.400000 85.328125 42.991755
37.400000 84.187500 42.991755
37.675000 82.921875 42.991755
37.675000 81.750000 42.991755
37.500000 80.765625 42.991755
37.700000 79.812500 42.991755
37.900000 78.593750 42.991755
38.100000 77.125000 42.991755
38.425000 76.046875 42.991755
37.800000 89.546875 43.142383
37.375000 88.468750 43.142383
37.350000 87.437500 43.142383
37.350000 86.390625 43.142383
37.400000 85.359375 43.142383
37.450000 83.718750 43.142383
37.750000 82.718750 43.142383
37.850000 81.484375 43.142383
37.650000 80.484375 43.142383
37.750000 79.468750 43.142383
37.925000 78.296875 43.142383
38.125000 77.125000 43.142383
38.475000 75.890625 43.142383
37.975000 89.734375 43.306138
37.350000 88.437500 43.306138
37.325000 87.578125 43.306138
37.350000 86.328125 43.306138
37.350000 84.984375 43.306138
37.400000 84.000000 43.306138
37.675000 82.640625 43.306138
37.775000 81.750000 43.306138
37.625000 80.343750 43.306138
37.750000 79.031250 43.306138
37.950000 78.250000 43.306138
38.150000 76.671875 43.306138
38.525000 75.593750 43.306138
37.325000 87.500000 43.453367
37.350000 86.343750 43.453367
37.375000 84.687500 43.453367
37.400000 83.937500 43.453367
37.575000 82.437500 43.453367
37.625000 81.343750 43.453367
37.575000 80.281250 43.453367
37.775000 79.125000 43.453367
38.000000 78.125000 43.453367
38.200000 76.984375 43.453367
38.650000 75.484375 43.453367
37.375000 87.062500 43.616480
37.375000 85.812500 43.616480
37.400000 84.921875 43.616480
37.500000 83.656250 43.616480
37.550000 82.171875 43.616480
37.575000 81.406250 43.616480
37.650000 80.125000 43.616480
37.850000 78.718750 43.616480
38.075000 77.718750 43.616480
37.350000 86.921875 43.765887
37.375000 85.765625 43.765887
37.400000 84.609375 43.765887
37.500000 83.359375 43.765887
37.725000 82.359375 43.765887
37.725000 80.984375 43.765887
37.625000 80.093750 43.765887
37.850000 79.015625 43.765887
38.100000 77.921875 43.765887
37.350000 86.859375 43.929401
37.375000 85.796875 43.929401
37.400000 84.718750 43.929401
37.475000 83.390625 43.929401
37.800000 82.343750 43.929401
37.775000 80.906250 43.929401
37.700000 80.140625 43.929401
37.925000 78.750000 43.929401
38.075000 77.593750 43.929401
38.375000 76.640625 43.929401
37.325000 89.671875 44.081523
37.100000 88.500000 44.081523
37.350000 87.406250 44.081523
37.350000 86.375000 44.081523
37.400000 85.312500 44.081523
37.450000 83.937500 44.081523
37.575000 82.734375 44.081523
37.675000 81.390625 44.081523
37.650000 80.453125 44.081523
37.850000 79.390625 44.081523
38.125000 78.203125 44.081523
38.250000 77.234375 44.081523
38.600000 75.750000 44.081523
37.425000 89.000000 44.239790
37.200000 87.796875 44.239790
37.350000 86.625000 44.239790
37.400000 85.859375 44.239790
37.425000 84.421875 44.239790
37.575000 83.390625 44.239790
37.875000 82.015625 44.239790
