37.250000 12.625000 5.455160
37.450000 14.265625 5.455160
36.450000 3.156250 5.608543
36.500000 4.359375 5.608543
36.525000 5.437500 5.608543
36.625000 6.671875 5.608543
36.650000 8.203125 5.608543
36.650000 9.093750 5.608543
36.800000 10.312500 5.608543
36.950000 11.687500 5.608543
37.175000 12.875000 5.608543
37.425000 13.828125 5.608543
38.050000 14.734375 5.608543
36.675000 0.484375 5.764595
36.375000 2.109375 5.764595
36.425000 3.203125 5.764595
36.525000 3.953125 5.764595
36.500000 5.375000 5.764595
36.500000 6.375000 5.764595
36.550000 7.578125 5.764595
36.725000 8.906250 5.764595
36.875000 10.156250 5.764595
36.900000 11.328125 5.764595
37.175000 12.250000 5.764595
37.375000 13.234375 5.764595
37.675000 14.281250 5.764595
36.675000 0.843750 5.919736
36.375000 2.031250 5.919736
36.425000 2.781250 5.919736
36.500000 4.046875 5.919736
36.600000 5.625000 5.919736
36.375000 6.359375 5.919736
36.250000 7.625000 5.919736
36.575000 8.640625 5.919736
36.850000 10.265625 5.919736
37.000000 11.218750 5.919736
37.150000 12.406250 5.919736
37.425000 13.359375 5.919736
37.900000 14.687500 5.919736
36.575000 1.203125 6.076502
36.400000 2.078125 6.076502
36.500000 3.453125 6.076502
36.575000 4.640625 6.076502
37.050000 5.375000 6.076502
36.225000 8.203125 6.076502
36.550000 8.890625 6.076502
36.900000 10.015625 6.076502
37.200000 11.390625 6.076502
37.400000 12.343750 6.076502
37.575000 13.687500 6.076502
38.100000 15.031250 6.076502
36.525000 3.390625 6.230824
36.475000 4.578125 6.230824
36.450000 5.671875 6.230824
36.350000 7.093750 6.230824
36.250000 8.078125 6.230824
36.525000 9.375000 6.230824
36.925000 10.296875 6.230824
37.200000 11.609375 6.230824
37.350000 12.718750 6.230824
36.600000 0.890625 6.391323
36.300000 2.156250 6.391323
36.525000 3.265625 6.391323
36.450000 4.468750 6.391323
36.125000 5.718750 6.391323
36.050000 7.062500 6.391323
36.250000 8.156250 6.391323
36.675000 9.125000 6.391323
37.050000 10.437500 6.391323
37.200000 11.484375 6.391323
37.350000 12.609375 6.391323
36.575000 0.921875 6.532362
36.450000 1.859375 6.532362
36.575000 2.953125 6.532362
36.350000 6.328125 6.532362
36.175000 7.515625 6.532362
36.825000 10.890625 6.532362
37.450000 12.375000 6.532362
37.625000 13.328125 6.532362
38.025000 14.671875 6.532362
36.550000 0.125000 6.687841
36.425000 1.718750 6.687841
36.550000 2.531250 6.687841
36.375000 6.343750 6.687841
36.225000 7.140625 6.687841
36.575000 8.468750 6.687841
37.000000 9.406250 6.687841
37.250000 10.578125 6.687841
37.425000 12.203125 6.687841
37.625000 13.109375 6.687841
37.925000 14.484375 6.687841
36.425000 1.328125 6.857658
36.525000 2.625000 6.857658
36.725000 3.656250 6.857658
37.000000 4.578125 6.857658
36.650000 6.046875 6.857658
36.150000 7.140625 6.857658
36.525000 8.156250 6.857658
37.125000 9.390625 6.857658
37.475000 10.640625 6.857658
37.575000 11.828125 6.857658
37.650000 12.687500 6.857658
37.875000 14.281250 6.857658
36.800000 1.031250 7.000755
36.525000 2.421875 7.000755
36.800000 3.328125 7.000755
36.800000 4.687500 7.000755
36.475000 5.640625 7.000755
36.300000 6.875000 7.000755
36.750000 7.906250 7.000755
37.300000 9.375000 7.000755
37.750000 10.406250 7.000755
37.825000 11.390625 7.000755
37.750000 12.859375 7.000755
37.950000 14.109375 7.000755
36.750000 0.953125 7.170060
36.675000 1.890625 7.170060
36.825000 3.312500 7.170060
36.525000 4.718750 7.170060
36.200000 5.703125 7.170060
36.500000 6.750000 7.170060
37.125000 7.890625 7.170060
37.625000 11.468750 7.170060
37.800000 12.296875 7.170060
36.400000 0.265625 7.312892
36.450000 1.656250 7.312892
36.800000 2.453125 7.312892
36.650000 6.484375 7.312892
36.800000 9.750000 7.312892
37.625000 10.578125 7.312892
37.925000 12.203125 7.312892
37.900000 12.875000 7.312892
38.200000 14.093750 7.312892
36.675000 1.187500 7.482458
36.800000 2.812500 7.482458
36.650000 5.968750 7.482458
37.950000 12.984375 7.482458
38.150000 14.218750 7.482458
36.750000 1.421875 7.624331
36.900000 2.250000 7.624331
36.650000 5.921875 7.624331
37.900000 13.171875 7.624331
38.100000 13.968750 7.624331
36.725000 1.328125 7.777831
36.900000 2.718750 7.777831
36.975000 3.390625 7.777831
37.425000 4.671875 7.777831
38.025000 12.765625 7.777831
38.200000 14.078125 7.777831
36.550000 0.078125 7.935178
36.725000 1.546875 7.935178
36.925000 2.875000 7.935178
36.975000 3.828125 7.935178
37.475000 4.765625 7.935178
36.775000 7.453125 7.935178
37.300000 8.250000 7.935178
37.825000 12.062500 7.935178
38.125000 12.968750 7.935178
38.300000 14.093750 7.935178
36.875000 0.312500 8.089960
36.900000 1.468750 8.089960
37.000000 2.937500 8.089960
36.950000 4.078125 8.089960
36.750000 5.234375 8.089960
36.600000 6.531250 8.089960
36.750000 7.406250 8.089960
37.275000 8.718750 8.089960
37.875000 9.843750 8.089960
38.200000 10.703125 8.089960
38.100000 12.250000 8.089960
38.075000 13.234375 8.089960
38.275000 14.562500 8.089960
37.050000 0.343750 8.246719
37.075000 1.812500 8.246719
37.075000 2.656250 8.246719
36.825000 4.218750 8.246719
36.600000 5.500000 8.246719
36.625000 6.328125 8.246719
36.925000 7.734375 8.246719
37.550000 8.500000 8.246719
38.225000 9.765625 8.246719
38.300000 10.984375 8.246719
38.025000 12.218750 8.246719
38.100000 13.437500 8.246719
38.425000 14.421875 8.246719
37.025000 0.718750 8.401448
37.050000 1.859375 8.401448
37.075000 2.640625 8.401448
36.925000 4.000000 8.401448
36.675000 5.296875 8.401448
36.575000 6.484375 8.401448
36.875000 7.343750 8.401448
37.550000 8.468750 8.401448
38.200000 9.890625 8.401448
38.200000 11.234375 8.401448
37.950000 12.500000 8.401448
38.075000 13.203125 8.401448
38.425000 14.609375 8.401448
37.050000 0.546875 8.559450
37.075000 1.890625 8.559450
37.100000 2.656250 8.559450
37.200000 3.828125 8.559450
36.950000 5.046875 8.559450
36.700000 6.375000 8.559450
38.175000 11.125000 8.559450
37.850000 12.171875 8.559450
38.000000 13.171875 8.559450
38.425000 14.437500 8.559450
37.175000 0.312500 8.711097
37.150000 1.500000 8.711097
37.175000 2.484375 8.711097
37.300000 3.640625 8.711097
37.150000 4.968750 8.711097
36.850000 6.515625 8.711097
38.250000 10.812500 8.711097
37.900000 12.203125 8.711097
38.025000 13.421875 8.711097
38.400000 14.312500 8.711097
37.175000 0.312500 8.872215
37.250000 1.156250 8.872215
37.175000 2.515625 8.872215
37.225000 3.453125 8.872215
37.400000 4.750000 8.872215
37.225000 6.000000 8.872215
37.100000 7.171875 8.872215
37.600000 8.359375 8.872215
38.200000 9.125000 8.872215
38.200000 10.343750 8.872215
37.875000 11.890625 8.872215
38.000000 12.875000 8.872215
38.375000 13.890625 8.872215
37.275000 0.359375 9.027781
37.200000 1.515625 9.027781
37.175000 2.515625 9.027781
37.225000 3.875000 9.027781
37.550000 4.593750 9.027781
37.475000 6.109375 9.027781
37.275000 7.265625 9.027781
37.775000 8.453125 9.027781
38.300000 9.546875 9.027781
38.150000 10.937500 9.027781
37.800000 12.062500 9.027781
37.925000 12.968750 9.027781
38.325000 14.000000 9.027781
37.250000 0.187500 9.182743
37.200000 1.359375 9.182743
37.175000 2.390625 9.182743
37.225000 3.859375 9.182743
37.450000 4.703125 9.182743
37.400000 6.281250 9.182743
37.325000 7.109375 9.182743
37.775000 8.156250 9.182743
38.300000 9.578125 9.182743
38.150000 10.546875 9.182743
37.775000 11.828125 9.182743
37.925000 12.953125 9.182743
38.325000 14.171875 9.182743
37.100000 0.203125 9.338615
37.125000 1.265625 9.338615
37.200000 2.375000 9.338615
37.225000 3.562500 9.338615
37.300000 4.625000 9.338615
37.350000 5.843750 9.338615
37.500000 6.906250 9.338615
37.850000 8.156250 9.338615
38.300000 9.468750 9.338615
38.200000 10.421875 9.338615
37.825000 12.031250 9.338615
37.950000 13.062500 9.338615
38.350000 14.250000 9.338615
37.175000 -0.046875 9.493407
37.100000 1.343750 9.493407
37.200000 2.593750 9.493407
37.325000 3.609375 9.493407
37.375000 4.781250 9.493407
37.350000 5.671875 9.493407
37.500000 6.812500 9.493407
37.850000 8.343750 9.493407
38.300000 9.203125 9.493407
38.175000 10.593750 9.493407
37.775000 11.656250 9.493407
37.950000 12.921875 9.493407
38.375000 14.031250 9.493407
37.000000 0.953125 9.650609
37.125000 2.046875 9.650609
37.325000 3.062500 9.650609
37.400000 4.187500 9.650609
37.400000 5.687500 9.650609
37.525000 6.859375 9.650609
37.825000 7.640625 9.650609
38.200000 9.156250 9.650609
38.075000 10.296875 9.650609
37.700000 11.531250 9.650609
37.725000 12.578125 9.650609
38.125000 13.609375 9.650609
37.500000 1.062500 9.806911
37.375000 1.828125 9.806911
37.350000 3.031250 9.806911
37.475000 4.203125 9.806911
37.450000 5.375000 9.806911
37.525000 6.750000 9.806911
37.825000 7.609375 9.806911
38.200000 8.687500 9.806911
38.050000 10.265625 9.806911
37.725000 11.375000 9.806911
37.800000 12.531250 9.806911
37.350000 3.187500 9.961994
37.450000 4.203125 9.961994
37.450000 5.562500 9.961994
37.450000 6.265625 9.961994
37.750000 7.828125 9.961994
38.175000 8.718750 9.961994
38.150000 10.093750 9.961994
37.800000 11.296875 9.961994
37.825000 12.156250 9.961994
38.075000 13.687500 9.961994
38.650000 14.796875 9.961994
37.325000 2.875000 10.118477
37.450000 3.968750 10.118477
37.450000 5.187500 10.118477
37.450000 6.750000 10.118477
37.800000 7.640625 10.118477
38.250000 8.687500 10.118477
38.075000 10.156250 10.118477
37.750000 11.328125 10.118477
37.850000 12.468750 10.118477
37.350000 3.171875 10.274198
37.425000 4.140625 10.274198
37.425000 5.140625 10.274198
37.525000 6.593750 10.274198
37.900000 7.437500 10.274198
38.250000 8.593750 10.274198
38.075000 10.031250 10.274198
37.750000 11.484375 10.274198
37.825000 12.281250 10.274198
38.175000 13.609375 10.274198
38.775000 14.750000 10.274198
37.325000 2.875000 10.429599
37.575000 4.093750 10.429599
37.475000 5.468750 10.429599
37.325000 6.796875 10.429599
37.800000 8.000000 10.429599
38.275000 8.671875 10.429599
38.150000 10.046875 10.429599
37.800000 11.109375 10.429599
37.775000 12.500000 10.429599
38.125000 13.734375 10.429599
37.250000 0.078125 10.588844
37.075000 1.328125 10.588844
37.200000 2.484375 10.588844
37.350000 3.375000 10.588844
37.050000 4.828125 10.588844
36.875000 5.640625 10.588844
37.150000 7.281250 10.588844
37.625000 8.187500 10.588844
38.225000 9.343750 10.588844
38.100000 10.750000 10.588844
37.800000 11.765625 10.588844
37.900000 13.125000 10.588844
38.250000 14.156250 10.588844
37.275000 2.906250 10.742245
37.000000 4.187500 10.742245
36.575000 5.390625 10.742245
38.175000 11.328125 10.742245
37.825000 12.125000 10.742245
37.975000 13.468750 10.742245
38.625000 14.296875 10.742245
37.000000 0.125000 10.897801
36.975000 1.406250 10.897801
37.075000 2.140625 10.897801
37.400000 3.171875 10.897801
36.525000 5.859375 10.897801
37.025000 7.093750 10.897801
37.700000 7.843750 10.897801
38.325000 9.406250 10.897801
38.325000 10.390625 10.897801
37.900000 11.468750 10.897801
37.825000 12.796875 10.897801
38.175000 14.156250 10.897801
37.075000 2.812500 11.055252
36.750000 4.203125 11.055252
36.425000 5.109375 11.055252
38.175000 10.828125 11.055252
37.850000 12.187500 11.055252
38.000000 13.390625 11.055252
38.575000 14.359375 11.055252
37.000000 0.875000 11.208040
37.050000 1.984375 11.208040
37.375000 3.203125 11.208040
36.475000 5.687500 11.208040
36.825000 7.187500 11.208040
37.325000 8.093750 11.208040
38.050000 9.000000 11.208040
38.225000 10.328125 11.208040
37.900000 11.500000 11.208040
37.900000 12.546875 11.208040
38.250000 13.890625 11.208040
37.325000 0.250000 11.364806
37.350000 1.609375 11.364806
36.875000 2.968750 11.364806
36.550000 3.953125 11.364806
38.150000 11.093750 11.364806
37.850000 12.109375 11.364806
38.000000 13.390625 11.364806
38.450000 14.296875 11.364806
36.850000 2.312500 11.520778
36.975000 3.562500 11.520778
36.650000 4.593750 11.520778
36.400000 5.625000 11.520778
36.725000 6.671875 11.520778
37.175000 8.187500 11.520778
37.800000 9.312500 11.520778
38.200000 10.343750 11.520778
38.100000 11.390625 11.520778
37.975000 12.796875 11.520778
38.050000 13.671875 11.520778
36.900000 2.812500 11.665324
37.175000 3.765625 11.665324
36.225000 6.390625 11.665324
36.625000 7.484375 11.665324
37.075000 8.375000 11.665324
37.875000 9.609375 11.665324
38.200000 10.890625 11.665324
38.025000 11.937500 11.665324
37.975000 13.140625 11.665324
38.150000 14.031250 11.665324
37.100000 0.093750 11.821543
37.125000 1.593750 11.821543
36.875000 2.718750 11.821543
36.975000 3.531250 11.821543
36.475000 5.343750 11.821543
36.200000 6.062500 11.821543
36.700000 7.312500 11.821543
38.025000 11.734375 11.821543
37.950000 13.218750 11.821543
38.100000 14.187500 11.821543
36.850000 0.046875 11.987992
36.875000 1.578125 11.987992
36.825000 2.265625 11.987992
36.575000 3.671875 11.987992
36.100000 4.656250 11.987992
36.050000 5.843750 11.987992
36.425000 7.156250 11.987992
38.000000 11.953125 11.987992
37.850000 12.890625 11.987992
38.075000 14.140625 11.987992
36.925000 0.421875 12.131384
36.825000 1.906250 12.131384
36.825000 3.078125 12.131384
37.025000 4.078125 12.131384
36.050000 6.187500 12.131384
36.325000 7.500000 12.131384
38.000000 11.953125 12.131384
37.850000 13.312500 12.131384
38.175000 14.281250 12.131384
36.675000 0.546875 12.298023
36.575000 1.796875 12.298023
36.350000 5.328125 12.298023
36.050000 6.906250 12.298023
36.325000 8.015625 12.298023
37.900000 12.250000 12.298023
36.850000 0.265625 12.456431
36.875000 1.656250 12.456431
36.850000 2.703125 12.456431
36.475000 4.140625 12.456431
36.075000 5.187500 12.456431
36.075000 6.281250 12.456431
36.150000 7.281250 12.456431
38.000000 11.890625 12.456431
37.725000 13.140625 12.456431
37.950000 14.343750 12.456431
36.975000 0.734375 12.610977
36.550000 1.984375 12.610977
36.775000 2.953125 12.610977
37.025000 4.359375 12.610977
36.050000 6.656250 12.610977
36.325000 8.078125 12.610977
37.850000 12.343750 12.610977
36.750000 0.375000 12.755067
36.625000 1.468750 12.755067
36.625000 2.656250 12.755067
36.375000 6.453125 12.755067
36.150000 7.375000 12.755067
36.800000 10.937500 12.755067
37.425000 12.125000 12.755067
37.600000 13.000000 12.755067
37.950000 14.296875 12.755067
36.725000 3.156250 12.909307
36.600000 4.437500 12.909307
36.300000 5.906250 12.909307
36.175000 6.656250 12.909307
36.325000 7.859375 12.909307
36.775000 9.046875 12.909307
37.175000 10.234375 12.909307
37.325000 11.515625 12.909307
37.500000 12.750000 12.909307
37.750000 13.656250 12.909307
36.600000 0.546875 13.066205
36.450000 1.750000 13.066205
36.600000 2.750000 13.066205
36.700000 4.078125 13.066205
36.900000 4.796875 13.066205
36.675000 6.187500 13.066205
36.350000 7.718750 13.066205
36.625000 8.656250 13.066205
36.975000 9.734375 13.066205
37.200000 11.046875 13.066205
37.400000 12.093750 13.066205
37.550000 12.984375 13.066205
37.950000 14.281250 13.066205
36.525000 1.562500 13.232545
36.425000 2.421875 13.232545
36.575000 3.390625 13.232545
36.525000 4.781250 13.232545
36.550000 5.937500 13.232545
36.600000 7.328125 13.232545
36.650000 8.093750 13.232545
36.825000 9.453125 13.232545
37.000000 10.656250 13.232545
37.225000 11.562500 13.232545
37.425000 13.156250 13.232545
37.800000 14.031250 13.232545
36.600000 0.656250 13.375070
36.425000 1.375000 13.375070
36.475000 2.640625 13.375070
36.525000 4.109375 13.375070
36.550000 4.906250 13.375070
36.575000 6.421875 13.375070
36.650000 7.515625 13.375070
36.775000 8.765625 13.375070
36.850000 9.968750 13.375070
37.025000 10.906250 13.375070
37.325000 11.921875 13.375070
37.525000 13.031250 13.375070
37.925000 14.500000 13.375070
36.475000 3.000000 13.529617
36.575000 4.234375 13.529617
36.575000 5.890625 13.529617
36.575000 6.593750 13.529617
36.875000 7.796875 13.529617
36.925000 9.078125 13.529617
36.825000 10.250000 13.529617
37.075000 11.390625 13.529617
37.275000 12.531250 13.529617
36.375000 0.500000 13.685781
36.250000 1.546875 13.685781
36.450000 2.328125 13.685781
36.500000 3.609375 13.685781
36.475000 5.140625 13.685781
36.500000 5.890625 13.685781
36.675000 7.156250 13.685781
36.700000 8.562500 13.685781
36.725000 9.296875 13.685781
36.950000 10.828125 13.685781
37.150000 11.953125 13.685781
37.350000 12.781250 13.685781
37.675000 13.921875 13.685781
36.475000 3.093750 13.839485
36.550000 4.187500 13.839485
36.575000 5.390625 13.839485
36.575000 6.531250 13.839485
36.800000 7.703125 13.839485
36.850000 8.953125 13.839485
36.750000 10.375000 13.839485
36.975000 11.140625 13.839485
37.250000 12.468750 13.839485
37.500000 13.484375 13.839485
38.075000 14.937500 13.839485
36.525000 0.234375 13.998174
36.375000 1.421875 13.998174
36.475000 2.859375 13.998174
36.500000 3.578125 13.998174
36.525000 5.281250 13.998174
36.525000 6.140625 13.998174
36.675000 7.468750 13.998174
36.675000 8.765625 13.998174
36.675000 9.640625 13.998174
36.875000 10.703125 13.998174
37.075000 11.890625 13.998174
37.250000 13.421875 13.998174
37.600000 14.171875 13.998174
36.450000 3.500000 14.152230
36.525000 4.593750 14.152230
36.550000 5.453125 14.152230
36.575000 6.906250 14.152230
36.725000 7.796875 14.152230
36.775000 8.875000 14.152230
36.750000 10.078125 14.152230
36.975000 11.578125 14.152230
37.225000 12.406250 14.152230
37.475000 13.578125 14.152230
38.050000 14.906250 14.152230
36.375000 -0.031250 14.309962
36.250000 1.484375 14.309962
36.450000 2.343750 14.309962
36.475000 3.703125 14.309962
36.475000 4.921875 14.309962
36.500000 6.062500 14.309962
36.675000 6.921875 14.309962
36.700000 8.265625 14.309962
36.725000 9.484375 14.309962
36.875000 10.781250 14.309962
37.050000 11.968750 14.309962
37.300000 12.796875 14.309962
37.575000 14.234375 14.309962
36.550000 0.593750 14.462953
36.425000 1.718750 14.462953
36.500000 2.750000 14.462953
36.550000 4.390625 14.462953
36.575000 5.546875 14.462953
36.600000 6.734375 14.462953
36.900000 7.390625 14.462953
36.900000 8.843750 14.462953
36.650000 9.859375 14.462953
36.875000 11.093750 14.462953
37.075000 12.156250 14.462953
37.250000 13.218750 14.462953
37.675000 14.656250 14.462953
36.675000 1.265625 14.622727
36.400000 2.406250 14.622727
36.475000 3.375000 14.622727
36.575000 4.281250 14.622727
36.575000 5.875000 14.622727
36.675000 6.703125 14.622727
36.750000 8.156250 14.622727
36.700000 8.984375 14.622727
36.750000 10.203125 14.622727
36.975000 11.625000 14.622727
37.225000 12.718750 14.622727
36.975000 0.578125 14.773197
36.525000 1.531250 14.773197
36.475000 2.640625 14.773197
36.500000 3.703125 14.773197
36.550000 5.046875 14.773197
36.550000 6.312500 14.773197
36.900000 7.375000 14.773197
36.900000 8.390625 14.773197
36.650000 10.046875 14.773197
36.850000 10.796875 14.773197
37.050000 12.015625 14.773197
37.250000 13.281250 14.773197
37.575000 14.343750 14.773197
36.775000 0.500000 14.930817
36.525000 1.937500 14.930817
36.450000 2.953125 14.930817
36.500000 4.062500 14.930817
36.575000 5.531250 14.930817
36.600000 6.375000 14.930817
36.900000 7.421875 14.930817
36.925000 8.953125 14.930817
36.675000 9.734375 14.930817
36.825000 11.156250 14.930817
37.025000 12.531250 14.930817
37.250000 13.250000 14.930817
37.575000 14.562500 14.930817
36.750000 0.671875 15.088414
36.500000 2.093750 15.088414
36.475000 3.000000 15.088414
36.525000 4.375000 15.088414
36.550000 5.109375 15.088414
36.650000 6.562500 15.088414
36.850000 7.640625 15.088414
36.800000 8.953125 15.088414
36.650000 9.843750 15.088414
36.875000 11.109375 15.088414
37.125000 12.421875 15.088414
37.300000 13.640625 15.088414
37.650000 14.765625 15.088414
36.725000 1.296875 15.242010
36.425000 2.187500 15.242010
36.525000 3.156250 15.242010
36.550000 4.546875 15.242010
36.625000 5.515625 15.242010
36.750000 7.171875 15.242010
36.775000 8.296875 15.242010
36.725000 9.203125 15.242010
36.775000 10.718750 15.242010
37.000000 11.593750 15.242010
37.175000 12.859375 15.242010
37.100000 0.265625 15.400573
36.650000 1.609375 15.400573
36.475000 2.484375 15.400573
36.500000 3.796875 15.400573
36.550000 5.328125 15.400573
36.575000 6.078125 15.400573
36.900000 7.093750 15.400573
36.900000 8.750000 15.400573
36.625000 9.609375 15.400573
36.825000 10.765625 15.400573
37.050000 12.093750 15.400573
37.225000 13.078125 15.400573
37.550000 14.531250 15.400573
36.725000 0.921875 15.556290
36.400000 2.500000 15.556290
36.525000 3.421875 15.556290
36.575000 4.593750 15.556290
36.625000 5.625000 15.556290
36.750000 7.218750 15.556290
36.750000 8.109375 15.556290
36.675000 9.406250 15.556290
36.750000 10.234375 15.556290
36.975000 11.875000 15.556290
37.175000 12.593750 15.556290
37.100000 0.343750 15.713893
36.500000 1.859375 15.713893
36.450000 2.843750 15.713893
36.500000 4.312500 15.713893
36.525000 5.000000 15.713893
36.575000 6.453125 15.713893
36.800000 7.796875 15.713893
36.825000 8.968750 15.713893
36.675000 9.765625 15.713893
36.850000 10.812500 15.713893
37.050000 12.390625 15.713893
37.250000 13.250000 15.713893
37.575000 14.265625 15.713893
36.500000 3.781250 15.868376
36.525000 4.718750 15.868376
36.500000 5.828125 15.868376
36.650000 7.093750 15.868376
36.725000 8.218750 15.868376
36.675000 9.500000 15.868376
36.750000 10.343750 15.868376
36.975000 11.484375 15.868376
37.275000 13.093750 15.868376
37.475000 13.921875 15.868376
37.000000 0.500000 16.023801
36.475000 2.000000 16.023801
36.425000 2.859375 16.023801
36.475000 4.171875 16.023801
36.525000 5.250000 16.023801
36.575000 6.265625 16.023801
36.800000 7.593750 16.023801
36.800000 8.562500 16.023801
36.675000 9.843750 16.023801
36.850000 11.265625 16.023801
37.050000 12.312500 16.023801
37.250000 13.203125 16.023801
37.575000 14.609375 16.023801
36.500000 1.234375 16.181030
36.350000 2.312500 16.181030
36.400000 3.812500 16.181030
36.425000 4.578125 16.181030
36.500000 5.750000 16.181030
36.650000 7.015625 16.181030
36.850000 7.984375 16.181030
36.800000 9.265625 16.181030
36.750000 10.515625 16.181030
36.975000 11.921875 16.181030
37.200000 13.093750 16.181030
37.400000 14.109375 16.181030
36.375000 2.875000 16.332942
36.500000 4.312500 16.332942
36.550000 5.218750 16.332942
36.625000 6.406250 16.332942
36.775000 8.078125 16.332942
36.825000 8.906250 16.332942
36.800000 10.203125 16.332942
36.975000 11.437500 16.332942
37.175000 12.515625 16.332942
37.400000 13.734375 16.332942
37.875000 14.750000 16.332942
36.225000 1.562500 16.490624
36.300000 2.468750 16.490624
36.425000 3.484375 16.490624
36.450000 5.000000 16.490624
36.500000 6.125000 16.490624
36.625000 6.890625 16.490624
36.800000 8.046875 16.490624
36.775000 9.562500 16.490624
36.775000 10.703125 16.490624
37.025000 11.875000 16.490624
37.250000 13.125000 16.490624
37.550000 13.968750 16.490624
36.325000 1.468750 16.645036
36.300000 2.703125 16.645036
36.450000 3.453125 16.645036
36.500000 4.921875 16.645036
36.675000 6.171875 16.645036
36.625000 7.078125 16.645036
36.525000 8.343750 16.645036
36.700000 9.812500 16.645036
36.850000 10.531250 16.645036
37.050000 11.734375 16.645036
37.275000 13.093750 16.645036
37.525000 14.250000 16.645036
36.525000 0.500000 16.792545
36.275000 2.015625 16.792545
36.400000 2.796875 16.792545
36.475000 3.921875 16.792545
36.450000 5.375000 16.792545
36.225000 6.312500 16.792545
36.225000 7.421875 16.792545
36.500000 8.562500 16.792545
36.775000 9.984375 16.792545
37.050000 11.000000 16.792545
37.275000 11.953125 16.792545
37.450000 13.265625 16.792545
37.775000 14.703125 16.792545
36.600000 0.812500 16.958500
36.400000 1.906250 16.958500
36.450000 2.906250 16.958500
36.525000 4.375000 16.958500
36.925000 5.234375 16.958500
36.250000 8.000000 16.958500
36.525000 9.156250 16.958500
36.900000 10.359375 16.958500
37.175000 11.265625 16.958500
37.325000 12.343750 16.958500
37.475000 13.656250 16.958500
38.000000 14.718750 16.958500
36.425000 1.156250 17.105910
36.325000 2.343750 17.105910
36.475000 3.843750 17.105910
36.300000 4.640625 17.105910
36.000000 6.156250 17.105910
36.050000 7.406250 17.105910
36.400000 8.093750 17.105910
36.850000 9.250000 17.105910
37.100000 10.656250 17.105910
37.225000 12.031250 17.105910
37.350000 12.859375 17.105910
37.650000 13.968750 17.105910
36.525000 0.921875 17.267626
36.350000 1.906250 17.267626
36.500000 3.109375 17.267626
36.600000 3.906250 17.267626
37.050000 4.968750 17.267626
36.200000 7.718750 17.267626
36.775000 11.203125 17.267626
37.275000 12.500000 17.267626
37.475000 13.546875 17.267626
37.950000 14.265625 17.267626
36.625000 1.281250 17.415666
36.300000 2.328125 17.415666
36.575000 3.140625 17.415666
36.375000 4.812500 17.415666
36.000000 5.593750 17.415666
36.125000 6.828125 17.415666
36.425000 8.203125 17.415666
36.825000 9.406250 17.415666
37.175000 10.234375 17.415666
37.325000 11.656250 17.415666
37.450000 12.531250 17.415666
36.675000 -0.203125 17.569980
36.675000 1.156250 17.569980
36.525000 2.328125 17.569980
36.700000 3.406250 17.569980
36.925000 4.718750 17.569980
36.575000 6.140625 17.569980
36.125000 7.171875 17.569980
36.400000 8.437500 17.569980
36.675000 9.453125 17.569980
36.950000 10.859375 17.569980
37.275000 11.890625 17.569980
37.500000 13.062500 17.569980
37.850000 14.093750 17.569980
36.675000 0.609375 17.727081
36.525000 1.609375 17.727081
36.625000 2.953125 17.727081
36.550000 6.500000 17.727081
36.575000 7.546875 17.727081
37.075000 11.281250 17.727081
37.475000 12.421875 17.727081
37.725000 13.265625 17.727081
38.175000 14.421875 17.727081
37.025000 0.125000 17.882105
36.850000 1.125000 17.882105
36.475000 2.062500 17.882105
36.750000 3.218750 17.882105
36.825000 4.921875 17.882105
36.475000 5.609375 17.882105
36.175000 6.921875 17.882105
36.575000 7.984375 17.882105
37.225000 9.453125 17.882105
37.675000 10.531250 17.882105
37.700000 11.671875 17.882105
37.675000 12.609375 17.882105
37.925000 13.796875 17.882105
36.500000 0.656250 18.037692
36.500000 1.781250 18.037692
36.750000 2.656250 18.037692
36.600000 6.390625 18.037692
36.425000 7.437500 18.037692
36.875000 8.687500 18.037692
37.425000 9.953125 18.037692
37.675000 10.718750 18.037692
37.725000 12.296875 18.037692
37.800000 13.125000 18.037692
38.200000 14.671875 18.037692
36.625000 0.953125 18.194610
36.600000 2.343750 18.194610
36.875000 3.109375 18.194610
36.750000 4.500000 18.194610
36.450000 5.468750 18.194610
37.900000 12.468750 18.194610
38.000000 13.781250 18.194610
36.675000 1.312500 18.350343
36.825000 2.531250 18.350343
36.650000 6.296875 18.350343
37.925000 13.125000 18.350343
38.150000 14.093750 18.350343
36.825000 1.265625 18.511664
36.725000 2.234375 18.511664
36.950000 3.265625 18.511664
37.025000 4.421875 18.511664
36.700000 5.750000 18.511664
36.675000 6.750000 18.511664
37.200000 8.046875 18.511664
37.650000 11.640625 18.511664
38.000000 12.781250 18.511664
38.075000 13.765625 18.511664
36.900000 0.656250 18.663495
36.875000 1.984375 18.663495
36.975000 2.906250 18.663495
36.750000 4.328125 18.663495
36.475000 5.468750 18.663495
36.575000 6.437500 18.663495
37.075000 7.875000 18.663495
37.550000 9.031250 18.663495
38.100000 9.984375 18.663495
38.350000 11.343750 18.663495
38.175000 12.390625 18.663495
38.150000 13.328125 18.663495
38.500000 14.781250 18.663495
36.725000 0.531250 18.822734
36.825000 1.859375 18.822734
36.975000 2.906250 18.822734
37.025000 3.843750 18.822734
36.950000 4.968750 18.822734
36.700000 6.453125 18.822734
36.850000 7.328125 18.822734
37.400000 8.312500 18.822734
37.725000 9.937500 18.822734
38.050000 11.125000 18.822734
38.150000 12.156250 18.822734
38.100000 13.359375 18.822734
38.325000 14.171875 18.822734
36.875000 2.187500 18.975015
36.975000 3.171875 18.975015
37.300000 4.703125 18.975015
36.500000 7.250000 18.975015
37.025000 7.921875 18.975015
37.750000 9.421875 18.975015
38.325000 10.312500 18.975015
38.300000 11.437500 18.975015
38.075000 12.718750 18.975015
38.225000 13.937500 18.975015
36.725000 0.562500 19.130680
36.800000 1.421875 19.130680
37.050000 2.781250 19.130680
36.825000 6.343750 19.130680
37.000000 9.843750 19.130680
37.850000 10.890625 19.130680
38.075000 11.750000 19.130680
37.950000 13.015625 19.130680
38.300000 14.125000 19.130680
37.100000 0.593750 19.286881
37.000000 1.718750 19.286881
37.000000 3.234375 19.286881
36.900000 4.046875 19.286881
36.700000 5.234375 19.286881
36.650000 6.390625 19.286881
37.050000 7.593750 19.286881
37.750000 8.843750 19.286881
38.325000 9.937500 19.286881
38.250000 11.265625 19.286881
37.925000 12.281250 19.286881
38.000000 13.734375 19.286881
38.500000 14.421875 19.286881
36.875000 0.093750 19.442201
36.950000 1.500000 19.442201
37.075000 2.437500 19.442201
37.125000 3.828125 19.442201
36.975000 4.812500 19.442201
36.775000 6.156250 19.442201
36.875000 7.437500 19.442201
37.350000 8.375000 19.442201
38.125000 9.375000 19.442201
38.225000 10.828125 19.442201
37.875000 12.281250 19.442201
37.975000 13.125000 19.442201
38.350000 14.312500 19.442201
37.125000 0.843750 19.599153
36.975000 2.265625 19.599153
37.175000 2.859375 19.599153
37.250000 4.234375 19.599153
37.025000 5.437500 19.599153
36.650000 6.562500 19.599153
37.000000 7.734375 19.599153
37.800000 9.125000 19.599153
38.350000 10.109375 19.599153
38.150000 11.343750 19.599153
37.875000 12.671875 19.599153
38.100000 13.906250 19.599153
38.800000 14.484375 19.599153
37.175000 0.296875 19.754243
37.100000 1.734375 19.754243
37.150000 2.421875 19.754243
37.325000 3.718750 19.754243
37.225000 5.281250 19.754243
36.925000 6.093750 19.754243
38.175000 11.078125 19.754243
37.800000 12.046875 19.754243
37.975000 13.343750 19.754243
38.350000 14.390625 19.754243
37.275000 0.937500 19.910878
37.125000 2.015625 19.910878
37.225000 3.562500 19.910878
37.400000 4.250000 19.910878
37.275000 5.468750 19.910878
38.100000 10.218750 19.910878
37.925000 11.656250 19.910878
37.950000 12.718750 19.910878
38.200000 13.953125 19.910878
37.700000 0.312500 20.063015
37.575000 1.750000 20.063015
37.250000 2.765625 20.063015
37.250000 3.875000 20.063015
37.425000 5.109375 20.063015
37.425000 6.281250 20.063015
37.425000 7.265625 20.063015
37.850000 8.640625 20.063015
38.225000 10.000000 20.063015
38.050000 11.281250 20.063015
37.850000 12.359375 20.063015
38.050000 13.328125 20.063015
38.500000 14.328125 20.063015
37.000000 -0.015625 20.221727
37.100000 1.140625 20.221727
37.250000 2.296875 20.221727
37.275000 3.671875 20.221727
37.350000 5.015625 20.221727
37.375000 5.656250 20.221727
37.450000 7.062500 20.221727
37.800000 8.312500 20.221727
38.300000 9.078125 20.221727
38.125000 10.343750 20.221727
37.775000 11.687500 20.221727
37.975000 13.000000 20.221727
38.375000 13.812500 20.221727
37.975000 0.437500 20.376115
37.200000 2.984375 20.376115
37.300000 4.015625 20.376115
37.375000 5.312500 20.376115
37.475000 6.359375 20.376115
37.675000 7.640625 20.376115
38.075000 8.921875 20.376115
38.225000 9.765625 20.376115
37.950000 11.093750 20.376115
37.825000 12.375000 20.376115
38.075000 13.718750 20.376115
38.725000 14.796875 20.376115
37.950000 0.515625 20.524290
37.250000 2.875000 20.524290
37.350000 4.203125 20.524290
37.425000 5.343750 20.524290
37.450000 6.531250 20.524290
37.600000 7.343750 20.524290
38.025000 8.687500 20.524290
38.225000 9.609375 20.524290
37.900000 11.000000 20.524290
37.725000 12.296875 20.524290
37.975000 13.593750 20.524290
38.500000 14.484375 20.524290
37.500000 0.187500 20.686920
37.375000 1.265625 20.686920
37.275000 2.703125 20.686920
37.350000 3.562500 20.686920
37.425000 5.109375 20.686920
37.400000 6.093750 20.686920
37.525000 7.046875 20.686920
37.975000 8.234375 20.686920
38.325000 9.609375 20.686920
38.125000 10.828125 20.686920
37.825000 12.031250 20.686920
37.925000 12.890625 20.686920
38.325000 13.968750 20.686920
36.950000 1.281250 20.835858
37.200000 2.218750 20.835858
37.350000 3.546875 20.835858
37.425000 4.515625 20.835858
37.400000 5.734375 20.835858
37.475000 7.000000 20.835858
37.900000 8.187500 20.835858
38.375000 9.093750 20.835858
38.100000 10.765625 20.835858
37.725000 11.453125 20.835858
37.925000 12.921875 20.835858
38.325000 13.953125 20.835858
37.375000 2.921875 20.996739
37.475000 4.125000 20.996739
37.450000 5.562500 20.996739
37.500000 6.718750 20.996739
37.850000 7.718750 20.996739
38.300000 8.703125 20.996739
38.125000 9.984375 20.996739
37.775000 11.531250 20.996739
37.850000 12.515625 20.996739
38.150000 13.671875 20.996739
37.725000 0.281250 21.146041
37.525000 1.421875 21.146041
37.325000 2.593750 21.146041
37.350000 3.828125 21.146041
37.425000 4.734375 21.146041
37.475000 6.328125 21.146041
37.650000 7.421875 21.146041
37.950000 8.578125 21.146041
38.225000 9.671875 21.146041
38.075000 10.593750 21.146041
37.825000 11.843750 21.146041
37.925000 12.937500 21.146041
38.425000 14.359375 21.146041
37.350000 3.031250 21.307533
37.525000 4.406250 21.307533
37.500000 5.593750 21.307533
37.450000 6.265625 21.307533
37.800000 7.734375 21.307533
38.225000 8.781250 21.307533
38.225000 9.953125 21.307533
37.925000 11.109375 21.307533
37.825000 12.421875 21.307533
38.075000 13.406250 21.307533
38.800000 14.406250 21.307533
36.975000 1.078125 21.458876
37.100000 2.265625 21.458876
37.300000 3.281250 21.458876
37.200000 4.703125 21.458876
37.100000 5.859375 21.458876
37.225000 6.906250 21.458876
37.700000 7.718750 21.458876
38.350000 8.953125 21.458876
38.200000 10.546875 21.458876
37.850000 11.687500 21.458876
37.925000 12.531250 21.458876
38.200000 13.593750 21.458876
37.275000 2.578125 21.608847
37.525000 3.906250 21.608847
38.075000 10.734375 21.608847
37.825000 11.921875 21.608847
37.950000 13.218750 21.608847
38.425000 14.218750 21.608847
37.225000 1.140625 21.771039
36.975000 2.234375 21.771039
37.275000 3.109375 21.771039
36.900000 4.296875 21.771039
36.475000 5.750000 21.771039
36.800000 6.703125 21.771039
37.425000 8.000000 21.771039
38.125000 8.828125 21.771039
38.250000 10.187500 21.771039
37.900000 11.656250 21.771039
37.850000 12.515625 21.771039
38.125000 13.687500 21.771039
37.125000 2.437500 21.919961
36.875000 4.046875 21.919961
38.075000 10.781250 21.919961
37.825000 12.234375 21.919961
37.925000 13.000000 21.919961
38.400000 14.437500 21.919961
36.975000 -0.062500 22.085391
37.000000 1.250000 22.085391
37.000000 2.250000 22.085391
37.475000 3.468750 22.085391
36.525000 5.671875 22.085391
36.975000 6.937500 22.085391
37.550000 8.390625 22.085391
38.100000 9.390625 22.085391
38.175000 10.250000 22.085391
37.900000 11.640625 22.085391
37.925000 12.906250 22.085391
38.300000 13.875000 22.085391
37.125000 1.093750 22.233322
36.800000 2.140625 22.233322
36.975000 3.281250 22.233322
36.675000 4.281250 22.233322
36.400000 5.593750 22.233322
36.650000 6.734375 22.233322
38.050000 11.515625 22.233322
37.875000 12.343750 22.233322
38.125000 13.968750 22.233322
37.225000 0.312500 22.393402
37.250000 1.796875 22.393402
36.950000 2.578125 22.393402
37.100000 3.750000 22.393402
37.800000 9.609375 22.393402
38.150000 11.046875 22.393402
37.975000 12.171875 22.393402
38.050000 13.156250 22.393402
38.425000 14.453125 22.393402
36.825000 2.359375 22.545988
36.925000 3.156250 22.545988
36.575000 4.843750 22.545988
36.275000 5.781250 22.545988
37.175000 8.171875 22.545988
37.850000 9.406250 22.545988
38.275000 10.125000 22.545988
38.100000 11.703125 22.545988
37.975000 12.640625 22.545988
38.050000 13.812500 22.545988
36.875000 0.515625 22.705437
36.775000 1.812500 22.705437
36.900000 2.828125 22.705437
37.250000 4.250000 22.705437
36.400000 6.781250 22.705437
36.850000 7.437500 22.705437
37.375000 8.859375 22.705437
38.100000 9.984375 22.705437
38.225000 11.281250 22.705437
37.950000 12.234375 22.705437
37.025000 0.484375 22.857231
37.050000 1.875000 22.857231
36.925000 2.656250 22.857231
37.075000 3.968750 22.857231
36.225000 6.421875 22.857231
36.850000 7.421875 22.857231
37.600000 11.093750 22.857231
37.900000 12.359375 22.857231
37.825000 13.218750 22.857231
38.100000 14.468750 22.857231
36.600000 0.968750 23.015704
36.775000 2.343750 23.015704
36.475000 3.390625 23.015704
36.050000 5.093750 23.015704
36.025000 6.125000 23.015704
36.175000 7.171875 23.015704
38.075000 11.937500 23.015704
37.825000 12.906250 23.015704
38.000000 14.218750 23.015704
36.850000 0.703125 23.169764
36.625000 1.796875 23.169764
36.400000 5.734375 23.169764
36.125000 6.734375 23.169764
36.425000 7.937500 23.169764
37.925000 12.750000 23.169764
37.850000 13.875000 23.169764
36.775000 0.531250 23.327844
36.750000 1.828125 23.327844
36.875000 3.078125 23.327844
36.950000 4.328125 23.327844
35.975000 6.859375 23.327844
36.225000 7.734375 23.327844
38.000000 12.281250 23.327844
37.800000 13.609375 23.327844
38.175000 14.343750 23.327844
36.900000 0.421875 23.484269
36.825000 1.375000 23.484269
36.725000 2.500000 23.484269
36.425000 3.625000 23.484269
36.150000 5.078125 23.484269
36.125000 6.484375 23.484269
36.150000 7.468750 23.484269
37.950000 12.000000 23.484269
37.675000 13.328125 23.484269
37.950000 14.265625 23.484269
36.475000 0.218750 23.626299
36.475000 1.359375 23.626299
36.650000 2.125000 23.626299
36.350000 6.250000 23.626299
36.150000 7.203125 23.626299
36.450000 8.312500 23.626299
37.025000 9.375000 23.626299
37.800000 10.250000 23.626299
37.775000 11.734375 23.626299
37.525000 12.765625 23.626299
37.875000 13.796875 23.626299
36.900000 0.671875 23.783950
36.650000 1.796875 23.783950
36.675000 2.890625 23.783950
36.425000 4.234375 23.783950
36.200000 5.765625 23.783950
36.175000 6.703125 23.783950
36.275000 7.640625 23.783950
36.700000 9.000000 23.783950
37.150000 10.156250 23.783950
37.325000 11.046875 23.783950
37.450000 12.203125 23.783950
37.700000 13.640625 23.783950
38.325000 14.687500 23.783950
36.475000 1.515625 23.938874
36.575000 2.390625 23.938874
36.700000 3.781250 23.938874
36.725000 4.859375 23.938874
36.500000 6.093750 23.938874
36.275000 7.015625 23.938874
36.450000 8.265625 23.938874
36.925000 9.171875 23.938874
37.225000 10.828125 23.938874
37.325000 11.656250 23.938874
37.500000 12.734375 23.938874
37.875000 13.984375 23.938874
36.600000 3.046875 24.091368
36.550000 4.421875 24.091368
36.600000 5.484375 24.091368
36.575000 6.968750 24.091368
36.450000 7.984375 24.091368
36.775000 8.953125 24.091368
37.000000 10.375000 24.091368
37.175000 11.343750 24.091368
37.425000 12.546875 24.091368
36.700000 0.515625 24.249449
36.475000 1.593750 24.249449
36.475000 2.906250 24.249449
36.600000 3.906250 24.249449
36.575000 5.265625 24.249449
36.575000 6.343750 24.249449
36.650000 7.390625 24.249449
36.800000 8.531250 24.249449
36.925000 9.953125 24.249449
37.075000 11.046875 24.249449
37.300000 11.937500 24.249449
37.475000 13.406250 24.249449
37.925000 14.343750 24.249449
36.450000 1.093750 24.417731
36.475000 2.203125 24.417731
36.550000 3.859375 24.417731
36.575000 4.906250 24.417731
36.550000 5.906250 24.417731
36.575000 7.296875 24.417731
36.750000 8.562500 24.417731
36.875000 9.296875 24.417731
36.925000 10.781250 24.417731
37.150000 11.562500 24.417731
37.425000 13.015625 24.417731
37.825000 14.015625 24.417731
36.700000 0.531250 24.559320
36.475000 1.750000 24.559320
36.450000 3.140625 24.559320
36.500000 4.328125 24.559320
36.525000 5.234375 24.559320
36.600000 6.218750 24.559320
36.775000 7.796875 24.559320
36.800000 8.703125 24.559320
36.775000 9.671875 24.559320
37.025000 11.187500 24.559320
37.275000 12.203125 24.559320
37.450000 13.500000 24.559320
37.925000 14.625000 24.559320
36.525000 0.953125 24.715143
36.400000 2.203125 24.715143
36.450000 3.562500 24.715143
36.500000 4.828125 24.715143
36.500000 6.062500 24.715143
36.550000 6.781250 24.715143
36.675000 8.109375 24.715143
36.700000 9.500000 24.715143
36.825000 10.296875 24.715143
37.050000 11.468750 24.715143
37.225000 12.687500 24.715143
37.550000 13.937500 24.715143
36.475000 3.312500 24.870727
36.500000 4.171875 24.870727
36.550000 5.546875 24.870727
36.600000 6.812500 24.870727
36.775000 7.734375 24.870727
36.800000 9.046875 24.870727
36.825000 10.046875 24.870727
37.025000 11.390625 24.870727
37.150000 12.500000 24.870727
37.450000 13.484375 24.870727
38.125000 14.937500 24.870727
36.475000 2.937500 25.025200
36.500000 4.437500 25.025200
36.525000 5.328125 25.025200
36.575000 6.421875 25.025200
36.875000 7.578125 25.025200
36.900000 8.875000 25.025200
36.750000 10.250000 25.025200
36.975000 11.031250 25.025200
37.150000 12.312500 25.025200
37.400000 13.359375 25.025200
37.900000 14.609375 25.025200
36.650000 0.828125 25.179401
36.400000 2.187500 25.179401
36.475000 3.171875 25.179401
36.500000 4.453125 25.179401
36.525000 5.390625 25.179401
36.575000 6.578125 25.179401
36.875000 7.906250 25.179401
36.875000 9.109375 25.179401
36.750000 9.812500 25.179401
36.975000 11.187500 25.179401
37.150000 12.328125 25.179401
37.300000 13.718750 25.179401
37.800000 14.906250 25.179401
36.700000 0.562500 25.338638
36.450000 1.640625 25.338638
36.475000 2.703125 25.338638
36.500000 4.343750 25.338638
36.525000 5.484375 25.338638
36.600000 6.203125 25.338638
36.900000 7.531250 25.338638
36.900000 8.890625 25.338638
36.725000 10.140625 25.338638
36.950000 11.062500 25.338638
37.175000 12.062500 25.338638
37.350000 13.484375 25.338638
37.650000 14.781250 25.338638
36.850000 0.375000 25.492920
36.450000 1.781250 25.492920
36.450000 2.828125 25.492920
36.525000 3.968750 25.492920
36.550000 5.359375 25.492920
36.575000 6.203125 25.492920
36.875000 7.484375 25.492920
36.850000 8.375000 25.492920
36.675000 9.796875 25.492920
36.850000 11.015625 25.492920
37.075000 12.015625 25.492920
37.275000 13.453125 25.492920
37.525000 14.531250 25.492920
36.650000 -0.125000 25.649694
36.650000 1.218750 25.649694
36.450000 2.546875 25.649694
36.475000 3.890625 25.649694
36.525000 4.812500 25.649694
36.550000 6.062500 25.649694
36.750000 7.234375 25.649694
36.800000 8.046875 25.649694
36.675000 9.390625 25.649694
36.825000 10.500000 25.649694
37.050000 11.796875 25.649694
37.175000 13.000000 25.649694
37.400000 14.312500 25.649694
36.700000 0.796875 25.804649
36.425000 2.296875 25.804649
36.475000 3.187500 25.804649
36.500000 4.359375 25.804649
36.600000 5.562500 25.804649
36.825000 6.984375 25.804649
36.775000 8.296875 25.804649
36.650000 8.984375 25.804649
36.750000 10.250000 25.804649
36.975000 11.578125 25.804649
37.225000 12.484375 25.804649
36.600000 0.531250 25.963041
36.450000 1.875000 25.963041
36.475000 3.109375 25.963041
36.500000 4.000000 25.963041
36.525000 5.203125 25.963041
36.600000 6.625000 25.963041
36.825000 7.812500 25.963041
36.825000 9.078125 25.963041
36.725000 9.796875 25.963041
36.925000 11.312500 25.963041
37.100000 12.500000 25.963041
37.275000 13.531250 25.963041
37.625000 14.625000 25.963041
37.275000 0.046875 26.116010
36.675000 1.140625 26.116010
36.400000 2.171875 26.116010
36.450000 3.406250 26.116010
36.500000 4.453125 26.116010
36.600000 5.859375 26.116010
36.800000 6.953125 26.116010
36.800000 8.234375 26.116010
36.700000 9.218750 26.116010
36.825000 10.421875 26.116010
37.050000 11.859375 26.116010
37.200000 12.812500 26.116010
37.425000 14.250000 26.116010
37.050000 0.500000 26.270537
36.650000 1.671875 26.270537
36.450000 2.734375 26.270537
36.525000 4.078125 26.270537
36.550000 4.765625 26.270537
36.600000 5.890625 26.270537
36.900000 7.328125 26.270537
36.875000 8.625000 26.270537
36.675000 9.437500 26.270537
36.825000 10.890625 26.270537
37.100000 11.734375 26.270537
37.300000 13.328125 26.270537
37.500000 14.265625 26.270537
36.650000 0.765625 26.431133
36.275000 2.250000 26.431133
36.450000 3.218750 26.431133
36.500000 4.203125 26.431133
36.550000 5.812500 26.431133
36.600000 6.500000 26.431133
36.700000 7.625000 26.431133
36.700000 9.156250 26.431133
36.725000 10.359375 26.431133
36.925000 11.609375 26.431133
37.125000 12.750000 26.431133
37.400000 13.859375 26.431133
37.850000 14.968750 26.431133
36.475000 3.328125 26.582379
36.500000 4.578125 26.582379
36.600000 5.750000 26.582379
36.775000 7.187500 26.582379
36.775000 7.968750 26.582379
36.675000 9.390625 26.582379
36.800000 10.578125 26.582379
37.025000 11.625000 26.582379
37.200000 12.656250 26.582379
37.425000 13.890625 26.582379
36.450000 2.750000 26.741834
36.475000 3.953125 26.741834
36.525000 5.015625 26.741834
36.575000 6.390625 26.741834
36.900000 7.656250 26.741834
36.925000 8.890625 26.741834
36.700000 10.062500 26.741834
36.850000 11.203125 26.741834
37.100000 12.250000 26.741834
37.325000 13.531250 26.741834
37.625000 14.328125 26.741834
36.450000 3.171875 26.894585
36.500000 4.718750 26.894585
36.600000 5.781250 26.894585
36.700000 6.578125 26.894585
36.775000 8.156250 26.894585
36.750000 9.062500 26.894585
36.750000 10.437500 26.894585
36.975000 11.656250 26.894585
37.150000 12.578125 26.894585
37.375000 13.859375 26.894585
37.975000 14.937500 26.894585
36.325000 0.234375 27.042515
36.175000 1.359375 27.042515
36.425000 2.828125 27.042515
36.500000 4.015625 27.042515
36.525000 5.203125 27.042515
36.575000 5.906250 27.042515
36.725000 7.203125 27.042515
36.725000 8.265625 27.042515
36.675000 9.546875 27.042515
36.825000 11.031250 27.042515
37.075000 11.812500 27.042515
37.250000 13.406250 27.042515
37.500000 14.250000 27.042515
36.425000 3.093750 27.206113
36.475000 4.265625 27.206113
36.525000 5.609375 27.206113
36.575000 6.406250 27.206113
36.775000 7.671875 27.206113
36.775000 8.734375 27.206113
36.725000 10.312500 27.206113
36.900000 11.578125 27.206113
37.100000 12.531250 27.206113
37.375000 13.625000 27.206113
37.850000 14.515625 27.206113
36.250000 1.218750 27.356187
36.325000 2.609375 27.356187
36.450000 3.593750 27.356187
36.500000 4.843750 27.356187
36.550000 5.843750 27.356187
36.650000 7.171875 27.356187
36.875000 8.484375 27.356187
36.850000 9.265625 27.356187
36.825000 10.546875 27.356187
37.050000 11.796875 27.356187
37.275000 12.812500 27.356187
37.475000 14.265625 27.356187
36.700000 0.875000 27.514949
36.400000 1.796875 27.514949
36.400000 2.765625 27.514949
36.475000 4.140625 27.514949
36.500000 5.281250 27.514949
36.650000 6.734375 27.514949
36.675000 7.468750 27.514949
36.900000 9.031250 27.514949
37.025000 9.937500 27.514949
36.925000 11.125000 27.514949
37.150000 12.390625 27.514949
37.375000 13.468750 27.514949
37.825000 14.750000 27.514949
36.450000 3.343750 27.668000
36.500000 4.281250 27.668000
36.675000 5.765625 27.668000
36.550000 6.984375 27.668000
36.425000 7.906250 27.668000
36.925000 9.109375 27.668000
37.150000 10.312500 27.668000
37.150000 11.546875 27.668000
37.275000 12.484375 27.668000
36.325000 0.500000 27.831237
36.250000 1.546875 27.831237
36.425000 2.562500 27.831237
36.500000 3.953125 27.831237
36.375000 5.171875 27.831237
36.100000 6.265625 27.831237
36.125000 7.250000 27.831237
36.450000 8.781250 27.831237
36.825000 9.906250 27.831237
37.100000 10.734375 27.831237
37.200000 11.875000 27.831237
37.350000 13.265625 27.831237
37.725000 14.062500 27.831237
36.600000 1.093750 27.978699
36.400000 2.328125 27.978699
36.450000 3.218750 27.978699
36.325000 7.000000 27.978699
36.325000 8.125000 27.978699
36.675000 8.937500 27.978699
36.925000 10.406250 27.978699
37.150000 11.265625 27.978699
37.350000 12.750000 27.978699
37.600000 13.812500 27.978699
38.200000 14.843750 27.978699
36.600000 0.718750 28.139015
36.350000 1.906250 28.139015
36.450000 3.046875 28.139015
36.575000 3.890625 28.139015
37.000000 4.953125 28.139015
36.175000 7.531250 28.139015
36.800000 10.906250 28.139015
37.350000 12.359375 28.139015
37.500000 13.171875 28.139015
37.875000 14.656250 28.139015
36.325000 1.281250 28.293781
36.350000 2.250000 28.293781
36.525000 3.593750 28.293781
36.450000 4.656250 28.293781
36.150000 5.843750 28.293781
36.125000 7.140625 28.293781
36.425000 8.187500 28.293781
36.625000 9.515625 28.293781
36.975000 10.703125 28.293781
37.300000 11.921875 28.293781
37.350000 12.875000 28.293781
37.675000 13.890625 28.293781
36.625000 1.078125 28.452176
36.425000 2.046875 28.452176
36.575000 2.968750 28.452176
36.425000 4.250000 28.452176
36.100000 5.484375 28.452176
36.200000 7.015625 28.452176
36.450000 8.031250 28.452176
36.850000 8.906250 28.452176
37.475000 10.218750 28.452176
37.650000 11.156250 28.452176
37.475000 12.687500 28.452176
37.675000 13.796875 28.452176
38.275000 14.984375 28.452176
36.475000 1.421875 28.607383
36.525000 2.406250 28.607383
36.325000 6.125000 28.607383
36.150000 7.453125 28.607383
36.525000 8.203125 28.607383
36.875000 9.500000 28.607383
37.175000 10.562500 28.607383
37.425000 11.828125 28.607383
37.600000 13.171875 28.607383
37.925000 14.359375 28.607383
