36.875000 75.062500 24.585375
35.600000 89.250000 24.739077
35.375000 88.234375 24.739500
35.600000 86.609375 24.740177
35.300000 85.421875 24.740672
35.025000 84.453125 24.741075
35.225000 83.375000 24.741524
35.550000 82.250000 24.741993
35.975000 81.421875 24.742338
36.625000 80.375000 24.742774
36.875000 78.718750 24.743465
36.725000 78.015625 24.743757
36.775000 76.656250 24.744324
36.925000 75.546875 24.744786
35.550000 89.578125 24.893428
35.550000 88.046875 24.894066
35.675000 86.906250 24.894542
35.500000 83.562500 24.895935
36.975000 79.218750 24.897745
36.825000 77.890625 24.898298
36.750000 76.859375 24.898728
35.750000 86.578125 25.052291
35.925000 85.234375 25.052851
35.675000 84.437500 25.053183
35.475000 83.265625 25.053672
36.000000 82.109375 25.054153
36.575000 80.968750 25.054629
36.975000 79.859375 25.055091
36.900000 78.437500 25.055683
36.725000 77.687500 25.055996
36.900000 76.437500 25.056517
37.150000 75.343750 25.056973
35.775000 88.406250 25.207537
35.700000 87.453125 25.207934
35.500000 84.015625 25.209367
37.100000 79.328125 25.211320
36.975000 78.125000 25.211821
36.775000 77.218750 25.212199
36.950000 76.312500 25.212576
37.300000 74.828125 25.213195
35.775000 87.187500 25.365834
35.675000 84.015625 25.367156
36.975000 79.093750 25.369207
36.850000 78.125000 25.369610
36.775000 77.046875 25.370059
37.000000 76.046875 25.370476
37.550000 74.953125 25.370932
35.900000 88.968750 25.535416
35.850000 87.703125 25.535944
35.900000 86.781250 25.536328
36.300000 85.531250 25.536849
35.475000 82.828125 25.537975
35.925000 81.906250 25.538359
36.575000 81.140625 25.538678
37.200000 79.859375 25.539212
37.050000 78.390625 25.539824
36.725000 77.296875 25.540280
36.875000 76.468750 25.540625
37.250000 74.968750 25.541250
35.750000 88.593750 25.692109
35.825000 87.531250 25.692551
35.925000 86.343750 25.693046
36.025000 85.281250 25.693489
35.800000 84.000000 25.694023
35.550000 83.203125 25.694355
35.875000 82.296875 25.694732
36.475000 81.000000 25.695273
37.050000 79.890625 25.695735
36.975000 78.875000 25.696158
36.725000 77.750000 25.696627
36.900000 76.578125 25.697115
37.225000 75.265625 25.697662
36.150000 89.437500 25.848862
36.100000 88.000000 25.849461
35.950000 87.312500 25.849748
36.100000 86.000000 25.850295
35.925000 84.578125 25.850887
35.600000 83.343750 25.851401
36.900000 78.984375 25.853218
36.750000 78.156250 25.853563
36.800000 76.734375 25.854155
37.100000 75.937500 25.854487
36.325000 89.046875 26.003450
36.250000 88.343750 26.003743
35.950000 87.093750 26.004264
36.125000 85.828125 26.004791
35.925000 84.906250 26.005176
35.625000 83.703125 26.005677
36.900000 79.296875 26.007513
36.700000 77.750000 26.008157
36.750000 76.937500 26.008496
37.100000 75.468750 26.009108
36.325000 89.234375 26.159333
36.250000 88.093750 26.159809
35.950000 87.031250 26.160251
36.125000 85.953125 26.160701
35.950000 84.703125 26.161221
35.675000 83.468750 26.161736
36.900000 79.312500 26.163467
36.725000 77.656250 26.164157
36.775000 76.687500 26.164561
37.100000 75.921875 26.164880
35.600000 89.046875 26.331630
35.825000 87.718750 26.332183
36.000000 86.531250 26.332678
36.200000 85.812500 26.332977
36.050000 84.156250 26.333668
35.775000 83.078125 26.334117
35.975000 82.031250 26.334553
36.525000 81.031250 26.334970
36.975000 80.015625 26.335393
36.800000 78.718750 26.335933
36.650000 77.406250 26.336480
36.850000 76.343750 26.336923
37.250000 75.296875 26.337359
35.600000 88.796875 26.484930
35.825000 87.718750 26.485379
36.025000 86.968750 26.485692
36.125000 85.515625 26.486297
36.150000 84.796875 26.486597
35.975000 83.281250 26.487228
36.100000 82.281250 26.487645
36.650000 81.171875 26.488107
36.975000 80.250000 26.488491
36.825000 78.531250 26.489207
36.650000 77.500000 26.489637
36.775000 76.406250 26.490093
37.175000 75.703125 26.490386
35.725000 88.765625 26.645376
36.000000 88.078125 26.645663
36.125000 86.609375 26.646275
36.100000 85.687500 26.646659
36.150000 84.406250 26.647193
36.050000 82.984375 26.647785
36.275000 82.359375 26.648046
36.875000 81.265625 26.648501
37.175000 79.968750 26.649042
36.950000 78.890625 26.649491
36.700000 77.734375 26.649973
36.875000 76.375000 26.650539
37.225000 75.109375 26.651066
36.400000 89.546875 26.809029
36.300000 88.406250 26.809504
36.075000 87.640625 26.809823
36.125000 86.390625 26.810344
36.150000 85.109375 26.810878
36.200000 84.218750 26.811249
36.300000 82.843750 26.811822
36.600000 81.953125 26.812193
36.925000 80.593750 26.812759
36.800000 79.406250 26.813254
36.600000 78.078125 26.813807
36.700000 77.125000 26.814204
37.050000 76.203125 26.814589
37.500000 75.250000 26.814986
36.575000 89.171875 26.957589
36.525000 88.156250 26.958013
36.100000 87.125000 26.958442
36.175000 86.109375 26.958866
36.225000 84.484375 26.959543
36.225000 83.296875 26.960037
36.325000 82.640625 26.960311
36.725000 81.265625 26.960884
37.025000 80.140625 26.961353
36.800000 78.796875 26.961912
36.625000 77.859375 26.962303
36.775000 76.484375 26.962876
37.125000 75.468750 26.963299
36.400000 89.500000 27.120612
36.300000 88.796875 27.120905
36.075000 87.500000 27.121445
36.125000 86.234375 27.121972
36.150000 84.890625 27.122532
36.200000 84.187500 27.122825
36.300000 83.062500 27.123294
36.600000 81.828125 27.123808
36.925000 80.484375 27.124368
36.775000 79.562500 27.124752
36.575000 78.031250 27.125390
36.575000 77.203125 27.125735
36.900000 75.890625 27.126282
37.575000 75.250000 27.126549
36.500000 89.687500 27.277773
36.400000 88.640625 27.278209
36.075000 87.328125 27.278756
36.125000 86.421875 27.279134
36.150000 85.234375 27.279629
36.200000 83.828125 27.280214
36.275000 82.718750 27.280677
36.625000 81.796875 27.281061
36.925000 80.531250 27.281588
36.775000 79.359375 27.282076
36.550000 78.437500 27.282460
36.550000 76.859375 27.283118
36.875000 75.937500 27.283502
37.650000 75.125000 27.283841
35.575000 89.046875 27.434306
35.900000 88.140625 27.434684
36.100000 86.703125 27.435282
36.125000 85.609375 27.435738
36.150000 84.265625 27.436298
36.225000 83.375000 27.436669
36.475000 82.093750 27.437203
36.775000 80.953125 27.437678
37.000000 79.828125 27.438147
36.825000 79.015625 27.438486
36.625000 77.359375 27.439176
36.825000 76.562500 27.439508
37.225000 75.640625 27.439892
35.625000 88.812500 27.589069
35.950000 87.843750 27.589473
36.075000 86.968750 27.589837
36.175000 85.515625 27.590442
36.200000 84.640625 27.590807
36.225000 83.515625 27.591276
36.475000 82.046875 27.591888
36.775000 80.812500 27.592402
37.075000 79.921875 27.592773
36.875000 78.500000 27.593366
36.550000 77.656250 27.593717
36.775000 76.656250 27.594134
37.200000 75.500000 27.594616
36.050000 87.468750 27.763513
36.100000 85.984375 27.764132
36.175000 84.781250 27.764633
36.175000 83.921875 27.764991
36.300000 82.421875 27.765616
36.650000 81.453125 27.766020
36.950000 80.562500 27.766391
36.750000 79.062500 27.767016
36.500000 77.984375 27.767465
36.675000 77.125000 27.767823
36.975000 75.640625 27.768442
36.750000 89.656250 27.915940
36.050000 87.359375 27.916897
36.100000 86.234375 27.917366
36.150000 84.796875 27.917965
36.200000 83.984375 27.918303
36.300000 82.656250 27.918857
36.600000 81.703125 27.919254
36.900000 80.265625 27.919853
36.700000 79.500000 27.920172
36.475000 78.265625 27.920686
36.550000 77.234375 27.921116
36.875000 76.000000 27.921630
37.625000 74.734375 27.922158
36.150000 89.671875 28.076586
35.925000 88.640625 28.077016
35.950000 87.734375 28.077393
36.100000 86.515625 28.077901
36.150000 85.375000 28.078376
36.200000 84.359375 28.078799
36.250000 83.125000 28.079314
36.500000 82.046875 28.079763
36.850000 80.890625 28.080245
36.750000 79.796875 28.080700
36.525000 78.609375 28.081195
36.500000 77.125000 28.081814
36.725000 76.109375 28.082237
37.325000 75.140625 28.082641
35.975000 87.140625 28.227615
36.100000 86.078125 28.228058
36.125000 84.718750 28.228624
36.100000 83.625000 28.229080
36.175000 82.703125 28.229464
36.400000 81.140625 28.230115
36.700000 80.562500 28.230356
36.575000 79.000000 28.231007
36.450000 78.031250 28.231411
36.575000 77.031250 28.231827
36.850000 75.781250 28.232348
35.875000 86.890625 28.395273
36.100000 86.250000 28.395540
35.800000 84.640625 28.396210
35.625000 83.765625 28.396575
35.850000 82.640625 28.397044
36.225000 81.437500 28.397545
36.700000 80.453125 28.397955
36.575000 78.843750 28.398626
36.375000 77.859375 28.399036
36.500000 76.515625 28.399596
36.825000 75.453125 28.400038
35.675000 89.218750 28.553521
35.650000 88.218750 28.553938
35.775000 86.765625 28.554543
35.625000 85.562500 28.555045
35.250000 84.218750 28.555605
36.550000 79.140625 28.557720
36.375000 77.468750 28.558417
36.425000 76.390625 28.558866
36.825000 75.703125 28.559153
35.600000 88.656250 28.705189
35.600000 87.859375 28.705520
35.825000 86.640625 28.706028
35.450000 85.062500 28.706686
34.975000 84.296875 28.707005
35.175000 83.296875 28.707422
36.775000 78.671875 28.709349
36.400000 77.562500 28.709811
36.500000 76.484375 28.710260
36.925000 75.078125 28.710846
35.575000 87.468750 28.867237
35.950000 86.640625 28.867582
34.925000 83.625000 28.868839
35.250000 82.875000 28.869151
35.800000 81.843750 28.869581
36.475000 80.484375 28.870147
36.825000 79.390625 28.870603
36.575000 78.359375 28.871033
36.375000 76.937500 28.871625
36.575000 75.968750 28.872029
37.075000 75.078125 28.872400
35.100000 85.015625 29.024468
34.950000 83.531250 29.025087
35.375000 82.921875 29.025341
35.850000 81.859375 29.025783
36.400000 80.625000 29.026298
36.625000 79.250000 29.026870
36.450000 77.953125 29.027411
36.350000 77.250000 29.027704
36.500000 75.687500 29.028355
37.050000 74.937500 29.028667
35.700000 89.343750 29.191828
35.525000 87.953125 29.192407
35.175000 86.984375 29.192811
35.000000 85.812500 29.193299
34.825000 84.765625 29.193735
35.050000 83.578125 29.194230
36.525000 79.281250 29.196020
36.375000 77.843750 29.196619
36.350000 76.828125 29.197042
35.525000 89.859375 29.347597
35.500000 88.140625 29.348313
35.225000 87.156250 29.348723
35.675000 86.343750 29.349062
34.650000 83.578125 29.350214
35.150000 82.906250 29.350494
35.525000 81.468750 29.351093
36.050000 80.750000 29.351393
36.525000 79.562500 29.351887
36.450000 78.421875 29.352363
36.325000 77.187500 29.352877
36.375000 75.734375 29.353482
36.825000 75.093750 29.353750
35.125000 88.984375 29.503790
34.925000 88.265625 29.504089
35.075000 87.062500 29.504591
35.375000 85.984375 29.505040
34.600000 83.296875 29.506160
34.975000 82.406250 29.506531
35.350000 81.171875 29.507045
36.075000 80.390625 29.507370
36.450000 79.000000 29.507950
36.375000 77.671875 29.508503
36.250000 76.609375 29.508946
36.225000 75.281250 29.509499
35.100000 89.265625 29.661808
34.850000 87.984375 29.662342
34.650000 84.640625 29.663735
34.500000 83.390625 29.664256
35.100000 82.281250 29.664718
35.550000 80.796875 29.665337
36.000000 79.781250 29.665760
36.375000 78.765625 29.666183
36.200000 77.718750 29.666619
36.075000 76.390625 29.667173
36.200000 75.109375 29.667706
35.075000 89.875000 29.824096
35.025000 88.140625 29.824819
34.950000 87.453125 29.825105
34.625000 86.312500 29.825581
34.200000 84.578125 29.826303
34.175000 83.968750 29.826557
34.375000 82.921875 29.826993
34.700000 81.750000 29.827482
36.100000 77.265625 29.829350
35.975000 75.718750 29.829995
36.275000 74.781250 29.830385
34.825000 88.468750 29.987852
34.800000 87.750000 29.988151
34.450000 84.359375 29.989564
34.175000 82.890625 29.990176
34.425000 81.984375 29.990554
36.025000 77.312500 29.992500
35.800000 76.093750 29.993008
36.050000 75.265625 29.993353
35.025000 89.250000 30.144165
34.950000 88.468750 30.144490
34.750000 87.390625 30.144939
34.475000 83.968750 30.146365
34.250000 82.890625 30.146814
34.450000 81.703125 30.147309
36.075000 76.937500 30.149295
35.950000 75.921875 30.149718
36.250000 74.890625 30.150148
34.900000 89.187500 30.299303
34.800000 88.187500 30.299720
34.725000 87.218750 30.300123
34.425000 83.828125 30.301536
34.225000 82.203125 30.302213
34.450000 81.687500 30.302428
35.050000 78.343750 30.303821
35.550000 76.781250 30.304472
35.750000 76.046875 30.304778
36.175000 74.953125 30.305234
34.450000 89.484375 30.457659
34.350000 88.359375 30.458128
34.550000 87.593750 30.458447
34.675000 86.578125 30.458870
34.600000 85.218750 30.459437
34.300000 83.843750 30.460010
34.200000 83.140625 30.460303
34.350000 81.500000 30.460986
34.675000 80.359375 30.461461
35.100000 79.609375 30.461774
35.325000 78.250000 30.462340
35.425000 77.109375 30.462816
35.625000 76.156250 30.463213
36.000000 74.890625 30.463740
34.925000 89.515625 30.627272
34.575000 88.203125 30.627819
34.550000 87.343750 30.628177
34.600000 85.906250 30.628776
34.600000 84.750000 30.629257
34.475000 83.859375 30.629629
34.375000 82.515625 30.630188
34.475000 81.562500 30.630586
34.800000 80.109375 30.631191
35.050000 79.015625 30.631647
35.175000 77.875000 30.632122
35.375000 76.828125 30.632558
35.675000 75.515625 30.633105
36.150000 74.875000 30.633372
34.350000 89.718750 30.783163
34.225000 88.406250 30.783709
34.525000 87.671875 30.784015
34.550000 86.078125 30.784679
34.500000 85.015625 30.785122
34.525000 83.734375 30.785656
34.575000 82.578125 30.786138
34.625000 81.953125 30.786398
34.800000 80.593750 30.786965
34.875000 79.500000 30.787420
35.000000 78.234375 30.787948
35.250000 77.203125 30.788377
35.475000 76.140625 30.788820
35.775000 75.140625 30.789237
34.525000 88.906250 30.939429
34.325000 87.343750 30.940080
34.425000 86.609375 30.940386
34.500000 85.375000 30.940901
34.525000 84.359375 30.941324
34.550000 83.265625 30.941779
34.675000 82.000000 30.942307
34.725000 80.687500 30.942854
34.675000 79.562500 30.943322
34.825000 78.453125 30.943785
35.075000 77.234375 30.944293
35.300000 76.046875 30.944787
35.600000 75.453125 30.945035
34.300000 89.125000 31.096700
34.200000 87.937500 31.097195
34.400000 86.859375 31.097644
34.450000 85.578125 31.098178
34.475000 84.312500 31.098705
34.500000 83.562500 31.099018
34.625000 82.046875 31.099649
34.600000 81.312500 31.099955
34.575000 79.859375 31.100561
34.775000 78.796875 31.101003
35.000000 77.859375 31.101394
35.200000 76.296875 31.102045
34.325000 89.750000 31.251694
34.225000 88.765625 31.252104
34.425000 87.484375 31.252638
34.450000 86.328125 31.253120
34.475000 85.234375 31.253576
34.500000 84.328125 31.253953
34.525000 82.671875 31.254643
34.725000 81.468750 31.255145
34.750000 80.328125 31.255620
34.600000 79.203125 31.256088
34.775000 78.265625 31.256479
35.025000 77.203125 31.256922
35.275000 76.328125 31.257287
35.575000 75.203125 31.257755
34.350000 88.625000 31.420825
34.250000 87.453125 31.421314
34.400000 86.937500 31.421529
34.425000 85.671875 31.422056
34.450000 84.281250 31.422635
34.500000 83.265625 31.423059
34.725000 82.312500 31.423456
34.700000 80.984375 31.424009
34.575000 79.593750 31.424588
34.775000 78.953125 31.424855
35.000000 77.375000 31.425513
35.150000 76.093750 31.426047
34.375000 89.031250 31.579471
34.175000 87.765625 31.579998
34.375000 86.843750 31.580383
34.400000 85.687500 31.580864
34.450000 84.437500 31.581385
34.475000 83.156250 31.581919
34.625000 82.187500 31.582323
34.575000 81.062500 31.582792
34.525000 79.875000 31.583286
34.700000 79.000000 31.583651
34.875000 77.921875 31.584100
35.025000 76.406250 31.584732
35.250000 75.375000 31.585161
35.750000 74.656250 31.585461
34.400000 87.546875 31.732023
34.425000 85.906250 31.732706
34.425000 84.859375 31.733142
34.500000 83.984375 31.733507
34.625000 82.578125 31.734093
34.600000 81.828125 31.734406
34.550000 80.468750 31.734972
34.625000 79.390625 31.735421
34.800000 78.281250 31.735883
35.050000 76.828125 31.736489
35.250000 76.046875 31.736814
35.525000 74.656250 31.737394
34.325000 88.281250 31.892835
34.425000 87.468750 31.893174
34.425000 85.968750 31.893799
34.450000 85.218750 31.894111
34.525000 83.703125 31.894743
34.625000 82.781250 31.895127
34.600000 81.390625 31.895706
34.575000 80.734375 31.895980
34.650000 79.500000 31.896494
34.775000 78.343750 31.896976
35.000000 77.312500 31.897406
35.225000 75.796875 31.898037
35.475000 74.750000 31.898474
34.450000 89.062500 32.058476
34.325000 87.671875 32.059055
34.425000 86.359375 32.059602
34.450000 85.156250 32.060103
34.475000 84.453125 32.060396
34.550000 83.171875 32.060930
34.775000 81.875000 32.061471
34.800000 81.015625 32.061829
34.650000 79.859375 32.062310
34.750000 78.406250 32.062916
34.950000 77.265625 32.063391
35.150000 76.515625 32.063704
34.400000 86.796875 32.208652
34.425000 85.890625 32.209030
34.450000 84.437500 32.209635
34.500000 83.078125 32.210202
34.775000 82.000000 32.210651
34.775000 80.812500 32.211146
34.550000 79.828125 32.211556
34.700000 78.671875 32.212038
34.875000 77.906250 32.212357
35.100000 76.500000 32.212942
35.350000 75.484375 32.213366
35.775000 74.546875 32.213756
34.575000 89.781250 32.371310
34.225000 88.375000 32.371896
34.400000 87.671875 32.372189
34.450000 86.484375 32.372684
34.475000 85.234375 32.373205
34.525000 83.859375 32.373778
34.625000 82.812500 32.374214
34.700000 81.500000 32.374761
34.775000 80.468750 32.375190
34.725000 79.468750 32.375607
34.775000 78.078125 32.376186
35.000000 77.328125 32.376499
35.250000 76.187500 32.376974
35.575000 74.812500 32.377547
34.475000 87.031250 32.522311
34.500000 85.937500 32.522767
34.600000 84.312500 32.523444
34.650000 83.406250 32.523821
34.875000 82.187500 32.524329
34.800000 80.875000 32.524876
34.575000 79.593750 32.525410
34.750000 78.906250 32.525696
35.000000 77.484375 32.526289
35.250000 76.406250 32.526738
35.500000 75.656250 32.527050
36.000000 74.093750 32.527701
34.625000 89.062500 32.685955
34.425000 88.140625 32.686339
34.450000 87.140625 32.686756
34.500000 85.906250 32.687270
34.575000 84.906250 32.687687
34.625000 83.890625 32.688110
34.800000 82.203125 32.688813
34.750000 81.328125 32.689178
34.600000 80.187500 32.689653
34.775000 78.812500 32.690226
35.000000 78.093750 32.690526
35.300000 76.984375 32.690988
35.450000 75.625000 32.691554
35.800000 74.468750 32.692036
34.625000 89.671875 32.841704
34.375000 88.203125 32.842316
34.475000 86.984375 32.842824
34.575000 86.171875 32.843162
34.625000 85.015625 32.843644
34.675000 84.000000 32.844067
34.750000 82.515625 32.844686
34.850000 81.468750 32.845122
34.825000 80.125000 32.845682
34.825000 79.453125 32.845962
35.050000 78.328125 32.846431
35.325000 76.921875 32.847017
35.500000 75.828125 32.847472
35.825000 74.453125 32.848045
34.725000 89.265625 32.998698
34.500000 87.921875 32.999258
34.550000 87.000000 32.999642
34.600000 85.578125 33.000235
34.650000 84.593750 33.000645
34.700000 83.453125 33.001120
34.800000 82.453125 33.001537
34.850000 81.187500 33.002064
34.825000 80.156250 33.002494
34.925000 79.062500 33.002949
35.200000 77.703125 33.003516
35.425000 76.562500 33.003991
35.600000 75.218750 33.004551
36.125000 74.531250 33.004838
34.725000 89.171875 33.169862
34.500000 88.187500 33.170273
34.575000 86.765625 33.170865
34.625000 85.640625 33.171334
34.675000 84.953125 33.171620
34.700000 83.203125 33.172349
34.775000 82.078125 33.172818
35.125000 81.171875 33.173196
35.125000 80.125000 33.173632
34.975000 79.078125 33.174068
35.225000 77.718750 33.174634
35.450000 76.453125 33.175162
35.675000 75.453125 33.175579
36.175000 74.437500 33.176002
34.775000 89.687500 33.325589
34.450000 88.500000 33.326084
34.550000 87.359375 33.326559
34.650000 85.968750 33.327139
34.800000 84.890625 33.327588
34.775000 83.500000 33.328167
34.775000 82.406250 33.328623
34.850000 81.734375 33.328903
34.925000 80.171875 33.329554
35.050000 78.984375 33.330049
35.275000 78.421875 33.330283
35.475000 77.062500 33.330850
35.675000 75.953125 33.331312
36.075000 74.531250 33.331904
34.775000 89.906250 33.478425
34.725000 88.656250 33.478946
34.675000 87.843750 33.479285
34.800000 86.546875 33.479825
34.875000 85.375000 33.480313
35.125000 84.125000 33.480834
35.000000 83.140625 33.481244
34.725000 81.578125 33.481895
35.025000 80.734375 33.482247
35.250000 79.437500 33.482787
35.350000 78.218750 33.483295
35.500000 77.437500 33.483620
35.650000 76.046875 33.484200
36.050000 75.328125 33.484499
34.675000 88.671875 33.640991
34.700000 87.593750 33.641440
34.850000 86.578125 33.641864
34.725000 83.109375 33.643309
34.675000 81.656250 33.643914
35.000000 80.671875 33.644325
35.350000 79.906250 33.644644
35.475000 78.687500 33.645151
35.575000 77.093750 33.645816
35.825000 76.093750 33.646232
36.125000 75.187500 33.646610
34.975000 89.703125 33.806070
34.900000 88.562500 33.806545
34.825000 87.468750 33.807001
34.975000 86.343750 33.807470
34.850000 82.562500 33.809046
34.700000 81.953125 33.809299
35.000000 80.750000 33.809801
35.650000 79.609375 33.810276
35.900000 78.640625 33.810680
35.750000 77.406250 33.811194
35.900000 75.859375 33.811839
36.275000 74.984375 33.812203
35.100000 89.046875 33.957318
34.900000 87.937500 33.957780
35.000000 86.828125 33.958242
35.100000 86.062500 33.958561
35.500000 84.609375 33.959167
34.600000 82.343750 33.960111
34.850000 81.296875 33.960547
35.375000 80.406250 33.960918
35.975000 79.359375 33.961354
36.050000 77.687500 33.962051
35.950000 77.031250 33.962324
34.775000 88.781250 34.116911
34.950000 88.046875 34.117217
35.125000 86.734375 34.117764
34.825000 85.656250 34.118213
34.750000 84.343750 34.118760
34.825000 83.109375 34.119274
34.700000 81.921875 34.119769
36.050000 77.765625 34.121501
36.100000 76.609375 34.121983
36.350000 75.078125 34.122621
34.775000 88.781250 34.275919
34.950000 87.781250 34.276336
35.150000 86.953125 34.276681
34.750000 85.562500 34.277261
34.525000 84.500000 34.277703
34.775000 82.906250 34.278367
34.875000 82.234375 34.278647
36.375000 77.515625 34.280613
36.175000 76.515625 34.281030
36.500000 75.203125 34.281577
35.100000 88.531250 34.433511
35.175000 87.625000 34.433889
35.300000 86.203125 34.434481
35.275000 85.281250 34.434865
35.000000 83.781250 34.435490
34.975000 82.968750 34.435829
35.200000 82.046875 34.436213
36.525000 77.125000 34.438264
36.350000 75.984375 34.438739
36.675000 75.000000 34.439149
35.100000 88.671875 34.589574
35.200000 87.453125 34.590082
35.325000 86.500000 34.590479
35.425000 85.156250 34.591039
35.125000 83.906250 34.591560
35.000000 82.703125 34.592061
35.525000 82.125000 34.592302
35.925000 80.843750 34.592836
36.425000 79.781250 34.593279
36.775000 78.265625 34.593910
36.525000 77.281250 34.594320
36.450000 75.984375 34.594861
36.775000 75.312500 34.595140
35.425000 86.812500 34.764153
35.125000 85.796875 34.764576
34.875000 84.187500 34.765247
35.100000 83.187500 34.765663
35.375000 81.937500 34.766184
35.800000 80.875000 34.766627
36.500000 79.859375 34.767050
36.875000 78.640625 34.767558
36.675000 77.421875 34.768066
36.600000 76.812500 34.768320
36.775000 75.437500 34.768893
35.450000 88.593750 34.919441
35.425000 87.375000 34.919949
35.500000 86.687500 34.920236
35.650000 85.578125 34.920698
35.375000 83.875000 34.921407
35.250000 83.015625 34.921766
35.800000 81.703125 34.922312
36.150000 80.656250 34.922749
36.625000 79.796875 34.923107
36.850000 78.656250 34.923582
36.625000 77.328125 34.924135
36.650000 76.203125 34.924604
36.925000 75.015625 34.925099
35.400000 89.281250 35.080206
35.450000 88.468750 35.080545
35.525000 87.296875 35.081033
35.375000 83.828125 35.082479
36.825000 79.375000 35.084334
36.825000 78.328125 35.084770
36.700000 77.093750 35.085285
35.475000 89.109375 35.231922
35.450000 88.000000 35.232384
35.550000 87.437500 35.232618
35.400000 83.625000 35.234207
36.825000 79.250000 35.236030
36.775000 78.281250 35.236433
36.650000 77.125000 35.236915
35.750000 89.093750 35.394441
35.450000 87.796875 35.394981
35.700000 87.171875 35.395242
35.550000 85.625000 35.395886
35.275000 84.296875 35.396440
35.325000 83.234375 35.396883
35.650000 82.234375 35.397299
36.075000 81.031250 35.397800
36.650000 80.328125 35.398093
36.925000 78.812500 35.398725
36.800000 77.796875 35.399148
36.825000 76.453125 35.399708
36.950000 75.421875 35.400138
35.725000 86.406250 35.559523
35.925000 85.406250 35.559939
35.675000 84.046875 35.560506
35.450000 82.906250 35.560981
35.975000 81.750000 35.561463
36.575000 81.156250 35.561710
36.950000 79.640625 35.562342
36.875000 78.781250 35.562700
36.750000 77.343750 35.563299
36.925000 76.484375 35.563657
37.200000 75.281250 35.564158
35.675000 87.531250 35.713825
35.800000 86.718750 35.714164
35.825000 85.687500 35.714593
35.550000 84.343750 35.715153
35.450000 83.015625 35.715706
35.875000 82.125000 35.716078
36.475000 81.078125 35.716514
36.900000 79.968750 35.716976
36.875000 78.796875 35.717464
36.725000 77.656250 35.717939
36.825000 76.218750 35.718539
37.075000 75.250000 35.718942
35.950000 88.781250 35.868142
35.625000 88.171875 35.868396
35.800000 87.031250 35.868871
35.650000 85.984375 35.869307
35.475000 84.703125 35.869841
35.450000 83.328125 35.870414
35.650000 82.203125 35.870883
36.250000 81.421875 35.871208
36.825000 80.203125 35.871716
36.925000 78.750000 35.872321
36.775000 77.828125 35.872705
36.825000 76.625000 35.873207
37.100000 75.734375 35.873578
36.000000 88.765625 36.040571
35.875000 87.328125 36.041170
35.650000 83.765625 36.042654
35.525000 82.968750 36.042986
36.025000 82.062500 36.043364
36.650000 80.890625 36.043852
37.150000 79.593750 36.044392
37.025000 78.312500 36.044926
36.750000 77.390625 36.045310
36.975000 76.328125 36.045753
37.375000 74.812500 36.046385
35.750000 89.015625 36.201892
35.875000 87.640625 36.202465
35.950000 86.421875 36.202973
36.025000 85.187500 36.203487
35.775000 84.265625 36.203871
35.550000 83.062500 36.204372
35.875000 81.718750 36.204932
36.500000 81.000000 36.205232
37.150000 79.796875 36.205733
37.075000 78.875000 36.206117
36.725000 77.406250 36.206729
36.900000 76.531250 36.207094
37.200000 75.140625 36.207673
35.775000 89.031250 36.351479
35.650000 87.703125 36.352033
35.925000 87.156250 36.352261
36.175000 85.687500 36.352873
35.900000 84.406250 36.353406
35.550000 83.453125 36.353804
36.900000 79.250000 36.355555
36.750000 77.875000 36.356128
36.800000 76.781250 36.356584
37.100000 75.500000 36.357117
36.550000 89.750000 36.513609
36.300000 88.578125 36.514098
36.000000 87.000000 36.514755
36.100000 85.953125 36.515192
36.125000 84.968750 36.515602
35.850000 83.906250 36.516044
35.850000 82.578125 36.516598
36.425000 81.734375 36.516949
36.900000 80.453125 36.517483
36.925000 79.296875 36.517965
36.750000 78.140625 36.518447
36.800000 77.015625 36.518915
37.100000 76.109375 36.519293
37.675000 74.796875 36.519840
36.450000 89.671875 36.665644
36.375000 88.125000 36.666288
36.025000 86.937500 36.666783
36.125000 86.156250 36.667109
36.050000 84.609375 36.667753
35.800000 83.640625 36.668157
35.900000 82.546875 36.668612
36.475000 81.609375 36.669003
36.950000 80.593750 36.669426
36.900000 79.031250 36.670077
36.675000 78.078125 36.670474
36.750000 76.859375 36.670982
36.450000 89.546875 36.830703
36.400000 87.937500 36.831373
36.025000 87.093750 36.831725
36.125000 86.140625 36.832122
36.125000 84.828125 36.832669
35.875000 83.343750 36.833287
35.925000 82.250000 36.833743
36.525000 81.734375 36.833958
36.975000 80.375000 36.834524
36.825000 79.171875 36.835026
36.575000 78.125000 36.835462
36.725000 76.578125 36.836107
37.100000 75.625000 36.836504
35.775000 88.937500 36.991596
35.975000 87.937500 36.992013
36.025000 86.781250 36.992495
36.125000 85.281250 36.993120
36.075000 84.187500 36.993575
36.450000 81.078125 36.994871
37.225000 79.562500 36.995502
37.050000 78.468750 36.995958
36.725000 77.437500 36.996388
36.900000 76.312500 36.996857
37.275000 75.000000 36.997404
36.075000 88.906250 37.143916
36.050000 87.750000 37.144398
36.100000 86.468750 37.144932
36.175000 85.406250 37.145374
36.200000 84.171875 37.145889
36.100000 82.937500 37.146403
36.400000 82.046875 37.146774
36.900000 81.078125 37.147178
37.075000 79.671875 37.147764
36.800000 78.437500 37.148278
36.675000 77.281250 37.148760
36.950000 76.000000 37.149294
37.325000 75.234375 37.149613
36.075000 89.468750 37.303294
36.150000 87.906250 37.303945
36.050000 86.687500 37.304453
36.075000 85.828125 37.304811
36.250000 84.765625 37.305254
36.250000 83.250000 37.305885
36.250000 82.203125 37.306321
36.650000 81.156250 37.306758
36.975000 80.093750 37.307200
36.775000 79.000000 37.307656
36.625000 78.015625 37.308066
36.775000 76.968750 37.308502
37.075000 75.500000 37.309114
36.025000 87.375000 37.460194
36.125000 85.984375 37.460773
36.125000 84.640625 37.461333
36.150000 83.734375 37.461710
36.300000 82.562500 37.462199
36.625000 81.734375 37.462544
36.975000 80.234375 37.463169
36.800000 79.171875 37.463612
36.575000 78.234375 37.464002
36.850000 76.656250 37.464660
37.225000 76.000000 37.464933
36.650000 89.687500 37.615845
36.400000 88.156250 37.616483
36.000000 87.390625 37.616802
36.075000 86.250000 37.617277
36.150000 85.109375 37.617753
36.175000 84.140625 37.618156
36.275000 82.984375 37.618638
36.575000 81.937500 37.619074
36.925000 80.687500 37.619595
36.775000 79.203125 37.620214
36.500000 78.500000 37.620507
36.525000 77.046875 37.621112
36.900000 75.953125 37.621568
37.525000 74.703125 37.622088
35.600000 89.000000 37.786855
35.900000 87.843750 37.787337
36.100000 86.687500 37.787819
36.175000 85.812500 37.788183
36.200000 84.296875 37.788815
36.225000 83.421875 37.789180
36.475000 82.078125 37.789740
36.800000 81.296875 37.790065
37.000000 79.812500 37.790684
36.750000 78.625000 37.791178
36.475000 77.578125 37.791615
36.700000 76.765625 37.791953
37.175000 75.562500 37.792454
36.500000 89.515625 37.943259
36.325000 88.750000 37.943578
36.050000 87.312500 37.944177
36.100000 86.515625 37.944509
36.150000 85.171875 37.945069
36.150000 84.140625 37.945498
36.250000 83.171875 37.945902
36.625000 81.656250 37.946533
36.950000 80.468750 37.947028
36.750000 79.390625 37.947477
36.475000 78.062500 37.948031
36.525000 77.312500 37.948343
36.850000 76.062500 37.948864
37.475000 75.250000 37.949203
36.250000 89.328125 38.097760
36.300000 88.093750 38.098274
36.025000 86.984375 38.098736
36.075000 85.546875 38.099335
36.150000 84.796875 38.099648
36.150000 83.734375 38.100091
36.375000 82.296875 38.100689
36.750000 81.203125 38.101145
36.950000 80.406250 38.101477
36.750000 78.906250 38.102102
36.525000 77.968750 38.102493
36.700000 76.890625 38.102942
37.075000 75.718750 38.103430
36.025000 87.296875 38.255080
36.100000 85.906250 38.255660
36.150000 84.656250 38.256181
36.175000 83.671875 38.256591
36.375000 82.859375 38.256929
36.675000 81.421875 38.257528
36.950000 80.671875 38.257841
36.750000 79.437500 38.258355
36.450000 77.828125 38.259026
36.575000 76.796875 38.259455
36.950000 76.062500 38.259761
35.750000 88.625000 38.425322
35.925000 87.593750 38.425752
36.025000 86.812500 38.426077
36.125000 85.281250 38.426715
36.175000 84.343750 38.427106
36.225000 83.390625 38.427503
36.525000 82.265625 38.427972
36.875000 80.968750 38.428512
36.975000 79.953125 38.428935
36.675000 78.484375 38.429547
36.500000 77.468750 38.429971
36.725000 76.031250 38.430569
37.200000 74.984375 38.431006
36.000000 87.218750 38.582492
36.075000 86.265625 38.582889
36.125000 84.921875 38.583449
36.150000 83.953125 38.583853
36.250000 82.578125 38.584426
36.525000 81.671875 38.584804
36.900000 80.750000 38.585188
36.750000 79.515625 38.585702
36.450000 78.359375 38.586184
36.575000 76.718750 38.586867
36.425000 89.859375 38.734351
36.125000 88.671875 38.734846
35.925000 87.703125 38.735250
36.075000 86.406250 38.735790
36.150000 84.984375 38.736382
36.150000 83.921875 38.736825
36.125000 82.890625 38.737255
36.400000 81.562500 38.737808
36.850000 80.906250 38.738082
36.725000 79.312500 38.738746
36.450000 78.375000 38.739136
36.500000 77.000000 38.739709
36.725000 75.890625 38.740171
37.275000 75.140625 38.740484
35.825000 87.328125 38.897247
36.000000 86.265625 38.897690
35.775000 85.109375 38.898171
35.600000 84.015625 38.898627
35.850000 82.812500 38.899128
36.300000 81.796875 38.899552
36.875000 80.625000 38.900040
36.750000 79.562500 38.900483
36.450000 78.406250 38.900964
36.450000 76.718750 38.901668
35.750000 86.890625 39.061211
36.050000 86.015625 39.061576
36.650000 80.328125 39.063946
36.700000 79.328125 39.064362
36.425000 78.062500 39.064889
36.425000 77.078125 39.065300
35.850000 88.906250 39.216263
35.625000 87.687500 39.216770
35.875000 86.343750 39.217330
34.975000 84.000000 39.218307
35.300000 83.125000 39.218671
35.825000 82.015625 39.219134
36.525000 81.062500 39.219531
37.050000 79.859375 39.220032
36.750000 78.296875 39.220683
36.400000 77.187500 39.221145
36.500000 75.906250 39.221679
36.975000 75.250000 39.221953
35.550000 87.437500 39.373034
36.000000 86.062500 39.373607
34.950000 84.093750 39.374428
35.350000 82.859375 39.374942
35.900000 81.859375 39.375359
36.500000 80.421875 39.375957
36.700000 79.328125 39.376413
36.525000 78.265625 39.376856
36.450000 76.968750 39.377396
36.600000 75.843750 39.377865
37.075000 74.906250 39.378256
35.100000 84.859375 39.529708
34.925000 84.109375 39.530020
35.200000 82.625000 39.530639
35.600000 81.812500 39.530977
36.275000 80.468750 39.531537
36.650000 79.531250 39.531928
36.525000 78.375000 39.532410
36.375000 77.281250 39.532866
36.500000 76.218750 39.533308
36.950000 74.953125 39.533836
35.575000 88.640625 39.703775
35.250000 87.468750 39.704263
35.375000 86.250000 39.704771
35.050000 85.515625 39.705077
34.650000 83.781250 39.705800
34.800000 82.734375 39.706236
36.575000 78.265625 39.708098
36.350000 77.375000 39.708469
36.400000 76.015625 39.709035
36.600000 74.984375 39.709465
35.200000 89.203125 39.857258
35.050000 88.312500 39.857629
34.750000 84.671875 39.859146
34.675000 83.281250 39.859725
36.450000 78.171875 39.861854
36.325000 76.593750 39.862512
36.325000 75.718750 39.862876
35.175000 89.265625 40.014847
35.125000 88.156250 40.015309
35.100000 86.921875 40.015823
35.300000 85.921875 40.016240
34.450000 83.687500 40.017171
34.850000 82.703125 40.017581
35.275000 81.531250 40.018069
35.925000 80.515625 40.018492
36.475000 79.546875 40.018896
36.475000 78.093750 40.019501
36.275000 77.140625 40.019899
36.250000 75.890625 40.020419
36.650000 74.546875 40.020979
34.975000 88.968750 40.168359
34.825000 88.218750 40.168672
35.025000 86.937500 40.169205
35.250000 85.640625 40.169746
34.425000 83.265625 40.170735
34.900000 82.359375 40.171113
35.300000 81.203125 40.171595
35.750000 80.281250 40.171979
36.325000 78.984375 40.172519
36.325000 77.906250 40.172969
36.125000 76.734375 40.173457
36.125000 75.312500 40.174049
35.150000 89.625000 40.331300
34.900000 87.921875 40.332009
34.975000 87.375000 40.332237
34.875000 85.890625 40.332855
34.375000 84.718750 40.333344
34.200000 83.578125 40.333819
34.350000 82.156250 40.334411
36.450000 78.031250 40.336130
36.125000 76.968750 40.336573
36.000000 75.734375 40.337087
36.425000 74.828125 40.337465
35.150000 88.875000 40.493928
34.725000 87.421875 40.494534
34.400000 84.359375 40.495810
34.125000 83.046875 40.496357
34.350000 82.250000 40.496689
34.725000 80.953125 40.497229
35.350000 79.734375 40.497737
36.100000 78.890625 40.498089
36.125000 77.687500 40.498590
35.800000 76.218750 40.499202
35.975000 75.312500 40.499579
34.775000 88.687500 40.643508
34.700000 88.031250 40.643781
34.800000 86.515625 40.644413
35.075000 85.796875 40.644712
34.100000 83.281250 40.645760
34.300000 82.109375 40.646249
34.675000 80.656250 40.646854
35.225000 79.859375 40.647186
35.975000 78.531250 40.647739
36.100000 77.687500 40.648091
35.775000 76.656250 40.648521
35.950000 75.343750 40.649068
34.725000 89.140625 40.807577
34.500000 87.656250 40.808196
34.700000 86.859375 40.808528
34.400000 85.578125 40.809062
34.250000 84.421875 40.809543
34.300000 83.500000 40.809927
34.250000 82.500000 40.810344
34.525000 80.906250 40.811008
35.050000 80.234375 40.811288
35.400000 79.171875 40.811731
35.450000 77.718750 40.812336
35.575000 76.656250 40.812779
34.950000 89.656250 40.964213
34.650000 88.218750 40.964812
34.625000 87.234375 40.965222
34.650000 85.718750 40.965854
34.975000 84.812500 40.966232
34.275000 82.359375 40.967254
34.475000 81.546875 40.967592
34.825000 80.156250 40.968172
35.150000 79.062500 40.968627
35.325000 78.031250 40.969057
35.450000 76.765625 40.969584
35.675000 75.890625 40.969949
36.125000 74.968750 40.970333
34.675000 89.515625 41.120216
34.450000 88.468750 41.120652
34.525000 87.125000 41.121212
34.600000 86.390625 41.121518
34.525000 84.906250 41.122136
34.450000 84.046875 41.122494
34.450000 82.796875 41.123015
34.500000 81.687500 41.123477
34.800000 80.734375 41.123874
35.050000 79.296875 41.124473
35.200000 78.375000 41.124857
35.375000 76.890625 41.125476
35.600000 75.843750 41.125912
36.000000 74.640625 41.126414
34.875000 89.703125 41.291187
34.525000 88.406250 41.291728
34.475000 87.171875 41.292242
34.525000 85.953125 41.292750
34.550000 85.078125 41.293114
34.550000 83.453125 41.293792
34.575000 82.859375 41.294039
34.725000 81.718750 41.294514
34.825000 80.093750 41.295191
34.875000 79.281250 41.295530
35.075000 77.734375 41.296174
35.300000 76.781250 41.296571
35.525000 75.734375 41.297008
36.000000 74.812500 41.297392
34.600000 89.281250 41.450362
34.375000 88.250000 41.450792
34.425000 86.703125 41.451437
34.475000 85.750000 41.451834
34.475000 84.578125 41.452322
34.500000 83.187500 41.452901
34.550000 82.281250 41.453279
34.675000 81.375000 41.453656
34.700000 79.906250 41.454268
34.800000 79.234375 41.454548
34.975000 77.562500 41.455245
35.175000 76.843750 41.455544
35.500000 75.765625 41.455994
36.000000 74.484375 41.456528
34.525000 89.453125 41.603218
34.325000 88.171875 41.603752
34.400000 87.078125 41.604208
34.450000 85.921875 41.604690
34.500000 85.062500 41.605048
34.550000 83.390625 41.605744
34.575000 82.390625 41.606161
34.550000 81.171875 41.606669
34.575000 80.390625 41.606994
34.675000 78.750000 41.607678
34.850000 77.828125 41.608062
35.050000 77.078125 41.608375
35.375000 75.546875 41.609013
35.775000 74.656250 41.609384
34.400000 89.562500 41.766891
34.300000 88.281250 41.767425
34.375000 87.031250 41.767945
34.400000 86.125000 41.768323
34.400000 84.968750 41.768805
34.450000 83.968750 41.769222
34.500000 82.609375 41.769788
34.650000 81.593750 41.770211
34.675000 80.453125 41.770686
34.650000 79.390625 41.771129
34.825000 78.312500 41.771578
35.025000 76.984375 41.772132
35.275000 76.109375 41.772496
35.625000 74.765625 41.773056
34.425000 89.468750 41.928080
34.300000 88.343750 41.928548
34.375000 87.687500 41.928822
34.400000 85.937500 41.929551
34.425000 85.156250 41.929876
34.475000 84.000000 41.930358
34.500000 82.531250 41.930970
34.650000 81.468750 41.931413
34.675000 80.781250 41.931699
34.625000 79.078125 41.932409
34.800000 78.078125 41.932826
35.000000 77.109375 41.933229
35.200000 75.968750 41.933705
35.550000 75.187500 41.934030
34.650000 89.515625 42.081105
34.300000 88.656250 42.081463
34.375000 87.203125 42.082068
34.375000 86.390625 42.082407
34.425000 85.484375 42.082785
34.525000 84.015625 42.083397
34.575000 82.796875 42.083905
34.650000 81.703125 42.084360
34.700000 80.875000 42.084705
34.650000 79.156250 42.085421
34.725000 78.187500 42.085825
34.925000 77.468750 42.086124
35.175000 76.000000 42.086736
35.450000 75.250000 42.087049
34.550000 88.859375 42.241505
34.275000 87.578125 42.242038
34.400000 86.531250 42.242475
34.425000 85.625000 42.242852
34.475000 84.171875 42.243458
34.550000 83.234375 42.243848
34.775000 81.921875 42.244395
34.750000 81.187500 42.244701
34.550000 79.625000 42.245352
34.700000 78.687500 42.245743
34.900000 77.421875 42.246270
35.125000 76.312500 42.246732
34.450000 88.953125 42.395762
34.300000 88.046875 42.396140
34.425000 86.390625 42.396830
34.450000 85.437500 42.397227
34.475000 84.625000 42.397565
34.550000 83.281250 42.398125
34.850000 82.390625 42.398496
34.825000 81.078125 42.399043
34.550000 79.812500 42.399570
34.700000 78.625000 42.400065
34.925000 77.437500 42.400560
35.125000 76.265625 42.401048
35.375000 75.484375 42.401374
35.900000 74.328125 42.401856
34.675000 89.718750 42.555263
34.300000 88.203125 42.555894
34.375000 87.593750 42.556148
34.375000 86.328125 42.556675
34.425000 85.093750 42.557189
34.525000 83.875000 42.557697
34.650000 82.796875 42.558147
34.650000 81.718750 42.558596
34.575000 80.250000 42.559208
34.600000 79.125000 42.559677
34.775000 78.109375 42.560100
34.975000 77.406250 42.560393
35.175000 75.906250 42.561018
35.525000 75.109375 42.561350
34.425000 89.031250 42.727560
34.300000 87.750000 42.728094
34.425000 86.703125 42.728530
34.450000 85.531250 42.729018
34.475000 84.625000 42.729396
34.550000 83.078125 42.730040
34.825000 81.828125 42.730561
34.850000 80.812500 42.730984
34.600000 79.812500 42.731401
34.725000 78.750000 42.731844
34.925000 77.640625 42.732306
35.150000 76.421875 42.732814
35.375000 75.484375 42.733204
35.925000 74.218750 42.733732
34.425000 86.781250 42.885930
34.475000 85.890625 42.886302
34.475000 84.890625 42.886718
34.575000 83.718750 42.887206
34.825000 82.484375 42.887721
34.725000 81.171875 42.888268
34.525000 80.140625 42.888697
34.775000 78.734375 42.889283
34.950000 77.859375 42.889648
35.150000 76.843750 42.890071
35.375000 75.703125 42.890546
35.700000 74.609375 42.891002
34.400000 86.812500 43.039749
34.500000 85.812500 43.040165
34.550000 84.875000 43.040556
34.550000 83.421875 43.041162
34.750000 82.718750 43.041455
34.725000 81.265625 43.042060
34.625000 80.390625 43.042425
34.750000 79.359375 43.042854
34.875000 77.875000 43.043473
35.100000 76.765625 43.043935
35.400000 75.625000 43.044410
35.750000 74.812500 43.044749
34.675000 89.281250 43.199806
34.275000 88.265625 43.200229
34.400000 87.531250 43.200536
34.425000 85.937500 43.201200
34.525000 85.312500 43.201460
34.625000 83.812500 43.202085
34.675000 83.000000 43.202424
34.750000 81.890625 43.202886
34.675000 80.437500 43.203491
34.650000 79.046875 43.204071
34.925000 78.343750 43.204364
35.200000 76.921875 43.204956
35.375000 75.937500 43.205366
35.675000 74.890625 43.205802
34.600000 89.875000 43.363831
34.475000 88.718750 43.364313
34.375000 87.906250 43.364651
34.575000 86.625000 43.365185
34.600000 85.468750 43.365667
34.650000 84.343750 43.366136
34.700000 83.125000 43.366644
34.950000 82.296875 43.366989
34.900000 81.093750 43.367490
34.725000 79.734375 43.368057
34.925000 78.375000 43.368623
35.175000 77.375000 43.369040
35.400000 76.484375 43.369411
35.650000 75.515625 43.369814
34.625000 89.093750 43.516372
34.450000 88.078125 43.516795
34.500000 87.375000 43.517088
34.600000 85.796875 43.517746
34.650000 84.921875 43.518111
34.750000 83.921875 43.518527
34.825000 82.343750 43.519185
35.075000 81.468750 43.519549
34.975000 80.328125 43.520025
34.850000 79.437500 43.520396
35.125000 77.875000 43.521047
35.350000 76.671875 43.521548
35.500000 75.718750 43.521945
35.875000 74.734375 43.522355
34.725000 89.937500 43.675729
34.575000 88.765625 43.676218
34.500000 87.703125 43.676660
34.650000 86.453125 43.677181
34.700000 85.125000 43.677735
34.775000 84.453125 43.678015
34.850000 82.843750 43.678685
34.925000 82.093750 43.678998
34.900000 80.781250 43.679544
34.925000 79.562500 43.680052
35.150000 78.687500 43.680417
35.400000 77.140625 43.681062
35.550000 75.921875 43.681569
35.800000 74.921875 43.681986
34.525000 89.343750 43.832217
34.400000 88.656250 43.832503
34.650000 87.156250 43.833128
34.725000 86.156250 43.833545
34.800000 85.000000 43.834026
34.825000 83.703125 43.834567
34.750000 82.906250 43.834899
34.825000 81.703125 43.835400
35.150000 80.843750 43.835758
35.275000 79.484375 43.836325
35.300000 78.187500 43.836865
35.525000 77.203125 43.837275
35.675000 75.859375 43.837835
35.950000 74.734375 43.838304
34.725000 89.765625 43.988088
34.600000 88.359375 43.988673
34.650000 87.781250 43.988914
34.700000 86.531250 43.989435
34.800000 85.375000 43.989917
35.175000 84.203125 43.990405
35.100000 83.046875 43.990887
34.800000 81.843750 43.991388
35.125000 80.406250 43.991987
35.275000 79.375000 43.992417
35.350000 78.109375 43.992944
35.550000 77.171875 43.993335
35.750000 76.171875 43.993752
36.075000 75.078125 43.994207
34.950000 89.062500 44.146289
34.775000 87.765625 44.146830
34.875000 86.718750 44.147266
34.975000 85.609375 44.147728
35.150000 84.656250 44.148125
34.900000 83.593750 44.148568
34.625000 82.453125 44.149043
34.875000 80.968750 44.149662
35.425000 80.187500 44.149987
35.650000 78.859375 44.150541
35.575000 77.656250 44.151042
35.775000 76.859375 44.151374
36.050000 75.500000 44.151940
34.900000 89.468750 44.319175
34.825000 88.578125 44.319546
34.875000 87.609375 44.319950
34.975000 86.203125 44.320536
34.550000 85.078125 44.321005
34.450000 84.218750 44.321363
34.750000 82.656250 44.322014
34.775000 81.656250 44.322431
35.325000 78.578125 44.323713
35.800000 77.203125 44.324286
35.950000 76.296875 44.324664
36.300000 74.921875 44.325237
35.050000 89.421875 44.474307
34.900000 87.984375 44.474906
35.025000 86.750000 44.475420
34.800000 83.281250 44.476866
34.575000 82.375000 44.477243
34.825000 80.984375 44.477823
35.400000 80.343750 44.478090
36.000000 78.875000 44.478702
36.075000 77.750000 44.479170
35.975000 76.890625 44.479528
36.200000 75.515625 44.480101
34.975000 89.421875 44.636445
34.875000 88.390625 44.636874
35.050000 87.343750 44.637311
35.150000 86.406250 44.637701
35.475000 84.765625 44.638385
34.700000 82.937500 44.639147
34.850000 81.609375 44.639700
35.425000 78.312500 44.641074
36.000000 77.093750 44.641582
36.200000 75.906250 44.642076
36.650000 74.718750 44.642571
35.175000 89.515625 44.786744
35.100000 88.453125 44.787187
35.125000 87.062500 44.787766
34.900000 83.875000 44.789094
34.800000 82.750000 44.789563
35.050000 81.468750 44.790097
35.775000 77.968750 44.791555
36.325000 76.968750 44.791972
34.900000 88.578125 44.954929
35.125000 87.671875 44.955307
35.275000 86.390625 44.955841
35.050000 85.500000 44.956212
34.775000 84.000000 44.956837
34.975000 82.859375 44.957312
35.225000 81.843750 44.957735
36.500000 77.703125 44.959460
36.350000 76.484375 44.959968
36.600000 75.062500 44.960561
35.400000 88.859375 45.102484
35.175000 87.921875 45.102875
35.350000 86.984375 45.103265
34.925000 85.406250 45.103923
34.750000 84.359375 45.104359
35.050000 83.156250 45.104860
35.075000 82.109375 45.105296
35.450000 81.046875 45.105739
36.100000 79.890625 45.106221
36.625000 79.171875 45.106520
36.600000 77.843750 45.107074
36.500000 76.796875 45.107510
36.700000 75.500000 45.108050
35.025000 89.812500 45.268673
35.100000 88.390625 45.269265
35.375000 87.453125 45.269656
35.450000 86.187500 45.270183
35.750000 84.937500 45.270704
35.475000 83.890625 45.271140
35.200000 82.687500 45.271641
35.875000 81.828125 45.272000
36.225000 80.859375 45.272403
36.575000 79.437500 45.272996
36.850000 78.328125 45.273458
36.625000 77.062500 45.273985
36.600000 75.828125 45.274499
36.900000 75.140625 45.274786
35.500000 86.421875 45.428329
35.500000 85.078125 45.428890
35.225000 84.437500 45.429156
35.225000 82.953125 45.429775
35.750000 82.078125 45.430140
36.150000 80.890625 45.430634
36.600000 79.765625 45.431103
36.850000 78.593750 45.431591
36.650000 77.406250 45.432086
36.650000 76.328125 45.432535
36.875000 75.125000 45.433037
35.550000 89.375000 45.582690
35.325000 88.281250 45.583145
35.550000 86.859375 45.583738
35.275000 85.546875 45.584285
35.025000 84.625000 45.584669
35.200000 83.578125 45.585105
35.450000 82.250000 45.585658
35.900000 81.437500 45.585997
36.600000 80.140625 45.586537
36.875000 79.218750 45.586921
36.750000 78.046875 45.587410
36.725000 76.484375 45.588061
36.875000 75.796875 45.588347
35.350000 88.593750 45.752459
35.550000 87.343750 45.752980
35.625000 86.109375 45.753494
35.850000 85.109375 45.753911
35.575000 84.156250 45.754308
35.425000 83.187500 45.754711
35.975000 81.859375 45.755265
36.475000 80.687500 45.755753
36.925000 79.843750 45.756105
36.900000 78.156250 45.756808
36.775000 77.375000 45.757133
37.000000 76.359375 45.757556
37.250000 75.078125 45.758090
35.700000 86.718750 45.908384
35.800000 85.453125 45.908911
35.425000 84.328125 45.909380
