35.650000 86.031250 2.298371
35.650000 87.265625 2.298371
35.300000 89.015625 2.298371
34.975000 90.015625 2.298371
34.750000 91.328125 2.298371
35.925000 96.421875 2.298371
30.975000 111.015625 2.298371
35.550000 84.593750 2.452325
35.550000 85.921875 2.452325
35.675000 86.687500 2.452325
35.500000 88.375000 2.452325
35.075000 89.500000 2.452325
34.750000 91.031250 2.452325
34.725000 91.968750 2.452325
35.225000 93.140625 2.452325
35.725000 94.750000 2.452325
35.875000 95.968750 2.452325
36.275000 96.828125 2.452325
36.550000 97.984375 2.452325
35.675000 84.156250 2.595878
35.550000 85.453125 2.595878
35.500000 86.421875 2.595878
35.450000 87.625000 2.595878
35.175000 89.109375 2.595878
34.800000 90.750000 2.595878
34.750000 91.546875 2.595878
35.100000 93.093750 2.595878
35.575000 94.390625 2.595878
35.825000 95.406250 2.595878
36.150000 96.656250 2.595878
35.850000 83.375000 2.733902
35.575000 84.531250 2.733902
35.500000 86.046875 2.733902
35.475000 87.109375 2.733902
35.300000 88.593750 2.733902
34.975000 90.140625 2.733902
34.800000 91.515625 2.733902
35.300000 94.609375 2.733902
35.900000 95.984375 2.733902
36.200000 97.296875 2.733902
35.950000 82.843750 2.888349
35.550000 84.328125 2.888349
35.525000 85.750000 2.888349
35.500000 86.750000 2.888349
35.325000 88.062500 2.888349
35.050000 89.328125 2.888349
34.850000 91.109375 2.888349
35.000000 91.812500 2.888349
35.400000 93.484375 2.888349
35.725000 94.781250 2.888349
36.150000 98.390625 2.888349
35.675000 83.703125 3.032579
35.525000 85.390625 3.032579
35.500000 86.546875 3.032579
35.400000 87.593750 3.032579
35.200000 89.265625 3.032579
35.025000 90.109375 3.032579
35.125000 91.765625 3.032579
35.500000 92.828125 3.032579
35.750000 93.875000 3.032579
35.825000 95.390625 3.032579
36.125000 96.531250 3.032579
35.725000 83.468750 3.168648
35.500000 85.000000 3.168648
35.450000 86.406250 3.168648
35.350000 87.296875 3.168648
35.200000 88.578125 3.168648
35.125000 90.000000 3.168648
35.225000 91.578125 3.168648
35.500000 92.281250 3.168648
35.750000 94.046875 3.168648
35.800000 95.140625 3.168648
35.925000 96.437500 3.168648
35.925000 98.750000 3.168648
35.950000 83.000000 3.323890
35.550000 84.609375 3.323890
35.450000 85.734375 3.323890
35.425000 86.921875 3.323890
35.325000 88.343750 3.323890
35.225000 89.546875 3.323890
35.350000 90.734375 3.323890
35.550000 92.156250 3.323890
35.700000 93.390625 3.323890
35.775000 94.531250 3.323890
36.250000 98.281250 3.323890
31.150000 110.859375 3.323890
35.675000 84.218750 3.468243
35.525000 85.468750 3.468243
35.475000 86.250000 3.468243
35.375000 87.921875 3.468243
35.300000 89.109375 3.468243
35.375000 90.109375 3.468243
35.550000 91.375000 3.468243
35.675000 92.906250 3.468243
35.750000 94.171875 3.468243
35.825000 95.640625 3.468243
36.125000 96.640625 3.468243
35.850000 83.796875 3.603078
35.550000 84.671875 3.603078
35.475000 86.109375 3.603078
35.450000 87.156250 3.603078
35.375000 88.531250 3.603078
35.275000 90.046875 3.603078
35.400000 91.093750 3.603078
35.625000 92.250000 3.603078
35.750000 93.671875 3.603078
35.850000 94.937500 3.603078
35.925000 96.437500 3.603078
35.900000 98.734375 3.603078
30.975000 111.406250 3.603078
35.925000 83.031250 3.757200
35.575000 84.484375 3.757200
35.450000 86.062500 3.757200
35.400000 87.171875 3.757200
35.350000 88.593750 3.757200
35.200000 89.843750 3.757200
35.275000 90.750000 3.757200
35.550000 92.109375 3.757200
35.700000 93.656250 3.757200
35.850000 94.750000 3.757200
36.450000 98.156250 3.757200
31.100000 110.984375 3.757200
35.925000 83.171875 3.906163
35.550000 84.296875 3.906163
35.450000 85.562500 3.906163
35.400000 87.109375 3.906163
35.325000 88.140625 3.906163
35.225000 89.812500 3.906163
35.400000 91.000000 3.906163
35.600000 92.031250 3.906163
35.700000 93.421875 3.906163
35.850000 94.562500 3.906163
36.425000 98.078125 3.906163
35.600000 83.875000 4.052639
35.450000 85.328125 4.052639
35.425000 86.718750 4.052639
35.425000 87.968750 4.052639
35.375000 89.281250 4.052639
35.425000 90.718750 4.052639
35.625000 91.734375 4.052639
35.750000 92.812500 4.052639
35.900000 94.218750 4.052639
36.050000 95.437500 4.052639
36.475000 96.609375 4.052639
35.700000 83.703125 4.192317
35.500000 85.156250 4.192317
35.450000 86.078125 4.192317
35.375000 87.609375 4.192317
35.375000 88.718750 4.192317
35.400000 90.093750 4.192317
35.525000 91.515625 4.192317
35.750000 92.828125 4.192317
35.875000 93.796875 4.192317
36.025000 95.156250 4.192317
36.300000 96.187500 4.192317
35.900000 83.500000 4.331497
35.550000 84.593750 4.331497
35.450000 85.640625 4.331497
35.400000 87.250000 4.331497
35.350000 88.218750 4.331497
35.425000 89.812500 4.331497
35.650000 90.890625 4.331497
35.775000 91.890625 4.331497
35.900000 93.500000 4.331497
36.050000 94.468750 4.331497
31.125000 110.625000 4.331497
35.550000 84.531250 4.485148
35.500000 85.468750 4.485148
35.525000 86.625000 4.485148
35.500000 87.859375 4.485148
35.525000 89.296875 4.485148
35.575000 90.453125 4.485148
35.700000 91.703125 4.485148
35.850000 92.828125 4.485148
35.925000 94.265625 4.485148
36.075000 95.625000 4.485148
36.650000 96.484375 4.485148
37.125000 97.781250 4.485148
35.700000 83.765625 4.624857
35.550000 85.109375 4.624857
35.500000 86.437500 4.624857
35.425000 87.953125 4.624857
35.475000 89.234375 4.624857
35.500000 90.062500 4.624857
35.675000 91.328125 4.624857
35.925000 92.593750 4.624857
36.025000 94.281250 4.624857
36.150000 95.421875 4.624857
36.475000 96.484375 4.624857
35.700000 83.750000 4.780067
35.550000 85.093750 4.780067
35.575000 86.546875 4.780067
35.500000 88.015625 4.780067
35.475000 89.187500 4.780067
35.500000 90.515625 4.780067
35.675000 91.750000 4.780067
35.925000 92.984375 4.780067
36.025000 94.421875 4.780067
36.150000 95.281250 4.780067
36.475000 96.812500 4.780067
35.825000 83.718750 4.917542
35.550000 84.937500 4.917542
35.475000 85.843750 4.917542
35.450000 87.015625 4.917542
35.475000 88.453125 4.917542
35.600000 89.906250 4.917542
35.775000 90.828125 4.917542
35.900000 92.546875 4.917542
35.975000 93.406250 4.917542
36.100000 95.109375 4.917542
36.275000 96.062500 4.917542
36.750000 97.171875 4.917542
35.700000 84.062500 5.072852
35.575000 85.640625 5.072852
35.525000 86.640625 5.072852
35.500000 87.968750 5.072852
35.525000 89.531250 5.072852
35.650000 90.750000 5.072852
35.775000 91.828125 5.072852
35.925000 92.890625 5.072852
36.075000 94.218750 5.072852
36.200000 95.921875 5.072852
36.650000 96.906250 5.072852
36.925000 98.031250 5.072852
35.750000 83.906250 5.217131
35.600000 84.968750 5.217131
35.475000 86.453125 5.217131
35.400000 87.921875 5.217131
35.525000 88.671875 5.217131
35.600000 90.046875 5.217131
35.725000 91.234375 5.217131
35.950000 92.484375 5.217131
36.050000 94.140625 5.217131
36.125000 95.109375 5.217131
36.450000 96.468750 5.217131
35.875000 83.203125 5.352029
35.575000 84.406250 5.352029
35.550000 85.968750 5.352029
35.500000 87.234375 5.352029
35.500000 88.437500 5.352029
35.650000 89.531250 5.352029
35.750000 91.234375 5.352029
35.800000 92.421875 5.352029
35.900000 93.765625 5.352029
36.050000 94.703125 5.352029
36.225000 95.812500 5.352029
36.700000 97.125000 5.352029
31.100000 110.687500 5.352029
35.825000 83.843750 5.507079
35.600000 85.109375 5.507079
35.575000 86.390625 5.507079
35.575000 87.890625 5.507079
35.600000 88.781250 5.507079
35.575000 90.031250 5.507079
35.700000 91.609375 5.507079
35.950000 92.484375 5.507079
36.050000 94.187500 5.507079
36.125000 95.515625 5.507079
36.425000 96.515625 5.507079
36.900000 97.765625 5.507079
37.350000 98.859375 5.507079
35.925000 83.406250 5.653820
35.600000 84.609375 5.653820
35.550000 85.875000 5.653820
35.500000 87.250000 5.653820
35.500000 88.218750 5.653820
35.625000 89.859375 5.653820
35.725000 90.796875 5.653820
35.800000 92.093750 5.653820
35.900000 93.312500 5.653820
36.050000 94.843750 5.653820
36.200000 95.671875 5.653820
36.675000 96.890625 5.653820
37.075000 98.140625 5.653820
35.700000 84.328125 5.788311
35.575000 85.578125 5.788311
35.550000 86.656250 5.788311
35.475000 88.203125 5.788311
35.475000 89.234375 5.788311
35.600000 90.625000 5.788311
35.775000 91.484375 5.788311
35.925000 92.765625 5.788311
36.025000 94.062500 5.788311
36.125000 95.515625 5.788311
36.475000 96.468750 5.788311
36.725000 97.765625 5.788311
35.800000 83.859375 5.941848
35.675000 85.265625 5.941848
35.650000 86.125000 5.941848
35.575000 87.328125 5.941848
35.575000 88.640625 5.941848
35.550000 90.109375 5.941848
35.675000 91.140625 5.941848
35.925000 92.546875 5.941848
36.025000 93.968750 5.941848
36.100000 95.281250 5.941848
36.350000 96.281250 5.941848
36.725000 97.765625 5.941848
36.825000 99.156250 5.941848
35.950000 83.671875 6.081943
35.750000 84.437500 6.081943
35.700000 85.953125 6.081943
35.575000 87.140625 6.081943
35.475000 88.609375 6.081943
35.475000 89.671875 6.081943
35.625000 91.203125 6.081943
35.875000 92.656250 6.081943
35.975000 93.734375 6.081943
36.100000 95.171875 6.081943
36.225000 96.000000 6.081943
36.525000 97.140625 6.081943
30.975000 111.312500 6.081943
35.800000 84.703125 6.221132
35.700000 85.562500 6.221132
35.675000 87.203125 6.221132
35.550000 88.125000 6.221132
35.525000 89.437500 6.221132
35.700000 90.921875 6.221132
35.875000 91.906250 6.221132
35.950000 93.171875 6.221132
36.025000 94.781250 6.221132
36.175000 95.781250 6.221132
36.675000 96.937500 6.221132
36.925000 98.546875 6.221132
35.800000 84.000000 6.374905
35.650000 85.718750 6.374905
35.550000 86.890625 6.374905
35.500000 87.843750 6.374905
35.500000 89.468750 6.374905
35.650000 90.515625 6.374905
35.775000 91.921875 6.374905
35.925000 92.953125 6.374905
36.000000 94.062500 6.374905
36.075000 95.578125 6.374905
36.425000 96.921875 6.374905
35.925000 83.828125 6.532159
35.675000 85.015625 6.532159
35.700000 86.125000 6.532159
35.650000 87.578125 6.532159
35.500000 88.796875 6.532159
35.575000 90.140625 6.532159
35.775000 91.031250 6.532159
35.925000 92.593750 6.532159
36.000000 93.578125 6.532159
36.075000 94.750000 6.532159
36.200000 96.343750 6.532159
36.400000 97.328125 6.532159
31.150000 110.781250 6.532159
35.725000 84.390625 6.672595
35.700000 85.562500 6.672595
35.725000 86.750000 6.672595
35.575000 88.234375 6.672595
35.425000 89.484375 6.672595
35.550000 90.781250 6.672595
35.850000 92.062500 6.672595
36.000000 92.812500 6.672595
36.000000 94.296875 6.672595
36.075000 95.468750 6.672595
36.425000 96.578125 6.672595
36.500000 98.296875 6.672595
15.175000 138.656250 6.672595
36.075000 83.484375 6.812334
35.775000 84.781250 6.812334
35.700000 86.234375 6.812334
35.675000 87.359375 6.812334
35.575000 88.468750 6.812334
35.575000 89.687500 6.812334
35.675000 90.984375 6.812334
35.975000 92.265625 6.812334
36.150000 93.687500 6.812334
36.075000 94.921875 6.812334
36.175000 96.171875 6.812334
36.125000 83.156250 6.953090
35.825000 84.546875 6.953090
35.675000 85.640625 6.953090
35.625000 87.109375 6.953090
35.475000 88.515625 6.953090
35.425000 89.906250 6.953090
35.625000 91.031250 6.953090
35.950000 92.046875 6.953090
36.075000 93.375000 6.953090
36.025000 94.656250 6.953090
36.125000 96.125000 6.953090
36.450000 98.593750 6.953090
31.100000 110.859375 6.953090
35.825000 84.437500 7.109165
35.775000 85.703125 7.109165
35.675000 86.953125 7.109165
35.525000 88.078125 7.109165
35.450000 89.234375 7.109165
35.450000 90.625000 7.109165
35.775000 94.750000 7.109165
36.375000 98.125000 7.109165
31.300000 110.718750 7.109165
35.800000 83.968750 7.249418
35.725000 85.281250 7.249418
35.650000 86.718750 7.249418
35.500000 88.078125 7.249418
35.450000 89.156250 7.249418
35.425000 90.609375 7.249418
35.400000 91.578125 7.249418
35.775000 92.750000 7.249418
36.075000 94.156250 7.249418
36.050000 95.515625 7.249418
36.400000 96.609375 7.249418
36.025000 83.921875 7.388460
35.775000 85.265625 7.388460
35.725000 86.250000 7.388460
35.650000 87.640625 7.388460
35.475000 88.890625 7.388460
35.300000 90.328125 7.388460
35.650000 93.656250 7.388460
36.100000 95.046875 7.388460
36.350000 96.093750 7.388460
36.625000 97.453125 7.388460
36.475000 98.750000 7.388460
36.175000 83.484375 7.543472
35.775000 84.921875 7.543472
35.700000 86.250000 7.543472
35.775000 87.234375 7.543472
35.675000 88.796875 7.543472
35.325000 89.687500 7.543472
35.275000 91.000000 7.543472
35.750000 94.750000 7.543472
36.200000 96.062500 7.543472
36.300000 97.281250 7.543472
36.475000 98.671875 7.543472
31.075000 110.859375 7.543472
35.900000 84.203125 7.681320
35.750000 85.359375 7.681320
35.775000 87.093750 7.681320
35.650000 87.906250 7.681320
35.325000 89.484375 7.681320
35.175000 90.921875 7.681320
35.625000 94.296875 7.681320
36.150000 95.500000 7.681320
36.600000 96.671875 7.681320
36.800000 98.390625 7.681320
31.425000 110.640625 7.681320
35.925000 84.312500 7.836913
35.725000 85.578125 7.836913
35.825000 86.468750 7.836913
35.925000 88.046875 7.836913
35.600000 89.093750 7.836913
35.175000 90.265625 7.836913
35.250000 91.921875 7.836913
35.775000 92.593750 7.836913
36.075000 94.390625 7.836913
36.100000 95.296875 7.836913
36.475000 96.421875 7.836913
36.025000 83.906250 7.977214
35.875000 85.078125 7.977214
35.875000 86.343750 7.977214
36.150000 87.718750 7.977214
35.300000 90.687500 7.977214
35.375000 91.421875 7.977214
35.650000 93.046875 7.977214
35.975000 94.203125 7.977214
36.100000 95.093750 7.977214
36.450000 96.562500 7.977214
36.700000 98.046875 7.977214
37.075000 98.953125 7.977214
36.025000 83.828125 8.119840
35.775000 84.843750 8.119840
35.800000 86.359375 8.119840
36.350000 87.156250 8.119840
35.375000 89.890625 8.119840
35.375000 91.187500 8.119840
35.750000 95.406250 8.119840
36.250000 96.515625 8.119840
36.450000 97.687500 8.119840
35.975000 99.281250 8.119840
36.025000 83.890625 8.258979
35.875000 85.062500 8.258979
36.075000 86.015625 8.258979
36.525000 87.281250 8.258979
35.475000 89.875000 8.258979
35.475000 91.296875 8.258979
35.775000 95.328125 8.258979
36.225000 96.671875 8.258979
36.175000 83.531250 8.413822
35.800000 84.984375 8.413822
36.000000 86.046875 8.413822
36.275000 87.328125 8.413822
35.950000 88.765625 8.413822
35.325000 89.718750 8.413822
35.175000 90.953125 8.413822
35.525000 92.406250 8.413822
36.125000 93.546875 8.413822
36.325000 94.859375 8.413822
36.200000 95.843750 8.413822
36.375000 98.609375 8.413822
31.100000 111.031250 8.413822
35.925000 84.343750 8.553332
36.025000 85.406250 8.553332
36.325000 86.578125 8.553332
36.325000 87.984375 8.553332
35.725000 89.750000 8.553332
35.250000 90.687500 8.553332
35.400000 91.750000 8.553332
36.050000 92.921875 8.553332
36.300000 94.421875 8.553332
36.150000 95.703125 8.553332
36.600000 96.640625 8.553332
36.700000 98.234375 8.553332
36.025000 84.015625 8.707370
35.950000 84.750000 8.707370
36.250000 86.109375 8.707370
36.600000 87.578125 8.707370
36.275000 88.640625 8.707370
35.900000 90.125000 8.707370
35.700000 91.328125 8.707370
35.750000 95.375000 8.707370
36.225000 96.250000 8.707370
31.000000 111.125000 8.707370
36.125000 83.703125 8.848197
35.900000 84.765625 8.848197
36.075000 85.640625 8.848197
36.400000 86.875000 8.848197
36.275000 88.656250 8.848197
35.750000 89.937500 8.848197
35.425000 91.218750 8.848197
35.525000 92.250000 8.848197
36.100000 93.578125 8.848197
36.300000 94.609375 8.848197
36.175000 96.031250 8.848197
36.350000 98.453125 8.848197
31.075000 110.875000 8.848197
36.050000 84.218750 9.003584
36.100000 85.343750 9.003584
36.275000 86.937500 9.003584
36.475000 87.984375 9.003584
36.225000 89.250000 9.003584
35.975000 90.812500 9.003584
35.850000 91.828125 9.003584
35.800000 93.125000 9.003584
36.075000 94.500000 9.003584
36.150000 95.390625 9.003584
36.475000 96.781250 9.003584
31.675000 110.171875 9.003584
19.075000 127.015625 9.003584
36.050000 83.796875 9.143444
36.000000 85.187500 9.143444
36.125000 86.531250 9.143444
36.400000 87.671875 9.143444
36.250000 89.265625 9.143444
36.000000 90.531250 9.143444
35.750000 91.859375 9.143444
35.800000 95.625000 9.143444
36.450000 96.546875 9.143444
36.550000 97.765625 9.143444
36.425000 98.953125 9.143444
36.275000 83.343750 9.281550
36.000000 84.984375 9.281550
36.050000 85.906250 9.281550
36.375000 87.203125 9.281550
36.250000 88.437500 9.281550
35.875000 89.625000 9.281550
35.550000 91.031250 9.281550
35.725000 94.859375 9.281550
36.200000 96.218750 9.281550
36.675000 97.109375 9.281550
36.875000 98.453125 9.281550
35.975000 84.546875 9.436385
35.925000 86.125000 9.436385
36.075000 87.093750 9.436385
36.100000 88.187500 9.436385
35.950000 89.406250 9.436385
35.675000 90.890625 9.436385
35.450000 92.359375 9.436385
35.800000 93.343750 9.436385
36.125000 94.640625 9.436385
36.375000 98.234375 9.436385
36.000000 83.828125 9.575865
35.900000 85.343750 9.575865
36.050000 86.484375 9.575865
36.375000 88.078125 9.575865
36.200000 89.000000 9.575865
35.950000 90.343750 9.575865
35.650000 91.781250 9.575865
35.450000 93.156250 9.575865
35.900000 94.359375 9.575865
36.175000 95.593750 9.575865
36.500000 96.828125 9.575865
19.075000 127.031250 9.575865
36.025000 83.875000 9.714390
35.825000 85.125000 9.714390
35.850000 85.906250 9.714390
36.225000 87.265625 9.714390
36.250000 88.796875 9.714390
36.150000 90.171875 9.714390
35.850000 91.265625 9.714390
35.475000 92.859375 9.714390
35.800000 93.828125 9.714390
36.150000 95.171875 9.714390
36.625000 98.687500 9.714390
35.900000 84.046875 9.871123
35.775000 85.484375 9.871123
35.850000 86.796875 9.871123
36.275000 88.093750 9.871123
36.175000 89.250000 9.871123
35.900000 90.421875 9.871123
35.750000 91.968750 9.871123
35.750000 92.921875 9.871123
36.100000 94.640625 9.871123
36.200000 95.687500 9.871123
36.525000 96.812500 9.871123
36.975000 98.250000 9.871123
36.000000 83.625000 10.009616
35.775000 85.218750 10.009616
35.750000 86.328125 10.009616
36.175000 87.343750 10.009616
36.275000 89.140625 10.009616
35.975000 90.281250 10.009616
35.800000 91.390625 10.009616
35.800000 92.953125 10.009616
36.025000 94.203125 10.009616
36.175000 95.156250 10.009616
36.375000 96.453125 10.009616
36.925000 97.578125 10.009616
37.150000 98.671875 10.009616
36.000000 83.828125 10.163373
35.750000 85.187500 10.163373
35.650000 86.312500 10.163373
35.925000 87.671875 10.163373
36.200000 88.859375 10.163373
36.050000 89.750000 10.163373
35.925000 91.578125 10.163373
36.000000 92.484375 10.163373
36.125000 93.765625 10.163373
36.225000 94.796875 10.163373
36.275000 96.234375 10.163373
36.750000 97.593750 10.163373
36.675000 98.687500 10.163373
30.975000 111.218750 10.163373
35.950000 83.234375 10.304424
35.750000 84.500000 10.304424
35.675000 86.250000 10.304424
35.825000 87.093750 10.304424
36.125000 88.468750 10.304424
36.025000 89.781250 10.304424
35.800000 90.843750 10.304424
35.925000 92.156250 10.304424
36.100000 93.593750 10.304424
36.150000 94.984375 10.304424
36.200000 95.953125 10.304424
36.750000 97.125000 10.304424
37.150000 98.500000 10.304424
31.150000 111.156250 10.304424
36.100000 83.453125 10.445967
35.800000 84.718750 10.445967
35.625000 85.718750 10.445967
35.625000 87.203125 10.445967
36.025000 88.062500 10.445967
36.100000 89.359375 10.445967
35.850000 91.109375 10.445967
35.900000 92.234375 10.445967
36.075000 93.453125 10.445967
36.125000 94.468750 10.445967
36.575000 98.156250 10.445967
31.100000 110.953125 10.445967
35.775000 84.562500 10.586716
35.550000 85.546875 10.586716
35.575000 86.687500 10.586716
36.025000 87.968750 10.586716
36.125000 89.296875 10.586716
35.850000 90.390625 10.586716
35.900000 91.921875 10.586716
36.050000 93.078125 10.586716
36.150000 94.671875 10.586716
36.175000 95.437500 10.586716
36.600000 96.593750 10.586716
36.925000 97.890625 10.586716
35.775000 84.328125 10.741537
35.525000 85.625000 10.741537
35.550000 87.031250 10.741537
36.000000 87.953125 10.741537
36.100000 89.640625 10.741537
35.825000 90.390625 10.741537
35.875000 92.140625 10.741537
36.025000 92.984375 10.741537
36.125000 94.421875 10.741537
36.175000 95.812500 10.741537
36.575000 96.703125 10.741537
36.850000 98.156250 10.741537
35.775000 83.953125 10.882602
35.525000 85.281250 10.882602
35.550000 86.609375 10.882602
36.000000 88.140625 10.882602
36.075000 89.000000 10.882602
35.800000 90.437500 10.882602
35.825000 91.796875 10.882602
35.900000 92.984375 10.882602
36.075000 94.187500 10.882602
36.175000 95.671875 10.882602
36.500000 96.718750 10.882602
31.575000 110.296875 10.882602
35.700000 84.343750 11.036288
35.525000 85.578125 11.036288
35.650000 86.890625 11.036288
36.050000 88.265625 11.036288
35.975000 89.578125 11.036288
35.650000 91.031250 11.036288
35.750000 91.796875 11.036288
35.725000 93.562500 11.036288
35.850000 94.578125 11.036288
36.150000 95.578125 11.036288
36.550000 97.171875 11.036288
36.750000 98.109375 11.036288
35.775000 84.406250 11.176560
35.600000 85.421875 11.176560
35.650000 86.937500 11.176560
36.025000 87.718750 11.176560
35.950000 89.031250 11.176560
35.625000 90.265625 11.176560
35.550000 91.953125 11.176560
35.550000 93.000000 11.176560
35.900000 94.078125 11.176560
36.150000 95.437500 11.176560
36.400000 96.437500 11.176560
35.900000 83.640625 11.316604
35.650000 85.234375 11.316604
35.600000 86.546875 11.316604
35.975000 87.703125 11.316604
35.975000 88.906250 11.316604
35.775000 90.468750 11.316604
35.700000 91.750000 11.316604
35.450000 92.812500 11.316604
35.475000 93.984375 11.316604
35.825000 95.015625 11.316604
36.175000 96.671875 11.316604
36.500000 97.593750 11.316604
36.000000 83.531250 11.471630
35.575000 84.359375 11.471630
35.550000 86.031250 11.471630
35.900000 87.359375 11.471630
36.025000 88.500000 11.471630
35.975000 89.609375 11.471630
35.925000 91.125000 11.471630
35.475000 92.203125 11.471630
35.350000 93.671875 11.471630
35.800000 94.859375 11.471630
36.225000 98.343750 11.471630
35.650000 84.250000 11.611956
35.600000 85.875000 11.611956
35.725000 86.703125 11.611956
35.950000 87.875000 11.611956
35.875000 89.156250 11.611956
35.550000 90.546875 11.611956
35.300000 91.875000 11.611956
35.175000 93.562500 11.611956
35.475000 94.625000 11.611956
35.900000 95.437500 11.611956
36.350000 97.140625 11.611956
35.775000 84.046875 11.764404
35.650000 85.421875 11.764404
35.800000 86.390625 11.764404
35.925000 87.640625 11.764404
35.850000 88.703125 11.764404
35.775000 90.453125 11.764404
35.500000 91.390625 11.764404
35.200000 92.671875 11.764404
35.125000 94.000000 11.764404
35.500000 95.546875 11.764404
36.050000 96.250000 11.764404
36.375000 97.875000 11.764404
35.850000 83.578125 11.894308
35.625000 85.203125 11.894308
35.775000 86.421875 11.894308
35.950000 87.484375 11.894308
35.825000 88.890625 11.894308
35.750000 90.250000 11.894308
35.650000 91.125000 11.894308
35.225000 92.703125 11.894308
35.150000 94.046875 11.894308
35.600000 94.968750 11.894308
35.950000 96.171875 11.894308
36.300000 97.281250 11.894308
36.450000 98.718750 11.894308
31.000000 111.062500 11.894308
35.850000 83.078125 12.045614
35.575000 84.671875 12.045614
35.675000 85.890625 12.045614
36.000000 87.375000 12.045614
35.850000 88.500000 12.045614
35.675000 89.906250 12.045614
35.625000 91.250000 12.045614
35.225000 92.171875 12.045614
35.125000 93.593750 12.045614
35.550000 94.609375 12.045614
36.100000 98.703125 12.045614
35.550000 84.312500 12.186413
35.700000 85.843750 12.186413
35.925000 86.750000 12.186413
35.775000 88.578125 12.186413
35.650000 89.640625 12.186413
35.500000 90.671875 12.186413
35.250000 92.312500 12.186413
35.225000 93.250000 12.186413
35.550000 94.406250 12.186413
35.900000 96.078125 12.186413
36.250000 96.781250 12.186413
36.450000 98.359375 12.186413
35.550000 84.609375 12.335365
35.700000 86.031250 12.335365
35.825000 86.875000 12.335365
35.725000 88.406250 12.335365
35.625000 89.609375 12.335365
35.525000 90.703125 12.335365
35.225000 92.015625 12.335365
35.175000 93.609375 12.335365
35.625000 94.328125 12.335365
35.875000 95.828125 12.335365
36.250000 96.890625 12.335365
36.450000 98.218750 12.335365
31.225000 110.859375 12.335365
35.600000 83.859375 12.479476
35.650000 85.609375 12.479476
35.850000 86.562500 12.479476
35.825000 87.984375 12.479476
35.575000 89.140625 12.479476
35.600000 90.453125 12.479476
35.300000 91.687500 12.479476
35.075000 93.140625 12.479476
35.600000 94.203125 12.479476
35.850000 95.593750 12.479476
36.150000 96.718750 12.479476
35.625000 84.031250 12.633212
35.625000 85.406250 12.633212
35.925000 86.343750 12.633212
36.025000 87.734375 12.633212
35.575000 89.218750 12.633212
35.325000 90.203125 12.633212
35.100000 91.734375 12.633212
35.075000 93.109375 12.633212
35.700000 94.328125 12.633212
35.975000 95.593750 12.633212
36.150000 96.421875 12.633212
35.725000 83.750000 12.775363
35.525000 84.875000 12.775363
35.700000 86.343750 12.775363
35.825000 87.375000 12.775363
35.450000 88.796875 12.775363
35.075000 90.328125 12.775363
34.825000 91.187500 12.775363
34.875000 92.468750 12.775363
35.450000 93.875000 12.775363
35.875000 95.000000 12.775363
35.925000 96.468750 12.775363
36.200000 97.515625 12.775363
31.000000 111.312500 12.775363
35.550000 84.312500 12.915467
35.675000 85.718750 12.915467
35.825000 86.843750 12.915467
35.525000 88.203125 12.915467
35.075000 89.406250 12.915467
34.800000 90.875000 12.915467
34.800000 92.031250 12.915467
35.075000 93.453125 12.915467
35.525000 94.859375 12.915467
35.875000 95.968750 12.915467
36.225000 97.125000 12.915467
36.550000 98.265625 12.915467
35.675000 83.906250 13.069344
35.550000 85.140625 13.069344
35.650000 86.343750 13.069344
35.600000 87.484375 13.069344
35.250000 89.125000 13.069344
34.925000 90.015625 13.069344
34.800000 91.765625 13.069344
35.000000 92.750000 13.069344
35.550000 94.031250 13.069344
35.850000 95.500000 13.069344
36.025000 96.609375 13.069344
36.250000 97.875000 13.069344
36.275000 98.953125 13.069344
35.850000 83.531250 13.209274
35.600000 84.968750 13.209274
35.550000 86.203125 13.209274
35.400000 87.375000 13.209274
35.225000 88.625000 13.209274
34.975000 89.937500 13.209274
34.750000 91.468750 13.209274
34.875000 92.703125 13.209274
35.450000 93.640625 13.209274
35.850000 94.937500 13.209274
35.925000 96.109375 13.209274
36.200000 97.656250 13.209274
36.000000 83.453125 13.352027
35.575000 84.781250 13.352027
35.500000 85.640625 13.352027
35.500000 87.328125 13.352027
35.350000 88.296875 13.352027
35.050000 90.015625 13.352027
34.850000 91.000000 13.352027
35.050000 92.296875 13.352027
35.575000 93.765625 13.352027
35.825000 95.000000 13.352027
36.175000 98.250000 13.352027
35.625000 84.218750 13.507280
35.500000 85.765625 13.507280
35.475000 87.265625 13.507280
35.350000 88.390625 13.507280
35.075000 89.609375 13.507280
34.900000 90.578125 13.507280
35.125000 92.078125 13.507280
35.575000 93.328125 13.507280
35.775000 94.437500 13.507280
35.875000 95.875000 13.507280
36.325000 97.296875 13.507280
36.575000 98.234375 13.507280
35.625000 84.250000 13.647852
35.550000 85.140625 13.647852
35.475000 86.625000 13.647852
35.425000 87.781250 13.647852
35.200000 89.156250 13.647852
35.025000 90.656250 13.647852
35.125000 92.125000 13.647852
35.475000 92.906250 13.647852
35.825000 94.109375 13.647852
35.850000 95.453125 13.647852
36.075000 96.937500 13.647852
36.300000 97.921875 13.647852
35.725000 83.875000 13.789130
35.525000 85.265625 13.789130
35.450000 86.328125 13.789130
35.375000 88.046875 13.789130
35.275000 89.359375 13.789130
35.200000 90.359375 13.789130
35.275000 91.937500 13.789130
35.550000 93.015625 13.789130
35.750000 93.937500 13.789130
35.850000 95.656250 13.789130
36.125000 96.328125 13.789130
35.925000 83.468750 13.943303
35.575000 84.921875 13.943303
35.500000 85.734375 13.943303
35.500000 87.187500 13.943303
35.350000 88.406250 13.943303
35.250000 89.515625 13.943303
35.350000 91.156250 13.943303
35.550000 92.421875 13.943303
35.725000 93.562500 13.943303
35.800000 94.937500 13.943303
36.250000 98.515625 13.943303
35.625000 84.343750 14.082324
35.475000 85.796875 14.082324
35.450000 86.843750 14.082324
35.325000 88.265625 14.082324
35.175000 89.234375 14.082324
35.350000 90.656250 14.082324
35.600000 92.203125 14.082324
35.700000 93.406250 14.082324
35.775000 94.406250 14.082324
35.875000 95.546875 14.082324
36.300000 97.203125 14.082324
36.500000 98.125000 14.082324
35.625000 84.187500 14.237084
35.500000 85.703125 14.237084
35.425000 87.187500 14.237084
35.300000 88.296875 14.237084
35.175000 89.531250 14.237084
35.350000 90.890625 14.237084
35.575000 92.156250 14.237084
35.675000 93.406250 14.237084
35.775000 94.265625 14.237084
35.900000 95.515625 14.237084
36.275000 96.968750 14.237084
36.500000 98.015625 14.237084
35.600000 84.296875 14.376024
35.475000 85.750000 14.376024
35.425000 87.296875 14.376024
35.300000 88.437500 14.376024
35.275000 89.703125 14.376024
35.450000 91.000000 14.376024
35.575000 92.093750 14.376024
35.675000 93.171875 14.376024
35.775000 94.671875 14.376024
35.900000 95.906250 14.376024
36.300000 96.984375 14.376024
36.600000 98.125000 14.376024
31.250000 110.734375 14.376024
35.625000 84.562500 14.518062
35.450000 85.640625 14.518062
35.400000 87.125000 14.518062
35.400000 88.296875 14.518062
35.350000 89.625000 14.518062
35.450000 90.703125 14.518062
35.575000 92.046875 14.518062
35.700000 92.968750 14.518062
35.875000 94.343750 14.518062
36.000000 95.703125 14.518062
36.450000 96.734375 14.518062
35.700000 84.125000 14.672162
35.500000 85.312500 14.672162
35.450000 86.796875 14.672162
35.375000 87.765625 14.672162
35.350000 88.937500 14.672162
35.450000 90.187500 14.672162
35.600000 91.812500 14.672162
35.725000 93.031250 14.672162
35.850000 93.984375 14.672162
36.025000 95.562500 14.672162
36.350000 96.359375 14.672162
35.800000 83.656250 14.812523
35.525000 84.812500 14.812523
35.500000 86.125000 14.812523
35.400000 87.625000 14.812523
35.350000 88.609375 14.812523
35.375000 90.187500 14.812523
35.550000 91.078125 14.812523
35.800000 92.281250 14.812523
35.850000 93.968750 14.812523
36.025000 94.734375 14.812523
36.575000 98.921875 14.812523
30.975000 111.093750 14.812523
35.900000 83.421875 14.955812
35.575000 84.515625 14.955812
35.500000 85.750000 14.955812
35.475000 87.390625 14.955812
35.425000 88.609375 14.955812
35.475000 89.796875 14.955812
35.650000 90.734375 14.955812
35.750000 92.015625 14.955812
35.775000 93.515625 14.955812
35.975000 94.687500 14.955812
31.125000 110.593750 14.955812
35.575000 84.343750 15.106483
35.475000 85.671875 15.106483
35.425000 86.750000 15.106483
35.450000 87.984375 15.106483
35.525000 89.750000 15.106483
35.650000 91.046875 15.106483
35.775000 91.828125 15.106483
35.900000 93.515625 15.106483
35.975000 94.750000 15.106483
35.700000 84.187500 15.246294
35.500000 85.296875 15.246294
35.450000 86.734375 15.246294
35.450000 87.750000 15.246294
35.500000 89.296875 15.246294
35.600000 90.328125 15.246294
35.775000 91.484375 15.246294
35.925000 93.234375 15.246294
36.050000 94.031250 15.246294
36.175000 95.390625 15.246294
36.575000 96.859375 15.246294
36.950000 97.937500 15.246294
35.700000 84.265625 15.393293
35.525000 85.484375 15.393293
35.475000 86.953125 15.393293
35.475000 88.265625 15.393293
35.550000 89.140625 15.393293
35.625000 90.375000 15.393293
35.775000 91.750000 15.393293
35.925000 92.734375 15.393293
36.050000 94.156250 15.393293
36.175000 95.359375 15.393293
36.575000 96.593750 15.393293
36.825000 97.875000 15.393293
35.775000 84.015625 15.543517
35.650000 85.234375 15.543517
35.650000 86.515625 15.543517
35.600000 87.843750 15.543517
35.525000 88.828125 15.543517
35.525000 90.578125 15.543517
35.700000 91.765625 15.543517
35.950000 92.656250 15.543517
36.075000 93.859375 15.543517
36.175000 95.265625 15.543517
36.425000 96.406250 15.543517
35.775000 83.609375 15.683040
35.600000 85.281250 15.683040
35.550000 86.453125 15.683040
35.525000 87.828125 15.683040
35.525000 88.765625 15.683040
35.525000 90.312500 15.683040
35.675000 91.187500 15.683040
35.950000 92.921875 15.683040
36.050000 94.000000 15.683040
36.150000 95.078125 15.683040
36.450000 96.484375 15.683040
35.925000 83.250000 15.831731
35.675000 84.171875 15.831731
35.650000 85.406250 15.831731
35.625000 86.765625 15.831731
35.550000 88.093750 15.831731
35.650000 89.609375 15.831731
35.775000 90.781250 15.831731
35.800000 91.937500 15.831731
35.900000 93.375000 15.831731
36.075000 94.671875 15.831731
36.250000 95.781250 15.831731
36.775000 96.843750 15.831731
37.200000 98.140625 15.831731
35.775000 83.750000 15.980498
35.650000 84.828125 15.980498
35.625000 86.375000 15.980498
35.550000 87.656250 15.980498
35.525000 89.062500 15.980498
35.525000 90.218750 15.980498
35.675000 91.484375 15.980498
35.925000 92.625000 15.980498
36.050000 94.125000 15.980498
36.150000 94.968750 15.980498
36.450000 96.671875 15.980498
18.600000 127.843750 15.980498
35.975000 83.187500 16.119772
35.725000 84.765625 16.119772
35.650000 86.109375 16.119772
35.550000 87.406250 16.119772
35.500000 88.375000 16.119772
35.650000 89.484375 16.119772
35.775000 90.734375 16.119772
35.875000 92.140625 16.119772
36.000000 93.562500 16.119772
36.075000 94.656250 16.119772
36.225000 95.734375 16.119772
36.675000 97.015625 16.119772
31.100000 110.718750 16.119772
35.925000 83.265625 16.274472
35.650000 84.484375 16.274472
35.650000 85.468750 16.274472
35.600000 86.968750 16.274472
35.525000 88.250000 16.274472
35.625000 89.500000 16.274472
35.775000 91.000000 16.274472
35.800000 92.062500 16.274472
35.900000 93.515625 16.274472
36.025000 94.734375 16.274472
36.200000 95.890625 16.274472
36.675000 96.843750 16.274472
37.050000 98.171875 16.274472
31.125000 110.640625 16.274472
35.950000 83.093750 16.413506
35.675000 84.765625 16.413506
35.650000 86.062500 16.413506
35.600000 87.328125 16.413506
35.525000 88.281250 16.413506
35.625000 89.515625 16.413506
35.775000 91.078125 16.413506
35.875000 91.906250 16.413506
35.975000 93.562500 16.413506
36.050000 94.296875 16.413506
36.200000 95.562500 16.413506
36.650000 96.921875 16.413506
37.050000 98.015625 16.413506
36.050000 83.015625 16.552783
35.675000 84.531250 16.552783
35.650000 85.578125 16.552783
35.600000 87.218750 16.552783
35.525000 87.968750 16.552783
35.600000 89.390625 16.552783
35.750000 90.984375 16.552783
35.800000 92.171875 16.552783
35.900000 93.484375 16.552783
36.050000 94.453125 16.552783
36.200000 95.656250 16.552783
36.650000 97.046875 16.552783
36.975000 98.359375 16.552783
35.725000 83.890625 16.703158
35.625000 85.375000 16.703158
35.625000 86.812500 16.703158
35.525000 88.000000 16.703158
35.525000 89.468750 16.703158
35.625000 90.343750 16.703158
35.775000 91.515625 16.703158
35.925000 92.953125 16.703158
36.050000 94.015625 16.703158
36.150000 95.265625 16.703158
36.475000 96.828125 16.703158
36.650000 97.812500 16.703158
35.775000 83.828125 16.848429
35.650000 85.296875 16.848429
35.625000 86.484375 16.848429
35.550000 87.562500 16.848429
35.525000 89.250000 16.848429
35.675000 90.093750 16.848429
35.800000 91.812500 16.848429
35.925000 92.953125 16.848429
36.025000 94.031250 16.848429
36.150000 95.546875 16.848429
36.400000 96.406250 16.848429
35.775000 83.578125 16.988419
35.650000 85.000000 16.988419
35.625000 86.687500 16.988419
35.550000 87.750000 16.988419
35.500000 88.656250 16.988419
35.600000 90.359375 16.988419
35.775000 91.703125 16.988419
35.925000 92.562500 16.988419
36.025000 94.046875 16.988419
36.125000 95.218750 16.988419
36.425000 96.703125 16.988419
36.675000 97.640625 16.988419
37.050000 98.968750 16.988419
35.900000 83.781250 17.141771
35.725000 85.078125 17.141771
35.600000 86.359375 17.141771
35.525000 87.453125 17.141771
35.475000 88.812500 17.141771
35.575000 89.984375 17.141771
35.750000 91.359375 17.141771
35.825000 92.734375 17.141771
35.950000 94.015625 17.141771
36.075000 95.203125 17.141771
36.250000 96.187500 17.141771
36.475000 97.296875 17.141771
36.100000 99.000000 17.141771
35.975000 83.312500 17.282551
35.725000 84.546875 17.282551
35.675000 86.265625 17.282551
35.625000 86.953125 17.282551
35.525000 88.234375 17.282551
35.600000 89.578125 17.282551
35.800000 91.265625 17.282551
35.925000 92.203125 17.282551
36.000000 93.500000 17.282551
36.050000 94.546875 17.282551
36.175000 95.781250 17.282551
36.375000 97.125000 17.282551
35.775000 84.593750 17.436351
35.650000 85.656250 17.436351
35.625000 86.656250 17.436351
35.525000 88.453125 17.436351
35.575000 89.640625 17.436351
35.725000 90.625000 17.436351
35.925000 91.796875 17.436351
36.025000 93.515625 17.436351
36.050000 94.734375 17.436351
36.425000 98.250000 17.436351
31.325000 110.781250 17.436351
35.825000 84.296875 17.580510
35.725000 85.203125 17.580510
35.650000 86.625000 17.580510
35.625000 87.656250 17.580510
35.600000 89.296875 17.580510
35.575000 90.390625 17.580510
35.600000 91.421875 17.580510
35.800000 92.890625 17.580510
36.025000 94.140625 17.580510
36.125000 95.531250 17.580510
36.400000 96.546875 17.580510
36.500000 97.656250 17.580510
35.975000 83.562500 17.717273
35.725000 84.984375 17.717273
35.675000 86.296875 17.717273
35.625000 87.328125 17.717273
35.525000 88.703125 17.717273
35.450000 89.671875 17.717273
35.550000 91.093750 17.717273
36.075000 92.468750 17.717273
36.250000 93.656250 17.717273
36.050000 94.953125 17.717273
36.225000 96.171875 17.717273
36.150000 83.250000 17.872791
35.775000 84.375000 17.872791
35.675000 85.765625 17.872791
35.625000 86.812500 17.872791
35.525000 88.343750 17.872791
35.400000 89.765625 17.872791
35.375000 90.968750 17.872791
35.350000 91.906250 17.872791
35.650000 93.531250 17.872791
36.025000 94.468750 17.872791
36.175000 96.015625 17.872791
36.650000 97.156250 17.872791
36.875000 98.015625 17.872791
31.250000 110.812500 17.872791
35.825000 84.187500 18.015403
35.725000 85.578125 18.015403
35.700000 86.953125 18.015403
35.700000 87.937500 18.015403
35.500000 89.109375 18.015403
35.300000 90.703125 18.015403
35.450000 91.843750 18.015403
36.050000 93.218750 18.015403
36.275000 94.218750 18.015403
36.125000 95.593750 18.015403
36.475000 96.937500 18.015403
36.675000 97.937500 18.015403
36.025000 83.750000 18.153318
35.750000 84.843750 18.153318
35.725000 86.500000 18.153318
35.825000 87.343750 18.153318
35.600000 89.062500 18.153318
35.250000 90.218750 18.153318
35.600000 94.078125 18.153318
36.100000 95.390625 18.153318
36.400000 96.640625 18.153318
36.600000 97.390625 18.153318
36.700000 98.968750 18.153318
36.225000 83.312500 18.306395
35.800000 84.734375 18.306395
35.725000 85.609375 18.306395
35.900000 86.937500 18.306395
35.675000 88.750000 18.306395
35.250000 89.609375 18.306395
35.175000 91.015625 18.306395
35.650000 94.968750 18.306395
36.150000 95.734375 18.306395
36.475000 98.203125 18.306395
31.075000 110.921875 18.306395
35.850000 84.562500 18.452185
35.750000 85.875000 18.452185
35.925000 87.046875 18.452185
35.800000 88.203125 18.452185
35.375000 89.406250 18.452185
35.200000 90.953125 18.452185
35.375000 91.812500 18.452185
36.075000 93.406250 18.452185
36.275000 94.390625 18.452185
36.400000 98.125000 18.452185
35.925000 84.031250 18.587787
35.825000 85.734375 18.587787
36.025000 86.625000 18.587787
35.925000 88.343750 18.587787
35.475000 89.453125 18.587787
35.275000 90.687500 18.587787
35.650000 94.250000 18.587787
36.325000 98.093750 18.587787
36.000000 83.859375 18.744368
35.925000 85.578125 18.744368
36.175000 86.406250 18.744368
36.225000 87.890625 18.744368
35.675000 89.265625 18.744368
35.400000 90.593750 18.744368
35.525000 91.796875 18.744368
36.025000 92.843750 18.744368
36.250000 94.250000 18.744368
36.125000 95.390625 18.744368
36.550000 96.593750 18.744368
36.050000 83.921875 18.888087
35.950000 84.765625 18.888087
36.125000 86.468750 18.888087
36.525000 87.687500 18.888087
35.500000 90.390625 18.888087
35.500000 91.296875 18.888087
35.775000 95.250000 18.888087
36.275000 96.234375 18.888087
35.875000 84.625000 19.026219
36.000000 85.718750 19.026219
36.375000 87.062500 19.026219
36.175000 88.281250 19.026219
35.300000 89.500000 19.026219
35.025000 90.796875 19.026219
35.650000 94.328125 19.026219
36.225000 98.203125 19.026219
36.000000 84.140625 19.181568
35.925000 85.000000 19.181568
36.250000 86.203125 19.181568
36.450000 87.984375 19.181568
36.050000 89.328125 19.181568
36.100000 90.468750 19.181568
36.025000 91.609375 19.181568
35.750000 92.625000 19.181568
36.000000 94.125000 19.181568
36.125000 95.156250 19.181568
36.475000 96.562500 19.181568
36.025000 83.812500 19.325496
35.925000 85.000000 19.325496
36.150000 86.406250 19.325496
36.525000 87.500000 19.325496
36.275000 88.562500 19.325496
35.975000 90.250000 19.325496
35.775000 91.140625 19.325496
35.775000 95.296875 19.325496
36.275000 96.265625 19.325496
36.350000 97.703125 19.325496
35.875000 99.015625 19.325496
18.575000 127.921875 19.325496
36.025000 83.906250 19.462039
35.925000 85.093750 19.462039
36.150000 86.140625 19.462039
36.450000 87.390625 19.462039
36.200000 89.015625 19.462039
35.825000 89.937500 19.462039
35.625000 91.625000 19.462039
35.775000 95.265625 19.462039
36.250000 96.343750 19.462039
36.175000 83.375000 19.616249
35.950000 84.734375 19.616249
36.050000 85.796875 19.616249
36.325000 87.093750 19.616249
36.175000 88.171875 19.616249
35.775000 89.343750 19.616249
35.475000 91.125000 19.616249
35.650000 94.500000 19.616249
36.250000 98.625000 19.616249
36.025000 84.421875 19.761795
36.075000 85.328125 19.761795
36.175000 86.812500 19.761795
36.350000 87.984375 19.761795
36.150000 89.312500 19.761795
36.000000 90.312500 19.761795
35.850000 91.718750 19.761795
35.675000 93.156250 19.761795
35.950000 94.250000 19.761795
36.125000 95.406250 19.761795
36.550000 96.437500 19.761795
36.025000 83.468750 19.909831
35.925000 85.234375 19.909831
36.075000 86.328125 19.909831
36.350000 87.640625 19.909831
36.275000 88.734375 19.909831
36.100000 89.906250 19.909831
35.825000 91.328125 19.909831
35.800000 95.421875 19.909831
36.350000 96.359375 19.909831
36.425000 97.609375 19.909831
36.225000 98.984375 19.909831
36.125000 83.640625 20.049473
35.950000 84.437500 20.049473
35.975000 85.734375 20.049473
36.300000 87.140625 20.049473
36.225000 88.328125 20.049473
35.875000 90.062500 20.049473
35.575000 90.890625 20.049473
35.375000 92.359375 20.049473
35.775000 93.718750 20.049473
36.125000 94.750000 20.049473
36.425000 98.625000 20.049473
31.225000 110.937500 20.049473
35.950000 84.156250 20.189127
35.825000 85.093750 20.189127
35.975000 86.546875 20.189127
36.300000 87.953125 20.189127
36.125000 89.062500 20.189127
35.775000 90.515625 20.189127
35.525000 91.625000 20.189127
35.425000 92.890625 20.189127
35.875000 93.812500 20.189127
36.200000 95.546875 20.189127
36.450000 96.281250 20.189127
36.775000 97.531250 20.189127
37.175000 99.171875 20.189127
36.125000 83.187500 20.345714
35.825000 84.515625 20.345714
35.775000 85.640625 20.345714
35.900000 87.375000 20.345714
36.075000 88.234375 20.345714
36.075000 89.468750 20.345714
35.675000 90.937500 20.345714
35.450000 92.125000 20.345714
35.750000 93.578125 20.345714
36.050000 94.640625 20.345714
36.175000 96.109375 20.345714
36.625000 97.218750 20.345714
37.150000 98.109375 20.345714
35.950000 83.937500 20.486993
35.800000 85.546875 20.486993
35.825000 86.406250 20.486993
36.225000 87.625000 20.486993
36.150000 89.062500 20.486993
35.825000 90.546875 20.486993
35.650000 91.671875 20.486993
35.700000 93.171875 20.486993
36.050000 94.203125 20.486993
36.150000 95.562500 20.486993
36.525000 96.921875 20.486993
36.975000 98.031250 20.486993
36.000000 83.640625 20.626043
35.800000 85.000000 20.626043
35.725000 86.062500 20.626043
36.100000 87.718750 20.626043
36.300000 88.906250 20.626043
36.025000 90.171875 20.626043
35.775000 91.468750 20.626043
35.775000 92.421875 20.626043
36.050000 93.921875 20.626043
36.200000 94.781250 20.626043
36.250000 96.187500 20.626043
36.825000 97.640625 20.626043
36.725000 98.812500 20.626043
36.050000 83.171875 20.782241
35.750000 84.375000 20.782241
35.750000 86.078125 20.782241
35.875000 87.093750 20.782241
36.075000 88.515625 20.782241
36.000000 89.484375 20.782241
35.800000 91.062500 20.782241
35.900000 92.093750 20.782241
36.050000 93.625000 20.782241
36.125000 94.968750 20.782241
36.700000 98.125000 20.782241
31.175000 110.890625 20.782241
35.875000 84.359375 20.921479
35.650000 85.703125 20.921479
35.625000 86.609375 20.921479
36.050000 87.640625 20.921479
36.225000 89.359375 20.921479
35.950000 90.609375 20.921479
35.900000 91.765625 20.921479
35.975000 93.234375 20.921479
36.075000 94.031250 20.921479
36.150000 95.312500 20.921479
36.525000 96.656250 20.921479
31.600000 110.406250 20.921479
35.975000 83.890625 21.063186
35.675000 84.859375 21.063186
35.525000 86.562500 21.063186
35.950000 87.656250 21.063186
36.250000 88.640625 21.063186
36.025000 90.343750 21.063186
35.900000 91.109375 21.063186
35.975000 92.625000 21.063186
36.100000 93.781250 21.063186
36.250000 94.953125 21.063186
36.425000 96.593750 21.063186
36.925000 97.781250 21.063186
36.725000 99.125000 21.063186
36.050000 83.515625 21.215641
35.750000 84.812500 21.215641
35.650000 86.187500 21.215641
35.750000 87.437500 21.215641
36.050000 88.531250 21.215641
35.975000 90.015625 21.215641
35.775000 90.968750 21.215641
35.900000 92.015625 21.215641
36.100000 93.531250 21.215641
36.225000 94.562500 21.215641
36.225000 96.140625 21.215641
36.650000 97.343750 21.215641
36.950000 98.406250 21.215641
35.850000 84.234375 21.355906
35.600000 85.390625 21.355906
35.600000 86.578125 21.355906
36.075000 88.046875 21.355906
36.250000 89.000000 21.355906
35.900000 90.562500 21.355906
35.850000 91.406250 21.355906
35.975000 93.156250 21.355906
36.075000 93.953125 21.355906
36.175000 95.359375 21.355906
36.525000 96.640625 21.355906
35.975000 83.906250 21.512359
35.675000 84.812500 21.512359
35.550000 86.234375 21.512359
35.925000 87.093750 21.512359
36.225000 88.406250 21.512359
36.025000 89.921875 21.512359
35.800000 91.437500 21.512359
35.925000 92.687500 21.512359
36.100000 93.875000 21.512359
36.125000 94.718750 21.512359
36.250000 96.046875 21.512359
36.675000 97.671875 21.512359
36.000000 83.328125 21.652089
35.625000 84.718750 21.652089
35.575000 85.765625 21.652089
35.775000 87.375000 21.652089
36.025000 88.281250 21.652089
36.025000 89.625000 21.652089
35.775000 91.296875 21.652089
35.900000 92.437500 21.652089
36.000000 93.593750 21.652089
36.000000 94.875000 21.652089
36.200000 96.203125 21.652089
36.550000 97.171875 21.652089
36.700000 98.703125 21.652089
35.700000 84.296875 21.792932
35.525000 85.531250 21.792932
35.700000 86.734375 21.792932
36.050000 87.890625 21.792932
36.000000 89.281250 21.792932
35.650000 90.562500 21.792932
35.600000 91.703125 21.792932
35.575000 92.968750 21.792932
35.800000 94.437500 21.792932
36.100000 95.812500 21.792932
36.475000 97.015625 21.792932
36.600000 98.281250 21.792932
35.800000 84.453125 21.948357
35.600000 85.656250 21.948357
35.725000 86.921875 21.948357
36.100000 87.734375 21.948357
35.975000 89.421875 21.948357
35.575000 90.781250 21.948357
35.450000 91.906250 21.948357
35.400000 92.843750 21.948357
35.625000 94.234375 21.948357
36.000000 95.500000 21.948357
36.350000 96.765625 21.948357
35.925000 83.859375 22.088603
35.650000 85.203125 22.088603
35.625000 86.250000 22.088603
36.000000 87.750000 22.088603
35.950000 88.750000 22.088603
35.775000 90.187500 22.088603
35.675000 91.125000 22.088603
35.350000 92.531250 22.088603
35.425000 93.765625 22.088603
35.825000 94.859375 22.088603
36.075000 96.390625 22.088603
36.475000 97.312500 22.088603
35.625000 84.609375 22.229496
35.600000 85.843750 22.229496
35.900000 87.187500 22.229496
35.925000 88.421875 22.229496
35.850000 89.375000 22.229496
35.800000 90.937500 22.229496
35.400000 92.046875 22.229496
35.200000 93.718750 22.229496
35.600000 94.875000 22.229496
35.975000 95.890625 22.229496
36.400000 97.234375 22.229496
36.500000 98.265625 22.229496
31.125000 110.781250 22.229496
35.750000 84.421875 22.370387
35.650000 85.765625 22.370387
35.825000 86.796875 22.370387
36.050000 87.890625 22.370387
35.875000 89.546875 22.370387
35.475000 90.937500 22.370387
35.175000 91.921875 22.370387
35.125000 93.234375 22.370387
35.450000 94.390625 22.370387
35.850000 95.671875 22.370387
