33.450000 79.750000 0.078089
34.000000 81.171875 0.078089
37.175000 85.453125 0.078089
37.650000 86.812500 0.078089
10.275000 127.687500 0.078089
33.125000 80.453125 0.219357
33.625000 81.406250 0.219357
36.600000 86.125000 0.219357
36.600000 87.625000 0.219357
33.375000 90.281250 0.219357
33.700000 91.734375 0.219357
34.225000 81.343750 0.379702
36.850000 86.875000 0.379702
33.525000 89.578125 0.379702
33.575000 90.890625 0.379702
28.225000 94.125000 0.379702
35.550000 79.250000 0.515875
36.050000 80.500000 0.515875
38.225000 83.906250 0.515875
38.900000 85.093750 0.515875
35.525000 89.062500 0.515875
35.325000 90.375000 0.515875
34.675000 92.062500 0.515875
35.300000 88.843750 0.670486
34.875000 90.093750 0.670486
34.050000 91.765625 0.670486
35.050000 89.765625 0.819356
34.725000 90.609375 0.819356
35.425000 89.531250 0.966227
35.000000 90.437500 0.966227
35.650000 88.859375 1.108054
35.550000 90.484375 1.108054
35.625000 89.171875 1.262686
35.550000 90.109375 1.262686
35.500000 88.468750 1.416974
34.200000 91.500000 1.416974
35.500000 88.796875 1.570428
34.275000 91.437500 1.570428
35.350000 88.390625 1.709939
34.000000 90.937500 1.709939
35.450000 88.437500 1.866069
33.975000 90.906250 1.866069
35.450000 89.656250 2.007547
35.100000 90.828125 2.007547
28.350000 93.937500 2.007547
35.650000 89.359375 2.161638
35.450000 88.187500 2.302413
35.375000 89.796875 2.302413
34.700000 90.875000 2.302413
35.725000 89.000000 2.458970
28.325000 93.843750 2.458970
35.750000 88.875000 2.597912
34.675000 91.671875 2.597912
35.500000 88.953125 2.753860
35.250000 90.156250 2.753860
34.225000 91.171875 2.753860
35.450000 88.390625 2.904510
35.375000 89.531250 2.904510
35.125000 90.687500 2.904510
35.700000 88.984375 3.048692
35.350000 90.484375 3.048692
10.275000 128.062500 3.048692
35.650000 88.906250 3.204907
35.700000 89.390625 3.359257
35.325000 90.906250 3.359257
35.500000 88.578125 3.499205
35.375000 89.906250 3.499205
34.750000 91.062500 3.499205
35.675000 89.031250 3.652358
35.450000 88.203125 3.792651
34.375000 91.187500 3.792651
35.450000 88.140625 3.946234
34.450000 90.968750 3.946234
35.475000 88.328125 4.103134
34.400000 90.640625 4.103134
35.650000 89.359375 4.255518
35.625000 88.625000 4.542158
34.550000 91.546875 4.542158
35.425000 88.250000 4.690872
35.100000 89.890625 4.690872
34.075000 91.265625 4.690872
35.450000 88.140625 4.847612
34.375000 90.687500 4.847612
35.000000 89.453125 4.982833
34.650000 90.468750 4.982833
28.325000 93.937500 4.982833
10.225000 127.703125 4.982833
35.400000 89.203125 5.143869
35.050000 90.703125 5.143869
10.225000 128.515625 5.143869
35.600000 88.812500 5.285662
34.775000 91.562500 5.285662
10.325000 127.921875 5.285662
35.625000 89.250000 5.440617
34.775000 91.312500 5.440617
28.650000 102.140625 5.440617
10.300000 126.875000 5.440617
35.625000 88.859375 5.579905
28.125000 93.625000 5.579905
35.750000 89.281250 5.739826
35.625000 88.906250 5.889247
35.600000 89.500000 6.031120
35.375000 90.468750 6.031120
35.575000 88.953125 6.178618
35.450000 89.187500 6.327661
34.725000 91.265625 6.327661
10.350000 127.906250 6.327661
35.100000 88.734375 6.483066
34.875000 90.093750 6.483066
34.450000 91.000000 6.483066
35.150000 88.093750 6.623880
35.125000 89.421875 6.623880
34.900000 90.843750 6.623880
35.500000 89.031250 6.779276
35.350000 90.484375 6.779276
35.450000 89.046875 6.920463
28.175000 93.859375 6.920463
28.575000 102.437500 6.920463
10.275000 127.453125 6.920463
35.075000 88.546875 7.074809
33.875000 91.109375 7.074809
35.075000 88.375000 7.229993
34.725000 89.984375 7.229993
33.975000 91.046875 7.229993
35.075000 87.921875 7.370169
35.475000 89.250000 7.370169
35.400000 90.328125 7.370169
35.050000 88.578125 7.524403
34.625000 90.015625 7.524403
33.900000 91.296875 7.524403
34.975000 88.343750 7.665055
33.800000 91.187500 7.665055
34.950000 88.328125 7.825387
34.225000 91.015625 7.825387
35.025000 88.484375 7.974782
33.700000 91.265625 7.974782
34.925000 88.515625 8.114358
34.975000 89.703125 8.114358
34.775000 90.703125 8.114358
34.925000 88.187500 8.263586
35.025000 89.250000 8.263586
34.900000 90.640625 8.263586
34.450000 91.328125 8.566978
34.825000 88.406250 8.723520
34.500000 89.937500 8.723520
34.525000 90.953125 8.723520
35.025000 89.000000 8.864519
35.000000 90.187500 8.864519
35.050000 88.546875 9.023246
34.600000 90.109375 9.023246
33.850000 91.515625 9.023246
34.900000 88.500000 9.161426
34.700000 89.953125 9.161426
34.625000 90.781250 9.161426
35.025000 88.734375 9.302329
34.525000 90.015625 9.302329
33.900000 91.187500 9.302329
35.025000 88.703125 9.458600
34.475000 90.125000 9.458600
34.250000 90.765625 9.458600
34.875000 89.343750 9.611108
34.900000 90.875000 9.611108
34.625000 88.984375 9.752590
34.525000 90.359375 9.752590
34.100000 91.531250 9.752590
34.550000 88.593750 9.906813
34.550000 90.218750 9.906813
34.075000 91.468750 9.906813
34.550000 89.703125 10.047958
34.475000 90.609375 10.047958
28.400000 94.015625 10.047958
34.650000 89.765625 10.201496
34.550000 90.984375 10.201496
34.675000 89.187500 10.356541
34.775000 90.500000 10.356541
34.650000 91.515625 10.356541
10.325000 127.875000 10.356541
34.950000 88.312500 10.511094
34.750000 90.140625 10.511094
34.050000 91.484375 10.511094
35.100000 88.671875 10.808308
34.775000 89.812500 10.808308
33.950000 91.453125 10.808308
34.925000 89.062500 10.961963
34.875000 90.687500 10.961963
35.125000 88.968750 11.103616
34.725000 90.375000 11.103616
33.950000 91.656250 11.103616
35.025000 89.078125 11.242606
34.925000 90.718750 11.242606
10.275000 128.093750 11.242606
35.325000 88.828125 11.394894
34.350000 91.218750 11.394894
35.200000 88.484375 11.548938
34.775000 90.171875 11.548938
34.225000 91.484375 11.548938
34.800000 89.562500 11.690105
34.550000 91.078125 11.690105
35.275000 89.296875 11.844996
35.075000 90.484375 11.844996
10.200000 127.765625 11.844996
35.500000 88.953125 11.999671
35.425000 90.312500 11.999671
35.050000 91.484375 11.999671
35.575000 88.812500 12.139874
35.425000 90.593750 12.139874
34.825000 91.734375 12.139874
35.300000 88.562500 12.294842
34.000000 91.093750 12.294842
35.300000 88.375000 12.437200
34.000000 91.187500 12.437200
35.300000 88.890625 12.591268
33.925000 91.140625 12.591268
35.425000 88.984375 12.731746
34.125000 91.375000 12.731746
35.300000 88.250000 12.887202
33.975000 91.046875 12.887202
35.325000 88.406250 13.040372
33.950000 91.406250 13.040372
35.375000 88.406250 13.184115
34.075000 91.140625 13.184115
35.300000 88.421875 13.336114
35.050000 89.890625 13.336114
34.475000 91.359375 13.336114
35.600000 89.484375 13.477828
35.150000 90.578125 13.477828
10.200000 127.171875 13.477828
35.625000 89.093750 13.631846
28.300000 93.890625 13.631846
35.550000 89.531250 13.774551
35.250000 90.843750 13.774551
35.450000 88.453125 13.929824
35.400000 90.109375 13.929824
34.725000 91.421875 13.929824
35.450000 88.484375 14.085428
35.400000 89.593750 14.085428
34.650000 91.281250 14.085428
35.500000 88.640625 14.225519
35.750000 89.171875 14.382369
35.800000 88.875000 14.521852
35.725000 89.000000 14.676571
35.800000 89.500000 14.826956
28.300000 93.937500 14.826956
35.500000 88.578125 14.971450
34.325000 90.968750 14.971450
35.150000 89.812500 15.125571
34.750000 90.843750 15.125571
34.425000 91.187500 15.266311
35.625000 89.093750 15.423662
10.250000 128.031250 15.423662
35.725000 88.937500 15.565165
34.800000 91.906250 15.565165
35.350000 88.703125 15.721083
34.350000 91.156250 15.721083
35.400000 88.281250 15.864270
34.375000 90.781250 15.864270
35.500000 88.750000 16.023539
34.350000 91.046875 16.023539
35.425000 88.718750 16.160919
35.075000 90.078125 16.160919
34.150000 91.906250 16.160919
35.425000 89.062500 16.316663
34.350000 91.437500 16.316663
35.500000 89.093750 16.459591
34.525000 91.703125 16.459591
35.700000 89.265625 16.625469
10.250000 128.265625 16.625469
35.650000 89.625000 16.751122
35.650000 89.703125 16.902681
35.250000 88.203125 17.061645
35.350000 89.500000 17.061645
35.125000 91.250000 17.061645
35.150000 88.578125 17.218843
34.900000 89.781250 17.218843
35.200000 88.359375 17.359201
35.125000 89.593750 17.359201
34.800000 91.078125 17.359201
35.225000 88.343750 17.498637
35.300000 89.671875 17.498637
35.075000 91.265625 17.498637
35.450000 89.187500 17.653725
35.450000 89.343750 17.807613
28.225000 94.109375 17.807613
35.375000 89.218750 17.948077
35.075000 90.296875 17.948077
34.525000 91.937500 17.948077
35.075000 88.687500 18.104758
33.700000 91.843750 18.104758
35.000000 88.625000 18.257273
33.575000 91.312500 18.257273
34.975000 88.828125 18.396964
33.575000 91.515625 18.396964
34.975000 88.562500 18.543072
34.775000 89.906250 18.543072
34.525000 90.984375 18.543072
34.950000 88.406250 18.691618
34.775000 89.671875 18.691618
34.525000 90.984375 18.691618
34.950000 88.968750 18.845229
33.600000 91.609375 18.845229
34.925000 88.890625 19.001117
34.675000 90.156250 19.001117
34.425000 91.421875 19.001117
34.800000 88.578125 19.141289
35.100000 89.328125 19.141289
35.025000 90.625000 19.141289
10.200000 127.312500 19.141289
10.225000 128.484375 19.302246
34.775000 88.468750 19.435026
34.800000 89.718750 19.435026
34.800000 91.171875 19.435026
34.900000 89.656250 19.592416
34.925000 90.671875 19.592416
28.375000 94.015625 19.592416
10.225000 127.437500 19.592416
35.125000 89.156250 19.743696
34.975000 90.375000 19.743696
34.525000 91.859375 19.743696
34.800000 88.437500 19.890576
34.800000 89.796875 19.890576
34.775000 91.250000 19.890576
34.675000 88.937500 20.185740
34.575000 90.703125 20.185740
34.125000 91.390625 20.185740
35.100000 88.359375 20.341668
34.475000 89.859375 20.341668
34.175000 91.359375 20.341668
35.075000 88.312500 20.479498
34.500000 89.796875 20.479498
34.300000 91.156250 20.479498
34.550000 88.812500 20.624608
34.500000 90.187500 20.624608
33.850000 91.359375 20.624608
34.750000 89.046875 20.787842
34.700000 90.500000 20.787842
34.100000 91.453125 20.787842
34.750000 88.937500 20.928683
34.700000 90.062500 20.928683
34.125000 91.796875 20.928683
34.650000 89.281250 21.085761
34.700000 90.062500 21.085761
34.125000 91.875000 21.085761
34.575000 89.093750 21.227201
34.650000 90.187500 21.227201
34.000000 91.828125 21.227201
34.850000 89.156250 21.383498
34.750000 90.093750 21.383498
33.975000 91.390625 21.383498
35.100000 88.843750 21.522178
34.750000 90.171875 21.522178
33.975000 91.562500 21.522178
35.175000 88.984375 21.676932
34.925000 90.046875 21.676932
34.225000 91.875000 21.676932
35.300000 88.640625 21.823552
34.925000 90.515625 21.823552
34.100000 91.890625 21.823552
35.225000 88.828125 21.970917
34.750000 89.937500 21.970917
33.900000 91.484375 21.970917
34.400000 90.875000 22.128037
35.175000 88.390625 22.265434
34.775000 89.937500 22.265434
34.275000 90.781250 22.265434
35.225000 88.531250 22.424542
34.875000 89.859375 22.424542
34.050000 90.984375 22.424542
10.400000 127.281250 22.424542
35.250000 88.937500 22.564828
34.900000 89.921875 22.564828
34.025000 91.218750 22.564828
35.250000 88.734375 22.719594
34.900000 90.078125 22.719594
34.100000 91.343750 22.719594
35.525000 88.953125 22.860562
35.350000 90.093750 22.860562
34.725000 91.625000 22.860562
35.575000 89.171875 23.023417
35.550000 90.531250 23.023417
28.200000 94.062500 23.023417
35.175000 89.578125 23.159033
34.825000 90.921875 23.159033
34.150000 91.203125 23.313980
34.025000 91.046875 23.463568
35.275000 88.578125 23.608207
35.300000 88.156250 23.763094
35.350000 88.750000 23.905751
33.925000 91.406250 23.905751
35.375000 88.937500 24.058851
34.075000 91.359375 24.058851
35.500000 88.421875 24.199368
35.275000 89.796875 24.199368
35.350000 89.406250 24.356793
34.975000 90.625000 24.356793
35.500000 89.281250 24.499723
35.125000 90.984375 24.499723
35.650000 89.140625 24.653378
35.275000 90.593750 24.653378
35.675000 88.921875 24.794161
10.275000 127.859375 24.794161
35.700000 88.812500 24.964895
34.550000 91.703125 24.964895
10.325000 127.562500 24.964895
35.625000 88.843750 25.106990
34.200000 91.625000 25.106990
35.625000 88.953125 25.258612
34.175000 91.765625 25.258612
35.425000 88.734375 25.398224
33.950000 91.718750 25.398224
35.450000 88.421875 25.542562
34.200000 91.046875 25.542562
35.650000 89.078125 25.693131
35.275000 89.765625 25.847907
34.775000 90.953125 25.847907
35.775000 88.984375 25.988523
34.325000 90.484375 26.145180
28.350000 93.828125 26.145180
34.325000 90.796875 26.301620
35.375000 89.140625 26.438045
35.075000 90.640625 26.438045
10.250000 127.375000 26.438045
35.425000 88.703125 26.593524
35.050000 89.875000 26.593524
34.025000 91.578125 26.593524
35.375000 88.062500 26.740981
34.375000 90.500000 26.740981
35.700000 88.859375 26.906781
10.250000 127.046875 26.906781
35.575000 88.703125 27.030898
34.800000 91.390625 27.030898
35.225000 88.640625 27.184381
34.925000 89.750000 27.184381
33.925000 91.578125 27.184381
35.325000 88.671875 27.339350
35.000000 89.906250 27.339350
34.575000 91.125000 27.339350
35.325000 88.453125 27.494671
35.025000 89.671875 27.494671
34.650000 91.062500 27.494671
35.275000 88.640625 27.633685
35.125000 89.921875 27.633685
34.750000 90.734375 27.633685
35.200000 88.750000 27.776958
34.975000 89.687500 27.776958
34.600000 90.984375 27.776958
35.200000 88.312500 27.930164
35.150000 89.546875 27.930164
34.925000 90.734375 27.930164
35.175000 88.375000 28.086056
34.975000 90.093750 28.086056
34.600000 91.234375 28.086056
35.175000 88.484375 28.226147
34.950000 89.968750 28.226147
34.600000 91.328125 28.226147
35.150000 88.562500 28.382294
34.950000 89.531250 28.382294
34.600000 91.343750 28.382294
35.150000 88.187500 28.519918
35.100000 89.859375 28.519918
34.750000 91.171875 28.519918
35.100000 88.234375 28.676008
35.425000 89.296875 28.676008
35.250000 88.843750 28.821856
35.000000 90.546875 28.821856
34.700000 91.187500 28.821856
35.050000 88.734375 28.971263
33.625000 91.406250 28.971263
35.000000 88.859375 29.125792
33.600000 91.109375 29.125792
10.400000 126.375000 29.125792
34.975000 88.328125 29.264539
33.675000 90.937500 29.264539
34.950000 88.671875 29.422514
34.550000 89.656250 29.422514
34.300000 90.812500 29.422514
28.325000 94.015625 29.422514
34.900000 88.265625 29.575924
35.175000 89.203125 29.575924
35.000000 90.843750 29.575924
34.925000 88.343750 29.714884
34.575000 89.937500 29.714884
34.050000 91.203125 29.714884
35.125000 88.296875 29.884383
33.625000 91.375000 29.884383
28.150000 94.000000 30.025974
34.950000 88.265625 30.315687
34.625000 89.484375 30.315687
34.550000 90.515625 30.315687
34.925000 88.093750 30.465151
34.500000 89.687500 30.465151
34.200000 90.765625 30.465151
34.900000 88.421875 30.613091
34.475000 89.828125 30.613091
34.250000 91.140625 30.613091
28.325000 94.046875 30.613091
34.825000 88.343750 30.752490
34.475000 89.734375 30.752490
34.325000 90.953125 30.752490
28.325000 94.015625 30.752490
34.900000 88.031250 30.906720
34.400000 89.593750 30.906720
34.250000 91.000000 30.906720
34.925000 88.328125 31.063419
34.400000 89.421875 31.063419
34.225000 90.968750 31.063419
28.325000 94.031250 31.063419
34.975000 88.187500 31.216649
34.375000 89.656250 31.216649
34.225000 91.000000 31.216649
28.325000 94.031250 31.216649
34.875000 88.218750 31.355332
34.375000 89.812500 31.355332
34.225000 90.484375 31.355332
34.525000 88.390625 31.510237
34.550000 89.515625 31.510237
34.650000 88.765625 31.650871
34.625000 89.734375 31.650871
33.975000 91.125000 31.650871
34.525000 88.375000 31.803676
34.625000 90.046875 31.803676
34.625000 88.953125 31.944129
34.675000 90.312500 31.944129
34.075000 91.046875 31.944129
34.675000 88.968750 32.255557
34.525000 90.312500 32.255557
34.675000 88.906250 32.394483
34.525000 90.703125 32.394483
35.175000 88.390625 32.541714
34.525000 89.421875 32.541714
34.100000 90.828125 32.541714
35.150000 88.640625 32.704805
34.650000 89.687500 32.704805
34.125000 91.093750 32.704805
35.300000 88.515625 32.843100
34.875000 89.843750 32.843100
34.075000 91.421875 32.843100
35.225000 88.140625 32.999970
34.800000 89.515625 32.999970
33.950000 91.156250 32.999970
10.375000 127.187500 32.999970
35.225000 88.484375 33.138690
34.800000 89.656250 33.138690
34.050000 91.078125 33.138690
35.300000 88.390625 33.294126
35.000000 90.171875 33.294126
34.275000 90.875000 33.294126
35.325000 88.453125 33.449689
35.050000 89.687500 33.449689
34.450000 91.078125 33.449689
35.350000 88.734375 33.588512
35.100000 89.671875 33.588512
34.350000 91.171875 33.588512
35.400000 88.890625 33.743612
35.425000 90.046875 33.743612
10.275000 127.890625 33.743612
35.325000 89.000000 33.883171
35.075000 90.328125 33.883171
28.300000 93.500000 33.883171
35.500000 89.078125 34.037956
35.500000 90.343750 34.037956
10.250000 126.406250 34.037956
35.250000 88.906250 34.192354
35.075000 90.437500 34.192354
28.325000 93.468750 34.192354
10.200000 126.984375 34.192354
35.250000 88.156250 34.332560
33.875000 90.593750 34.332560
35.350000 88.343750 34.486346
34.950000 89.578125 34.486346
34.075000 91.453125 34.486346
35.425000 88.500000 34.623038
35.025000 89.890625 34.623038
34.225000 90.906250 34.623038
35.575000 88.718750 34.783300
35.450000 90.109375 34.783300
35.550000 88.765625 34.923823
35.425000 90.093750 34.923823
35.550000 88.640625 35.077440
35.275000 90.140625 35.077440
34.825000 91.031250 35.077440
35.275000 88.156250 35.231515
34.975000 89.296875 35.231515
34.400000 90.484375 35.231515
35.250000 88.000000 35.370920
35.225000 89.125000 35.370920
34.725000 90.687500 35.370920
35.275000 88.046875 35.524089
35.225000 89.015625 35.524089
34.875000 90.812500 35.524089
28.300000 93.656250 35.524089
35.475000 89.140625 35.678839
35.225000 90.265625 35.678839
28.325000 93.656250 35.678839
35.575000 89.140625 35.824682
35.325000 90.296875 35.824682
28.300000 93.984375 35.824682
35.350000 87.984375 35.974689
35.400000 89.281250 35.974689
35.100000 90.640625 35.974689
28.300000 93.968750 35.974689
35.350000 88.125000 36.115948
35.000000 89.828125 36.115948
34.025000 91.046875 36.115948
28.325000 94.015625 36.115948
35.575000 88.484375 36.262363
34.100000 91.250000 36.262363
35.700000 89.031250 36.411361
10.250000 127.906250 36.411361
35.350000 87.968750 36.566287
34.975000 89.156250 36.566287
34.325000 90.984375 36.566287
28.300000 94.062500 36.566287
35.675000 88.984375 36.721640
35.025000 89.515625 36.862261
34.600000 90.406250 36.862261
28.300000 94.046875 36.862261
35.350000 88.484375 37.021250
34.125000 90.984375 37.021250
35.475000 88.078125 37.156638
33.975000 91.312500 37.156638
28.325000 94.000000 37.156638
35.575000 88.687500 37.310038
35.100000 88.921875 37.465147
34.700000 90.125000 37.465147
34.350000 90.656250 37.605512
35.350000 88.234375 37.759727
34.975000 89.250000 37.759727
34.300000 90.500000 37.759727
35.450000 88.125000 37.901793
33.975000 91.062500 37.901793
35.400000 88.203125 38.057329
33.950000 90.843750 38.057329
35.650000 88.359375 38.197941
34.925000 89.546875 38.351492
34.525000 90.500000 38.351492
35.350000 88.000000 38.507488
33.875000 91.234375 38.507488
35.525000 88.703125 38.647322
34.575000 91.250000 38.647322
28.675000 102.140625 38.802285
35.400000 89.000000 38.957879
35.150000 90.140625 38.957879
35.250000 88.281250 39.101758
34.925000 89.328125 39.101758
35.325000 88.156250 39.254689
34.350000 91.328125 39.254689
10.300000 127.281250 39.254689
35.325000 88.375000 39.393140
34.325000 91.109375 39.393140
35.500000 88.390625 39.543084
28.150000 93.656250 39.543084
28.500000 101.875000 39.543084
35.475000 88.984375 39.688909
28.150000 93.859375 39.688909
35.450000 89.109375 39.831966
35.375000 88.453125 39.984725
35.200000 90.343750 39.984725
28.250000 93.140625 39.984725
35.375000 89.203125 40.142945
34.975000 90.578125 40.142945
33.825000 90.625000 40.283817
35.050000 88.171875 40.439241
33.575000 90.750000 40.439241
10.375000 126.875000 40.439241
35.025000 88.359375 40.581008
33.550000 91.328125 40.581008
10.375000 127.031250 40.581008
35.025000 88.437500 40.740639
33.650000 91.343750 40.740639
35.425000 88.406250 40.876972
35.275000 90.109375 40.876972
28.600000 102.328125 40.876972
10.275000 127.796875 40.876972
35.400000 88.656250 41.032495
35.250000 90.015625 41.032495
28.600000 101.875000 41.032495
35.025000 88.812500 41.179204
34.825000 90.546875 41.179204
28.275000 93.406250 41.179204
35.025000 88.421875 41.329051
34.725000 89.609375 41.329051
33.850000 91.171875 41.329051
35.000000 88.671875 41.469851
34.975000 89.843750 41.469851
28.250000 93.937500 41.469851
34.650000 89.218750 41.622240
34.600000 90.140625 41.622240
35.000000 87.875000 41.778454
34.500000 89.406250 41.778454
34.050000 90.609375 41.778454
28.300000 93.921875 41.778454
35.000000 87.968750 41.919472
34.475000 89.453125 41.919472
34.025000 90.421875 41.919472
28.300000 94.000000 41.919472
35.075000 88.218750 42.073960
34.525000 89.828125 42.073960
33.950000 90.968750 42.073960
35.000000 88.046875 42.230006
34.450000 89.515625 42.230006
34.125000 90.656250 42.230006
35.075000 88.453125 42.386621
34.450000 89.500000 42.386621
28.600000 102.296875 42.525603
10.250000 127.781250 42.525603
35.025000 88.015625 42.665805
34.450000 89.281250 42.665805
34.125000 90.453125 42.665805
34.525000 88.031250 42.809402
34.550000 89.421875 42.809402
34.675000 88.953125 42.964354
34.725000 90.265625 42.964354
34.625000 90.953125 42.964354
34.650000 88.265625 43.119775
34.575000 89.203125 43.119775
34.000000 91.109375 43.119775
28.300000 93.812500 43.119775
34.650000 88.625000 43.263189
34.675000 89.796875 43.263189
34.075000 91.093750 43.263189
34.850000 89.078125 43.413533
34.700000 90.015625 43.413533
28.275000 93.375000 43.413533
34.975000 88.125000 43.553297
34.575000 89.562500 43.553297
33.900000 90.562500 43.553297
34.825000 88.718750 43.704614
34.800000 90.187500 43.704614
35.025000 88.046875 43.863141
34.700000 88.984375 43.863141
34.550000 90.687500 43.863141
28.275000 94.078125 43.863141
35.225000 87.921875 44.018791
34.675000 89.531250 44.018791
34.300000 90.750000 44.018791
28.325000 93.953125 44.018791
35.225000 88.015625 44.156752
34.675000 89.796875 44.156752
34.225000 90.625000 44.156752
35.125000 88.500000 44.311912
35.000000 90.296875 44.311912
28.525000 102.546875 44.311912
35.000000 88.828125 44.459355
34.800000 90.000000 44.459355
28.250000 94.031250 44.459355
35.275000 87.781250 44.606466
34.750000 89.234375 44.606466
34.250000 90.453125 44.606466
35.325000 88.734375 44.746001
35.025000 89.500000 44.746001
34.350000 90.906250 44.746001
35.300000 87.828125 44.901448
34.050000 90.687500 44.901448
28.275000 93.890625 44.901448
35.400000 88.546875 45.055943
35.400000 89.953125 45.055943
28.625000 101.890625 45.055943
10.250000 126.531250 45.055943
35.275000 88.078125 45.195159
33.850000 90.484375 45.195159
28.300000 93.921875 45.195159
35.500000 88.468750 45.341486
35.375000 90.281250 45.341486
28.250000 94.031250 45.341486
10.200000 127.734375 45.341486
35.325000 88.484375 45.503112
34.800000 89.468750 45.503112
33.975000 90.859375 45.503112
28.325000 94.046875 45.503112
35.375000 88.671875 45.642957
35.250000 90.250000 45.642957
28.250000 93.515625 45.642957
35.450000 88.375000 45.797624
33.825000 90.796875 45.797624
28.325000 93.843750 45.797624
34.325000 90.328125 45.936655
28.275000 93.406250 45.936655
35.550000 88.218750 46.091365
35.250000 89.640625 46.091365
34.600000 90.578125 46.091365
35.700000 88.781250 46.232258
28.250000 93.140625 46.232258
35.575000 88.828125 46.385987
28.250000 93.625000 46.385987
35.425000 88.000000 46.542432
35.325000 89.421875 46.542432
28.300000 93.765625 46.542432
35.675000 88.187500 46.695631
34.650000 90.906250 46.695631
35.725000 88.468750 46.835239
28.175000 94.171875 46.835239
35.575000 88.218750 46.978114
35.375000 89.468750 46.978114
28.300000 93.750000 46.978114
35.525000 88.859375 47.131152
35.150000 90.421875 47.131152
28.275000 93.593750 47.131152
35.850000 88.375000 47.285908
28.550000 101.750000 47.285908
10.250000 126.671875 47.285908
34.250000 90.562500 47.420476
28.300000 94.046875 47.420476
35.825000 88.265625 47.567555
28.575000 101.937500 47.567555
34.375000 90.593750 47.721129
34.400000 90.421875 48.015949
28.250000 93.859375 48.015949
35.825000 88.546875 48.169595
34.775000 91.015625 48.169595
34.275000 90.000000 48.325815
28.275000 93.703125 48.325815
34.050000 90.937500 48.465059
34.300000 90.843750 48.620038
35.175000 88.500000 48.772584
34.750000 89.890625 48.772584
28.175000 93.265625 48.772584
34.250000 90.296875 48.913901
28.300000 94.015625 48.913901
34.975000 89.765625 49.060216
34.700000 90.687500 49.060216
10.250000 126.437500 49.060216
34.475000 90.531250 49.210428
28.275000 93.843750 49.210428
34.950000 89.968750 49.365062
34.700000 90.859375 49.365062
34.250000 90.562500 49.503739
34.900000 90.078125 49.659594
28.675000 101.968750 49.659594
10.250000 126.812500 49.659594
35.225000 89.328125 49.804219
34.775000 90.234375 49.804219
28.275000 93.687500 49.804219
34.375000 90.953125 49.958132
35.600000 88.500000 50.101074
28.175000 93.484375 50.101074
35.150000 89.109375 50.256923
34.525000 90.921875 50.256923
34.925000 90.015625 50.394330
10.225000 126.953125 50.394330
35.125000 89.359375 50.550082
34.425000 90.921875 50.550082
34.700000 89.625000 50.696267
10.250000 126.546875 50.696267
35.450000 88.937500 50.845231
35.275000 90.203125 50.845231
33.400000 90.750000 51.001584
35.375000 88.640625 51.140502
35.250000 89.828125 51.140502
28.525000 102.578125 51.140502
10.225000 127.703125 51.140502
33.675000 90.406250 51.297755
28.300000 93.828125 51.297755
35.300000 88.265625 51.438449
34.450000 91.250000 51.438449
35.175000 89.187500 51.592649
34.950000 90.515625 51.592649
28.275000 93.921875 51.592649
35.300000 88.578125 51.733131
34.525000 91.234375 51.733131
34.650000 89.265625 51.886361
34.400000 90.171875 51.886361
35.350000 88.765625 52.041606
28.650000 102.171875 52.041606
34.950000 88.171875 52.183094
34.700000 89.406250 52.183094
34.275000 90.718750 52.183094
35.125000 88.484375 52.339276
35.050000 89.906250 52.339276
28.150000 93.953125 52.339276
35.150000 88.453125 52.477738
34.700000 89.437500 52.477738
33.825000 90.968750 52.477738
35.075000 87.984375 52.632317
34.575000 89.578125 52.632317
34.150000 90.546875 52.632317
28.150000 94.203125 52.779198
35.100000 88.031250 52.929492
34.500000 89.796875 52.929492
33.950000 90.703125 52.929492
34.950000 88.671875 53.070127
34.325000 91.359375 53.070127
34.850000 87.859375 53.225274
34.400000 89.515625 53.225274
34.400000 90.609375 53.225274
34.800000 88.437500 53.380316
34.775000 89.656250 53.380316
34.425000 91.015625 53.380316
10.225000 127.250000 53.380316
34.550000 88.406250 53.519988
34.575000 89.718750 53.519988
33.850000 90.906250 53.519988
28.225000 93.578125 53.676238
34.450000 88.453125 53.815714
34.475000 89.500000 53.815714
33.850000 90.625000 53.815714
34.950000 87.515625 53.975789
34.625000 88.765625 53.975789
34.425000 90.656250 53.975789
34.900000 88.046875 54.283360
34.625000 89.171875 54.283360
33.975000 90.500000 54.283360
28.300000 93.875000 54.283360
34.675000 91.140625 54.415096
28.675000 102.109375 54.415096
10.225000 126.812500 54.415096
35.025000 88.375000 54.578401
34.600000 89.359375 54.578401
33.850000 90.531250 54.578401
34.875000 88.906250 54.716891
34.800000 89.843750 54.716891
28.275000 93.421875 54.716891
35.150000 88.546875 54.857212
34.800000 89.515625 54.857212
34.125000 91.250000 54.857212
28.300000 94.031250 54.857212
34.875000 88.781250 55.014378
34.800000 90.312500 55.014378
28.250000 93.390625 55.014378
35.275000 88.062500 55.154278
34.825000 89.437500 55.154278
34.025000 91.140625 55.154278
35.225000 88.453125 55.309415
35.100000 89.593750 55.309415
28.050000 93.234375 55.309415
28.575000 101.656250 55.309415
10.225000 126.937500 55.309415
35.300000 87.625000 55.464265
34.850000 88.859375 55.464265
34.425000 90.468750 55.464265
28.275000 93.750000 55.464265
35.300000 88.500000 55.604041
34.800000 89.828125 55.604041
34.000000 91.156250 55.604041
35.250000 88.781250 55.758469
34.900000 90.328125 55.758469
28.250000 93.843750 55.758469
35.300000 88.437500 55.898838
33.775000 91.046875 55.898838
28.300000 93.828125 55.898838
35.450000 88.781250 56.055983
35.375000 89.875000 56.055983
10.300000 127.000000 56.055983
35.350000 88.093750 56.206050
33.850000 90.468750 56.206050
28.300000 93.906250 56.206050
35.400000 89.109375 56.347575
35.200000 90.218750 56.347575
28.250000 93.421875 56.347575
35.600000 88.515625 56.503587
35.450000 89.625000 56.503587
35.450000 88.093750 56.658575
33.975000 90.375000 56.658575
28.300000 93.906250 56.658575
35.625000 88.500000 56.785842
35.500000 89.812500 56.785842
28.225000 93.671875 56.785842
35.450000 87.828125 56.941123
33.850000 90.906250 56.941123
35.650000 88.343750 57.096663
35.325000 89.859375 57.096663
34.875000 91.203125 57.096663
35.750000 88.906250 57.235153
28.225000 93.359375 57.235153
10.200000 126.828125 57.235153
35.450000 89.125000 57.389773
34.775000 90.328125 57.389773
28.300000 93.812500 57.389773
35.650000 88.390625 57.545011
34.450000 90.953125 57.545011
35.725000 88.937500 57.685566
28.225000 93.937500 57.685566
35.450000 88.937500 57.841438
34.850000 90.828125 57.841438
28.300000 93.593750 57.841438
35.825000 88.828125 57.983934
28.600000 102.171875 57.983934
10.250000 127.609375 57.983934
35.325000 89.343750 58.123646
34.625000 90.671875 58.123646
35.650000 88.390625 58.278685
34.300000 91.343750 58.278685
35.500000 89.140625 58.434433
34.850000 90.718750 58.434433
28.325000 93.859375 58.434433
35.875000 88.562500 58.576841
28.150000 94.015625 58.576841
34.500000 91.125000 58.730003
34.250000 90.281250 58.884181
28.600000 102.000000 59.025122
34.300000 90.390625 59.179168
28.275000 93.984375 59.179168
34.150000 90.875000 59.320353
34.750000 90.843750 59.476417
34.275000 90.250000 59.615721
28.300000 93.750000 59.615721
34.425000 91.250000 59.776531
35.200000 89.062500 59.914791
34.750000 90.218750 59.914791
28.200000 93.515625 59.914791
