34.900000 78.890625 2.891984
35.100000 77.765625 2.893547
35.300000 77.109375 2.894458
35.525000 75.828125 2.896238
35.875000 74.453125 2.898147
34.625000 86.953125 3.036465
34.625000 85.750000 3.038136
34.675000 84.796875 3.039460
34.725000 83.203125 3.041674
34.925000 82.218750 3.043041
34.875000 81.406250 3.044169
34.700000 80.375000 3.045602
34.850000 79.265625 3.047143
35.075000 77.781250 3.049204
35.300000 76.640625 3.050788
35.475000 75.484375 3.052394
35.825000 74.312500 3.054022
34.625000 86.703125 3.199096
34.625000 86.156250 3.199856
34.675000 85.000000 3.201462
34.725000 83.546875 3.203480
34.925000 82.656250 3.204717
34.850000 81.203125 3.206735
34.675000 80.312500 3.207972
34.875000 79.265625 3.209426
35.100000 77.843750 3.211401
35.300000 76.765625 3.212898
35.475000 75.609375 3.214504
35.825000 74.593750 3.215915
34.450000 87.875000 3.360934
34.600000 86.468750 3.362887
34.650000 85.859375 3.363733
34.675000 84.234375 3.365990
34.725000 83.625000 3.366836
34.950000 82.171875 3.368855
34.850000 81.218750 3.370178
34.700000 79.890625 3.372023
34.900000 79.046875 3.373195
35.100000 77.937500 3.374736
35.275000 76.296875 3.377014
35.475000 75.515625 3.378099
35.900000 74.421875 3.379618
34.750000 88.984375 3.513663
34.575000 87.953125 3.515095
34.625000 86.640625 3.516918
34.675000 85.296875 3.518784
34.725000 84.343750 3.520108
34.750000 82.812500 3.522235
34.975000 81.953125 3.523428
35.000000 80.812500 3.525012
34.800000 79.406250 3.526966
34.900000 78.296875 3.528507
35.150000 77.546875 3.529548
35.375000 76.078125 3.531588
34.575000 86.625000 3.674584
34.625000 85.906250 3.675582
34.675000 84.671875 3.677297
34.725000 83.234375 3.679293
34.925000 82.140625 3.680812
34.875000 80.921875 3.682505
34.700000 80.218750 3.683481
34.875000 78.687500 3.685608
35.075000 77.546875 3.687192
35.300000 76.890625 3.688104
35.475000 75.265625 3.690361
35.850000 74.687500 3.691164
34.600000 86.640625 3.846793
34.625000 85.718750 3.848073
34.675000 84.437500 3.849853
34.725000 83.343750 3.851372
34.925000 82.531250 3.852500
34.850000 81.000000 3.854627
34.675000 79.859375 3.856211
34.850000 79.046875 3.857340
35.075000 77.906250 3.858924
35.275000 76.734375 3.860552
35.450000 75.484375 3.862288
35.825000 74.640625 3.863460
34.300000 88.406250 4.003086
34.525000 87.843750 4.003867
34.625000 86.312500 4.005994
34.650000 85.156250 4.007600
34.675000 83.875000 4.009379
34.800000 83.187500 4.010334
35.050000 81.921875 4.012092
35.000000 80.453125 4.014132
34.775000 79.453125 4.015521
35.000000 78.187500 4.017278
35.275000 77.062500 4.018841
35.425000 75.968750 4.020360
35.725000 75.031250 4.021662
34.600000 89.109375 4.155391
34.475000 88.265625 4.156562
34.575000 87.328125 4.157865
34.650000 86.203125 4.159427
34.675000 84.718750 4.161489
34.725000 83.765625 4.162812
34.825000 82.625000 4.164397
34.875000 81.703125 4.165677
34.825000 80.062500 4.167956
34.850000 79.031250 4.169388
35.075000 78.281250 4.170430
35.275000 77.109375 4.172057
35.525000 75.828125 4.173837
35.850000 74.500000 4.175681
34.625000 89.234375 4.318063
34.500000 87.562500 4.320385
34.575000 87.031250 4.321123
34.625000 85.640625 4.323055
34.675000 84.625000 4.324465
34.725000 83.531250 4.325984
34.800000 81.937500 4.328198
34.975000 81.328125 4.329044
34.925000 79.828125 4.331127
34.950000 78.640625 4.332777
35.150000 77.500000 4.334361
35.375000 76.468750 4.335793
35.650000 75.515625 4.337117
36.150000 74.640625 4.338332
34.625000 89.125000 4.469398
34.525000 87.890625 4.471113
34.600000 87.171875 4.472111
34.650000 86.109375 4.473587
34.675000 85.000000 4.475128
34.725000 83.921875 4.476625
34.800000 82.359375 4.478795
34.875000 81.265625 4.480314
34.875000 80.250000 4.481725
34.900000 79.234375 4.483135
35.175000 78.171875 4.484611
35.400000 77.000000 4.486239
35.550000 76.015625 4.487606
35.925000 74.562500 4.489624
34.550000 88.640625 4.638845
34.550000 87.359375 4.640625
34.675000 86.625000 4.641645
34.800000 85.296875 4.643489
34.800000 83.984375 4.645312
34.725000 82.671875 4.647135
34.750000 81.984375 4.648090
35.100000 80.687500 4.649891
35.250000 79.343750 4.651757
35.250000 78.656250 4.652712
35.450000 77.140625 4.654817
35.625000 76.281250 4.656011
35.900000 75.140625 4.657595
34.750000 88.875000 4.794499
34.550000 87.609375 4.796257
34.700000 86.390625 4.797949
34.775000 85.296875 4.799469
34.875000 84.343750 4.800792
34.675000 83.109375 4.802507
34.525000 81.937500 4.804134
34.850000 81.312500 4.805002
35.250000 80.109375 4.806673
35.425000 78.562500 4.808822
35.450000 77.859375 4.809798
35.575000 76.312500 4.811947
35.850000 75.515625 4.813054
34.525000 88.312500 4.953475
34.750000 87.515625 4.954582
34.850000 86.562500 4.955906
34.725000 82.906250 4.960984
34.650000 81.703125 4.962655
34.950000 80.375000 4.964500
35.300000 79.750000 4.965368
35.475000 78.187500 4.967538
35.575000 77.531250 4.968449
35.825000 76.218750 4.970272
36.150000 75.203125 4.971683
34.875000 88.828125 5.122886
34.775000 87.640625 5.124535
34.875000 86.437500 5.126206
34.700000 83.234375 5.130655
34.600000 81.812500 5.132630
35.200000 78.703125 5.136948
35.675000 77.187500 5.139053
35.850000 76.203125 5.140421
36.175000 75.281250 5.141701
34.775000 88.796875 5.278449
34.775000 87.656250 5.280033
34.875000 86.609375 5.281487
34.775000 84.812500 5.283983
34.525000 84.171875 5.284872
34.500000 82.812500 5.286760
34.625000 81.453125 5.288648
35.200000 78.671875 5.292511
35.775000 77.484375 5.294161
35.975000 76.234375 5.295897
36.300000 75.296875 5.297199
34.700000 89.296875 5.440264
34.750000 88.687500 5.441110
34.975000 87.406250 5.442890
35.050000 86.234375 5.444517
35.225000 85.015625 5.446210
34.875000 84.031250 5.447577
34.625000 82.406250 5.449834
34.925000 81.640625 5.450898
35.500000 78.140625 5.455759
36.000000 77.171875 5.457104
36.125000 76.234375 5.458406
36.425000 75.046875 5.460056
35.150000 88.953125 5.594111
34.875000 87.984375 5.595457
35.100000 86.515625 5.597497
34.925000 83.218750 5.602076
34.850000 82.156250 5.603552
35.150000 81.140625 5.604962
35.700000 80.218750 5.606243
36.350000 79.187500 5.607675
36.375000 77.515625 5.609997
36.200000 76.546875 5.611342
36.350000 75.375000 5.612970
35.100000 89.671875 5.756727
35.075000 88.500000 5.758355
35.150000 87.484375 5.759765
34.950000 83.843750 5.764822
34.775000 82.296875 5.766970
35.125000 81.718750 5.767773
35.675000 80.187500 5.769900
36.275000 79.359375 5.771050
36.600000 78.265625 5.772569
36.375000 77.187500 5.774066
36.225000 75.890625 5.775868
36.550000 74.703125 5.777517
34.925000 89.562500 5.919596
34.925000 88.515625 5.921050
35.175000 87.468750 5.922504
35.250000 86.281250 5.924154
35.650000 85.234375 5.925608
35.050000 82.843750 5.928928
35.650000 81.468750 5.930838
36.000000 80.781250 5.931792
36.325000 79.296875 5.933854
36.575000 78.437500 5.935048
36.425000 76.937500 5.937131
36.350000 76.109375 5.938281
36.675000 75.187500 5.939562
35.075000 87.921875 6.077244
35.300000 87.109375 6.078372
34.900000 85.828125 6.080152
34.675000 84.281250 6.082300
34.975000 83.609375 6.083233
35.100000 82.406250 6.084904
35.525000 81.125000 6.086684
36.175000 80.296875 6.087834
36.525000 78.875000 6.089809
36.500000 77.843750 6.091241
36.475000 76.968750 6.092457
36.625000 75.468750 6.094540
35.100000 87.750000 6.233750
35.300000 87.093750 6.234662
35.100000 85.500000 6.236875
34.875000 84.593750 6.238134
34.975000 83.609375 6.239501
35.175000 82.421875 6.241151
35.600000 80.921875 6.243234
36.250000 79.890625 6.244666
36.600000 78.718750 6.246294
36.525000 78.015625 6.247270
36.500000 76.687500 6.249115
36.625000 75.375000 6.250938
35.000000 89.109375 6.402365
35.275000 87.687500 6.404340
35.425000 86.859375 6.405490
35.250000 85.578125 6.407269
34.975000 84.296875 6.409049
35.075000 83.296875 6.410438
35.475000 82.031250 6.412196
35.875000 81.000000 6.413628
36.425000 79.890625 6.415169
36.725000 78.921875 6.416514
36.525000 77.562500 6.418402
36.550000 76.546875 6.419813
36.700000 75.406250 6.421397
35.475000 89.265625 6.557961
35.475000 88.125000 6.559545
35.450000 87.140625 6.560912
35.300000 83.937500 6.565361
36.775000 79.500000 6.571524
36.725000 78.500000 6.572913
36.475000 76.984375 6.575018
36.625000 75.890625 6.576537
36.975000 75.062500 6.577687
35.625000 88.625000 6.715712
35.525000 87.953125 6.716645
35.600000 86.515625 6.718642
35.775000 85.390625 6.720204
35.450000 84.203125 6.721853
35.125000 82.812500 6.723785
35.625000 82.125000 6.724740
36.300000 80.984375 6.726324
36.700000 79.734375 6.728060
36.600000 78.828125 6.729319
36.450000 77.531250 6.731120
36.550000 76.406250 6.732682
36.850000 75.250000 6.734288
35.725000 88.843750 6.879254
35.575000 87.453125 6.881186
35.325000 84.078125 6.885873
35.250000 83.015625 6.887349
35.675000 81.609375 6.889302
36.325000 80.750000 6.890495
36.825000 79.843750 6.891754
36.700000 78.421875 6.893729
36.400000 77.328125 6.895248
36.550000 76.500000 6.896398
36.975000 75.296875 6.898069
35.875000 89.593750 7.030099
35.875000 88.656250 7.031401
35.650000 87.437500 7.033094
35.375000 84.234375 7.037543
36.825000 79.453125 7.044183
36.725000 78.609375 7.045355
36.500000 76.984375 7.047612
36.650000 76.359375 7.048480
37.000000 74.984375 7.050390
35.475000 88.812500 7.196890
35.675000 87.546875 7.198648
35.750000 86.875000 7.199581
35.725000 85.234375 7.201860
35.450000 83.984375 7.203596
35.275000 83.296875 7.204551
35.575000 81.859375 7.206547
36.225000 81.015625 7.207719
36.700000 80.093750 7.209000
36.575000 78.453125 7.211278
36.450000 77.828125 7.212146
36.625000 76.265625 7.214317
37.025000 75.453125 7.215445
35.525000 88.937500 7.358979
35.600000 87.859375 7.360476
35.800000 86.890625 7.361822
35.975000 85.968750 7.363102
35.775000 84.359375 7.365337
35.450000 83.546875 7.366466
36.025000 80.171875 7.371153
36.525000 79.140625 7.372586
36.425000 77.531250 7.374821
36.500000 76.437500 7.376340
36.875000 75.546875 7.377577
36.200000 88.234375 7.516815
35.800000 87.375000 7.518009
35.875000 86.500000 7.519224
36.175000 84.875000 7.521481
36.000000 84.109375 7.522544
36.700000 79.421875 7.529055
36.525000 78.546875 7.530270
36.475000 77.015625 7.532397
36.700000 76.156250 7.533590
37.175000 75.015625 7.535174
36.350000 89.171875 7.686037
36.225000 88.343750 7.687187
35.850000 86.843750 7.689270
35.900000 85.906250 7.690573
36.150000 84.781250 7.692135
36.000000 83.625000 7.693741
35.850000 82.343750 7.695520
36.400000 81.718750 7.696388
36.750000 80.578125 7.697973
36.575000 79.046875 7.700099
36.425000 77.859375 7.701749
36.550000 76.906250 7.703073
36.825000 75.765625 7.704657
37.425000 74.703125 7.706132
36.325000 89.625000 7.841046
36.150000 88.421875 7.842716
35.850000 87.406250 7.844127
35.900000 86.609375 7.845234
35.950000 85.156250 7.847252
36.050000 83.796875 7.849140
36.025000 82.671875 7.850703
36.275000 81.578125 7.852222
36.675000 80.796875 7.853307
36.650000 79.734375 7.854783
36.500000 78.343750 7.856714
36.475000 77.421875 7.857994
36.700000 75.984375 7.859991
37.150000 75.109375 7.861206
35.750000 88.828125 8.004432
35.825000 87.484375 8.006299
35.925000 86.859375 8.007167
35.975000 85.468750 8.009098
36.025000 84.578125 8.010335
36.100000 82.906250 8.012657
36.300000 81.875000 8.014090
36.600000 81.156250 8.015088
36.950000 79.671875 8.017149
36.825000 78.531250 8.018734
36.425000 77.593750 8.020036
36.600000 76.390625 8.021707
37.025000 75.375000 8.023117
35.650000 88.671875 8.153827
35.775000 87.828125 8.154999
35.950000 86.562500 8.156757
35.975000 85.281250 8.158536
36.000000 84.468750 8.159665
36.075000 83.484375 8.161032
36.325000 82.375000 8.162573
36.575000 80.968750 8.164526
36.950000 79.703125 8.166284
36.825000 78.796875 8.167542
36.425000 77.328125 8.169582
36.625000 76.390625 8.170884
37.025000 75.390625 8.172273
36.450000 89.328125 8.322631
36.225000 88.453125 8.323846
35.850000 86.968750 8.325908
35.975000 85.921875 8.327362
36.075000 84.656250 8.329120
36.075000 83.640625 8.330530
36.175000 82.375000 8.332288
36.500000 81.734375 8.333178
36.725000 80.171875 8.335348
36.575000 78.921875 8.337084
36.450000 77.968750 8.338408
36.625000 76.687500 8.340187
36.625000 89.468750 8.479641
35.850000 86.937500 8.483157
35.950000 86.187500 8.484199
36.075000 84.921875 8.485956
36.075000 83.546875 8.487866
36.175000 82.906250 8.488756
36.450000 81.406250 8.490839
36.675000 80.578125 8.491989
36.525000 79.437500 8.493574
36.400000 77.937500 8.495657
36.525000 76.781250 8.497263
36.825000 75.593750 8.498912
37.450000 74.609375 8.500279
36.075000 88.296875 8.639118
35.850000 87.343750 8.640442
35.925000 86.218750 8.642004
36.025000 85.125000 8.643524
36.100000 84.156250 8.644869
36.175000 83.218750 8.646171
36.500000 81.984375 8.647886
36.750000 80.812500 8.649513
36.850000 79.750000 8.650989
36.700000 78.343750 8.652942
36.450000 77.546875 8.654049
36.700000 76.328125 8.655741
37.175000 75.328125 8.657130
36.600000 89.578125 8.792873
36.350000 88.281250 8.794674
35.975000 87.281250 8.796063
36.025000 86.156250 8.797626
36.075000 85.140625 8.799036
36.125000 83.906250 8.800751
36.225000 82.656250 8.802487
36.450000 81.671875 8.803854
36.700000 80.281250 8.805785
36.550000 79.375000 8.807044
36.400000 78.109375 8.808802
36.575000 77.109375 8.810191
36.850000 76.093750 8.811601
37.375000 74.671875 8.813576
35.875000 88.843750 8.964534
35.775000 87.843750 8.965923
36.000000 86.609375 8.967638
36.075000 85.578125 8.969070
36.075000 84.406250 8.970697
36.125000 83.593750 8.971826
36.450000 82.281250 8.973649
36.675000 80.906250 8.975559
36.750000 80.062500 8.976730
36.650000 78.781250 8.978510
36.450000 77.765625 8.979920
36.625000 76.843750 8.981201
36.975000 75.281250 8.983371
36.675000 89.406250 9.119593
36.375000 88.234375 9.121220
35.975000 86.734375 9.123304
36.050000 85.609375 9.124866
36.075000 84.953125 9.125777
36.100000 83.453125 9.127861
36.225000 82.515625 9.129163
36.525000 81.296875 9.130856
36.650000 80.500000 9.131963
36.425000 78.796875 9.134328
36.350000 77.953125 9.135500
36.575000 76.843750 9.137041
36.900000 75.843750 9.138429
35.825000 88.843750 9.276414
35.825000 87.734375 9.277955
35.925000 86.531250 9.279626
36.050000 85.531250 9.281015
36.100000 84.500000 9.282447
36.150000 83.296875 9.284118
36.475000 82.171875 9.285681
36.725000 81.109375 9.287157
37.025000 79.875000 9.288871
36.900000 78.687500 9.290520
36.450000 77.609375 9.292018
36.650000 76.500000 9.293558
37.175000 75.328125 9.295186
36.025000 89.328125 9.431986
35.900000 87.796875 9.434112
35.950000 87.093750 9.435089
36.125000 85.906250 9.436738
35.950000 84.921875 9.438105
35.775000 83.312500 9.440341
35.900000 82.437500 9.441556
36.225000 81.531250 9.442815
36.575000 79.984375 9.444963
36.500000 79.281250 9.445940
36.425000 77.703125 9.448131
36.500000 76.531250 9.449759
36.825000 75.500000 9.451191
36.000000 89.218750 9.601473
35.825000 88.343750 9.602688
35.900000 86.890625 9.604707
36.100000 85.796875 9.606226
35.825000 84.531250 9.607984
35.675000 83.781250 9.609025
36.250000 80.390625 9.613734
36.500000 78.828125 9.615905
36.425000 78.171875 9.616816
36.500000 77.015625 9.618422
35.775000 89.359375 9.760796
35.550000 88.015625 9.762662
35.750000 87.125000 9.763899
35.600000 85.953125 9.765527
35.325000 84.375000 9.767719
36.500000 79.265625 9.774815
36.425000 78.078125 9.776464
36.475000 76.984375 9.777984
36.800000 75.406250 9.780175
35.775000 89.187500 9.913862
35.525000 88.046875 9.915446
35.725000 86.937500 9.916986
35.475000 85.796875 9.918571
36.600000 79.296875 9.927598
36.425000 78.140625 9.929204
36.475000 76.718750 9.931179
35.700000 88.937500 10.074594
35.525000 87.843750 10.076113
35.600000 86.875000 10.077458
35.350000 85.593750 10.079238
36.650000 79.015625 10.088374
36.425000 77.796875 10.090067
36.475000 76.734375 10.091542
35.675000 89.015625 10.239831
35.425000 87.921875 10.241350
35.525000 87.156250 10.242414
35.175000 85.750000 10.244367
36.600000 79.046875 10.253677
36.450000 77.687500 10.255565
36.450000 76.718750 10.256910
36.700000 75.531250 10.258560
35.450000 86.703125 10.399631
35.150000 85.296875 10.401584
34.950000 84.328125 10.402930
36.125000 79.812500 10.409201
36.500000 78.703125 10.410742
36.425000 77.390625 10.412565
36.500000 76.578125 10.413694
36.700000 75.250000 10.415538
35.650000 88.562500 10.569065
35.475000 87.562500 10.570454
35.825000 86.609375 10.571778
34.975000 83.953125 10.575467
35.275000 83.125000 10.576617
36.700000 78.328125 10.583279
36.450000 77.093750 10.584994
36.550000 76.296875 10.586100
36.825000 74.734375 10.588271
35.425000 89.375000 10.721509
35.300000 87.890625 10.723571
35.000000 84.906250 10.727715
34.925000 83.781250 10.729278
36.650000 79.125000 10.735745
36.625000 78.031250 10.737264
36.450000 76.859375 10.738892
35.450000 89.375000 10.880678
35.325000 88.390625 10.882045
35.350000 87.031250 10.883933
35.675000 86.218750 10.885062
34.800000 83.890625 10.888295
35.200000 82.546875 10.890162
35.575000 81.187500 10.892050
36.150000 80.625000 10.892831
36.700000 79.062500 10.895001
36.700000 77.921875 10.896585
36.450000 76.687500 10.898299
35.350000 89.484375 11.034144
35.275000 88.000000 11.036206
35.325000 87.203125 11.037313
35.425000 86.187500 11.038723
35.075000 84.406250 11.041197
34.725000 83.281250 11.042760
35.075000 82.625000 11.043671
35.475000 81.343750 11.045451
36.050000 80.296875 11.046905
36.675000 79.187500 11.048445
36.675000 78.203125 11.049813
36.425000 76.968750 11.051527
36.425000 76.000000 11.052873
36.875000 74.890625 11.054413
35.575000 88.546875 11.197710
35.125000 87.796875 11.198751
34.850000 84.468750 11.203374
34.700000 83.359375 11.204915
34.975000 82.187500 11.206542
35.350000 80.703125 11.208604
36.100000 79.812500 11.209841
36.575000 79.078125 11.210861
36.400000 77.734375 11.212727
36.250000 76.531250 11.214398
36.425000 75.671875 11.215592
35.200000 89.359375 11.359798
35.100000 88.015625 11.361664
35.200000 87.265625 11.362706
35.125000 85.765625 11.364789
34.700000 84.921875 11.365961
34.475000 83.296875 11.368218
34.625000 82.687500 11.369064
34.925000 81.171875 11.371170
36.300000 76.703125 11.377376
36.325000 75.890625 11.378505
36.850000 74.828125 11.379980
35.250000 89.000000 11.518157
35.100000 87.765625 11.519871
34.775000 83.937500 11.525188
34.425000 82.859375 11.526686
34.600000 82.281250 11.527489
35.000000 81.234375 11.528943
35.575000 80.078125 11.530549
36.200000 78.718750 11.532437
36.375000 77.500000 11.534129
36.150000 76.593750 11.535388
36.350000 75.406250 11.537037
34.900000 88.781250 11.673869
35.050000 87.375000 11.675822
35.050000 86.453125 11.677103
35.400000 85.062500 11.679034
34.425000 83.000000 11.681899
34.625000 82.093750 11.683157
36.075000 77.375000 11.689711
36.000000 76.515625 11.690905
36.300000 75.031250 11.692966
34.950000 88.546875 11.844873
34.975000 87.562500 11.846240
34.700000 84.109375 11.851036
34.525000 82.953125 11.852642
34.725000 81.578125 11.854552
35.100000 80.687500 11.855788
35.600000 79.156250 11.857915
35.775000 78.156250 11.859304
35.750000 77.046875 11.860845
35.950000 76.296875 11.861887
36.400000 74.875000 11.863862
35.350000 89.296875 12.004844
34.900000 88.250000 12.006298
34.925000 87.328125 12.007579
34.750000 83.687500 12.012635
34.600000 82.390625 12.014436
34.825000 81.250000 12.016021
35.250000 80.265625 12.017388
35.525000 79.281250 12.018755
35.625000 77.734375 12.020903
35.775000 76.625000 12.022444
36.000000 75.609375 12.023855
36.500000 74.687500 12.025135
35.250000 89.296875 12.156869
34.825000 88.281250 12.158280
34.825000 87.250000 12.159712
34.900000 86.312500 12.161014
34.875000 84.734375 12.163206
34.750000 83.468750 12.164964
34.650000 82.593750 12.166179
34.800000 81.359375 12.167893
35.150000 80.390625 12.169239
35.375000 79.078125 12.171062
35.475000 78.328125 12.172104
35.650000 77.015625 12.173926
35.925000 76.109375 12.175185
36.425000 74.828125 12.176965
34.800000 88.125000 12.323543
34.775000 87.500000 12.324411
34.875000 85.859375 12.326690
34.900000 84.875000 12.328057
34.875000 83.656250 12.329750
34.850000 82.671875 12.331117
34.925000 81.359375 12.332940
35.075000 80.578125 12.334025
35.200000 79.421875 12.335631
35.375000 78.265625 12.337237
35.600000 76.921875 12.339103
35.875000 75.812500 12.340644
36.275000 74.765625 12.342098
34.650000 89.703125 12.480950
34.550000 88.531250 12.482577
34.700000 87.562500 12.483923
34.750000 86.296875 12.485681
34.825000 85.062500 12.487395
34.800000 84.203125 12.488589
34.800000 82.703125 12.490672
35.050000 81.796875 12.491931
35.075000 80.375000 12.493906
35.000000 79.484375 12.495142
35.275000 78.515625 12.496488
35.500000 77.218750 12.498289
35.700000 76.125000 12.499808
36.050000 74.937500 12.501457
34.925000 89.562500 12.635150
34.650000 88.171875 12.637081
34.675000 87.046875 12.638644
34.725000 86.109375 12.639946
34.775000 85.078125 12.641378
34.825000 83.812500 12.643136
34.825000 82.781250 12.644568
35.000000 81.640625 12.646152
35.000000 80.093750 12.648301
34.950000 79.015625 12.649798
35.250000 78.250000 12.650862
35.450000 76.812500 12.652858
35.650000 75.656250 12.654464
36.025000 74.968750 12.655419
34.625000 89.218750 12.807272
34.525000 87.953125 12.809030
34.650000 86.671875 12.810809
34.700000 85.562500 12.812350
34.700000 84.281250 12.814129
34.750000 83.218750 12.815605
34.900000 82.468750 12.816647
34.925000 81.203125 12.818405
34.850000 80.093750 12.819945
35.025000 78.593750 12.822029
35.275000 77.671875 12.823309
35.450000 76.375000 12.825110
34.600000 88.625000 12.963438
34.575000 87.781250 12.964609
34.650000 86.359375 12.966584
34.675000 85.703125 12.967496
34.700000 84.187500 12.969601
34.750000 83.218750 12.970946
34.950000 81.750000 12.972986
34.975000 80.656250 12.974505
34.850000 79.562500 12.976024
35.025000 78.468750 12.977543
35.275000 77.546875 12.978824
35.450000 76.562500 12.980191
35.700000 75.234375 12.982036
34.700000 89.656250 13.120150
34.600000 88.562500 13.121669
34.650000 87.578125 13.123036
34.650000 86.203125 13.124946
34.675000 84.953125 13.126682
34.725000 84.015625 13.127984
34.775000 82.921875 13.129503
34.900000 81.859375 13.130979
34.925000 80.796875 13.132454
34.975000 79.453125 13.134321
35.125000 78.531250 13.135601
35.275000 77.093750 13.137598
35.450000 75.968750 13.139160
35.750000 74.765625 13.140831
34.800000 89.515625 13.274637
34.625000 88.093750 13.276611
34.650000 87.328125 13.277675
34.700000 86.062500 13.279433
34.700000 84.750000 13.281255
34.700000 84.031250 13.282254
34.775000 82.421875 13.284489
34.800000 81.656250 13.285552
34.825000 80.234375 13.287527
34.950000 79.546875 13.288482
35.125000 78.375000 13.290110
35.250000 77.218750 13.291715
35.425000 75.687500 13.293842
35.750000 74.562500 13.295405
35.075000 89.562500 13.445428
34.550000 88.281250 13.447208
34.600000 87.218750 13.448684
34.625000 85.968750 13.450420
34.650000 85.000000 13.451765
34.725000 84.125000 13.452980
34.775000 83.031250 13.454499
34.825000 81.468750 13.456670
34.825000 80.671875 13.457776
34.850000 79.156250 13.459881
35.025000 78.359375 13.460988
35.250000 77.078125 13.462768
35.400000 75.875000 13.464439
35.700000 74.890625 13.465806
34.600000 86.953125 13.604939
34.625000 85.625000 13.606784
34.700000 85.031250 13.607608
34.800000 83.843750 13.609258
34.900000 82.312500 13.611384
34.800000 81.625000 13.612339
34.700000 80.187500 13.614336
34.825000 79.031250 13.615942
35.075000 77.859375 13.617569
35.250000 76.953125 13.618828
35.425000 75.875000 13.620325
35.775000 74.906250 13.621671
34.600000 87.093750 13.762271
34.625000 85.734375 13.764159
34.600000 84.515625 13.765852
34.675000 83.312500 13.767523
34.950000 82.281250 13.768955
34.850000 81.296875 13.770323
34.675000 80.125000 13.771950
34.825000 78.859375 13.773708
35.000000 77.656250 13.775379
35.200000 76.734375 13.776659
35.450000 75.843750 13.777896
35.825000 74.484375 13.779784
34.500000 88.031250 13.931029
34.625000 86.640625 13.932961
34.675000 85.296875 13.934827
34.700000 84.515625 13.935912
34.725000 83.390625 13.937474
35.000000 82.312500 13.938972
35.025000 81.140625 13.940599
34.825000 79.875000 13.942357
34.900000 78.578125 13.944158
35.075000 77.671875 13.945417
35.350000 76.703125 13.946763
35.575000 75.187500 13.948868
36.000000 74.515625 13.949801
34.600000 87.015625 14.087102
34.625000 85.906250 14.088643
34.675000 84.593750 14.090466
34.750000 83.562500 14.091898
34.925000 82.750000 14.093027
34.850000 81.593750 14.094633
34.700000 80.250000 14.096499
34.825000 79.187500 14.097975
35.050000 77.984375 14.099646
35.250000 76.656250 14.101490
35.425000 75.796875 14.102684
35.775000 74.703125 14.104203
34.400000 88.734375 14.240520
34.575000 87.296875 14.242517
34.600000 86.484375 14.243645
34.650000 85.296875 14.245295
34.700000 84.093750 14.246965
34.750000 82.984375 14.248506
34.825000 81.593750 14.250438
34.750000 80.484375 14.251979
34.750000 79.468750 14.253389
35.000000 78.546875 14.254669
35.250000 77.546875 14.256058
35.425000 76.406250 14.257643
35.650000 75.109375 14.259444
34.600000 86.671875 14.398949
34.650000 86.015625 14.399861
34.650000 84.578125 14.401857
34.675000 83.140625 14.403854
34.925000 82.156250 14.405221
34.850000 81.312500 14.406393
34.700000 80.031250 14.408172
34.900000 78.562500 14.410212
35.100000 77.953125 14.411059
35.350000 76.906250 14.412513
35.525000 75.750000 14.414119
35.950000 74.421875 14.415963
34.350000 88.703125 14.567272
34.575000 87.296875 14.569226
34.600000 86.265625 14.570658
34.625000 84.843750 14.572633
34.700000 83.796875 14.574087
34.775000 82.718750 14.575584
34.925000 81.875000 14.576756
34.925000 80.562500 14.578579
34.850000 79.109375 14.580597
35.025000 78.062500 14.582051
35.250000 77.390625 14.582984
35.400000 75.843750 14.585133
35.700000 74.875000 14.586478
34.625000 89.250000 14.718260
34.525000 88.234375 14.719671
34.575000 87.265625 14.721016
34.600000 85.906250 14.722904
34.625000 84.796875 14.724445
34.700000 83.796875 14.725834
34.825000 82.265625 14.727961
34.875000 81.421875 14.729132
34.800000 80.000000 14.731107
34.825000 78.984375 14.732518
35.100000 77.796875 14.734167
35.375000 76.671875 14.735730
35.525000 75.859375 14.736858
35.925000 74.421875 14.738855
34.550000 88.656250 14.884240
34.475000 87.375000 14.886020
34.625000 86.390625 14.887387
34.650000 85.250000 14.888971
34.675000 84.375000 14.890187
34.750000 83.437500 14.891489
34.875000 82.296875 14.893073
34.875000 80.765625 14.895200
34.825000 80.046875 14.896198
35.000000 78.734375 14.898021
35.250000 77.593750 14.899605
35.425000 76.281250 14.901428
34.375000 88.234375 15.046869
34.600000 87.218750 15.048280
34.625000 86.140625 15.049777
34.650000 85.234375 15.051036
34.725000 84.125000 15.052577
34.775000 82.468750 15.054877
34.900000 81.750000 15.055875
34.900000 80.515625 15.057590
34.950000 79.609375 15.058848
35.250000 78.437500 15.060476
35.450000 77.156250 15.062255
35.600000 76.265625 15.063493
35.925000 74.812500 15.065511
34.675000 89.125000 15.201988
34.500000 87.640625 15.204049
34.625000 86.765625 15.205265
34.725000 85.671875 15.206784
34.750000 84.203125 15.208824
34.700000 83.531250 15.209757
34.725000 82.343750 15.211406
34.850000 81.015625 15.213251
35.000000 80.234375 15.214336
35.175000 78.921875 15.216159
35.375000 77.421875 15.218242
35.575000 76.671875 15.219284
35.825000 75.312500 15.221172
36.400000 74.656250 15.222083
34.700000 89.109375 15.357013
34.525000 87.656250 15.359032
34.625000 86.515625 15.360616
34.750000 85.578125 15.361918
34.850000 84.171875 15.363871
34.675000 83.468750 15.364848
34.575000 82.390625 15.366345
34.825000 80.734375 15.368645
35.175000 79.734375 15.370034
35.425000 78.875000 15.371228
35.450000 77.593750 15.373008
35.575000 76.359375 15.374722
35.825000 75.640625 15.375720
34.700000 89.125000 15.527552
34.600000 87.953125 15.529180
34.800000 86.546875 15.531133
34.850000 85.218750 15.532978
35.300000 84.406250 15.534106
34.550000 81.828125 15.537687
34.850000 81.046875 15.538772
35.400000 80.078125 15.540117
35.600000 78.687500 15.542049
35.525000 77.468750 15.543741
35.650000 76.265625 15.545413
35.900000 75.250000 15.546823
34.675000 89.671875 15.680638
34.600000 88.296875 15.682548
34.850000 87.546875 15.683590
34.925000 86.296875 15.685326
34.775000 84.734375 15.687496
34.475000 83.484375 15.689232
34.475000 82.687500 15.690339
34.650000 81.265625 15.692314
35.025000 80.406250 15.693507
35.700000 79.359375 15.694961
35.850000 78.062500 15.696763
35.700000 76.859375 15.698434
35.925000 75.859375 15.699822
36.325000 74.765625 15.701342
34.975000 89.046875 15.838179
34.775000 87.812500 15.839893
34.875000 86.859375 15.841217
34.975000 85.640625 15.842910
35.325000 85.156250 15.843583
34.500000 82.343750 15.847489
34.750000 81.062500 15.849268
35.300000 78.015625 15.853500
35.850000 77.156250 15.854694
36.075000 75.765625 15.856625
36.550000 74.859375 15.857884
35.025000 88.875000 16.010295
34.875000 87.687500 16.011944
34.950000 86.750000 16.013247
34.750000 83.390625 16.017912
34.600000 82.562500 16.019063
34.875000 81.000000 16.021233
35.525000 77.859375 16.025594
36.000000 76.796875 16.027070
34.875000 88.656250 16.165756
35.000000 87.593750 16.167232
35.125000 86.453125 16.168816
34.900000 85.328125 16.170379
34.675000 83.984375 16.172245
34.825000 83.140625 16.173417
35.050000 82.015625 16.174979
36.300000 77.437500 16.181338
36.125000 76.359375 16.182835
36.375000 75.203125 16.184441
34.750000 89.609375 16.323040
34.750000 88.250000 16.324928
35.125000 87.562500 16.325883
35.225000 86.406250 16.327489
35.400000 85.265625 16.329073
35.125000 83.750000 16.331178
34.950000 83.015625 16.332198
35.500000 81.828125 16.333848
35.850000 80.640625 16.335497
36.275000 79.718750 16.336777
36.550000 78.156250 16.338947
36.325000 77.531250 16.339815
36.275000 75.890625 16.342094
36.600000 75.140625 16.343136
35.225000 88.906250 16.478188
35.000000 87.734375 16.479815
35.200000 87.015625 16.480814
34.775000 85.265625 16.483244
34.525000 84.656250 16.484091
34.875000 83.000000 16.486391
35.025000 82.375000 16.487259
35.450000 80.921875 16.489277
36.050000 79.796875 16.490840
36.450000 79.125000 16.491773
36.450000 77.906250 16.493465
36.325000 76.765625 16.495050
36.450000 75.609375 16.496655
35.225000 89.437500 16.646900
35.150000 88.265625 16.648527
35.275000 86.828125 16.650524
35.100000 83.843750 16.654669
36.475000 79.312500 16.660962
36.550000 77.843750 16.663002
36.450000 76.843750 16.664391
35.200000 88.609375 16.801800
35.350000 87.156250 16.803819
35.425000 86.390625 16.804882
35.775000 85.421875 16.806228
35.100000 82.531250 16.810242
35.575000 81.828125 16.811219
36.150000 80.484375 16.813085
36.725000 79.312500 16.814713
36.675000 78.031250 16.816492
36.450000 76.937500 16.818012
36.575000 76.125000 16.819140
36.875000 74.734375 16.821071
35.025000 88.906250 16.958111
35.325000 87.812500 16.959630
35.450000 86.921875 16.960867
35.350000 85.531250 16.962798
35.025000 84.406250 16.964361
35.075000 83.453125 16.965685
35.575000 82.062500 16.967616
35.975000 80.984375 16.969114
36.450000 79.781250 16.970785
36.625000 78.578125 16.972456
36.500000 77.312500 16.974213
36.600000 76.187500 16.975776
36.800000 75.531250 16.976687
35.275000 88.796875 17.129731
35.425000 87.937500 17.130924
35.525000 86.500000 17.132921
35.600000 85.625000 17.134136
35.350000 84.109375 17.136241
35.175000 83.125000 17.137609
35.575000 81.906250 17.139301
36.150000 80.671875 17.141016
36.600000 79.750000 17.142296
36.600000 78.718750 17.143728
36.500000 77.609375 17.145269
36.600000 76.171875 17.147266
36.800000 75.343750 17.148416
35.525000 88.984375 17.285950
35.450000 87.546875 17.287946
35.500000 86.406250 17.289531
35.600000 85.171875 17.291245
35.325000 84.250000 17.292526
35.125000 83.187500 17.294001
35.550000 81.921875 17.295759
36.175000 80.859375 17.297235
36.600000 79.703125 17.298841
36.575000 78.718750 17.300208
36.475000 77.781250 17.301510
36.575000 76.609375 17.303138
36.775000 75.093750 17.305243
35.650000 89.000000 17.449830
35.475000 87.437500 17.452000
35.575000 86.781250 17.452912
35.650000 85.796875 17.454279
35.325000 84.437500 17.456167
35.125000 83.125000 17.457990
35.525000 82.312500 17.459118
36.150000 81.156250 17.460724
36.575000 79.718750 17.462721
36.550000 78.953125 17.463784
36.450000 77.781250 17.465412
36.500000 76.343750 17.467408
36.850000 75.218750 17.468971
36.000000 89.531250 17.599123
35.875000 88.031250 17.601206
35.650000 87.375000 17.602117
35.675000 85.765625 17.604352
35.525000 85.078125 17.605307
35.300000 83.625000 17.607326
35.400000 82.421875 17.608997
36.050000 81.390625 17.610429
36.625000 80.343750 17.611883
36.675000 79.046875 17.613684
36.475000 78.000000 17.615138
36.450000 77.125000 17.616353
36.700000 75.875000 17.618089
37.300000 74.703125 17.619717
36.150000 89.546875 17.760594
36.025000 88.187500 17.762482
35.650000 87.265625 17.763762
35.825000 86.078125 17.765411
35.700000 85.031250 17.766865
35.325000 83.859375 17.768493
35.475000 82.343750 17.770598
36.175000 81.718750 17.771466
36.700000 80.546875 17.773093
36.650000 79.078125 17.775134
36.450000 78.109375 17.776479
36.450000 76.750000 17.778367
35.550000 88.875000 17.925906
35.725000 87.750000 17.927469
35.800000 86.765625 17.928836
35.825000 85.406250 17.930724
35.600000 84.265625 17.932308
35.325000 82.921875 17.934175
35.550000 82.046875 17.935390
36.250000 80.953125 17.936909
36.800000 80.109375 17.938081
36.600000 78.640625 17.940121
36.400000 77.265625 17.942030
36.575000 76.718750 17.942790
37.000000 75.625000 17.944309
36.250000 89.156250 18.082189
36.200000 88.250000 18.083447
35.800000 87.109375 18.085032
35.900000 86.187500 18.086312
35.900000 84.812500 18.088222
35.650000 83.421875 18.090153
35.725000 82.421875 18.091542
36.350000 81.656250 18.092605
36.775000 80.312500 18.094472
36.625000 79.328125 18.095839
36.425000 77.718750 18.098074
36.525000 76.718750 18.099463
36.825000 75.609375 18.101004
37.475000 74.921875 18.101959
36.250000 89.484375 18.251873
36.075000 88.703125 18.252959
35.825000 87.437500 18.254716
35.875000 86.625000 18.255845
36.050000 85.312500 18.257668
35.925000 84.328125 18.259035
36.875000 79.609375 18.265589
36.675000 78.156250 18.267607
36.525000 77.281250 18.268822
36.700000 76.015625 18.270580
37.075000 75.343750 18.271513
35.775000 88.671875 18.408921
35.800000 87.859375 18.410050
35.850000 86.609375 18.411786
35.850000 85.328125 18.413565
35.975000 84.125000 18.415236
35.950000 82.890625 18.416951
36.175000 82.171875 18.417949
36.650000 81.203125 18.419295
37.050000 80.031250 18.420922
36.875000 78.578125 18.422940
36.450000 77.578125 18.424329
36.600000 76.578125 18.425718
37.025000 75.328125 18.427454
35.650000 89.109375 18.566482
35.725000 87.968750 18.568066
35.875000 86.593750 18.569976
35.950000 85.437500 18.571582
36.025000 84.265625 18.573210
36.075000 83.515625 18.574251
36.250000 82.218750 18.576052
36.575000 81.125000 18.577572
36.850000 79.937500 18.579221
36.675000 78.734375 18.580892
36.400000 77.843750 18.582129
36.600000 76.750000 18.583648
37.025000 75.656250 18.585167
35.725000 88.875000 18.720499
35.700000 87.765625 18.722040
35.925000 86.859375 18.723299
35.975000 85.640625 18.724991
36.025000 84.546875 18.726511
36.075000 83.390625 18.728116
36.250000 82.125000 18.729874
36.550000 81.046875 18.731372
36.750000 80.000000 18.732826
36.600000 79.000000 18.734215
36.425000 77.984375 18.735625
36.700000 76.718750 18.737383
37.100000 75.500000 18.739076
36.075000 88.578125 18.889371
35.850000 87.484375 18.890891
35.900000 86.109375 18.892800
36.000000 85.093750 18.894211
36.025000 84.015625 18.895708
36.125000 83.046875 18.897054
36.425000 81.625000 18.899029
36.725000 80.859375 18.900092
36.575000 79.750000 18.901633
36.300000 78.218750 18.903759
36.200000 77.171875 18.905213
36.550000 76.406250 18.906277
37.250000 74.843750 18.908447
36.350000 89.687500 19.047857
36.100000 88.781250 19.049115
35.875000 87.812500 19.050461
35.900000 86.593750 19.052154
36.000000 85.125000 19.054193
36.075000 83.937500 19.055843
36.150000 82.875000 19.057318
36.450000 81.718750 19.058924
36.725000 80.671875 19.060378
36.850000 79.531250 19.061963
36.675000 78.531250 19.063351
36.450000 77.140625 19.065283
36.625000 76.484375 19.066194
37.075000 75.453125 19.067627
36.350000 89.562500 19.198256
36.075000 88.828125 19.199276
35.850000 87.515625 19.201099
35.925000 86.437500 19.202597
36.025000 85.093750 19.204463
36.025000 84.250000 19.205635
36.100000 83.187500 19.207111
36.525000 81.984375 19.208781
36.800000 81.015625 19.210127
36.625000 79.437500 19.212319
36.425000 78.328125 19.213860
36.425000 77.546875 19.214945
36.625000 76.484375 19.216420
37.175000 75.281250 19.218091
36.700000 89.312500 19.361703
35.950000 87.218750 19.364611
35.975000 85.546875 19.366933
36.025000 84.578125 19.368279
36.075000 83.312500 19.370037
36.350000 82.187500 19.371599
36.625000 81.203125 19.372967
36.725000 80.078125 19.374529
36.575000 78.718750 19.376417
36.425000 77.953125 19.377480
36.575000 76.671875 19.379260
36.975000 75.750000 19.380540
36.800000 89.546875 19.516805
35.975000 87.328125 19.519886
36.000000 85.984375 19.521753
36.050000 84.812500 19.523380
36.125000 83.562500 19.525116
36.250000 82.343750 19.526809
36.525000 81.640625 19.527786
36.725000 80.500000 19.529370
36.550000 79.375000 19.530932
36.375000 77.843750 19.533059
36.525000 76.906250 19.534361
36.800000 75.671875 19.536075
37.475000 74.921875 19.537117
36.325000 89.484375 19.692101
36.075000 88.718750 19.693164
35.875000 87.750000 19.694509
35.925000 86.421875 19.696354
36.025000 85.203125 19.698047
36.050000 84.265625 19.699349
36.125000 82.796875 19.701389
36.425000 81.984375 19.702517
36.725000 80.578125 19.704470
36.800000 79.750000 19.705621
36.675000 78.531250 19.707313
36.500000 77.312500 19.709006
36.675000 75.984375 19.710850
37.225000 75.218750 19.711914
35.650000 89.171875 19.845167
35.725000 87.968750 19.846838
35.900000 86.531250 19.848835
36.050000 85.343750 19.850484
36.100000 84.406250 19.851786
36.050000 83.265625 19.853370
36.250000 82.000000 19.855128
36.575000 81.000000 19.856517
36.850000 79.703125 19.858318
36.675000 78.468750 19.860032
36.400000 77.796875 19.860965
36.575000 76.375000 19.862940
37.000000 75.468750 19.864199
36.150000 88.609375 20.008081
35.875000 87.390625 20.009774
35.950000 85.937500 20.011792
35.925000 84.921875 20.013203
35.950000 83.640625 20.014982
36.000000 82.531250 20.016523
36.325000 81.484375 20.017977
36.775000 80.734375 20.019019
36.675000 79.140625 20.021232
36.500000 78.328125 20.022361
36.475000 77.000000 20.024205
36.700000 76.218750 20.025290
37.275000 74.781250 20.027287
36.025000 89.375000 20.168454
35.775000 88.093750 20.170234
35.850000 87.156250 20.171536
36.075000 85.843750 20.173359
35.800000 84.593750 20.175095
35.650000 83.390625 20.176766
36.225000 80.187500 20.181215
36.475000 79.171875 20.182625
36.425000 78.078125 20.184144
36.500000 76.734375 20.186011
35.875000 88.750000 20.325211
35.775000 87.312500 20.327208
35.825000 86.187500 20.328770
35.525000 85.484375 20.329747
35.325000 84.140625 20.331613
35.600000 82.953125 20.333262
36.025000 81.890625 20.334738
36.500000 80.812500 20.336236
37.000000 79.859375 20.337559
36.825000 78.250000 20.339795
36.425000 77.234375 20.341205
36.600000 76.375000 20.342399
37.050000 75.343750 20.343831
36.075000 88.484375 20.494559
35.700000 87.453125 20.495991
36.000000 86.640625 20.497120
35.250000 83.859375 20.500983
35.600000 82.953125 20.502241
36.050000 81.953125 20.503630
36.525000 80.796875 20.505236
36.975000 79.359375 20.507232
36.750000 78.296875 20.508708
36.400000 76.984375 20.510531
36.600000 76.375000 20.511377
37.125000 74.875000 20.513461
35.600000 89.187500 20.649033
35.525000 88.046875 20.650618
35.625000 86.750000 20.652419
35.325000 85.500000 20.654155
35.050000 84.625000 20.655370
36.500000 79.125000 20.663009
36.425000 77.750000 20.664919
36.525000 76.609375 20.666503
36.900000 75.671875 20.667805
35.675000 89.328125 20.804842
35.575000 88.328125 20.806231
35.500000 87.062500 20.807989
35.250000 86.203125 20.809182
35.025000 84.921875 20.810962
35.300000 83.671875 20.812698
36.200000 80.265625 20.817429
36.700000 79.406250 20.818622
36.525000 78.328125 20.820120
36.500000 76.843750 20.822181
36.750000 76.062500 20.823267
37.400000 74.937500 20.824829
35.650000 89.593750 20.960576
35.575000 88.453125 20.962160
35.450000 87.296875 20.963766
35.575000 85.906250 20.965698
35.325000 84.921875 20.967065
35.200000 83.546875 20.968974
35.750000 82.453125 20.970494
36.000000 81.484375 20.971839
36.375000 80.203125 20.973619
36.800000 79.031250 20.975246
36.675000 78.171875 20.976440
36.500000 76.812500 20.978328
36.650000 75.593750 20.980020
37.150000 74.703125 20.981257
35.425000 88.562500 21.135441
35.425000 87.671875 21.136678
35.550000 86.734375 21.137980
35.225000 85.265625 21.140020
34.850000 83.921875 21.141887
35.050000 83.281250 21.142776
36.575000 78.515625 21.149395
36.425000 77.140625 21.151305
36.525000 76.359375 21.152390
36.750000 75.453125 21.153649
35.350000 88.921875 21.286212
35.200000 88.312500 21.287059
35.375000 87.203125 21.288599
35.725000 86.187500 21.290010
34.950000 83.640625 21.293547
36.650000 79.093750 21.299863
36.575000 78.078125 21.301273
36.450000 76.578125 21.303356
36.525000 75.593750 21.304724
35.500000 89.671875 21.446105
35.475000 88.593750 21.447603
35.325000 87.000000 21.449816
35.475000 86.093750 21.451075
34.700000 83.875000 21.454157
35.150000 82.671875 21.455828
35.525000 81.343750 21.457672
36.050000 80.796875 21.458432
36.700000 79.546875 21.460168
36.700000 78.375000 21.461796
36.450000 76.906250 21.463836
36.475000 76.125000 21.464921
36.775000 75.125000 21.466310
35.375000 89.390625 21.599809
35.250000 87.921875 21.601849
35.300000 87.359375 21.602630
35.400000 85.812500 21.604779
35.000000 84.765625 21.606232
34.700000 83.609375 21.607838
34.975000 82.343750 21.609596
35.375000 81.578125 21.610660
36.000000 80.312500 21.612417
36.625000 79.406250 21.613676
36.650000 78.093750 21.615499
36.400000 76.671875 21.617474
35.300000 88.734375 21.762673
35.050000 88.156250 21.763476
35.225000 86.781250 21.765385
35.625000 85.484375 21.767186
34.625000 83.171875 21.770398
34.950000 82.359375 21.771527
35.300000 81.218750 21.773111
35.875000 80.187500 21.774543
36.475000 78.953125 21.776258
36.500000 77.984375 21.777603
36.300000 76.921875 21.779079
36.375000 75.484375 21.781075
35.100000 88.640625 21.924504
35.125000 87.484375 21.926110
34.800000 84.031250 21.930906
34.575000 83.109375 21.932187
34.850000 81.640625 21.934227
36.350000 77.375000 21.940151
36.150000 75.953125 21.942126
36.450000 75.062500 21.943363
35.025000 88.015625 22.081042
35.200000 87.062500 22.082365
35.375000 85.625000 22.084362
34.425000 83.031250 22.087964
34.550000 82.000000 22.089396
34.925000 81.062500 22.090699
35.500000 79.859375 22.092370
36.250000 79.078125 22.093455
36.425000 77.656250 22.095430
36.150000 76.859375 22.096536
36.300000 75.265625 22.098750
34.900000 88.765625 22.250430
35.050000 87.500000 22.252188
35.050000 86.453125 22.253642
35.450000 85.625000 22.254792
34.475000 82.859375 22.258633
34.650000 81.531250 22.260478
36.125000 77.562500 22.265990
36.025000 76.000000 22.268160
36.325000 75.109375 22.269397
35.275000 89.421875 22.406380
34.925000 88.578125 22.407552
34.975000 87.171875 22.409505
35.000000 86.437500 22.410525
35.375000 84.968750 22.412565
34.475000 82.578125 22.415885
34.650000 81.406250 22.417512
35.000000 80.359375 22.418967
35.600000 79.656250 22.419943
35.825000 78.578125 22.421440
35.800000 77.484375 22.422960
36.000000 76.062500 22.424934
36.350000 74.796875 22.426692
34.725000 88.203125 22.576061
34.925000 87.312500 22.577298
34.975000 86.062500 22.579034
35.000000 85.078125 22.580401
34.725000 84.000000 22.581899
34.475000 82.984375 22.583309
34.650000 81.781250 22.584980
34.975000 80.265625 22.587085
35.375000 79.250000 22.588496
35.625000 78.484375 22.589559
35.775000 77.359375 22.591122
35.975000 76.109375 22.592858
36.325000 75.125000 22.594225
34.575000 88.421875 22.719299
34.800000 87.312500 22.720840
34.900000 86.625000 22.721795
34.800000 84.968750 22.724095
34.800000 84.250000 22.725094
34.775000 82.828125 22.727068
34.725000 81.625000 22.728740
35.100000 80.515625 22.730280
35.325000 79.359375 22.731886
35.425000 78.406250 22.733210
35.625000 77.000000 22.735163
35.850000 76.453125 22.735923
36.250000 75.140625 22.737746
35.075000 89.140625 22.884689
34.750000 88.156250 22.886056
34.750000 87.468750 22.887011
34.825000 86.281250 22.888660
34.800000 84.640625 22.890939
34.825000 83.750000 22.892176
34.850000 82.937500 22.893304
34.950000 81.843750 22.894824
35.100000 80.656250 22.896473
35.200000 79.578125 22.897970
35.400000 77.890625 22.900314
35.575000 76.796875 22.901833
35.850000 76.125000 22.902766
36.300000 75.046875 22.904263
34.725000 86.906250 23.047199
34.775000 85.531250 23.049109
34.800000 84.625000 23.050367
34.800000 82.890625 23.052776
34.925000 82.156250 23.053796
35.050000 81.078125 23.055294
35.025000 79.578125 23.057377
35.150000 78.609375 23.058722
35.400000 77.765625 23.059894
35.600000 76.671875 23.061413
35.875000 75.140625 23.063540
34.950000 89.500000 23.198883
34.700000 88.359375 23.200467
34.675000 87.312500 23.201921
34.700000 85.828125 23.203982
34.725000 85.234375 23.204807
34.750000 83.750000 23.206869
34.775000 82.968750 23.207954
34.950000 81.750000 23.209646
34.950000 80.328125 23.211621
34.975000 79.453125 23.212837
35.225000 78.218750 23.214551
35.425000 77.312500 23.215810
35.675000 75.968750 23.217676
36.075000 74.968750 23.219065
34.850000 89.328125 23.368746
34.600000 88.250000 23.370244
34.650000 87.375000 23.371459
34.675000 86.015625 23.373347
34.725000 84.828125 23.374996
34.725000 84.171875 23.375908
34.775000 83.046875 23.377470
34.950000 81.609375 23.379467
34.950000 80.765625 23.380639
34.950000 79.468750 23.382440
35.200000 78.265625 23.384111
35.375000 77.265625 23.385500
35.525000 75.765625 23.387583
35.875000 74.859375 23.388842
34.750000 89.468750 23.525460
34.625000 88.281250 23.527109
34.675000 87.218750 23.528585
34.675000 86.218750 23.529974
34.700000 85.203125 23.531384
34.725000 83.750000 23.533402
34.775000 82.359375 23.535334
34.800000 81.312500 23.536788
34.825000 80.562500 23.537829
34.850000 79.437500 23.539392
35.075000 78.406250 23.540824
35.375000 76.750000 23.543125
35.525000 75.968750 23.544210
35.850000 74.671875 23.546011
34.625000 89.093750 23.681115
34.475000 87.718750 23.683025
34.625000 86.671875 23.684479
34.675000 85.578125 23.685998
34.700000 84.828125 23.687040
34.775000 83.359375 23.689080
34.875000 82.281250 23.690577
34.750000 81.218750 23.692053
34.675000 80.000000 23.693746
34.875000 79.140625 23.694939
35.100000 77.812500 23.696784
35.350000 76.781250 23.698216
35.600000 75.656250 23.699779
36.025000 74.750000 23.701037
34.575000 89.265625 23.852535
34.500000 87.875000 23.854466
34.650000 86.875000 23.855855
34.675000 85.718750 23.857461
34.700000 84.437500 23.859241
34.750000 83.156250 23.861020
34.875000 82.421875 23.862040
34.850000 81.234375 23.863689
34.775000 79.625000 23.865925
34.900000 79.093750 23.866663
35.100000 77.562500 23.868789
35.325000 76.640625 23.870070
35.550000 75.390625 23.871806
36.025000 74.312500 23.873303
34.500000 88.750000 24.011729
34.675000 87.593750 24.013335
34.650000 86.375000 24.015028
34.675000 85.015625 24.016916
34.725000 84.437500 24.017719
34.750000 82.953125 24.019781
34.950000 82.000000 24.021104
35.025000 80.968750 24.022537
34.875000 79.328125 24.024815
34.900000 78.281250 24.026269
35.100000 77.250000 24.027702
35.350000 76.109375 24.029286
35.625000 75.218750 24.030523
34.625000 88.921875 24.163834
34.500000 87.859375 24.165309
34.675000 86.687500 24.166937
34.675000 85.343750 24.168803
34.700000 84.281250 24.170279
34.775000 83.281250 24.171668
35.025000 82.046875 24.173382
35.050000 80.765625 24.175162
34.825000 79.453125 24.176985
34.875000 78.453125 24.178374
35.100000 77.562500 24.179611
35.300000 76.171875 24.181542
34.650000 87.078125 24.326629
34.625000 85.890625 24.328279
34.650000 84.656250 24.329993
