35.375000 88.953125 6.194834
35.250000 88.171875 6.199174
35.450000 87.015625 6.205597
35.575000 85.781250 6.212455
35.325000 84.656250 6.218705
35.025000 83.031250 6.227733
36.425000 78.406250 6.253427
36.325000 77.546875 6.258202
36.400000 76.296875 6.265146
36.700000 75.140625 6.271570
35.500000 89.687500 6.346134
35.500000 88.312500 6.353773
35.400000 87.359375 6.359068
35.475000 86.015625 6.366534
35.650000 85.015625 6.372089
35.400000 83.875000 6.378426
36.400000 78.953125 6.405770
36.300000 78.171875 6.410110
36.300000 77.031250 6.416447
36.025000 89.250000 6.504797
35.925000 88.375000 6.509658
35.525000 87.187500 6.516255
35.675000 86.015625 6.522766
35.525000 84.500000 6.531186
35.225000 83.546875 6.536481
36.350000 78.765625 6.563044
36.225000 77.953125 6.567558
36.350000 76.765625 6.574155
36.725000 75.218750 6.582748
35.400000 89.078125 6.656077
35.475000 88.015625 6.661980
35.600000 86.937500 6.667970
35.650000 85.234375 6.677432
35.500000 84.562500 6.681164
36.725000 79.546875 6.709029
36.575000 78.328125 6.715800
36.275000 76.968750 6.723352
36.450000 76.187500 6.727692
36.875000 75.046875 6.734029
35.800000 89.765625 6.812018
35.700000 88.890625 6.816880
35.575000 87.500000 6.824605
35.625000 86.343750 6.831029
35.725000 84.968750 6.838668
35.675000 83.921875 6.844484
35.600000 82.953125 6.849866
36.050000 81.531250 6.857765
36.475000 80.296875 6.864623
36.400000 79.468750 6.869223
36.275000 77.953125 6.877644
36.300000 77.015625 6.882852
36.650000 76.046875 6.888234
37.275000 74.671875 6.895873
36.175000 89.609375 6.963481
35.900000 88.562500 6.969297
35.600000 87.218750 6.976763
35.675000 86.328125 6.981710
35.775000 85.250000 6.987700
35.800000 83.953125 6.994905
35.825000 82.500000 7.002978
36.150000 81.375000 7.009228
36.425000 80.531250 7.013915
36.300000 79.250000 7.021033
36.225000 77.703125 7.029627
36.400000 76.968750 7.033707
36.675000 75.484375 7.041954
36.125000 89.218750 7.125208
35.875000 88.031250 7.131805
35.550000 87.125000 7.136840
35.675000 86.031250 7.142916
35.800000 84.468750 7.151597
35.850000 83.562500 7.156631
35.975000 82.125000 7.164618
36.275000 81.437500 7.168437
36.575000 80.125000 7.175729
36.450000 78.515625 7.184669
36.225000 77.421875 7.190746
36.400000 76.515625 7.195781
36.850000 75.375000 7.202117
35.475000 87.828125 7.289432
35.625000 86.500000 7.296811
35.675000 85.781250 7.300804
35.750000 84.312500 7.308963
35.850000 83.031250 7.316082
36.100000 81.937500 7.322158
36.450000 80.812500 7.328408
36.850000 79.578125 7.335265
36.700000 78.609375 7.340647
36.275000 77.500000 7.346811
36.450000 75.968750 7.355318
36.900000 74.781250 7.361915
35.725000 90.109375 7.428295
35.525000 88.781250 7.435674
35.625000 87.703125 7.441663
35.675000 86.234375 7.449823
35.775000 85.484375 7.453990
35.825000 84.062500 7.461889
35.850000 83.015625 7.467705
36.225000 81.937500 7.473695
36.125000 80.281250 7.482896
35.900000 79.625000 7.486542
36.075000 78.437500 7.493139
36.300000 77.265625 7.499649
36.700000 75.953125 7.506941
37.275000 75.015625 7.512149
35.675000 90.093750 7.587234
35.500000 88.625000 7.595394
35.600000 87.390625 7.602252
35.725000 86.593750 7.606679
35.825000 85.140625 7.614752
35.800000 83.796875 7.622217
35.875000 83.046875 7.626384
36.200000 81.671875 7.634023
36.225000 80.171875 7.642356
36.025000 79.265625 7.647391
36.150000 78.218750 7.653207
36.375000 76.906250 7.660498
36.650000 75.921875 7.665967
37.275000 74.593750 7.673346
35.850000 89.687500 7.742376
35.700000 88.328125 7.749928
35.775000 87.468750 7.754702
35.775000 86.109375 7.762254
35.800000 85.031250 7.768244
35.875000 84.125000 7.773278
36.025000 82.656250 7.781438
36.275000 81.828125 7.786039
36.425000 80.203125 7.795067
36.350000 79.046875 7.801490
36.250000 77.890625 7.807914
36.400000 76.906250 7.813382
36.200000 89.828125 7.896741
36.050000 88.140625 7.906116
35.775000 87.281250 7.910890
35.850000 85.921875 7.918442
35.850000 84.734375 7.925039
35.875000 83.828125 7.930074
36.000000 82.718750 7.936237
36.250000 81.187500 7.944744
36.425000 80.015625 7.951255
36.325000 78.781250 7.958112
36.250000 77.640625 7.964449
36.375000 76.625000 7.970091
36.700000 75.281250 7.977557
35.875000 89.437500 8.053749
35.800000 88.359375 8.059739
35.750000 87.640625 8.063732
35.775000 86.421875 8.070503
35.800000 85.140625 8.077621
35.900000 84.125000 8.083263
35.925000 82.890625 8.090121
36.150000 81.390625 8.098454
36.425000 80.484375 8.103489
36.325000 79.312500 8.109999
36.225000 78.156250 8.116423
36.375000 77.062500 8.122499
35.900000 89.562500 8.210567
35.900000 88.656250 8.215602
35.725000 87.359375 8.222807
35.775000 86.328125 8.228536
35.650000 84.921875 8.236349
35.650000 83.484375 8.244335
35.800000 82.500000 8.249804
36.125000 81.203125 8.257008
36.525000 80.437500 8.261262
36.425000 79.218750 8.268033
36.275000 77.859375 8.275585
36.400000 76.718750 8.281922
36.700000 75.843750 8.286783
35.950000 89.218750 8.365401
35.775000 88.296875 8.370523
35.575000 87.375000 8.375644
35.900000 86.156250 8.382415
35.725000 84.515625 8.391530
35.500000 83.718750 8.395957
36.050000 80.203125 8.415488
36.300000 78.640625 8.424169
36.250000 77.390625 8.431113
36.350000 76.515625 8.435974
36.800000 75.546875 8.441356
35.725000 89.234375 8.523814
35.550000 88.234375 8.529370
35.525000 86.921875 8.536662
35.400000 85.671875 8.543606
35.225000 84.437500 8.550464
36.350000 78.578125 8.583016
36.375000 77.703125 8.587877
36.500000 76.609375 8.593953
36.850000 75.218750 8.601679
35.275000 90.140625 8.670150
35.400000 88.843750 8.677355
35.525000 87.781250 8.683258
35.700000 86.750000 8.688987
35.450000 85.187500 8.697667
35.125000 84.421875 8.701921
35.350000 83.140625 8.709039
35.650000 82.015625 8.715289
36.125000 80.500000 8.723709
36.750000 79.609375 8.728657
36.650000 78.453125 8.735081
36.325000 77.125000 8.742459
36.600000 76.140625 8.747928
37.050000 74.906250 8.754786
35.725000 89.562500 8.815226
35.750000 88.234375 8.822605
35.525000 87.234375 8.828161
35.350000 85.921875 8.835452
35.025000 85.109375 8.839966
35.250000 84.000000 8.846129
36.125000 80.531250 8.865400
36.550000 79.312500 8.872171
36.400000 77.937500 8.879810
36.375000 76.671875 8.886841
36.700000 75.515625 8.893265
35.125000 89.000000 8.972048
35.275000 88.046875 8.977343
35.450000 87.046875 8.982899
35.200000 85.406250 8.992013
34.950000 84.515625 8.996961
35.125000 83.046875 9.005121
36.375000 78.421875 9.030816
36.300000 77.421875 9.036371
36.425000 76.218750 9.043055
36.825000 75.109375 9.049218
35.725000 88.578125 9.132261
35.350000 87.906250 9.135994
35.475000 86.625000 9.143112
35.175000 85.421875 9.149796
34.900000 84.000000 9.157695
35.175000 82.796875 9.164379
36.550000 78.343750 9.189119
36.350000 77.312500 9.194848
36.525000 75.859375 9.202921
36.950000 74.703125 9.209344
35.225000 89.437500 9.283532
35.375000 88.765625 9.287265
35.400000 87.171875 9.296119
35.800000 86.312500 9.300893
35.025000 83.968750 9.313914
35.425000 82.671875 9.321119
35.775000 81.515625 9.327542
36.100000 80.375000 9.333879
36.650000 79.375000 9.339435
36.625000 78.265625 9.345598
36.375000 76.906250 9.353150
35.575000 89.031250 9.441492
35.325000 87.781250 9.448436
35.275000 86.359375 9.456336
35.000000 85.640625 9.460329
34.800000 84.453125 9.466926
35.050000 83.359375 9.473002
36.550000 78.578125 9.499565
36.450000 77.250000 9.506943
36.475000 76.046875 9.513627
36.725000 75.234375 9.518141
35.375000 88.625000 9.596637
35.300000 87.718750 9.601671
35.275000 86.484375 9.608529
34.975000 85.359375 9.614779
34.800000 84.046875 9.622071
35.175000 82.921875 9.628321
35.525000 81.828125 9.634397
36.000000 80.671875 9.640821
36.650000 79.312500 9.648373
36.675000 78.218750 9.654449
36.450000 77.078125 9.660786
36.475000 76.031250 9.666602
36.925000 74.953125 9.672592
35.400000 89.828125 9.748198
35.200000 88.718750 9.754361
35.325000 87.218750 9.762695
35.175000 85.890625 9.770073
34.750000 84.625000 9.777104
34.675000 83.703125 9.782226
34.950000 82.656250 9.788042
35.350000 81.703125 9.793337
36.000000 80.593750 9.799500
36.625000 79.046875 9.808094
36.625000 77.953125 9.814170
36.375000 76.812500 9.820507
35.175000 88.359375 9.908696
35.300000 87.265625 9.914773
34.925000 85.968750 9.921978
34.525000 85.234375 9.926057
34.650000 83.937500 9.933262
36.625000 79.531250 9.957741
36.700000 78.125000 9.965554
36.425000 76.828125 9.972759
35.175000 88.843750 10.062164
35.275000 87.406250 10.070150
34.900000 86.453125 10.075445
34.500000 84.859375 10.084299
34.575000 83.859375 10.089854
34.725000 82.359375 10.098188
35.025000 81.406250 10.103483
36.425000 77.000000 10.127962
35.450000 89.343750 10.216607
35.250000 88.156250 10.223204
35.250000 87.406250 10.227371
34.875000 86.140625 10.234402
34.475000 85.109375 10.240131
34.550000 83.437500 10.249419
34.650000 82.218750 10.256190
34.975000 81.125000 10.262266
35.750000 77.718750 10.281190
36.350000 76.718750 10.286746
36.450000 75.765625 10.292041
35.450000 89.359375 10.368290
35.225000 88.218750 10.374627
35.175000 87.031250 10.381224
34.800000 85.890625 10.387561
34.450000 84.656250 10.394419
34.525000 83.359375 10.401624
34.650000 82.328125 10.407353
34.925000 81.375000 10.412648
36.200000 76.921875 10.437387
36.300000 75.718750 10.444072
35.250000 89.218750 10.528206
35.000000 88.281250 10.533415
35.175000 86.796875 10.541661
35.225000 85.859375 10.546870
34.850000 84.703125 10.553293
34.550000 83.421875 10.560411
34.700000 82.359375 10.566314
36.075000 77.406250 10.593832
36.100000 76.296875 10.599995
36.425000 75.437500 10.604769
35.125000 89.390625 10.678848
34.975000 87.828125 10.687528
35.150000 86.953125 10.692389
34.975000 85.453125 10.700723
34.625000 84.453125 10.706279
34.550000 83.234375 10.713049
34.725000 81.750000 10.721296
35.325000 78.390625 10.739959
35.925000 77.421875 10.745341
36.075000 76.375000 10.751157
36.400000 75.062500 10.758449
35.125000 86.656250 10.850237
35.175000 85.562500 10.856313
34.850000 83.953125 10.865254
34.625000 82.906250 10.871070
34.825000 81.921875 10.876539
35.175000 80.281250 10.885654
35.500000 79.328125 10.890949
35.725000 78.375000 10.896244
35.975000 77.031250 10.903709
36.175000 75.734375 10.910914
36.650000 74.687500 10.916730
35.125000 86.859375 11.003200
34.975000 85.593750 11.010231
35.200000 84.781250 11.014745
35.125000 83.078125 11.024207
34.700000 82.265625 11.028721
35.050000 80.843750 11.036620
35.425000 79.812500 11.042349
35.625000 78.515625 11.049554
35.775000 77.656250 11.054328
36.000000 76.578125 11.060318
36.375000 75.406250 11.066828
34.925000 88.375000 11.152866
34.950000 87.843750 11.155818
35.075000 86.171875 11.165106
34.975000 85.265625 11.170141
35.000000 83.718750 11.178735
34.950000 82.796875 11.183856
34.925000 81.671875 11.190106
35.250000 80.656250 11.195748
35.500000 79.312500 11.203214
35.650000 78.218750 11.209290
35.875000 76.906250 11.216582
36.125000 75.968750 11.221790
36.600000 74.718750 11.228734
35.300000 89.546875 11.283716
34.950000 88.406250 11.290053
34.950000 87.093750 11.297344
35.025000 86.203125 11.302292
35.000000 84.640625 11.310973
35.000000 83.703125 11.316181
35.050000 82.359375 11.323646
35.200000 81.406250 11.328942
35.350000 80.250000 11.335365
35.425000 78.781250 11.343525
35.625000 77.546875 11.350383
35.850000 76.468750 11.356372
36.125000 75.484375 11.361841
35.050000 88.546875 11.446156
34.800000 87.828125 11.450149
34.950000 86.625000 11.456833
35.000000 85.484375 11.463170
35.000000 84.093750 11.470895
35.000000 83.015625 11.476885
35.175000 81.734375 11.484003
35.225000 80.843750 11.488951
35.225000 79.718750 11.495201
35.475000 78.453125 11.502232
35.675000 77.125000 11.509610
35.900000 76.234375 11.514558
36.325000 74.906250 11.521937
35.200000 89.312500 11.593909
34.825000 88.078125 11.600767
34.900000 87.218750 11.605541
34.950000 85.953125 11.612572
34.925000 84.468750 11.620819
34.950000 83.593750 11.625680
35.075000 82.328125 11.632711
35.100000 81.031250 11.639916
35.150000 79.750000 11.647034
35.300000 78.531250 11.653805
35.475000 77.468750 11.659708
35.775000 76.250000 11.666478
36.100000 75.515625 11.670558
34.925000 88.906250 11.754757
34.800000 87.812500 11.760834
34.925000 86.640625 11.767344
34.975000 85.343750 11.774549
34.975000 83.953125 11.782275
34.975000 82.890625 11.788177
35.175000 81.625000 11.795209
35.200000 80.546875 11.801198
35.125000 79.640625 11.806233
35.325000 78.375000 11.813264
35.575000 76.906250 11.821424
35.850000 76.187500 11.825417
36.200000 75.125000 11.831320
34.900000 88.671875 11.908455
34.775000 87.375000 11.915660
34.900000 86.453125 11.920781
34.950000 85.250000 11.927465
34.925000 84.046875 11.934150
34.950000 82.828125 11.940920
35.175000 82.031250 11.945347
35.200000 80.765625 11.952379
35.100000 79.359375 11.960191
35.300000 78.171875 11.966788
35.475000 76.968750 11.973472
35.675000 76.125000 11.978160
36.075000 74.812500 11.985451
34.750000 89.531250 12.062474
34.700000 88.437500 12.068551
34.850000 87.796875 12.072110
34.875000 86.250000 12.080703
34.850000 85.093750 12.087127
34.850000 83.718750 12.094766
34.975000 83.015625 12.098672
34.975000 81.390625 12.107700
34.925000 80.453125 12.112908
35.075000 79.375000 12.118898
35.350000 78.015625 12.126450
35.500000 76.625000 12.134176
35.750000 75.843750 12.138516
36.200000 74.531250 12.145808
34.750000 89.656250 12.214009
34.700000 88.609375 12.219825
34.850000 87.312500 12.227030
34.850000 86.046875 12.234061
34.850000 85.093750 12.239356
34.875000 84.078125 12.244999
34.950000 82.671875 12.252811
34.950000 81.328125 12.260276
34.925000 80.203125 12.266526
35.100000 79.484375 12.270519
35.325000 77.906250 12.279287
35.500000 77.187500 12.283280
35.725000 75.718750 12.291440
36.175000 74.453125 12.298471
34.900000 89.390625 12.373595
34.775000 88.390625 12.379151
34.850000 87.328125 12.385054
34.850000 86.171875 12.391478
34.875000 84.843750 12.398856
34.925000 84.187500 12.402502
34.975000 82.984375 12.409186
34.975000 81.718750 12.416217
34.950000 80.625000 12.422293
35.075000 79.140625 12.430540
35.275000 77.828125 12.437832
35.475000 76.765625 12.443734
35.700000 75.531250 12.450592
36.150000 74.828125 12.454498
35.300000 89.593750 12.530195
34.825000 88.593750 12.535750
34.825000 86.953125 12.544865
34.825000 86.109375 12.549552
34.875000 84.859375 12.556497
34.950000 83.421875 12.564483
35.075000 82.546875 12.569344
35.025000 81.546875 12.574900
34.975000 80.437500 12.581063
35.150000 78.843750 12.589917
35.350000 77.859375 12.595386
35.500000 76.734375 12.601636
35.750000 75.656250 12.607625
36.225000 74.406250 12.614570
34.825000 87.000000 12.698719
34.850000 85.546875 12.706792
34.925000 84.828125 12.710785
34.950000 83.671875 12.717208
35.175000 82.531250 12.723545
35.150000 81.218750 12.730837
34.975000 80.187500 12.736566
35.175000 79.031250 12.742990
35.375000 77.875000 12.749413
35.500000 76.156250 12.758962
35.750000 75.484375 12.762695
34.850000 86.312500 12.858605
34.900000 85.718750 12.861904
34.925000 83.984375 12.871539
34.950000 83.359375 12.875012
35.075000 82.125000 12.881869
35.100000 80.859375 12.888901
35.100000 79.265625 12.897755
35.275000 78.562500 12.901661
35.450000 77.296875 12.908692
35.600000 75.718750 12.917459
35.900000 75.000000 12.921453
34.925000 88.875000 12.987016
34.750000 87.437500 12.995003
34.825000 86.171875 13.002034
34.825000 85.093750 13.008023
34.875000 84.109375 13.013492
34.950000 83.000000 13.019655
34.950000 81.593750 13.027468
34.975000 80.234375 13.035020
35.100000 79.546875 13.038839
35.275000 77.953125 13.047693
35.450000 76.734375 13.054464
35.675000 75.937500 13.058891
36.000000 74.406250 13.067398
35.175000 89.359375 13.139713
34.775000 88.328125 13.145442
34.775000 87.015625 13.152734
34.825000 85.781250 13.159592
34.875000 84.937500 13.164279
34.950000 83.406250 13.172786
35.200000 82.625000 13.177126
35.150000 81.453125 13.183637
34.975000 80.312500 13.189974
35.125000 78.921875 13.197699
35.300000 77.953125 13.203081
35.475000 76.500000 13.211154
34.950000 88.953125 13.296810
34.725000 87.406250 13.305404
34.800000 86.265625 13.311741
34.850000 85.015625 13.318685
34.925000 84.187500 13.323286
34.975000 83.265625 13.328407
35.050000 81.812500 13.336480
34.975000 80.796875 13.342123
34.975000 79.593750 13.348807
35.225000 78.593750 13.354362
35.400000 76.921875 13.363650
35.600000 76.171875 13.367817
35.900000 74.640625 13.376324
34.850000 89.593750 13.446694
34.600000 88.359375 13.453552
34.800000 87.328125 13.459281
34.800000 86.281250 13.465097
34.850000 85.250000 13.470826
34.925000 83.765625 13.479073
35.000000 82.671875 13.485149
34.950000 81.250000 13.493049
34.900000 80.125000 13.499299
34.975000 79.078125 13.505115
35.175000 77.828125 13.512059
35.450000 76.718750 13.518222
35.700000 75.828125 13.523170
36.150000 74.421875 13.530983
34.775000 86.890625 13.620036
34.775000 85.546875 13.627501
34.825000 84.750000 13.631928
34.875000 83.265625 13.640175
35.125000 82.343750 13.645296
35.100000 80.953125 13.653022
34.925000 80.015625 13.658230
35.150000 78.656250 13.665782
35.350000 77.421875 13.672640
35.525000 76.156250 13.679671
35.825000 74.968750 13.686269
34.625000 89.031250 13.766159
34.700000 87.875000 13.772582
34.775000 86.718750 13.779006
34.825000 85.609375 13.785169
34.900000 83.984375 13.794197
34.950000 82.859375 13.800447
35.050000 81.578125 13.807565
35.050000 80.312500 13.814596
35.050000 79.468750 13.819283
35.225000 78.265625 13.825968
35.400000 77.093750 13.832478
35.600000 75.968750 13.838728
35.925000 74.531250 13.846714
34.675000 89.000000 13.923931
34.650000 87.296875 13.933393
34.700000 86.171875 13.939643
34.775000 85.046875 13.945893
34.850000 84.171875 13.950754
34.925000 83.062500 13.956917
35.100000 81.609375 13.964990
35.100000 80.406250 13.971674
35.075000 79.031250 13.979313
35.275000 78.328125 13.983219
35.450000 77.187500 13.989556
35.675000 75.859375 13.996934
36.050000 74.734375 14.003185
34.875000 89.906250 14.072503
34.800000 88.515625 14.080229
34.625000 87.296875 14.087000
34.700000 86.375000 14.092121
34.750000 84.953125 14.100021
34.825000 83.781250 14.106531
34.900000 82.640625 14.112868
35.100000 81.531250 14.119031
35.100000 80.421875 14.125194
35.050000 79.343750 14.131184
35.250000 78.015625 14.138562
35.425000 77.125000 14.143510
35.650000 75.578125 14.152104
36.050000 74.578125 14.157660
34.575000 89.921875 14.231309
34.475000 88.281250 14.240424
34.650000 87.078125 14.247108
34.775000 86.093750 14.252576
34.825000 85.281250 14.257090
34.850000 83.546875 14.266726
34.925000 82.375000 14.273236
35.075000 81.390625 14.278705
35.025000 80.109375 14.285823
35.050000 79.140625 14.291205
35.300000 78.000000 14.297542
35.450000 76.625000 14.305181
35.700000 75.890625 14.309260
36.150000 74.593750 14.316465
34.525000 89.375000 14.386672
34.500000 88.437500 14.391881
34.750000 87.156250 14.398998
34.800000 85.859375 14.406204
34.825000 84.765625 14.412280
34.925000 83.921875 14.416967
34.900000 82.250000 14.426255
34.850000 81.156250 14.432332
35.000000 80.218750 14.437540
35.125000 79.109375 14.443703
35.325000 77.718750 14.451429
35.575000 76.562500 14.457853
34.875000 89.984375 14.525375
34.775000 88.296875 14.534750
34.625000 87.546875 14.538917
34.725000 86.406250 14.545253
34.800000 85.328125 14.551243
35.150000 84.156250 14.557753
35.050000 82.578125 14.566521
34.775000 81.562500 14.572163
35.200000 80.703125 14.576937
35.425000 79.359375 14.584403
35.375000 78.140625 14.591173
35.550000 76.703125 14.599160
35.825000 75.796875 14.604194
36.300000 74.484375 14.611486
34.675000 89.671875 14.693513
34.575000 88.609375 14.699416
34.750000 87.234375 14.707055
34.800000 86.265625 14.712436
34.625000 84.718750 14.721030
34.425000 83.812500 14.726065
34.525000 82.234375 14.734832
34.725000 81.375000 14.739607
35.175000 80.093750 14.746725
35.425000 79.031250 14.752627
35.500000 78.156250 14.757488
35.650000 77.000000 14.763912
34.800000 89.625000 14.842019
34.675000 87.937500 14.851394
34.775000 87.281250 14.855040
34.850000 85.890625 14.862765
34.900000 84.937500 14.868061
34.650000 83.359375 14.876828
34.475000 82.390625 14.882210
34.725000 80.984375 14.890022
35.125000 79.796875 14.896620
35.425000 78.984375 14.901134
35.575000 77.781250 14.907818
35.750000 76.328125 14.915890
36.000000 75.546875 14.920231
34.875000 89.625000 14.991957
34.850000 88.250000 14.999596
34.800000 87.562500 15.003416
34.925000 86.578125 15.008884
34.625000 84.765625 15.018954
34.325000 84.015625 15.023120
34.500000 82.671875 15.030586
34.725000 81.468750 15.037270
35.075000 80.562500 15.042305
35.575000 79.578125 15.047773
35.750000 78.281250 15.054978
35.750000 76.734375 15.063572
35.975000 76.046875 15.067391
36.500000 74.859375 15.073988
34.700000 89.984375 15.150428
34.825000 88.609375 15.158067
34.675000 87.609375 15.163622
34.875000 86.781250 15.168223
34.700000 85.000000 15.178119
34.450000 83.828125 15.184629
34.550000 82.921875 15.189664
34.650000 81.703125 15.196435
35.250000 78.109375 15.216400
35.825000 77.343750 15.220654
35.975000 75.890625 15.228726
36.350000 74.781250 15.234890
34.975000 88.921875 15.306089
34.800000 87.500000 15.313988
34.925000 86.625000 15.318850
34.425000 85.468750 15.325273
34.300000 84.484375 15.330742
34.625000 82.984375 15.339075
34.675000 81.703125 15.346193
35.000000 80.843750 15.350968
35.550000 79.828125 15.356610
35.850000 78.343750 15.364856
35.850000 77.312500 15.370586
35.975000 76.109375 15.377270
36.325000 75.187500 15.382391
34.950000 89.250000 15.467585
34.900000 87.687500 15.476265
35.000000 87.093750 15.479564
34.850000 83.015625 15.502220
34.775000 82.000000 15.507863
35.100000 81.328125 15.511595
35.625000 77.328125 15.533818
36.000000 76.437500 15.538765
36.275000 75.140625 15.545970
35.075000 89.171875 15.615756
34.900000 88.046875 15.622006
35.025000 87.109375 15.627214
34.300000 84.375000 15.642406
34.725000 83.203125 15.648916
34.975000 82.171875 15.654645
35.325000 80.750000 15.662544
35.800000 80.000000 15.666711
36.275000 78.718750 15.673829
36.250000 77.734375 15.679298
36.125000 76.593750 15.685635
36.400000 75.109375 15.693881
34.850000 88.625000 15.778644
35.025000 87.687500 15.783852
35.125000 86.203125 15.792099
35.200000 85.406250 15.796526
34.950000 83.906250 15.804859
34.900000 82.640625 15.811890
35.525000 81.625000 15.817533
35.900000 80.531250 15.823609
36.275000 79.718750 15.828123
36.550000 78.125000 15.836977
36.300000 77.109375 15.842619
36.175000 75.625000 15.850866
36.550000 74.968750 15.854512
35.025000 89.140625 15.929192
35.025000 87.890625 15.936136
35.075000 86.984375 15.941171
34.925000 85.671875 15.948463
34.900000 84.718750 15.953758
34.950000 83.625000 15.959834
34.925000 82.375000 15.966779
35.400000 81.343750 15.972508
35.925000 79.703125 15.981623
36.250000 78.656250 15.987439
36.350000 77.453125 15.994123
36.250000 76.312500 16.000459
36.375000 75.296875 16.006102
35.200000 88.796875 16.091154
34.925000 88.031250 16.095407
35.200000 86.687500 16.102872
34.950000 85.750000 16.108081
34.650000 84.546875 16.114765
34.875000 83.046875 16.123098
35.325000 81.921875 16.129348
35.975000 78.531250 16.148185
36.350000 77.390625 16.154522
36.325000 76.203125 16.161119
36.575000 75.125000 16.167109
35.325000 88.906250 16.231652
35.075000 88.046875 16.236427
35.250000 86.968750 16.242416
35.050000 85.546875 16.250316
34.750000 84.093750 16.258389
34.875000 83.328125 16.262642
35.400000 82.218750 16.268805
35.850000 81.093750 16.275055
36.300000 79.812500 16.282173
36.500000 78.343750 16.290333
36.350000 77.406250 16.295542
36.425000 76.406250 16.301097
36.675000 75.062500 16.308562
35.000000 88.593750 16.406536
35.275000 87.593750 16.412091
35.325000 86.265625 16.419470
35.800000 85.468750 16.423897
36.525000 79.296875 16.458185
36.550000 78.250000 16.464001
36.375000 76.765625 16.472247
36.550000 75.765625 16.477803
37.025000 74.390625 16.485442
35.300000 89.218750 16.540030
35.225000 88.234375 16.545498
35.325000 87.203125 16.551228
35.225000 85.843750 16.558780
35.000000 84.828125 16.564422
34.925000 83.546875 16.571540
35.125000 82.390625 16.577964
35.600000 81.250000 16.584301
36.225000 80.312500 16.589509
36.475000 79.078125 16.596366
36.275000 77.750000 16.603745
36.350000 76.687500 16.609648
36.575000 75.343750 16.617113
35.175000 88.968750 16.697845
35.300000 87.593750 16.705484
35.425000 86.843750 16.709651
35.575000 85.281250 16.718331
35.200000 84.109375 16.724842
34.925000 83.218750 16.729789
35.425000 81.703125 16.738209
36.125000 80.750000 16.743505
36.625000 79.500000 16.750449
36.500000 78.484375 16.756092
36.300000 77.453125 16.761821
36.400000 76.187500 16.768852
36.725000 74.781250 16.776664
35.300000 87.843750 16.860824
35.425000 86.515625 16.868203
35.550000 85.531250 16.873671
35.275000 84.312500 16.880442
35.025000 83.296875 16.886085
35.425000 81.843750 16.894157
36.050000 80.812500 16.899887
36.675000 79.656250 16.906310
36.600000 78.500000 16.912734
36.275000 77.015625 16.920980
36.400000 76.281250 16.925060
36.800000 75.156250 16.931310
35.575000 90.000000 17.004454
35.600000 88.687500 17.011746
35.500000 87.671875 17.017388
35.500000 86.281250 17.025114
35.625000 85.046875 17.031972
35.325000 83.656250 17.039697
36.400000 79.328125 17.063743
36.300000 77.828125 17.072076
36.300000 76.937500 17.077024
36.025000 89.796875 17.155068
35.925000 88.015625 17.164964
35.525000 87.468750 17.168002
35.650000 85.765625 17.177464
35.525000 84.578125 17.184061
35.225000 83.781250 17.188488
36.450000 79.015625 17.214964
36.300000 77.953125 17.220867
36.350000 76.890625 17.226769
36.650000 75.671875 17.233540
36.000000 89.515625 17.316727
35.875000 88.281250 17.323585
35.525000 87.500000 17.327925
35.550000 85.921875 17.336692
35.850000 84.968750 17.341988
35.700000 83.812500 17.348411
35.475000 82.546875 17.355442
36.100000 81.312500 17.362300
36.475000 80.218750 17.368376
36.375000 78.843750 17.376015
36.250000 77.875000 17.381397
36.300000 76.484375 17.389123
36.625000 75.859375 17.392595
36.100000 89.421875 17.474283
35.875000 88.359375 17.480186
35.525000 87.218750 17.486523
35.625000 86.140625 17.492512
35.900000 85.187500 17.497808
35.775000 83.468750 17.507356
35.575000 82.765625 17.511262
36.100000 81.765625 17.516818
36.450000 80.468750 17.524023
36.350000 78.890625 17.532790
36.225000 77.984375 17.537825
36.300000 76.890625 17.543901
36.625000 75.828125 17.549804
35.975000 89.984375 17.625640
35.775000 88.796875 17.632237
35.525000 87.343750 17.640310
35.650000 86.453125 17.645258
35.750000 85.171875 17.652376
35.800000 84.234375 17.657585
35.850000 82.937500 17.664789
36.125000 81.578125 17.672342
36.200000 80.343750 17.679199
36.100000 79.500000 17.683887
36.250000 78.093750 17.691699
36.350000 76.937500 17.698123
36.625000 75.531250 17.705935
37.300000 74.921875 17.709321
36.175000 89.812500 17.775892
35.875000 88.515625 17.783097
35.600000 87.234375 17.790215
35.675000 86.015625 17.796986
35.700000 84.906250 17.803149
35.800000 83.703125 17.809833
35.850000 82.953125 17.814000
36.125000 81.375000 17.822767
36.275000 80.406250 17.828149
36.150000 79.031250 17.835788
36.200000 78.031250 17.841344
36.400000 76.765625 17.848375
36.250000 89.218750 17.942229
36.000000 88.328125 17.947177
35.675000 86.859375 17.955337
35.750000 85.734375 17.961587
35.825000 84.890625 17.966274
35.850000 83.640625 17.973219
36.050000 82.296875 17.980684
36.350000 81.421875 17.985545
36.650000 79.875000 17.994139
36.525000 78.828125 17.999955
36.225000 77.390625 18.007941
36.450000 76.687500 18.011847
36.925000 75.250000 18.019834
36.275000 89.343750 18.089772
36.000000 88.171875 18.096282
35.675000 86.984375 18.102879
35.725000 85.562500 18.110778
35.800000 84.437500 18.117028
35.875000 83.156250 18.124146
36.125000 82.046875 18.130310
36.425000 81.281250 18.134563
36.975000 79.953125 18.141942
36.250000 77.593750 18.155049
36.425000 76.390625 18.161733
36.875000 74.984375 18.169546
35.900000 88.921875 18.240813
35.875000 87.765625 18.247237
35.725000 86.453125 18.254529
35.825000 85.484375 18.259911
35.900000 84.468750 18.265553
35.950000 83.203125 18.272584
36.250000 81.937500 18.279616
36.550000 80.703125 18.286473
36.850000 79.562500 18.292810
36.650000 78.703125 18.297584
36.225000 77.281250 18.305484
36.425000 76.062500 18.312254
36.925000 75.015625 18.318070
35.275000 88.546875 18.404447
35.675000 87.515625 18.410177
35.800000 86.718750 18.414604
35.900000 85.609375 18.420767
35.950000 83.921875 18.430142
36.000000 82.921875 18.435697
36.250000 82.078125 18.440385
36.250000 80.718750 18.447937
36.100000 79.328125 18.455663
36.225000 78.046875 18.462781
36.325000 77.046875 18.468336
36.600000 75.750000 18.475541
37.175000 75.078125 18.479274
36.225000 89.562500 18.547570
36.025000 88.500000 18.553473
35.750000 87.109375 18.561198
35.825000 85.984375 18.567448
35.900000 84.593750 18.575174
35.925000 83.953125 18.578733
36.025000 82.656250 18.585938
36.275000 81.156250 18.594271
36.500000 79.984375 18.600781
36.375000 78.984375 18.606337
36.250000 78.015625 18.611719
36.350000 76.656250 18.619271
36.725000 75.359375 18.626476
35.575000 88.968750 18.713402
35.450000 87.734375 18.720260
35.725000 86.828125 18.725295
35.875000 85.765625 18.731197
35.850000 84.250000 18.739618
35.825000 83.328125 18.744739
36.100000 82.156250 18.751250
36.400000 80.812500 18.758715
36.950000 79.640625 18.765225
36.250000 77.578125 18.776684
36.425000 76.156250 18.784583
36.925000 74.890625 18.791614
35.350000 89.671875 18.858033
35.425000 88.468750 18.864717
35.650000 87.781250 18.868537
35.750000 86.703125 18.874526
35.775000 85.171875 18.883033
35.850000 83.781250 18.890759
35.875000 83.015625 18.895012
36.150000 81.796875 18.901783
36.500000 80.359375 18.909769
36.625000 79.359375 18.915325
36.500000 78.468750 18.920273
36.325000 77.140625 18.927651
36.600000 75.859375 18.934769
37.275000 74.734375 18.941019
35.950000 89.109375 19.024262
35.700000 88.296875 19.028776
35.675000 87.218750 19.034766
35.900000 85.578125 19.043880
35.750000 84.656250 19.049002
35.550000 83.265625 19.056727
36.075000 79.890625 19.075478
36.325000 78.906250 19.080946
36.250000 77.734375 19.087457
36.475000 76.265625 19.095616
36.925000 74.968750 19.102821
35.500000 89.000000 19.173206
35.550000 87.750000 19.180150
35.600000 86.578125 19.186660
35.400000 85.140625 19.194647
35.225000 83.859375 19.201765
35.425000 82.875000 19.207233
35.800000 81.734375 19.213570
36.300000 80.921875 19.218084
36.850000 79.546875 19.225723
36.675000 78.312500 19.232580
36.300000 77.046875 19.239612
36.525000 75.765625 19.246730
37.100000 74.796875 19.252112
35.650000 90.000000 19.322122
35.675000 88.609375 19.329848
35.600000 87.437500 19.336359
35.850000 86.062500 19.343997
35.550000 84.765625 19.351202
35.275000 83.828125 19.356411
35.750000 82.625000 19.363095
36.175000 81.781250 19.367782
36.450000 80.562500 19.374553
36.525000 78.953125 19.383494
36.425000 77.921875 19.389223
36.375000 77.062500 19.393997
35.625000 89.718750 19.478185
35.650000 88.218750 19.486519
35.250000 84.953125 19.504661
35.250000 83.921875 19.510390
35.750000 82.531250 19.518116
36.175000 81.515625 19.523758
36.425000 80.515625 19.529314
36.625000 79.468750 19.535130
36.525000 77.828125 19.544244
36.375000 76.968750 19.549019
35.675000 89.281250 19.638471
35.700000 88.578125 19.642377
35.475000 87.187500 19.650103
35.275000 85.828125 19.657655
34.975000 84.578125 19.664599
35.200000 83.937500 19.668158
36.025000 80.125000 19.689339
36.550000 79.281250 19.694026
36.425000 77.640625 19.703141
36.350000 76.531250 19.709304
36.625000 75.531250 19.714859
34.875000 89.000000 19.783026
35.250000 87.984375 19.788669
35.325000 86.578125 19.796481
35.050000 85.859375 19.800474
34.900000 84.390625 19.808634
35.175000 83.125000 19.815665
35.950000 80.109375 19.832419
36.475000 78.500000 19.841360
36.375000 77.296875 19.848044
36.450000 76.250000 19.853860
36.775000 75.296875 19.859155
35.500000 89.140625 19.948235
35.400000 87.953125 19.954832
35.275000 87.203125 19.958999
35.075000 85.546875 19.968200
34.925000 84.718750 19.972801
35.300000 83.625000 19.978877
36.150000 80.046875 19.998756
36.550000 78.781250 20.005787
36.450000 77.812500 20.011169
36.475000 76.187500 20.020197
36.650000 75.375000 20.024710
35.525000 89.609375 20.089671
35.550000 88.203125 20.097484
35.075000 84.953125 20.115539
35.100000 83.609375 20.123004
36.000000 80.000000 20.143057
36.650000 79.156250 20.147744
36.525000 77.671875 20.155991
36.350000 76.796875 20.160852
36.525000 75.515625 20.167970
35.525000 89.640625 20.252222
35.525000 88.109375 20.260729
35.400000 87.312500 20.265156
35.725000 85.953125 20.272708
34.875000 83.578125 20.285903
35.225000 82.359375 20.292674
35.575000 81.156250 20.299358
36.025000 80.234375 20.304479
36.550000 79.375000 20.309253
36.600000 77.718750 20.318455
36.350000 76.546875 20.324965
36.500000 75.265625 20.332083
35.300000 89.812500 20.400166
35.250000 88.218750 20.409020
35.300000 87.437500 20.413361
35.225000 86.062500 20.421000
34.825000 84.796875 20.428031
34.725000 83.984375 20.432545
35.025000 82.671875 20.439837
35.425000 81.281250 20.447562
36.050000 80.171875 20.453725
36.625000 79.343750 20.458326
36.600000 77.890625 20.466399
36.350000 76.687500 20.473083
35.250000 89.156250 20.566663
35.075000 88.015625 20.572999
35.250000 86.890625 20.579249
35.675000 86.046875 20.583937
34.850000 83.453125 20.598346
35.425000 82.203125 20.605291
35.800000 81.078125 20.611541
36.175000 79.859375 20.618312
36.475000 78.671875 20.624909
36.400000 77.718750 20.630204
36.275000 76.265625 20.638277
36.525000 75.125000 20.644614
35.475000 89.578125 20.713562
35.225000 88.500000 20.719552
35.275000 87.625000 20.724413
35.000000 85.812500 20.734482
34.600000 84.906250 20.739517
34.600000 83.593750 20.746808
34.800000 82.531250 20.752711
36.600000 78.046875 20.777624
36.350000 76.984375 20.783527
36.400000 75.640625 20.790992
35.250000 88.890625 20.876450
35.050000 87.828125 20.882353
34.850000 84.078125 20.903187
34.600000 83.328125 20.907353
34.850000 82.062500 20.914384
35.275000 80.703125 20.921937
35.950000 79.750000 20.927232
36.400000 78.484375 20.934263
36.375000 77.578125 20.939298
36.275000 76.031250 20.947891
36.525000 74.968750 20.953794
34.825000 83.796875 21.061225
34.600000 82.937500 21.066000
34.850000 81.921875 21.071642
36.350000 77.140625 21.098204
36.275000 75.890625 21.105149
36.650000 74.765625 21.111399
35.125000 88.578125 21.188275
35.200000 87.593750 21.193744
34.850000 83.859375 21.214490
34.600000 82.843750 21.220133
34.850000 81.562500 21.227251
35.525000 77.812500 21.248084
36.050000 76.687500 21.254334
35.000000 88.500000 21.329780
35.100000 87.312500 21.336377
34.825000 83.656250 21.356689
34.600000 82.687500 21.362071
34.850000 81.421875 21.369102
35.375000 80.453125 21.374484
35.850000 79.156250 21.381689
36.000000 78.093750 21.387592
36.025000 76.921875 21.394102
35.125000 88.609375 21.487301
35.050000 87.640625 21.492683
35.125000 86.265625 21.500322
35.200000 85.406250 21.505096
34.850000 84.015625 21.512822
34.575000 82.890625 21.519072
34.825000 81.359375 21.527579
35.200000 80.312500 21.533395
35.550000 79.593750 21.537388
35.800000 78.343750 21.544333
35.950000 76.890625 21.552406
36.125000 75.921875 21.557787
36.625000 74.984375 21.562996
34.775000 88.593750 21.643584
35.050000 87.593750 21.649140
35.100000 86.171875 21.657039
35.050000 85.218750 21.662334
34.800000 83.828125 21.670060
34.675000 83.000000 21.674661
34.850000 81.750000 21.681605
35.275000 80.484375 21.688637
35.625000 79.515625 21.694019
35.725000 77.953125 21.702699
35.925000 77.062500 21.707647
35.050000 89.312500 21.794588
34.975000 88.640625 21.798321
35.025000 87.375000 21.805352
35.050000 85.953125 21.813251
35.025000 85.062500 21.818199
34.900000 83.328125 21.827835
34.850000 82.375000 21.833130
35.025000 81.218750 21.839553
35.300000 79.921875 21.846758
35.500000 78.937500 21.852227
35.700000 77.875000 21.858130
35.900000 76.593750 21.865248
36.175000 75.265625 21.872626
34.975000 86.687500 21.964290
35.050000 85.875000 21.968804
35.025000 84.546875 21.976182
35.025000 83.093750 21.984255
35.025000 81.859375 21.991113
35.175000 80.984375 21.995974
35.375000 79.781250 22.002658
35.525000 78.500000 22.009776
35.725000 77.187500 22.017068
35.900000 76.015625 22.023578
36.250000 74.812500 22.030262
34.925000 86.453125 22.122245
34.975000 85.156250 22.129450
34.975000 84.437500 22.133443
35.000000 83.218750 22.140214
35.150000 82.046875 22.146724
35.200000 80.671875 22.154363
35.225000 79.609375 22.160266
35.450000 78.312500 22.167470
35.600000 77.093750 22.174241
35.800000 75.781250 22.181533
36.250000 74.921875 22.186307
34.925000 88.718750 22.264251
34.775000 87.765625 22.269546
34.900000 86.531250 22.276404
34.975000 85.421875 22.282567
34.975000 84.250000 22.289078
34.975000 83.078125 22.295588
35.200000 81.812500 22.302619
35.175000 80.437500 22.310258
35.125000 79.359375 22.316248
35.425000 78.171875 22.322845
35.575000 77.187500 22.328314
35.800000 75.968750 22.335084
36.250000 74.875000 22.341161
34.900000 88.937500 22.409300
34.825000 87.296875 22.418415
34.875000 86.671875 22.421887
34.925000 85.265625 22.429700
34.925000 84.156250 22.435863
34.975000 82.578125 22.444630
35.200000 81.640625 22.449839
35.200000 80.453125 22.456436
35.125000 79.578125 22.461297
35.325000 78.328125 22.468241
35.525000 77.218750 22.474405
35.800000 75.812500 22.482217
36.250000 74.859375 22.487512
34.800000 87.703125 22.580412
34.875000 86.265625 22.588398
34.925000 85.328125 22.593606
34.925000 84.375000 22.598901
34.975000 83.187500 22.605499
35.175000 81.578125 22.614439
35.125000 80.625000 22.619735
35.100000 79.171875 22.627808
35.325000 78.046875 22.634058
35.500000 77.093750 22.639353
35.775000 76.203125 22.644300
36.150000 74.937500 22.651332
34.825000 89.937500 22.714851
34.875000 88.796875 22.721188
34.800000 87.640625 22.727611
34.850000 86.218750 22.735511
34.900000 85.578125 22.739069
34.900000 84.296875 22.746187
34.975000 83.218750 22.752177
35.150000 81.515625 22.761639
35.150000 80.281250 22.768497
35.150000 79.515625 22.772750
35.325000 78.531250 22.778219
35.500000 76.906250 22.787246
35.775000 76.015625 22.792195
36.150000 74.781250 22.799052
34.875000 89.031250 22.884193
34.800000 87.968750 22.890096
34.850000 87.140625 22.894696
34.875000 85.687500 22.902769
34.900000 84.640625 22.908585
34.975000 83.390625 22.915530
35.100000 82.625000 22.919783
35.000000 81.000000 22.928811
34.975000 80.140625 22.933585
35.225000 78.562500 22.942353
35.400000 77.515625 22.948169
35.550000 76.328125 22.954766
35.825000 75.609375 22.958759
34.850000 88.953125 23.032341
34.700000 87.968750 23.037810
34.850000 87.062500 23.042845
34.900000 85.734375 23.050223
34.925000 84.750000 23.055692
34.975000 83.156250 23.064546
35.150000 81.968750 23.071143
35.150000 80.890625 23.077133
35.050000 79.906250 23.082601
35.200000 78.593750 23.089893
35.375000 77.484375 23.096056
35.525000 76.093750 23.103782
35.800000 74.859375 23.110640
34.750000 89.093750 23.181340
34.700000 87.703125 23.189066
34.875000 86.765625 23.194274
34.850000 85.718750 23.200090
34.900000 84.421875 23.207295
34.975000 83.468750 23.212590
35.250000 82.156250 23.219882
35.250000 80.718750 23.227868
35.075000 79.734375 23.233337
35.200000 78.484375 23.240281
35.375000 77.125000 23.247833
35.550000 76.062500 23.253736
35.800000 74.859375 23.260420
34.950000 89.875000 23.336584
34.650000 88.671875 23.343268
34.825000 87.796875 23.348129
34.875000 86.531250 23.355160
34.875000 85.265625 23.362191
34.925000 84.031250 23.369049
35.025000 82.859375 23.375559
35.025000 81.750000 23.381722
35.000000 80.093750 23.390924
35.125000 79.000000 23.397000
35.300000 78.218750 23.401340
35.450000 76.671875 23.409934
35.675000 75.562500 23.416097
36.100000 74.406250 23.422521
34.975000 89.937500 23.501809
34.675000 88.421875 23.510230
34.800000 87.687500 23.514309
34.850000 85.953125 23.523945
34.900000 84.812500 23.530282
34.950000 84.093750 23.534275
35.025000 82.640625 23.542348
35.025000 81.796875 23.547035
34.975000 80.484375 23.554327
35.050000 79.046875 23.562313
35.250000 78.171875 23.567174
35.450000 77.000000 23.573684
35.675000 75.937500 23.579587
36.100000 74.734375 23.586271
34.675000 88.343750 23.655010
34.775000 87.046875 23.662215
34.800000 86.406250 23.665774
34.875000 84.703125 23.675236
34.950000 84.031250 23.678968
35.075000 82.906250 23.685218
35.075000 81.156250 23.694941
34.975000 80.390625 23.699194
35.075000 78.796875 23.708048
35.250000 77.750000 23.713864
35.450000 76.656250 23.719941
35.675000 75.640625 23.725583
36.175000 74.578125 23.731486
35.300000 89.593750 23.799518
35.000000 88.781250 23.804032
34.775000 87.359375 23.811931
34.800000 86.203125 23.818355
34.875000 85.296875 23.823390
34.925000 84.125000 23.829900
35.025000 82.500000 23.838928
35.025000 81.437500 23.844831
34.975000 80.359375 23.850820
35.050000 79.140625 23.857591
35.225000 78.031250 23.863754
35.425000 76.625000 23.871567
35.650000 75.718750 23.876601
36.075000 74.734375 23.882070
34.800000 86.890625 23.976553
34.850000 85.796875 23.982629
34.875000 84.656250 23.988966
34.950000 83.515625 23.995303
35.175000 82.390625 24.001553
35.125000 81.156250 24.008410
34.975000 79.906250 24.015355
35.175000 79.000000 24.020390
35.350000 77.937500 24.026293
35.525000 76.390625 24.034886
35.025000 89.718750 24.109861
34.625000 88.640625 24.115851
34.750000 87.000000 24.124965
34.775000 85.828125 24.131476
34.825000 84.921875 24.136511
34.900000 83.515625 24.144323
35.025000 82.656250 24.149097
35.000000 81.171875 24.157344
34.950000 80.453125 24.161337
35.025000 79.000000 24.169410
35.250000 78.125000 24.174271
35.450000 76.687500 24.182257
35.675000 75.718750 24.187639
36.150000 74.750000 24.193021
34.525000 88.375000 24.278162
34.775000 87.609375 24.282416
34.800000 86.359375 24.289360
34.825000 85.375000 24.294829
34.900000 84.250000 24.301079
35.000000 82.515625 24.310714
35.000000 81.515625 24.316270
34.925000 80.562500 24.321565
35.050000 79.468750 24.327641
35.250000 78.093750 24.335280
35.450000 76.984375 24.341444
35.675000 75.468750 24.349864
36.050000 74.671875 24.354291
34.725000 88.796875 24.426379
34.700000 87.765625 24.432108
34.800000 86.437500 24.439487
34.825000 85.421875 24.445129
34.850000 83.812500 24.454070
34.950000 83.062500 24.458236
35.050000 81.484375 24.467004
35.050000 80.546875 24.472212
35.075000 79.437500 24.478375
35.250000 77.984375 24.486448
35.450000 76.921875 24.492351
35.700000 76.062500 24.497125
36.000000 74.468750 24.505980
34.725000 87.125000 24.596087
34.850000 85.609375 24.604507
34.875000 84.343750 24.611538
34.925000 83.109375 24.618396
35.100000 82.093750 24.624038
35.025000 80.750000 24.631504
34.875000 79.625000 24.637754
35.100000 78.890625 24.641834
35.375000 77.140625 24.651556
35.525000 76.000000 24.657893
35.800000 75.187500 24.662406
34.850000 89.593750 24.731889
34.525000 88.140625 24.739962
34.650000 87.296875 24.744649
34.750000 85.671875 24.753677
34.875000 84.984375 24.757497
34.925000 83.796875 24.764094
34.975000 82.687500 24.770257
35.075000 81.218750 24.778417
35.050000 79.937500 24.785535
35.075000 78.890625 24.791351
35.325000 77.953125 24.796559
35.550000 76.859375 24.802636
34.550000 89.468750 24.888046
34.500000 88.531250 24.893254
34.725000 87.281250 24.900198
34.775000 86.421875 24.904973
34.825000 85.218750 24.911657
34.900000 83.562500 24.920858
34.975000 82.906250 24.924504
35.150000 81.250000 24.933706
35.100000 80.343750 24.938740
35.075000 79.203125 24.945077
35.325000 77.968750 24.951935
35.475000 76.562500 24.959747
35.675000 75.437500 24.965997
36.225000 74.453125 24.971466
34.625000 89.703125 25.043046
34.500000 88.531250 25.049556
34.650000 87.203125 25.056935
34.750000 85.921875 25.064053
34.850000 84.687500 25.070911
34.900000 83.328125 25.078463
34.875000 82.531250 25.082890
34.975000 81.031250 25.091223
35.025000 80.078125 25.096518
35.150000 79.015625 25.102421
35.400000 77.609375 25.110234
35.550000 76.546875 25.116137
34.775000 89.421875 25.187342
34.600000 87.859375 25.196023
34.725000 87.140625 25.200016
34.825000 86.062500 25.206005
34.700000 84.906250 25.212429
34.750000 83.328125 25.221196
34.800000 82.328125 25.226752
34.850000 81.281250 25.232568
35.050000 80.109375 25.239078
35.200000 78.546875 25.247759
35.375000 77.453125 25.253835
35.625000 76.781250 25.257568
35.925000 75.312500 25.265728
34.750000 89.125000 25.356524
34.600000 87.734375 25.364250
34.725000 86.687500 25.370066
34.850000 85.593750 25.376142
34.975000 84.562500 25.381871
34.750000 83.531250 25.387600
34.550000 81.875000 25.396802
34.850000 81.109375 25.401055
35.200000 79.937500 25.407566
35.425000 78.453125 25.415812
35.500000 77.609375 25.420500
35.675000 76.015625 25.429354
36.075000 75.000000 25.434996
34.875000 89.578125 25.509115
34.775000 88.656250 25.514237
34.700000 87.515625 25.520573
34.800000 86.484375 25.526303
34.475000 85.156250 25.533681
34.275000 83.875000 25.540799
34.500000 82.828125 25.546615
34.725000 81.421875 25.554428
35.000000 80.593750 25.559028
35.300000 79.296875 25.566233
35.550000 77.843750 25.574306
35.700000 76.828125 25.579948
34.675000 89.546875 25.654192
34.600000 88.390625 25.660615
34.750000 87.171875 25.667386
34.875000 85.828125 25.674851
34.775000 85.156250 25.678584
34.475000 83.671875 25.686831
34.450000 82.218750 25.694903
34.675000 81.687500 25.697855
35.100000 80.406250 25.704973
35.425000 79.000000 25.712785
35.575000 77.796875 25.719469
35.725000 76.906250 25.724417
34.850000 88.375000 25.827084
34.775000 87.265625 25.833248
34.900000 86.125000 25.839584
34.800000 85.015625 25.845747
34.500000 83.484375 25.854254
34.500000 82.609375 25.859116
34.675000 81.265625 25.866581
35.225000 78.218750 25.883508
35.800000 77.093750 25.889758
36.050000 75.625000 25.897918
36.550000 74.843750 25.902258
34.825000 89.640625 25.965702
34.775000 88.375000 25.972733
34.800000 87.343750 25.978462
34.925000 86.046875 25.985667
35.175000 84.968750 25.991657
34.850000 83.921875 25.997473
34.550000 82.593750 26.004851
34.825000 81.328125 26.011883
35.400000 78.046875 26.030112
35.900000 76.937500 26.036275
36.050000 75.500000 26.044261
36.550000 74.781250 26.048254
34.750000 88.437500 26.123874
34.875000 87.750000 26.127694
35.050000 86.718750 26.133423
34.950000 84.890625 26.143579
34.675000 84.031250 26.148354
34.750000 82.750000 26.155472
35.000000 81.781250 26.160854
35.550000 78.125000 26.181166
36.075000 76.828125 26.188371
36.125000 75.687500 26.194708
36.475000 74.593750 26.200784
34.925000 89.281250 26.278491
34.800000 87.765625 26.286911
35.075000 86.734375 26.292640
34.300000 84.234375 26.306529
34.725000 83.109375 26.312779
35.050000 81.812500 26.319984
35.375000 81.031250 26.324324
35.825000 79.671875 26.331876
36.325000 78.781250 26.336824
36.250000 77.234375 26.345418
36.075000 76.500000 26.349498
36.400000 75.000000 26.357831
34.950000 88.812500 26.437127
35.025000 87.671875 26.443463
35.075000 86.328125 26.450929
35.350000 85.218750 26.457092
35.100000 83.687500 26.465599
34.900000 82.515625 26.472109
35.550000 81.921875 26.475408
35.900000 80.671875 26.482352
36.275000 79.453125 26.489123
36.550000 78.140625 26.496415
36.325000 76.734375 26.504227
36.250000 75.593750 26.510564
36.650000 74.656250 26.515772
34.975000 88.734375 26.594740
35.025000 87.218750 26.603160
35.100000 86.546875 26.606893
35.375000 85.343750 26.613576
35.100000 84.000000 26.621042
34.900000 82.796875 26.627726
35.525000 81.703125 26.633802
35.950000 80.593750 26.639966
36.450000 79.328125 26.646997
36.625000 78.312500 26.652639
36.325000 77.234375 26.658629
36.275000 75.953125 26.665747
36.650000 74.703125 26.672691
34.975000 88.671875 26.746545
35.100000 87.687500 26.752013
35.175000 86.656250 26.757742
35.350000 85.234375 26.765642
35.075000 83.890625 26.773107
34.925000 82.625000 26.780138
35.450000 81.531250 26.786215
35.950000 80.281250 26.793159
36.550000 79.453125 26.797760
36.650000 78.437500 26.803402
36.325000 76.890625 26.811996
36.300000 75.812500 26.817986
36.675000 74.609375 26.824670
35.200000 88.921875 26.903789
