24.200000 88.281250 0.126253
24.175000 87.109375 0.126253
24.150000 86.015625 0.126253
24.175000 84.843750 0.126253
24.425000 79.390625 0.126253
24.050000 89.718750 0.298260
24.200000 88.546875 0.298260
24.200000 87.359375 0.298260
24.200000 86.187500 0.298260
24.425000 82.812500 0.298260
24.675000 81.312500 0.298260
24.275000 88.250000 0.451257
24.300000 86.046875 0.451257
24.625000 82.437500 0.451257
24.850000 81.046875 0.451257
24.850000 79.312500 0.451257
24.875000 80.000000 0.451257
24.050000 89.984375 0.608257
24.200000 88.781250 0.608257
24.550000 85.593750 0.608257
24.925000 84.390625 0.608257
24.925000 83.171875 0.608257
24.925000 81.937500 0.608257
24.475000 87.140625 0.760911
24.650000 85.421875 0.760911
24.850000 83.765625 0.760911
24.850000 84.781250 0.760911
24.900000 83.421875 0.760911
24.925000 82.203125 0.760911
24.925000 81.078125 0.760911
25.075000 80.109375 0.760911
24.725000 87.500000 0.916938
24.850000 86.078125 0.916938
24.850000 85.140625 0.916938
24.850000 86.250000 0.916938
24.900000 85.000000 0.916938
24.875000 83.921875 0.916938
24.875000 82.546875 0.916938
24.875000 81.375000 0.916938
24.925000 79.750000 0.916938
24.725000 85.859375 1.072505
24.850000 84.343750 1.072505
24.875000 82.937500 1.072505
24.875000 81.750000 1.072505
24.875000 82.687500 1.072505
24.875000 81.437500 1.072505
24.925000 79.781250 1.072505
24.325000 87.625000 1.227604
24.750000 85.640625 1.227604
24.750000 85.218750 1.227604
24.775000 82.171875 1.227604
24.900000 83.156250 1.227604
24.900000 81.984375 1.227604
24.650000 84.046875 1.384808
24.650000 84.921875 1.384808
24.675000 83.656250 1.384808
24.675000 81.609375 1.384808
24.675000 81.484375 1.384808
24.800000 80.031250 1.384808
24.225000 85.875000 1.538425
24.425000 83.859375 1.538425
24.650000 81.187500 1.538425
24.650000 80.000000 1.538425
24.650000 80.078125 1.538425
24.850000 79.046875 1.538425
24.025000 89.656250 1.692476
24.150000 88.484375 1.692476
24.150000 87.296875 1.692476
24.150000 86.125000 1.692476
24.175000 85.203125 1.692476
24.200000 82.171875 1.692476
24.425000 82.656250 1.692476
24.625000 81.218750 1.692476
24.625000 80.734375 1.692476
24.800000 77.875000 1.692476
23.850000 87.812500 1.851356
23.900000 86.640625 1.851356
23.900000 85.453125 1.851356
23.900000 84.281250 1.851356
23.900000 83.187500 1.851356
23.900000 83.359375 1.851356
23.925000 80.843750 1.851356
23.950000 81.578125 1.851356
24.175000 79.359375 1.851356
24.525000 78.062500 1.851356
23.625000 86.328125 2.005126
23.625000 84.937500 2.005126
23.625000 83.734375 2.005126
23.625000 82.562500 2.005126
23.625000 82.546875 2.005126
23.725000 80.234375 2.005126
23.850000 79.937500 2.005126
23.925000 78.687500 2.005126
23.050000 90.296875 2.160255
23.150000 87.375000 2.160255
23.175000 86.531250 2.160255
23.200000 85.031250 2.160255
23.225000 85.390625 2.160255
23.250000 83.593750 2.160255
23.425000 83.437500 2.160255
23.625000 82.187500 2.160255
23.625000 79.250000 2.160255
23.225000 89.828125 2.330011
23.250000 88.515625 2.330011
23.325000 85.843750 2.330011
23.450000 85.234375 2.330011
23.675000 83.562500 2.330011
23.850000 82.390625 2.330011
23.875000 82.140625 2.330011
23.900000 80.046875 2.330011
23.750000 88.203125 2.489556
23.900000 86.687500 2.489556
23.900000 85.515625 2.489556
23.900000 84.328125 2.489556
23.900000 83.281250 2.489556
23.900000 82.109375 2.489556
23.900000 80.937500 2.489556
23.925000 80.515625 2.489556
24.025000 86.343750 2.640986
23.900000 85.171875 2.640986
24.000000 85.500000 2.640986
24.125000 84.578125 2.640986
24.150000 83.406250 2.640986
24.200000 88.093750 2.803135
24.200000 86.921875 2.803135
24.425000 79.234375 2.803135
24.675000 80.093750 2.803135
24.200000 87.906250 2.954337
24.200000 84.812500 2.954337
24.450000 83.468750 2.954337
24.675000 82.031250 2.954337
24.675000 80.156250 2.954337
24.800000 79.531250 2.954337
24.075000 89.734375 3.111581
24.525000 82.437500 3.111581
24.875000 82.906250 3.111581
24.875000 79.578125 3.111581
24.425000 85.046875 3.265484
24.650000 85.890625 3.265484
24.650000 82.750000 3.265484
24.650000 82.781250 3.265484
24.675000 80.390625 3.265484
24.800000 81.312500 3.265484
25.075000 79.234375 3.265484
24.475000 87.593750 3.426507
24.650000 85.046875 3.426507
24.650000 85.218750 3.426507
24.675000 83.156250 3.426507
24.800000 83.046875 3.426507
24.925000 81.859375 3.426507
24.675000 87.968750 3.575164
24.650000 85.062500 3.575164
24.750000 84.578125 3.575164
24.850000 83.281250 3.575164
24.875000 83.703125 3.575164
24.900000 82.578125 3.575164
24.900000 81.140625 3.575164
25.075000 79.890625 3.575164
24.475000 88.937500 3.737072
24.650000 88.625000 3.737072
24.650000 86.890625 3.737072
24.650000 86.125000 3.737072
24.800000 85.265625 3.737072
24.925000 84.109375 3.737072
24.925000 82.906250 3.737072
24.950000 81.671875 3.737072
24.175000 90.156250 3.886498
24.450000 86.687500 3.886498
24.650000 87.609375 3.886498
24.750000 85.625000 3.886498
24.750000 85.359375 3.886498
24.800000 84.515625 3.886498
24.875000 81.156250 3.886498
24.875000 82.062500 3.886498
24.200000 87.968750 4.049793
24.400000 86.500000 4.049793
24.650000 85.484375 4.049793
24.675000 84.250000 4.049793
24.675000 82.531250 4.049793
24.775000 79.890625 4.049793
24.200000 88.187500 4.198567
24.425000 83.609375 4.198567
24.650000 82.421875 4.198567
24.650000 82.578125 4.198567
24.750000 80.656250 4.198567
24.775000 80.109375 4.198567
24.000000 87.468750 4.353915
24.125000 86.671875 4.353915
24.175000 85.812500 4.353915
24.425000 82.546875 4.353915
24.650000 80.296875 4.353915
24.675000 78.046875 4.353915
23.750000 89.343750 4.509156
23.900000 87.031250 4.509156
23.900000 85.843750 4.509156
23.900000 84.656250 4.509156
23.900000 85.531250 4.509156
23.875000 83.796875 4.509156
23.875000 81.250000 4.509156
24.050000 81.718750 4.509156
24.375000 78.906250 4.509156
24.575000 78.640625 4.509156
23.625000 88.890625 4.664318
23.650000 88.359375 4.664318
23.750000 85.656250 4.664318
23.875000 85.218750 4.664318
23.900000 83.375000 4.664318
23.900000 82.203125 4.664318
23.900000 82.125000 4.664318
24.250000 77.828125 4.664318
23.750000 90.046875 4.820822
23.900000 86.921875 4.820822
24.025000 87.437500 4.820822
24.150000 86.265625 4.820822
24.150000 85.093750 4.820822
24.400000 81.906250 4.820822
24.650000 79.453125 4.820822
24.825000 79.671875 4.820822
24.625000 87.890625 4.976570
24.650000 86.015625 4.976570
24.650000 83.828125 4.976570
24.650000 82.406250 4.976570
24.650000 83.156250 4.976570
24.750000 81.015625 4.976570
24.875000 80.906250 4.976570
25.050000 78.625000 4.976570
24.625000 87.953125 5.147257
24.750000 85.390625 5.147257
24.850000 84.125000 5.147257
24.850000 82.453125 5.147257
24.875000 83.375000 5.147257
24.875000 82.031250 5.147257
24.875000 80.796875 5.147257
25.125000 79.781250 5.147257
24.925000 87.796875 5.304391
24.925000 86.421875 5.304391
24.925000 85.296875 5.304391
24.950000 84.156250 5.304391
24.975000 82.859375 5.304391
24.975000 80.921875 5.304391
24.800000 89.531250 5.456815
24.950000 88.578125 5.456815
24.975000 87.343750 5.456815
24.975000 86.046875 5.456815
24.975000 84.843750 5.456815
24.975000 83.000000 5.456815
25.100000 82.328125 5.456815
25.250000 81.406250 5.456815
25.375000 79.921875 5.456815
24.975000 87.750000 5.612960
25.075000 86.562500 5.612960
25.200000 85.484375 5.612960
25.250000 84.406250 5.612960
25.275000 83.218750 5.612960
25.375000 82.187500 5.612960
25.500000 80.171875 5.612960
25.725000 79.953125 5.612960
25.175000 87.687500 5.769267
25.175000 86.421875 5.769267
25.200000 85.609375 5.769267
25.350000 84.781250 5.769267
25.500000 82.859375 5.769267
25.500000 81.546875 5.769267
25.500000 79.718750 5.769267
25.725000 80.203125 5.769267
25.100000 89.140625 5.927331
25.225000 87.968750 5.927331
25.250000 86.843750 5.927331
25.400000 85.906250 5.927331
25.500000 84.953125 5.927331
25.500000 83.546875 5.927331
25.525000 81.656250 5.927331
25.550000 79.843750 5.927331
25.725000 80.421875 5.927331
25.200000 87.625000 6.079547
25.375000 86.750000 6.079547
25.500000 85.609375 6.079547
25.475000 84.375000 6.079547
25.500000 82.656250 6.079547
25.500000 81.000000 6.079547
25.375000 87.734375 6.240083
25.500000 86.265625 6.240083
25.500000 85.125000 6.240083
25.475000 83.937500 6.240083
25.500000 82.140625 6.240083
25.550000 81.968750 6.240083
25.450000 85.843750 6.391286
25.475000 86.296875 6.391286
25.475000 85.250000 6.391286
25.475000 83.453125 6.391286
25.500000 81.515625 6.391286
25.550000 81.359375 6.391286
25.725000 79.953125 6.391286
25.300000 87.484375 6.553049
25.475000 85.375000 6.553049
25.475000 84.281250 6.553049
25.450000 84.875000 6.553049
25.475000 82.890625 6.553049
25.500000 81.328125 6.553049
25.100000 89.531250 6.706066
25.050000 88.390625 6.706066
25.150000 86.937500 6.706066
25.275000 85.656250 6.706066
25.275000 84.062500 6.706066
25.350000 82.234375 6.706066
25.475000 81.125000 6.706066
25.500000 80.484375 6.706066
25.700000 80.296875 6.706066
25.125000 87.765625 6.866876
25.125000 85.578125 6.866876
25.250000 84.781250 6.866876
25.250000 84.546875 6.866876
25.275000 83.421875 6.866876
25.300000 81.125000 6.866876
24.750000 89.750000 7.019289
24.925000 88.515625 7.019289
24.925000 87.093750 7.019289
24.975000 85.484375 7.019289
25.125000 84.125000 7.019289
25.225000 83.390625 7.019289
25.250000 82.984375 7.019289
25.250000 81.203125 7.019289
24.550000 89.859375 7.178234
24.675000 86.750000 7.178234
24.675000 85.984375 7.178234
24.700000 86.046875 7.178234
24.725000 83.328125 7.178234
24.850000 84.093750 7.178234
25.050000 83.000000 7.178234
25.125000 80.078125 7.178234
24.500000 89.625000 7.330601
24.625000 87.765625 7.330601
24.600000 85.281250 7.330601
24.575000 85.921875 7.330601
24.625000 84.437500 7.330601
24.650000 81.828125 7.330601
24.700000 82.718750 7.330601
24.825000 81.359375 7.330601
24.950000 79.218750 7.330601
24.250000 88.515625 7.490921
24.275000 87.562500 7.490921
24.300000 86.656250 7.490921
24.300000 84.265625 7.490921
24.325000 83.937500 7.490921
24.375000 83.125000 7.490921
24.400000 80.640625 7.490921
24.475000 81.109375 7.490921
24.475000 89.640625 7.644513
24.625000 86.468750 7.644513
24.600000 85.281250 7.644513
24.600000 84.781250 7.644513
24.600000 83.953125 7.644513
24.625000 83.734375 7.644513
24.650000 82.015625 7.644513
24.650000 80.562500 7.644513
24.675000 88.109375 7.801317
24.675000 87.000000 7.801317
24.675000 85.328125 7.801317
24.675000 83.953125 7.801317
24.675000 83.625000 7.801317
24.700000 80.890625 7.801317
24.800000 80.562500 7.801317
25.050000 77.781250 7.801317
24.925000 88.250000 7.956971
24.925000 87.015625 7.956971
24.925000 85.968750 7.956971
24.925000 84.750000 7.956971
24.925000 83.390625 7.956971
24.975000 81.843750 7.956971
25.125000 79.203125 7.956971
25.275000 80.203125 7.956971
24.975000 87.718750 8.116100
24.975000 86.593750 8.116100
24.975000 85.218750 8.116100
24.975000 83.640625 8.116100
25.000000 81.656250 8.116100
25.125000 81.234375 8.116100
24.825000 89.531250 8.271003
24.975000 88.359375 8.271003
24.975000 87.187500 8.271003
24.975000 85.796875 8.271003
25.000000 84.000000 8.271003
25.125000 81.875000 8.271003
25.250000 82.421875 8.271003
25.275000 80.140625 8.271003
25.400000 79.718750 8.271003
25.200000 87.421875 8.429135
25.225000 86.250000 8.429135
25.225000 85.140625 8.429135
25.250000 84.187500 8.429135
25.375000 83.453125 8.429135
25.475000 81.906250 8.429135
24.975000 88.796875 8.583218
25.100000 88.000000 8.583218
25.125000 86.375000 8.583218
25.150000 85.750000 8.583218
25.375000 84.921875 8.583218
25.475000 83.906250 8.583218
25.500000 82.187500 8.583218
25.525000 80.281250 8.583218
25.675000 79.421875 8.583218
25.200000 87.531250 8.740534
25.350000 86.734375 8.740534
25.500000 85.515625 8.740534
25.525000 84.015625 8.740534
25.500000 82.406250 8.740534
25.475000 80.984375 8.740534
25.250000 87.718750 8.892450
25.350000 86.781250 8.892450
25.475000 85.515625 8.892450
25.450000 84.406250 8.892450
25.475000 82.406250 8.892450
25.475000 81.156250 8.892450
25.100000 89.609375 9.054174
25.350000 87.015625 9.054174
25.475000 87.640625 9.054174
25.500000 86.125000 9.054174
25.500000 84.875000 9.054174
25.525000 83.328125 9.054174
25.525000 81.984375 9.054174
25.525000 80.484375 9.054174
25.675000 79.546875 9.054174
25.225000 86.296875 9.204460
25.250000 85.328125 9.204460
25.450000 85.781250 9.204460
25.450000 84.531250 9.204460
25.475000 83.000000 9.204460
25.475000 81.671875 9.204460
25.025000 86.156250 9.366726
25.150000 86.734375 9.366726
25.275000 85.515625 9.366726
25.275000 84.140625 9.366726
25.375000 83.421875 9.366726
25.475000 81.875000 9.366726
24.950000 87.250000 9.516442
25.000000 85.859375 9.516442
25.125000 84.671875 9.516442
25.250000 84.921875 9.516442
25.275000 83.656250 9.516442
25.375000 80.656250 9.516442
25.500000 81.296875 9.516442
25.650000 79.859375 9.516442
24.825000 89.640625 9.678812
24.975000 88.500000 9.678812
24.975000 86.984375 9.678812
24.975000 85.609375 9.678812
25.000000 84.078125 9.678812
25.125000 83.484375 9.678812
25.250000 81.765625 9.678812
25.250000 81.687500 9.678812
25.300000 78.578125 9.678812
24.700000 88.359375 9.828408
24.850000 86.562500 9.828408
24.850000 85.640625 9.828408
24.875000 86.359375 9.828408
24.925000 85.234375 9.828408
24.925000 83.843750 9.828408
24.950000 82.453125 9.828408
25.000000 80.765625 9.828408
24.550000 89.515625 9.990141
24.650000 88.000000 9.990141
24.650000 86.750000 9.990141
24.650000 85.484375 9.990141
24.650000 85.140625 9.990141
24.675000 82.734375 9.990141
24.675000 82.734375 9.990141
24.700000 80.812500 9.990141
24.350000 88.031250 10.153345
24.350000 86.984375 10.153345
24.425000 85.812500 10.153345
24.500000 83.843750 10.153345
24.500000 81.750000 10.153345
24.500000 81.796875 10.153345
24.550000 81.046875 10.153345
24.600000 78.609375 10.153345
23.650000 88.687500 10.305410
23.650000 86.734375 10.305410
23.650000 85.546875 10.305410
23.650000 84.375000 10.305410
23.650000 84.218750 10.305410
23.750000 82.093750 10.305410
23.875000 80.921875 10.305410
23.900000 79.875000 10.305410
23.725000 88.234375 10.465000
23.900000 87.046875 10.465000
23.900000 85.875000 10.465000
23.900000 84.703125 10.465000
23.900000 83.640625 10.465000
24.025000 84.156250 10.465000
24.150000 82.984375 10.465000
24.175000 82.046875 10.465000
24.200000 80.734375 10.465000
24.375000 78.890625 10.465000
24.000000 89.703125 10.618130
24.150000 88.531250 10.618130
24.150000 87.343750 10.618130
24.175000 86.406250 10.618130
24.200000 85.312500 10.618130
24.200000 84.125000 10.618130
24.425000 80.531250 10.618130
24.800000 79.406250 10.618130
24.200000 88.312500 10.777714
24.200000 87.140625 10.777714
24.200000 86.062500 10.777714
24.425000 80.609375 10.777714
24.650000 81.515625 10.777714
24.025000 90.109375 10.935909
24.200000 88.921875 10.935909
24.200000 87.750000 10.935909
24.200000 86.515625 10.935909
24.200000 83.531250 10.935909
24.350000 83.468750 10.935909
24.650000 81.437500 10.935909
24.750000 81.640625 10.935909
24.775000 79.515625 10.935909
25.025000 77.781250 10.935909
24.175000 87.390625 11.088445
24.550000 84.171875 11.088445
24.900000 80.796875 11.088445
24.900000 81.687500 11.088445
24.525000 86.031250 11.242892
24.875000 82.671875 11.242892
24.900000 83.546875 11.242892
24.925000 82.390625 11.242892
24.925000 81.296875 11.242892
25.075000 78.890625 11.242892
24.875000 85.718750 11.399544
24.925000 84.656250 11.399544
24.925000 83.406250 11.399544
24.925000 82.187500 11.399544
24.925000 81.015625 11.399544
25.075000 78.218750 11.399544
24.725000 85.843750 11.559127
24.850000 84.703125 11.559127
24.850000 82.890625 11.559127
24.875000 83.859375 11.559127
24.925000 82.671875 11.559127
24.925000 81.437500 11.559127
24.950000 79.234375 11.559127
24.675000 87.812500 11.711284
24.750000 85.859375 11.711284
24.875000 84.031250 11.711284
24.875000 84.718750 11.711284
24.875000 83.546875 11.711284
24.900000 80.187500 11.711284
24.900000 81.062500 11.711284
25.075000 80.078125 11.711284
24.650000 85.359375 11.868452
24.650000 86.312500 11.868452
24.750000 83.609375 11.868452
24.750000 83.750000 11.868452
24.775000 82.906250 11.868452
24.875000 81.718750 11.868452
24.650000 83.812500 12.022853
24.650000 82.656250 12.022853
24.650000 81.484375 12.022853
24.650000 82.000000 12.022853
24.675000 80.609375 12.022853
24.800000 78.718750 12.022853
24.150000 87.656250 12.181364
24.175000 84.562500 12.181364
24.425000 83.187500 12.181364
24.650000 80.390625 12.181364
24.650000 80.921875 12.181364
24.825000 78.593750 12.181364
23.900000 88.046875 12.333012
23.925000 86.843750 12.333012
23.925000 85.046875 12.333012
24.025000 84.609375 12.333012
24.175000 83.609375 12.333012
24.375000 82.531250 12.333012
24.600000 81.484375 12.333012
23.700000 88.109375 12.494660
23.850000 86.687500 12.494660
23.850000 85.750000 12.494660
23.875000 85.640625 12.494660
23.900000 83.812500 12.494660
23.900000 82.296875 12.494660
23.900000 81.125000 12.494660
23.900000 80.515625 12.494660
23.550000 87.937500 12.645211
23.450000 87.968750 12.645211
23.300000 86.859375 12.645211
23.450000 85.906250 12.645211
23.625000 84.640625 12.645211
23.625000 83.343750 12.645211
23.625000 80.875000 12.645211
23.625000 80.843750 12.645211
23.225000 86.328125 12.806487
23.225000 85.140625 12.806487
23.225000 85.671875 12.806487
23.250000 83.859375 12.806487
23.425000 81.687500 12.806487
23.625000 80.515625 12.806487
23.725000 80.125000 12.806487
23.675000 85.921875 12.956453
23.875000 85.625000 12.956453
23.900000 84.406250 12.956453
23.900000 82.812500 12.956453
23.900000 81.296875 12.956453
23.900000 80.125000 12.956453
23.725000 88.015625 13.117924
23.875000 86.843750 13.117924
23.875000 85.671875 13.117924
23.900000 84.484375 13.117924
23.900000 83.406250 13.117924
23.900000 82.234375 13.117924
24.000000 82.468750 13.117924
24.400000 79.296875 13.117924
24.025000 89.531250 13.282928
24.150000 88.359375 13.282928
24.150000 87.187500 13.282928
24.150000 86.015625 13.282928
24.150000 84.906250 13.282928
24.175000 83.906250 13.282928
24.200000 88.046875 13.430434
24.200000 86.875000 13.430434
24.425000 81.890625 13.430434
24.650000 80.312500 13.430434
24.650000 81.140625 13.430434
24.700000 79.437500 13.430434
24.600000 87.046875 13.593674
24.650000 83.843750 13.593674
24.675000 82.421875 13.593674
24.775000 79.531250 13.593674
24.750000 83.968750 13.744394
24.750000 82.296875 13.744394
24.750000 82.640625 13.744394
24.800000 82.359375 13.744394
24.900000 79.140625 13.744394
25.050000 78.187500 13.744394
24.575000 89.812500 13.904361
24.650000 86.906250 13.904361
24.625000 85.390625 13.904361
24.650000 86.093750 13.904361
24.675000 85.140625 13.904361
24.675000 83.796875 13.904361
24.750000 81.890625 13.904361
24.775000 81.156250 13.904361
24.650000 88.093750 14.055821
24.675000 87.031250 14.055821
24.750000 84.765625 14.055821
24.850000 83.000000 14.055821
24.750000 81.750000 14.055821
24.775000 82.390625 14.055821
24.950000 81.312500 14.055821
25.100000 79.468750 14.055821
24.750000 83.968750 14.213216
24.850000 84.859375 14.213216
24.875000 83.453125 14.213216
24.925000 82.250000 14.213216
24.950000 81.250000 14.213216
25.100000 79.656250 14.213216
24.650000 88.937500 14.368514
24.750000 88.453125 14.368514
24.750000 86.578125 14.368514
24.850000 83.968750 14.368514
24.850000 83.406250 14.368514
24.850000 81.906250 14.368514
24.850000 82.796875 14.368514
24.875000 81.437500 14.368514
24.475000 87.796875 14.524903
24.650000 86.609375 14.524903
24.650000 87.578125 14.524903
24.675000 86.234375 14.524903
24.675000 85.015625 14.524903
24.750000 84.156250 14.524903
24.850000 80.781250 14.524903
24.875000 79.609375 14.524903
24.400000 87.125000 14.684687
24.450000 84.796875 14.684687
24.650000 83.203125 14.684687
24.650000 83.671875 14.684687
24.675000 82.109375 14.684687
24.750000 79.109375 14.684687
24.900000 79.765625 14.684687
24.200000 88.125000 14.835582
24.425000 84.359375 14.835582
24.650000 82.921875 14.835582
24.650000 81.390625 14.835582
24.650000 81.125000 14.835582
24.700000 80.187500 14.835582
23.750000 89.640625 14.996436
23.925000 88.468750 14.996436
23.925000 87.546875 14.996436
23.925000 86.359375 14.996436
24.025000 85.343750 14.996436
24.175000 84.375000 14.996436
24.200000 81.312500 14.996436
24.425000 81.093750 14.996436
24.625000 78.968750 14.996436
24.650000 77.796875 14.996436
23.725000 87.750000 15.146111
23.800000 88.468750 15.146111
23.825000 85.531250 15.146111
23.875000 85.546875 15.146111
23.900000 83.296875 15.146111
23.900000 83.796875 15.146111
23.925000 80.828125 15.146111
23.950000 81.140625 15.146111
24.175000 80.187500 15.146111
24.525000 79.406250 15.146111
23.850000 86.656250 15.307724
23.850000 85.359375 15.307724
23.900000 84.250000 15.307724
23.900000 83.078125 15.307724
23.900000 83.312500 15.307724
23.925000 80.734375 15.307724
24.150000 87.843750 15.469404
24.175000 86.906250 15.469404
24.200000 85.843750 15.469404
24.425000 81.187500 15.469404
24.650000 78.984375 15.469404
24.675000 79.093750 15.469404
24.475000 89.640625 15.620998
24.650000 88.000000 15.620998
24.650000 86.109375 15.620998
24.650000 84.171875 15.620998
24.650000 85.093750 15.620998
24.675000 83.765625 15.620998
24.750000 80.765625 15.620998
24.875000 81.640625 15.620998
24.475000 89.953125 15.781652
24.675000 88.781250 15.781652
24.675000 87.390625 15.781652
24.750000 84.437500 15.781652
24.875000 85.468750 15.781652
24.925000 84.062500 15.781652
24.925000 82.921875 15.781652
24.950000 81.687500 15.781652
24.925000 87.968750 15.932959
24.950000 86.875000 15.932959
24.975000 85.578125 15.932959
24.975000 84.406250 15.932959
24.975000 83.015625 15.932959
25.000000 81.343750 15.932959
25.150000 80.781250 15.932959
25.450000 78.875000 15.932959
24.800000 89.625000 16.093551
24.975000 88.484375 16.093551
24.975000 87.265625 16.093551
24.975000 86.093750 16.093551
24.975000 84.468750 16.093551
25.225000 81.671875 16.093551
25.500000 79.562500 16.093551
24.750000 89.921875 16.246517
24.975000 88.734375 16.246517
24.975000 87.562500 16.246517
24.975000 85.843750 16.246517
25.200000 81.578125 16.246517
25.475000 81.390625 16.246517
25.025000 89.359375 16.406096
25.225000 88.171875 16.406096
25.225000 87.000000 16.406096
25.225000 85.828125 16.406096
25.250000 84.750000 16.406096
25.375000 83.781250 16.406096
25.500000 82.265625 16.406096
25.500000 80.531250 16.406096
25.550000 79.656250 16.406096
25.250000 87.484375 16.556940
25.375000 86.796875 16.556940
25.475000 85.468750 16.556940
25.500000 84.187500 16.556940
25.525000 82.875000 16.556940
25.525000 81.093750 16.556940
25.375000 87.421875 16.717151
25.525000 86.062500 16.717151
25.525000 84.515625 16.717151
25.525000 83.593750 16.717151
25.525000 81.562500 16.717151
25.550000 81.593750 16.717151
25.725000 79.093750 16.717151
25.450000 86.656250 16.868804
25.500000 85.390625 16.868804
25.525000 84.296875 16.868804
25.525000 82.312500 16.868804
25.525000 80.609375 16.868804
25.450000 85.984375 17.028388
25.450000 86.296875 17.028388
25.375000 84.296875 17.028388
25.375000 83.484375 17.028388
25.500000 81.234375 17.028388
25.550000 81.562500 17.028388
25.725000 80.671875 17.028388
25.250000 87.890625 17.182398
25.350000 85.953125 17.182398
25.350000 85.359375 17.182398
25.375000 84.906250 17.182398
25.475000 83.093750 17.182398
25.500000 81.921875 17.182398
25.550000 80.906250 17.182398
25.800000 80.140625 17.182398
25.100000 86.640625 17.338634
25.250000 86.875000 17.338634
25.275000 85.703125 17.338634
25.275000 83.812500 17.338634
25.375000 83.265625 17.338634
25.500000 81.718750 17.338634
25.000000 86.734375 17.494245
25.125000 85.906250 17.494245
25.250000 84.531250 17.494245
25.250000 83.078125 17.494245
25.250000 82.718750 17.494245
25.275000 81.281250 17.494245
24.725000 87.859375 17.649573
24.850000 88.343750 17.649573
24.900000 87.046875 17.649573
24.950000 86.187500 17.649573
25.075000 84.671875 17.649573
25.200000 83.937500 17.649573
25.225000 81.265625 17.649573
25.225000 80.718750 17.649573
24.625000 89.578125 17.809728
24.675000 86.593750 17.809728
24.675000 85.859375 17.809728
24.675000 85.640625 17.809728
24.725000 82.890625 17.809728
24.850000 83.390625 17.809728
24.950000 82.125000 17.809728
24.975000 80.234375 17.809728
25.100000 80.015625 17.809728
24.500000 85.968750 17.975425
24.450000 85.703125 17.975425
24.450000 83.421875 17.975425
24.550000 83.750000 17.975425
24.600000 83.390625 17.975425
24.650000 81.906250 17.975425
24.675000 79.484375 17.975425
24.875000 78.312500 17.975425
24.350000 87.796875 18.122159
24.325000 84.906250 18.122159
24.400000 83.781250 18.122159
24.500000 83.781250 18.122159
24.525000 81.437500 18.122159
24.550000 82.312500 18.122159
24.625000 80.515625 18.122159
24.775000 79.953125 18.122159
24.650000 86.609375 18.286562
24.650000 86.546875 18.286562
24.650000 86.046875 18.286562
24.650000 83.812500 18.286562
24.650000 81.687500 18.286562
24.650000 80.515625 18.286562
24.675000 87.437500 18.434426
24.750000 85.765625 18.434426
24.850000 84.218750 18.434426
24.775000 84.562500 18.434426
24.775000 83.343750 18.434426
24.900000 82.140625 18.434426
24.975000 80.359375 18.434426
25.175000 78.875000 18.434426
24.775000 89.687500 18.597805
24.925000 88.484375 18.597805
24.925000 87.296875 18.597805
24.925000 86.218750 18.597805
24.950000 85.296875 18.597805
24.975000 83.734375 18.597805
25.000000 81.765625 18.597805
25.125000 81.390625 18.597805
24.975000 87.671875 18.749299
24.975000 86.484375 18.749299
24.975000 85.234375 18.749299
25.000000 83.640625 18.749299
25.125000 81.968750 18.749299
25.250000 82.250000 18.749299
24.950000 89.265625 18.897760
24.975000 88.093750 18.897760
24.975000 86.906250 18.897760
25.075000 85.718750 18.897760
25.100000 83.062500 18.897760
25.150000 83.718750 18.897760
25.275000 81.453125 18.897760
25.375000 81.234375 18.897760
25.600000 79.875000 18.897760
25.050000 89.343750 19.060022
25.200000 88.078125 19.060022
25.225000 86.906250 19.060022
25.225000 85.812500 19.060022
25.375000 84.859375 19.060022
25.475000 82.828125 19.060022
25.475000 82.593750 19.060022
25.475000 80.968750 19.060022
25.650000 80.609375 19.060022
25.225000 87.718750 19.210016
25.225000 86.531250 19.210016
25.375000 85.609375 19.210016
25.500000 84.531250 19.210016
25.500000 83.234375 19.210016
25.525000 81.750000 19.210016
25.550000 81.390625 19.210016
25.775000 79.000000 19.210016
25.350000 88.281250 19.372976
25.250000 84.984375 19.372976
25.250000 85.484375 19.372976
25.500000 84.109375 19.372976
25.525000 82.609375 19.372976
25.525000 81.093750 19.372976
25.550000 81.296875 19.372976
25.825000 79.875000 19.372976
25.350000 88.203125 19.535408
25.475000 86.968750 19.535408
25.475000 85.546875 19.535408
25.500000 84.046875 19.535408
25.525000 82.546875 19.535408
25.525000 81.234375 19.535408
24.900000 87.937500 19.682370
25.150000 88.484375 19.682370
25.350000 86.296875 19.682370
25.475000 86.203125 19.682370
25.525000 84.828125 19.682370
25.525000 83.656250 19.682370
25.525000 82.078125 19.682370
25.525000 80.468750 19.682370
25.675000 80.015625 19.682370
25.025000 85.875000 19.846986
25.025000 84.453125 19.846986
25.225000 84.359375 19.846986
25.475000 82.781250 19.846986
25.500000 82.890625 19.846986
25.525000 81.140625 19.846986
24.825000 88.531250 19.998422
24.975000 87.093750 19.998422
25.000000 86.421875 19.998422
25.000000 84.562500 19.998422
25.125000 85.187500 19.998422
25.250000 83.953125 19.998422
25.350000 83.109375 19.998422
25.475000 81.531250 19.998422
24.975000 87.171875 20.158052
24.975000 86.359375 20.158052
25.000000 84.781250 20.158052
25.025000 84.875000 20.158052
25.150000 81.656250 20.158052
25.250000 82.234375 20.158052
25.375000 81.500000 20.158052
25.600000 80.328125 20.158052
24.750000 89.843750 20.312105
24.950000 88.734375 20.312105
24.925000 87.406250 20.312105
24.925000 86.125000 20.312105
24.950000 84.546875 20.312105
24.975000 83.156250 20.312105
25.000000 81.500000 20.312105
25.125000 80.953125 20.312105
24.675000 86.828125 20.472449
24.675000 85.500000 20.472449
24.750000 84.453125 20.472449
24.850000 82.531250 20.472449
24.875000 83.265625 20.472449
24.950000 82.234375 20.472449
25.000000 80.171875 20.472449
25.175000 79.984375 20.472449
24.600000 85.890625 20.618958
24.600000 85.781250 20.618958
24.650000 85.687500 20.618958
24.650000 84.468750 20.618958
24.650000 81.250000 20.618958
24.650000 81.953125 20.618958
24.675000 80.765625 20.618958
24.875000 79.937500 20.618958
23.925000 87.656250 20.781590
23.925000 86.468750 20.781590
23.925000 85.296875 20.781590
23.925000 85.765625 20.781590
24.125000 83.015625 20.781590
24.300000 83.312500 20.781590
24.325000 81.531250 20.781590
24.325000 81.234375 20.781590
23.675000 89.078125 20.934981
23.800000 87.812500 20.934981
23.800000 85.718750 20.934981
23.825000 84.531250 20.934981
23.875000 84.812500 20.934981
23.900000 82.718750 20.934981
23.900000 81.125000 20.934981
23.900000 81.796875 20.934981
23.900000 87.843750 21.094174
23.900000 86.671875 21.094174
24.000000 86.921875 21.094174
24.125000 86.000000 21.094174
24.150000 84.906250 21.094174
24.150000 83.734375 21.094174
24.175000 82.796875 21.094174
24.200000 79.703125 21.094174
24.400000 79.781250 21.094174
24.750000 77.859375 21.094174
24.175000 88.015625 21.246907
24.200000 86.828125 21.246907
24.200000 85.750000 21.246907
24.200000 84.578125 21.246907
24.425000 80.671875 21.246907
24.650000 78.593750 21.246907
24.050000 89.859375 21.405003
24.200000 88.671875 21.405003
24.200000 87.500000 21.405003
24.200000 86.328125 21.405003
24.200000 85.218750 21.405003
24.425000 81.828125 21.405003
24.200000 87.859375 21.559693
24.200000 86.609375 21.559693
24.425000 83.109375 21.559693
24.675000 81.765625 21.559693
24.750000 79.640625 21.559693
25.025000 79.625000 21.559693
24.275000 88.390625 21.717876
24.375000 87.218750 21.717876
24.600000 83.828125 21.717876
24.850000 82.218750 21.717876
24.875000 82.812500 21.717876
24.925000 81.656250 21.717876
24.050000 88.203125 21.871102
24.450000 86.312500 21.871102
24.800000 85.718750 21.871102
24.925000 84.468750 21.871102
24.925000 83.296875 21.871102
24.925000 82.062500 21.871102
24.925000 80.890625 21.871102
25.100000 79.281250 21.871102
24.650000 85.421875 22.031206
24.875000 86.187500 22.031206
24.925000 85.031250 22.031206
24.925000 83.828125 22.031206
24.925000 82.546875 22.031206
24.925000 81.281250 22.031206
24.975000 79.359375 22.031206
24.850000 86.343750 22.184047
24.875000 85.031250 22.184047
24.875000 86.109375 22.184047
24.900000 84.921875 22.184047
24.925000 83.625000 22.184047
24.900000 82.531250 22.184047
24.900000 81.250000 22.184047
25.075000 79.578125 22.184047
24.750000 85.984375 22.344443
24.875000 83.562500 22.344443
24.900000 82.390625 22.344443
24.900000 83.359375 22.344443
24.925000 82.109375 22.344443
24.925000 80.968750 22.344443
25.100000 78.859375 22.344443
24.650000 85.656250 22.493922
24.650000 86.484375 22.493922
24.675000 85.156250 22.493922
24.675000 83.984375 22.493922
24.675000 82.375000 22.493922
24.750000 80.218750 22.493922
24.050000 87.921875 22.655959
24.200000 88.593750 22.655959
24.200000 85.562500 22.655959
24.200000 84.390625 22.655959
24.425000 83.953125 22.655959
24.650000 82.296875 22.655959
24.650000 80.859375 22.655959
24.650000 81.265625 22.655959
24.175000 87.671875 22.807526
24.175000 86.234375 22.807526
24.375000 81.546875 22.807526
24.625000 82.000000 22.807526
24.650000 80.468750 22.807526
24.800000 79.468750 22.807526
23.775000 88.015625 22.965305
23.900000 86.843750 22.965305
23.900000 85.656250 22.965305
23.900000 86.343750 22.965305
23.925000 85.109375 22.965305
24.000000 83.312500 22.965305
24.125000 82.609375 22.965305
24.175000 81.468750 22.965305
24.350000 80.375000 22.965305
24.600000 79.015625 22.965305
23.625000 88.125000 23.121895
23.650000 86.640625 23.121895
23.650000 84.796875 23.121895
23.750000 83.640625 23.121895
23.850000 81.843750 23.121895
23.875000 80.921875 23.121895
23.900000 81.421875 23.121895
23.200000 86.437500 23.278350
23.225000 86.734375 23.278350
23.425000 85.031250 23.278350
23.600000 84.531250 23.278350
23.575000 81.812500 23.278350
23.575000 81.921875 23.278350
23.575000 79.468750 23.278350
23.200000 88.171875 23.434194
23.225000 86.890625 23.434194
23.400000 81.812500 23.434194
23.700000 80.625000 23.434194
23.875000 80.015625 23.434194
23.875000 86.531250 23.589787
23.875000 85.765625 23.589787
23.900000 83.921875 23.589787
23.900000 83.093750 23.589787
23.900000 81.921875 23.589787
23.900000 80.734375 23.589787
24.025000 81.343750 23.589787
23.900000 86.468750 23.746909
23.900000 85.281250 23.746909
23.900000 84.125000 23.746909
23.900000 84.890625 23.746909
24.000000 82.875000 23.746909
24.125000 82.265625 23.746909
24.175000 87.656250 23.901298
24.175000 86.703125 23.901298
24.200000 85.609375 23.901298
24.200000 84.421875 23.901298
24.425000 79.843750 23.901298
24.675000 77.546875 23.901298
24.175000 87.937500 24.061080
24.175000 86.765625 24.061080
24.425000 81.640625 24.061080
24.650000 82.281250 24.061080
24.650000 80.312500 24.061080
24.775000 79.234375 24.061080
24.050000 88.109375 24.225709
24.175000 88.796875 24.225709
24.175000 85.750000 24.225709
24.450000 84.390625 24.225709
24.800000 83.328125 24.225709
24.875000 79.968750 24.225709
24.875000 80.921875 24.225709
25.100000 78.187500 24.225709
24.200000 87.703125 24.370680
24.425000 87.281250 24.370680
24.650000 85.359375 24.370680
24.650000 85.203125 24.370680
24.650000 84.968750 24.370680
24.750000 82.593750 24.370680
24.850000 81.703125 24.370680
24.875000 81.671875 24.370680
24.650000 88.000000 24.538923
24.650000 85.000000 24.538923
24.650000 84.140625 24.538923
24.775000 82.718750 24.538923
24.900000 82.500000 24.538923
24.875000 80.375000 24.538923
24.900000 81.109375 24.538923
25.075000 79.984375 24.538923
24.500000 89.625000 24.695366
24.650000 88.203125 24.695366
24.650000 87.437500 24.695366
24.650000 86.312500 24.695366
24.750000 83.687500 24.695366
24.750000 83.562500 24.695366
24.750000 81.093750 24.695366
24.850000 81.250000 24.695366
24.650000 87.500000 24.850432
24.650000 86.812500 24.850432
24.750000 83.609375 24.850432
24.875000 84.500000 24.850432
24.925000 83.328125 24.850432
24.925000 82.171875 24.850432
24.925000 80.984375 24.850432
25.125000 79.984375 24.850432
24.625000 89.500000 25.005637
24.675000 88.203125 25.005637
24.750000 86.062500 25.005637
24.850000 84.921875 25.005637
24.850000 83.109375 25.005637
24.900000 83.812500 25.005637
24.900000 82.562500 25.005637
24.900000 81.250000 25.005637
24.975000 78.859375 25.005637
24.450000 89.250000 25.161036
24.650000 86.671875 25.161036
24.650000 85.734375 25.161036
24.650000 86.312500 25.161036
24.650000 85.343750 25.161036
24.650000 83.781250 25.161036
24.750000 81.171875 25.161036
24.850000 79.734375 25.161036
24.425000 84.171875 25.310041
24.650000 82.828125 25.310041
24.650000 83.453125 25.310041
24.675000 81.859375 25.310041
24.750000 79.671875 25.310041
25.000000 79.984375 25.310041
24.175000 87.828125 25.471802
24.175000 86.890625 25.471802
24.425000 83.296875 25.471802
24.650000 81.015625 25.471802
24.650000 80.937500 25.471802
24.700000 79.046875 25.471802
23.900000 86.390625 25.621204
23.900000 85.203125 25.621204
24.000000 85.531250 25.621204
24.125000 84.609375 25.621204
24.150000 83.437500 25.621204
24.150000 82.406250 25.621204
24.375000 81.296875 25.621204
23.475000 89.984375 25.783912
23.650000 88.031250 25.783912
23.650000 86.109375 25.783912
23.650000 84.921875 25.783912
23.725000 85.593750 25.783912
23.825000 82.609375 25.783912
23.875000 83.187500 25.783912
23.925000 80.250000 25.783912
24.125000 80.890625 25.783912
24.325000 77.906250 25.783912
23.775000 87.875000 25.940289
23.900000 86.703125 25.940289
23.900000 85.515625 25.940289
23.900000 84.343750 25.940289
23.900000 83.203125 25.940289
24.025000 83.734375 25.940289
24.350000 80.625000 25.940289
24.800000 77.468750 25.940289
24.175000 88.015625 26.097311
24.175000 84.984375 26.097311
24.425000 85.734375 26.097311
24.650000 84.046875 26.097311
24.650000 81.515625 26.097311
24.650000 80.343750 26.097311
24.650000 81.000000 26.097311
24.775000 79.109375 26.097311
24.475000 88.906250 26.246174
24.650000 86.953125 26.246174
24.650000 85.453125 26.246174
24.650000 86.281250 26.246174
24.650000 84.968750 26.246174
24.750000 81.781250 26.246174
24.850000 82.984375 26.246174
24.850000 81.718750 26.246174
24.750000 86.484375 26.409555
24.850000 87.250000 26.409555
24.900000 85.906250 26.409555
24.925000 84.656250 26.409555
24.950000 83.484375 26.409555
24.975000 82.265625 26.409555
24.975000 79.750000 26.409555
25.125000 79.984375 26.409555
24.750000 89.453125 26.559354
24.925000 86.359375 26.559354
24.950000 87.265625 26.559354
24.975000 86.000000 26.559354
24.975000 84.828125 26.559354
24.975000 83.437500 26.559354
25.000000 81.562500 26.559354
25.150000 81.375000 26.559354
25.375000 80.078125 26.559354
24.975000 87.640625 26.719951
24.975000 86.078125 26.719951
24.925000 84.859375 26.719951
24.950000 83.437500 26.719951
25.225000 82.515625 26.719951
25.450000 82.234375 26.719951
25.175000 87.203125 26.875829
25.075000 85.484375 26.875829
25.100000 84.875000 26.875829
25.350000 84.250000 26.875829
25.475000 82.765625 26.875829
25.500000 80.718750 26.875829
25.200000 87.781250 27.033515
25.225000 86.593750 27.033515
25.350000 85.859375 27.033515
25.500000 84.250000 27.033515
25.500000 83.187500 27.033515
25.500000 81.375000 27.033515
25.550000 81.390625 27.033515
25.775000 79.187500 27.033515
25.225000 87.406250 27.187724
25.375000 86.687500 27.187724
25.525000 85.000000 27.187724
25.500000 84.343750 27.187724
25.450000 82.671875 27.187724
25.475000 80.718750 27.187724
25.475000 87.593750 27.342427
25.500000 86.281250 27.342427
25.500000 84.796875 27.342427
25.500000 83.359375 27.342427
25.500000 82.125000 27.342427
25.525000 81.656250 27.342427
25.725000 80.484375 27.342427
25.250000 87.531250 27.496997
25.400000 86.531250 27.496997
25.500000 85.437500 27.496997
25.475000 84.171875 27.496997
25.450000 82.406250 27.496997
25.475000 82.250000 27.496997
25.350000 87.468750 27.667710
25.325000 86.796875 27.667710
25.325000 84.156250 27.667710
25.475000 84.781250 27.667710
25.475000 82.781250 27.667710
25.500000 81.671875 27.667710
25.550000 80.500000 27.667710
25.775000 80.328125 27.667710
25.275000 88.343750 27.809656
25.250000 86.734375 27.809656
25.325000 85.390625 27.809656
25.350000 83.531250 27.809656
25.350000 81.890625 27.809656
25.475000 81.515625 27.809656
25.525000 81.265625 27.809656
25.750000 80.406250 27.809656
25.125000 87.953125 27.966031
25.150000 85.515625 27.966031
25.250000 84.203125 27.966031
25.250000 84.359375 27.966031
25.275000 81.843750 27.966031
25.300000 82.125000 27.966031
24.800000 89.203125 28.123013
24.950000 88.125000 28.123013
24.975000 86.875000 28.123013
25.025000 85.500000 28.123013
25.125000 85.312500 28.123013
25.250000 83.890625 28.123013
25.250000 83.125000 28.123013
25.275000 81.937500 28.123013
24.525000 89.031250 28.279259
24.700000 88.109375 28.279259
24.700000 85.468750 28.279259
24.800000 86.453125 28.279259
24.850000 84.296875 28.279259
24.950000 83.296875 28.279259
25.150000 81.687500 28.279259
25.150000 81.265625 28.279259
24.600000 89.609375 28.435375
24.650000 88.328125 28.435375
24.650000 86.578125 28.435375
24.650000 85.781250 28.435375
24.675000 84.578125 28.435375
24.700000 83.828125 28.435375
24.825000 82.328125 28.435375
24.950000 80.312500 28.435375
25.000000 78.921875 28.435375
24.225000 89.093750 28.592037
24.300000 87.234375 28.592037
24.325000 86.734375 28.592037
24.325000 86.359375 28.592037
24.350000 84.468750 28.592037
24.375000 82.093750 28.592037
24.425000 82.015625 28.592037
24.500000 81.140625 28.592037
24.425000 87.625000 28.761927
24.575000 88.500000 28.761927
24.575000 86.953125 28.761927
24.525000 84.156250 28.761927
24.600000 84.921875 28.761927
24.675000 83.859375 28.761927
24.675000 82.750000 28.761927
24.650000 80.859375 28.761927
24.700000 80.421875 28.761927
24.650000 87.843750 28.915855
24.675000 86.921875 28.915855
24.675000 85.562500 28.915855
24.675000 83.078125 28.915855
24.675000 83.406250 28.915855
24.775000 80.500000 28.915855
24.875000 80.859375 28.915855
25.100000 79.453125 28.915855
24.875000 85.671875 29.059745
24.875000 84.500000 29.059745
24.875000 85.546875 29.059745
24.900000 84.343750 29.059745
24.925000 82.609375 29.059745
24.975000 81.140625 29.059745
24.825000 89.578125 29.226932
24.975000 88.390625 29.226932
24.975000 87.015625 29.226932
24.975000 86.125000 29.226932
24.950000 84.187500 29.226932
24.975000 82.953125 29.226932
25.125000 82.218750 29.226932
25.250000 79.734375 29.226932
25.300000 80.343750 29.226932
24.950000 87.562500 29.372312
24.925000 86.343750 29.372312
24.925000 84.375000 29.372312
25.100000 82.656250 29.372312
25.250000 83.046875 29.372312
25.275000 82.046875 29.372312
24.825000 89.578125 29.536475
24.975000 88.406250 29.536475
25.075000 87.093750 29.536475
25.200000 85.828125 29.536475
25.225000 85.000000 29.536475
25.375000 82.906250 29.536475
25.475000 83.109375 29.536475
25.475000 81.734375 29.536475
25.075000 89.046875 29.686612
25.175000 87.875000 29.686612
25.200000 86.718750 29.686612
25.325000 85.875000 29.686612
25.475000 84.781250 29.686612
25.475000 83.406250 29.686612
25.475000 81.937500 29.686612
25.525000 80.500000 29.686612
25.725000 79.562500 29.686612
25.075000 87.437500 29.849122
25.250000 86.375000 29.849122
25.400000 85.484375 29.849122
25.525000 84.234375 29.849122
25.525000 82.625000 29.849122
25.525000 81.328125 29.849122
25.050000 89.390625 30.000546
25.250000 88.421875 30.000546
25.275000 87.046875 30.000546
25.375000 86.437500 30.000546
25.500000 84.796875 30.000546
25.500000 83.390625 30.000546
25.475000 81.890625 30.000546
25.475000 80.531250 30.000546
25.650000 79.312500 30.000546
