34.750000 87.093750 31.362743
34.575000 85.734375 31.362747
34.275000 84.546875 31.362750
34.175000 83.187500 31.362754
34.250000 82.359375 31.362756
34.575000 81.328125 31.362759
35.075000 80.015625 31.362763
35.575000 78.546875 31.362767
35.675000 77.500000 31.362770
35.675000 76.390625 31.362773
35.975000 75.437500 31.362775
34.525000 90.000000 31.519256
34.475000 88.671875 31.519259
34.725000 87.640625 31.519262
34.750000 86.578125 31.519265
34.975000 85.453125 31.519269
34.175000 82.765625 31.519276
34.425000 81.515625 31.519279
34.800000 80.171875 31.519283
35.200000 79.156250 31.519286
35.400000 78.187500 31.519289
35.500000 76.656250 31.519293
35.750000 75.906250 31.519295
36.250000 74.593750 31.519299
34.500000 89.937500 31.674073
34.375000 88.437500 31.674078
34.575000 87.140625 31.674081
34.675000 86.281250 31.674083
34.675000 84.890625 31.674087
34.425000 84.109375 31.674089
34.275000 82.765625 31.674093
34.425000 81.421875 31.674097
34.800000 80.156250 31.674100
35.125000 78.968750 31.674104
35.325000 78.265625 31.674106
35.500000 76.734375 31.674110
35.725000 75.484375 31.674114
36.225000 74.796875 31.674115
34.700000 88.781250 31.829382
34.650000 88.156250 31.829384
34.600000 86.921875 31.829388
34.650000 85.500000 31.829391
34.700000 84.796875 31.829393
34.550000 83.171875 31.829398
34.375000 81.890625 31.829401
34.600000 81.265625 31.829403
34.925000 80.015625 31.829407
35.100000 78.406250 31.829411
35.350000 77.312500 31.829414
35.550000 76.265625 31.829417
35.825000 75.062500 31.829421
34.600000 88.843750 31.987309
34.475000 87.562500 31.987312
34.550000 86.343750 31.987316
34.550000 85.312500 31.987319
34.575000 84.078125 31.987322
34.625000 83.234375 31.987324
34.700000 81.875000 31.987328
34.800000 80.546875 31.987332
34.900000 79.484375 31.987335
35.075000 78.078125 31.987339
35.300000 77.062500 31.987341
35.550000 76.046875 31.987344
35.925000 74.953125 31.987347
34.575000 89.968750 32.141984
34.575000 88.859375 32.141988
34.450000 87.468750 32.141991
34.525000 86.687500 32.141994
34.550000 85.515625 32.141997
34.575000 83.843750 32.142001
34.625000 82.968750 32.142004
34.825000 81.609375 32.142008
34.825000 80.500000 32.142011
34.800000 79.515625 32.142014
35.050000 78.453125 32.142016
35.275000 77.234375 32.142020
35.525000 75.921875 32.142024
35.900000 74.718750 32.142027
34.350000 89.968750 32.298099
34.325000 88.765625 32.298102
34.550000 87.437500 32.298106
34.550000 86.093750 32.298110
34.550000 85.390625 32.298111
34.575000 83.796875 32.298116
34.625000 82.671875 32.298119
34.775000 81.375000 32.298123
34.800000 80.500000 32.298125
34.800000 79.250000 32.298129
35.025000 77.890625 32.298132
35.250000 77.203125 32.298134
35.450000 75.515625 32.298139
35.875000 74.375000 32.298142
34.400000 89.750000 32.447467
34.350000 88.625000 32.447470
34.525000 87.484375 32.447473
34.550000 86.109375 32.447477
34.575000 84.984375 32.447480
34.575000 83.671875 32.447484
34.625000 82.609375 32.447487
34.775000 81.609375 32.447490
34.775000 80.437500 32.447493
34.800000 79.140625 32.447496
35.025000 78.171875 32.447499
35.250000 77.015625 32.447502
35.450000 75.562500 32.447506
35.875000 74.718750 32.447509
34.475000 89.812500 32.608736
34.400000 88.906250 32.608739
34.450000 87.453125 32.608743
34.525000 86.687500 32.608745
34.550000 85.406250 32.608748
34.600000 83.875000 32.608753
34.625000 82.781250 32.608756
34.825000 81.875000 32.608758
34.825000 80.453125 32.608762
34.775000 79.187500 32.608766
35.025000 78.140625 32.608769
35.225000 76.765625 32.608773
35.425000 75.875000 32.608775
35.800000 75.031250 32.608777
34.575000 89.671875 32.758202
34.450000 88.328125 32.758206
34.525000 87.750000 32.758207
34.550000 86.046875 32.758212
34.550000 85.140625 32.758214
34.575000 83.968750 32.758218
34.625000 82.968750 32.758221
34.750000 81.796875 32.758224
34.725000 80.265625 32.758228
34.750000 79.031250 32.758232
35.000000 78.109375 32.758234
35.225000 76.828125 32.758238
35.425000 75.890625 32.758240
35.800000 74.531250 32.758244
34.575000 86.734375 32.919352
34.650000 85.937500 32.919354
34.675000 84.625000 32.919357
34.675000 83.203125 32.919361
34.850000 82.281250 32.919364
34.825000 80.765625 32.919368
34.725000 79.796875 32.919371
34.900000 78.750000 32.919374
35.075000 77.312500 32.919378
35.300000 76.578125 32.919380
35.525000 75.375000 32.919383
34.425000 88.625000 33.070610
34.575000 87.562500 33.070613
34.600000 86.156250 33.070617
34.575000 84.937500 33.070620
34.675000 84.031250 33.070623
34.825000 82.781250 33.070626
34.850000 81.765625 33.070629
34.750000 80.562500 33.070632
34.800000 79.109375 33.070637
35.000000 77.859375 33.070640
35.225000 76.531250 33.070644
35.425000 75.734375 33.070646
35.775000 74.421875 33.070649
34.625000 86.953125 33.230902
34.625000 85.578125 33.230906
34.650000 84.515625 33.230909
34.675000 83.156250 33.230913
34.950000 82.546875 33.230915
34.925000 80.828125 33.230920
34.725000 80.125000 33.230922
34.900000 78.703125 33.230925
35.150000 77.562500 33.230929
35.375000 76.468750 33.230932
35.200000 89.687500 33.379738
34.950000 88.687500 33.379741
34.550000 87.546875 33.379744
34.625000 86.609375 33.379746
34.725000 85.359375 33.379750
34.775000 84.093750 33.379754
34.875000 83.062500 33.379756
34.875000 81.765625 33.379760
34.850000 80.796875 33.379763
34.900000 79.437500 33.379766
35.000000 78.203125 33.379770
35.225000 76.875000 33.379774
35.425000 76.015625 33.379776
35.775000 74.906250 33.379779
34.650000 86.812500 33.544537
34.625000 85.843750 33.544539
34.675000 84.421875 33.544543
34.725000 83.390625 33.544546
35.050000 82.421875 33.544549
35.025000 81.187500 33.544552
34.825000 79.828125 33.544556
35.050000 78.390625 33.544560
35.225000 77.484375 33.544563
35.450000 76.593750 33.544565
35.700000 75.250000 33.544569
34.850000 88.937500 33.695021
34.575000 87.468750 33.695025
34.650000 86.515625 33.695027
34.725000 85.421875 33.695030
34.750000 84.000000 33.695035
34.850000 82.953125 33.695037
34.850000 81.765625 33.695041
34.925000 80.703125 33.695044
35.000000 79.343750 33.695047
35.125000 78.312500 33.695050
35.325000 76.968750 33.695054
35.525000 75.828125 33.695057
35.875000 74.937500 33.695060
34.650000 87.062500 33.856280
34.700000 85.765625 33.856283
34.750000 85.000000 33.856286
34.875000 83.531250 33.856290
35.075000 82.453125 33.856293
34.975000 81.343750 33.856296
34.775000 79.968750 33.856300
34.975000 78.625000 33.856303
35.300000 77.890625 33.856305
35.450000 76.656250 33.856309
34.750000 88.562500 34.006998
34.700000 87.531250 34.007001
34.725000 86.656250 34.007004
34.750000 85.234375 34.007007
34.775000 83.906250 34.007011
34.875000 83.062500 34.007014
34.925000 81.781250 34.007017
34.925000 80.265625 34.007021
35.000000 79.421875 34.007024
35.175000 78.421875 34.007026
35.400000 77.156250 34.007030
35.600000 75.890625 34.007033
35.975000 74.781250 34.007036
34.750000 88.765625 34.156272
34.600000 87.921875 34.156274
34.775000 86.890625 34.156277
34.800000 85.171875 34.156282
34.850000 84.281250 34.156284
34.925000 82.984375 34.156288
35.175000 81.828125 34.156291
35.200000 80.515625 34.156295
35.000000 79.843750 34.156297
35.200000 78.406250 34.156301
35.450000 77.562500 34.156303
35.625000 76.390625 34.156306
35.950000 75.250000 34.156310
34.700000 89.671875 34.316921
34.525000 88.171875 34.316925
34.725000 87.093750 34.316928
34.825000 86.359375 34.316930
34.875000 84.859375 34.316934
34.875000 83.531250 34.316937
34.950000 82.343750 34.316941
35.100000 81.765625 34.316942
35.100000 80.437500 34.316946
35.150000 78.953125 34.316950
35.350000 78.031250 34.316953
35.525000 76.921875 34.316956
35.750000 75.859375 34.316959
36.225000 74.765625 34.316962
34.875000 88.937500 34.466977
34.725000 88.000000 34.466980
34.775000 87.046875 34.466982
34.875000 85.875000 34.466986
34.950000 84.765625 34.466989
35.000000 83.203125 34.466993
35.075000 82.265625 34.466996
35.025000 81.078125 34.466999
34.950000 79.875000 34.467002
35.225000 78.515625 34.467006
35.500000 77.390625 34.467009
35.725000 76.187500 34.467013
36.025000 75.015625 34.467016
34.875000 89.031250 34.625692
34.725000 87.890625 34.625695
34.875000 86.265625 34.625700
34.950000 85.421875 34.625702
35.000000 84.343750 34.625705
34.975000 82.859375 34.625709
35.075000 81.625000 34.625713
35.150000 80.687500 34.625715
35.200000 79.406250 34.625719
35.400000 78.421875 34.625722
35.650000 77.093750 34.625725
35.875000 76.218750 34.625728
36.200000 74.593750 34.625732
34.575000 88.156250 34.779046
34.825000 87.578125 34.779048
34.900000 86.234375 34.779052
35.025000 84.765625 34.779056
35.100000 83.578125 34.779059
35.075000 82.625000 34.779062
35.100000 81.468750 34.779065
35.200000 80.156250 34.779068
35.350000 78.843750 34.779072
35.550000 78.234375 34.779074
35.750000 77.000000 34.779077
36.000000 75.812500 34.779081
36.575000 74.687500 34.779084
34.900000 89.265625 34.937808
34.850000 87.859375 34.937812
35.000000 87.125000 34.937814
35.100000 85.703125 34.937818
35.050000 84.718750 34.937820
34.900000 83.500000 34.937824
34.900000 82.062500 34.937828
35.100000 81.000000 34.937831
35.350000 79.875000 34.937834
35.450000 78.765625 34.937837
35.600000 77.468750 34.937841
35.875000 76.062500 34.937845
36.225000 75.453125 34.937846
34.950000 88.359375 35.093818
34.975000 87.140625 35.093822
35.075000 86.406250 35.093824
34.900000 85.140625 35.093827
34.975000 83.812500 35.093831
35.075000 82.859375 35.093833
35.000000 81.609375 35.093837
35.375000 80.562500 35.093840
35.550000 79.375000 35.093843
35.625000 78.156250 35.093847
35.825000 76.921875 35.093850
35.050000 88.531250 35.248106
35.000000 87.453125 35.248109
35.075000 86.390625 35.248112
34.775000 85.015625 35.248116
34.550000 83.890625 35.248119
34.750000 82.718750 35.248122
34.975000 81.656250 35.248125
35.250000 80.484375 35.248128
35.550000 79.250000 35.248132
35.750000 78.093750 35.248135
35.850000 76.890625 35.248138
34.850000 89.406250 35.403491
34.875000 88.296875 35.403494
35.150000 87.453125 35.403496
35.225000 85.843750 35.403501
35.300000 84.953125 35.403503
35.000000 83.531250 35.403507
34.750000 82.250000 35.403511
35.000000 81.515625 35.403513
35.475000 80.062500 35.403517
35.825000 79.000000 35.403520
35.900000 77.640625 35.403523
36.050000 76.390625 35.403527
36.300000 75.375000 35.403530
35.275000 88.703125 35.562834
35.025000 88.000000 35.562836
35.225000 86.890625 35.562839
35.050000 83.312500 35.562849
34.875000 81.921875 35.562853
35.475000 78.343750 35.562863
36.075000 77.328125 35.562866
36.225000 76.078125 35.562869
36.600000 74.953125 35.562872
35.225000 88.937500 35.701690
35.100000 88.078125 35.701693
35.225000 86.828125 35.701696
35.025000 83.625000 35.701705
34.850000 82.484375 35.701708
35.150000 81.234375 35.701712
35.725000 79.984375 35.701715
36.175000 78.781250 35.701718
36.150000 77.765625 35.701721
36.225000 76.562500 35.701725
36.600000 75.578125 35.701727
35.375000 88.453125 35.856925
35.200000 87.375000 35.856928
35.325000 86.125000 35.856931
35.425000 85.234375 35.856934
35.175000 83.890625 35.856938
34.975000 83.000000 35.856940
35.200000 81.687500 35.856944
35.725000 78.140625 35.856954
36.300000 77.078125 35.856956
36.500000 75.890625 35.856960
37.025000 75.015625 35.856962
35.300000 89.218750 36.014050
35.175000 88.093750 36.014053
35.300000 87.312500 36.014055
35.225000 83.546875 36.014066
35.125000 82.218750 36.014070
35.425000 81.109375 36.014073
35.950000 80.031250 36.014076
36.625000 78.828125 36.014079
36.675000 77.562500 36.014083
36.450000 76.250000 36.014086
36.675000 75.296875 36.014089
35.125000 89.875000 36.167951
35.150000 88.703125 36.167954
35.400000 87.531250 36.167958
35.225000 83.781250 36.167968
36.625000 78.953125 36.167981
36.725000 78.187500 36.167984
36.525000 77.078125 36.167987
36.675000 75.703125 36.167990
35.450000 89.484375 36.320631
35.350000 88.000000 36.320635
35.450000 87.171875 36.320637
35.050000 85.718750 36.320641
34.825000 84.781250 36.320644
35.125000 83.468750 36.320647
35.300000 82.406250 36.320650
35.700000 81.312500 36.320653
36.250000 79.984375 36.320657
36.625000 78.625000 36.320661
36.600000 77.593750 36.320664
36.550000 76.234375 36.320668
36.775000 75.046875 36.320671
35.600000 88.625000 36.481168
35.325000 87.453125 36.481171
35.525000 86.703125 36.481173
35.350000 85.734375 36.481176
35.075000 83.968750 36.481181
35.225000 83.125000 36.481183
35.725000 81.843750 36.481187
36.150000 81.062500 36.481189
36.675000 80.031250 36.481192
36.950000 78.390625 36.481196
36.700000 77.546875 36.481199
36.625000 76.312500 36.481202
36.900000 75.203125 36.481205
35.275000 88.843750 36.631158
35.425000 87.796875 36.631161
35.550000 86.765625 36.631164
35.550000 85.234375 36.631168
35.250000 84.375000 36.631170
35.300000 82.875000 36.631175
35.825000 81.671875 36.631178
36.200000 80.781250 36.631180
36.700000 79.890625 36.631183
36.925000 78.437500 36.631187
36.750000 77.468750 36.631190
36.750000 75.765625 36.631194
37.050000 75.093750 36.631196
35.400000 88.765625 36.791866
35.500000 87.343750 36.791870
35.625000 86.562500 36.791873
35.950000 85.453125 36.791876
35.700000 83.890625 36.791880
35.275000 82.625000 36.791883
35.750000 81.468750 36.791887
36.400000 80.343750 36.791890
36.925000 79.609375 36.791892
36.900000 78.156250 36.791896
36.700000 77.171875 36.791898
35.500000 89.312500 36.942889
35.550000 88.562500 36.942891
35.575000 87.484375 36.942894
35.425000 83.546875 36.942905
35.325000 82.437500 36.942908
35.775000 81.562500 36.942910
36.350000 80.390625 36.942914
36.725000 79.296875 36.942916
36.825000 78.015625 36.942920
36.750000 76.578125 36.942924
36.900000 75.750000 36.942926
35.625000 89.390625 37.102987
35.500000 87.953125 37.102991
35.625000 86.921875 37.102994
35.500000 85.812500 37.102997
35.325000 84.406250 37.103001
35.375000 83.343750 37.103004
35.750000 82.250000 37.103007
36.200000 80.828125 37.103011
36.750000 80.265625 37.103013
36.975000 78.796875 37.103017
36.750000 77.578125 37.103020
36.800000 76.375000 37.103023
37.050000 75.312500 37.103026
35.375000 88.906250 37.254191
35.625000 87.609375 37.254195
35.725000 86.718750 37.254197
36.000000 85.125000 37.254202
35.700000 84.312500 37.254204
37.100000 79.515625 37.254217
37.025000 78.468750 37.254220
36.725000 77.390625 37.254223
36.925000 76.218750 37.254226
37.325000 74.765625 37.254230
35.500000 89.734375 37.415043
35.575000 88.546875 37.415046
35.650000 87.515625 37.415049
35.500000 84.140625 37.415058
36.900000 79.453125 37.415071
36.900000 78.140625 37.415075
36.700000 76.812500 37.415078
35.800000 89.421875 37.565171
35.600000 88.312500 37.565175
35.800000 87.062500 37.565178
35.575000 85.531250 37.565182
35.325000 84.703125 37.565185
35.375000 83.468750 37.565188
35.700000 82.062500 37.565192
36.300000 80.921875 37.565195
36.800000 80.046875 37.565198
36.775000 78.593750 37.565202
36.650000 77.625000 37.565204
36.800000 76.390625 37.565208
37.025000 75.312500 37.565211
35.750000 89.343750 37.713879
35.725000 88.203125 37.713882
35.800000 86.953125 37.713886
35.650000 86.062500 37.713888
35.450000 84.625000 37.713892
35.400000 83.406250 37.713896
35.575000 82.500000 37.713898
36.125000 81.312500 37.713902
36.850000 80.171875 37.713905
36.925000 78.921875 37.713908
36.650000 77.953125 37.713911
36.750000 76.781250 37.713914
37.025000 75.484375 37.713918
35.450000 88.687500 37.874478
35.700000 87.562500 37.874481
35.800000 86.546875 37.874484
36.000000 85.203125 37.874487
35.750000 83.906250 37.874491
35.325000 83.109375 37.874493
35.725000 82.015625 37.874496
36.450000 80.921875 37.874499
36.975000 79.828125 37.874502
36.825000 78.484375 37.874506
36.575000 77.453125 37.874509
36.800000 76.203125 37.874512
37.300000 75.125000 37.874515
35.925000 89.453125 38.036941
35.900000 88.437500 38.036944
35.825000 87.046875 38.036948
35.925000 86.171875 38.036950
35.850000 84.953125 38.036954
35.575000 83.515625 38.036958
35.675000 82.515625 38.036960
36.250000 81.453125 38.036963
36.900000 80.343750 38.036966
36.925000 79.281250 38.036969
36.650000 78.093750 38.036973
36.700000 76.609375 38.036977
37.000000 75.687500 38.036979
35.525000 89.953125 38.177114
35.675000 88.718750 38.177118
35.825000 87.562500 38.177121
35.850000 86.750000 38.177123
35.975000 85.343750 38.177127
35.825000 84.375000 38.177130
37.000000 79.703125 38.177143
36.825000 78.265625 38.177146
36.600000 77.203125 38.177150
36.900000 76.171875 38.177152
37.350000 74.906250 38.177156
36.325000 89.453125 38.331865
36.125000 88.296875 38.331868
35.800000 86.828125 38.331872
35.975000 85.968750 38.331874
35.875000 84.390625 38.331879
35.625000 83.609375 38.331881
36.175000 80.046875 38.331891
36.575000 79.078125 38.331893
36.500000 77.562500 38.331898
36.700000 76.531250 38.331901
37.050000 75.500000 38.331903
35.525000 90.000000 38.488219
35.575000 89.015625 38.488222
35.825000 87.593750 38.488226
35.850000 86.750000 38.488229
36.000000 85.484375 38.488232
35.900000 83.890625 38.488236
36.925000 79.609375 38.488248
36.775000 78.218750 38.488252
36.600000 76.875000 38.488256
36.850000 75.781250 38.488259
37.300000 74.781250 38.488262
35.625000 89.953125 38.657773
35.625000 88.906250 38.657776
35.825000 87.593750 38.657780
35.900000 86.593750 38.657783
36.025000 85.109375 38.657787
36.050000 83.984375 38.657790
35.900000 83.000000 38.657793
36.200000 81.859375 38.657796
36.700000 80.796875 38.657799
36.675000 79.734375 38.657802
36.475000 78.000000 38.657807
36.575000 77.281250 38.657809
36.900000 76.125000 38.657812
37.425000 74.984375 38.657815
35.925000 89.125000 38.799629
35.800000 87.734375 38.799633
35.800000 86.890625 38.799635
35.850000 85.921875 38.799638
36.050000 84.312500 38.799643
36.125000 83.234375 38.799646
36.150000 82.453125 38.799648
36.575000 80.890625 38.799652
36.900000 79.859375 38.799655
36.675000 78.781250 38.799658
36.400000 77.234375 38.799662
36.600000 76.109375 38.799665
37.125000 75.296875 38.799668
35.575000 88.921875 38.956962
35.675000 87.859375 38.956965
35.875000 86.890625 38.956968
35.900000 85.437500 38.956972
35.925000 84.281250 38.956975
36.050000 83.531250 38.956977
36.225000 82.046875 38.956981
36.550000 80.843750 38.956985
36.850000 80.015625 38.956987
36.600000 78.609375 38.956991
36.325000 77.640625 38.956994
36.575000 76.468750 38.956997
37.100000 75.375000 38.957000
35.525000 89.078125 39.111122
35.775000 87.640625 39.111126
35.825000 86.703125 39.111128
35.900000 85.546875 39.111132
35.975000 84.171875 39.111135
36.050000 83.296875 39.111138
36.325000 81.906250 39.111142
36.675000 80.796875 39.111145
36.625000 79.812500 39.111147
36.375000 78.203125 39.111152
36.200000 77.203125 39.111155
36.475000 76.140625 39.111158
37.200000 75.203125 39.111160
36.075000 89.703125 39.266604
35.625000 88.531250 39.266607
35.775000 87.859375 39.266609
35.850000 86.281250 39.266613
35.925000 85.390625 39.266616
35.975000 84.000000 39.266620
36.025000 83.218750 39.266622
36.325000 82.125000 39.266625
36.675000 80.625000 39.266629
36.550000 79.218750 39.266633
36.275000 78.328125 39.266635
36.300000 77.078125 39.266639
36.700000 75.921875 39.266642
37.400000 74.859375 39.266645
36.375000 89.500000 39.422175
36.175000 88.562500 39.422177
35.825000 87.484375 39.422180
35.850000 86.093750 39.422184
35.900000 84.859375 39.422188
35.925000 83.593750 39.422191
36.025000 82.500000 39.422194
36.375000 81.296875 39.422198
36.650000 80.265625 39.422200
36.475000 78.859375 39.422204
36.275000 78.203125 39.422206
36.525000 76.875000 39.422210
36.900000 75.515625 39.422214
35.500000 89.171875 39.577512
35.650000 87.546875 39.577516
35.850000 86.484375 39.577519
35.925000 85.796875 39.577521
35.950000 84.468750 39.577525
36.025000 83.234375 39.577528
36.325000 81.906250 39.577532
36.650000 80.750000 39.577535
36.900000 79.609375 39.577538
36.675000 78.671875 39.577541
36.350000 77.375000 39.577544
36.600000 76.000000 39.577548
37.025000 75.156250 39.577551
35.900000 89.796875 39.731887
35.675000 88.437500 39.731891
35.775000 87.796875 39.731892
35.850000 86.296875 39.731897
35.950000 85.359375 39.731899
35.975000 84.281250 39.731902
36.025000 83.156250 39.731905
36.300000 81.671875 39.731910
36.600000 80.828125 39.731912
36.450000 79.296875 39.731916
36.275000 77.890625 39.731920
36.350000 77.125000 39.731922
36.650000 75.796875 39.731926
37.250000 75.031250 39.731928
36.550000 89.531250 39.883373
35.800000 87.515625 39.883379
35.875000 86.093750 39.883383
35.950000 84.921875 39.883386
35.975000 83.906250 39.883389
36.025000 82.453125 39.883393
36.325000 81.625000 39.883395
36.550000 80.296875 39.883399
36.375000 78.984375 39.883402
36.250000 77.890625 39.883405
36.350000 76.453125 39.883410
36.700000 75.609375 39.883412
35.875000 89.328125 40.042698
35.875000 88.078125 40.042701
35.750000 86.937500 40.042704
35.900000 85.515625 40.042708
35.800000 84.734375 40.042711
35.700000 83.421875 40.042714
35.975000 82.406250 40.042717
36.400000 80.937500 40.042721
36.750000 79.750000 40.042724
36.575000 78.843750 40.042727
36.275000 77.531250 40.042731
36.400000 76.218750 40.042734
36.825000 74.953125 40.042738
35.650000 89.750000 40.194464
35.600000 88.796875 40.194466
35.575000 87.687500 40.194469
35.675000 86.515625 40.194473
35.450000 85.078125 40.194477
35.350000 83.671875 40.194480
35.575000 82.578125 40.194484
36.050000 81.734375 40.194486
36.575000 80.484375 40.194489
36.500000 79.359375 40.194493
36.300000 77.875000 40.194497
36.250000 77.171875 40.194499
35.700000 89.093750 40.356708
35.350000 88.078125 40.356711
35.525000 86.859375 40.356714
35.300000 85.750000 40.356718
35.025000 84.453125 40.356721
35.025000 83.328125 40.356724
36.575000 78.328125 40.356738
36.225000 77.437500 40.356741
36.325000 76.218750 40.356744
36.850000 74.875000 40.356748
35.675000 89.890625 40.506620
35.725000 88.828125 40.506623
35.425000 87.390625 40.506627
35.600000 86.484375 40.506630
35.225000 85.140625 40.506633
34.850000 83.718750 40.506637
35.325000 82.953125 40.506639
35.850000 81.468750 40.506644
36.300000 80.281250 40.506647
36.425000 79.125000 40.506650
36.325000 78.187500 40.506653
36.275000 77.156250 40.506655
35.250000 90.031250 40.656015
35.375000 88.437500 40.656020
35.300000 87.531250 40.656022
35.675000 86.781250 40.656024
34.675000 84.218750 40.656032
34.875000 82.765625 40.656036
35.325000 81.500000 40.656039
36.075000 80.906250 40.656041
36.675000 79.703125 40.656044
36.450000 78.171875 40.656049
36.175000 77.218750 40.656051
36.400000 76.093750 40.656054
36.850000 74.718750 40.656058
35.225000 87.375000 40.815755
35.400000 86.484375 40.815758
35.000000 85.234375 40.815761
34.625000 83.875000 40.815765
35.000000 83.062500 40.815767
36.475000 78.593750 40.815779
36.200000 76.968750 40.815784
36.350000 75.828125 40.815787
36.750000 75.000000 40.815789
35.375000 89.703125 40.967080
35.400000 88.656250 40.967083
34.850000 84.796875 40.967093
34.750000 83.609375 40.967097
35.250000 82.406250 40.967100
35.575000 81.125000 40.967104
35.950000 80.171875 40.967106
36.350000 78.859375 40.967110
36.300000 77.781250 40.967113
36.200000 76.968750 40.967115
36.300000 75.437500 40.967119
35.025000 89.031250 41.130200
35.025000 87.406250 41.130204
35.000000 86.218750 41.130208
34.750000 84.906250 41.130211
34.500000 83.781250 41.130214
34.800000 82.671875 41.130218
36.325000 78.312500 41.130230
36.200000 76.890625 41.130234
36.225000 76.203125 41.130235
36.450000 74.609375 41.130240
34.800000 89.828125 41.277910
34.850000 88.578125 41.277914
35.000000 87.500000 41.277917
34.850000 86.593750 41.277919
34.450000 84.953125 41.277924
34.325000 83.843750 41.277927
34.525000 83.078125 41.277929
34.950000 81.437500 41.277934
35.600000 80.578125 41.277936
36.250000 79.453125 41.277939
36.400000 78.421875 41.277942
36.175000 77.265625 41.277945
36.100000 75.765625 41.277950
36.400000 74.984375 41.277952
35.000000 89.625000 41.440670
34.925000 88.468750 41.440673
34.950000 87.000000 41.440677
35.050000 85.890625 41.440680
34.650000 84.609375 41.440684
34.350000 83.718750 41.440686
34.850000 82.421875 41.440690
35.250000 81.375000 41.440692
35.600000 80.062500 41.440696
36.150000 78.828125 41.440700
36.200000 77.562500 41.440703
36.025000 76.250000 41.440707
36.125000 75.437500 41.440709
35.000000 89.000000 41.589753
34.675000 87.640625 41.589757
34.450000 84.250000 41.589767
34.275000 83.031250 41.589770
34.575000 82.265625 41.589772
36.050000 77.390625 41.589786
35.900000 76.406250 41.589788
36.125000 74.953125 41.589792
34.650000 87.546875 41.753469
34.425000 84.078125 41.753479
34.175000 83.062500 41.753482
34.400000 81.656250 41.753485
34.800000 80.687500 41.753488
35.475000 79.500000 41.753491
36.075000 78.531250 41.753494
36.025000 77.562500 41.753497
35.875000 76.406250 41.753500
36.150000 75.218750 41.753503
34.600000 89.968750 41.905107
34.575000 88.781250 41.905111
34.775000 87.796875 41.905113
34.425000 83.812500 41.905124
34.175000 82.593750 41.905128
34.400000 81.234375 41.905132
35.875000 77.046875 41.905143
35.925000 75.750000 41.905147
36.300000 74.578125 41.905150
34.700000 89.656250 42.063288
34.600000 88.500000 42.063291
34.700000 87.593750 42.063294
34.425000 83.781250 42.063304
34.200000 82.593750 42.063308
34.450000 81.078125 42.063312
34.925000 80.000000 42.063315
35.525000 79.015625 42.063318
35.675000 78.109375 42.063320
35.575000 77.031250 42.063323
35.800000 75.375000 42.063328
36.400000 74.843750 42.063329
34.500000 89.953125 42.218471
34.400000 88.812500 42.218474
34.650000 87.359375 42.218478
34.700000 86.515625 42.218480
34.825000 85.031250 42.218485
34.525000 84.046875 42.218487
34.200000 82.515625 42.218492
34.425000 81.593750 42.218494
34.775000 80.484375 42.218497
35.200000 79.531250 42.218500
35.400000 78.156250 42.218504
35.525000 76.984375 42.218507
35.800000 75.906250 42.218510
36.250000 74.625000 42.218513
34.375000 89.640625 42.376778
34.300000 88.453125 42.376782
34.625000 87.453125 42.376784
34.675000 86.187500 42.376788
34.475000 85.000000 42.376791
34.350000 83.781250 42.376795
34.325000 82.390625 42.376798
34.400000 81.859375 42.376800
34.875000 80.625000 42.376803
35.175000 79.359375 42.376807
35.275000 78.281250 42.376810
35.475000 76.937500 42.376814
35.650000 75.812500 42.376817
36.150000 74.953125 42.376819
34.500000 89.265625 42.527974
34.350000 88.546875 42.527976
34.550000 87.562500 42.527978
34.625000 86.421875 42.527982
34.575000 84.812500 42.527986
34.600000 83.468750 42.527990
34.625000 82.750000 42.527992
34.650000 81.406250 42.527996
34.825000 80.562500 42.527998
34.950000 79.312500 42.528001
35.175000 78.062500 42.528005
35.425000 76.890625 42.528008
35.675000 75.734375 42.528011
36.150000 74.671875 42.528014
34.650000 88.953125 42.687110
34.500000 88.078125 42.687113
34.550000 87.078125 42.687115
34.600000 85.765625 42.687119
34.600000 84.484375 42.687123
34.600000 83.453125 42.687125
34.625000 82.125000 42.687129
34.800000 81.312500 42.687131
34.850000 79.875000 42.687135
34.975000 78.843750 42.687138
35.225000 77.546875 42.687142
35.425000 76.656250 42.687144
35.725000 74.968750 42.687149
34.525000 88.937500 42.840454
34.400000 87.812500 42.840457
34.525000 86.609375 42.840460
34.550000 85.453125 42.840463
34.575000 83.953125 42.840467
34.600000 82.937500 42.840470
34.800000 82.093750 42.840473
34.800000 80.875000 42.840476
34.725000 79.312500 42.840480
34.950000 78.671875 42.840482
35.200000 77.421875 42.840486
35.450000 76.359375 42.840489
35.750000 74.812500 42.840493
34.475000 89.875000 42.980556
34.350000 88.671875 42.980559
34.525000 87.609375 42.980562
34.600000 86.453125 42.980565
34.575000 84.640625 42.980570
34.600000 83.750000 42.980573
34.700000 82.546875 42.980576
34.700000 81.437500 42.980579
34.675000 80.015625 42.980583
34.750000 79.281250 42.980585
35.075000 78.140625 42.980588
35.400000 76.671875 42.980592
35.525000 75.359375 42.980596
35.925000 74.671875 42.980598
34.425000 89.078125 43.134929
34.300000 87.968750 43.134932
34.475000 86.796875 43.134935
34.525000 85.437500 43.134939
34.575000 84.328125 43.134942
34.625000 82.906250 43.134946
34.825000 82.375000 43.134948
34.875000 80.796875 43.134952
34.775000 79.718750 43.134955
34.900000 78.843750 43.134957
35.150000 77.437500 43.134961
35.375000 75.984375 43.134965
35.625000 75.156250 43.134968
34.550000 89.656250 43.290339
34.375000 88.718750 43.290341
34.550000 87.421875 43.290345
34.575000 86.265625 43.290348
34.550000 85.328125 43.290351
34.575000 83.859375 43.290355
34.675000 82.484375 43.290359
34.625000 81.671875 43.290361
34.600000 80.296875 43.290365
34.750000 79.234375 43.290368
35.000000 77.750000 43.290372
35.250000 77.046875 43.290374
35.450000 75.812500 43.290377
35.900000 74.703125 43.290380
34.400000 89.328125 43.459695
34.325000 88.156250 43.459698
34.500000 86.625000 43.459702
34.550000 85.515625 43.459706
34.575000 84.671875 43.459708
34.625000 83.015625 43.459713
34.850000 81.812500 43.459716
34.875000 81.031250 43.459718
34.750000 79.390625 43.459723
34.900000 78.828125 43.459724
35.125000 77.671875 43.459727
35.350000 76.359375 43.459731
35.625000 75.343750 43.459734
34.300000 88.671875 43.600294
34.600000 87.640625 43.600296
34.625000 86.250000 43.600300
34.625000 85.296875 43.600303
34.650000 83.671875 43.600307
34.725000 82.562500 43.600311
34.775000 81.484375 43.600314
34.700000 80.562500 43.600316
34.775000 79.359375 43.600320
35.000000 78.078125 43.600323
35.225000 77.140625 43.600326
35.425000 75.859375 43.600329
35.800000 74.875000 43.600332
34.525000 86.781250 43.761024
34.575000 85.437500 43.761028
34.600000 84.390625 43.761031
34.650000 83.140625 43.761035
34.950000 81.953125 43.761038
34.975000 80.796875 43.761041
34.750000 79.750000 43.761044
34.900000 78.750000 43.761047
35.150000 77.265625 43.761051
35.375000 76.265625 43.761054
35.625000 75.359375 43.761056
34.550000 86.250000 43.911736
34.625000 85.546875 43.911738
34.725000 84.078125 43.911742
34.800000 83.218750 43.911744
34.900000 82.046875 43.911747
34.875000 80.390625 43.911752
34.825000 79.656250 43.911754
34.975000 78.343750 43.911758
35.200000 77.437500 43.911760
35.450000 76.203125 43.911763
35.725000 74.859375 43.911767
34.650000 88.875000 44.065213
34.425000 87.953125 44.065216
34.625000 86.546875 44.065219
34.600000 85.875000 44.065221
34.700000 84.437500 44.065225
34.800000 83.578125 44.065228
35.050000 82.156250 44.065232
35.000000 81.000000 44.065235
34.775000 79.703125 44.065238
34.900000 78.406250 44.065242
35.125000 77.656250 44.065244
35.350000 76.343750 44.065248
35.625000 75.421875 44.065250
34.700000 86.484375 44.221009
34.725000 85.625000 44.221011
34.750000 84.218750 44.221015
34.775000 83.281250 44.221017
35.000000 81.796875 44.221021
34.950000 80.953125 44.221024
34.800000 79.296875 44.221028
34.950000 78.515625 44.221031
35.175000 77.515625 44.221033
35.400000 75.906250 44.221038
35.650000 75.031250 44.221040
34.700000 86.890625 44.381904
34.725000 85.750000 44.381907
34.750000 84.046875 44.381912
34.775000 82.937500 44.381915
35.000000 81.718750 44.381919
34.975000 80.968750 44.381921
34.900000 79.734375 44.381924
35.050000 78.484375 44.381928
35.200000 77.328125 44.381931
35.425000 76.156250 44.381934
35.750000 74.890625 44.381938
34.750000 86.718750 44.530411
34.750000 85.281250 44.530415
34.800000 84.109375 44.530418
34.850000 83.015625 44.530421
34.925000 81.984375 44.530424
35.025000 80.828125 44.530427
34.950000 79.437500 44.530431
35.050000 78.140625 44.530435
35.300000 77.375000 44.530437
35.500000 75.953125 44.530441
35.850000 75.078125 44.530443
34.875000 89.796875 44.690220
34.550000 88.281250 44.690224
34.725000 87.343750 44.690227
34.725000 85.843750 44.690231
34.775000 84.953125 44.690234
34.875000 83.656250 44.690237
35.000000 82.578125 44.690240
34.900000 81.125000 44.690244
34.800000 79.875000 44.690248
35.000000 78.828125 44.690251
35.300000 77.984375 44.690253
35.500000 76.937500 44.690256
35.675000 75.781250 44.690259
36.225000 74.265625 44.690263
34.875000 89.265625 44.839762
34.675000 87.687500 44.839767
34.700000 86.593750 44.839769
34.800000 85.859375 44.839772
34.825000 84.531250 44.839775
34.875000 83.312500 44.839779
35.100000 82.453125 44.839781
35.075000 81.062500 44.839785
34.925000 79.531250 44.839789
35.050000 78.437500 44.839792
35.300000 77.796875 44.839794
35.575000 76.453125 44.839798
35.775000 75.421875 44.839801
34.750000 88.640625 45.001708
34.625000 87.328125 45.001712
34.725000 86.390625 45.001714
34.850000 85.531250 45.001717
34.900000 83.843750 45.001721
34.925000 82.859375 45.001724
35.200000 82.015625 45.001726
35.150000 80.468750 45.001731
35.075000 79.375000 45.001734
35.350000 78.218750 45.001737
35.525000 77.343750 45.001739
35.725000 75.875000 45.001743
36.075000 74.812500 45.001746
34.900000 89.078125 45.151734
34.750000 88.046875 45.151737
34.800000 86.875000 45.151741
34.850000 86.093750 45.151743
34.925000 84.796875 45.151746
34.975000 83.296875 45.151751
35.025000 82.062500 45.151754
35.175000 81.343750 45.151756
35.200000 79.687500 45.151761
35.300000 78.531250 45.151764
35.475000 77.484375 45.151767
35.675000 76.640625 45.151769
35.975000 75.515625 45.151772
34.650000 88.218750 45.313622
34.750000 87.562500 45.313624
34.875000 86.281250 45.313627
35.025000 85.171875 45.313631
35.025000 84.187500 45.313633
35.050000 82.593750 45.313638
35.175000 81.328125 45.313641
35.175000 80.468750 45.313644
35.275000 79.484375 45.313646
35.525000 77.843750 45.313651
35.700000 76.968750 45.313653
35.950000 75.718750 45.313657
36.500000 74.875000 45.313659
34.900000 89.578125 45.461544
34.750000 87.796875 45.461549
34.875000 87.015625 45.461551
35.025000 85.828125 45.461554
35.025000 84.562500 45.461558
35.025000 83.171875 45.461561
35.025000 82.078125 45.461565
35.100000 80.781250 45.461568
35.275000 79.609375 45.461571
35.375000 78.718750 45.461574
35.600000 77.375000 45.461578
35.850000 76.687500 45.461580
36.150000 75.218750 45.461584
35.025000 86.234375 45.625038
35.100000 85.250000 45.625041
35.450000 84.328125 45.625044
35.325000 82.687500 45.625048
34.950000 81.843750 45.625051
35.250000 80.390625 45.625055
35.500000 79.250000 45.625058
35.600000 78.218750 45.625061
35.800000 77.078125 45.625064
36.025000 75.968750 45.625067
36.400000 74.609375 45.625071
35.075000 89.015625 45.773093
34.975000 87.687500 45.773096
35.050000 87.093750 45.773098
35.150000 85.593750 45.773102
35.450000 84.671875 45.773105
35.250000 83.265625 45.773108
34.875000 82.312500 45.773111
35.100000 80.718750 45.773116
35.575000 80.093750 45.773117
35.825000 78.437500 45.773122
35.850000 77.640625 45.773124
35.950000 76.093750 45.773129
36.250000 75.062500 45.773131
35.025000 86.281250 45.930050
34.950000 82.906250 45.930060
34.925000 81.546875 45.930063
35.250000 80.328125 45.930067
35.800000 79.500000 45.930069
36.000000 78.109375 45.930073
35.950000 77.187500 45.930076
36.075000 75.765625 45.930080
36.550000 74.703125 45.930083
34.875000 89.234375 46.086646
34.900000 88.328125 46.086649
35.150000 87.453125 46.086651
35.250000 86.265625 46.086654
35.375000 84.812500 46.086658
35.050000 83.546875 46.086662
34.750000 82.375000 46.086665
35.000000 81.156250 46.086669
35.500000 80.406250 46.086671
35.900000 78.859375 46.086675
35.975000 77.937500 46.086678
36.050000 76.390625 46.086682
36.300000 75.265625 46.086685
34.875000 89.375000 46.240248
34.950000 88.484375 46.240250
35.175000 87.281250 46.240254
35.250000 86.140625 46.240257
35.375000 84.734375 46.240261
35.075000 83.593750 46.240264
34.800000 82.687500 46.240267
35.025000 81.656250 46.240269
35.550000 80.062500 46.240274
36.250000 79.078125 46.240277
36.325000 77.812500 46.240280
36.150000 76.562500 46.240283
36.350000 75.640625 46.240286
35.250000 89.531250 46.395768
35.125000 88.546875 46.395771
35.175000 86.921875 46.395776
35.000000 83.390625 46.395785
34.925000 82.484375 46.395788
35.175000 81.328125 46.395791
35.600000 79.953125 46.395795
36.300000 78.921875 46.395798
36.400000 77.781250 46.395801
36.175000 76.890625 46.395803
36.500000 75.703125 46.395807
35.275000 89.031250 46.552046
35.125000 87.906250 46.552049
35.325000 86.750000 46.552052
34.625000 84.500000 46.552059
35.025000 83.328125 46.552062
35.125000 82.218750 46.552065
36.600000 77.250000 46.552079
36.375000 76.031250 46.552082
36.675000 75.250000 46.552084
35.275000 88.937500 46.706762
35.125000 87.859375 46.706765
35.325000 86.656250 46.706769
34.650000 84.406250 46.706775
35.050000 83.203125 46.706778
35.325000 82.281250 46.706781
35.700000 81.171875 46.706784
36.225000 79.890625 46.706787
36.750000 78.812500 46.706790
36.625000 77.687500 46.706793
36.425000 76.562500 46.706796
36.725000 75.390625 46.706800
35.525000 88.734375 46.862871
35.200000 87.484375 46.862875
35.400000 86.687500 46.862877
35.125000 85.437500 46.862881
34.900000 83.968750 46.862885
35.150000 82.859375 46.862888
35.650000 81.734375 46.862891
36.025000 80.593750 46.862894
36.500000 79.906250 46.862896
36.900000 78.390625 46.862900
36.650000 77.343750 46.862903
36.500000 76.328125 46.862906
36.825000 75.187500 46.862909
35.300000 87.484375 47.016835
35.400000 86.531250 47.016838
35.300000 85.343750 47.016841
35.100000 84.406250 47.016844
35.200000 82.937500 47.016848
35.775000 82.000000 47.016850
36.225000 80.937500 47.016853
36.600000 79.703125 47.016857
36.900000 78.718750 47.016860
36.725000 77.250000 47.016864
36.600000 76.250000 47.016866
36.850000 75.125000 47.016870
35.300000 88.687500 47.170790
35.325000 88.031250 47.170792
35.500000 86.671875 47.170795
35.525000 85.375000 47.170799
35.275000 84.218750 47.170802
35.275000 83.234375 47.170805
35.850000 81.875000 47.170809
36.225000 80.500000 47.170812
36.700000 79.734375 47.170815
37.000000 78.656250 47.170818
36.700000 76.953125 47.170822
36.600000 76.171875 47.170825
37.000000 75.062500 47.170828
35.525000 89.031250 47.318191
35.325000 87.796875 47.318194
35.550000 86.921875 47.318197
35.250000 85.859375 47.318200
35.000000 84.656250 47.318203
35.275000 83.281250 47.318207
35.675000 82.140625 47.318210
36.100000 80.843750 47.318213
36.725000 80.171875 47.318215
37.025000 78.953125 47.318219
36.775000 77.484375 47.318223
36.650000 76.500000 47.318226
36.850000 74.906250 47.318230
35.375000 89.406250 47.482331
35.400000 88.718750 47.482333
35.575000 87.468750 47.482336
35.425000 83.593750 47.482347
35.800000 80.328125 47.482356
36.675000 79.437500 47.482358
36.825000 78.109375 47.482362
36.750000 76.546875 47.482366
36.900000 75.796875 47.482368
35.625000 89.031250 47.631011
35.375000 87.812500 47.631014
35.625000 86.953125 47.631016
35.500000 85.390625 47.631021
35.200000 84.609375 47.631023
35.300000 83.328125 47.631027
35.825000 81.812500 47.631031
36.275000 81.015625 47.631033
36.775000 80.015625 47.631036
36.900000 78.781250 47.631039
36.700000 77.703125 47.631042
36.875000 76.078125 47.631047
37.125000 75.203125 47.631049
35.350000 89.453125 47.793574
35.400000 88.312500 47.793577
35.600000 87.609375 47.793579
35.425000 83.562500 47.793590
36.775000 79.515625 47.793601
36.825000 78.000000 47.793606
36.750000 77.156250 47.793608
36.900000 75.796875 47.793612
35.850000 89.203125 47.943706
35.500000 87.656250 47.943710
35.650000 86.859375 47.943712
35.675000 85.281250 47.943717
35.475000 84.609375 47.943719
35.400000 83.296875 47.943722
35.825000 81.968750 47.943726
36.400000 80.843750 47.943729
36.900000 80.000000 47.943731
36.900000 78.421875 47.943736
36.700000 77.484375 47.943738
36.825000 76.500000 47.943741
37.075000 75.140625 47.943745
35.475000 89.812500 48.106834
35.600000 88.406250 48.106838
35.675000 87.593750 48.106840
35.500000 83.625000 48.106851
36.925000 79.375000 48.106863
36.825000 78.140625 48.106867
36.700000 77.125000 48.106869
37.000000 75.843750 48.106873
35.500000 89.578125 48.253033
35.550000 88.328125 48.253036
35.700000 87.593750 48.253039
35.575000 83.671875 48.253049
36.850000 79.078125 48.253062
36.750000 77.843750 48.253066
36.700000 77.046875 48.253068
36.975000 75.859375 48.253071
35.850000 89.109375 48.416464
35.575000 88.000000 48.416467
35.800000 86.750000 48.416470
35.825000 85.750000 48.416473
35.550000 84.375000 48.416477
35.375000 83.000000 48.416481
35.675000 82.156250 48.416483
36.325000 81.093750 48.416486
36.850000 80.125000 48.416489
36.800000 78.546875 48.416493
36.650000 77.328125 48.416496
36.775000 76.203125 48.416499
37.125000 75.015625 48.416503
35.875000 88.875000 48.566543
35.600000 88.265625 48.566545
35.800000 86.546875 48.566550
35.975000 85.500000 48.566552
35.725000 84.625000 48.566555
35.375000 83.109375 48.566559
35.675000 82.140625 48.566562
36.300000 81.125000 48.566565
36.825000 79.937500 48.566568
36.775000 78.781250 48.566571
36.625000 77.250000 48.566575
36.725000 76.187500 48.566578
37.100000 75.234375 48.566581
35.875000 88.984375 48.714661
35.575000 87.859375 48.714664
35.800000 86.765625 48.714667
35.975000 85.515625 48.714670
35.725000 84.734375 48.714672
35.475000 83.562500 48.714676
36.750000 78.671875 48.714689
36.575000 77.484375 48.714693
36.725000 76.390625 48.714695
37.100000 75.031250 48.714699
35.700000 87.921875 48.876108
35.850000 86.531250 48.876112
35.975000 85.718750 48.876114
35.825000 84.671875 48.876117
35.575000 83.515625 48.876120
35.750000 82.328125 48.876123
36.300000 80.765625 48.876127
36.800000 80.015625 48.876130
36.700000 78.812500 48.876133
36.525000 77.406250 48.876137
36.725000 76.484375 48.876139
37.100000 75.343750 48.876143
36.000000 89.968750 49.023382
35.975000 88.468750 49.023387
35.825000 87.171875 49.023390
35.850000 86.046875 49.023393
36.150000 85.046875 49.023396
36.000000 83.640625 49.023400
35.775000 82.781250 49.023402
36.250000 81.593750 49.023406
36.775000 80.312500 49.023409
36.725000 79.218750 49.023412
36.550000 77.843750 49.023416
36.700000 77.156250 49.023418
36.975000 75.656250 49.023422
35.750000 88.812500 49.186533
35.700000 88.031250 49.186535
35.850000 86.687500 49.186538
35.950000 85.703125 49.186541
35.950000 84.687500 49.186544
35.675000 83.203125 49.186548
35.900000 82.328125 49.186551
36.575000 80.781250 49.186555
36.950000 79.640625 49.186558
36.750000 78.828125 49.186560
36.525000 77.531250 49.186564
36.725000 76.406250 49.186567
37.175000 75.390625 49.186570
35.700000 90.093750 49.335939
35.725000 88.796875 49.335943
35.850000 87.640625 49.335946
35.900000 86.656250 49.335949
36.000000 85.421875 49.335952
36.025000 84.265625 49.335955
35.925000 82.734375 49.335959
36.275000 81.875000 49.335962
36.775000 80.640625 49.335965
36.625000 79.562500 49.335968
36.375000 78.046875 49.335973
36.525000 76.953125 49.335976
36.850000 75.953125 49.335978
37.500000 74.984375 49.335981
35.875000 87.046875 49.490472
35.925000 85.781250 49.490475
36.025000 84.718750 49.490478
36.050000 83.875000 49.490481
36.100000 82.656250 49.490484
36.450000 81.437500 49.490487
36.800000 80.046875 49.490491
36.625000 78.640625 49.490495
36.400000 77.734375 49.490498
36.575000 76.328125 49.490502
36.975000 75.421875 49.490504
35.900000 89.953125 49.647276
35.700000 88.906250 49.647279
35.825000 87.843750 49.647282
35.900000 86.625000 49.647286
35.975000 85.515625 49.647289
36.000000 84.046875 49.647293
36.050000 82.953125 49.647296
36.375000 81.640625 49.647300
36.725000 80.468750 49.647303
36.600000 79.437500 49.647306
36.350000 78.125000 49.647309
36.375000 76.890625 49.647313
36.725000 75.781250 49.647316
37.350000 74.718750 49.647319
36.125000 89.671875 49.802173
35.975000 88.593750 49.802176
35.825000 87.671875 49.802178
35.850000 86.375000 49.802182
35.975000 85.359375 49.802185
35.975000 83.937500 49.802188
36.050000 82.984375 49.802191
36.375000 81.921875 49.802194
36.750000 80.750000 49.802197
36.600000 79.500000 49.802201
36.350000 78.046875 49.802205
36.475000 76.640625 49.802209
35.900000 89.250000 49.959824
35.900000 88.125000 49.959827
35.800000 87.031250 49.959830
35.950000 85.828125 49.959833
35.950000 84.703125 49.959836
35.950000 83.187500 49.959841
36.250000 82.203125 49.959843
36.575000 81.000000 49.959847
36.800000 79.937500 49.959850
36.575000 78.625000 49.959853
36.325000 77.468750 49.959857
36.600000 76.109375 49.959860
37.050000 75.343750 49.959862
36.325000 89.656250 50.114999
36.150000 88.468750 50.115003
35.800000 87.125000 50.115006
35.850000 86.046875 50.115009
35.925000 85.125000 50.115012
35.925000 83.734375 50.115016
36.075000 82.953125 50.115018
36.400000 81.281250 50.115022
36.775000 80.578125 50.115025
36.575000 79.093750 50.115029
36.300000 78.000000 50.115032
36.450000 77.062500 50.115034
36.825000 75.578125 50.115038
35.800000 86.703125 50.270566
35.925000 85.968750 50.270568
35.975000 84.390625 50.270572
35.975000 83.671875 50.270574
36.275000 82.125000 50.270578
36.600000 80.953125 50.270582
36.775000 80.046875 50.270584
36.600000 78.750000 50.270588
36.325000 77.343750 50.270592
36.525000 76.625000 50.270594
36.975000 75.234375 50.270598
35.975000 90.015625 50.426898
35.825000 88.781250 50.426901
35.800000 87.625000 50.426904
35.850000 86.015625 50.426908
35.950000 85.312500 50.426910
35.950000 84.218750 50.426913
36.025000 83.078125 50.426917
36.350000 81.890625 50.426920
36.650000 80.546875 50.426924
36.500000 79.046875 50.426928
36.300000 77.796875 50.426931
36.400000 77.109375 50.426933
35.550000 89.078125 50.568997
35.625000 88.187500 50.569000
35.775000 87.000000 50.569003
35.900000 85.843750 50.569006
35.900000 84.312500 50.569011
35.900000 83.015625 50.569014
36.200000 81.875000 50.569017
36.525000 81.093750 50.569020
36.775000 79.796875 50.569023
36.575000 78.546875 50.569027
36.275000 77.156250 50.569031
36.425000 76.421875 50.569033
36.925000 75.093750 50.569036
35.675000 87.375000 50.737125
35.800000 86.031250 50.737129
35.650000 84.859375 50.737133
35.625000 83.312500 50.737137
35.725000 82.390625 50.737139
36.050000 81.484375 50.737142
36.425000 80.203125 50.737145
36.325000 78.609375 50.737150
36.225000 77.828125 50.737152
36.350000 76.359375 50.737156
36.725000 75.421875 50.737159
35.625000 87.031250 50.892592
35.825000 86.015625 50.892595
35.500000 84.468750 50.892599
35.425000 83.843750 50.892601
36.100000 80.062500 50.892611
36.300000 79.046875 50.892614
36.200000 77.578125 50.892618
36.250000 76.328125 50.892622
36.600000 75.562500 50.892624
35.600000 89.000000 51.048272
35.325000 87.625000 51.048276
35.500000 86.984375 51.048278
35.250000 85.921875 51.048281
34.900000 84.359375 51.048285
36.375000 78.593750 51.048301
36.225000 77.203125 51.048305
36.375000 76.203125 51.048308
36.775000 75.484375 51.048310
35.150000 89.765625 51.192807
35.300000 88.515625 51.192811
35.325000 87.968750 51.192812
35.500000 86.796875 51.192815
35.125000 85.171875 51.192820
34.725000 83.796875 51.192824
35.000000 82.921875 51.192826
35.425000 81.531250 51.192830
36.075000 80.687500 51.192832
36.725000 79.593750 51.192835
36.550000 78.234375 51.192839
36.275000 77.234375 51.192842
36.400000 75.921875 51.192846
36.800000 75.031250 51.192848
35.275000 89.968750 51.344458
35.400000 88.687500 51.344462
35.300000 87.828125 51.344464
35.725000 86.468750 51.344468
34.675000 84.109375 51.344475
35.000000 82.984375 51.344478
36.450000 78.375000 51.344491
36.225000 77.281250 51.344494
36.400000 75.890625 51.344497
36.825000 74.531250 51.344501
35.425000 89.515625 51.507535
35.525000 88.218750 51.507538
34.875000 84.968750 51.507547
34.775000 83.609375 51.507551
35.150000 82.875000 51.507553
35.475000 81.390625 51.507557
35.950000 80.171875 51.507560
36.425000 79.328125 51.507563
36.350000 78.046875 51.507566
36.175000 76.906250 51.507570
36.400000 75.593750 51.507573
36.975000 74.375000 51.507577
35.075000 90.000000 51.655651
35.125000 88.468750 51.655655
35.175000 87.718750 51.655657
35.350000 86.281250 51.655661
34.975000 84.750000 51.655665
34.650000 83.796875 51.655668
34.950000 82.515625 51.655671
35.300000 81.468750 51.655674
35.875000 80.437500 51.655677
36.450000 79.546875 51.655680
36.375000 78.281250 51.655683
36.175000 76.921875 51.655687
36.225000 75.859375 51.655690
36.625000 74.515625 51.655694
35.100000 89.031250 51.818101
34.900000 88.125000 51.818103
34.900000 86.390625 51.818108
34.700000 85.562500 51.818110
34.525000 84.531250 51.818113
34.725000 83.375000 51.818116
35.025000 81.796875 51.818121
