35.825000 78.562500 35.245800
35.775000 77.062500 35.245805
35.950000 75.828125 35.245808
36.350000 75.000000 35.245810
34.775000 89.828125 35.409573
34.725000 88.343750 35.409577
34.975000 87.265625 35.409580
35.075000 86.437500 35.409582
34.975000 84.656250 35.409587
34.675000 83.765625 35.409590
34.625000 82.781250 35.409593
34.825000 81.453125 35.409596
35.300000 80.171875 35.409600
35.800000 78.937500 35.409603
35.925000 78.187500 35.409605
35.925000 77.000000 35.409609
35.100000 89.343750 35.555990
34.975000 87.906250 35.555994
35.100000 87.343750 35.555996
34.875000 83.156250 35.556007
34.650000 82.437500 35.556010
34.875000 81.281250 35.556013
35.475000 80.281250 35.556015
36.025000 78.703125 35.556020
36.075000 77.421875 35.556023
36.050000 76.234375 35.556027
36.325000 75.640625 35.556028
34.950000 88.484375 35.717696
35.025000 87.390625 35.717700
35.200000 86.390625 35.717702
35.200000 85.468750 35.717705
34.875000 83.734375 35.717710
34.775000 83.031250 35.717712
34.950000 81.640625 35.717716
35.575000 78.515625 35.717724
36.125000 77.203125 35.717728
36.300000 76.109375 35.717731
36.825000 74.734375 35.717735
35.200000 89.171875 35.868780
35.125000 88.406250 35.868782
35.250000 87.015625 35.868786
35.025000 83.609375 35.868795
34.850000 82.062500 35.868800
36.625000 78.031250 35.868811
36.375000 76.406250 35.868815
36.550000 75.718750 35.868817
35.350000 89.328125 36.026550
35.200000 88.171875 36.026553
35.300000 87.015625 36.026556
35.025000 85.546875 36.026561
34.975000 84.656250 36.026563
35.150000 83.453125 36.026566
35.200000 82.250000 36.026570
36.575000 77.578125 36.026582
36.450000 76.687500 36.026585
36.725000 75.203125 36.026589
35.425000 86.562500 36.177236
35.450000 85.234375 36.177239
35.200000 83.812500 36.177243
35.150000 82.734375 36.177246
35.700000 81.578125 36.177250
36.075000 80.781250 36.177252
36.575000 79.390625 36.177256
36.875000 78.281250 36.177259
36.600000 76.906250 36.177263
36.575000 76.046875 36.177265
37.100000 74.671875 36.177269
35.550000 88.250000 36.338030
35.425000 87.546875 36.338032
35.500000 86.234375 36.338036
35.975000 85.109375 36.338039
36.800000 79.203125 36.338055
36.850000 77.984375 36.338059
36.675000 76.906250 36.338062
35.525000 89.281250 36.489770
35.300000 87.656250 36.489775
35.525000 86.625000 36.489778
35.225000 85.703125 36.489780
34.975000 84.265625 36.489784
35.225000 83.296875 36.489787
35.650000 82.328125 36.489790
36.075000 81.078125 36.489793
36.650000 79.609375 36.489797
36.950000 78.687500 36.489800
36.750000 77.656250 36.489803
36.700000 76.578125 36.489806
36.975000 75.421875 36.489809
35.675000 88.796875 36.649399
35.400000 87.953125 36.649401
35.575000 86.562500 36.649405
35.450000 85.671875 36.649407
35.175000 84.265625 36.649411
35.275000 82.843750 36.649415
35.800000 81.921875 36.649418
36.225000 80.968750 36.649420
36.700000 79.734375 36.649424
36.950000 78.312500 36.649428
36.825000 77.156250 36.649431
36.775000 76.140625 36.649434
37.025000 75.187500 36.649436
35.575000 89.546875 36.799102
35.550000 88.515625 36.799105
35.625000 87.093750 36.799109
35.550000 85.828125 36.799113
35.475000 84.843750 36.799115
35.450000 83.750000 36.799119
35.550000 82.125000 36.799123
35.975000 80.984375 36.799126
36.650000 80.296875 36.799128
36.950000 79.093750 36.799131
36.850000 77.937500 36.799134
36.875000 76.390625 36.799139
37.000000 75.531250 36.799141
35.700000 86.578125 36.958248
35.925000 85.203125 36.958252
35.625000 83.968750 36.958256
35.400000 82.656250 36.958259
35.950000 81.671875 36.958262
36.525000 80.484375 36.958265
36.925000 79.484375 36.958268
36.875000 78.328125 36.958271
36.775000 77.156250 36.958274
36.975000 75.843750 36.958278
37.475000 74.828125 36.958281
35.925000 88.765625 37.112213
35.500000 87.546875 37.112217
35.675000 86.843750 37.112219
35.725000 85.765625 37.112222
35.525000 84.328125 37.112226
35.450000 83.234375 37.112229
35.925000 82.140625 37.112232
36.550000 80.937500 37.112235
36.925000 79.984375 37.112238
36.925000 78.812500 37.112241
36.800000 77.125000 37.112246
36.900000 76.296875 37.112248
37.175000 75.234375 37.112251
35.775000 89.437500 37.268236
35.700000 88.046875 37.268240
35.775000 87.218750 37.268243
35.625000 85.812500 37.268247
35.450000 84.531250 37.268250
35.500000 83.703125 37.268252
35.775000 82.406250 37.268256
36.275000 81.437500 37.268259
36.775000 79.953125 37.268263
36.900000 78.656250 37.268266
36.800000 77.421875 37.268270
36.850000 76.734375 37.268272
37.075000 75.156250 37.268276
36.000000 89.734375 37.425141
35.875000 88.328125 37.425145
35.850000 87.187500 37.425148
35.750000 85.734375 37.425152
35.650000 84.906250 37.425154
35.625000 83.734375 37.425158
36.975000 78.984375 37.425171
36.825000 77.812500 37.425174
36.875000 76.609375 37.425178
37.125000 75.718750 37.425180
35.900000 89.500000 37.580971
35.700000 87.968750 37.580975
35.825000 87.218750 37.580977
35.700000 85.921875 37.580981
35.475000 84.531250 37.580985
35.500000 83.234375 37.580988
35.775000 82.500000 37.580990
36.350000 81.140625 37.580994
36.850000 79.921875 37.580997
36.900000 78.546875 37.581001
36.800000 77.859375 37.581003
36.925000 76.625000 37.581007
37.150000 75.078125 37.581011
36.000000 88.390625 37.722417
35.900000 87.671875 37.722419
35.725000 84.078125 37.722429
36.900000 79.312500 37.722442
36.825000 78.343750 37.722445
36.850000 76.765625 37.722449
37.125000 75.937500 37.722451
36.200000 89.609375 37.878788
36.125000 88.437500 37.878792
35.950000 86.937500 37.878796
36.050000 86.015625 37.878798
35.825000 84.875000 37.878801
35.525000 83.750000 37.878805
36.900000 78.921875 37.878818
36.775000 77.531250 37.878822
36.900000 76.234375 37.878825
37.250000 75.562500 37.878827
35.800000 88.515625 38.031301
35.975000 87.843750 38.031303
36.000000 86.187500 38.031308
36.075000 85.375000 38.031310
35.875000 84.265625 38.031313
37.000000 79.640625 38.031326
36.850000 77.984375 38.031331
36.775000 77.312500 38.031333
37.050000 75.781250 38.031337
37.650000 74.859375 38.031339
36.475000 89.359375 38.190160
36.325000 88.390625 38.190163
35.950000 86.859375 38.190167
36.175000 86.062500 38.190169
36.050000 84.500000 38.190174
35.700000 83.437500 38.190176
36.825000 79.093750 38.190189
36.700000 77.656250 38.190193
36.875000 76.656250 38.190195
37.250000 75.421875 38.190199
35.800000 88.484375 38.343302
35.975000 87.781250 38.343305
36.000000 86.531250 38.343308
36.100000 85.156250 38.343312
35.875000 84.062500 38.343315
36.925000 79.359375 38.343328
36.775000 78.015625 38.343332
36.750000 77.328125 38.343333
37.050000 76.203125 38.343337
37.650000 74.765625 38.343341
36.400000 89.484375 38.500176
36.325000 88.281250 38.500179
36.025000 87.171875 38.500182
36.100000 86.296875 38.500185
36.325000 85.265625 38.500187
36.150000 83.718750 38.500192
36.000000 82.578125 38.500195
36.575000 81.687500 38.500197
37.075000 80.640625 38.500200
36.925000 79.031250 38.500205
36.625000 77.875000 38.500208
36.775000 76.562500 38.500211
37.100000 75.515625 38.500214
36.475000 89.484375 38.655909
36.425000 88.281250 38.655912
35.975000 86.937500 38.655916
36.050000 85.875000 38.655919
36.275000 84.812500 38.655922
36.200000 83.406250 38.655926
36.150000 82.765625 38.655927
36.675000 81.656250 38.655931
37.000000 80.171875 38.655935
36.825000 79.015625 38.655938
36.700000 78.000000 38.655941
36.825000 76.828125 38.655944
37.100000 75.656250 38.655947
35.650000 89.140625 38.810770
35.975000 87.906250 38.810773
36.100000 86.921875 38.810776
36.125000 85.343750 38.810780
36.150000 84.312500 38.810783
36.150000 83.140625 38.810786
36.400000 82.093750 38.810789
36.850000 80.687500 38.810793
37.025000 79.921875 38.810795
36.775000 78.312500 38.810800
36.650000 77.203125 38.810803
37.000000 75.937500 38.810806
37.500000 75.203125 38.810808
36.475000 90.000000 38.968282
36.325000 88.562500 38.968286
36.025000 87.156250 38.968290
36.100000 86.343750 38.968292
36.175000 84.859375 38.968297
36.175000 83.812500 38.968299
36.200000 82.406250 38.968303
36.575000 81.531250 38.968306
37.025000 80.421875 38.968309
36.875000 79.296875 38.968312
36.600000 77.921875 38.968316
36.775000 76.843750 38.968319
37.100000 75.578125 38.968322
36.150000 89.406250 39.120957
36.075000 88.031250 39.120961
36.075000 86.796875 39.120965
36.125000 85.843750 39.120967
36.175000 84.640625 39.120970
36.250000 83.406250 39.120974
36.450000 82.062500 39.120978
36.775000 81.125000 39.120980
37.000000 79.687500 39.120984
36.750000 78.750000 39.120987
36.550000 77.578125 39.120990
36.825000 76.281250 39.120994
37.300000 75.062500 39.120997
36.025000 86.812500 39.281548
36.150000 85.656250 39.281551
36.200000 84.750000 39.281554
36.225000 83.625000 39.281557
36.400000 82.312500 39.281560
36.750000 81.156250 39.281564
36.975000 80.125000 39.281567
36.725000 78.687500 39.281571
36.525000 77.765625 39.281573
36.775000 76.515625 39.281577
37.250000 75.421875 39.281580
36.625000 89.531250 39.433078
36.425000 88.515625 39.433081
36.025000 87.109375 39.433084
36.075000 85.906250 39.433088
36.150000 85.093750 39.433090
36.150000 83.578125 39.433095
36.200000 82.531250 39.433097
36.600000 81.375000 39.433100
37.025000 80.156250 39.433104
36.850000 79.156250 39.433107
36.550000 78.125000 39.433110
36.850000 76.890625 39.433113
37.225000 75.703125 39.433116
35.625000 89.218750 39.593160
35.950000 87.937500 39.593164
36.075000 86.828125 39.593167
36.125000 85.796875 39.593170
36.150000 84.453125 39.593173
36.250000 83.421875 39.593176
36.500000 82.062500 39.593180
36.850000 81.031250 39.593183
36.775000 79.656250 39.593187
36.525000 78.718750 39.593189
36.525000 77.562500 39.593193
36.800000 76.187500 39.593196
37.375000 75.000000 39.593199
36.200000 90.015625 39.746013
36.025000 88.781250 39.746016
35.925000 87.437500 39.746020
36.025000 86.515625 39.746022
36.150000 85.312500 39.746026
36.175000 84.234375 39.746029
36.250000 82.906250 39.746032
36.625000 81.953125 39.746035
36.950000 80.453125 39.746039
36.700000 79.218750 39.746043
36.425000 77.875000 39.746047
36.550000 76.734375 39.746050
36.925000 76.109375 39.746052
35.975000 87.078125 39.887846
36.100000 85.765625 39.887849
36.150000 84.546875 39.887853
36.175000 83.625000 39.887855
36.375000 82.640625 39.887858
36.675000 81.281250 39.887862
36.875000 79.968750 39.887866
36.725000 79.046875 39.887868
36.525000 77.406250 39.887872
36.700000 76.546875 39.887875
37.150000 75.421875 39.887878
35.400000 88.750000 40.056586
35.850000 87.687500 40.056589
36.050000 86.718750 40.056592
36.100000 85.640625 40.056595
36.150000 84.421875 40.056598
36.225000 83.250000 40.056601
36.500000 81.890625 40.056605
36.850000 80.843750 40.056608
36.775000 79.796875 40.056611
36.500000 78.187500 40.056615
36.500000 77.562500 40.056617
36.775000 76.359375 40.056620
37.250000 74.781250 40.056625
35.975000 86.859375 40.213287
36.100000 85.812500 40.213290
36.150000 84.703125 40.213293
36.200000 83.109375 40.213297
36.425000 82.171875 40.213300
36.725000 81.031250 40.213303
36.925000 80.046875 40.213306
36.750000 78.750000 40.213309
36.500000 77.312500 40.213313
36.650000 76.562500 40.213315
37.050000 75.171875 40.213319
36.425000 89.828125 40.367024
36.125000 88.375000 40.367028
35.900000 87.500000 40.367031
36.000000 86.265625 40.367034
36.125000 85.031250 40.367038
36.150000 83.687500 40.367041
36.050000 82.781250 40.367044
36.300000 81.546875 40.367047
36.775000 80.468750 40.367050
36.675000 79.390625 40.367053
36.375000 78.046875 40.367057
36.450000 76.703125 40.367061
36.725000 75.859375 40.367063
35.725000 88.781250 40.526124
35.700000 87.859375 40.526127
35.800000 86.875000 40.526129
36.000000 85.468750 40.526134
35.800000 84.468750 40.526136
35.575000 83.421875 40.526139
35.900000 81.828125 40.526144
36.425000 81.156250 40.526145
36.900000 79.953125 40.526149
36.725000 78.703125 40.526152
36.400000 77.156250 40.526156
36.550000 76.359375 40.526159
37.025000 74.937500 40.526163
35.500000 88.953125 40.663169
35.575000 87.921875 40.663172
35.775000 86.640625 40.663175
35.500000 85.578125 40.663178
35.150000 84.546875 40.663181
35.300000 83.328125 40.663184
35.725000 82.265625 40.663187
36.400000 81.062500 40.663191
36.925000 79.656250 40.663194
36.725000 78.671875 40.663197
36.375000 77.484375 40.663201
36.525000 75.953125 40.663205
37.025000 74.906250 40.663208
35.850000 90.125000 40.832465
35.900000 88.296875 40.832470
35.600000 87.156250 40.832473
35.825000 86.296875 40.832475
35.050000 84.093750 40.832482
35.600000 82.843750 40.832485
36.175000 81.500000 40.832489
36.600000 80.281250 40.832492
36.600000 79.187500 40.832495
36.375000 78.046875 40.832498
36.350000 76.921875 40.832501
36.025000 89.562500 40.973840
35.875000 88.296875 40.973844
35.450000 86.906250 40.973848
35.125000 85.718750 40.973851
36.425000 78.578125 40.973871
36.325000 77.500000 40.973874
36.400000 76.718750 40.973876
36.725000 75.515625 40.973879
35.400000 88.812500 41.130772
35.175000 87.671875 41.130775
35.250000 87.078125 41.130777
34.925000 85.281250 41.130782
34.675000 84.562500 41.130784
36.525000 78.921875 41.130799
36.400000 77.703125 41.130803
36.400000 76.484375 41.130806
36.675000 74.984375 41.130810
35.250000 87.687500 41.281715
35.550000 86.187500 41.281719
34.700000 83.859375 41.281726
35.100000 82.609375 41.281729
36.425000 78.078125 41.281742
36.300000 76.921875 41.281745
36.425000 75.750000 41.281748
36.900000 74.546875 41.281752
35.800000 90.140625 41.441210
35.075000 87.859375 41.441216
35.025000 86.859375 41.441219
34.750000 85.484375 41.441222
34.550000 84.125000 41.441226
34.850000 83.234375 41.441229
36.450000 78.765625 41.441241
36.350000 77.171875 41.441246
36.275000 76.281250 41.441248
36.425000 74.828125 41.441252
35.100000 89.281250 41.596429
34.950000 87.968750 41.596433
35.075000 86.875000 41.596436
35.425000 86.140625 41.596438
34.525000 83.140625 41.596447
34.950000 82.015625 41.596450
35.375000 81.296875 41.596452
36.075000 80.015625 41.596455
36.425000 79.078125 41.596458
36.250000 77.359375 41.596462
36.125000 76.390625 41.596465
36.225000 75.000000 41.596469
34.850000 89.484375 41.754040
34.875000 88.546875 41.754042
34.975000 87.750000 41.754044
34.700000 86.109375 41.754049
34.300000 84.953125 41.754052
34.250000 83.562500 41.754056
36.300000 79.406250 41.754067
36.400000 78.250000 41.754071
36.125000 77.031250 41.754074
36.075000 75.984375 41.754077
36.525000 74.796875 41.754080
34.875000 88.406250 41.905607
34.950000 87.593750 41.905609
34.700000 86.093750 41.905613
34.300000 85.218750 41.905615
34.225000 84.171875 41.905618
34.425000 82.937500 41.905622
34.700000 81.593750 41.905626
36.050000 76.921875 41.905638
35.975000 75.578125 41.905642
36.400000 74.671875 41.905645
34.775000 88.015625 42.064425
34.450000 84.031250 42.064436
34.200000 82.968750 42.064439
34.450000 81.843750 42.064442
36.025000 77.437500 42.064454
35.850000 75.734375 42.064459
36.175000 74.671875 42.064462
34.975000 89.578125 42.220641
34.825000 88.156250 42.220645
34.750000 86.906250 42.220648
34.525000 85.546875 42.220652
34.175000 84.828125 42.220654
34.100000 83.156250 42.220659
34.225000 82.312500 42.220661
34.575000 81.296875 42.220664
35.300000 77.812500 42.220674
35.825000 76.640625 42.220677
35.950000 75.515625 42.220680
34.700000 89.765625 42.375946
34.600000 88.546875 42.375949
34.675000 87.140625 42.375953
34.400000 83.843750 42.375962
34.200000 82.875000 42.375965
34.450000 81.718750 42.375968
34.900000 80.562500 42.375971
35.600000 79.234375 42.375975
35.725000 77.875000 42.375979
35.525000 76.578125 42.375982
35.750000 75.515625 42.375985
36.350000 74.609375 42.375988
34.700000 88.546875 42.532250
34.500000 87.906250 42.532252
34.650000 86.843750 42.532255
34.450000 85.546875 42.532259
34.200000 83.984375 42.532263
34.250000 82.750000 42.532266
34.350000 81.468750 42.532270
34.625000 80.625000 42.532272
35.050000 79.468750 42.532275
35.300000 78.375000 42.532278
35.400000 77.125000 42.532282
35.625000 76.312500 42.532284
36.025000 75.156250 42.532287
34.975000 89.109375 42.688043
34.575000 88.000000 42.688046
34.550000 86.796875 42.688050
34.575000 85.546875 42.688053
34.750000 84.468750 42.688056
34.550000 83.078125 42.688060
34.250000 82.156250 42.688063
34.575000 80.890625 42.688066
34.925000 79.984375 42.688069
35.150000 78.562500 42.688073
35.300000 77.640625 42.688075
35.475000 76.468750 42.688078
35.800000 75.171875 42.688082
34.350000 89.671875 42.837976
34.225000 88.593750 42.837979
34.450000 87.703125 42.837982
34.500000 86.359375 42.837986
34.525000 84.984375 42.837989
34.600000 83.562500 42.837993
34.575000 82.828125 42.837995
34.575000 81.531250 42.837999
34.725000 80.203125 42.838003
34.850000 78.875000 42.838006
35.050000 78.078125 42.838009
35.275000 77.093750 42.838011
35.550000 75.593750 42.838016
36.025000 74.531250 42.838018
34.325000 88.796875 42.988023
34.350000 87.828125 42.988025
34.400000 86.531250 42.988029
34.425000 85.343750 42.988032
34.475000 83.875000 42.988036
34.525000 83.109375 42.988038
34.725000 81.906250 42.988042
34.725000 80.781250 42.988045
34.725000 79.453125 42.988049
34.925000 78.203125 42.988052
35.125000 77.140625 42.988055
35.400000 75.812500 42.988059
35.800000 74.812500 42.988061
34.600000 90.250000 43.149238
34.450000 88.828125 43.149242
34.275000 87.843750 43.149245
34.375000 86.484375 43.149249
34.400000 85.531250 43.149251
34.450000 84.468750 43.149254
34.500000 82.812500 43.149259
34.700000 81.921875 43.149261
34.675000 80.500000 43.149265
34.600000 79.796875 43.149267
34.825000 78.406250 43.149271
35.025000 77.078125 43.149275
35.275000 76.250000 43.149277
35.625000 74.921875 43.149281
34.325000 89.546875 43.297344
34.200000 88.218750 43.297347
34.425000 87.265625 43.297350
34.475000 86.062500 43.297354
34.500000 85.234375 43.297356
34.475000 83.734375 43.297360
34.475000 82.921875 43.297362
34.575000 81.437500 43.297366
34.600000 80.421875 43.297369
34.625000 79.000000 43.297373
34.825000 78.078125 43.297376
35.025000 76.890625 43.297379
35.250000 75.625000 43.297382
35.725000 74.796875 43.297385
34.550000 88.906250 43.450231
34.275000 88.203125 43.450233
34.350000 86.906250 43.450237
34.450000 85.812500 43.450240
34.475000 84.687500 43.450243
34.500000 83.328125 43.450247
34.625000 81.937500 43.450251
34.525000 80.921875 43.450253
34.450000 79.625000 43.450257
34.675000 78.625000 43.450260
34.925000 77.750000 43.450262
35.175000 76.531250 43.450266
34.550000 89.937500 43.606163
34.300000 88.703125 43.606166
34.375000 87.203125 43.606170
34.425000 86.437500 43.606173
34.450000 84.843750 43.606177
34.450000 83.500000 43.606181
34.475000 82.781250 43.606183
34.475000 81.187500 43.606187
34.500000 80.046875 43.606190
34.600000 78.921875 43.606194
34.800000 77.781250 43.606197
34.975000 76.906250 43.606199
35.200000 75.875000 43.606202
35.625000 74.515625 43.606206
34.375000 86.890625 43.761017
34.400000 85.531250 43.761021
34.425000 84.859375 43.761023
34.500000 83.656250 43.761026
34.650000 82.062500 43.761031
34.550000 80.828125 43.761034
34.450000 79.781250 43.761037
34.675000 78.750000 43.761040
34.850000 77.375000 43.761044
35.100000 76.687500 43.761046
34.425000 89.515625 43.917082
34.200000 88.828125 43.917084
34.400000 87.171875 43.917089
34.450000 86.406250 43.917091
34.475000 85.234375 43.917094
34.500000 84.093750 43.917098
34.525000 82.578125 43.917102
34.525000 81.765625 43.917104
34.550000 80.375000 43.917108
34.650000 79.468750 43.917110
34.825000 78.375000 43.917113
35.000000 76.859375 43.917118
35.225000 75.718750 43.917121
35.550000 74.812500 43.917123
34.450000 87.015625 44.071959
34.475000 85.218750 44.071964
34.500000 84.265625 44.071966
34.600000 83.265625 44.071969
34.825000 81.921875 44.071973
34.800000 80.500000 44.071977
34.625000 79.750000 44.071979
34.725000 78.281250 44.071983
34.925000 77.015625 44.071986
35.150000 76.000000 44.071989
35.425000 74.765625 44.071993
34.375000 88.031250 44.227763
34.425000 87.296875 44.227765
34.475000 85.875000 44.227769
34.550000 84.656250 44.227772
34.575000 83.734375 44.227775
34.725000 82.421875 44.227779
34.700000 81.156250 44.227782
34.575000 80.046875 44.227785
34.725000 78.640625 44.227789
34.875000 77.968750 44.227791
35.050000 76.781250 44.227794
35.325000 75.421875 44.227798
35.775000 74.406250 44.227801
34.400000 86.296875 44.382863
34.450000 85.218750 44.382866
34.475000 84.406250 44.382868
34.600000 83.015625 44.382872
34.850000 82.031250 44.382875
34.825000 80.906250 44.382878
34.675000 79.609375 44.382881
34.800000 78.234375 44.382885
35.025000 77.296875 44.382888
35.300000 76.296875 44.382890
35.625000 74.796875 44.382895
34.425000 87.046875 44.535587
34.500000 86.000000 44.535590
34.575000 84.937500 44.535593
34.575000 83.703125 44.535596
34.750000 82.406250 44.535600
34.700000 81.031250 44.535604
34.600000 80.046875 44.535606
34.775000 79.000000 44.535609
34.975000 77.656250 44.535613
35.225000 76.484375 44.535616
35.400000 75.109375 44.535620
35.900000 74.593750 44.535621
34.425000 87.281250 44.695517
34.500000 85.921875 44.695521
34.575000 84.890625 44.695524
34.600000 83.796875 44.695527
34.775000 82.296875 44.695531
34.700000 81.093750 44.695534
34.600000 79.937500 44.695538
34.775000 78.734375 44.695541
34.975000 77.796875 44.695544
35.225000 76.703125 44.695547
35.475000 75.593750 44.695550
35.975000 74.468750 44.695553
34.600000 88.406250 44.843957
34.425000 87.796875 44.843959
34.575000 86.687500 44.843962
34.625000 85.515625 44.843965
34.650000 83.812500 44.843970
34.725000 83.203125 44.843972
34.825000 81.703125 44.843976
34.750000 80.375000 44.843980
34.725000 79.343750 44.843982
34.925000 77.984375 44.843986
35.175000 76.796875 44.843990
35.425000 75.781250 44.843992
35.775000 74.687500 44.843995
34.675000 88.906250 45.006476
34.500000 87.921875 45.006479
34.550000 87.078125 45.006481
34.625000 85.453125 45.006486
34.675000 84.843750 45.006488
34.725000 83.171875 45.006492
34.900000 82.156250 45.006495
34.825000 80.703125 45.006499
34.700000 80.000000 45.006501
34.950000 78.796875 45.006504
35.225000 77.703125 45.006507
35.425000 76.250000 45.006511
35.650000 75.453125 45.006514
34.475000 89.625000 45.159086
34.375000 88.234375 45.159090
34.525000 87.187500 45.159093
34.575000 85.796875 45.159097
34.700000 84.937500 45.159100
34.750000 83.406250 45.159104
34.850000 82.281250 45.159107
34.975000 81.203125 45.159110
34.925000 80.234375 45.159113
34.925000 79.093750 45.159116
35.175000 77.515625 45.159120
35.400000 76.421875 45.159123
35.700000 75.296875 45.159126
36.300000 74.250000 45.159129
34.600000 90.062500 45.307736
34.600000 89.015625 45.307739
34.450000 87.796875 45.307743
34.625000 86.265625 45.307747
34.750000 85.578125 45.307749
34.800000 84.156250 45.307753
34.850000 83.296875 45.307755
34.950000 81.812500 45.307759
34.875000 80.406250 45.307763
34.875000 79.718750 45.307765
35.225000 78.500000 45.307769
35.425000 77.093750 45.307772
35.625000 76.078125 45.307775
35.975000 74.921875 45.307778
34.600000 89.265625 45.469392
34.400000 87.968750 45.469395
34.625000 87.437500 45.469397
34.700000 86.218750 45.469400
34.725000 84.609375 45.469405
34.825000 83.375000 45.469408
34.875000 82.562500 45.469410
34.950000 81.593750 45.469413
34.925000 80.015625 45.469418
35.050000 78.859375 45.469421
35.400000 78.046875 45.469423
35.625000 76.531250 45.469427
34.800000 86.812500 45.621301
34.900000 85.250000 45.621305
34.925000 84.296875 45.621308
34.775000 82.906250 45.621311
34.725000 82.140625 45.621314
35.025000 80.859375 45.621317
35.250000 79.546875 45.621321
35.375000 78.203125 45.621325
35.575000 77.609375 45.621326
35.825000 75.937500 45.621331
36.125000 74.859375 45.621334
34.675000 89.640625 45.778559
34.550000 88.609375 45.778562
34.850000 87.015625 45.778566
34.925000 85.734375 45.778570
34.750000 84.750000 45.778573
34.550000 83.781250 45.778575
34.675000 82.625000 45.778579
34.875000 81.234375 45.778583
35.350000 80.406250 45.778585
35.600000 78.734375 45.778589
35.525000 78.109375 45.778591
35.700000 76.734375 45.778595
36.000000 75.468750 45.778599
34.625000 88.718750 45.932193
34.750000 87.890625 45.932195
34.975000 86.781250 45.932198
34.850000 83.031250 45.932208
34.725000 81.671875 45.932212
35.000000 80.609375 45.932215
35.625000 79.375000 45.932219
35.900000 78.421875 45.932221
35.825000 77.078125 45.932225
35.950000 75.875000 45.932228
36.375000 75.187500 45.932230
35.175000 89.015625 46.089679
34.925000 87.781250 46.089683
35.050000 87.000000 46.089685
34.850000 83.453125 46.089695
34.700000 82.218750 46.089698
35.275000 78.843750 46.089708
35.875000 77.546875 46.089711
36.050000 76.453125 46.089715
36.350000 74.906250 46.089719
35.150000 89.312500 46.239400
34.925000 87.671875 46.239404
35.050000 86.968750 46.239406
34.850000 83.453125 46.239416
34.725000 82.312500 46.239419
35.400000 78.812500 46.239429
35.950000 77.625000 46.239432
36.050000 76.421875 46.239436
36.450000 75.000000 46.239439
35.125000 88.562500 46.403099
35.150000 87.109375 46.403103
35.225000 86.265625 46.403106
35.550000 84.843750 46.403110
34.825000 82.375000 46.403117
35.025000 81.328125 46.403120
35.575000 78.265625 46.403128
36.125000 76.578125 46.403133
36.375000 75.921875 46.403135
35.250000 88.843750 46.549719
35.125000 87.671875 46.549722
35.275000 86.718750 46.549725
34.600000 84.546875 46.549731
34.925000 82.984375 46.549735
35.000000 81.968750 46.549738
36.550000 77.390625 46.549751
36.350000 76.046875 46.549755
36.575000 75.250000 46.549757
35.300000 89.468750 46.713521
35.250000 88.171875 46.713525
35.325000 87.203125 46.713528
35.150000 83.593750 46.713538
34.975000 82.593750 46.713541
36.650000 77.953125 46.713553
36.500000 76.718750 46.713557
36.675000 75.500000 46.713560
35.000000 89.796875 46.863099
35.125000 88.593750 46.863102
35.400000 87.296875 46.863106
35.200000 83.468750 46.863117
36.675000 79.328125 46.863128
36.750000 77.750000 46.863132
36.575000 76.906250 46.863135
36.650000 75.609375 46.863138
35.500000 86.218750 47.023480
35.950000 85.093750 47.023484
36.800000 79.375000 47.023499
36.875000 78.234375 47.023503
36.700000 76.750000 47.023507
36.700000 75.859375 47.023509
35.450000 89.734375 47.173679
35.525000 88.562500 47.173682
35.525000 87.140625 47.173686
35.375000 83.328125 47.173696
36.875000 79.234375 47.173708
36.800000 77.593750 47.173712
36.650000 76.781250 47.173715
36.800000 75.562500 47.173718
35.250000 88.281250 47.333227
35.475000 87.406250 47.333229
35.375000 83.468750 47.333240
36.825000 79.390625 47.333251
36.875000 78.328125 47.333254
36.800000 77.140625 47.333258
36.900000 75.937500 47.333261
35.600000 89.781250 47.488364
35.525000 88.109375 47.488369
35.575000 87.093750 47.488372
35.425000 83.593750 47.488381
36.875000 79.250000 47.488393
36.800000 78.109375 47.488396
36.775000 76.906250 47.488400
36.925000 75.546875 47.488404
35.650000 89.484375 47.628743
35.600000 88.296875 47.628747
35.675000 86.984375 47.628750
35.600000 86.031250 47.628753
35.450000 84.453125 47.628757
35.425000 83.187500 47.628761
35.650000 82.625000 47.628762
36.125000 81.421875 47.628766
36.725000 80.187500 47.628769
37.000000 78.687500 47.628773
36.850000 77.562500 47.628777
36.875000 76.406250 47.628780
37.050000 75.609375 47.628782
35.650000 87.859375 47.785755
35.750000 86.578125 47.785759
35.900000 85.234375 47.785762
35.650000 84.125000 47.785765
35.475000 83.281250 47.785768
35.975000 81.750000 47.785772
36.625000 80.640625 47.785775
37.075000 79.859375 47.785777
36.950000 78.671875 47.785781
36.750000 77.187500 47.785785
36.950000 76.156250 47.785788
37.325000 74.984375 47.785791
35.675000 88.359375 47.940740
35.775000 87.609375 47.940742
35.650000 84.000000 47.940752
36.900000 79.375000 47.940765
36.875000 78.328125 47.940768
36.800000 76.968750 47.940772
37.075000 75.968750 47.940774
35.750000 89.156250 48.096720
35.800000 88.234375 48.096723
35.850000 87.062500 48.096726
35.675000 86.125000 48.096729
35.450000 84.859375 48.096732
35.425000 83.250000 48.096736
35.600000 82.093750 48.096740
36.175000 81.390625 48.096742
36.850000 79.937500 48.096746
37.000000 79.218750 48.096748
36.825000 77.828125 48.096752
36.850000 76.765625 48.096755
37.150000 75.500000 48.096758
35.750000 87.515625 48.256124
35.900000 86.609375 48.256126
36.125000 85.781250 48.256128
35.800000 84.062500 48.256133
35.475000 83.031250 48.256136
35.975000 82.187500 48.256138
36.625000 80.640625 48.256143
37.075000 79.500000 48.256146
36.950000 78.234375 48.256149
36.750000 77.171875 48.256152
36.950000 76.140625 48.256155
37.375000 75.250000 48.256158
35.950000 88.359375 48.412122
35.875000 87.359375 48.412124
35.725000 83.906250 48.412134
36.950000 79.390625 48.412147
36.850000 78.250000 48.412150
36.800000 76.859375 48.412154
37.075000 76.062500 48.412156
36.125000 89.390625 48.573118
36.150000 88.375000 48.573121
35.975000 87.406250 48.573123
36.050000 86.062500 48.573127
35.900000 85.046875 48.573130
35.650000 83.890625 48.573133
35.800000 82.531250 48.573137
36.400000 81.390625 48.573140
36.950000 80.171875 48.573143
37.000000 79.031250 48.573147
36.775000 77.671875 48.573150
36.775000 76.453125 48.573154
37.125000 75.609375 48.573156
36.350000 89.312500 48.718426
36.225000 88.390625 48.718428
36.025000 87.140625 48.718432
36.225000 85.968750 48.718435
36.025000 84.812500 48.718438
35.650000 83.609375 48.718442
36.800000 78.875000 48.718455
36.700000 77.531250 48.718459
36.875000 76.531250 48.718462
37.225000 75.453125 48.718464
36.200000 89.765625 48.870180
36.050000 88.812500 48.870183
35.975000 87.265625 48.870188
36.000000 86.140625 48.870191
36.175000 85.093750 48.870193
35.975000 83.906250 48.870197
35.825000 82.968750 48.870199
36.375000 81.921875 48.870202
36.850000 80.359375 48.870207
36.850000 79.265625 48.870210
36.725000 78.312500 48.870212
36.775000 77.218750 48.870215
37.075000 75.703125 48.870219
35.700000 88.828125 49.030915
35.825000 87.703125 49.030918
35.975000 86.890625 49.030920
36.175000 85.750000 49.030923
35.975000 84.062500 49.030928
35.650000 82.953125 49.030931
35.975000 81.765625 49.030935
36.675000 81.171875 49.030936
37.125000 79.921875 49.030940
36.925000 78.375000 49.030944
36.700000 77.234375 49.030947
36.900000 76.187500 49.030950
37.325000 74.890625 49.030954
36.025000 89.765625 49.181385
36.050000 88.515625 49.181389
35.975000 87.515625 49.181391
36.000000 86.484375 49.181394
36.375000 85.281250 49.181398
36.200000 83.640625 49.181402
35.850000 83.031250 49.181404
36.375000 81.437500 49.181408
36.850000 80.312500 49.181412
36.825000 79.578125 49.181413
36.700000 78.265625 49.181417
36.775000 76.921875 49.181421
37.050000 75.812500 49.181424
36.600000 89.343750 49.341482
36.500000 88.390625 49.341485
36.050000 87.062500 49.341489
36.075000 86.140625 49.341491
36.275000 84.828125 49.341495
36.250000 83.578125 49.341499
36.200000 82.421875 49.341502
36.675000 81.359375 49.341505
36.950000 80.156250 49.341508
36.750000 79.109375 49.341511
36.650000 77.656250 49.341515
36.850000 76.703125 49.341518
37.275000 75.296875 49.341522
36.150000 89.640625 49.493815
35.950000 88.890625 49.493817
36.050000 87.718750 49.493820
36.075000 86.718750 49.493823
36.150000 85.453125 49.493826
36.250000 84.234375 49.493830
36.250000 83.031250 49.493833
36.500000 81.703125 49.493837
36.900000 80.531250 49.493840
36.775000 79.453125 49.493843
36.575000 78.203125 49.493846
36.700000 77.218750 49.493849
36.350000 89.343750 49.653033
36.250000 87.953125 49.653038
36.025000 86.671875 49.653041
36.100000 85.843750 49.653043
36.200000 84.484375 49.653047
36.275000 83.531250 49.653050
36.350000 82.218750 49.653053
36.725000 81.343750 49.653056
37.075000 79.796875 49.653060
36.850000 78.781250 49.653063
36.600000 77.609375 49.653066
36.800000 76.390625 49.653069
37.225000 75.484375 49.653072
36.250000 89.265625 49.804819
36.150000 88.015625 49.804822
36.025000 86.796875 49.804826
36.100000 85.828125 49.804828
36.175000 84.625000 49.804832
36.250000 83.453125 49.804835
36.425000 82.328125 49.804838
36.800000 81.328125 49.804841
37.050000 79.750000 49.804845
36.825000 78.843750 49.804848
36.575000 77.328125 49.804852
36.775000 76.156250 49.804855
37.225000 75.437500 49.804857
36.050000 87.453125 49.966990
36.100000 85.828125 49.966994
36.150000 84.875000 49.966997
36.200000 83.906250 49.967000
36.325000 82.359375 49.967004
36.700000 81.187500 49.967007
36.950000 80.031250 49.967010
36.750000 78.671875 49.967014
36.500000 77.484375 49.967018
36.700000 76.765625 49.967020
37.175000 75.328125 49.967024
35.850000 88.718750 50.119465
36.025000 87.953125 50.119467
36.100000 86.578125 50.119471
36.175000 85.484375 50.119473
36.150000 84.015625 50.119478
36.225000 83.171875 50.119480
36.575000 81.796875 50.119484
36.875000 80.609375 50.119487
36.750000 79.703125 50.119490
36.500000 78.359375 50.119493
36.525000 77.375000 50.119496
36.825000 75.828125 50.119500
37.550000 75.062500 50.119503
36.350000 89.796875 50.276544
36.125000 88.687500 50.276547
35.975000 87.578125 50.276550
36.025000 86.078125 50.276554
36.150000 85.375000 50.276556
36.150000 83.656250 50.276561
36.250000 83.031250 50.276563
36.675000 81.765625 50.276567
36.975000 80.468750 50.276570
36.750000 79.375000 50.276573
36.500000 78.218750 50.276576
36.675000 77.093750 50.276579
37.050000 75.781250 50.276583
36.025000 86.953125 50.426769
36.075000 85.890625 50.426772
36.150000 84.375000 50.426776
36.225000 83.406250 50.426779
36.400000 82.218750 50.426782
36.775000 80.937500 50.426785
37.025000 80.171875 50.426788
36.750000 78.609375 50.426792
36.500000 77.781250 50.426794
36.775000 76.656250 50.426797
37.200000 75.437500 50.426801
35.450000 88.687500 50.586313
35.775000 87.937500 50.586316
36.025000 86.531250 50.586319
36.175000 85.359375 50.586323
36.150000 84.062500 50.586326
36.200000 82.843750 50.586330
36.550000 82.187500 50.586332
36.875000 80.640625 50.586336
36.650000 79.296875 50.586339
36.425000 78.296875 50.586342
36.525000 77.031250 50.586346
36.825000 76.093750 50.586349
37.375000 74.765625 50.586352
36.350000 89.812500 50.738604
36.100000 88.312500 50.738608
35.975000 87.671875 50.738610
36.025000 86.078125 50.738614
36.125000 85.328125 50.738616
36.125000 84.125000 50.738619
36.225000 82.656250 50.738623
36.550000 81.765625 50.738626
36.875000 80.640625 50.738629
36.725000 79.031250 50.738634
36.450000 77.781250 50.738637
36.550000 76.843750 50.738640
36.850000 75.593750 50.738643
36.000000 87.312500 50.893753
36.075000 85.718750 50.893757
36.075000 84.796875 50.893759
36.125000 83.718750 50.893763
36.300000 82.140625 50.893767
36.600000 81.203125 50.893770
36.900000 80.109375 50.893773
36.700000 78.984375 50.893776
36.400000 77.484375 50.893780
36.550000 76.546875 50.893782
37.025000 75.218750 50.893786
35.525000 88.703125 51.049296
35.725000 87.671875 51.049299
35.900000 86.500000 51.049303
36.075000 85.578125 51.049305
36.025000 84.453125 51.049308
35.900000 83.203125 51.049312
36.325000 81.984375 51.049315
36.850000 80.812500 51.049318
36.725000 79.390625 51.049322
36.450000 78.546875 51.049325
36.425000 77.046875 51.049329
36.725000 76.234375 51.049331
37.350000 74.968750 51.049335
35.775000 87.125000 51.204763
35.975000 86.078125 51.204766
35.625000 84.734375 51.204770
35.475000 83.468750 51.204774
36.250000 80.437500 51.204782
36.525000 78.875000 51.204786
36.375000 77.875000 51.204789
36.425000 76.437500 51.204793
36.775000 75.468750 51.204796
35.475000 88.937500 51.347356
35.500000 87.937500 51.347358
35.725000 86.812500 51.347362
35.400000 85.703125 51.347365
35.050000 83.953125 51.347369
35.225000 83.218750 51.347372
35.675000 82.125000 51.347374
36.400000 81.000000 51.347378
36.975000 79.656250 51.347381
36.750000 78.671875 51.347384
36.350000 77.312500 51.347388
36.475000 75.968750 51.347392
37.025000 75.296875 51.347394
35.575000 87.296875 51.501105
35.350000 85.734375 51.501109
36.525000 79.187500 51.501128
36.350000 77.812500 51.501132
36.400000 76.890625 51.501134
36.675000 75.312500 51.501138
35.525000 90.046875 51.656405
35.625000 88.671875 51.656409
35.025000 85.015625 51.656419
34.825000 84.046875 51.656422
35.150000 82.812500 51.656425
35.625000 81.625000 51.656428
36.325000 80.390625 51.656432
36.600000 79.468750 51.656434
36.425000 78.468750 51.656437
36.350000 76.796875 51.656442
35.750000 89.437500 51.812172
35.650000 88.046875 51.812176
35.200000 87.156250 51.812178
34.925000 86.015625 51.812181
36.425000 79.000000 51.812201
36.375000 77.796875 51.812204
36.400000 76.531250 51.812208
36.550000 75.218750 51.812212
35.225000 87.312500 51.970804
35.600000 86.312500 51.970807
34.700000 83.781250 51.970814
35.075000 83.015625 51.970816
35.475000 81.468750 51.970820
36.100000 80.734375 51.970822
36.500000 79.015625 51.970827
36.375000 77.843750 51.970830
36.325000 76.796875 51.970833
35.375000 88.703125 52.123622
35.000000 87.656250 52.123625
34.975000 86.562500 52.123628
34.725000 85.453125 52.123631
34.575000 84.484375 52.123634
34.900000 83.359375 52.123637
35.900000 79.468750 52.123648
36.400000 78.500000 52.123651
36.325000 77.421875 52.123653
36.275000 76.218750 52.123657
36.425000 75.015625 52.123660
35.025000 89.421875 52.284510
34.875000 88.203125 52.284514
35.025000 87.046875 52.284517
35.350000 85.718750 52.284521
34.600000 83.375000 52.284527
35.025000 81.859375 52.284531
35.400000 80.843750 52.284534
36.025000 79.671875 52.284537
36.400000 78.546875 52.284540
36.250000 77.484375 52.284544
36.100000 76.515625 52.284546
36.250000 75.125000 52.284550
35.150000 89.593750 52.433872
35.125000 88.046875 52.433876
34.975000 87.203125 52.433878
34.775000 86.109375 52.433881
34.350000 84.843750 52.433885
34.250000 83.593750 52.433888
34.525000 82.453125 52.433892
36.350000 77.906250 52.433904
36.175000 76.921875 52.433907
36.100000 75.640625 52.433910
35.050000 89.140625 52.596148
34.725000 87.531250 52.596153
34.475000 83.890625 52.596163
34.225000 83.078125 52.596165
34.525000 82.234375 52.596167
36.100000 77.609375 52.596180
35.925000 76.015625 52.596185
36.175000 75.031250 52.596187
34.750000 90.140625 52.746230
34.800000 88.515625 52.746235
34.775000 87.296875 52.746238
34.450000 83.953125 52.746247
34.200000 82.765625 52.746251
34.450000 81.656250 52.746254
36.050000 77.218750 52.746266
35.950000 76.140625 52.746269
36.275000 74.796875 52.746273
34.600000 89.500000 52.903379
34.575000 88.375000 52.903383
34.750000 87.218750 52.903386
34.400000 83.718750 52.903395
34.175000 82.671875 52.903398
34.425000 81.343750 52.903402
35.825000 76.828125 52.903414
35.775000 75.750000 52.903418
36.225000 74.843750 52.903420
34.900000 89.593750 53.053149
34.725000 88.562500 53.053152
34.675000 87.484375 53.053155
34.425000 83.687500 53.053166
34.200000 82.140625 53.053170
34.450000 81.125000 53.053173
34.975000 80.265625 53.053175
35.375000 78.765625 53.053180
35.475000 77.984375 53.053182
35.550000 76.812500 53.053185
34.425000 89.000000 53.218685
34.525000 87.453125 53.218689
34.650000 86.625000 53.218692
34.475000 85.218750 53.218696
34.200000 84.250000 53.218699
34.150000 82.812500 53.218702
34.325000 81.968750 53.218705
34.675000 80.375000 53.218709
35.050000 79.687500 53.218711
35.275000 78.031250 53.218716
35.450000 77.203125 53.218718
35.650000 76.140625 53.218721
36.075000 75.062500 53.218724
34.350000 89.343750 53.364615
34.225000 88.703125 53.364617
34.500000 87.312500 53.364621
34.575000 86.031250 53.364625
34.475000 85.109375 53.364627
34.425000 83.937500 53.364630
34.425000 82.375000 53.364635
34.450000 81.281250 53.364638
34.750000 80.593750 53.364640
35.000000 79.156250 53.364644
35.150000 77.890625 53.364647
35.375000 76.578125 53.364651
35.625000 75.578125 53.364654
36.100000 74.750000 53.364656
34.825000 89.500000 53.524562
34.450000 88.421875 53.524565
34.425000 87.296875 53.524568
34.525000 85.750000 53.524572
34.500000 84.687500 53.524575
34.525000 83.281250 53.524579
34.575000 82.453125 53.524581
34.700000 81.328125 53.524584
34.825000 79.953125 53.524588
34.875000 78.812500 53.524591
35.125000 77.562500 53.524595
35.325000 76.437500 53.524598
34.450000 88.656250 53.673089
34.225000 87.781250 53.673091
34.425000 86.500000 53.673095
34.475000 85.703125 53.673097
34.500000 84.437500 53.673101
34.475000 82.921875 53.673105
34.550000 82.234375 53.673107
34.625000 80.625000 53.673111
34.650000 79.484375 53.673114
34.850000 78.250000 53.673118
35.100000 77.078125 53.673121
35.300000 75.937500 53.673124
35.650000 75.156250 53.673126
34.225000 89.515625 53.829511
34.150000 88.343750 53.829515
34.425000 87.531250 53.829517
34.475000 86.484375 53.829520
34.450000 85.296875 53.829523
34.475000 83.781250 53.829527
34.500000 82.359375 53.829531
34.675000 81.296875 53.829534
34.675000 80.265625 53.829537
34.625000 78.921875 53.829541
34.875000 78.109375 53.829543
35.100000 76.593750 53.829547
35.350000 75.734375 53.829550
35.800000 74.406250 53.829553
34.500000 89.468750 53.985770
34.325000 88.468750 53.985773
34.400000 87.125000 53.985777
34.425000 86.265625 53.985779
34.425000 84.546875 53.985784
34.475000 83.859375 53.985786
34.550000 82.656250 53.985789
34.500000 80.984375 53.985794
34.475000 79.812500 53.985797
34.625000 78.750000 53.985800
34.850000 77.906250 53.985803
35.075000 76.640625 53.985806
35.350000 75.656250 53.985809
35.875000 74.484375 53.985812
34.425000 89.281250 54.146039
34.225000 88.078125 54.146042
34.375000 86.562500 54.146047
34.400000 85.906250 54.146048
34.425000 84.734375 54.146052
34.475000 83.453125 54.146055
34.650000 82.390625 54.146058
34.650000 80.812500 54.146063
34.550000 79.531250 54.146066
34.700000 78.609375 54.146069
34.875000 77.203125 54.146073
35.100000 76.406250 54.146075
35.400000 75.359375 54.146078
34.725000 89.328125 54.299501
34.325000 88.328125 54.299504
34.350000 87.125000 54.299507
34.400000 86.062500 54.299510
34.450000 84.796875 54.299514
34.475000 83.562500 54.299517
34.525000 82.625000 54.299520
34.475000 81.062500 54.299524
34.450000 80.265625 54.299526
34.600000 78.671875 54.299531
34.825000 77.984375 54.299533
35.075000 76.687500 54.299536
35.350000 75.812500 54.299539
35.750000 74.671875 54.299542
34.375000 87.000000 54.459836
34.475000 86.078125 54.459839
34.500000 84.859375 54.459842
34.475000 83.375000 54.459846
34.700000 82.515625 54.459849
34.625000 80.734375 54.459854
34.550000 79.828125 54.459856
34.750000 79.015625 54.459859
34.875000 77.640625 54.459862
35.075000 76.562500 54.459865
34.425000 86.656250 54.598424
34.425000 85.187500 54.598428
34.475000 84.140625 54.598431
34.550000 83.421875 54.598433
34.800000 82.234375 54.598436
34.800000 80.843750 54.598440
34.625000 79.593750 54.598444
34.750000 78.484375 54.598447
34.975000 77.562500 54.598449
35.250000 76.375000 54.598453
35.450000 74.890625 54.598457
34.400000 86.437500 54.765143
34.450000 85.328125 54.765146
34.500000 84.140625 54.765150
34.575000 83.296875 54.765152
34.775000 81.687500 54.765157
34.750000 80.515625 54.765160
34.650000 79.281250 54.765163
34.775000 78.593750 54.765165
34.925000 77.218750 54.765169
35.175000 75.796875 54.765173
35.500000 75.062500 54.765175
34.975000 89.765625 54.907385
34.750000 88.703125 54.907388
34.425000 87.406250 54.907391
34.475000 86.406250 54.907394
34.600000 85.406250 54.907397
34.625000 83.921875 54.907401
34.650000 82.500000 54.907405
34.625000 81.406250 54.907408
34.625000 80.156250 54.907411
34.700000 79.000000 54.907415
34.850000 78.062500 54.907417
35.075000 77.031250 54.907420
35.300000 76.093750 54.907423
35.675000 74.468750 54.907427
34.400000 86.765625 55.063720
34.500000 86.015625 55.063722
34.575000 84.890625 55.063725
34.625000 83.312500 55.063730
34.750000 82.562500 55.063732
34.675000 80.906250 55.063737
34.575000 80.265625 55.063738
34.775000 78.921875 55.063742
34.925000 77.937500 55.063745
35.100000 76.578125 55.063749
35.350000 75.359375 55.063752
35.925000 74.187500 55.063755
34.400000 87.046875 55.218758
34.475000 85.906250 55.218761
34.575000 84.484375 55.218765
34.625000 83.328125 55.218768
34.875000 82.578125 55.218771
34.800000 81.171875 55.218775
34.600000 79.828125 55.218778
34.825000 78.765625 55.218781
35.050000 77.484375 55.218785
35.200000 76.593750 55.218787
34.500000 86.781250 55.375815
34.525000 85.406250 55.375819
34.625000 84.625000 55.375821
34.625000 83.437500 55.375824
34.900000 82.093750 55.375828
34.900000 80.828125 55.375832
34.675000 79.968750 55.375834
34.850000 78.453125 55.375838
35.075000 77.406250 55.375841
35.300000 76.265625 55.375844
35.600000 74.921875 55.375848
34.650000 89.125000 55.533074
34.350000 87.875000 55.533077
34.500000 86.500000 55.533082
34.600000 85.468750 55.533084
34.650000 84.359375 55.533087
34.675000 83.093750 55.533091
34.925000 81.984375 55.533094
34.925000 80.531250 55.533098
34.750000 79.750000 55.533100
34.925000 78.109375 55.533105
35.200000 77.234375 55.533107
35.375000 75.953125 55.533111
35.575000 74.906250 55.533114
34.550000 89.328125 55.685817
34.425000 88.484375 55.685819
34.525000 87.453125 55.685822
34.600000 86.421875 55.685825
34.650000 84.984375 55.685829
34.650000 83.812500 55.685833
34.725000 82.734375 55.685835
34.925000 81.765625 55.685838
34.900000 80.250000 55.685842
34.850000 79.187500 55.685845
35.125000 78.156250 55.685848
35.375000 76.796875 55.685852
35.525000 75.765625 55.685855
35.950000 74.703125 55.685858
34.650000 89.703125 55.844485
34.625000 88.875000 55.844488
34.500000 87.640625 55.844491
34.575000 86.218750 55.844495
34.650000 85.359375 55.844497
34.750000 84.109375 55.844501
34.825000 82.875000 55.844504
35.000000 81.781250 55.844507
34.925000 80.390625 55.844511
34.800000 79.562500 55.844513
35.125000 78.546875 55.844516
35.400000 77.265625 55.844520
35.625000 75.984375 55.844523
35.950000 74.984375 55.844526
34.800000 89.562500 55.996921
34.600000 87.984375 55.996925
34.650000 87.218750 55.996927
34.725000 85.687500 55.996932
34.775000 84.468750 55.996935
34.825000 83.578125 55.996938
34.850000 82.296875 55.996941
35.175000 81.046875 55.996945
35.200000 79.734375 55.996948
35.075000 78.531250 55.996952
35.350000 77.906250 55.996953
35.525000 76.671875 55.996957
35.775000 75.375000 55.996960
34.700000 88.828125 56.157437
34.500000 87.468750 56.157441
34.675000 86.484375 56.157444
34.825000 85.546875 56.157447
34.800000 83.953125 56.157451
34.775000 82.843750 56.157454
34.850000 81.984375 56.157456
35.200000 80.625000 56.157460
35.350000 79.406250 56.157464
35.300000 78.156250 56.157467
35.450000 77.078125 56.157470
35.650000 76.062500 56.157473
35.975000 74.828125 56.157476
34.725000 89.562500 56.311437
34.525000 88.593750 56.311440
34.800000 87.343750 56.311443
34.875000 85.765625 56.311448
34.700000 84.906250 56.311450
34.700000 83.796875 56.311453
34.850000 82.593750 56.311456
34.900000 81.156250 56.311460
35.250000 80.328125 56.311463
35.425000 79.000000 56.311466
35.450000 77.984375 56.311469
35.650000 76.515625 56.311473
35.950000 75.640625 56.311476
34.900000 86.453125 56.468090
35.000000 85.671875 56.468092
35.325000 84.531250 56.468095
35.075000 83.203125 56.468099
34.700000 82.156250 56.468102
35.000000 80.812500 56.468105
35.375000 79.593750 56.468109
35.600000 78.406250 56.468112
35.700000 77.640625 56.468114
35.900000 76.484375 56.468117
36.225000 74.937500 56.468122
34.650000 88.656250 56.609889
34.800000 87.562500 56.609892
35.000000 86.281250 56.609895
34.875000 82.781250 56.609905
34.750000 81.750000 56.609908
35.300000 78.281250 56.609918
35.825000 77.046875 56.609921
36.000000 76.265625 56.609923
36.425000 74.734375 56.609928
35.175000 89.000000 56.765801
34.925000 87.656250 56.765805
35.075000 87.046875 56.765806
34.850000 82.937500 56.765818
34.700000 82.109375 56.765820
35.350000 78.468750 56.765830
35.925000 77.531250 56.765833
36.075000 76.062500 56.765837
36.450000 74.984375 56.765840
34.900000 88.921875 56.921193
34.975000 87.375000 56.921197
35.150000 86.531250 56.921199
34.950000 85.375000 56.921203
34.700000 84.156250 56.921206
34.725000 82.984375 56.921209
34.775000 81.531250 56.921213
36.050000 77.218750 56.921225
36.250000 75.765625 56.921229
36.700000 74.734375 56.921232
35.200000 86.546875 57.077769
35.075000 85.375000 57.077772
34.825000 84.062500 57.077776
34.825000 83.062500 57.077779
35.000000 81.843750 57.077782
36.300000 76.968750 57.077796
