39.100000 75.734375 22.530107
38.700000 89.796875 22.692226
38.475000 88.468750 22.692226
37.950000 87.250000 22.692226
38.050000 85.906250 22.692226
38.125000 84.671875 22.692226
38.175000 83.531250 22.692226
38.400000 82.359375 22.692226
38.250000 81.250000 22.692226
38.050000 80.156250 22.692226
38.300000 78.906250 22.692226
38.450000 77.734375 22.692226
38.800000 76.671875 22.692226
38.000000 90.078125 22.841128
37.900000 88.671875 22.841128
37.825000 87.781250 22.841128
37.925000 86.140625 22.841128
38.050000 84.984375 22.841128
38.150000 83.828125 22.841128
38.250000 82.937500 22.841128
38.275000 79.453125 22.841128
38.375000 77.906250 22.841128
38.700000 77.156250 22.841128
39.175000 75.687500 22.841128
38.050000 89.343750 22.989796
37.825000 87.984375 22.989796
37.950000 86.859375 22.989796
38.150000 86.187500 22.989796
38.150000 84.656250 22.989796
38.075000 83.562500 22.989796
38.375000 82.375000 22.989796
38.550000 81.218750 22.989796
38.450000 79.890625 22.989796
38.400000 78.937500 22.989796
38.450000 77.640625 22.989796
38.800000 76.390625 22.989796
37.975000 89.921875 23.155409
38.000000 88.578125 23.155409
37.850000 87.703125 23.155409
38.050000 86.468750 23.155409
37.900000 85.203125 23.155409
37.750000 84.078125 23.155409
38.475000 80.453125 23.155409
38.750000 79.109375 23.155409
38.475000 78.171875 23.155409
38.700000 76.953125 23.155409
39.300000 75.687500 23.155409
37.475000 90.000000 23.301343
37.675000 88.656250 23.301343
37.875000 87.656250 23.301343
38.200000 86.781250 23.301343
37.975000 85.562500 23.301343
37.875000 84.500000 23.301343
38.475000 80.500000 23.301343
38.600000 79.718750 23.301343
38.550000 78.265625 23.301343
38.600000 77.031250 23.301343
39.075000 76.203125 23.301343
37.675000 88.390625 23.464269
37.925000 87.140625 23.464269
37.675000 85.687500 23.464269
37.450000 84.609375 23.464269
37.675000 83.640625 23.464269
38.125000 82.171875 23.464269
38.625000 81.109375 23.464269
38.950000 79.968750 23.464269
38.800000 78.593750 23.464269
38.625000 77.578125 23.464269
38.925000 76.703125 23.464269
38.000000 89.703125 23.611737
38.050000 88.578125 23.611737
37.700000 87.187500 23.611737
37.500000 86.125000 23.611737
37.325000 85.281250 23.611737
37.575000 84.203125 23.611737
38.350000 80.406250 23.611737
38.800000 79.093750 23.611737
38.750000 78.015625 23.611737
38.825000 77.203125 23.611737
39.325000 75.843750 23.611737
37.350000 90.062500 23.775411
37.650000 89.046875 23.775411
37.875000 87.671875 23.775411
38.325000 86.515625 23.775411
37.550000 84.062500 23.775411
37.700000 82.937500 23.775411
38.075000 81.921875 23.775411
38.875000 80.812500 23.775411
39.050000 79.515625 23.775411
38.875000 78.359375 23.775411
38.900000 77.000000 23.775411
39.225000 76.140625 23.775411
37.550000 89.796875 23.922986
37.800000 88.953125 23.922986
37.875000 87.406250 23.922986
38.325000 86.453125 23.922986
37.650000 84.062500 23.922986
37.850000 83.078125 23.922986
38.125000 81.593750 23.922986
38.900000 80.671875 23.922986
39.125000 79.390625 23.922986
38.925000 78.031250 23.922986
38.875000 77.046875 23.922986
39.200000 75.765625 23.922986
37.675000 89.234375 24.085439
37.675000 88.140625 24.085439
37.750000 86.968750 24.085439
37.500000 86.015625 24.085439
37.350000 84.437500 24.085439
37.700000 83.734375 24.085439
38.125000 82.515625 24.085439
38.450000 81.046875 24.085439
39.100000 79.968750 24.085439
39.200000 78.796875 24.085439
38.900000 77.671875 24.085439
39.025000 76.546875 24.085439
37.800000 89.687500 24.232861
37.900000 88.437500 24.232861
37.850000 87.578125 24.232861
38.175000 86.375000 24.232861
37.550000 83.953125 24.232861
37.875000 82.593750 24.232861
38.425000 79.437500 24.232861
39.000000 77.953125 24.232861
37.925000 89.265625 24.388578
37.675000 88.265625 24.388578
37.675000 87.031250 24.388578
37.400000 85.656250 24.388578
37.375000 84.718750 24.388578
37.425000 83.453125 24.388578
37.850000 81.984375 24.388578
38.550000 78.828125 24.388578
38.875000 77.578125 24.388578
39.025000 76.390625 24.388578
37.875000 89.125000 24.544788
37.875000 87.953125 24.544788
37.525000 86.421875 24.544788
37.150000 85.203125 24.544788
37.300000 84.281250 24.544788
37.775000 83.093750 24.544788
38.125000 81.812500 24.544788
38.500000 78.390625 24.544788
38.900000 77.390625 24.544788
39.250000 76.031250 24.544788
37.925000 89.656250 24.700309
37.825000 88.156250 24.700309
37.600000 84.796875 24.700309
37.325000 83.375000 24.700309
37.625000 82.640625 24.700309
38.200000 81.437500 24.700309
38.975000 80.203125 24.700309
39.200000 78.859375 24.700309
38.950000 77.875000 24.700309
39.050000 76.437500 24.700309
37.925000 88.796875 24.845943
38.000000 87.671875 24.845943
37.975000 86.562500 24.845943
37.600000 84.953125 24.845943
37.375000 84.140625 24.845943
37.600000 82.718750 24.845943
38.000000 81.609375 24.845943
38.775000 80.765625 24.845943
39.125000 79.250000 24.845943
38.950000 78.000000 24.845943
39.025000 77.125000 24.845943
39.575000 75.953125 24.845943
38.200000 89.218750 25.009684
37.850000 88.156250 25.009684
37.625000 84.296875 25.009684
37.400000 83.531250 25.009684
37.725000 82.390625 25.009684
38.200000 80.937500 25.009684
38.600000 79.750000 25.009684
38.850000 78.796875 25.009684
38.900000 77.500000 25.009684
39.200000 76.500000 25.009684
38.425000 89.781250 25.156145
38.050000 88.171875 25.156145
38.000000 87.515625 25.156145
38.100000 86.281250 25.156145
37.675000 84.796875 25.156145
37.375000 83.515625 25.156145
37.650000 82.781250 25.156145
38.075000 81.609375 25.156145
38.525000 80.156250 25.156145
38.725000 79.000000 25.156145
38.850000 77.921875 25.156145
39.075000 76.609375 25.156145
37.975000 88.656250 25.319687
38.000000 87.500000 25.319687
37.700000 86.421875 25.319687
37.275000 85.000000 25.319687
37.350000 83.796875 25.319687
37.650000 82.750000 25.319687
38.100000 81.781250 25.319687
38.575000 80.484375 25.319687
38.775000 79.156250 25.319687
38.850000 78.125000 25.319687
39.075000 77.046875 25.319687
38.000000 87.843750 25.468184
37.775000 86.531250 25.468184
38.000000 85.015625 25.468184
37.975000 84.109375 25.468184
37.600000 82.843750 25.468184
37.975000 81.671875 25.468184
38.500000 80.796875 25.468184
38.750000 79.390625 25.468184
38.800000 78.171875 25.468184
38.175000 88.968750 25.632355
37.925000 87.812500 25.632355
38.050000 86.828125 25.632355
38.150000 85.703125 25.632355
37.875000 84.359375 25.632355
37.600000 83.390625 25.632355
37.925000 82.125000 25.632355
38.375000 81.125000 25.632355
38.525000 79.500000 25.632355
38.675000 78.437500 25.632355
38.950000 77.265625 25.632355
39.275000 76.328125 25.632355
38.025000 89.437500 25.779898
37.925000 88.359375 25.779898
38.000000 86.921875 25.779898
37.900000 85.812500 25.779898
37.825000 84.906250 25.779898
37.875000 83.578125 25.779898
38.000000 82.375000 25.779898
38.275000 81.250000 25.779898
38.500000 79.812500 25.779898
38.725000 79.078125 25.779898
38.875000 77.609375 25.779898
39.200000 76.578125 25.779898
37.650000 88.812500 25.942930
37.900000 87.890625 25.942930
38.000000 86.437500 25.942930
38.075000 85.359375 25.942930
38.025000 84.281250 25.942930
38.000000 83.000000 25.942930
38.250000 81.843750 25.942930
38.475000 80.453125 25.942930
38.575000 79.203125 25.942930
38.800000 78.046875 25.942930
38.975000 77.187500 25.942930
39.550000 75.953125 25.942930
38.050000 89.000000 26.091055
37.825000 88.000000 26.091055
38.000000 87.218750 26.091055
38.075000 85.750000 26.091055
38.125000 84.437500 26.091055
38.125000 83.593750 26.091055
38.250000 82.437500 26.091055
38.425000 80.984375 26.091055
38.500000 80.125000 26.091055
38.725000 78.515625 26.091055
38.875000 77.359375 26.091055
39.200000 76.687500 26.091055
37.975000 89.812500 26.240066
37.975000 88.468750 26.240066
38.000000 87.328125 26.240066
38.050000 86.484375 26.240066
38.075000 85.234375 26.240066
38.150000 84.140625 26.240066
38.350000 82.656250 26.240066
38.375000 81.640625 26.240066
38.350000 80.515625 26.240066
38.600000 79.453125 26.240066
38.825000 77.859375 26.240066
38.050000 89.390625 26.403530
37.850000 88.125000 26.403530
38.000000 86.890625 26.403530
38.075000 85.953125 26.403530
38.100000 84.359375 26.403530
38.200000 83.640625 26.403530
38.275000 82.312500 26.403530
38.325000 80.984375 26.403530
38.450000 79.671875 26.403530
38.700000 78.515625 26.403530
38.850000 77.593750 26.403530
39.200000 76.609375 26.403530
38.350000 89.640625 26.552584
37.975000 88.531250 26.552584
37.975000 87.500000 26.552584
38.075000 86.218750 26.552584
38.125000 84.890625 26.552584
38.100000 83.781250 26.552584
38.300000 82.578125 26.552584
38.425000 81.390625 26.552584
38.475000 80.328125 26.552584
38.675000 79.234375 26.552584
38.825000 78.000000 26.552584
39.075000 76.875000 26.552584
37.850000 89.750000 26.710582
37.925000 88.609375 26.710582
38.150000 87.828125 26.710582
38.100000 86.640625 26.710582
38.125000 85.218750 26.710582
38.175000 84.171875 26.710582
38.325000 83.046875 26.710582
38.350000 81.906250 26.710582
38.300000 80.515625 26.710582
38.450000 79.312500 26.710582
38.675000 78.515625 26.710582
38.900000 77.328125 26.710582
39.375000 76.296875 26.710582
38.175000 89.359375 26.863736
37.950000 88.093750 26.863736
38.100000 87.125000 26.863736
38.125000 85.953125 26.863736
38.100000 84.781250 26.863736
38.100000 83.359375 26.863736
38.150000 82.281250 26.863736
38.225000 81.484375 26.863736
38.400000 80.078125 26.863736
38.650000 78.687500 26.863736
38.825000 77.937500 26.863736
39.075000 76.812500 26.863736
37.925000 90.140625 27.025176
38.000000 89.031250 27.025176
38.125000 87.546875 27.025176
38.100000 86.390625 27.025176
38.125000 85.140625 27.025176
38.150000 84.046875 27.025176
38.325000 82.953125 27.025176
38.350000 82.015625 27.025176
38.300000 80.828125 27.025176
38.450000 79.640625 27.025176
38.675000 78.125000 27.025176
38.900000 77.156250 27.025176
39.375000 75.906250 27.025176
38.200000 89.765625 27.176480
37.975000 88.656250 27.176480
38.025000 87.171875 27.176480
38.100000 85.984375 27.176480
38.175000 84.734375 27.176480
38.175000 83.593750 27.176480
38.275000 82.515625 27.176480
38.375000 81.671875 27.176480
38.375000 80.218750 27.176480
38.575000 79.031250 27.176480
38.775000 77.921875 27.176480
39.025000 76.640625 27.176480
38.325000 88.812500 27.331547
38.100000 87.671875 27.331547
38.050000 86.593750 27.331547
38.150000 85.593750 27.331547
38.175000 84.500000 27.331547
38.325000 83.156250 27.331547
38.325000 82.015625 27.331547
38.250000 80.765625 27.331547
38.425000 79.609375 27.331547
38.650000 78.609375 27.331547
38.900000 77.093750 27.331547
39.250000 76.218750 27.331547
38.300000 89.687500 27.486135
38.025000 88.671875 27.486135
38.075000 87.437500 27.486135
38.125000 86.140625 27.486135
38.175000 85.296875 27.486135
38.225000 83.937500 27.486135
38.400000 82.734375 27.486135
38.400000 81.734375 27.486135
38.350000 80.578125 27.486135
38.500000 79.375000 27.486135
38.700000 78.312500 27.486135
38.175000 89.484375 27.645618
38.075000 88.046875 27.645618
38.125000 86.875000 27.645618
38.075000 85.906250 27.645618
38.125000 84.375000 27.645618
38.325000 83.640625 27.645618
38.375000 82.062500 27.645618
38.275000 81.031250 27.645618
38.425000 80.015625 27.645618
38.625000 78.468750 27.645618
38.800000 77.546875 27.645618
39.150000 76.234375 27.645618
38.225000 89.468750 27.801946
38.025000 88.234375 27.801946
38.075000 87.171875 27.801946
38.075000 85.734375 27.801946
38.125000 84.578125 27.801946
38.325000 83.703125 27.801946
38.375000 82.437500 27.801946
38.275000 81.265625 27.801946
38.425000 79.890625 27.801946
38.650000 78.968750 27.801946
38.800000 77.421875 27.801946
39.125000 76.421875 27.801946
38.150000 89.171875 27.942463
38.050000 88.359375 27.942463
38.125000 87.140625 27.942463
38.075000 85.687500 27.942463
38.100000 84.546875 27.942463
38.325000 83.421875 27.942463
38.325000 82.156250 27.942463
38.225000 81.312500 27.942463
38.400000 80.125000 27.942463
38.625000 78.906250 27.942463
38.775000 77.359375 27.942463
39.050000 76.437500 27.942463
38.175000 89.156250 28.098979
38.050000 88.156250 28.098979
38.100000 87.015625 28.098979
38.075000 85.640625 28.098979
38.100000 84.515625 28.098979
38.325000 83.531250 28.098979
38.375000 82.062500 28.098979
38.250000 81.218750 28.098979
38.375000 79.812500 28.098979
38.575000 78.609375 28.098979
38.750000 77.578125 28.098979
39.075000 76.140625 28.098979
38.225000 89.312500 28.253749
38.025000 88.156250 28.253749
38.075000 86.781250 28.253749
38.075000 85.656250 28.253749
38.100000 84.343750 28.253749
38.300000 83.312500 28.253749
38.350000 82.296875 28.253749
38.225000 81.015625 28.253749
38.350000 79.781250 28.253749
38.550000 78.843750 28.253749
38.725000 77.453125 28.253749
39.050000 76.125000 28.253749
38.325000 89.218750 28.406678
38.000000 88.015625 28.406678
38.050000 86.906250 28.406678
38.100000 85.828125 28.406678
38.125000 84.421875 28.406678
38.300000 83.437500 28.406678
38.350000 81.984375 28.406678
38.225000 80.828125 28.406678
38.350000 79.921875 28.406678
38.550000 78.781250 28.406678
38.725000 77.406250 28.406678
39.050000 76.390625 28.406678
38.175000 89.031250 28.564428
37.900000 88.000000 28.564428
38.075000 87.046875 28.564428
38.075000 86.000000 28.564428
38.100000 84.843750 28.564428
38.225000 83.453125 28.564428
38.250000 82.484375 28.564428
38.200000 80.906250 28.564428
38.300000 79.968750 28.564428
38.450000 78.906250 28.564428
38.700000 77.671875 28.564428
38.975000 76.734375 28.564428
38.475000 89.781250 28.717184
38.250000 88.765625 28.717184
38.025000 87.562500 28.717184
38.075000 86.390625 28.717184
38.050000 85.078125 28.717184
38.100000 84.343750 28.717184
38.350000 82.859375 28.717184
38.300000 81.796875 28.717184
38.125000 80.375000 28.717184
38.350000 79.421875 28.717184
38.575000 78.218750 28.717184
38.775000 77.031250 28.717184
39.200000 76.031250 28.717184
38.300000 88.921875 28.876697
37.975000 87.859375 28.876697
38.025000 86.468750 28.876697
38.075000 85.234375 28.876697
38.125000 84.078125 28.876697
38.325000 83.281250 28.876697
38.300000 81.953125 28.876697
38.125000 80.578125 28.876697
38.250000 79.390625 28.876697
38.475000 78.578125 28.876697
38.675000 77.093750 28.876697
39.050000 76.234375 28.876697
38.450000 89.656250 29.027950
38.025000 88.343750 29.027950
37.975000 87.437500 29.027950
38.025000 86.250000 29.027950
38.025000 85.296875 29.027950
38.025000 83.812500 29.027950
38.175000 82.750000 29.027950
38.150000 81.687500 29.027950
38.100000 80.531250 29.027950
38.325000 79.250000 29.027950
38.625000 78.218750 29.027950
38.850000 77.031250 29.027950
39.425000 75.625000 29.027950
37.900000 87.031250 29.190498
37.975000 85.656250 29.190498
38.050000 84.468750 29.190498
38.100000 83.421875 29.190498
38.075000 82.125000 29.190498
38.050000 80.859375 29.190498
38.175000 79.890625 29.190498
38.400000 78.703125 29.190498
38.625000 77.390625 29.190498
38.925000 76.406250 29.190498
38.275000 89.984375 29.341265
37.725000 88.578125 29.341265
37.750000 87.187500 29.341265
37.900000 86.328125 29.341265
38.000000 85.078125 29.341265
38.000000 83.781250 29.341265
38.175000 82.703125 29.341265
38.125000 81.750000 29.341265
38.025000 80.546875 29.341265
38.275000 79.296875 29.341265
38.475000 78.125000 29.341265
38.725000 76.921875 29.341265
39.300000 75.921875 29.341265
37.675000 87.234375 29.499624
37.825000 85.906250 29.499624
37.925000 84.656250 29.499624
37.950000 83.359375 29.499624
38.175000 82.437500 29.499624
38.150000 81.343750 29.499624
38.050000 80.187500 29.499624
38.275000 78.859375 29.499624
38.475000 77.828125 29.499624
38.725000 76.687500 29.499624
37.400000 89.921875 29.651937
37.325000 88.828125 29.651937
37.600000 87.437500 29.651937
37.675000 86.578125 29.651937
37.775000 85.171875 29.651937
37.825000 84.312500 29.651937
37.900000 82.875000 29.651937
37.950000 81.593750 29.651937
37.925000 80.296875 29.651937
38.150000 79.312500 29.651937
38.400000 78.078125 29.651937
38.575000 76.937500 29.651937
39.025000 76.171875 29.651937
37.650000 86.687500 29.798823
37.725000 85.203125 29.798823
37.775000 84.515625 29.798823
37.800000 83.109375 29.798823
37.950000 81.890625 29.798823
38.100000 80.625000 29.798823
38.150000 79.812500 29.798823
38.375000 78.234375 29.798823
38.625000 77.265625 29.798823
38.900000 75.984375 29.798823
37.575000 87.078125 29.961411
37.675000 85.953125 29.961411
37.825000 84.578125 29.961411
37.700000 83.359375 29.961411
37.625000 82.390625 29.961411
37.900000 80.921875 29.961411
38.075000 79.703125 29.961411
38.300000 78.859375 29.961411
38.500000 77.515625 29.961411
38.800000 76.515625 29.961411
37.525000 89.718750 30.109885
37.350000 88.265625 30.109885
37.575000 87.359375 30.109885
37.650000 86.437500 30.109885
37.675000 84.781250 30.109885
37.425000 83.687500 30.109885
37.350000 82.859375 30.109885
37.700000 81.375000 30.109885
38.025000 80.578125 30.109885
38.200000 79.390625 30.109885
38.400000 77.781250 30.109885
38.600000 76.656250 30.109885
39.175000 75.984375 30.109885
37.475000 88.937500 30.263964
37.500000 87.421875 30.263964
37.600000 86.328125 30.263964
37.600000 85.406250 30.263964
37.275000 84.093750 30.263964
37.225000 82.906250 30.263964
37.625000 81.953125 30.263964
38.125000 80.640625 30.263964
38.350000 79.390625 30.263964
38.375000 78.484375 30.263964
38.550000 76.968750 30.263964
39.000000 75.750000 30.263964
37.375000 88.640625 30.419515
37.500000 87.796875 30.419515
37.575000 86.671875 30.419515
37.575000 85.375000 30.419515
37.275000 84.250000 30.419515
37.150000 82.750000 30.419515
37.800000 79.640625 30.419515
38.350000 78.484375 30.419515
38.525000 77.265625 30.419515
38.950000 76.125000 30.419515
37.625000 89.203125 30.573891
37.350000 88.031250 30.573891
37.550000 86.812500 30.573891
37.300000 85.406250 30.573891
36.975000 84.609375 30.573891
37.100000 83.203125 30.573891
37.425000 82.093750 30.573891
37.600000 80.953125 30.573891
37.900000 79.765625 30.573891
38.250000 78.484375 30.573891
38.450000 77.390625 30.573891
38.775000 76.234375 30.573891
37.525000 89.625000 30.728037
37.450000 88.281250 30.728037
37.525000 87.406250 30.728037
37.025000 85.968750 30.728037
36.725000 84.859375 30.728037
37.175000 83.390625 30.728037
37.450000 82.562500 30.728037
37.800000 81.265625 30.728037
38.300000 80.015625 30.728037
38.450000 78.859375 30.728037
38.425000 77.781250 30.728037
38.675000 76.687500 30.728037
37.500000 89.796875 30.884145
37.450000 88.656250 30.884145
37.500000 87.125000 30.884145
37.100000 85.906250 30.884145
36.900000 84.859375 30.884145
37.300000 83.953125 30.884145
37.575000 82.437500 30.884145
38.000000 79.203125 30.884145
38.400000 78.125000 30.884145
37.275000 89.968750 31.034291
37.300000 88.453125 31.034291
37.475000 87.515625 31.034291
37.350000 84.109375 31.034291
37.375000 82.750000 31.034291
37.825000 81.796875 31.034291
38.350000 80.484375 31.034291
38.575000 79.312500 31.034291
38.575000 78.406250 31.034291
38.650000 77.125000 31.034291
39.075000 76.078125 31.034291
37.175000 89.703125 31.196388
37.200000 88.859375 31.196388
37.450000 87.593750 31.196388
37.350000 83.890625 31.196388
37.275000 82.687500 31.196388
37.700000 81.796875 31.196388
38.200000 80.453125 31.196388
38.575000 79.203125 31.196388
38.700000 78.218750 31.196388
38.650000 77.234375 31.196388
39.000000 75.906250 31.196388
37.175000 88.937500 31.346527
37.475000 87.984375 31.346527
37.350000 83.875000 31.346527
38.725000 77.203125 31.346527
39.000000 76.281250 31.346527
37.325000 89.781250 31.508206
37.350000 88.296875 31.508206
37.500000 87.218750 31.508206
37.250000 86.312500 31.508206
37.025000 85.109375 31.508206
37.275000 83.781250 31.508206
37.725000 82.484375 31.508206
38.400000 79.421875 31.508206
38.800000 78.156250 31.508206
38.750000 76.968750 31.508206
39.075000 75.968750 31.508206
37.475000 89.390625 31.656888
37.450000 88.203125 31.656888
37.500000 87.203125 31.656888
37.300000 86.250000 31.656888
37.100000 85.015625 31.656888
37.300000 83.625000 31.656888
37.725000 82.421875 31.656888
38.200000 81.343750 31.656888
38.800000 80.421875 31.656888
39.000000 79.312500 31.656888
38.725000 78.156250 31.656888
38.725000 76.765625 31.656888
39.250000 75.796875 31.656888
37.250000 89.484375 31.819184
37.325000 88.515625 31.819184
37.500000 87.781250 31.819184
37.500000 86.562500 31.819184
37.400000 85.156250 31.819184
37.250000 83.765625 31.819184
37.500000 82.640625 31.819184
38.025000 81.546875 31.819184
38.625000 80.453125 31.819184
38.825000 79.390625 31.819184
38.600000 78.125000 31.819184
38.650000 77.140625 31.819184
39.075000 76.015625 31.819184
37.200000 88.890625 31.967411
37.475000 87.953125 31.967411
37.350000 84.062500 31.967411
37.225000 82.781250 31.967411
37.675000 81.656250 31.967411
38.525000 80.687500 31.967411
38.750000 79.343750 31.967411
38.550000 78.312500 31.967411
38.600000 77.031250 31.967411
38.900000 76.296875 31.967411
37.600000 89.828125 32.118258
37.575000 88.671875 32.118258
37.575000 87.578125 32.118258
37.500000 86.390625 32.118258
37.275000 85.015625 32.118258
37.200000 84.000000 32.118258
37.450000 82.687500 32.118258
38.100000 81.578125 32.118258
38.650000 80.578125 32.118258
38.575000 78.968750 32.118258
38.400000 77.843750 32.118258
38.600000 76.937500 32.118258
39.075000 75.890625 32.118258
37.675000 89.375000 32.280959
37.450000 87.921875 32.280959
37.650000 86.859375 32.280959
37.700000 85.859375 32.280959
37.500000 84.312500 32.280959
38.600000 79.937500 32.280959
38.450000 78.906250 32.280959
38.475000 77.625000 32.280959
38.775000 76.593750 32.280959
38.025000 90.062500 32.427004
37.875000 88.562500 32.427004
37.575000 87.453125 32.427004
37.800000 86.546875 32.427004
37.750000 85.031250 32.427004
37.500000 84.015625 32.427004
37.650000 82.859375 32.427004
38.175000 81.453125 32.427004
38.650000 80.328125 32.427004
38.525000 79.343750 32.427004
38.375000 78.218750 32.427004
38.600000 76.812500 32.427004
39.075000 76.015625 32.427004
37.750000 87.078125 32.591670
37.725000 85.937500 32.591670
37.875000 84.937500 32.591670
37.875000 83.609375 32.591670
37.975000 82.625000 32.591670
38.475000 81.312500 32.591670
38.675000 80.156250 32.591670
38.500000 78.921875 32.591670
38.425000 78.000000 32.591670
38.700000 76.765625 32.591670
39.325000 75.859375 32.591670
37.850000 89.859375 32.738139
37.775000 88.765625 32.738139
37.800000 87.968750 32.738139
37.925000 86.781250 32.738139
37.925000 85.390625 32.738139
37.875000 84.343750 32.738139
37.950000 83.046875 32.738139
38.350000 81.875000 32.738139
38.600000 80.734375 32.738139
38.450000 79.781250 32.738139
38.325000 78.156250 32.738139
38.500000 77.312500 32.738139
38.900000 76.109375 32.738139
37.500000 89.203125 32.902877
37.775000 88.000000 32.902877
37.925000 87.015625 32.902877
37.850000 85.484375 32.902877
37.800000 84.312500 32.902877
37.950000 83.078125 32.902877
38.325000 82.218750 32.902877
38.525000 80.687500 32.902877
38.375000 79.890625 32.902877
38.300000 78.500000 32.902877
38.575000 77.546875 32.902877
38.950000 76.046875 32.902877
37.775000 89.093750 33.049989
37.725000 87.781250 33.049989
37.900000 86.671875 33.049989
37.975000 85.531250 33.049989
38.000000 84.703125 33.049989
38.025000 83.062500 33.049989
38.300000 82.234375 33.049989
38.525000 81.000000 33.049989
38.375000 79.640625 33.049989
38.300000 78.375000 33.049989
38.550000 77.203125 33.049989
38.900000 76.359375 33.049989
37.775000 89.281250 33.211090
37.700000 88.312500 33.211090
37.950000 86.828125 33.211090
38.075000 85.765625 33.211090
38.175000 84.531250 33.211090
38.200000 83.593750 33.211090
38.375000 82.453125 33.211090
38.600000 81.187500 33.211090
38.425000 79.828125 33.211090
38.300000 78.640625 33.211090
38.450000 77.671875 33.211090
38.800000 76.390625 33.211090
37.775000 89.406250 33.360651
37.725000 87.859375 33.360651
37.925000 86.984375 33.360651
38.050000 85.609375 33.360651
38.150000 84.687500 33.360651
38.175000 83.328125 33.360651
38.375000 82.031250 33.360651
38.600000 80.937500 33.360651
38.425000 80.078125 33.360651
38.300000 78.796875 33.360651
38.450000 77.703125 33.360651
38.800000 76.359375 33.360651
37.725000 89.015625 33.515367
37.825000 87.843750 33.515367
37.900000 86.765625 33.515367
38.000000 85.796875 33.515367
38.100000 84.703125 33.515367
38.100000 83.500000 33.515367
38.400000 81.968750 33.515367
38.625000 80.859375 33.515367
38.400000 79.546875 33.515367
38.325000 78.796875 33.515367
38.550000 77.500000 33.515367
39.000000 76.140625 33.515367
38.000000 89.578125 33.670760
38.050000 88.515625 33.670760
37.900000 87.250000 33.670760
38.150000 86.296875 33.670760
38.000000 85.140625 33.670760
37.725000 83.921875 33.670760
38.800000 79.140625 33.670760
38.400000 78.125000 33.670760
38.750000 76.812500 33.670760
39.450000 75.750000 33.670760
38.025000 89.000000 33.824859
37.825000 88.000000 33.824859
37.900000 86.562500 33.824859
37.725000 85.640625 33.824859
37.675000 84.640625 33.824859
37.950000 83.390625 33.824859
38.375000 82.171875 33.824859
38.800000 80.968750 33.824859
38.750000 80.000000 33.824859
38.575000 78.328125 33.824859
38.625000 77.281250 33.824859
39.000000 76.171875 33.824859
38.000000 89.640625 33.978854
38.050000 88.562500 33.978854
37.750000 87.156250 33.978854
37.575000 86.390625 33.978854
37.400000 85.000000 33.978854
37.600000 83.921875 33.978854
38.475000 80.515625 33.978854
38.850000 79.171875 33.978854
38.675000 78.062500 33.978854
38.875000 76.750000 33.978854
39.450000 75.750000 33.978854
37.650000 88.140625 34.134958
37.875000 87.250000 34.134958
37.600000 86.109375 34.134958
37.325000 84.515625 34.134958
37.475000 83.765625 34.134958
37.900000 82.406250 34.134958
38.400000 81.125000 34.134958
38.975000 79.953125 34.134958
39.025000 79.062500 34.134958
38.775000 77.796875 34.134958
38.975000 76.781250 34.134958
37.600000 89.984375 34.290189
37.775000 88.703125 34.290189
37.875000 87.796875 34.290189
37.700000 86.656250 34.290189
37.425000 85.265625 34.290189
37.700000 83.859375 34.290189
38.525000 80.750000 34.290189
38.975000 79.671875 34.290189
38.875000 78.046875 34.290189
38.925000 77.203125 34.290189
39.300000 76.078125 34.290189
38.100000 89.312500 34.446807
37.800000 88.062500 34.446807
38.050000 86.609375 34.446807
37.750000 85.578125 34.446807
37.400000 84.421875 34.446807
37.875000 83.140625 34.446807
38.250000 82.156250 34.446807
38.450000 80.796875 34.446807
38.850000 79.703125 34.446807
39.025000 78.703125 34.446807
38.900000 77.375000 34.446807
39.075000 76.515625 34.446807
37.725000 89.515625 34.595341
37.700000 88.046875 34.595341
37.725000 87.203125 34.595341
37.450000 85.656250 34.595341
37.275000 84.437500 34.595341
37.625000 83.609375 34.595341
38.100000 82.203125 34.595341
38.500000 78.718750 34.595341
38.850000 77.703125 34.595341
38.925000 76.703125 34.595341
37.725000 90.062500 34.756520
37.775000 88.656250 34.756520
37.875000 87.453125 34.756520
38.250000 86.593750 34.756520
37.500000 83.828125 34.756520
37.825000 82.734375 34.756520
38.150000 81.562500 34.756520
38.900000 80.843750 34.756520
39.225000 79.203125 34.756520
39.000000 78.171875 34.756520
38.900000 77.031250 34.756520
39.425000 75.875000 34.756520
37.850000 87.625000 34.907464
37.650000 86.406250 34.907464
37.275000 85.078125 34.907464
37.425000 84.312500 34.907464
38.075000 82.875000 34.907464
38.450000 81.656250 34.907464
38.650000 78.296875 34.907464
38.900000 77.156250 34.907464
39.275000 76.281250 34.907464
37.950000 88.671875 35.068988
37.875000 87.484375 35.068988
38.125000 86.500000 35.068988
37.500000 84.015625 35.068988
37.975000 82.671875 35.068988
38.300000 81.859375 35.068988
38.925000 80.328125 35.068988
39.250000 79.562500 35.068988
38.950000 78.250000 35.068988
37.875000 87.796875 35.217886
37.550000 86.421875 35.217886
37.200000 85.234375 35.217886
37.300000 84.390625 35.217886
37.600000 83.281250 35.217886
37.975000 82.109375 35.217886
38.225000 80.640625 35.217886
38.700000 79.656250 35.217886
39.000000 78.312500 35.217886
38.925000 77.437500 35.217886
39.275000 75.953125 35.217886
37.925000 89.437500 35.366569
37.775000 88.453125 35.366569
37.550000 84.437500 35.366569
37.375000 83.750000 35.366569
37.725000 82.593750 35.366569
38.125000 81.062500 35.366569
38.750000 80.250000 35.366569
39.025000 78.828125 35.366569
38.850000 77.562500 35.366569
39.100000 76.500000 35.366569
38.225000 89.671875 35.530627
37.875000 88.562500 35.530627
37.925000 87.109375 35.530627
38.125000 86.203125 35.530627
37.725000 84.734375 35.530627
37.350000 83.906250 35.530627
37.625000 82.781250 35.530627
38.175000 81.671875 35.530627
38.750000 80.296875 35.530627
38.875000 78.968750 35.530627
38.875000 77.750000 35.530627
39.025000 76.578125 35.530627
37.950000 87.578125 35.677482
37.650000 86.343750 35.677482
37.325000 85.156250 35.677482
37.375000 83.828125 35.677482
37.600000 82.718750 35.677482
38.000000 81.875000 35.677482
38.525000 80.578125 35.677482
38.775000 79.234375 35.677482
38.775000 78.250000 35.677482
39.025000 77.296875 35.677482
39.700000 76.125000 35.677482
38.150000 88.750000 35.839144
37.900000 87.687500 35.839144
37.675000 84.312500 35.839144
37.550000 83.250000 35.839144
37.925000 81.828125 35.839144
38.425000 80.843750 35.839144
38.700000 79.796875 35.839144
38.775000 78.593750 35.839144
38.975000 77.359375 35.839144
39.400000 76.218750 35.839144
37.950000 87.687500 35.989285
37.975000 86.421875 35.989285
38.475000 85.484375 35.989285
37.600000 83.140625 35.989285
38.025000 81.890625 35.989285
38.450000 80.468750 35.989285
38.675000 79.453125 35.989285
38.800000 78.312500 35.989285
39.025000 77.031250 35.989285
39.575000 76.171875 35.989285
37.950000 88.156250 36.149333
37.925000 87.125000 36.149333
37.775000 85.812500 36.149333
37.725000 84.671875 36.149333
37.800000 83.546875 36.149333
37.825000 82.265625 36.149333
38.250000 81.218750 36.149333
38.575000 80.015625 36.149333
38.650000 78.828125 36.149333
38.825000 77.859375 36.149333
39.125000 76.640625 36.149333
37.900000 88.671875 36.300437
37.950000 87.546875 36.300437
38.025000 86.062500 36.300437
38.275000 85.296875 36.300437
38.150000 83.984375 36.300437
37.900000 82.453125 36.300437
38.250000 81.734375 36.300437
38.525000 80.250000 36.300437
38.650000 79.140625 36.300437
38.875000 78.093750 36.300437
38.400000 89.531250 36.461792
38.000000 88.265625 36.461792
38.000000 87.234375 36.461792
38.025000 86.062500 36.461792
38.150000 85.109375 36.461792
38.100000 83.687500 36.461792
38.075000 82.515625 36.461792
38.350000 81.640625 36.461792
38.525000 80.375000 36.461792
38.675000 79.265625 36.461792
38.850000 77.968750 36.461792
39.125000 76.859375 36.461792
38.025000 89.671875 36.609864
37.950000 88.406250 36.609864
38.000000 87.656250 36.609864
38.025000 85.984375 36.609864
38.025000 85.062500 36.609864
38.125000 83.750000 36.609864
38.250000 82.437500 36.609864
38.275000 81.500000 36.609864
38.400000 80.453125 36.609864
38.625000 78.953125 36.609864
38.850000 78.187500 36.609864
38.100000 89.156250 36.764139
37.875000 88.078125 36.764139
38.050000 87.250000 36.764139
38.075000 85.671875 36.764139
38.075000 84.687500 36.764139
38.125000 83.281250 36.764139
38.325000 82.343750 36.764139
38.400000 81.281250 36.764139
38.400000 79.906250 36.764139
38.600000 78.828125 36.764139
38.875000 77.781250 36.764139
39.200000 76.546875 36.764139
37.850000 89.796875 36.919812
37.875000 88.843750 36.919812
38.050000 87.828125 36.919812
38.000000 86.453125 36.919812
38.050000 85.218750 36.919812
38.075000 84.031250 36.919812
38.350000 82.890625 36.919812
38.400000 81.453125 36.919812
38.300000 80.375000 36.919812
38.550000 79.265625 36.919812
38.775000 78.343750 36.919812
39.025000 76.921875 36.919812
39.675000 76.171875 36.919812
38.100000 89.609375 37.074837
37.875000 87.953125 37.074837
38.050000 87.250000 37.074837
38.075000 86.093750 37.074837
38.075000 84.906250 37.074837
38.150000 83.406250 37.074837
38.250000 82.531250 37.074837
38.300000 81.359375 37.074837
38.400000 79.859375 37.074837
38.600000 78.750000 37.074837
38.775000 77.625000 37.074837
39.100000 76.625000 37.074837
37.850000 89.656250 37.230130
37.775000 88.703125 37.230130
37.950000 87.843750 37.230130
38.000000 86.453125 37.230130
38.050000 85.343750 37.230130
38.150000 84.265625 37.230130
38.425000 82.968750 37.230130
38.400000 81.781250 37.230130
38.300000 80.593750 37.230130
38.525000 79.375000 37.230130
38.750000 78.140625 37.230130
38.975000 77.187500 37.230130
39.550000 75.968750 37.230130
38.250000 90.109375 37.386955
38.050000 88.906250 37.386955
38.100000 87.984375 37.386955
38.175000 86.796875 37.386955
38.125000 85.437500 37.386955
38.125000 84.109375 37.386955
38.300000 83.093750 37.386955
38.300000 81.781250 37.386955
38.250000 80.546875 37.386955
38.500000 79.609375 37.386955
38.750000 78.468750 37.386955
38.900000 77.171875 37.386955
39.350000 76.187500 37.386955
38.175000 88.843750 37.531959
38.075000 87.828125 37.531959
38.125000 86.593750 37.531959
38.125000 85.406250 37.531959
38.150000 84.296875 37.531959
38.275000 83.421875 37.531959
38.275000 82.109375 37.531959
38.250000 80.828125 37.531959
38.475000 79.468750 37.531959
38.650000 78.406250 37.531959
38.875000 77.593750 37.531959
39.250000 76.140625 37.531959
38.175000 88.781250 37.686827
38.075000 87.765625 37.686827
38.125000 86.906250 37.686827
38.150000 85.703125 37.686827
38.175000 84.203125 37.686827
38.275000 83.171875 37.686827
38.275000 82.218750 37.686827
38.250000 80.843750 37.686827
38.450000 79.843750 37.686827
38.700000 78.312500 37.686827
38.900000 77.187500 37.686827
39.250000 76.453125 37.686827
38.175000 89.296875 37.842612
38.075000 87.906250 37.842612
38.125000 86.984375 37.842612
38.125000 85.515625 37.842612
38.150000 84.156250 37.842612
38.275000 83.375000 37.842612
38.275000 81.843750 37.842612
38.225000 81.093750 37.842612
38.425000 79.937500 37.842612
38.625000 78.500000 37.842612
38.850000 77.453125 37.842612
39.225000 76.359375 37.842612
38.075000 89.843750 37.996039
38.025000 88.625000 37.996039
38.150000 87.703125 37.996039
38.100000 86.484375 37.996039
38.050000 85.031250 37.996039
38.125000 84.156250 37.996039
38.400000 82.937500 37.996039
38.425000 81.578125 37.996039
38.300000 80.359375 37.996039
38.500000 79.218750 37.996039
38.700000 78.250000 37.996039
38.850000 77.140625 37.996039
39.325000 75.796875 37.996039
38.500000 89.890625 38.157331
38.100000 88.515625 38.157331
38.025000 87.265625 38.157331
38.025000 86.062500 38.157331
38.050000 85.250000 38.157331
38.125000 84.000000 38.157331
38.350000 82.859375 38.157331
38.350000 81.484375 38.157331
38.275000 80.593750 38.157331
38.475000 79.312500 38.157331
38.725000 78.171875 38.157331
38.925000 76.875000 38.157331
39.475000 76.000000 38.157331
38.175000 89.875000 38.304965
38.100000 88.796875 38.304965
38.125000 87.843750 38.304965
38.075000 86.312500 38.304965
38.050000 85.265625 38.304965
38.125000 83.953125 38.304965
38.400000 83.171875 38.304965
38.425000 81.703125 38.304965
38.275000 80.562500 38.304965
38.450000 79.625000 38.304965
38.650000 78.453125 38.304965
38.825000 77.093750 38.304965
39.300000 75.781250 38.304965
38.150000 89.390625 38.466976
38.025000 88.031250 38.466976
38.050000 86.859375 38.466976
38.100000 85.515625 38.466976
38.150000 84.265625 38.466976
38.425000 83.406250 38.466976
38.450000 81.906250 38.466976
38.300000 80.953125 38.466976
38.375000 79.562500 38.466976
38.600000 78.500000 38.466976
38.825000 77.562500 38.466976
39.100000 76.421875 38.466976
38.575000 89.781250 38.616843
38.050000 88.609375 38.616843
38.000000 87.640625 38.616843
38.025000 86.390625 38.616843
38.050000 84.953125 38.616843
38.125000 83.718750 38.616843
38.225000 82.921875 38.616843
38.250000 81.734375 38.616843
38.300000 80.453125 38.616843
38.525000 79.281250 38.616843
38.775000 77.781250 38.616843
38.900000 77.031250 38.616843
38.700000 90.203125 38.780458
38.300000 88.906250 38.780458
38.050000 88.031250 38.780458
38.125000 86.718750 38.780458
38.125000 85.296875 38.780458
38.125000 84.546875 38.780458
38.400000 83.359375 38.780458
38.400000 81.859375 38.780458
38.225000 80.984375 38.780458
38.425000 79.546875 38.780458
38.650000 78.281250 38.780458
38.850000 77.421875 38.780458
39.175000 76.343750 38.780458
38.175000 89.609375 38.930424
37.875000 88.437500 38.930424
37.950000 87.312500 38.930424
38.025000 86.031250 38.930424
38.075000 84.750000 38.930424
38.150000 83.875000 38.930424
38.200000 82.531250 38.930424
38.175000 81.156250 38.930424
38.250000 80.234375 38.930424
38.500000 79.078125 38.930424
38.725000 77.578125 38.930424
38.925000 76.671875 38.930424
38.575000 89.859375 39.089295
38.050000 88.359375 39.089295
38.000000 87.562500 39.089295
38.025000 86.156250 39.089295
38.050000 84.953125 39.089295
38.125000 84.093750 39.089295
38.225000 82.765625 39.089295
38.225000 81.687500 39.089295
38.275000 80.562500 39.089295
38.425000 79.296875 39.089295
38.575000 77.859375 39.089295
38.525000 90.109375 39.242920
38.350000 88.921875 39.242920
38.025000 87.750000 39.242920
38.000000 86.609375 39.242920
38.050000 85.515625 39.242920
38.100000 84.234375 39.242920
38.400000 83.140625 39.242920
38.350000 81.937500 39.242920
38.100000 80.750000 39.242920
38.350000 79.718750 39.242920
38.550000 78.406250 39.242920
38.750000 77.093750 39.242920
39.150000 76.250000 39.242920
38.075000 89.125000 39.399776
37.800000 88.015625 39.399776
37.950000 87.140625 39.399776
38.000000 85.875000 39.399776
38.050000 84.968750 39.399776
38.125000 83.812500 39.399776
38.150000 82.281250 39.399776
38.025000 80.937500 39.399776
38.150000 80.281250 39.399776
38.400000 78.859375 39.399776
38.625000 77.937500 39.399776
38.875000 76.640625 39.399776
38.500000 89.890625 39.553812
38.025000 88.375000 39.553812
37.975000 87.437500 39.553812
38.000000 86.171875 39.553812
38.025000 84.875000 39.553812
38.025000 83.890625 39.553812
38.125000 82.734375 39.553812
38.100000 81.640625 39.553812
38.050000 80.078125 39.553812
38.275000 78.937500 39.553812
38.550000 77.765625 39.553812
38.775000 76.765625 39.553812
39.450000 75.937500 39.553812
37.900000 86.750000 39.710034
37.950000 85.390625 39.710034
37.975000 84.406250 39.710034
38.175000 83.250000 39.710034
38.150000 81.734375 39.710034
38.025000 80.906250 39.710034
38.200000 79.468750 39.710034
38.400000 78.515625 39.710034
38.675000 77.453125 39.710034
39.000000 76.031250 39.710034
37.725000 87.234375 39.863915
37.800000 85.921875 39.863915
37.900000 84.468750 39.863915
38.000000 83.468750 39.863915
38.050000 82.078125 39.863915
38.000000 80.828125 39.863915
38.075000 80.062500 39.863915
38.375000 78.671875 39.863915
38.550000 77.468750 39.863915
38.800000 76.625000 39.863915
37.700000 86.687500 40.021356
37.775000 85.546875 40.021356
37.900000 84.625000 40.021356
37.975000 83.562500 40.021356
38.150000 82.359375 40.021356
38.100000 80.843750 40.021356
38.075000 79.625000 40.021356
38.350000 78.812500 40.021356
38.525000 77.593750 40.021356
38.750000 76.265625 40.021356
37.600000 86.937500 40.159496
37.675000 86.109375 40.159496
37.825000 84.906250 40.159496
37.900000 83.890625 40.159496
37.925000 82.359375 40.159496
37.975000 81.046875 40.159496
38.025000 80.125000 40.159496
38.225000 78.859375 40.159496
38.450000 77.937500 40.159496
38.675000 76.468750 40.159496
37.775000 89.671875 40.330503
37.500000 88.343750 40.330503
37.550000 87.468750 40.330503
37.650000 85.953125 40.330503
37.700000 84.828125 40.330503
37.850000 83.781250 40.330503
37.875000 82.500000 40.330503
38.025000 81.531250 40.330503
38.175000 80.281250 40.330503
38.175000 79.125000 40.330503
38.375000 78.109375 40.330503
37.650000 89.468750 40.470640
37.475000 88.250000 40.470640
37.525000 87.328125 40.470640
37.625000 86.109375 40.470640
37.625000 84.812500 40.470640
37.425000 83.843750 40.470640
37.500000 82.531250 40.470640
38.000000 81.453125 40.470640
38.175000 80.328125 40.470640
38.175000 79.281250 40.470640
38.350000 77.921875 40.470640
37.600000 87.078125 40.626566
37.500000 83.078125 40.626566
37.475000 82.234375 40.626566
38.025000 80.921875 40.626566
38.275000 79.921875 40.626566
38.250000 78.484375 40.626566
38.450000 77.531250 40.626566
38.750000 76.406250 40.626566
37.525000 90.078125 40.781506
37.550000 88.500000 40.781506
37.475000 87.875000 40.781506
37.575000 86.390625 40.781506
37.600000 85.000000 40.781506
37.300000 83.984375 40.781506
37.175000 82.671875 40.781506
37.525000 81.656250 40.781506
38.150000 80.828125 40.781506
38.400000 79.671875 40.781506
38.325000 78.390625 40.781506
38.500000 77.109375 40.781506
38.925000 75.796875 40.781506
37.350000 89.593750 40.937927
37.250000 88.265625 40.937927
37.500000 87.484375 40.937927
37.350000 83.937500 40.937927
37.250000 82.812500 40.937927
37.600000 81.312500 40.937927
38.100000 80.343750 40.937927
38.300000 79.015625 40.937927
38.350000 78.109375 40.937927
38.575000 76.937500 40.937927
39.125000 75.578125 40.937927
37.675000 89.406250 41.094989
37.375000 87.750000 41.094989
37.550000 87.093750 41.094989
37.325000 85.781250 41.094989
36.975000 84.593750 41.094989
37.125000 83.156250 41.094989
37.475000 82.203125 41.094989
37.550000 80.843750 41.094989
37.825000 79.718750 41.094989
38.250000 78.562500 41.094989
38.425000 77.578125 41.094989
38.725000 76.562500 41.094989
37.500000 89.343750 41.251993
37.350000 88.171875 41.251993
37.550000 86.734375 41.251993
37.325000 85.781250 41.251993
36.975000 84.734375 41.251993
37.125000 83.171875 41.251993
37.475000 82.250000 41.251993
37.950000 81.265625 41.251993
38.250000 79.734375 41.251993
38.300000 78.765625 41.251993
38.425000 77.656250 41.251993
38.750000 76.546875 41.251993
37.475000 89.531250 41.406612
37.400000 88.343750 41.406612
37.550000 86.984375 41.406612
37.150000 85.781250 41.406612
36.875000 84.421875 41.406612
37.250000 83.375000 41.406612
37.625000 82.578125 41.406612
38.000000 81.437500 41.406612
38.650000 80.203125 41.406612
38.700000 79.140625 41.406612
38.475000 77.609375 41.406612
38.700000 76.375000 41.406612
37.200000 89.828125 41.561576
37.225000 88.343750 41.561576
37.450000 87.328125 41.561576
37.325000 86.250000 41.561576
37.375000 84.953125 41.561576
37.475000 84.109375 41.561576
37.625000 82.765625 41.561576
38.000000 81.687500 41.561576
38.525000 80.531250 41.561576
38.750000 79.328125 41.561576
38.525000 77.875000 41.561576
38.600000 76.890625 41.561576
39.125000 75.609375 41.561576
37.600000 89.187500 41.717685
37.325000 88.015625 41.717685
37.525000 86.828125 41.717685
37.800000 85.656250 41.717685
37.550000 84.406250 41.717685
38.775000 79.718750 41.717685
38.800000 78.625000 41.717685
38.600000 77.500000 41.717685
38.775000 76.421875 41.717685
37.425000 89.281250 41.873170
37.400000 88.281250 41.873170
37.525000 87.015625 41.873170
37.200000 86.125000 41.873170
36.925000 84.625000 41.873170
37.275000 83.593750 41.873170
37.925000 82.421875 41.873170
38.525000 78.859375 41.873170
38.650000 77.578125 41.873170
38.700000 76.812500 41.873170
37.100000 89.890625 42.014333
37.125000 88.843750 42.014333
37.475000 87.468750 42.014333
37.425000 83.843750 42.014333
37.625000 82.640625 42.014333
38.025000 81.562500 42.014333
38.550000 80.468750 42.014333
38.900000 79.171875 42.014333
38.825000 78.375000 42.014333
38.850000 77.156250 42.014333
39.150000 76.078125 42.014333
37.500000 87.609375 42.170244
37.350000 84.046875 42.170244
37.275000 82.968750 42.170244
37.750000 81.734375 42.170244
38.150000 81.031250 42.170244
38.500000 79.453125 42.170244
38.650000 78.578125 42.170244
38.600000 77.156250 42.170244
38.900000 76.015625 42.170244
37.625000 88.968750 42.325980
37.350000 87.906250 42.325980
37.550000 86.656250 42.325980
37.950000 85.531250 42.325980
38.625000 79.718750 42.325980
38.700000 78.437500 42.325980
38.525000 77.531250 42.325980
38.725000 76.171875 42.325980
37.625000 89.125000 42.480642
37.350000 88.156250 42.480642
37.625000 87.171875 42.480642
37.900000 86.046875 42.480642
37.500000 84.625000 42.480642
37.150000 83.171875 42.480642
37.700000 82.390625 42.480642
38.275000 81.187500 42.480642
38.675000 79.906250 42.480642
38.600000 78.937500 42.480642
38.425000 77.687500 42.480642
38.750000 76.625000 42.480642
37.350000 88.734375 42.636242
37.600000 87.750000 42.636242
37.600000 86.468750 42.636242
38.075000 85.593750 42.636242
37.525000 83.234375 42.636242
38.125000 81.750000 42.636242
38.700000 80.750000 42.636242
38.725000 79.609375 42.636242
38.450000 78.453125 42.636242
38.550000 77.375000 42.636242
38.850000 75.984375 42.636242
37.525000 90.187500 42.790797
37.550000 88.734375 42.790797
37.575000 87.515625 42.790797
37.675000 86.562500 42.790797
37.775000 85.421875 42.790797
37.600000 84.125000 42.790797
38.475000 79.312500 42.790797
38.350000 78.515625 42.790797
38.525000 77.359375 42.790797
38.900000 76.281250 42.790797
37.550000 89.921875 42.946925
37.550000 88.906250 42.946925
37.575000 87.765625 42.946925
37.775000 86.343750 42.946925
38.075000 85.625000 42.946925
37.850000 83.984375 42.946925
37.650000 83.296875 42.946925
38.250000 81.984375 42.946925
38.625000 80.531250 42.946925
38.450000 79.750000 42.946925
38.325000 78.312500 42.946925
38.500000 77.093750 42.946925
38.875000 76.156250 42.946925
37.625000 89.890625 43.102580
37.600000 88.656250 43.102580
37.700000 87.734375 43.102580
37.850000 86.531250 43.102580
38.050000 85.171875 43.102580
38.000000 84.250000 43.102580
37.925000 82.781250 43.102580
38.325000 81.828125 43.102580
38.600000 80.750000 43.102580
38.425000 79.734375 43.102580
38.325000 78.171875 43.102580
38.500000 77.218750 43.102580
38.875000 75.906250 43.102580
37.475000 89.187500 43.259589
37.725000 88.171875 43.259589
37.875000 86.546875 43.259589
37.850000 85.750000 43.259589
37.775000 84.500000 43.259589
37.925000 83.296875 43.259589
38.325000 82.046875 43.259589
38.625000 81.031250 43.259589
38.450000 79.500000 43.259589
38.300000 78.312500 43.259589
38.525000 77.296875 43.259589
38.875000 76.250000 43.259589
37.800000 89.250000 43.407549
37.625000 87.968750 43.407549
37.825000 87.015625 43.407549
37.900000 85.937500 43.407549
37.975000 84.734375 43.407549
38.000000 83.156250 43.407549
38.350000 82.140625 43.407549
38.525000 80.875000 43.407549
38.325000 79.859375 43.407549
38.275000 78.703125 43.407549
38.625000 77.500000 43.407549
38.975000 76.453125 43.407549
38.650000 89.625000 43.568599
38.325000 88.218750 43.568599
37.900000 87.203125 43.568599
37.975000 86.343750 43.568599
38.000000 84.796875 43.568599
38.025000 83.531250 43.568599
38.300000 82.593750 43.568599
38.650000 81.609375 43.568599
38.525000 80.093750 43.568599
38.275000 79.281250 43.568599
38.375000 77.843750 43.568599
38.725000 76.703125 43.568599
39.375000 75.828125 43.568599
38.475000 89.703125 43.722135
38.350000 88.046875 43.722135
37.950000 87.234375 43.722135
38.050000 85.734375 43.722135
38.150000 84.843750 43.722135
38.175000 83.765625 43.722135
38.400000 82.281250 43.722135
38.150000 81.125000 43.722135
38.000000 80.062500 43.722135
38.350000 78.765625 43.722135
38.475000 77.687500 43.722135
38.775000 76.484375 43.722135
38.150000 89.453125 43.878438
38.025000 88.265625 43.878438
37.950000 87.078125 43.878438
38.050000 85.937500 43.878438
38.025000 84.625000 43.878438
38.050000 83.687500 43.878438
38.400000 82.640625 43.878438
38.225000 80.984375 43.878438
38.075000 79.937500 43.878438
38.350000 78.984375 43.878438
38.475000 77.718750 43.878438
38.775000 76.578125 43.878438
38.200000 89.765625 44.028257
38.125000 88.625000 44.028257
37.900000 87.093750 44.028257
38.125000 86.203125 44.028257
37.950000 85.187500 44.028257
37.800000 83.718750 44.028257
38.150000 82.703125 44.028257
38.500000 81.281250 44.028257
39.025000 80.234375 44.028257
38.875000 79.015625 44.028257
38.450000 78.093750 44.028257
38.750000 76.703125 44.028257
39.500000 75.593750 44.028257
38.050000 89.796875 44.190546
38.000000 88.421875 44.190546
37.900000 87.234375 44.190546
38.000000 86.171875 44.190546
37.800000 85.093750 44.190546
37.775000 83.843750 44.190546
38.050000 82.546875 44.190546
38.425000 81.546875 44.190546
38.950000 80.515625 44.190546
38.800000 78.937500 44.190546
38.450000 77.828125 44.190546
37.575000 90.187500 44.346441
37.725000 88.578125 44.346441
