33.600000 83.109375 13.180220
33.250000 87.546875 13.306826
33.400000 86.390625 13.313249
33.550000 84.812500 13.322017
33.600000 83.656250 13.328440
33.825000 82.859375 13.332867
33.325000 87.375000 13.468499
33.500000 85.953125 13.476399
33.575000 84.859375 13.482475
33.625000 83.828125 13.488204
33.825000 82.515625 13.495496
33.525000 87.125000 13.620492
33.575000 86.234375 13.625440
33.575000 84.796875 13.633426
33.675000 83.453125 13.640891
34.000000 82.484375 13.646273
33.125000 89.296875 13.749099
33.450000 88.078125 13.755870
33.550000 86.906250 13.762381
33.625000 86.093750 13.766894
33.700000 84.859375 13.773752
33.750000 83.640625 13.780523
34.025000 82.328125 13.787815
33.225000 89.015625 13.906853
33.400000 88.203125 13.911367
33.600000 86.843750 13.918919
33.700000 85.500000 13.926385
33.700000 84.281250 13.933156
33.300000 89.031250 14.062497
33.475000 88.375000 14.066143
33.550000 86.687500 14.075518
33.625000 85.609375 14.081508
33.675000 84.671875 14.086716
33.750000 83.656250 14.092358
34.175000 82.531250 14.098608
33.450000 87.734375 14.226308
33.575000 86.890625 14.230996
33.600000 85.453125 14.238982
33.650000 84.281250 14.245492
33.025000 89.421875 14.369770
33.350000 88.265625 14.376193
33.525000 86.875000 14.383919
33.600000 85.781250 14.389995
33.625000 84.937500 14.394683
33.675000 83.468750 14.402843
34.025000 82.312500 14.409266
33.150000 87.843750 14.533071
33.325000 86.609375 14.539928
33.450000 85.093750 14.548348
33.500000 84.156250 14.553557
33.575000 83.265625 14.558505
32.850000 89.187500 14.681679
33.025000 88.062500 14.687929
33.050000 87.328125 14.692009
33.125000 85.828125 14.700342
33.275000 84.812500 14.705985
33.400000 83.703125 14.712148
33.625000 82.796875 14.717182
32.675000 89.390625 14.838795
32.900000 88.359375 14.844524
32.900000 87.203125 14.850948
32.925000 85.734375 14.859107
32.950000 84.687500 14.864923
33.125000 83.593750 14.871000
33.375000 82.671875 14.876121
32.675000 87.718750 15.002734
32.700000 86.343750 15.010373
32.750000 85.171875 15.016884
32.800000 83.687500 15.025130
32.950000 82.937500 15.029297
32.325000 88.031250 15.156898
32.325000 86.750000 15.164016
32.375000 85.406250 15.171482
32.450000 84.718750 15.175301
32.550000 83.578125 15.181638
32.825000 82.109375 15.189798
32.200000 87.921875 15.313034
32.275000 86.718750 15.319718
32.325000 85.171875 15.328312
32.375000 83.828125 15.335777
32.275000 88.906250 15.465227
32.400000 87.750000 15.471650
32.525000 87.156250 15.474949
32.575000 85.765625 15.482675
32.650000 84.921875 15.487362
32.750000 83.359375 15.496043
33.000000 81.968750 15.503768
32.700000 87.343750 15.613390
32.750000 86.187500 15.619814
32.775000 84.937500 15.626758
32.850000 83.890625 15.632574
32.825000 89.125000 15.757484
32.925000 88.281250 15.762171
32.950000 86.968750 15.769463
33.000000 86.015625 15.774758
33.025000 84.546875 15.782918
33.175000 83.265625 15.790036
33.575000 82.125000 15.796373
33.050000 87.890625 15.921342
33.075000 86.734375 15.927766
33.125000 85.625000 15.933929
33.275000 84.281250 15.941394
33.450000 83.140625 15.947731
32.850000 89.671875 16.066818
33.100000 88.750000 16.071939
33.150000 87.093750 16.081141
33.175000 86.250000 16.085828
33.275000 84.640625 16.094769
33.450000 84.046875 16.098068
33.700000 82.500000 16.106662
33.250000 88.156250 16.230534
33.225000 86.890625 16.237565
33.375000 85.531250 16.245117
33.475000 84.578125 16.250412
32.850000 89.984375 16.375741
33.100000 88.250000 16.385376
33.150000 87.578125 16.389109
33.350000 86.140625 16.397095
33.525000 84.968750 16.403605
33.575000 83.921875 16.409421
33.725000 82.562500 16.416973
33.275000 88.187500 16.535465
33.250000 86.500000 16.544840
33.400000 85.765625 16.548920
33.600000 84.406250 16.556472
33.675000 83.234375 16.562983
34.050000 82.359375 16.567844
33.275000 87.359375 16.700689
33.450000 86.156250 16.707373
33.525000 85.265625 16.712321
33.575000 83.781250 16.720567
33.700000 82.984375 16.724995
33.025000 89.593750 16.839895
33.225000 88.187500 16.847708
33.300000 87.406250 16.852048
33.450000 85.859375 16.860642
33.525000 84.656250 16.867326
33.575000 83.906250 16.871493
33.825000 82.796875 16.877656
32.775000 89.906250 16.996192
33.125000 88.453125 17.004265
33.150000 87.734375 17.008258
33.325000 86.437500 17.015463
33.500000 85.312500 17.021713
33.550000 83.625000 17.031088
33.700000 82.625000 17.036644
33.050000 87.687500 17.157743
33.075000 86.312500 17.165381
33.200000 85.296875 17.171024
33.350000 83.828125 17.179183
33.450000 83.093750 17.183263
32.800000 89.500000 17.297781
32.950000 88.296875 17.304465
33.000000 87.078125 17.311236
33.025000 85.593750 17.319483
33.125000 85.093750 17.322260
33.250000 83.437500 17.331462
33.450000 82.234375 17.338146
32.825000 87.734375 17.466342
32.825000 86.906250 17.470943
32.850000 85.421875 17.479189
32.900000 84.171875 17.486134
33.025000 83.015625 17.492558
33.450000 82.203125 17.497071
32.375000 89.453125 17.608954
32.525000 88.031250 17.616853
32.575000 87.093750 17.622061
32.600000 85.906250 17.628659
32.625000 84.937500 17.634041
32.700000 83.609375 17.641419
32.850000 82.500000 17.647582
32.775000 87.703125 17.779228
32.875000 86.203125 17.787562
33.000000 85.250000 17.792857
33.125000 84.078125 17.799367
33.200000 83.015625 17.805270
32.925000 89.953125 17.917995
33.225000 88.125000 17.928152
33.275000 87.484375 17.931710
33.350000 86.515625 17.937093
33.400000 85.312500 17.943777
33.475000 83.500000 17.953846
33.650000 82.703125 17.958273
33.500000 87.968750 18.088066
33.550000 86.468750 18.096399
33.600000 85.687500 18.100739
33.675000 84.406250 18.107857
33.800000 83.171875 18.114715
33.425000 89.843750 18.232860
33.675000 88.031250 18.242929
33.700000 87.343750 18.246749
33.725000 85.843750 18.255082
33.825000 84.562500 18.262200
33.925000 83.406250 18.268624
34.225000 82.625000 18.272964
33.675000 89.296875 18.394417
33.875000 88.359375 18.399625
33.900000 87.343750 18.405268
33.950000 86.015625 18.412646
34.050000 84.671875 18.420111
34.125000 83.640625 18.425841
34.575000 82.484375 18.432264
34.050000 88.046875 18.554500
34.100000 86.953125 18.560576
34.150000 85.296875 18.569778
34.200000 84.734375 18.572903
34.300000 83.046875 18.582278
33.750000 89.843750 18.683698
34.075000 88.421875 18.691598
34.100000 87.671875 18.695764
34.175000 85.953125 18.705313
34.225000 85.203125 18.709480
34.300000 83.625000 18.718247
34.600000 82.578125 18.724063
34.050000 89.562500 18.856182
34.175000 88.437500 18.862432
34.200000 87.031250 18.870245
34.225000 85.921875 18.876408
34.325000 85.031250 18.881356
34.200000 87.625000 19.007132
34.250000 86.312500 19.014423
34.300000 85.546875 19.018677
34.400000 84.343750 19.025361
34.600000 82.843750 19.033694
34.025000 89.406250 19.150841
34.150000 88.234375 19.157352
34.225000 86.906250 19.164730
34.250000 85.890625 19.170372
34.375000 84.453125 19.178359
33.975000 89.781250 19.308045
34.225000 88.250000 19.316552
34.225000 87.515625 19.320632
34.275000 86.187500 19.328011
34.350000 85.046875 19.334347
34.450000 83.437500 19.343288
34.850000 82.375000 19.349191
34.200000 87.781250 19.471323
34.175000 86.765625 19.476965
34.250000 85.890625 19.481826
34.425000 84.687500 19.488510
34.550000 83.093750 19.497365
33.950000 89.390625 19.621228
34.200000 88.375000 19.626870
34.225000 87.375000 19.632426
34.200000 85.828125 19.641019
34.275000 84.968750 19.645794
34.425000 83.609375 19.653346
34.825000 82.578125 19.659075
34.175000 87.703125 19.781659
34.225000 86.890625 19.786173
34.250000 85.296875 19.795027
34.350000 84.171875 19.801277
34.575000 83.218750 19.806572
33.950000 89.421875 19.932745
34.100000 88.281250 19.939082
34.125000 87.343750 19.944291
34.150000 86.156250 19.950888
34.175000 84.500000 19.960089
33.950000 87.843750 20.090056
34.000000 86.781250 20.095959
34.050000 85.328125 20.104032
34.125000 84.375000 20.109327
34.275000 82.718750 20.118528
33.650000 89.078125 20.247406
33.725000 88.156250 20.252527
33.775000 86.750000 20.260340
33.850000 85.609375 20.266677
33.925000 84.890625 20.270670
34.050000 83.265625 20.279697
34.475000 82.093750 20.286208
33.275000 89.468750 20.393309
33.550000 88.781250 20.397128
33.575000 87.625000 20.403552
33.600000 86.312500 20.410844
33.650000 84.890625 20.418743
33.725000 84.125000 20.422996
33.950000 82.578125 20.431590
33.300000 88.218750 20.549577
33.400000 86.906250 20.556869
33.475000 85.609375 20.564073
33.575000 84.703125 20.569108
33.675000 83.453125 20.576052
34.025000 82.359375 20.582129
33.600000 87.796875 20.714634
33.675000 86.500000 20.721839
33.725000 85.281250 20.728610
33.825000 84.015625 20.735641
34.025000 83.109375 20.740676
33.675000 89.531250 20.854284
33.875000 88.312500 20.861055
33.850000 87.140625 20.867565
33.900000 85.671875 20.875725
33.975000 84.812500 20.880500
34.075000 83.578125 20.887357
34.550000 82.265625 20.894649
34.025000 88.000000 21.017222
34.075000 86.937500 21.023125
34.150000 86.000000 21.028334
34.200000 84.578125 21.036233
33.725000 89.609375 21.162344
34.125000 88.859375 21.166510
34.150000 87.750000 21.172673
34.175000 86.187500 21.181354
34.250000 85.281250 21.186389
34.375000 83.890625 21.194114
34.650000 82.843750 21.199930
34.225000 87.734375 21.329067
34.200000 86.937500 21.333494
34.250000 85.406250 21.342001
34.425000 84.718750 21.345820
34.550000 83.156250 21.354501
34.350000 87.562500 21.472915
34.375000 86.437500 21.479165
34.425000 85.390625 21.484981
34.525000 84.390625 21.490536
34.750000 83.281250 21.496699
34.050000 89.531250 21.629161
34.275000 88.453125 21.635150
34.400000 87.484375 21.640532
34.425000 85.765625 21.650081
34.475000 85.000000 21.654334
34.600000 83.468750 21.662841
35.000000 82.500000 21.668223
34.325000 87.484375 21.787354
34.400000 86.625000 21.792128
34.475000 85.359375 21.799159
34.600000 84.171875 21.805756
34.825000 82.921875 21.812701
34.350000 87.828125 21.933844
34.425000 86.640625 21.940441
34.500000 85.578125 21.946344
34.525000 84.171875 21.954156
34.675000 83.562500 21.957542
34.125000 89.468750 22.086552
34.350000 88.421875 22.092368
34.400000 86.984375 22.100354
34.425000 85.890625 22.106430
34.475000 85.046875 22.111118
34.600000 83.750000 22.118323
35.025000 82.859375 22.123271
34.325000 87.375000 22.246719
34.375000 86.546875 22.251320
34.425000 85.500000 22.257136
34.575000 84.078125 22.265035
34.800000 83.093750 22.270504
34.325000 88.015625 22.406321
34.375000 86.984375 22.412050
34.450000 85.312500 22.421338
34.500000 84.453125 22.426112
34.675000 83.031250 22.434012
33.850000 89.843750 22.542965
34.225000 88.703125 22.549302
34.200000 87.187500 22.557722
34.200000 86.187500 22.563278
34.325000 84.906250 22.570396
34.425000 83.578125 22.577775
34.725000 82.593750 22.583243
33.900000 88.984375 22.710823
34.100000 88.031250 22.716118
34.175000 87.062500 22.721500
34.200000 85.593750 22.729660
34.300000 84.343750 22.736604
34.050000 87.750000 22.864370
34.075000 86.609375 22.870707
34.100000 85.265625 22.878172
34.200000 84.671875 22.881470
34.350000 83.296875 22.889109
33.775000 87.421875 23.028295
33.850000 86.250000 23.034805
33.950000 85.031250 23.041576
34.075000 83.828125 23.048260
34.300000 82.546875 23.055378
33.350000 89.546875 23.165167
33.550000 88.281250 23.172199
33.600000 87.062500 23.178969
33.625000 85.703125 23.186521
33.775000 84.578125 23.192771
33.900000 83.375000 23.199455
34.250000 82.468750 23.204490
33.275000 87.375000 23.332137
33.350000 86.312500 23.338040
33.400000 85.390625 23.343161
33.525000 84.156250 23.350019
33.650000 82.828125 23.357398
32.625000 89.109375 23.477414
32.775000 88.234375 23.482275
32.850000 86.968750 23.489307
32.925000 85.765625 23.495991
33.000000 84.859375 23.501025
33.100000 83.781250 23.507015
33.275000 82.625000 23.513439
32.900000 87.687500 23.641491
32.925000 86.625000 23.647394
32.975000 85.750000 23.652255
33.125000 84.328125 23.660155
33.275000 83.015625 23.667446
33.675000 82.265625 23.671613
33.025000 87.187500 23.799842
33.075000 86.437500 23.804009
33.150000 85.062500 23.811648
33.325000 83.796875 23.818679
33.575000 82.671875 23.824929
33.100000 87.234375 23.955180
33.150000 86.140625 23.961256
33.325000 85.265625 23.966117
33.525000 84.062500 23.972801
33.675000 82.843750 23.979572
33.300000 87.937500 24.106958
33.400000 86.453125 24.115204
33.500000 85.765625 24.119024
33.600000 84.328125 24.127010
33.650000 83.390625 24.132218
34.025000 82.093750 24.139423
33.425000 87.546875 24.265366
33.525000 86.281250 24.272397
33.625000 85.281250 24.277953
33.625000 83.984375 24.285157
33.800000 82.890625 24.291234
33.350000 88.750000 24.403448
33.525000 88.218750 24.406399
33.600000 86.625000 24.415253
33.600000 85.859375 24.419507
33.650000 84.546875 24.426798
33.500000 87.703125 24.560177
33.575000 86.390625 24.567468
33.675000 84.859375 24.575975
33.775000 83.968750 24.580923
33.925000 82.906250 24.586826
33.175000 89.468750 24.713174
33.450000 88.031250 24.721160
33.600000 86.984375 24.726976
33.625000 85.531250 24.735049
33.650000 84.609375 24.740170
33.775000 83.671875 24.745379
34.225000 82.203125 24.753538
33.300000 89.078125 24.863353
33.550000 87.921875 24.869776
33.575000 86.812500 24.875940
33.600000 85.968750 24.880627
33.650000 84.828125 24.886964
33.750000 83.171875 24.896165
34.225000 82.328125 24.900853
33.450000 87.640625 25.031415
33.525000 85.984375 25.040617
33.600000 84.843750 25.046953
33.700000 84.109375 25.051033
33.900000 83.031250 25.057023
33.100000 89.390625 25.174216
33.325000 88.312500 25.180206
33.400000 87.312500 25.185761
33.500000 86.125000 25.192358
33.625000 84.578125 25.200952
33.650000 83.812500 25.205205
33.975000 82.703125 25.211369
33.150000 87.968750 25.340454
33.225000 86.671875 25.347659
33.350000 85.640625 25.353388
33.450000 83.984375 25.362590
32.725000 89.781250 25.484765
33.025000 88.656250 25.491015
33.050000 87.500000 25.497439
33.100000 86.234375 25.504470
33.250000 85.171875 25.510373
33.400000 83.937500 25.517231
33.525000 82.656250 25.524349
32.675000 89.031250 25.645959
32.825000 88.265625 25.650213
32.875000 87.328125 25.655421
32.900000 85.843750 25.663667
32.975000 84.968750 25.668529
33.125000 83.312500 25.677730
33.400000 82.390625 25.682851
32.375000 89.359375 25.786106
32.600000 88.562500 25.790533
32.600000 87.484375 25.796522
32.625000 85.796875 25.805897
32.650000 84.734375 25.811800
32.750000 83.546875 25.818398
32.925000 82.890625 25.822043
32.250000 87.671875 25.952511
32.325000 86.609375 25.958414
32.350000 85.328125 25.965532
32.400000 83.750000 25.974300
32.175000 87.843750 26.110561
32.225000 86.812500 26.116290
32.300000 85.890625 26.121411
32.425000 84.437500 26.129484
32.525000 83.078125 26.137036
32.800000 82.171875 26.142071
32.425000 89.109375 26.265496
32.600000 88.421875 26.269315
32.600000 86.781250 26.278430
32.625000 86.062500 26.282423
32.675000 85.015625 26.288239
32.750000 83.765625 26.295183
33.000000 82.656250 26.301347
32.850000 87.500000 26.415466
32.850000 86.468750 26.421196
32.875000 85.140625 26.428574
32.925000 83.703125 26.436560
33.100000 82.968750 26.440640
32.650000 89.562500 26.559976
32.950000 88.453125 26.566140
32.925000 87.343750 26.572303
32.975000 86.421875 26.577424
33.050000 84.968750 26.585497
33.125000 83.828125 26.591834
33.350000 83.000000 26.596435
33.075000 87.859375 26.723472
33.075000 86.406250 26.731545
33.200000 85.375000 26.737274
33.325000 84.343750 26.743003
33.500000 83.312500 26.748732
33.025000 89.234375 26.876833
33.100000 87.890625 26.884298
33.150000 87.250000 26.887857
33.200000 85.671875 26.896625
33.375000 84.890625 26.900965
33.525000 83.343750 26.909559
33.825000 82.125000 26.916330
33.025000 89.468750 27.023500
33.125000 88.171875 27.030704
33.175000 87.031250 27.037041
33.325000 86.218750 27.041555
33.475000 84.687500 27.050062
33.550000 83.968750 27.054055
33.825000 82.500000 27.062215
33.125000 89.453125 27.191624
33.225000 88.109375 27.199089
33.175000 86.750000 27.206641
33.350000 86.218750 27.209593
33.475000 84.984375 27.216450
33.550000 83.437500 27.225044
33.850000 82.312500 27.231294
33.325000 88.203125 27.345563
33.450000 86.921875 27.352681
33.550000 85.906250 27.358323
33.575000 84.093750 27.368393
32.825000 90.015625 27.491461
33.200000 88.734375 27.498579
33.350000 87.765625 27.503961
33.525000 86.343750 27.511860
33.525000 85.109375 27.518718
33.575000 84.046875 27.524621
33.700000 82.484375 27.533301
33.325000 88.078125 27.654310
33.350000 87.000000 27.660300
33.425000 85.765625 27.667157
33.525000 84.593750 27.673668
33.625000 83.234375 27.681220
34.025000 82.125000 27.687383
33.025000 89.343750 27.797273
33.125000 88.406250 27.802481
33.175000 86.812500 27.811336
33.325000 85.921875 27.816283
33.450000 84.500000 27.824183
33.525000 83.828125 27.827915
33.750000 82.734375 27.833992
32.775000 89.671875 27.955427
33.050000 88.593750 27.961416
33.075000 87.500000 27.967493
33.125000 85.890625 27.976434
33.275000 84.859375 27.982163
33.400000 83.734375 27.988413
33.475000 82.812500 27.993535
32.675000 89.265625 28.112682
32.900000 88.140625 28.118932
32.975000 87.531250 28.122317
33.025000 85.859375 28.131606
33.100000 84.750000 28.137769
33.275000 83.703125 28.143585
33.425000 82.671875 28.149314
32.450000 89.468750 28.273554
32.750000 88.671875 28.277981
32.775000 87.484375 28.284578
32.750000 86.000000 28.292825
32.800000 85.375000 28.296297
32.900000 83.890625 28.304544
33.050000 83.031250 28.309318
32.500000 87.796875 28.434841
32.575000 86.578125 28.441612
32.700000 85.546875 28.447341
32.775000 84.515625 28.453070
32.725000 89.609375 28.585802
32.850000 88.265625 28.593268
32.900000 87.328125 28.598476
33.000000 85.718750 28.607417
33.100000 84.937500 28.611757
33.200000 83.625000 28.619049
33.475000 82.640625 28.624518
33.150000 89.468750 28.738553
33.325000 88.312500 28.744977
33.375000 86.984375 28.752355
33.425000 86.125000 28.757129
33.500000 84.921875 28.763813
33.550000 83.671875 28.770758
33.900000 82.062500 28.779699
33.400000 89.375000 28.882076
33.550000 88.328125 28.887892
33.575000 87.078125 28.894836
33.600000 85.593750 28.903083
33.700000 84.578125 28.908725
33.800000 83.421875 28.915148
34.200000 82.546875 28.920010
33.375000 89.484375 29.039499
33.675000 88.125000 29.047051
33.750000 87.609375 29.049915
33.800000 86.234375 29.057554
33.875000 85.062500 29.064065
34.000000 83.593750 29.072224
34.225000 82.484375 29.078387
33.550000 89.687500 29.194337
33.850000 88.203125 29.202584
33.925000 87.500000 29.206490
34.000000 86.312500 29.213087
34.050000 84.796875 29.221507
34.125000 83.609375 29.228104
34.425000 82.531250 29.234094
33.725000 89.359375 29.356161
34.050000 88.640625 29.360154
34.050000 86.984375 29.369355
34.025000 86.171875 29.373869
34.125000 85.171875 29.379425
34.250000 83.546875 29.388453
34.600000 82.781250 29.392706
33.900000 89.390625 29.499017
34.050000 88.468750 29.504139
34.050000 87.125000 29.511604
34.125000 85.906250 29.518375
34.225000 84.531250 29.526014
34.300000 83.640625 29.530962
34.725000 82.625000 29.536604
34.100000 89.109375 29.652515
34.175000 88.093750 29.658157
34.200000 87.078125 29.663800
34.250000 85.859375 29.670570
34.325000 84.906250 29.675865
34.200000 87.671875 29.816180
34.250000 86.796875 29.821041
34.325000 85.234375 29.829722
34.400000 84.328125 29.834757
34.600000 83.062500 29.841788
34.050000 89.437500 29.963821
34.150000 87.906250 29.972328
34.200000 86.640625 29.979360
34.275000 85.531250 29.985523
34.350000 84.656250 29.990384
33.875000 90.062500 30.116845
34.250000 88.875000 30.123442
34.250000 87.484375 30.131168
34.275000 86.375000 30.137331
34.350000 85.156250 30.144102
34.425000 83.796875 30.151654
34.725000 82.890625 30.156689
34.175000 87.859375 30.281227
34.200000 86.984375 30.286088
34.275000 85.500000 30.294334
34.350000 84.375000 30.300584
33.950000 89.406250 30.432851
34.125000 88.609375 30.437278
34.150000 87.046875 30.445959
34.225000 86.281250 30.450212
34.250000 84.687500 30.459066
34.375000 83.484375 30.465750
34.800000 82.890625 30.469049
34.125000 87.718750 30.593071
34.175000 86.687500 30.598800
34.225000 85.328125 30.606352
34.325000 84.281250 30.612168
34.150000 87.843750 30.752477
34.150000 86.687500 30.758901
34.125000 84.984375 30.768363
34.200000 83.984375 30.773918
34.450000 82.953125 30.779647
33.800000 89.500000 30.897491
33.900000 88.031250 30.905651
33.925000 86.968750 30.911554
33.975000 85.875000 30.917630
34.050000 84.375000 30.925963
33.650000 89.593750 31.052843
33.750000 88.281250 31.060134
33.725000 87.015625 31.067166
33.775000 86.015625 31.072721
33.850000 84.921875 31.078798
33.975000 83.671875 31.085742
34.400000 82.062500 31.094683
33.175000 89.796875 31.207798
33.500000 88.515625 31.214916
33.475000 87.515625 31.220472
33.500000 86.406250 31.226635
33.575000 85.359375 31.232451
33.675000 84.296875 31.238354
33.800000 82.625000 31.247642
33.350000 87.671875 31.358916
33.450000 86.296875 31.366555
33.500000 85.656250 31.370114
33.625000 84.531250 31.376364
33.475000 89.156250 31.508384
33.650000 88.281250 31.513245
33.725000 86.984375 31.520450
33.775000 85.718750 31.527481
33.850000 84.640625 31.533471
33.975000 83.609375 31.539200
34.375000 82.390625 31.545971
33.875000 87.656250 31.671141
33.925000 86.546875 31.677305
34.000000 85.125000 31.685204
34.075000 83.875000 31.692148
34.250000 82.984375 31.697096
33.850000 89.640625 31.815068
34.050000 88.234375 31.822880
34.075000 87.390625 31.827568
34.125000 85.937500 31.835641
34.225000 84.640625 31.842845
34.300000 83.593750 31.848661
34.750000 82.515625 31.854651
33.875000 89.578125 31.969929
34.050000 88.078125 31.978263
34.150000 87.312500 31.982516
34.200000 86.156250 31.988940
34.300000 85.125000 31.994669
34.425000 83.890625 32.001527
34.800000 82.406250 32.009773
34.225000 88.125000 32.133599
34.250000 86.953125 32.140110
34.350000 85.765625 32.146707
34.450000 84.609375 32.153131
34.575000 83.546875 32.159033
34.350000 87.750000 32.292355
34.400000 86.437500 32.299647
34.450000 85.468750 32.305029
34.525000 84.328125 32.311366
34.750000 83.171875 32.317789
33.900000 89.609375 32.437465
34.250000 88.656250 32.442760
34.350000 87.421875 32.449618
34.450000 86.484375 32.454826
34.500000 85.265625 32.461597
34.600000 84.265625 32.467152
34.900000 83.046875 32.473923
33.900000 90.062500 32.583235
34.250000 88.593750 32.591394
34.350000 87.671875 32.596516
34.425000 86.203125 32.604676
34.500000 85.312500 32.609623
34.600000 84.281250 32.615353
34.900000 83.031250 32.622297
34.050000 89.500000 32.735190
34.300000 88.109375 32.742916
34.425000 87.640625 32.745520
34.500000 85.953125 32.754895
34.525000 85.000000 32.760190
34.625000 83.500000 32.768523
35.000000 82.843750 32.772169
34.275000 89.562500 32.897624
34.375000 88.125000 32.905610
34.375000 86.828125 32.912815
34.450000 86.093750 32.916894
34.550000 84.687500 32.924707
34.350000 87.703125 33.057951
34.425000 86.375000 33.065329
34.450000 85.468750 33.070364
34.525000 84.140625 33.077742
34.775000 83.000000 33.084079
33.950000 89.453125 33.208054
34.275000 88.171875 33.215172
34.325000 87.359375 33.219686
34.400000 85.968750 33.227412
34.500000 84.828125 33.233748
34.600000 83.734375 33.239825
34.975000 82.812500 33.244946
34.100000 89.296875 33.361034
34.250000 87.984375 33.368325
34.300000 86.828125 33.374749
34.325000 85.921875 33.379784
34.425000 84.109375 33.389853
34.550000 83.015625 33.395930
34.025000 89.265625 33.520894
34.125000 87.984375 33.528012
34.150000 86.546875 33.535999
34.250000 85.421875 33.542248
34.350000 84.406250 33.547891
33.975000 87.515625 33.683396
34.050000 86.531250 33.688865
34.100000 84.937500 33.697719
34.200000 83.734375 33.704403
34.450000 82.937500 33.708830
33.525000 89.578125 33.828472
33.700000 88.234375 33.835937
33.775000 86.859375 33.843576
33.850000 85.562500 33.850781
33.925000 84.343750 33.857552
34.050000 83.171875 33.864062
34.425000 82.578125 33.867361
33.500000 87.453125 33.994862
33.525000 86.546875 33.999897
33.600000 85.187500 34.007449
33.725000 84.000000 34.014046
33.900000 82.890625 34.020210
32.950000 89.062500 34.127214
33.150000 88.406250 34.130860
33.225000 86.718750 34.140235
33.300000 86.218750 34.143013
33.350000 84.796875 34.150912
33.425000 83.453125 34.158377
33.725000 82.484375 34.163759
32.850000 87.515625 34.292124
32.875000 86.187500 34.299502
32.950000 85.515625 34.303235
33.025000 84.109375 34.311047
32.950000 87.671875 34.464572
33.000000 86.015625 34.473773
33.025000 85.265625 34.477940
33.175000 83.718750 34.486534
33.375000 82.375000 34.493999
33.025000 87.625000 34.614357
33.075000 86.390625 34.621214
33.175000 85.093750 34.628419
33.325000 84.406250 34.632238
33.550000 82.859375 34.640832
33.175000 87.562500 34.756808
33.300000 86.218750 34.764273
33.425000 84.937500 34.771391
33.525000 83.828125 34.777554
33.700000 82.906250 34.782676
32.950000 89.281250 34.900655
33.150000 88.109375 34.907165
33.225000 87.000000 34.913328
33.425000 86.250000 34.917495
33.600000 85.093750 34.923919
33.650000 83.609375 34.932165
33.925000 82.531250 34.938155
33.525000 87.515625 35.068463
33.550000 86.593750 35.073584
33.575000 85.359375 35.080442
33.625000 84.265625 35.086519
33.725000 83.328125 35.091727
34.200000 82.078125 35.098671
33.550000 87.640625 35.220582
33.625000 86.578125 35.226485
33.675000 85.265625 35.233777
33.725000 83.828125 35.241763
33.875000 83.156250 35.245496
33.200000 89.546875 35.369302
33.475000 88.453125 35.375378
33.600000 87.203125 35.382322
33.625000 86.093750 35.388485
33.650000 84.359375 35.398121
33.775000 83.281250 35.404110
34.175000 82.656250 35.407583
33.600000 87.421875 35.535749
33.625000 86.234375 35.542346
33.650000 85.359375 35.547207
33.725000 84.156250 35.553891
33.875000 82.906250 35.560836
33.150000 89.437500 35.681028
33.450000 88.531250 35.686062
33.525000 87.109375 35.693962
33.575000 86.000000 35.700125
33.600000 84.796875 35.706809
33.650000 83.453125 35.714274
34.025000 82.546875 35.719309
33.450000 87.281250 35.848880
33.600000 86.328125 35.854176
33.625000 85.125000 35.860860
33.700000 84.203125 35.865981
33.850000 83.281250 35.871103
33.275000 87.593750 36.003001
33.450000 86.796875 36.007428
33.500000 85.687500 36.013591
33.550000 84.468750 36.020362
33.150000 88.187500 36.138024
33.250000 86.562500 36.147052
33.350000 85.953125 36.150437
33.450000 84.312500 36.159552
33.525000 83.390625 36.164673
33.900000 82.500000 36.169621
32.775000 89.390625 36.287007
32.975000 88.250000 36.293344
33.000000 87.046875 36.300028
33.000000 85.968750 36.306017
33.125000 84.515625 36.314090
33.300000 83.890625 36.317562
33.500000 82.734375 36.323986
32.775000 87.781250 36.450845
32.800000 87.031250 36.455011
32.850000 85.828125 36.461695
32.900000 84.140625 36.471070
33.050000 83.484375 36.474716
33.475000 82.453125 36.480445
32.250000 89.296875 36.596154
32.450000 88.031250 36.603185
32.475000 87.125000 36.608220
32.525000 86.312500 36.612734
32.600000 84.968750 36.620199
32.650000 83.625000 36.627665
32.825000 82.843750 36.632005
31.825000 89.687500 36.750359
32.150000 88.718750 36.755741
32.175000 87.218750 36.764074
32.200000 86.093750 36.770324
32.225000 85.125000 36.775706
32.300000 84.375000 36.779873
32.175000 89.625000 36.904727
32.250000 88.343750 36.911845
32.350000 87.250000 36.917921
32.450000 85.515625 36.927557
32.500000 84.406250 36.933720
32.575000 83.218750 36.940317
32.800000 82.593750 36.943789
32.575000 89.125000 37.063989
32.650000 88.000000 37.070239
32.675000 87.078125 37.075361
32.700000 85.593750 37.083607
32.750000 84.500000 37.089683
32.850000 83.515625 37.095152
33.150000 82.218750 37.102357
32.575000 89.468750 37.213177
32.900000 88.593750 37.218038
32.900000 87.531250 37.223941
32.900000 86.156250 37.231580
32.975000 84.812500 37.239045
33.025000 83.765625 37.244861
33.250000 82.546875 37.251632
33.000000 87.859375 37.380119
33.025000 87.078125 37.384459
33.050000 85.500000 37.393226
33.125000 84.296875 37.399910
33.275000 83.609375 37.403730
33.725000 82.218750 37.411455
33.100000 88.015625 37.534204
33.125000 86.703125 37.541496
33.225000 85.078125 37.550524
33.350000 84.078125 37.556079
32.950000 89.765625 37.684353
33.150000 88.656250 37.690516
33.200000 87.437500 37.697287
33.325000 86.000000 37.705273
33.475000 84.859375 37.711610
33.525000 83.812500 37.717426
33.750000 82.406250 37.725239
33.175000 88.296875 37.841223
33.225000 86.500000 37.851205
33.375000 85.343750 37.857629
33.525000 84.750000 37.860928
33.600000 83.078125 37.870216
34.000000 82.484375 37.873514
33.400000 88.109375 37.993737
33.325000 86.640625 38.001897
33.400000 85.609375 38.007626
33.575000 84.328125 38.014744
32.850000 89.515625 38.146233
33.175000 88.515625 38.151789
33.225000 87.171875 38.159254
33.325000 86.359375 38.163768
33.525000 85.015625 38.171233
33.625000 83.640625 38.178872
33.750000 82.734375 38.183907
33.225000 88.109375 38.305753
33.325000 87.062500 38.311569
33.450000 85.968750 38.317645
33.525000 84.234375 38.327281
33.575000 83.093750 38.333617
34.000000 82.453125 38.337176
32.950000 89.562500 38.456707
33.175000 88.046875 38.465127
33.200000 87.437500 38.468513
33.325000 85.812500 38.477541
33.450000 85.140625 38.481273
33.525000 83.625000 38.489693
33.725000 82.796875 38.494294
33.150000 87.703125 38.618930
33.225000 87.093750 38.622315
33.300000 85.656250 38.630301
33.425000 84.390625 38.637333
32.850000 89.546875 38.765786
33.000000 88.343750 38.772470
33.025000 86.812500 38.780977
33.150000 86.218750 38.784276
33.300000 84.468750 38.793998
33.350000 83.437500 38.799727
33.550000 82.687500 38.803894
32.925000 87.421875 38.933137
32.950000 86.218750 38.939821
32.975000 85.078125 38.946158
33.100000 84.109375 38.951540
33.200000 82.687500 38.959439
32.500000 89.687500 39.063500
32.675000 88.312500 39.071139
32.700000 86.828125 39.079386
32.725000 85.828125 39.084941
32.775000 84.437500 39.092667
32.875000 83.781250 39.096313
33.100000 82.390625 39.104038
32.425000 89.671875 39.218803
32.625000 88.609375 39.224705
32.650000 87.187500 39.232605
32.675000 86.031250 39.239028
32.750000 84.906250 39.245278
32.900000 83.750000 39.251702
33.050000 83.015625 39.255782
32.950000 87.453125 39.385668
33.100000 86.656250 39.390095
33.200000 85.515625 39.396432
33.275000 84.234375 39.403550
33.200000 89.296875 39.526371
33.400000 88.421875 39.531233
33.400000 87.000000 39.539132
33.450000 86.218750 39.543472
33.550000 84.875000 39.550937
33.600000 84.000000 39.555799
33.875000 82.281250 39.565347
33.500000 88.937500 39.690225
33.600000 87.984375 39.695520
33.650000 87.000000 39.700989
33.700000 85.578125 39.708888
33.800000 84.734375 39.713576
33.775000 87.843750 39.849608
33.825000 86.359375 39.857855
33.925000 85.109375 39.864799
34.025000 84.046875 39.870702
34.200000 83.109375 39.875910
33.650000 89.265625 39.998981
33.925000 88.406250 40.003756
34.000000 87.390625 40.009398
34.050000 85.843750 40.017992
34.100000 84.734375 40.024155
34.175000 83.984375 40.028322
34.550000 82.796875 40.034919
33.775000 89.187500 40.150071
33.975000 88.234375 40.155366
34.000000 87.312500 40.160488
34.050000 85.828125 40.168735
34.175000 84.593750 40.175592
34.275000 83.703125 40.180540
34.650000 82.812500 40.185488
34.150000 88.031250 40.316794
34.175000 86.625000 40.324606
34.200000 85.781250 40.329294
34.300000 84.421875 40.336846
34.450000 83.343750 40.342835
34.200000 87.734375 40.467083
34.250000 86.296875 40.475069
34.300000 85.406250 40.480016
34.375000 83.828125 40.488784
34.650000 83.031250 40.493211
33.975000 89.281250 40.606955
34.200000 88.578125 40.610861
34.250000 87.281250 40.618066
34.275000 85.843750 40.626052
34.375000 84.968750 40.630913
34.200000 87.406250 40.782255
34.250000 86.437500 40.787637
34.300000 85.062500 40.795276
34.375000 84.203125 40.800050
34.650000 82.953125 40.806994
34.200000 87.734375 40.925574
34.250000 86.375000 40.933126
34.325000 85.171875 40.939810
34.400000 84.187500 40.945279
34.650000 83.125000 40.951182
34.175000 87.953125 41.088218
34.225000 87.093750 41.092992
34.275000 85.703125 41.100718
34.325000 84.468750 41.107575
34.175000 87.484375 41.238696
34.225000 86.625000 41.243470
34.300000 85.312500 41.250762
34.375000 83.890625 41.258662
34.650000 82.750000 41.264998
34.125000 87.734375 41.401669
34.200000 86.593750 41.408006
34.250000 85.421875 41.414516
34.300000 84.156250 41.421548
34.100000 87.937500 41.552447
34.100000 87.046875 41.557395
34.125000 85.937500 41.563558
34.200000 84.281250 41.572759
33.500000 90.078125 41.697176
33.875000 88.343750 41.706812
33.875000 87.671875 41.710544
33.900000 86.656250 41.716187
33.975000 85.406250 41.723131
34.050000 83.671875 41.732767
34.250000 82.734375 41.737975
33.650000 88.343750 41.847611
33.650000 86.812500 41.856118
33.700000 85.640625 41.862629
33.800000 84.656250 41.868098
33.150000 89.796875 42.017453
33.350000 88.312500 42.025700
33.350000 87.640625 42.029433
33.425000 86.218750 42.037332
33.525000 85.281250 42.042540
33.600000 84.062500 42.049311
33.750000 82.812500 42.056256
33.450000 88.140625 42.158082
33.525000 86.656250 42.166329
33.625000 85.625000 42.172058
33.775000 84.812500 42.176572
33.850000 83.312500 42.184905
34.225000 82.156250 42.191329
33.725000 87.437500 42.320679
33.800000 86.156250 42.327797
33.925000 85.484375 42.331529
34.025000 84.296875 42.338126
34.175000 83.046875 42.345071
33.750000 89.593750 42.461699
33.950000 88.343750 42.468643
34.000000 86.921875 42.476543
34.050000 86.046875 42.481404
34.100000 84.703125 42.488869
34.200000 83.796875 42.493904
34.625000 82.421875 42.501543
34.125000 87.906250 42.627390
34.150000 86.812500 42.633466
34.200000 85.421875 42.641192
34.300000 84.500000 42.646313
34.450000 83.171875 42.653692
34.250000 87.609375 42.784304
34.250000 86.468750 42.790641
34.275000 85.218750 42.797585
34.425000 84.343750 42.802446
34.675000 82.781250 42.811127
34.300000 88.359375 42.934562
34.350000 87.093750 42.941593
34.400000 85.875000 42.948364
34.475000 84.312500 42.957044
34.175000 89.609375 43.086601
34.275000 88.140625 43.094761
34.325000 86.984375 43.101185
34.400000 85.906250 43.107174
34.475000 84.828125 43.113164
34.400000 87.656250 43.250078
34.450000 86.796875 43.254853
34.475000 85.156250 43.263968
34.575000 84.390625 43.268221
34.750000 83.062500 43.275599
33.950000 89.875000 43.394164
34.325000 88.906250 43.399546
34.350000 87.609375 43.406751
34.425000 86.593750 43.412393
34.525000 85.250000 43.419858
34.600000 84.062500 43.426456
34.900000 82.984375 43.432445
34.200000 89.578125 43.551172
34.300000 87.937500 43.560287
34.425000 86.984375 43.565582
34.475000 85.734375 43.572526
34.475000 84.359375 43.580165
34.350000 87.343750 43.718537
34.450000 86.296875 43.724353
34.475000 85.046875 43.731297
34.575000 84.265625 43.735638
34.825000 83.187500 43.741627
34.125000 89.187500 43.848510
34.300000 88.296875 43.853458
34.325000 87.015625 43.860576
34.400000 86.109375 43.865611
34.500000 84.468750 43.874725
34.150000 87.843750 44.011395
34.250000 87.062500 44.015736
34.375000 85.718750 44.023201
34.475000 84.656250 44.029104
34.550000 83.578125 44.035094
33.975000 89.703125 44.156250
34.250000 88.234375 44.164409
34.300000 87.234375 44.169965
34.300000 86.031250 44.176649
34.400000 84.796875 44.183506
34.500000 83.343750 44.191579
34.875000 82.734375 44.194965
33.875000 89.093750 44.314944
34.050000 88.343750 44.319110
34.075000 86.828125 44.327530
34.125000 85.593750 44.334388
34.250000 84.781250 44.338902
34.400000 83.531250 44.345846
34.825000 82.328125 44.352530
33.900000 87.906250 44.478081
33.975000 86.875000 44.483810
34.000000 85.484375 44.491535
34.125000 84.609375 44.496397
33.700000 87.109375 44.639855
33.725000 86.437500 44.643588
33.775000 84.937500 44.651922
33.900000 83.937500 44.657477
34.150000 82.921875 44.663119
33.125000 89.546875 44.776482
33.400000 88.562500 44.781951
33.425000 87.328125 44.788808
33.475000 86.312500 44.794451
33.575000 84.875000 44.802437
33.675000 83.484375 44.810163
33.925000 82.578125 44.815197
33.050000 87.578125 44.946463
33.100000 86.375000 44.953147
33.150000 85.703125 44.956880
33.225000 84.406250 44.964085
32.525000 89.687500 45.087092
32.775000 87.984375 45.096554
32.800000 86.843750 45.102890
32.850000 86.234375 45.106276
32.975000 84.546875 45.115651
33.075000 83.343750 45.122335
33.200000 82.593750 45.126502
32.875000 88.875000 45.251711
33.000000 87.781250 45.257787
33.025000 86.531250 45.264732
33.075000 85.546875 45.270200
33.225000 84.031250 45.278621
33.375000 83.343750 45.282440
33.725000 82.031250 45.289732
32.675000 89.593750 45.396596
33.075000 88.578125 45.402239
33.100000 87.281250 45.409444
33.150000 86.234375 45.415260
33.225000 84.953125 45.422378
33.400000 83.828125 45.428628
33.675000 82.328125 45.436961
33.275000 87.484375 45.558520
33.400000 86.718750 45.562774
33.425000 85.375000 45.570239
33.525000 84.203125 45.576750
33.475000 87.984375 45.716713
33.550000 86.609375 45.724352
33.575000 85.343750 45.731383
33.600000 84.468750 45.736244
33.125000 89.578125 45.858343
33.475000 88.390625 45.864940
33.475000 86.937500 45.873013
33.550000 86.062500 45.877874
33.650000 84.562500 45.886207
33.700000 83.343750 45.892978
34.050000 82.343750 45.898534
33.300000 89.296875 46.020296
33.475000 87.578125 46.029844
33.575000 87.062500 46.032709
33.675000 85.515625 46.041303
33.725000 84.296875 46.048073
33.500000 87.031250 46.186323
33.650000 86.281250 46.190489
33.700000 85.109375 46.197000
33.775000 84.015625 46.203076
34.050000 82.828125 46.209673
33.550000 87.562500 46.340473
33.550000 86.828125 46.344553
33.575000 85.468750 46.352105
33.675000 84.109375 46.359657
33.275000 89.562500 46.483446
33.550000 88.015625 46.492039
33.525000 87.125000 46.496987
33.550000 86.171875 46.502283
33.650000 84.875000 46.509487
33.700000 83.796875 46.515477
34.050000 82.578125 46.522248
33.475000 87.796875 46.633547
33.525000 86.578125 46.640318
33.550000 85.671875 46.645353
33.625000 84.328125 46.652818
33.250000 87.656250 46.790087
33.375000 86.828125 46.794687
33.475000 85.812500 46.800330
33.500000 84.390625 46.808229
32.875000 89.671875 46.933769
33.075000 88.531250 46.940106
33.100000 87.281250 46.947050
33.225000 86.328125 46.952346
33.350000 84.937500 46.960071
33.400000 83.734375 46.966755
33.625000 82.531250 46.973439
32.950000 87.359375 47.102001
32.975000 86.593750 47.106254
33.025000 85.156250 47.114241
33.150000 83.937500 47.121011
32.550000 89.265625 47.245707
32.700000 88.453125 47.250221
32.750000 87.281250 47.256731
32.775000 85.968750 47.264023
32.825000 84.906250 47.269926
32.900000 83.562500 47.277391
33.125000 82.312500 47.284336
32.300000 88.968750 47.400388
32.400000 88.312500 47.404034
32.425000 87.171875 47.410371
32.450000 85.593750 47.419138
32.525000 84.812500 47.423478
32.600000 83.703125 47.429641
32.850000 82.234375 47.437801
32.150000 87.718750 47.568274
32.175000 86.625000 47.574350
32.250000 85.468750 47.580774
32.300000 84.062500 47.588586
32.375000 83.343750 47.592579
32.675000 82.296875 47.598395
32.050000 89.812500 47.708107
32.275000 88.328125 47.716353
32.375000 87.109375 47.723124
32.475000 86.140625 47.728506
32.550000 84.796875 47.735971
32.600000 83.531250 47.743003
32.750000 82.765625 47.747256
32.725000 87.609375 47.880842
32.725000 86.921875 47.884662
32.775000 85.703125 47.891433
32.825000 84.546875 47.897856
32.900000 82.906250 47.906971
33.300000 82.171875 47.911051
32.900000 87.125000 48.034775
32.950000 86.500000 48.038248
33.000000 85.296875 48.044932
33.050000 84.015625 48.052050
33.225000 82.468750 48.060644
32.925000 89.531250 48.181401
33.025000 87.984375 48.189995
33.050000 87.343750 48.193554
33.100000 86.156250 48.200151
33.225000 84.687500 48.208311
33.400000 83.828125 48.213085
33.725000 82.515625 48.220377
33.250000 87.375000 48.342805
33.250000 86.328125 48.348621
33.250000 84.968750 48.356173
33.450000 83.781250 48.362770
33.600000 82.718750 48.368673
32.975000 89.578125 48.477502
33.175000 88.343750 48.484360
33.275000 87.218750 48.490610
33.400000 86.109375 48.496773
33.500000 85.140625 48.502155
33.500000 83.609375 48.510662
33.775000 82.437500 48.517172
33.175000 87.734375 48.641931
33.250000 86.640625 48.648007
33.400000 85.406250 48.654865
33.550000 84.156250 48.661809
33.150000 89.031250 48.791642
33.350000 87.906250 48.797892
33.375000 87.406250 48.800670
33.400000 86.234375 48.807180
33.475000 84.718750 48.815600
33.600000 83.281250 48.823586
33.925000 82.390625 48.828534
33.175000 87.843750 48.954399
33.375000 86.640625 48.961083
33.525000 85.406250 48.967941
33.550000 84.109375 48.975146
32.900000 89.953125 49.095371
33.100000 88.265625 49.104746
33.125000 87.140625 49.110996
33.300000 85.890625 49.117940
33.500000 85.062500 49.122541
33.500000 83.640625 49.130440
33.700000 82.875000 49.134694
33.175000 88.250000 49.259319
33.350000 87.109375 49.265656
33.450000 85.437500 49.274944
33.500000 84.703125 49.279024
33.550000 83.609375 49.285100
33.900000 82.234375 49.292739
33.150000 87.750000 49.416754
33.225000 86.796875 49.422049
33.350000 85.468750 49.429427
33.450000 84.328125 49.435764
33.500000 82.812500 49.444184
32.750000 89.625000 49.562316
33.075000 88.437500 49.568914
33.100000 87.593750 49.573601
33.050000 86.078125 49.582021
33.050000 84.750000 49.589400
33.225000 84.078125 49.593132
33.450000 82.812500 49.600164
32.600000 89.437500 49.713434
32.850000 88.687500 49.717600
32.875000 87.125000 49.726281
32.900000 86.015625 49.732444
32.925000 84.796875 49.739215
33.025000 83.578125 49.745986
33.225000 82.609375 49.751368
32.525000 89.093750 49.877424
32.600000 88.312500 49.881765
32.625000 87.234375 49.887754
32.700000 85.390625 49.897997
32.725000 84.640625 49.902164
32.825000 83.546875 49.908241
33.125000 82.296875 49.915185
32.725000 87.921875 50.034106
32.775000 86.859375 50.040009
32.850000 85.265625 50.048863
32.950000 83.984375 50.055981
33.225000 87.828125 50.197473
33.250000 86.234375 50.206327
33.275000 84.984375 50.213272
33.425000 83.984375 50.218827
33.550000 82.921875 50.224730
33.475000 87.734375 50.344857
33.525000 86.593750 50.351194
33.575000 85.625000 50.356576
33.700000 84.484375 50.362913
33.800000 82.984375 50.371246
33.625000 87.453125 50.508319
33.675000 86.828125 50.511792
33.750000 85.640625 50.518389
33.850000 84.546875 50.524465
33.975000 83.296875 50.531410
33.725000 89.265625 50.648849
33.800000 87.937500 50.656227
33.875000 86.765625 50.662738
33.950000 85.625000 50.669075
34.025000 84.421875 50.675759
33.675000 89.609375 50.792694
34.025000 88.218750 50.800419
34.000000 87.250000 50.805801
34.050000 86.406250 50.810489
34.150000 85.046875 50.818041
34.225000 83.937500 50.824204
34.500000 82.906250 50.829933
34.075000 87.671875 50.965087
34.125000 86.203125 50.973247
34.200000 85.343750 50.978021
34.300000 83.750000 50.986876
34.500000 82.734375 50.992518
34.075000 89.265625 51.107461
34.150000 88.078125 51.114059
34.175000 86.703125 51.121698
34.225000 85.828125 51.126559
34.325000 84.406250 51.134458
34.200000 87.734375 51.275853
34.225000 86.468750 51.282884
34.250000 85.859375 51.286270
34.375000 84.281250 51.295037
34.525000 83.500000 51.299377
33.925000 89.750000 51.414163
34.225000 88.484375 51.421195
34.225000 87.500000 51.426663
34.250000 85.843750 51.435865
34.325000 84.953125 51.440813
34.425000 83.406250 51.449406
34.850000 82.937500 51.452010
34.200000 87.875000 51.579815
34.225000 86.484375 51.587541
34.250000 85.812500 51.591273
34.350000 84.359375 51.599346
34.525000 83.000000 51.606898
33.925000 89.625000 51.725100
34.200000 88.093750 51.733607
34.225000 87.234375 51.738381
34.275000 85.937500 51.745586
34.350000 85.031250 51.750621
34.450000 83.531250 51.758954
34.850000 82.734375 51.763381
34.175000 87.859375 51.890903
34.225000 86.562500 51.898108
34.250000 85.562500 51.903663
34.350000 84.734375 51.908264
34.150000 87.515625 52.045584
34.125000 86.421875 52.051660
34.200000 85.453125 52.057042
34.300000 83.812500 52.066157
34.525000 83.046875 52.070410
33.850000 89.265625 52.190355
34.125000 88.109375 52.196779
34.200000 87.546875 52.199904
34.225000 86.062500 52.208150
34.275000 84.656250 52.215963
34.400000 83.906250 52.220130
34.725000 82.281250 52.229157
34.000000 88.125000 52.347899
34.025000 87.000000 52.354149
34.050000 85.390625 52.363090
34.100000 84.421875 52.368472
33.375000 90.015625 52.498019
33.775000 88.812500 52.504703
33.800000 87.250000 52.513383
33.875000 86.703125 52.516421
33.925000 85.281250 52.524321
34.000000 84.078125 52.531005
34.175000 82.875000 52.537689
33.575000 88.062500 52.656709
33.600000 86.843750 52.663480
33.625000 85.593750 52.670425
33.700000 84.765625 52.675025
33.025000 89.812500 52.808461
33.300000 88.421875 52.816186
33.325000 87.406250 52.821829
33.375000 86.109375 52.829034
33.500000 84.984375 52.835284
33.650000 84.343750 52.838843
33.750000 82.828125 52.847263
33.425000 89.031250 52.963423
33.550000 88.265625 52.967676
33.600000 87.171875 52.973753
33.675000 86.046875 52.980003
33.750000 84.406250 52.989117
33.850000 83.281250 52.995367
34.300000 82.609375 52.999100
33.500000 89.812500 53.105662
33.825000 88.750000 53.111564
33.825000 87.281250 53.119724
33.875000 86.484375 53.124151
33.950000 84.750000 53.133787
34.025000 83.593750 53.140210
34.300000 82.812500 53.144551
33.850000 89.343750 53.271688
34.000000 87.906250 53.279674
34.050000 87.015625 53.284622
34.075000 85.968750 53.290438
34.150000 84.328125 53.299552
34.275000 83.687500 53.303112
34.775000 82.578125 53.309275
34.150000 88.015625 53.427993
34.200000 86.421875 53.436847
34.250000 85.765625 53.440493
34.325000 84.296875 53.448653
34.500000 82.984375 53.455945
33.875000 89.468750 53.581290
34.125000 88.484375 53.586759
34.200000 87.093750 53.594485
34.275000 86.015625 53.600474
34.350000 84.796875 53.607245
34.425000 83.781250 53.612887
34.825000 82.843750 53.618096
33.825000 89.859375 53.726273
34.250000 88.531250 53.733651
34.325000 87.453125 53.739641
34.350000 86.640625 53.744155
34.400000 85.343750 53.751359
34.525000 83.781250 53.760040
34.750000 82.875000 53.765075
34.000000 89.437500 53.882166
34.325000 88.265625 53.888677
34.375000 87.453125 53.893190
34.400000 86.171875 53.900309
34.450000 85.000000 53.906819
34.600000 84.109375 53.911767
34.925000 82.750000 53.919319
34.325000 88.156250 54.043921
34.475000 87.046875 54.050085
34.500000 85.359375 54.059460
34.550000 84.203125 54.065883
34.700000 82.937500 54.072915
34.325000 87.765625 54.201705
34.375000 86.390625 54.209344
34.425000 85.234375 54.215768
34.525000 83.937500 54.222973
34.750000 82.937500 54.228528
34.000000 89.468750 54.350479
34.350000 88.828125 54.354038
34.375000 87.234375 54.362892
34.400000 85.953125 54.370010
34.450000 84.968750 54.375479
34.600000 84.015625 54.380774
34.900000 82.609375 54.388587
34.200000 89.171875 54.507378
34.350000 88.234375 54.512586
34.425000 86.781250 54.520659
34.475000 85.843750 54.525867
34.525000 84.765625 54.531857
34.375000 87.703125 54.672658
34.400000 86.406250 54.679863
34.425000 85.734375 54.683596
34.525000 84.375000 54.691148
34.675000 82.890625 54.699394
34.275000 87.671875 54.814086
34.300000 86.093750 54.822853
34.375000 85.171875 54.827975
34.475000 84.000000 54.834485
34.725000 82.734375 54.841516
33.875000 89.109375 54.963516
34.100000 88.093750 54.969158
34.200000 86.968750 54.975408
34.200000 86.125000 54.980096
34.300000 84.984375 54.986433
34.450000 83.265625 54.995981
34.850000 82.218750 55.001797
34.075000 87.796875 55.123548
34.075000 86.296875 55.131881
34.125000 84.984375 55.139173
34.225000 83.671875 55.146464
34.475000 82.578125 55.152541
33.875000 87.828125 55.284647
33.900000 86.250000 55.293414
33.950000 85.375000 55.298275
34.125000 84.015625 55.305827
34.325000 83.031250 55.311296
33.625000 87.984375 55.435044
33.675000 86.640625 55.442509
33.725000 85.203125 55.450495
33.850000 84.187500 55.456137
33.975000 83.218750 55.461519
33.325000 87.359375 55.596340
33.375000 86.312500 55.602156
33.425000 85.312500 55.607712
33.550000 84.328125 55.613180
32.950000 87.828125 55.747389
33.000000 86.828125 55.752945
33.050000 85.328125 55.761278
33.100000 83.921875 55.769091
32.675000 89.218750 55.898292
32.825000 87.703125 55.906712
