38.450000 -20.062500 9.306876
38.250000 -18.906250 9.306876
37.875000 -17.375000 9.306876
37.550000 -16.265625 9.306876
37.225000 -14.609375 9.306876
36.850000 -13.328125 9.306876
36.675000 -12.000000 9.306876
36.600000 -10.781250 9.306876
36.450000 -9.578125 9.306876
38.400000 -20.359375 9.479874
38.275000 -18.828125 9.479874
38.025000 -17.406250 9.479874
37.650000 -16.343750 9.479874
37.250000 -15.031250 9.479874
36.925000 -13.312500 9.479874
36.725000 -12.156250 9.479874
36.600000 -10.859375 9.479874
36.425000 -9.859375 9.479874
36.425000 -8.078125 9.479874
37.025000 -7.328125 9.479874
39.000000 -21.296875 9.591875
38.425000 -20.453125 9.591875
38.250000 -18.750000 9.591875
37.975000 -17.687500 9.591875
37.625000 -16.375000 9.591875
37.450000 -14.796875 9.591875
37.100000 -13.843750 9.591875
36.750000 -12.609375 9.591875
36.700000 -11.328125 9.591875
36.475000 -9.500000 9.591875
36.425000 -8.656250 9.591875
37.000000 -7.390625 9.591875
38.950000 -21.703125 9.733875
38.475000 -20.500000 9.733875
38.225000 -18.968750 9.733875
37.975000 -17.703125 9.733875
37.650000 -16.625000 9.733875
37.275000 -15.078125 9.733875
36.950000 -13.593750 9.733875
36.775000 -12.390625 9.733875
36.650000 -11.312500 9.733875
36.425000 -9.640625 9.733875
36.400000 -8.484375 9.733875
36.800000 -7.312500 9.733875
39.050000 -21.843750 9.870875
38.575000 -20.250000 9.870875
38.250000 -19.203125 9.870875
38.025000 -18.046875 9.870875
37.500000 -16.265625 9.870875
36.950000 -14.984375 9.870875
36.825000 -14.046875 9.870875
36.800000 -12.640625 9.870875
36.650000 -11.406250 9.870875
36.475000 -10.062500 9.870875
36.450000 -8.890625 9.870875
36.800000 -7.281250 9.870875
39.000000 -21.578125 10.055875
38.400000 -20.437500 10.055875
38.275000 -18.812500 10.055875
38.025000 -17.343750 10.055875
37.350000 -16.031250 10.055875
36.775000 -14.828125 10.055875
36.750000 -13.421875 10.055875
36.750000 -12.546875 10.055875
36.675000 -10.890625 10.055875
36.475000 -9.906250 10.055875
36.450000 -8.406250 10.055875
37.025000 -7.312500 10.055875
38.375000 -19.921875 10.157876
38.250000 -18.562500 10.157876
38.400000 -17.500000 10.157876
36.775000 -14.921875 10.157876
36.850000 -13.375000 10.157876
36.800000 -12.031250 10.157876
36.600000 -11.000000 10.157876
36.425000 -9.890625 10.157876
38.350000 -20.078125 10.313877
38.225000 -18.546875 10.313877
37.925000 -17.531250 10.313877
37.175000 -15.875000 10.313877
36.700000 -14.640625 10.313877
37.075000 -13.421875 10.313877
37.025000 -12.187500 10.313877
36.575000 -11.109375 10.313877
36.425000 -9.812500 10.313877
38.900000 -21.437500 10.441875
38.350000 -20.093750 10.441875
38.225000 -18.781250 10.441875
37.900000 -17.703125 10.441875
37.150000 -16.250000 10.441875
36.675000 -14.593750 10.441875
36.900000 -13.421875 10.441875
36.875000 -12.312500 10.441875
36.575000 -11.000000 10.441875
36.425000 -9.359375 10.441875
38.900000 -21.484375 10.577874
38.350000 -19.750000 10.577874
38.225000 -18.718750 10.577874
36.750000 -16.156250 10.577874
36.675000 -14.546875 10.577874
36.900000 -13.687500 10.577874
36.875000 -12.375000 10.577874
36.600000 -10.578125 10.577874
36.450000 -9.593750 10.577874
38.875000 -21.187500 10.723875
38.350000 -20.328125 10.723875
38.225000 -18.953125 10.723875
36.900000 -16.031250 10.723875
36.800000 -14.718750 10.723875
37.025000 -13.453125 10.723875
37.100000 -12.046875 10.723875
36.775000 -11.140625 10.723875
36.525000 -9.859375 10.723875
36.475000 -8.546875 10.723875
37.150000 -7.078125 10.723875
38.875000 -21.625000 10.869875
38.375000 -20.312500 10.869875
38.225000 -18.937500 10.869875
36.975000 -16.328125 10.869875
36.875000 -14.906250 10.869875
37.025000 -13.890625 10.869875
37.700000 -12.453125 10.869875
36.500000 -9.500000 10.869875
36.475000 -8.359375 10.869875
37.125000 -7.046875 10.869875
38.850000 -21.515625 11.004878
38.400000 -20.156250 11.004878
38.300000 -19.031250 11.004878
36.875000 -16.218750 11.004878
36.825000 -14.828125 11.004878
37.125000 -13.828125 11.004878
37.700000 -12.453125 11.004878
36.650000 -9.937500 11.004878
36.525000 -8.515625 11.004878
36.925000 -7.078125 11.004878
38.925000 -21.609375 11.153876
38.475000 -20.359375 11.153876
38.300000 -18.781250 11.153876
37.075000 -16.062500 11.153876
37.100000 -15.187500 11.153876
37.175000 -13.640625 11.153876
37.675000 -12.828125 11.153876
36.650000 -9.640625 11.153876
36.500000 -8.812500 11.153876
36.900000 -7.531250 11.153876
38.950000 -21.437500 11.299874
38.525000 -20.390625 11.299874
38.300000 -18.906250 11.299874
37.625000 -17.656250 11.299874
37.175000 -16.546875 11.299874
37.575000 -15.125000 11.299874
37.550000 -13.593750 11.299874
37.675000 -12.468750 11.299874
36.750000 -9.921875 11.299874
36.625000 -8.718750 11.299874
36.925000 -7.453125 11.299874
38.925000 -21.656250 11.445874
38.500000 -20.156250 11.445874
38.300000 -18.859375 11.445874
37.625000 -17.875000 11.445874
37.175000 -16.281250 11.445874
37.475000 -14.875000 11.445874
37.450000 -13.937500 11.445874
37.650000 -12.625000 11.445874
37.525000 -11.343750 11.445874
36.825000 -9.984375 11.445874
36.625000 -8.687500 11.445874
36.950000 -7.546875 11.445874
38.925000 -21.437500 11.580875
38.550000 -20.390625 11.580875
38.325000 -18.906250 11.580875
37.650000 -17.468750 11.580875
37.225000 -16.265625 11.580875
37.425000 -15.093750 11.580875
37.575000 -13.453125 11.580875
38.050000 -12.640625 11.580875
36.825000 -9.812500 11.580875
36.625000 -8.312500 11.580875
37.000000 -7.125000 11.580875
38.925000 -21.562500 11.738876
38.575000 -20.109375 11.738876
38.425000 -18.937500 11.738876
37.750000 -17.500000 11.738876
37.250000 -16.421875 11.738876
37.400000 -14.953125 11.738876
37.575000 -13.812500 11.738876
38.150000 -12.421875 11.738876
36.875000 -9.468750 11.738876
36.650000 -8.281250 11.738876
37.100000 -7.046875 11.738876
38.975000 -21.093750 11.876894
38.550000 -20.203125 11.876894
38.275000 -18.843750 11.876894
37.675000 -17.343750 11.876894
36.950000 -16.109375 11.876894
37.050000 -14.656250 11.876894
37.550000 -13.625000 11.876894
37.625000 -12.437500 11.876894
37.250000 -10.671875 11.876894
36.825000 -9.406250 11.876894
36.700000 -8.078125 11.876894
39.100000 -21.031250 12.010875
38.550000 -20.062500 12.010875
38.350000 -18.484375 12.010875
37.725000 -17.109375 12.010875
37.050000 -16.015625 12.010875
37.225000 -14.843750 12.010875
37.650000 -13.203125 12.010875
37.475000 -11.718750 12.010875
37.025000 -10.765625 12.010875
36.800000 -9.343750 12.010875
36.700000 -7.796875 12.010875
39.150000 -20.921875 12.171874
38.600000 -19.421875 12.171874
38.475000 -18.328125 12.171874
37.150000 -15.390625 12.171874
37.375000 -14.125000 12.171874
37.775000 -13.015625 12.171874
37.500000 -11.625000 12.171874
36.875000 -10.453125 12.171874
36.775000 -9.187500 12.171874
36.825000 -7.718750 12.171874
39.725000 -22.031250 12.293876
39.100000 -20.593750 12.293876
38.650000 -19.656250 12.293876
38.500000 -18.031250 12.293876
37.425000 -13.046875 12.293876
37.325000 -11.828125 12.293876
36.800000 -10.312500 12.293876
36.700000 -8.984375 12.293876
36.850000 -7.640625 12.293876
39.225000 -20.468750 12.446874
38.650000 -19.484375 12.446874
38.175000 -17.906250 12.446874
37.450000 -16.437500 12.446874
37.175000 -15.453125 12.446874
37.575000 -14.203125 12.446874
37.850000 -12.890625 12.446874
37.300000 -11.406250 12.446874
36.725000 -10.328125 12.446874
36.725000 -8.968750 12.446874
36.950000 -7.750000 12.446874
39.300000 -20.593750 12.589880
38.675000 -19.078125 12.589880
38.275000 -17.796875 12.589880
37.675000 -16.734375 12.589880
37.475000 -15.375000 12.589880
37.750000 -14.187500 12.589880
37.775000 -12.531250 12.589880
37.225000 -11.359375 12.589880
36.725000 -9.875000 12.589880
36.750000 -8.953125 12.589880
36.950000 -7.765625 12.589880
38.675000 -19.406250 12.731874
38.550000 -17.703125 12.731874
37.950000 -16.500000 12.731874
37.625000 -15.343750 12.731874
37.875000 -14.046875 12.731874
37.600000 -12.812500 12.731874
37.075000 -11.437500 12.731874
36.725000 -9.921875 12.731874
36.750000 -8.968750 12.731874
36.975000 -7.250000 12.731874
40.175000 -21.562500 12.860874
39.200000 -20.453125 12.860874
38.700000 -18.968750 12.860874
38.500000 -17.828125 12.860874
38.075000 -16.421875 12.860874
37.825000 -15.281250 12.860874
37.850000 -13.937500 12.860874
37.450000 -12.484375 12.860874
36.950000 -11.000000 12.860874
36.750000 -9.937500 12.860874
36.850000 -8.562500 12.860874
37.250000 -7.203125 12.860874
39.300000 -20.890625 13.023098
38.725000 -19.671875 13.023098
38.575000 -18.375000 13.023098
38.225000 -16.937500 13.023098
37.900000 -15.781250 13.023098
37.850000 -14.328125 13.023098
37.750000 -13.000000 13.023098
37.225000 -11.671875 13.023098
36.775000 -10.078125 13.023098
36.750000 -8.781250 13.023098
36.850000 -7.875000 13.023098
39.275000 -20.718750 13.152081
38.725000 -19.625000 13.152081
38.550000 -17.984375 13.152081
38.200000 -16.921875 13.152081
37.875000 -15.562500 13.152081
37.825000 -14.406250 13.152081
37.675000 -13.031250 13.152081
37.150000 -11.828125 13.152081
36.775000 -10.125000 13.152081
36.750000 -9.250000 13.152081
36.850000 -7.531250 13.152081
39.775000 -21.265625 13.298079
39.225000 -19.984375 13.298079
38.700000 -18.687500 13.298079
38.425000 -17.187500 13.298079
38.100000 -16.125000 13.298079
38.075000 -14.921875 13.298079
38.025000 -13.671875 13.298079
37.450000 -12.234375 13.298079
36.925000 -10.906250 13.298079
36.800000 -9.796875 13.298079
36.850000 -8.375000 13.298079
37.450000 -6.953125 13.298079
39.550000 -20.937500 13.463079
38.825000 -19.734375 13.463079
38.575000 -18.531250 13.463079
38.350000 -16.750000 13.463079
38.050000 -15.531250 13.463079
37.875000 -14.406250 13.463079
37.850000 -13.140625 13.463079
37.325000 -11.750000 13.463079
36.800000 -10.468750 13.463079
36.775000 -8.875000 13.463079
36.875000 -7.906250 13.463079
39.525000 -20.921875 13.617078
38.800000 -19.484375 13.617078
38.600000 -17.953125 13.617078
38.350000 -17.031250 13.617078
38.050000 -15.484375 13.617078
37.900000 -14.468750 13.617078
37.775000 -12.718750 13.617078
37.250000 -11.703125 13.617078
36.775000 -10.109375 13.617078
36.850000 -9.046875 13.617078
37.025000 -7.812500 13.617078
39.850000 -21.968750 13.733079
39.450000 -20.890625 13.733079
38.800000 -19.437500 13.733079
38.600000 -18.328125 13.733079
38.350000 -16.859375 13.733079
37.950000 -15.453125 13.733079
37.900000 -14.171875 13.733079
37.875000 -12.781250 13.733079
37.275000 -11.468750 13.733079
36.725000 -10.187500 13.733079
36.775000 -8.937500 13.733079
37.000000 -7.671875 13.733079
39.375000 -20.812500 13.878078
38.775000 -19.265625 13.878078
38.575000 -18.343750 13.878078
38.225000 -16.718750 13.878078
37.600000 -15.468750 13.878078
37.650000 -14.078125 13.878078
37.850000 -12.750000 13.878078
37.350000 -11.515625 13.878078
36.800000 -10.093750 13.878078
36.750000 -8.859375 13.878078
37.000000 -7.687500 13.878078
39.350000 -20.593750 14.011081
38.775000 -19.578125 14.011081
38.300000 -18.328125 14.011081
38.025000 -16.546875 14.011081
37.675000 -15.187500 14.011081
37.650000 -14.125000 14.011081
37.850000 -13.093750 14.011081
37.350000 -11.640625 14.011081
36.800000 -10.296875 14.011081
36.750000 -8.671875 14.011081
37.000000 -7.812500 14.011081
39.550000 -21.750000 14.153081
39.100000 -20.406250 14.153081
38.675000 -19.218750 14.153081
38.100000 -17.703125 14.153081
37.475000 -15.078125 14.153081
37.675000 -13.750000 14.153081
37.875000 -12.500000 14.153081
37.325000 -11.375000 14.153081
36.800000 -9.984375 14.153081
36.775000 -8.843750 14.153081
37.125000 -7.375000 14.153081
39.500000 -21.718750 14.289081
39.150000 -20.171875 14.289081
38.850000 -19.281250 14.289081
37.475000 -16.093750 14.289081
37.375000 -15.093750 14.289081
37.675000 -13.968750 14.289081
37.950000 -12.703125 14.289081
37.375000 -11.015625 14.289081
36.775000 -10.015625 14.289081
36.850000 -8.734375 14.289081
37.275000 -7.312500 14.289081
39.150000 -21.328125 14.440079
38.750000 -20.125000 14.440079
38.225000 -18.828125 14.440079
37.625000 -17.234375 14.440079
37.575000 -15.968750 14.440079
37.750000 -14.703125 14.440079
37.875000 -13.562500 14.440079
37.800000 -12.218750 14.440079
37.325000 -10.703125 14.440079
36.825000 -9.687500 14.440079
38.600000 -20.000000 14.580081
38.075000 -18.609375 14.580081
37.600000 -17.406250 14.580081
37.550000 -15.875000 14.580081
37.550000 -14.468750 14.580081
37.650000 -13.312500 14.580081
37.675000 -12.265625 14.580081
37.225000 -10.468750 14.580081
36.825000 -9.546875 14.580081
39.350000 -21.015625 14.728083
38.775000 -19.281250 14.728083
37.625000 -17.093750 14.728083
37.550000 -15.250000 14.728083
37.500000 -14.015625 14.728083
37.900000 -13.031250 14.728083
37.700000 -11.671875 14.728083
37.150000 -10.531250 14.728083
36.850000 -9.156250 14.728083
36.925000 -7.984375 14.728083
39.500000 -22.031250 14.867079
39.225000 -21.109375 14.867079
38.650000 -19.687500 14.867079
37.975000 -18.406250 14.867079
37.525000 -16.671875 14.867079
37.400000 -15.531250 14.867079
37.400000 -14.484375 14.867079
37.700000 -13.312500 14.867079
37.700000 -11.750000 14.867079
37.225000 -10.187500 14.867079
36.775000 -8.968750 14.867079
36.800000 -7.609375 14.867079
39.125000 -20.968750 15.003079
38.625000 -19.500000 15.003079
38.075000 -18.203125 15.003079
37.575000 -17.203125 15.003079
37.450000 -15.921875 15.003079
37.475000 -14.656250 15.003079
37.675000 -13.000000 15.003079
37.800000 -12.078125 15.003079
37.450000 -10.781250 15.003079
36.925000 -9.390625 15.003079
39.125000 -21.015625 15.150080
38.625000 -19.671875 15.150080
38.075000 -18.359375 15.150080
37.550000 -17.140625 15.150080
37.325000 -15.562500 15.150080
37.325000 -14.437500 15.150080
37.675000 -13.234375 15.150080
37.825000 -12.234375 15.150080
37.450000 -10.421875 15.150080
36.900000 -9.406250 15.150080
39.100000 -21.125000 15.304081
38.675000 -19.625000 15.304081
38.225000 -18.468750 15.304081
37.550000 -16.984375 15.304081
37.425000 -16.000000 15.304081
37.500000 -14.625000 15.304081
37.625000 -13.375000 15.304081
37.875000 -12.265625 15.304081
37.525000 -10.953125 15.304081
36.875000 -9.625000 15.304081
39.125000 -20.843750 15.432082
38.625000 -19.843750 15.432082
38.250000 -18.515625 15.432082
37.650000 -17.046875 15.432082
37.600000 -15.828125 15.432082
37.675000 -14.656250 15.432082
37.650000 -13.312500 15.432082
37.825000 -12.093750 15.432082
37.450000 -10.406250 15.432082
36.875000 -9.062500 15.432082
36.825000 -8.140625 15.432082
39.125000 -20.937500 15.576081
38.625000 -19.609375 15.576081
38.225000 -18.312500 15.576081
37.525000 -17.015625 15.576081
37.475000 -15.968750 15.576081
37.650000 -14.718750 15.576081
37.600000 -13.375000 15.576081
37.875000 -12.234375 15.576081
37.525000 -10.796875 15.576081
36.875000 -9.421875 15.576081
36.825000 -8.125000 15.576081
39.475000 -22.156250 15.717079
39.200000 -20.640625 15.717079
38.700000 -19.343750 15.717079
37.225000 -16.671875 15.717079
37.200000 -15.562500 15.717079
37.200000 -13.953125 15.717079
37.575000 -12.921875 15.717079
37.675000 -11.750000 15.717079
37.225000 -10.046875 15.717079
36.900000 -8.718750 15.717079
37.000000 -7.875000 15.717079
39.375000 -21.937500 15.889079
38.925000 -20.406250 15.889079
38.350000 -18.921875 15.889079
37.450000 -17.546875 15.889079
36.950000 -16.078125 15.889079
37.025000 -15.203125 15.889079
37.275000 -13.828125 15.889079
37.700000 -12.421875 15.889079
37.500000 -11.281250 15.889079
36.900000 -9.718750 15.889079
36.850000 -8.359375 15.889079
37.350000 -7.625000 15.889079
39.225000 -21.000000 16.001081
38.650000 -19.843750 16.001081
38.600000 -18.468750 16.001081
36.875000 -15.656250 16.001081
36.975000 -14.453125 16.001081
37.275000 -13.281250 16.001081
37.375000 -12.250000 16.001081
37.175000 -11.015625 16.001081
36.925000 -9.218750 16.001081
36.850000 -8.265625 16.001081
39.275000 -20.984375 16.149081
38.650000 -19.625000 16.149081
38.550000 -18.437500 16.149081
36.875000 -15.828125 16.149081
36.975000 -14.203125 16.149081
37.450000 -13.203125 16.149081
37.450000 -11.812500 16.149081
36.950000 -10.546875 16.149081
36.800000 -9.062500 16.149081
36.850000 -8.218750 16.149081
39.525000 -21.921875 16.288080
39.050000 -20.625000 16.288080
38.625000 -19.453125 16.288080
38.500000 -18.046875 16.288080
37.050000 -15.312500 16.288080
37.175000 -14.343750 16.288080
37.250000 -12.609375 16.288080
37.100000 -11.359375 16.288080
36.950000 -10.281250 16.288080
36.875000 -8.968750 16.288080
37.000000 -7.953125 16.288080
39.800000 -21.859375 16.439082
39.100000 -20.703125 16.439082
38.625000 -19.234375 16.439082
38.475000 -18.140625 16.439082
36.975000 -15.484375 16.439082
37.075000 -14.218750 16.439082
37.175000 -12.562500 16.439082
37.050000 -11.218750 16.439082
36.925000 -10.015625 16.439082
36.875000 -9.000000 16.439082
37.025000 -7.687500 16.439082
39.075000 -20.812500 16.588079
38.600000 -19.140625 16.588079
38.475000 -17.750000 16.588079
37.000000 -15.328125 16.588079
37.075000 -14.265625 16.588079
37.175000 -12.906250 16.588079
37.050000 -11.218750 16.588079
36.925000 -9.968750 16.588079
36.875000 -8.953125 16.588079
37.125000 -7.703125 16.588079
39.000000 -20.484375 16.718081
38.600000 -19.375000 16.718081
38.300000 -17.875000 16.718081
37.600000 -16.656250 16.718081
37.000000 -15.062500 16.718081
37.200000 -14.265625 16.718081
37.300000 -12.453125 16.718081
37.050000 -11.312500 16.718081
36.925000 -10.359375 16.718081
36.875000 -8.906250 16.718081
37.125000 -7.578125 16.718081
38.900000 -20.312500 16.891080
38.575000 -19.281250 16.891080
38.275000 -18.015625 16.891080
37.650000 -16.625000 16.891080
37.125000 -15.250000 16.891080
37.200000 -14.125000 16.891080
37.200000 -12.671875 16.891080
37.025000 -11.515625 16.891080
36.900000 -10.078125 16.891080
36.850000 -8.734375 16.891080
37.200000 -7.656250 16.891080
39.300000 -21.718750 17.012079
38.825000 -20.468750 17.012079
38.525000 -18.859375 17.012079
38.175000 -17.578125 17.012079
37.600000 -16.265625 17.012079
37.225000 -15.109375 17.012079
37.200000 -13.828125 17.012079
37.100000 -12.468750 17.012079
36.950000 -11.171875 17.012079
36.775000 -9.625000 17.012079
36.825000 -8.328125 17.012079
37.350000 -7.296875 17.012079
39.300000 -21.750000 17.155080
38.800000 -20.125000 17.155080
38.500000 -19.078125 17.155080
38.175000 -17.578125 17.155080
37.825000 -16.250000 17.155080
37.600000 -14.750000 17.155080
37.325000 -13.421875 17.155080
37.075000 -12.421875 17.155080
36.925000 -11.187500 17.155080
36.750000 -9.843750 17.155080
36.800000 -8.406250 17.155080
37.350000 -7.515625 17.155080
38.625000 -19.750000 17.297082
38.425000 -18.843750 17.297082
38.100000 -17.515625 17.297082
37.725000 -16.140625 17.297082
37.400000 -14.765625 17.297082
37.150000 -13.343750 17.297082
37.000000 -11.859375 17.297082
36.850000 -10.750000 17.297082
36.725000 -9.171875 17.297082
36.825000 -8.015625 17.297082
39.100000 -20.968750 17.456079
38.625000 -19.609375 17.456079
38.350000 -18.296875 17.456079
38.025000 -17.250000 17.456079
37.700000 -15.765625 17.456079
37.325000 -14.609375 17.456079
37.025000 -12.953125 17.456079
36.875000 -11.718750 17.456079
36.725000 -10.390625 17.456079
36.650000 -9.453125 17.456079
36.825000 -8.078125 17.456079
39.150000 -20.984375 17.576081
38.600000 -19.671875 17.576081
38.300000 -17.953125 17.576081
37.900000 -16.781250 17.576081
37.775000 -15.750000 17.576081
37.425000 -14.156250 17.576081
37.000000 -12.718750 17.576081
36.875000 -11.468750 17.576081
36.675000 -10.109375 17.576081
36.675000 -8.921875 17.576081
36.975000 -7.671875 17.576081
39.125000 -20.953125 17.719090
38.625000 -19.687500 17.719090
38.250000 -18.125000 17.719090
37.900000 -17.062500 17.719090
37.775000 -15.671875 17.719090
37.425000 -14.156250 17.719090
37.000000 -13.125000 17.719090
36.850000 -11.671875 17.719090
36.675000 -10.421875 17.719090
36.600000 -8.890625 17.719090
36.800000 -7.484375 17.719090
39.050000 -20.984375 17.856086
38.575000 -19.187500 17.856086
38.275000 -18.093750 17.856086
37.900000 -16.968750 17.856086
37.775000 -15.328125 17.856086
37.400000 -13.921875 17.856086
36.975000 -12.890625 17.856086
36.850000 -11.656250 17.856086
36.675000 -10.171875 17.856086
36.650000 -9.156250 17.856086
36.850000 -7.968750 17.856086
38.600000 -19.578125 18.015080
38.350000 -18.406250 18.015080
38.025000 -16.953125 18.015080
37.800000 -15.718750 18.015080
37.425000 -14.328125 18.015080
37.000000 -12.984375 18.015080
36.875000 -11.578125 18.015080
36.700000 -10.453125 18.015080
36.625000 -9.000000 18.015080
36.800000 -7.875000 18.015080
38.600000 -20.046875 18.161079
38.350000 -18.328125 18.161079
38.025000 -17.406250 18.161079
37.775000 -16.015625 18.161079
37.400000 -14.656250 18.161079
37.050000 -13.250000 18.161079
36.875000 -11.703125 18.161079
36.650000 -10.859375 18.161079
36.525000 -9.031250 18.161079
36.700000 -7.812500 18.161079
38.675000 -19.984375 18.302078
38.450000 -18.640625 18.302078
38.100000 -17.640625 18.302078
37.800000 -15.921875 18.302078
37.450000 -14.531250 18.302078
37.050000 -13.312500 18.302078
36.850000 -12.109375 18.302078
36.675000 -10.593750 18.302078
36.550000 -9.421875 18.302078
39.475000 -21.500000 18.436080
38.800000 -20.359375 18.436080
38.500000 -18.765625 18.436080
38.175000 -17.625000 18.436080
37.800000 -16.359375 18.436080
37.450000 -15.234375 18.436080
37.200000 -13.890625 18.436080
36.950000 -12.375000 18.436080
36.725000 -11.125000 18.436080
36.550000 -10.000000 18.436080
36.550000 -8.312500 18.436080
37.000000 -7.500000 18.436080
38.775000 -20.484375 18.591083
38.500000 -19.250000 18.591083
38.200000 -17.875000 18.591083
37.900000 -16.656250 18.591083
37.550000 -15.359375 18.591083
37.150000 -14.031250 18.591083
36.875000 -12.359375 18.591083
36.725000 -10.875000 18.591083
36.525000 -9.750000 18.591083
36.525000 -8.843750 18.591083
36.975000 -7.593750 18.591083
38.575000 -20.250000 18.732090
38.550000 -19.187500 18.732090
38.250000 -17.593750 18.732090
37.900000 -16.687500 18.732090
37.525000 -14.937500 18.732090
37.125000 -13.640625 18.732090
36.875000 -12.781250 18.732090
36.750000 -11.265625 18.732090
36.550000 -10.031250 18.732090
36.550000 -8.515625 18.732090
36.925000 -7.703125 18.732090
38.550000 -20.359375 18.862086
38.525000 -19.125000 18.862086
38.225000 -17.812500 18.862086
37.875000 -16.265625 18.862086
37.525000 -15.171875 18.862086
37.150000 -14.062500 18.862086
36.900000 -12.781250 18.862086
36.725000 -11.046875 18.862086
36.525000 -9.828125 18.862086
36.500000 -8.718750 18.862086
36.900000 -7.343750 18.862086
38.550000 -20.437500 19.007079
38.525000 -18.890625 19.007079
38.200000 -17.593750 19.007079
37.850000 -16.625000 19.007079
37.525000 -15.062500 19.007079
37.125000 -13.796875 19.007079
36.875000 -12.609375 19.007079
36.725000 -11.312500 19.007079
36.525000 -9.796875 19.007079
36.500000 -8.375000 19.007079
36.875000 -7.484375 19.007079
38.550000 -20.359375 19.176088
38.475000 -19.140625 19.176088
38.175000 -17.625000 19.176088
37.850000 -16.546875 19.176088
37.500000 -15.171875 19.176088
37.100000 -13.546875 19.176088
36.850000 -12.406250 19.176088
36.700000 -10.984375 19.176088
36.525000 -10.031250 19.176088
36.500000 -8.765625 19.176088
36.875000 -7.375000 19.176088
38.550000 -20.453125 19.318078
38.475000 -18.859375 19.318078
38.150000 -17.765625 19.318078
37.825000 -16.265625 19.318078
37.475000 -15.296875 19.318078
37.075000 -13.859375 19.318078
36.825000 -12.734375 19.318078
36.700000 -11.312500 19.318078
36.500000 -9.609375 19.318078
36.475000 -8.562500 19.318078
36.850000 -7.359375 19.318078
38.525000 -20.390625 19.436079
38.475000 -19.312500 19.436079
38.200000 -18.046875 19.436079
37.850000 -16.375000 19.436079
37.450000 -15.234375 19.436079
37.075000 -14.046875 19.436079
36.825000 -12.828125 19.436079
36.700000 -11.343750 19.436079
36.525000 -10.203125 19.436079
36.500000 -8.421875 19.436079
36.875000 -7.203125 19.436079
38.525000 -20.234375 19.573094
38.450000 -18.984375 19.573094
38.175000 -17.609375 19.573094
37.800000 -16.312500 19.573094
37.425000 -15.125000 19.573094
37.050000 -13.593750 19.573094
36.825000 -12.390625 19.573094
36.675000 -11.281250 19.573094
36.500000 -10.062500 19.573094
36.500000 -8.734375 19.573094
36.850000 -7.375000 19.573094
38.625000 -20.406250 19.715080
38.425000 -19.156250 19.715080
38.150000 -17.968750 19.715080
37.775000 -16.531250 19.715080
37.400000 -15.156250 19.715080
37.025000 -13.796875 19.715080
36.800000 -12.578125 19.715080
36.675000 -11.546875 19.715080
36.500000 -9.734375 19.715080
36.475000 -8.484375 19.715080
36.800000 -7.359375 19.715080
39.200000 -21.671875 19.859078
38.625000 -20.125000 19.859078
38.400000 -19.250000 19.859078
38.125000 -17.968750 19.859078
37.750000 -16.234375 19.859078
37.400000 -15.296875 19.859078
37.025000 -13.656250 19.859078
36.800000 -12.203125 19.859078
36.675000 -11.375000 19.859078
36.475000 -9.859375 19.859078
36.450000 -8.406250 19.859078
36.825000 -7.437500 19.859078
38.475000 -20.343750 20.020081
38.275000 -19.125000 20.020081
37.975000 -17.406250 20.020081
37.650000 -16.218750 20.020081
37.275000 -14.765625 20.020081
36.875000 -13.640625 20.020081
36.750000 -12.468750 20.020081
36.700000 -11.218750 20.020081
36.475000 -9.640625 20.020081
36.450000 -8.484375 20.020081
37.000000 -7.437500 20.020081
38.425000 -20.046875 20.145081
38.250000 -18.640625 20.145081
37.950000 -17.296875 20.145081
37.625000 -16.250000 20.145081
37.225000 -14.703125 20.145081
36.875000 -13.703125 20.145081
36.750000 -11.953125 20.145081
36.650000 -10.703125 20.145081
36.450000 -9.750000 20.145081
38.850000 -21.046875 20.285080
38.350000 -19.609375 20.285080
38.125000 -18.312500 20.285080
37.825000 -16.984375 20.285080
37.500000 -15.812500 20.285080
37.125000 -14.421875 20.285080
36.825000 -12.890625 20.285080
36.775000 -11.718750 20.285080
36.650000 -10.609375 20.285080
36.500000 -9.015625 20.285080
36.600000 -7.781250 20.285080
38.550000 -20.734375 20.428085
38.300000 -19.187500 20.428085
38.075000 -17.859375 20.428085
37.750000 -16.562500 20.428085
37.375000 -15.578125 20.428085
37.025000 -14.062500 20.428085
36.775000 -12.625000 20.428085
36.675000 -11.265625 20.428085
36.550000 -9.812500 20.428085
36.500000 -8.562500 20.428085
36.775000 -7.406250 20.428085
39.000000 -21.781250 20.570083
38.550000 -20.437500 20.570083
38.250000 -18.953125 20.570083
38.025000 -17.843750 20.570083
37.575000 -16.484375 20.570083
37.050000 -14.968750 20.570083
36.825000 -14.046875 20.570083
36.775000 -12.234375 20.570083
36.650000 -11.484375 20.570083
36.475000 -9.875000 20.570083
36.450000 -8.656250 20.570083
36.825000 -7.562500 20.570083
38.975000 -21.765625 20.722081
38.525000 -20.609375 20.722081
38.250000 -19.234375 20.722081
38.000000 -17.875000 20.722081
37.375000 -16.312500 20.722081
36.850000 -15.109375 20.722081
36.825000 -13.578125 20.722081
36.775000 -12.281250 20.722081
36.625000 -11.312500 20.722081
36.450000 -9.843750 20.722081
36.425000 -8.656250 20.722081
36.800000 -7.531250 20.722081
38.950000 -21.562500 20.881083
38.525000 -20.343750 20.881083
38.300000 -19.187500 20.881083
38.050000 -17.750000 20.881083
37.350000 -16.078125 20.881083
36.825000 -15.203125 20.881083
37.025000 -13.687500 20.881083
36.975000 -12.515625 20.881083
36.625000 -11.406250 20.881083
36.450000 -10.078125 20.881083
36.425000 -8.765625 20.881083
36.825000 -7.515625 20.881083
38.950000 -21.703125 20.998079
38.450000 -20.125000 20.998079
38.300000 -19.156250 20.998079
38.400000 -17.625000 20.998079
36.725000 -15.093750 20.998079
37.075000 -13.515625 20.998079
37.075000 -12.390625 20.998079
36.675000 -11.281250 20.998079
36.475000 -9.906250 20.998079
36.425000 -8.578125 20.998079
36.950000 -7.265625 20.998079
38.350000 -20.250000 21.152081
38.250000 -18.703125 21.152081
37.800000 -17.468750 21.152081
37.050000 -16.031250 21.152081
36.650000 -14.703125 21.152081
37.050000 -13.671875 21.152081
37.075000 -12.234375 21.152081
36.650000 -11.000000 21.152081
36.450000 -9.375000 21.152081
38.925000 -21.171875 21.299081
38.375000 -20.109375 21.299081
38.250000 -18.781250 21.299081
36.700000 -15.671875 21.299081
36.675000 -14.531250 21.299081
37.000000 -13.500000 21.299081
36.975000 -11.921875 21.299081
36.600000 -10.687500 21.299081
36.475000 -9.500000 21.299081
36.575000 -8.140625 21.299081
39.300000 -22.140625 21.426080
38.800000 -20.515625 21.426080
38.350000 -19.265625 21.426080
38.150000 -18.125000 21.426080
36.700000 -15.578125 21.426080
36.825000 -14.125000 21.426080
37.325000 -13.203125 21.426080
37.200000 -11.343750 21.426080
36.650000 -10.109375 21.426080
36.525000 -8.953125 21.426080
36.725000 -7.593750 21.426080
38.950000 -21.875000 21.566079
38.525000 -20.156250 21.566079
38.300000 -19.109375 21.566079
37.725000 -17.796875 21.566079
37.050000 -16.343750 21.566079
36.825000 -14.984375 21.566079
37.000000 -13.890625 21.566079
37.675000 -12.812500 21.566079
36.475000 -9.812500 21.566079
36.450000 -8.625000 21.566079
36.950000 -7.515625 21.566079
38.950000 -21.265625 21.721080
38.375000 -19.671875 21.721080
37.850000 -18.390625 21.721080
37.125000 -17.093750 21.721080
37.000000 -15.828125 21.721080
37.050000 -14.500000 21.721080
37.100000 -13.281250 21.721080
37.400000 -12.140625 21.721080
37.025000 -10.875000 21.721080
36.500000 -9.625000 21.721080
36.575000 -8.312500 21.721080
38.900000 -22.453125 21.882078
38.825000 -20.828125 21.882078
38.375000 -19.890625 21.882078
38.025000 -18.375000 21.882078
37.300000 -16.828125 21.882078
37.000000 -15.796875 21.882078
37.100000 -14.437500 21.882078
37.300000 -13.390625 21.882078
37.525000 -11.734375 21.882078
37.025000 -10.312500 21.882078
36.525000 -9.312500 21.882078
36.600000 -7.703125 21.882078
38.725000 -20.546875 22.003082
38.325000 -19.078125 22.003082
38.500000 -17.937500 22.003082
37.625000 -12.984375 22.003082
37.600000 -11.250000 22.003082
36.950000 -10.125000 22.003082
36.575000 -8.609375 22.003082
36.750000 -7.437500 22.003082
38.725000 -20.609375 22.157080
38.350000 -19.359375 22.157080
38.400000 -17.906250 22.157080
37.500000 -15.203125 22.157080
37.600000 -13.968750 22.157080
37.600000 -12.968750 22.157080
37.600000 -11.250000 22.157080
36.975000 -10.250000 22.157080
36.600000 -8.625000 22.157080
36.750000 -7.656250 22.157080
38.975000 -21.453125 22.289083
38.525000 -20.468750 22.289083
38.325000 -19.234375 22.289083
37.725000 -17.781250 22.289083
37.175000 -16.171875 22.289083
37.425000 -15.156250 22.289083
37.475000 -13.640625 22.289083
37.500000 -12.328125 22.289083
37.375000 -11.093750 22.289083
36.850000 -10.031250 22.289083
36.600000 -8.484375 22.289083
36.925000 -7.593750 22.289083
38.975000 -21.734375 22.435081
38.625000 -20.515625 22.435081
38.425000 -19.296875 22.435081
37.750000 -17.968750 22.435081
37.275000 -16.437500 22.435081
37.500000 -15.156250 22.435081
37.600000 -14.078125 22.435081
37.725000 -12.859375 22.435081
37.450000 -11.390625 22.435081
36.850000 -9.812500 22.435081
36.600000 -8.656250 22.435081
36.925000 -7.421875 22.435081
39.000000 -21.218750 22.593079
38.575000 -20.343750 22.593079
38.400000 -18.625000 22.593079
37.750000 -17.250000 22.593079
37.100000 -16.156250 22.593079
37.225000 -14.687500 22.593079
37.600000 -13.671875 22.593079
38.100000 -12.656250 22.593079
36.850000 -9.718750 22.593079
36.675000 -8.453125 22.593079
37.150000 -7.031250 22.593079
39.000000 -21.468750 22.715078
38.575000 -20.156250 22.715078
38.300000 -18.500000 22.715078
37.675000 -17.437500 22.715078
37.175000 -15.734375 22.715078
37.300000 -14.546875 22.715078
37.625000 -13.328125 22.715078
37.650000 -11.921875 22.715078
37.225000 -10.796875 22.715078
36.775000 -9.656250 22.715078
36.675000 -8.500000 22.715078
39.075000 -21.484375 22.853080
38.650000 -20.078125 22.853080
38.325000 -18.546875 22.853080
37.675000 -17.187500 22.853080
37.175000 -15.843750 22.853080
37.300000 -14.656250 22.853080
37.625000 -13.265625 22.853080
37.525000 -12.359375 22.853080
37.100000 -10.718750 22.853080
36.775000 -9.546875 22.853080
36.675000 -8.437500 22.853080
39.225000 -20.875000 22.996088
38.675000 -19.843750 22.996088
38.450000 -18.187500 22.996088
37.775000 -17.218750 22.996088
37.275000 -15.578125 22.996088
37.500000 -14.312500 22.996088
37.850000 -13.156250 22.996088
37.525000 -11.843750 22.996088
36.875000 -10.359375 22.996088
36.675000 -9.328125 22.996088
36.800000 -8.125000 22.996088
39.175000 -20.609375 23.137080
38.550000 -19.421875 23.137080
38.025000 -17.937500 23.137080
37.375000 -16.421875 23.137080
37.400000 -15.390625 23.137080
37.725000 -13.781250 23.137080
37.900000 -12.937500 23.137080
37.450000 -11.203125 23.137080
36.825000 -10.140625 23.137080
36.750000 -8.937500 23.137080
37.025000 -7.656250 23.137080
39.325000 -21.328125 23.287081
38.700000 -20.046875 23.287081
38.600000 -18.484375 23.287081
37.200000 -16.078125 23.287081
37.525000 -14.687500 23.287081
37.850000 -13.500000 23.287081
37.400000 -12.312500 23.287081
36.950000 -10.640625 23.287081
36.750000 -9.703125 23.287081
36.675000 -8.328125 23.287081
38.700000 -19.953125 23.429079
38.550000 -18.484375 23.429079
37.975000 -17.203125 23.429079
37.500000 -15.515625 23.429079
37.775000 -14.531250 23.429079
37.975000 -13.437500 23.429079
37.500000 -11.906250 23.429079
36.875000 -10.687500 23.429079
36.775000 -9.062500 23.429079
36.800000 -8.000000 23.429079
39.400000 -20.906250 23.575080
38.750000 -19.515625 23.575080
38.550000 -18.281250 23.575080
38.000000 -16.937500 23.575080
37.725000 -15.531250 23.575080
37.875000 -13.984375 23.575080
37.900000 -13.093750 23.575080
37.375000 -11.343750 23.575080
36.750000 -10.390625 23.575080
36.725000 -8.750000 23.575080
36.850000 -7.906250 23.575080
39.300000 -21.796875 23.724083
39.175000 -20.765625 23.724083
38.750000 -19.109375 23.724083
38.525000 -18.031250 23.724083
38.125000 -16.531250 23.724083
37.850000 -15.140625 23.724083
37.875000 -14.031250 23.724083
37.600000 -12.625000 23.724083
37.050000 -11.171875 23.724083
36.750000 -10.109375 23.724083
36.725000 -8.781250 23.724083
36.950000 -7.593750 23.724083
39.175000 -20.562500 23.866082
38.750000 -19.421875 23.866082
38.525000 -18.250000 23.866082
38.175000 -16.875000 23.866082
37.875000 -15.453125 23.866082
37.850000 -14.312500 23.866082
37.575000 -13.046875 23.866082
37.050000 -11.515625 23.866082
36.825000 -10.265625 23.866082
36.800000 -9.093750 23.866082
36.850000 -7.921875 23.866082
39.175000 -20.531250 23.993081
38.750000 -19.203125 23.993081
38.550000 -17.828125 23.993081
38.150000 -16.750000 23.993081
37.850000 -15.203125 23.993081
37.875000 -13.843750 23.993081
37.550000 -12.968750 23.993081
37.025000 -11.687500 23.993081
36.850000 -10.343750 23.993081
36.850000 -8.828125 23.993081
37.000000 -7.421875 23.993081
39.425000 -21.343750 24.147082
38.900000 -20.031250 24.147082
38.675000 -18.500000 24.147082
38.375000 -16.968750 24.147082
38.075000 -16.000000 24.147082
37.900000 -14.578125 24.147082
37.900000 -13.125000 24.147082
37.400000 -11.718750 24.147082
36.775000 -10.812500 24.147082
36.750000 -9.343750 24.147082
36.900000 -7.953125 24.147082
39.400000 -21.296875 24.276080
38.900000 -19.781250 24.276080
38.700000 -18.484375 24.276080
38.425000 -17.187500 24.276080
38.100000 -16.203125 24.276080
37.925000 -14.687500 24.276080
37.900000 -13.578125 24.276080
37.425000 -11.812500 24.276080
36.875000 -10.843750 24.276080
36.825000 -9.109375 24.276080
39.400000 -20.890625 24.425082
38.800000 -19.734375 24.425082
38.650000 -18.546875 24.425082
38.375000 -17.062500 24.425082
38.050000 -15.750000 24.425082
37.850000 -14.328125 24.425082
37.875000 -13.265625 24.425082
37.475000 -11.812500 24.425082
36.875000 -10.531250 24.425082
36.775000 -8.984375 24.425082
36.900000 -7.625000 24.425082
39.400000 -20.515625 24.575072
38.750000 -19.218750 24.575072
38.650000 -17.953125 24.575072
38.400000 -16.812500 24.575072
37.975000 -15.656250 24.575072
37.850000 -14.093750 24.575072
37.800000 -12.781250 24.575072
37.275000 -11.406250 24.575072
36.775000 -9.953125 24.575072
36.800000 -9.156250 24.575072
37.075000 -7.781250 24.575072
39.900000 -21.875000 24.702934
39.125000 -20.578125 24.702934
38.725000 -19.093750 24.702934
38.375000 -18.046875 24.702934
38.025000 -16.812500 24.702934
37.700000 -15.093750 24.702934
37.725000 -13.890625 24.702934
37.800000 -12.984375 24.702934
37.350000 -11.375000 24.702934
36.800000 -9.828125 24.702934
36.750000 -8.859375 24.702934
37.100000 -7.531250 24.702934
39.550000 -21.843750 24.857749
39.175000 -20.562500 24.857749
38.775000 -19.000000 24.857749
38.225000 -17.875000 24.857749
37.800000 -16.312500 24.857749
37.725000 -14.890625 24.857749
37.775000 -13.781250 24.857749
37.850000 -12.343750 24.857749
37.350000 -11.015625 24.857749
36.875000 -9.578125 24.857749
36.900000 -8.593750 24.857749
37.325000 -7.312500 24.857749
39.125000 -21.453125 24.987024
38.775000 -19.828125 24.987024
38.650000 -18.953125 24.987024
38.100000 -17.359375 24.987024
37.625000 -15.984375 24.987024
37.675000 -14.640625 24.987024
37.800000 -13.390625 24.987024
37.600000 -11.937500 24.987024
37.100000 -10.937500 24.987024
36.800000 -9.468750 24.987024
36.850000 -8.390625 24.987024
37.500000 -7.328125 24.987024
39.250000 -21.296875 25.139957
38.825000 -19.656250 25.139957
38.275000 -18.671875 25.139957
37.675000 -17.171875 25.139957
37.625000 -16.125000 25.139957
37.700000 -14.484375 25.139957
37.825000 -13.171875 25.139957
37.575000 -11.953125 25.139957
37.075000 -10.656250 25.139957
36.850000 -9.531250 25.139957
39.225000 -21.421875 25.287961
38.750000 -19.812500 25.287961
38.150000 -18.578125 25.287961
37.625000 -17.500000 25.287961
37.625000 -16.218750 25.287961
37.700000 -14.812500 25.287961
37.800000 -13.328125 25.287961
37.725000 -11.859375 25.287961
37.225000 -10.875000 25.287961
36.775000 -9.203125 25.287961
39.200000 -20.843750 25.436957
38.900000 -19.390625 25.436957
37.775000 -16.687500 25.436957
37.575000 -15.312500 25.436957
37.475000 -13.984375 25.436957
37.800000 -12.703125 25.436957
37.475000 -11.640625 25.436957
37.050000 -10.375000 25.436957
36.850000 -8.828125 25.436957
37.050000 -7.453125 25.436957
39.175000 -21.250000 25.560958
38.725000 -20.031250 25.560958
38.150000 -18.484375 25.560958
37.600000 -17.328125 25.560958
37.500000 -16.125000 25.560958
37.575000 -14.843750 25.560958
37.775000 -13.375000 25.560958
37.900000 -11.906250 25.560958
37.500000 -10.859375 25.560958
37.000000 -9.609375 25.560958
39.200000 -20.984375 25.708956
38.625000 -19.609375 25.708956
38.000000 -18.296875 25.708956
37.575000 -17.015625 25.708956
37.425000 -15.796875 25.708956
37.375000 -14.421875 25.708956
37.625000 -12.859375 25.708956
37.650000 -11.953125 25.708956
37.250000 -10.328125 25.708956
36.875000 -9.078125 25.708956
36.875000 -7.890625 25.708956
39.175000 -20.546875 25.869956
38.675000 -19.390625 25.869956
38.000000 -18.031250 25.869956
37.650000 -16.781250 25.869956
37.475000 -15.140625 25.869956
37.450000 -13.781250 25.869956
37.950000 -12.765625 25.869956
37.700000 -11.484375 25.869956
37.050000 -9.984375 25.869956
36.775000 -8.546875 25.869956
37.050000 -7.328125 25.869956
39.225000 -21.531250 25.993958
38.850000 -20.234375 25.993958
38.750000 -19.187500 25.993958
37.525000 -16.093750 25.993958
37.650000 -14.984375 25.993958
37.600000 -13.484375 25.993958
37.975000 -12.328125 25.993958
37.675000 -11.171875 25.993958
36.975000 -9.890625 25.993958
36.800000 -8.250000 25.993958
37.250000 -7.203125 25.993958
39.350000 -20.937500 26.137957
38.625000 -19.421875 26.137957
37.400000 -16.781250 26.137957
37.425000 -15.625000 26.137957
37.450000 -14.171875 26.137957
37.350000 -12.875000 26.137957
37.350000 -11.453125 26.137957
37.325000 -10.281250 26.137957
36.950000 -9.109375 26.137957
37.025000 -7.671875 26.137957
39.125000 -21.578125 26.277960
38.750000 -19.984375 26.277960
38.625000 -18.843750 26.277960
36.825000 -15.812500 26.277960
37.025000 -14.984375 26.277960
37.550000 -13.421875 26.277960
38.075000 -12.234375 26.277960
36.950000 -9.390625 26.277960
39.275000 -20.984375 26.424957
38.750000 -19.703125 26.424957
37.275000 -16.828125 26.424957
37.425000 -15.531250 26.424957
37.600000 -14.578125 26.424957
37.600000 -13.468750 26.424957
37.750000 -11.718750 26.424957
37.325000 -10.375000 26.424957
36.850000 -9.312500 26.424957
36.875000 -8.078125 26.424957
39.525000 -22.093750 26.563958
39.200000 -20.718750 26.563958
38.625000 -19.546875 26.563958
37.175000 -16.640625 26.563958
37.100000 -15.328125 26.563958
37.225000 -14.390625 26.563958
37.625000 -12.890625 26.563958
37.650000 -11.390625 26.563958
37.200000 -10.500000 26.563958
36.925000 -9.265625 26.563958
37.000000 -7.953125 26.563958
39.875000 -21.828125 26.702957
39.025000 -20.671875 26.702957
38.625000 -19.171875 26.702957
37.100000 -16.500000 26.702957
37.025000 -15.203125 26.702957
37.175000 -13.984375 26.702957
37.725000 -12.687500 26.702957
37.625000 -11.609375 26.702957
36.975000 -10.234375 26.702957
36.775000 -8.531250 26.702957
37.125000 -7.562500 26.702957
39.375000 -21.203125 26.845959
38.700000 -19.687500 26.845959
38.650000 -18.406250 26.845959
36.775000 -15.500000 26.845959
36.850000 -14.312500 26.845959
37.250000 -13.390625 26.845959
37.325000 -11.875000 26.845959
37.000000 -10.859375 26.845959
36.825000 -9.250000 26.845959
36.875000 -7.859375 26.845959
39.350000 -21.406250 26.993982
38.800000 -20.343750 26.993982
38.525000 -18.812500 26.993982
36.950000 -15.906250 26.993982
36.925000 -14.718750 26.993982
37.100000 -13.500000 26.993982
37.150000 -12.406250 26.993982
37.000000 -10.765625 26.993982
36.825000 -9.531250 26.993982
36.850000 -8.406250 26.993982
37.450000 -7.390625 26.993982
38.950000 -20.468750 27.128958
38.575000 -19.078125 27.128958
37.050000 -16.265625 27.128958
37.000000 -14.984375 27.128958
37.150000 -13.812500 27.128958
37.175000 -12.718750 27.128958
36.975000 -11.031250 27.128958
36.850000 -9.640625 27.128958
36.875000 -8.593750 27.128958
37.300000 -7.125000 27.128958
39.475000 -21.671875 27.270992
38.950000 -20.281250 27.270992
38.575000 -18.890625 27.270992
37.900000 -17.843750 27.270992
37.175000 -16.484375 27.270992
37.000000 -14.750000 27.270992
37.200000 -13.515625 27.270992
37.250000 -12.265625 27.270992
36.975000 -10.937500 27.270992
36.850000 -9.953125 27.270992
36.875000 -8.453125 27.270992
37.350000 -7.281250 27.270992
39.250000 -21.406250 27.411956
38.700000 -19.906250 27.411956
38.500000 -18.515625 27.411956
37.825000 -17.156250 27.411956
37.175000 -16.125000 27.411956
37.075000 -14.937500 27.411956
37.225000 -13.546875 27.411956
37.225000 -12.343750 27.411956
36.975000 -10.953125 27.411956
36.900000 -9.375000 27.411956
38.700000 -19.921875 27.564982
38.475000 -18.609375 27.564982
37.875000 -17.093750 27.564982
37.250000 -15.953125 27.564982
37.125000 -14.312500 27.564982
37.150000 -13.375000 27.564982
37.100000 -12.062500 27.564982
36.975000 -10.375000 27.564982
36.825000 -9.234375 27.564982
36.875000 -8.296875 27.564982
39.475000 -22.031250 27.693958
39.150000 -20.765625 27.693958
38.600000 -19.250000 27.693958
38.300000 -17.937500 27.693958
37.825000 -16.828125 27.693958
37.275000 -15.671875 27.693958
37.225000 -14.328125 27.693958
37.250000 -13.125000 27.693958
37.050000 -11.859375 27.693958
36.900000 -10.484375 27.693958
36.825000 -8.718750 27.693958
36.975000 -7.703125 27.693958
39.700000 -21.906250 27.838000
39.150000 -20.640625 27.838000
38.625000 -19.437500 27.838000
38.325000 -18.046875 27.838000
38.025000 -16.765625 27.838000
37.550000 -15.468750 27.838000
37.275000 -14.203125 27.838000
37.175000 -12.578125 27.838000
36.975000 -11.531250 27.838000
36.850000 -10.421875 27.838000
36.800000 -8.984375 27.838000
36.975000 -7.921875 27.838000
39.025000 -20.578125 27.982017
38.600000 -19.484375 27.982017
38.300000 -17.812500 27.982017
37.950000 -16.687500 27.982017
37.625000 -15.140625 27.982017
37.325000 -14.093750 27.982017
37.075000 -12.796875 27.982017
36.975000 -11.500000 27.982017
36.850000 -9.984375 27.982017
36.775000 -8.906250 27.982017
37.000000 -7.359375 27.982017
39.025000 -20.546875 28.137013
38.575000 -19.250000 28.137013
38.275000 -17.937500 28.137013
37.975000 -16.468750 28.137013
37.775000 -15.218750 28.137013
37.400000 -13.890625 28.137013
37.050000 -12.953125 28.137013
36.950000 -11.265625 28.137013
36.825000 -10.046875 28.137013
36.775000 -8.968750 28.137013
37.000000 -7.484375 28.137013
39.475000 -21.484375 28.262995
38.925000 -20.328125 28.262995
38.550000 -19.031250 28.262995
38.200000 -17.859375 28.262995
37.800000 -16.609375 28.262995
37.525000 -14.937500 28.262995
37.200000 -13.828125 28.262995
36.950000 -12.281250 28.262995
36.825000 -10.937500 28.262995
36.700000 -9.593750 28.262995
36.725000 -8.718750 28.262995
37.200000 -7.234375 28.262995
39.375000 -21.234375 28.404996
38.675000 -19.921875 28.404996
38.475000 -18.859375 28.404996
38.100000 -17.328125 28.404996
37.725000 -16.187500 28.404996
37.350000 -14.421875 28.404996
37.050000 -13.375000 28.404996
36.925000 -12.171875 28.404996
36.775000 -10.703125 28.404996
36.625000 -9.250000 28.404996
36.725000 -8.156250 28.404996
39.075000 -21.187500 28.559345
38.675000 -19.750000 28.559345
38.375000 -18.156250 28.559345
37.975000 -16.921875 28.559345
37.775000 -15.812500 28.559345
37.375000 -14.406250 28.559345
36.975000 -12.812500 28.559345
36.850000 -11.515625 28.559345
36.675000 -10.609375 28.559345
36.600000 -9.015625 28.559345
36.775000 -7.953125 28.559345
38.525000 -20.859375 28.691348
38.600000 -19.656250 28.691348
38.300000 -18.343750 28.691348
37.975000 -16.843750 28.691348
37.800000 -15.843750 28.691348
37.425000 -14.500000 28.691348
36.975000 -13.203125 28.691348
36.825000 -11.484375 28.691348
36.675000 -10.140625 28.691348
36.600000 -8.812500 28.691348
36.775000 -7.531250 28.691348
38.600000 -19.750000 28.845347
38.300000 -18.093750 28.845347
37.975000 -16.984375 28.845347
37.800000 -15.828125 28.845347
37.425000 -14.015625 28.845347
36.975000 -12.828125 28.845347
36.825000 -11.843750 28.845347
36.650000 -10.406250 28.845347
36.575000 -9.031250 28.845347
36.775000 -7.609375 28.845347
39.050000 -20.718750 28.976347
38.575000 -19.593750 28.976347
38.275000 -18.046875 28.976347
37.950000 -16.734375 28.976347
37.800000 -15.640625 28.976347
37.425000 -14.125000 28.976347
37.025000 -13.000000 28.976347
36.825000 -11.562500 28.976347
36.600000 -10.000000 28.976347
36.550000 -9.000000 28.976347
36.850000 -7.765625 28.976347
38.875000 -20.625000 29.127346
38.575000 -19.625000 29.127346
38.275000 -18.312500 29.127346
37.950000 -16.781250 29.127346
37.775000 -15.250000 29.127346
37.400000 -14.296875 29.127346
36.975000 -12.828125 29.127346
36.800000 -11.750000 29.127346
36.575000 -10.125000 29.127346
36.525000 -9.187500 29.127346
36.850000 -7.640625 29.127346
38.800000 -20.406250 29.273347
38.525000 -18.968750 29.273347
38.200000 -17.906250 29.273347
37.825000 -16.453125 29.273347
37.525000 -15.171875 29.273347
37.175000 -14.015625 29.273347
36.875000 -12.656250 29.273347
36.700000 -11.218750 29.273347
36.500000 -10.093750 29.273347
36.475000 -8.750000 29.273347
36.925000 -7.406250 29.273347
38.675000 -19.890625 29.403347
38.500000 -18.875000 29.403347
38.175000 -17.265625 29.403347
37.875000 -16.328125 29.403347
37.425000 -14.765625 29.403347
37.000000 -13.328125 29.403347
36.825000 -12.062500 29.403347
36.700000 -10.765625 29.403347
36.525000 -9.718750 29.403347
38.675000 -19.812500 29.545013
38.450000 -18.515625 29.545013
38.100000 -17.140625 29.545013
37.800000 -16.187500 29.545013
37.425000 -14.453125 29.545013
37.025000 -13.281250 29.545013
36.850000 -11.765625 29.545013
36.625000 -10.546875 29.545013
36.525000 -9.453125 29.545013
36.600000 -7.968750 29.545013
38.650000 -19.828125 29.699398
38.350000 -18.265625 29.699398
38.025000 -17.078125 29.699398
37.900000 -15.750000 29.699398
37.475000 -14.390625 29.699398
36.975000 -13.234375 29.699398
36.825000 -11.859375 29.699398
36.675000 -10.734375 29.699398
36.600000 -9.109375 29.699398
36.675000 -7.734375 29.699398
38.550000 -19.296875 29.824901
38.250000 -18.093750 29.824901
37.925000 -16.765625 29.824901
37.775000 -15.765625 29.824901
37.400000 -14.156250 29.824901
36.950000 -12.890625 29.824901
36.775000 -11.796875 29.824901
36.575000 -10.218750 29.824901
36.525000 -8.984375 29.824901
36.750000 -7.593750 29.824901
