37.275000 82.328125 33.169049
37.575000 80.937500 33.169629
37.500000 79.671875 33.170156
37.250000 78.484375 33.170651
37.275000 77.703125 33.170976
37.500000 76.640625 33.171419
38.025000 75.343750 33.171959
36.950000 87.359375 33.322822
37.025000 86.140625 33.323330
37.050000 84.953125 33.323825
37.075000 83.796875 33.324307
37.350000 82.468750 33.324860
37.600000 81.625000 33.325212
37.800000 80.265625 33.325778
37.700000 79.250000 33.326201
37.475000 77.750000 33.326826
37.600000 76.875000 33.327191
37.975000 75.609375 33.327718
37.375000 89.531250 33.491430
37.175000 88.734375 33.491762
36.975000 87.531250 33.492264
37.025000 86.265625 33.492791
37.100000 85.484375 33.493117
37.125000 84.062500 33.493709
37.200000 83.218750 33.494061
37.450000 82.031250 33.494555
37.750000 81.031250 33.494972
37.600000 79.734375 33.495512
37.350000 78.562500 33.496001
37.450000 77.468750 33.496456
37.000000 87.062500 33.648762
37.075000 85.875000 33.649256
37.100000 84.515625 33.649823
37.125000 83.484375 33.650253
37.500000 82.640625 33.650604
37.800000 81.406250 33.651119
38.000000 80.406250 33.651535
37.825000 79.250000 33.652017
37.450000 78.046875 33.652518
37.575000 76.734375 33.653065
37.975000 75.718750 33.653488
36.975000 87.234375 33.805946
37.125000 86.140625 33.806402
37.150000 84.609375 33.807040
37.125000 83.765625 33.807391
37.375000 82.406250 33.807958
37.700000 81.546875 33.808316
38.000000 80.453125 33.808772
37.825000 78.953125 33.809397
37.450000 77.984375 33.809800
37.600000 76.640625 33.810360
38.000000 75.593750 33.810796
37.100000 87.265625 33.962540
37.225000 86.093750 33.963028
37.125000 84.812500 33.963562
37.100000 83.593750 33.964070
37.250000 82.718750 33.964434
37.525000 81.640625 33.964884
37.850000 80.375000 33.965411
37.700000 79.250000 33.965880
37.500000 77.875000 33.966453
37.625000 76.906250 33.966856
38.025000 76.015625 33.967227
37.275000 88.796875 34.118458
37.075000 87.703125 34.118913
37.225000 86.296875 34.119499
36.975000 85.171875 34.119968
36.825000 83.906250 34.120496
37.025000 82.921875 34.120906
37.350000 82.000000 34.121290
37.850000 80.812500 34.121785
37.850000 79.812500 34.122201
37.575000 78.343750 34.122813
37.625000 77.531250 34.123152
37.925000 76.234375 34.123692
37.025000 88.968750 34.289720
37.050000 87.906250 34.290163
37.200000 86.453125 34.290768
36.825000 85.500000 34.291165
36.525000 84.171875 34.291719
36.900000 83.062500 34.292181
37.525000 82.109375 34.292578
38.075000 80.859375 34.293099
38.000000 79.953125 34.293476
37.700000 78.578125 34.294049
37.650000 77.578125 34.294466
37.125000 89.140625 34.446694
36.875000 88.109375 34.447124
37.175000 86.750000 34.447690
36.800000 85.562500 34.448185
36.450000 84.750000 34.448524
36.600000 83.671875 34.448973
37.025000 82.484375 34.449468
37.775000 81.156250 34.450021
38.350000 80.328125 34.450366
38.050000 78.968750 34.450933
37.675000 77.984375 34.451343
37.800000 76.718750 34.451870
38.350000 75.609375 34.452332
37.375000 89.265625 34.615433
37.050000 88.265625 34.615849
37.075000 86.953125 34.616396
36.675000 85.812500 34.616871
36.375000 84.734375 34.617321
37.950000 79.109375 34.619664
37.725000 77.890625 34.620172
37.850000 76.984375 34.620550
38.350000 75.562500 34.621142
37.525000 89.218750 34.764117
37.025000 88.234375 34.764527
37.050000 86.875000 34.765093
36.675000 85.890625 34.765503
36.350000 84.953125 34.765894
37.950000 79.078125 34.768342
37.725000 78.000000 34.768791
37.850000 76.718750 34.769325
38.325000 75.953125 34.769644
36.875000 86.359375 34.928173
36.400000 84.968750 34.928752
36.600000 83.921875 34.929188
37.475000 79.656250 34.930966
37.875000 78.250000 34.931552
37.825000 77.015625 34.932066
38.175000 76.390625 34.932326
37.025000 86.937500 35.082461
36.650000 85.937500 35.082878
36.350000 84.500000 35.083477
36.525000 83.140625 35.084043
36.975000 82.453125 35.084329
37.750000 80.171875 35.085280
38.050000 78.968750 35.085781
37.900000 77.953125 35.086205
36.525000 84.000000 35.241969
37.400000 79.640625 35.243786
37.875000 78.468750 35.244274
37.850000 77.140625 35.244827
38.175000 76.250000 35.245198
37.575000 86.468750 35.411350
36.350000 83.906250 35.412418
36.925000 82.968750 35.412808
37.450000 81.843750 35.413277
37.875000 79.781250 35.414137
38.050000 78.328125 35.414742
37.950000 77.171875 35.415224
38.025000 76.140625 35.415653
37.000000 89.046875 35.571063
36.800000 88.093750 35.571460
36.800000 87.171875 35.571845
36.550000 85.718750 35.572450
36.225000 84.500000 35.572958
36.350000 83.500000 35.573375
38.275000 79.203125 35.575165
38.050000 77.828125 35.575738
37.975000 76.656250 35.576226
38.150000 76.000000 35.576499
36.800000 86.828125 35.723754
36.450000 85.718750 35.724216
36.225000 84.671875 35.724653
36.375000 83.250000 35.725245
38.325000 79.296875 35.726892
38.125000 77.953125 35.727452
38.025000 76.828125 35.727921
38.450000 75.906250 35.728305
37.000000 86.375000 35.882880
36.425000 85.203125 35.883368
36.000000 84.156250 35.883804
38.175000 78.812500 35.886031
37.950000 77.218750 35.886695
38.000000 76.125000 35.887151
36.975000 89.156250 36.050081
36.750000 88.453125 36.050374
36.450000 84.812500 36.051891
36.125000 83.703125 36.052353
36.525000 82.406250 36.052893
38.075000 78.093750 36.054690
37.975000 77.171875 36.055074
38.125000 75.968750 36.055576
36.550000 86.281250 36.203828
36.125000 85.468750 36.204166
36.000000 84.359375 36.204629
36.100000 82.953125 36.205215
38.375000 78.546875 36.207051
38.100000 77.640625 36.207428
38.025000 76.468750 36.207916
36.725000 89.468750 36.359792
36.550000 88.187500 36.360326
36.875000 87.093750 36.360781
37.025000 86.031250 36.361224
35.950000 83.468750 36.362292
36.100000 82.406250 36.362735
36.500000 81.453125 36.363132
38.200000 78.125000 36.364518
37.900000 77.250000 36.364883
38.050000 76.140625 36.365345
36.450000 86.796875 36.518199
36.425000 85.703125 36.518655
36.375000 84.062500 36.519338
36.000000 82.843750 36.519846
38.000000 77.515625 36.522066
37.900000 76.453125 36.522509
36.500000 88.250000 36.692378
36.825000 86.875000 36.692951
37.075000 85.968750 36.693329
35.925000 83.437500 36.694383
36.100000 82.656250 36.694709
36.475000 81.078125 36.695366
38.075000 78.031250 36.696636
37.700000 76.812500 36.697144
38.100000 76.000000 36.697482
36.900000 88.250000 36.842192
36.750000 87.625000 36.842452
36.575000 86.312500 36.842999
36.300000 85.140625 36.843487
36.125000 84.093750 36.843923
36.075000 82.578125 36.844555
36.400000 81.687500 36.844926
37.200000 78.421875 36.846287
37.650000 77.312500 36.846749
37.825000 75.937500 36.847322
36.875000 88.453125 37.008202
36.675000 87.281250 37.008690
36.350000 83.968750 37.010070
36.100000 83.046875 37.010454
36.700000 79.468750 37.011945
37.275000 78.234375 37.012460
37.425000 77.453125 37.012785
37.800000 76.375000 37.013234
36.775000 88.500000 37.168845
36.575000 87.484375 37.169269
36.325000 84.218750 37.170629
36.100000 82.765625 37.171235
36.400000 81.953125 37.171573
36.850000 80.406250 37.172218
37.150000 79.718750 37.172504
37.250000 78.421875 37.173044
37.400000 77.359375 37.173487
37.725000 75.968750 37.174067
36.725000 88.843750 37.324029
36.575000 87.843750 37.324446
36.650000 86.218750 37.325123
36.550000 85.046875 37.325611
36.350000 83.953125 37.326067
36.250000 82.875000 37.326516
36.425000 82.000000 37.326881
36.725000 80.906250 37.327337
36.900000 79.625000 37.327871
37.075000 78.312500 37.328418
37.250000 77.187500 37.328886
37.550000 76.484375 37.329179
36.600000 89.031250 37.478791
36.300000 88.078125 37.479189
36.500000 86.656250 37.479781
36.375000 85.343750 37.480328
36.300000 84.515625 37.480673
36.325000 83.515625 37.481090
36.500000 82.312500 37.481591
36.625000 80.890625 37.482183
36.625000 79.953125 37.482574
36.850000 78.546875 37.483160
37.025000 77.828125 37.483459
37.375000 76.437500 37.484039
36.450000 88.906250 37.649782
36.225000 87.921875 37.650192
36.400000 86.656250 37.650720
36.400000 85.390625 37.651247
36.275000 84.453125 37.651638
36.250000 83.093750 37.652204
36.525000 81.859375 37.652719
36.625000 81.062500 37.653051
36.575000 79.515625 37.653695
36.775000 78.562500 37.654092
36.950000 77.625000 37.654483
37.250000 76.375000 37.655004
36.400000 88.984375 37.806640
36.075000 87.703125 37.807174
36.250000 86.921875 37.807499
36.275000 85.500000 37.808092
36.275000 84.500000 37.808508
36.300000 83.453125 37.808945
36.500000 82.218750 37.809459
36.500000 80.984375 37.809973
36.450000 79.828125 37.810455
36.675000 78.953125 37.810820
36.825000 77.406250 37.811464
36.375000 88.609375 37.962445
36.125000 87.421875 37.962940
36.175000 86.218750 37.963441
36.175000 85.359375 37.963799
36.200000 84.328125 37.964229
36.250000 82.828125 37.964854
36.275000 81.906250 37.965238
36.250000 80.703125 37.965740
36.350000 79.640625 37.966182
36.575000 78.203125 37.966781
36.825000 77.453125 37.967094
37.100000 76.437500 37.967517
36.000000 88.140625 38.137248
36.075000 87.375000 38.137567
36.125000 85.921875 38.138172
36.125000 84.937500 38.138583
36.125000 83.937500 38.138999
36.300000 82.484375 38.139605
36.275000 81.703125 38.139930
36.150000 80.187500 38.140562
36.375000 79.156250 38.140991
36.575000 77.953125 38.141493
36.775000 77.125000 38.141838
37.100000 75.859375 38.142365
36.050000 89.093750 38.287255
35.975000 87.718750 38.287828
36.025000 86.578125 38.288303
36.050000 85.656250 38.288687
36.075000 84.171875 38.289306
36.100000 83.000000 38.289794
36.225000 82.000000 38.290211
36.225000 80.890625 38.290673
36.150000 79.765625 38.291142
36.325000 78.484375 38.291676
36.550000 77.859375 38.291936
36.800000 76.578125 38.292470
37.275000 75.281250 38.293010
36.300000 89.875000 38.447562
36.050000 88.375000 38.448187
36.075000 87.390625 38.448597
36.050000 86.281250 38.449059
36.000000 84.953125 38.449613
36.075000 84.265625 38.449899
36.175000 82.890625 38.450472
36.150000 81.765625 38.450941
36.150000 80.859375 38.451319
36.200000 79.203125 38.452008
36.350000 78.437500 38.452327
36.550000 77.031250 38.452914
36.775000 76.343750 38.453200
36.000000 86.890625 38.600041
35.975000 85.687500 38.600542
35.925000 84.343750 38.601102
35.950000 83.250000 38.601558
36.225000 82.390625 38.601916
36.250000 81.250000 38.602391
36.100000 79.906250 38.602951
36.250000 78.953125 38.603348
36.450000 77.781250 38.603837
36.600000 76.781250 38.604253
36.950000 75.765625 38.604676
36.550000 89.593750 38.760268
36.000000 88.281250 38.760815
35.900000 87.421875 38.761173
35.925000 86.250000 38.761662
35.975000 85.140625 38.762124
35.975000 83.843750 38.762664
36.150000 82.640625 38.763165
36.175000 81.921875 38.763465
36.000000 80.296875 38.764142
36.100000 79.640625 38.764416
36.250000 78.250000 38.764995
36.425000 77.281250 38.765399
35.850000 89.078125 38.924545
35.775000 87.953125 38.925014
35.800000 86.468750 38.925632
35.850000 85.218750 38.926153
35.900000 84.437500 38.926479
36.000000 83.453125 38.926889
36.050000 82.109375 38.927449
35.975000 80.953125 38.927931
36.000000 79.890625 38.928373
36.100000 78.500000 38.928953
36.300000 77.546875 38.929350
36.550000 76.250000 38.929890
36.900000 75.390625 38.930248
36.075000 89.781250 39.077461
35.650000 88.921875 39.077819
35.775000 87.781250 39.078295
35.800000 86.140625 39.078978
35.775000 85.500000 39.079245
35.825000 84.187500 39.079792
35.975000 83.109375 39.080241
36.025000 82.109375 39.080658
35.950000 80.906250 39.081159
35.975000 79.687500 39.081667
36.125000 78.484375 39.082168
36.275000 77.062500 39.082761
36.475000 76.375000 39.083047
36.950000 75.062500 39.083594
35.775000 88.671875 39.238495
35.675000 87.156250 39.239127
35.700000 86.328125 39.239472
35.725000 85.203125 39.239940
35.750000 83.671875 39.240578
36.025000 83.046875 39.240839
36.050000 81.593750 39.241444
35.900000 80.781250 39.241783
35.975000 79.093750 39.242486
36.150000 78.046875 39.242922
36.350000 76.921875 39.243391
36.525000 76.140625 39.243716
37.050000 75.203125 39.244107
36.325000 89.531250 39.407519
35.725000 88.468750 39.407961
35.625000 87.468750 39.408378
35.650000 86.437500 39.408808
35.700000 85.265625 39.409296
35.725000 83.937500 39.409849
35.850000 83.125000 39.410188
35.900000 81.828125 39.410728
35.800000 80.640625 39.411223
35.900000 79.375000 39.411751
36.100000 78.578125 39.412082
36.300000 76.953125 39.412760
36.500000 76.312500 39.413027
36.925000 75.171875 39.413502
36.200000 89.703125 39.567369
35.700000 88.765625 39.567760
35.600000 87.359375 39.568346
35.600000 86.281250 39.568795
35.650000 85.281250 39.569212
35.700000 83.750000 39.569850
35.775000 83.156250 39.570097
35.825000 81.984375 39.570585
35.775000 80.609375 39.571158
35.875000 79.437500 39.571647
36.075000 78.562500 39.572011
36.250000 77.031250 39.572649
36.450000 76.015625 39.573072
36.900000 75.140625 39.573437
36.300000 89.843750 39.715755
35.650000 88.296875 39.716400
35.475000 87.031250 39.716927
35.500000 86.187500 39.717279
35.600000 85.093750 39.717735
35.700000 84.156250 39.718125
35.775000 82.687500 39.718737
35.775000 81.781250 39.719115
35.675000 80.671875 39.719577
35.800000 79.265625 39.720163
36.100000 78.234375 39.720593
36.300000 76.953125 39.721127
36.500000 75.953125 39.721543
36.925000 74.781250 39.722032
35.950000 89.500000 39.886452
35.475000 88.156250 39.887012
35.450000 87.296875 39.887370
35.475000 86.390625 39.887748
35.550000 85.281250 39.888210
35.650000 83.578125 39.888920
35.750000 82.562500 39.889343
35.900000 81.609375 39.889740
35.825000 80.593750 39.890163
35.800000 79.281250 39.890710
36.075000 77.906250 39.891283
36.275000 77.000000 39.891661
36.475000 75.890625 39.892123
36.900000 75.031250 39.892481
35.425000 88.687500 40.041931
35.325000 87.687500 40.042347
35.425000 86.484375 40.042849
35.525000 85.062500 40.043441
35.550000 84.140625 40.043825
35.625000 83.328125 40.044164
35.700000 82.031250 40.044704
35.725000 81.000000 40.045134
35.825000 79.796875 40.045635
36.000000 78.703125 40.046091
36.200000 77.531250 40.046579
36.400000 76.156250 40.047152
36.725000 75.343750 40.047491
35.275000 89.078125 40.201156
35.225000 87.937500 40.201631
35.425000 86.703125 40.202146
35.500000 85.796875 40.202523
35.525000 84.484375 40.203070
35.525000 83.328125 40.203552
35.475000 81.906250 40.204144
35.750000 80.875000 40.204574
35.975000 79.687500 40.205069
35.950000 78.781250 40.205446
36.075000 77.562500 40.205954
36.300000 76.468750 40.206410
36.625000 75.656250 40.206748
35.400000 86.640625 40.353142
35.500000 85.843750 40.353475
35.575000 84.484375 40.354041
35.325000 83.156250 40.354594
35.200000 82.468750 40.354881
35.475000 80.796875 40.355577
35.700000 79.937500 40.355936
36.000000 78.781250 40.356417
36.125000 77.640625 40.356893
36.300000 76.687500 40.357290
36.650000 75.703125 40.357700
35.675000 89.046875 40.521521
35.375000 88.062500 40.521931
35.425000 86.703125 40.522497
35.525000 85.750000 40.522894
35.700000 84.734375 40.523318
35.375000 83.531250 40.523819
35.075000 82.140625 40.524398
35.375000 81.484375 40.524672
35.925000 80.437500 40.525108
36.200000 79.000000 40.525707
36.150000 77.906250 40.526163
36.325000 76.562500 40.526722
36.650000 75.390625 40.527211
35.400000 89.296875 40.677724
35.225000 88.375000 40.678108
35.425000 87.453125 40.678492
35.475000 86.125000 40.679046
35.450000 85.156250 40.679449
35.175000 83.609375 40.680094
35.075000 82.718750 40.680465
35.275000 81.562500 40.680947
35.475000 80.687500 40.681311
35.800000 79.515625 40.681800
36.075000 77.968750 40.682444
36.275000 77.046875 40.682828
36.550000 76.234375 40.683167
37.075000 75.109375 40.683635
35.600000 89.078125 40.833908
35.325000 87.921875 40.834390
35.450000 86.796875 40.834859
35.325000 83.437500 40.836258
35.200000 82.250000 40.836753
35.775000 78.687500 40.838238
36.350000 77.500000 40.838732
36.500000 76.812500 40.839019
36.800000 75.203125 40.839689
35.525000 89.125000 41.008767
35.400000 87.796875 41.009321
35.475000 87.187500 41.009575
35.325000 83.203125 41.011235
35.275000 82.187500 41.011658
35.575000 81.500000 41.011945
35.825000 79.906250 41.012609
36.100000 79.156250 41.012921
36.425000 78.046875 41.013383
36.575000 76.984375 41.013826
36.750000 75.765625 41.014334
35.700000 89.937500 41.161401
35.675000 88.921875 41.161824
35.575000 87.500000 41.162417
35.625000 86.453125 41.162853
35.600000 85.453125 41.163270
35.375000 84.140625 41.163816
35.350000 82.750000 41.164396
35.725000 82.187500 41.164630
36.275000 78.828125 41.166030
36.625000 77.656250 41.166518
36.750000 76.500000 41.167000
37.075000 75.218750 41.167534
35.725000 89.109375 41.320391
35.550000 88.250000 41.320749
35.725000 87.015625 41.321263
35.300000 85.500000 41.321895
35.050000 84.546875 41.322292
35.350000 83.609375 41.322682
35.550000 82.125000 41.323301
35.925000 81.468750 41.323574
36.375000 77.515625 41.325221
36.700000 76.812500 41.325514
36.950000 75.781250 41.325944
35.625000 88.078125 41.473181
35.800000 86.734375 41.473741
35.625000 85.234375 41.474366
35.350000 84.250000 41.474776
35.500000 83.484375 41.475095
35.950000 82.359375 41.475564
36.400000 80.828125 41.476202
36.825000 80.171875 41.476475
37.150000 78.765625 41.477061
36.975000 77.750000 41.477484
36.900000 76.265625 41.478103
37.150000 75.375000 41.478474
35.625000 89.031250 41.638900
35.750000 87.468750 41.639551
35.850000 86.515625 41.639949
35.875000 85.125000 41.640528
35.600000 84.187500 41.640918
35.600000 83.375000 41.641257
36.175000 82.187500 41.641752
36.825000 78.906250 41.643119
37.075000 77.421875 41.643738
37.025000 76.140625 41.644271
37.175000 75.015625 41.644740
35.625000 88.500000 41.799190
35.750000 87.593750 41.799568
35.850000 86.453125 41.800043
35.875000 85.281250 41.800531
35.600000 84.343750 41.800922
35.600000 83.109375 41.801436
36.200000 82.218750 41.801807
36.600000 81.093750 41.802276
37.125000 79.968750 41.802745
37.375000 78.859375 41.803207
37.100000 77.671875 41.803702
37.100000 76.531250 41.804177
37.300000 75.343750 41.804672
35.875000 89.328125 41.954524
35.900000 88.265625 41.954967
35.975000 87.312500 41.955364
35.775000 83.609375 41.956907
37.425000 79.593750 41.958580
37.375000 78.250000 41.959140
37.100000 77.328125 41.959524
37.250000 76.000000 41.960078
37.700000 75.062500 41.960468
36.200000 89.250000 42.111579
35.875000 88.078125 42.112068
36.075000 86.937500 42.112543
36.025000 85.484375 42.113148
35.825000 84.656250 42.113493
35.750000 83.437500 42.114001
36.125000 82.515625 42.114385
36.675000 80.906250 42.115056
37.200000 80.218750 42.115342
37.325000 78.984375 42.115857
37.100000 77.781250 42.116358
37.125000 76.625000 42.116840
37.375000 75.625000 42.117256
35.925000 87.843750 42.284207
36.150000 86.781250 42.284650
36.050000 85.781250 42.285066
35.850000 84.718750 42.285509
35.775000 83.140625 42.286167
36.050000 82.125000 42.286590
36.575000 81.218750 42.286968
37.175000 80.046875 42.287456
37.325000 78.812500 42.287970
37.100000 77.640625 42.288458
37.150000 76.453125 42.288953
37.400000 75.406250 42.289389
36.200000 89.640625 42.443455
36.200000 88.359375 42.443989
36.225000 87.187500 42.444478
36.250000 86.390625 42.444810
36.650000 85.468750 42.445194
37.400000 79.500000 42.447681
37.275000 78.500000 42.448097
37.075000 77.484375 42.448521
37.250000 76.359375 42.448989
37.775000 75.046875 42.449536
36.425000 89.265625 42.595719
36.225000 87.859375 42.596305
36.325000 87.140625 42.596604
36.575000 86.062500 42.597053
36.400000 84.921875 42.597529
36.000000 83.453125 42.598141
37.250000 78.953125 42.600016
37.025000 77.671875 42.600549
37.125000 76.609375 42.600992
37.475000 75.546875 42.601435
36.025000 88.796875 42.761729
36.300000 88.109375 42.762015
36.425000 86.703125 42.762601
36.525000 85.890625 42.762940
36.400000 84.625000 42.763467
36.100000 83.062500 42.764118
36.300000 82.062500 42.764535
36.950000 81.328125 42.764841
37.425000 80.187500 42.765316
37.250000 78.890625 42.765857
37.025000 77.468750 42.766449
37.250000 76.781250 42.766736
37.700000 75.625000 42.767217
36.675000 89.953125 42.909498
36.600000 88.718750 42.910012
36.500000 87.640625 42.910462
36.525000 86.484375 42.910943
36.775000 85.484375 42.911360
36.725000 84.265625 42.911868
36.450000 83.125000 42.912343
36.850000 81.718750 42.912929
37.325000 81.031250 42.913215
37.325000 79.828125 42.913717
37.125000 78.250000 42.914374
37.150000 77.578125 42.914654
37.500000 76.234375 42.915214
37.975000 75.109375 42.915683
36.225000 88.968750 43.075457
36.500000 87.765625 43.075958
36.600000 86.656250 43.076420
36.600000 85.593750 43.076863
36.750000 84.718750 43.077228
36.850000 83.000000 43.077944
37.000000 81.937500 43.078386
37.350000 81.343750 43.078634
37.575000 79.890625 43.079239
37.300000 78.625000 43.079767
37.100000 77.718750 43.080144
37.375000 76.250000 43.080756
37.825000 75.484375 43.081075
36.975000 89.859375 43.235376
36.825000 88.906250 43.235774
36.600000 87.484375 43.236366
36.675000 86.562500 43.236750
36.775000 85.343750 43.237258
36.750000 83.953125 43.237837
36.850000 83.125000 43.238182
37.200000 82.109375 43.238605
37.450000 81.000000 43.239068
37.325000 79.734375 43.239595
37.100000 78.281250 43.240201
37.150000 77.484375 43.240533
37.500000 76.234375 43.241053
38.100000 75.093750 43.241529
36.750000 87.406250 43.393368
36.825000 86.296875 43.393830
36.925000 84.984375 43.394377
36.900000 83.578125 43.394963
36.975000 82.593750 43.395373
37.300000 81.812500 43.395699
37.525000 80.421875 43.396278
37.325000 79.140625 43.396812
37.175000 77.953125 43.397307
37.575000 77.218750 43.397613
37.975000 76.078125 43.398088
37.325000 89.968750 43.549699
37.200000 88.562500 43.550284
36.825000 87.593750 43.550688
36.875000 86.375000 43.551196
36.950000 85.328125 43.551632
36.950000 83.781250 43.552277
37.000000 82.984375 43.552609
37.325000 81.578125 43.553195
37.625000 80.468750 43.553657
37.425000 79.453125 43.554080
37.200000 78.218750 43.554594
37.375000 77.156250 43.555037
36.450000 89.359375 43.719062
36.725000 88.109375 43.719583
36.925000 87.140625 43.719986
36.975000 85.531250 43.720657
36.950000 84.328125 43.721159
36.975000 83.203125 43.721627
37.300000 82.171875 43.722057
37.575000 81.359375 43.722395
37.825000 80.156250 43.722897
37.625000 78.609375 43.723541
37.325000 77.687500 43.723925
37.550000 76.531250 43.724407
38.000000 75.593750 43.724798
37.650000 89.515625 43.880652
37.525000 88.562500 43.881049
36.925000 87.609375 43.881446
36.975000 86.484375 43.881915
37.075000 84.968750 43.882547
37.075000 83.812500 43.883029
37.225000 82.671875 43.883504
37.475000 81.500000 43.883992
37.675000 80.734375 43.884311
37.500000 79.531250 43.884812
37.325000 78.187500 43.885372
37.525000 77.140625 43.885808
37.875000 75.812500 43.886362
36.750000 88.921875 44.030813
36.950000 87.625000 44.031354
37.050000 86.531250 44.031810
37.125000 85.718750 44.032148
37.150000 84.109375 44.032819
37.200000 83.250000 44.033177
37.450000 82.078125 44.033665
37.750000 80.859375 44.034173
37.525000 79.703125 44.034655
37.300000 78.625000 44.035104
37.475000 77.578125 44.035540
37.750000 76.343750 44.036054
38.350000 75.546875 44.036386
37.675000 89.890625 44.196978
37.425000 88.625000 44.197505
37.025000 87.671875 44.197902
37.125000 86.125000 44.198547
37.125000 85.281250 44.198899
37.150000 83.890625 44.199478
37.275000 83.046875 44.199830
37.475000 81.906250 44.200305
37.750000 80.718750 44.200799
37.575000 79.390625 44.201353
37.350000 78.203125 44.201848
37.500000 77.031250 44.202336
37.850000 75.875000 44.202818
37.675000 89.828125 44.355458
37.425000 88.406250 44.356051
37.025000 87.312500 44.356507
37.125000 86.468750 44.356858
37.200000 85.031250 44.357457
37.225000 83.984375 44.357893
37.250000 82.828125 44.358375
37.450000 81.843750 44.358785
37.750000 80.562500 44.359319
37.725000 79.515625 44.359755
37.500000 78.234375 44.360289
37.500000 77.093750 44.360765
37.850000 76.218750 44.361129
36.650000 88.906250 44.525060
36.925000 87.875000 44.525490
37.100000 86.812500 44.525932
37.275000 85.640625 44.526421
37.225000 84.187500 44.527026
37.125000 83.484375 44.527319
37.500000 82.109375 44.527892
37.975000 80.828125 44.528426
37.850000 79.953125 44.528790
37.525000 78.718750 44.529305
37.500000 77.375000 44.529865
37.825000 76.265625 44.530327
38.400000 75.296875 44.530730
37.100000 86.890625 44.680473
37.350000 86.109375 44.680798
37.075000 84.562500 44.681443
36.775000 83.421875 44.681918
37.000000 82.718750 44.682211
37.500000 81.687500 44.682641
38.075000 80.562500 44.683109
37.900000 78.968750 44.683774
37.625000 77.937500 44.684203
37.700000 76.796875 44.684678
38.100000 75.625000 44.685167
38.300000 89.640625 44.833189
37.025000 87.484375 44.834088
37.350000 86.562500 44.834472
37.825000 80.640625 44.836940
37.800000 79.218750 44.837532
37.625000 78.500000 44.837831
37.750000 77.078125 44.838424
38.050000 76.203125 44.838789
37.400000 88.656250 45.003882
37.075000 87.546875 45.004344
37.375000 86.390625 45.004826
36.625000 84.281250 45.005704
37.250000 83.031250 45.006225
37.775000 82.000000 45.006655
38.250000 80.687500 45.007202
38.150000 79.875000 45.007540
37.725000 78.437500 45.008139
37.700000 77.109375 45.008693
37.975000 76.312500 45.009025
37.450000 88.203125 45.160736
37.100000 87.437500 45.161055
36.800000 86.078125 45.161622
36.375000 84.640625 45.162220
38.050000 79.468750 45.164376
37.800000 78.031250 45.164974
37.775000 77.046875 45.165385
38.150000 76.250000 45.165717
37.025000 88.328125 45.319742
37.075000 86.984375 45.320302
36.700000 86.046875 45.320693
36.275000 84.875000 45.321181
38.000000 79.390625 45.323466
37.800000 77.953125 45.324065
37.875000 77.109375 45.324417
38.275000 75.640625 45.325029
37.525000 86.640625 45.472505
36.575000 84.031250 45.473592
37.425000 81.921875 45.474471
37.900000 79.421875 45.475513
37.825000 78.562500 45.475871
37.925000 77.515625 45.476307
38.225000 76.000000 45.476938
36.925000 86.890625 45.635643
36.550000 85.828125 45.636086
36.275000 84.500000 45.636640
38.000000 79.078125 45.638899
37.825000 77.859375 45.639406
37.900000 76.937500 45.639791
38.300000 75.968750 45.640194
36.900000 87.812500 45.796021
37.100000 86.890625 45.796405
36.750000 85.625000 45.796932
36.325000 84.578125 45.797368
36.650000 83.500000 45.797817
37.125000 82.015625 45.798436
37.725000 79.828125 45.799347
38.050000 79.031250 45.799679
37.950000 77.421875 45.800350
38.125000 76.484375 45.800740
37.025000 89.125000 45.948590
36.775000 88.328125 45.948922
36.875000 87.281250 45.949359
36.625000 86.187500 45.949814
36.225000 84.562500 45.950491
36.325000 83.609375 45.950889
38.125000 79.203125 45.952724
38.000000 78.250000 45.953122
38.050000 77.234375 45.953545
38.275000 75.921875 45.954092
37.225000 86.500000 46.110685
36.125000 84.187500 46.111648
36.625000 83.312500 46.112013
37.225000 81.781250 46.112651
37.875000 79.578125 46.113569
38.100000 78.687500 46.113940
37.975000 77.671875 46.114363
38.000000 76.359375 46.114910
36.925000 86.468750 46.280756
36.375000 85.421875 46.281192
36.000000 84.171875 46.281713
36.400000 82.953125 46.282221
37.050000 82.093750 46.282579
37.825000 79.718750 46.283568
38.100000 78.500000 46.284076
37.950000 77.421875 46.284525
37.975000 76.468750 46.284923
37.100000 88.406250 46.442389
37.000000 87.437500 46.442792
37.175000 86.562500 46.443157
36.025000 84.140625 46.444166
36.475000 82.921875 46.444674
37.150000 81.640625 46.445208
37.875000 79.687500 46.446022
38.200000 78.640625 46.446458
38.050000 77.390625 46.446979
38.050000 76.234375 46.447460
36.725000 86.281250 46.592148
36.175000 85.093750 46.592643
35.950000 84.312500 46.592968
36.150000 82.875000 46.593567
36.550000 81.750000 46.594036
38.300000 78.484375 46.595397
38.050000 77.718750 46.595716
37.975000 76.312500 46.596302
36.775000 88.468750 46.754905
36.925000 87.687500 46.755231
36.675000 86.500000 46.755726
36.125000 84.968750 46.756364
35.925000 83.765625 46.756865
36.100000 82.765625 46.757282
36.425000 81.734375 46.757711
38.050000 77.109375 46.759639
38.025000 76.156250 46.760036
36.525000 86.546875 46.922217
36.125000 85.640625 46.922595
36.025000 83.921875 46.923311
36.000000 82.984375 46.923702
36.250000 82.031250 46.924099
38.050000 77.343750 46.926052
37.925000 76.203125 46.926527
36.800000 89.343750 47.074155
36.500000 88.078125 47.074683
36.775000 87.046875 47.075112
36.875000 85.828125 47.075620
36.450000 84.703125 47.076089
35.975000 83.546875 47.076571
36.100000 82.796875 47.076883
36.475000 81.375000 47.077476
38.075000 78.328125 47.078745
37.725000 76.875000 47.079351
38.050000 76.046875 47.079696
36.350000 84.312500 47.235405
35.975000 83.187500 47.235874
36.250000 81.906250 47.236408
36.775000 81.109375 47.236740
37.750000 79.031250 47.237605
38.050000 77.515625 47.238237
37.800000 76.468750 47.238673
36.550000 87.875000 47.388805
36.750000 86.718750 47.389287
36.875000 86.093750 47.389548
36.475000 84.531250 47.390199
36.025000 83.296875 47.390713
36.175000 82.468750 47.391058
36.550000 81.531250 47.391448
37.925000 77.859375 47.392978
37.625000 76.718750 47.393454
38.100000 75.625000 47.393909
36.825000 88.609375 47.562560
36.650000 87.343750 47.563087
36.425000 84.000000 47.564481
36.175000 83.078125 47.564865
36.425000 81.937500 47.565340
37.025000 80.781250 47.565822
37.325000 79.531250 47.566343
37.275000 78.640625 47.566714
37.450000 77.484375 47.567195
37.825000 76.078125 47.567781
36.875000 89.203125 47.715549
36.475000 88.171875 47.715978
36.650000 87.218750 47.716376
36.425000 86.171875 47.716812
36.375000 84.937500 47.717326
36.400000 83.296875 47.718010
36.175000 82.687500 47.718264
36.500000 81.656250 47.718693
36.925000 80.421875 47.719208
37.125000 79.375000 47.719644
37.275000 77.953125 47.720236
37.450000 76.656250 47.720777
37.950000 75.812500 47.721128
36.675000 89.718750 47.869677
36.375000 88.468750 47.870198
36.475000 87.484375 47.870608
36.550000 86.328125 47.871090
36.500000 84.859375 47.871702
36.375000 83.765625 47.872158
36.325000 82.796875 47.872561
36.550000 81.484375 47.873108
36.750000 80.734375 47.873420
36.875000 79.468750 47.873948
37.100000 78.437500 47.874377
37.275000 77.046875 47.874957
37.600000 75.890625 47.875439
36.550000 88.765625 48.040332
36.350000 87.531250 48.040846
36.500000 86.437500 48.041302
36.375000 84.921875 48.041934
36.275000 84.265625 48.042207
36.275000 82.640625 48.042884
36.525000 81.718750 48.043268
36.650000 80.781250 48.043659
36.625000 79.671875 48.044121
36.900000 78.656250 48.044544
37.075000 77.062500 48.045208
37.425000 76.093750 48.045612
36.325000 87.156250 48.200085
36.400000 86.109375 48.200521
36.350000 84.437500 48.201218
36.200000 83.562500 48.201583
36.400000 82.156250 48.202168
36.450000 81.203125 48.202566
36.400000 80.406250 48.202898
36.650000 79.140625 48.203425
36.875000 77.890625 48.203946
37.100000 76.796875 48.204401
37.575000 75.937500 48.204760
36.400000 88.546875 48.354799
36.150000 87.375000 48.355287
36.250000 86.328125 48.355723
36.225000 85.562500 48.356042
36.175000 83.859375 48.356752
36.225000 83.187500 48.357032
36.325000 81.781250 48.357618
36.350000 80.828125 48.358015
36.425000 79.390625 48.358614
36.675000 78.734375 48.358887
36.875000 77.203125 48.359525
37.100000 76.218750 48.359936
36.175000 88.843750 48.510434
36.025000 87.625000 48.510942
36.100000 86.328125 48.511482
36.125000 85.218750 48.511945
36.150000 84.078125 48.512420
36.125000 83.390625 48.512706
36.250000 82.218750 48.513195
36.300000 80.890625 48.513748
36.300000 79.750000 48.514223
36.525000 78.484375 48.514750
36.750000 77.562500 48.515135
36.925000 76.515625 48.515571
36.300000 89.750000 48.666545
36.075000 88.578125 48.667034
36.050000 87.328125 48.667555
36.125000 86.656250 48.667835
36.150000 85.078125 48.668492
36.125000 84.343750 48.668798
36.200000 83.156250 48.669293
36.200000 81.921875 48.669807
36.200000 80.859375 48.670250
36.325000 79.656250 48.670751
36.475000 78.296875 48.671318
36.650000 77.453125 48.671669
36.925000 76.312500 48.672144
35.950000 88.687500 48.825432
35.925000 88.000000 48.825719
36.050000 86.750000 48.826240
36.050000 85.421875 48.826793
36.075000 84.515625 48.827171
36.125000 83.250000 48.827698
36.250000 82.343750 48.828075
36.250000 81.125000 48.828583
36.175000 80.015625 48.829046
36.350000 78.687500 48.829599
36.550000 77.812500 48.829963
36.750000 76.500000 48.830510
37.200000 75.640625 48.830868
35.975000 86.718750 48.993520
36.000000 85.812500 48.993898
36.025000 84.593750 48.994406
36.075000 83.546875 48.994842
36.375000 82.734375 48.995181
36.350000 81.500000 48.995695
36.100000 80.046875 48.996300
36.250000 78.906250 48.996776
36.450000 77.671875 48.997290
36.600000 76.546875 48.997759
36.900000 75.703125 48.998110
35.950000 87.109375 49.148770
35.975000 85.640625 49.149382
36.000000 84.781250 49.149740
36.050000 83.218750 49.150391
36.350000 82.187500 49.150821
36.325000 81.484375 49.151114
36.075000 80.031250 49.151720
36.175000 78.828125 49.152221
36.375000 77.703125 49.152690
36.575000 76.906250 49.153022
36.875000 75.734375 49.153510
35.975000 89.968750 49.303383
35.750000 88.625000 49.303942
35.875000 87.546875 49.304392
35.850000 86.234375 49.304939
35.900000 85.390625 49.305290
35.950000 84.359375 49.305720
36.075000 82.937500 49.306312
36.125000 81.921875 49.306736
35.975000 80.750000 49.307224
36.025000 79.875000 49.307588
36.225000 78.625000 49.308109
36.400000 77.296875 49.308663
36.600000 76.140625 49.309144
37.000000 75.328125 49.309483
35.800000 87.250000 49.476238
35.900000 85.781250 49.476851
35.900000 84.718750 49.477293
35.875000 83.640625 49.477742
36.150000 82.828125 49.478081
36.175000 81.203125 49.478758
35.950000 80.468750 49.479064
36.075000 79.171875 49.479604
36.250000 78.218750 49.480001
36.450000 77.031250 49.480496
36.650000 75.562500 49.481108
35.775000 87.484375 49.636356
35.775000 85.937500 49.637000
35.800000 84.843750 49.637456
35.825000 83.609375 49.637970
36.075000 82.468750 49.638445
36.075000 81.656250 49.638784
35.900000 80.671875 49.639194
36.025000 79.281250 49.639774
36.200000 78.281250 49.640190
36.400000 76.937500 49.640750
36.650000 76.046875 49.641121
37.175000 75.093750 49.641518
35.675000 86.546875 49.787893
35.700000 85.843750 49.788186
35.700000 84.234375 49.788857
35.775000 83.562500 49.789137
35.950000 82.343750 49.789644
35.925000 80.796875 49.790289
35.900000 79.921875 49.790654
36.075000 78.781250 49.791129
36.225000 77.468750 49.791676
36.400000 76.687500 49.792001
36.700000 75.687500 49.792418
36.075000 89.328125 49.948353
35.625000 88.484375 49.948705
35.600000 87.078125 49.949291
35.650000 86.093750 49.949701
35.675000 84.843750 49.950222
35.750000 83.609375 49.950736
36.050000 82.421875 49.951231
36.025000 81.484375 49.951622
35.800000 79.984375 49.952247
35.950000 79.265625 49.952546
36.150000 78.078125 49.953041
36.350000 76.671875 49.953627
35.500000 88.000000 50.115522
35.575000 86.515625 50.116141
35.600000 85.671875 50.116492
35.625000 84.046875 50.117169
35.700000 83.375000 50.117449
35.850000 81.906250 50.118061
35.825000 81.093750 50.118400
35.775000 80.031250 50.118842
35.975000 78.703125 50.119396
36.175000 77.625000 50.119845
36.325000 76.187500 50.120444
36.650000 75.468750 50.120743
35.500000 87.031250 50.272212
35.550000 85.687500 50.272772
35.575000 84.890625 50.273104
35.650000 83.421875 50.273716
35.775000 82.437500 50.274127
35.825000 81.562500 50.274491
35.775000 80.078125 50.275110
35.950000 79.343750 50.275415
36.125000 77.890625 50.276021
36.225000 76.531250 50.276587
35.375000 89.875000 50.426554
35.125000 88.765625 50.427016
35.375000 87.453125 50.427563
35.450000 86.609375 50.427914
35.525000 85.281250 50.428468
35.575000 83.796875 50.429086
35.625000 83.031250 50.429405
35.875000 82.078125 50.429802
35.825000 80.671875 50.430388
35.750000 79.296875 50.430961
36.000000 78.171875 50.431430
36.175000 77.531250 50.431697
36.400000 76.406250 50.432166
36.750000 75.031250 50.432739
35.125000 88.734375 50.597192
35.225000 87.984375 50.597505
35.400000 86.375000 50.598175
35.525000 85.531250 50.598527
35.625000 84.453125 50.598976
35.650000 83.296875 50.599458
35.625000 82.328125 50.599861
35.700000 80.875000 50.600467
35.875000 79.968750 50.600844
36.000000 78.921875 50.601281
36.150000 77.515625 50.601866
36.300000 76.343750 50.602355
36.625000 75.171875 50.602843
35.125000 88.500000 50.755167
35.225000 87.937500 50.755402
35.400000 86.843750 50.755857
35.525000 85.453125 50.756437
35.600000 84.125000 50.756990
35.375000 83.359375 50.757309
35.350000 82.265625 50.757765
35.775000 80.750000 50.758396
35.950000 79.890625 50.758754
35.975000 78.406250 50.759373
36.150000 77.578125 50.759718
36.325000 76.593750 50.760128
36.650000 75.468750 50.760597
35.425000 86.656250 50.908902
35.550000 85.859375 50.909234
35.725000 84.421875 50.909833
35.425000 83.562500 50.910192
35.200000 82.218750 50.910751
35.475000 80.812500 50.911337
35.775000 79.812500 50.911754
36.025000 78.500000 50.912301
36.175000 77.671875 50.912646
36.350000 76.468750 50.913147
36.675000 75.296875 50.913635
35.200000 88.781250 51.073181
35.225000 87.640625 51.073656
35.475000 86.812500 51.074001
35.350000 83.062500 51.075563
35.200000 81.718750 51.076123
35.475000 80.609375 51.076586
35.950000 79.718750 51.076957
36.150000 78.890625 51.077302
36.200000 77.562500 51.077855
36.425000 76.312500 51.078376
36.775000 75.234375 51.078825
35.075000 89.078125 51.234916
35.225000 87.656250 51.235509
35.475000 86.890625 51.235828
35.325000 83.078125 51.237417
35.150000 81.890625 51.237911
35.675000 78.750000 51.239220
36.175000 77.437500 51.239767
36.400000 76.625000 51.240105
36.800000 75.562500 51.240548
35.500000 89.296875 51.387333
35.325000 88.531250 51.387652
35.475000 87.000000 51.388290
35.600000 86.218750 51.388615
35.875000 84.828125 51.389195
35.575000 83.671875 51.389676
35.150000 82.640625 51.390106
35.400000 81.515625 51.390575
35.625000 80.546875 51.390979
35.975000 79.468750 51.391428
36.275000 77.921875 51.392072
36.425000 77.171875 51.392385
35.725000 89.796875 51.546840
35.700000 88.500000 51.547381
35.450000 87.406250 51.547837
35.550000 86.406250 51.548253
35.325000 85.265625 51.548728
35.075000 83.968750 51.549269
35.275000 82.843750 51.549738
35.575000 82.031250 51.550076
36.025000 78.890625 51.551385
36.475000 77.703125 51.551880
36.575000 76.359375 51.552439
36.825000 75.093750 51.552967
35.375000 89.750000 51.716785
35.375000 88.296875 51.717390
35.625000 87.453125 51.717742
35.700000 86.328125 51.718210
36.000000 85.218750 51.718673
35.750000 84.187500 51.719102
35.275000 82.781250 51.719688
35.625000 81.718750 51.720131
36.250000 78.531250 51.721459
36.600000 77.078125 51.722065
36.750000 76.187500 51.722436
37.200000 75.078125 51.722898
35.500000 87.750000 51.872148
35.725000 86.921875 51.872493
35.475000 85.515625 51.873079
35.200000 84.265625 51.873600
35.400000 83.031250 51.874114
35.800000 81.968750 51.874557
36.200000 81.328125 51.874824
36.425000 80.171875 51.875305
36.725000 78.875000 51.875846
36.825000 77.406250 51.876458
36.775000 76.312500 51.876914
37.050000 75.421875 51.877285
35.600000 87.843750 52.027139
35.725000 86.515625 52.027692
35.575000 85.234375 52.028226
35.300000 84.140625 52.028682
35.425000 83.359375 52.029007
35.900000 81.984375 52.029580
36.400000 80.921875 52.030023
36.825000 79.734375 52.030518
37.125000 78.781250 52.030915
36.950000 77.718750 52.031358
36.850000 76.468750 52.031878
37.125000 75.218750 52.032399
35.800000 87.859375 52.198082
35.875000 86.171875 52.198785
36.100000 85.375000 52.199117
35.800000 83.875000 52.199742
35.675000 83.125000 52.200055
36.250000 81.875000 52.200576
36.800000 78.640625 52.201923
37.050000 77.234375 52.202509
37.075000 76.078125 52.202991
37.350000 75.156250 52.203375
35.900000 89.437500 52.352420
35.825000 87.875000 52.353071
35.925000 87.171875 52.353364
35.925000 86.031250 52.353839
36.075000 84.968750 52.354282
35.875000 83.812500 52.354764
35.675000 82.265625 52.355408
36.225000 81.718750 52.355636
36.775000 78.062500 52.357159
37.050000 76.812500 52.357680
37.225000 76.062500 52.357993
35.825000 87.859375 52.512840
36.000000 86.687500 52.513328
35.950000 85.859375 52.513673
35.750000 84.515625 52.514233
35.650000 83.218750 52.514774
36.025000 81.984375 52.515288
36.500000 81.281250 52.515581
37.050000 79.859375 52.516173
37.325000 78.703125 52.516655
37.075000 77.546875 52.517137
37.125000 76.625000 52.517521
37.325000 75.687500 52.517912
35.850000 89.750000 52.677054
35.900000 88.562500 52.677549
36.100000 87.796875 52.677868
35.900000 83.968750 52.679463
35.825000 83.156250 52.679801
36.300000 81.843750 52.680348
36.975000 80.546875 52.680889
37.425000 79.859375 52.681175
37.300000 78.609375 52.681696
37.075000 77.546875 52.682139
37.200000 76.203125 52.682698
37.600000 75.203125 52.683115
36.225000 89.359375 52.825115
35.950000 87.921875 52.825714
36.175000 87.234375 52.826000
36.075000 86.062500 52.826488
35.800000 84.625000 52.827088
35.750000 83.703125 52.827472
36.000000 82.203125 52.828097
36.500000 81.546875 52.828370
37.175000 80.375000 52.828858
37.350000 78.984375 52.829438
37.100000 78.031250 52.829835
37.125000 76.687500 52.830395
37.425000 75.906250 52.830720
36.225000 88.828125 52.989279
36.200000 87.640625 52.989774
36.250000 86.656250 52.990184
36.350000 85.312500 52.990744
36.100000 84.078125 52.991258
35.800000 83.062500 52.991681
36.200000 82.218750 52.992033
36.950000 81.078125 52.992508
37.400000 80.015625 52.992951
37.275000 78.968750 52.993387
37.075000 77.328125 52.994071
37.250000 76.406250 52.994455
37.625000 75.531250 52.994819
36.725000 89.578125 53.145509
36.525000 87.984375 53.146173
36.325000 86.890625 53.146629
36.575000 86.140625 53.146942
36.500000 85.062500 53.147391
36.100000 83.890625 53.147879
37.275000 78.953125 53.149936
37.000000 78.109375 53.150288
37.100000 76.921875 53.150783
37.475000 75.640625 53.151317
36.900000 89.796875 53.316461
36.800000 88.687500 53.316924
36.425000 87.171875 53.317555
36.500000 86.046875 53.318024
36.725000 84.875000 53.318512
36.525000 83.656250 53.319020
36.425000 82.656250 53.319437
36.975000 81.609375 53.319873
37.425000 80.812500 53.320205
37.300000 79.250000 53.320856
37.050000 78.250000 53.321273
37.100000 77.296875 53.321670
37.400000 76.171875 53.322139
36.825000 89.609375 53.473927
36.750000 88.406250 53.474428
36.525000 87.500000 53.474806
36.575000 86.328125 53.475294
36.800000 85.046875 53.475828
36.750000 84.328125 53.476128
36.625000 82.968750 53.476694
37.025000 81.656250 53.477241
37.450000 80.812500 53.477592
37.350000 79.718750 53.478048
37.100000 78.421875 53.478588
37.175000 77.296875 53.479057
37.500000 75.921875 53.479630
38.100000 75.109375 53.479969
36.200000 89.406250 53.631578
36.425000 88.078125 53.632131
36.650000 87.187500 53.632502
36.650000 85.625000 53.633153
36.725000 84.437500 53.633648
36.850000 83.343750 53.634104
36.950000 82.578125 53.634423
37.325000 81.359375 53.634931
37.625000 80.234375 53.635400
37.400000 79.203125 53.635829
37.100000 77.953125 53.636350
37.300000 76.953125 53.636767
37.775000 75.859375 53.637223
37.225000 89.937500 53.784277
37.100000 88.218750 53.784993
36.725000 87.546875 53.785273
36.775000 86.046875 53.785898
36.800000 85.359375 53.786184
36.825000 83.765625 53.786849
36.875000 82.781250 53.787259
37.200000 82.031250 53.787571
37.500000 80.718750 53.788118
37.350000 79.250000 53.788730
37.100000 78.171875 53.789179
37.350000 77.343750 53.789524
36.775000 89.781250 53.949004
36.525000 88.734375 53.949441
36.725000 87.515625 53.949949
36.825000 86.921875 53.950196
36.900000 85.640625 53.950730
36.925000 84.406250 53.951244
36.950000 83.437500 53.951648
37.225000 82.062500 53.952221
37.550000 81.265625 53.952553
37.425000 80.078125 53.953048
37.150000 78.578125 53.953672
36.975000 77.234375 53.954232
37.300000 76.406250 53.954577
38.025000 75.203125 53.955079
36.825000 87.171875 54.108198
36.875000 86.343750 54.108543
36.925000 85.031250 54.109090
36.925000 83.750000 54.109623
37.075000 82.890625 54.109982
37.425000 81.671875 54.110489
37.675000 80.671875 54.110906
37.450000 79.406250 54.111433
37.225000 78.125000 54.111967
37.550000 77.140625 54.112377
37.925000 76.187500 54.112774
37.475000 89.593750 54.262835
37.275000 88.546875 54.263271
36.825000 87.437500 54.263733
36.900000 86.187500 54.264254
36.950000 85.250000 54.264645
36.975000 84.031250 54.265152
37.150000 82.921875 54.265615
37.450000 81.562500 54.266181
37.675000 80.890625 54.266461
37.500000 79.687500 54.266963
37.275000 78.296875 54.267542
37.450000 77.437500 54.267900
37.825000 75.859375 54.268558
37.000000 87.406250 54.434603
37.050000 85.968750 54.435202
37.100000 84.937500 54.435632
37.125000 83.796875 54.436107
37.400000 82.875000 54.436491
37.650000 81.421875 54.437097
37.775000 80.437500 54.437507
37.675000 79.218750 54.438015
37.450000 77.734375 54.438633
37.575000 77.031250 54.438926
38.000000 75.781250 54.439447
36.475000 88.828125 54.591107
36.850000 87.640625 54.591602
37.075000 86.859375 54.591927
37.150000 85.734375 54.592396
37.175000 84.265625 54.593008
37.200000 83.234375 54.593437
37.500000 81.984375 54.593958
37.825000 81.109375 54.594323
37.675000 80.156250 54.594720
37.425000 78.609375 54.595365
37.425000 77.656250 54.595762
37.700000 76.468750 54.596256
38.250000 75.484375 54.596667
37.675000 89.484375 54.744473
37.450000 88.375000 54.744935
37.050000 87.359375 54.745358
37.125000 86.140625 54.745866
37.175000 85.421875 54.746166
37.200000 84.031250 54.746745
37.250000 83.000000 54.747175
37.475000 81.796875 54.747676
37.775000 80.656250 54.748152
37.675000 79.406250 54.748672
37.475000 78.546875 54.749030
37.550000 77.156250 54.749610
37.900000 76.218750 54.750000
36.825000 88.953125 54.914346
36.925000 87.718750 54.914860
37.100000 86.984375 54.915166
37.250000 86.015625 54.915570
37.200000 84.500000 54.916201
37.150000 83.578125 54.916585
37.475000 82.625000 54.916983
37.825000 81.218750 54.917569
38.150000 80.281250 54.917959
37.975000 79.140625 54.918434
37.600000 78.109375 54.918864
37.700000 76.531250 54.919522
38.150000 75.843750 54.919808
37.300000 89.328125 55.073626
37.100000 87.921875 55.074212
37.100000 86.828125 55.074668
37.400000 86.015625 55.075006
37.225000 84.531250 55.075625
36.925000 83.796875 55.075931
37.275000 82.281250 55.076562
37.725000 81.109375 55.077051
38.150000 80.046875 55.077493
37.950000 79.031250 55.077916
37.575000 77.937500 55.078372
37.700000 76.953125 55.078782
38.150000 75.765625 55.079277
37.050000 87.203125 55.227005
37.325000 86.593750 55.227259
36.975000 85.078125 55.227890
36.800000 84.265625 55.228229
37.075000 82.750000 55.228860
37.400000 81.781250 55.229264
37.875000 80.468750 55.229811
37.800000 79.390625 55.230260
37.600000 78.375000 55.230683
37.650000 77.328125 55.231119
38.050000 76.078125 55.231640
37.100000 88.937500 55.389230
37.075000 87.750000 55.389725
37.250000 86.593750 55.390207
36.800000 85.390625 55.390708
36.475000 84.421875 55.391112
37.000000 83.265625 55.391593
37.650000 82.250000 55.392017
38.150000 80.796875 55.392622
38.075000 79.984375 55.392961
37.750000 78.359375 55.393638
37.725000 77.562500 55.393970
37.075000 87.109375 55.552918
37.050000 86.125000 55.553328
36.700000 85.156250 55.553732
37.875000 79.390625 55.556134
37.700000 78.000000 55.556714
37.775000 77.156250 55.557065
38.075000 75.875000 55.557599
37.050000 87.421875 55.708850
36.775000 86.296875 55.709319
36.325000 84.906250 55.709898
36.700000 83.859375 55.710335
37.750000 80.953125 55.711545
38.000000 79.515625 55.712144
37.725000 78.562500 55.712542
37.775000 77.187500 55.713115
38.050000 75.875000 55.713661
37.075000 87.468750 55.864817
37.450000 86.812500 55.865090
36.450000 84.046875 55.866243
37.000000 83.093750 55.866640
37.600000 81.984375 55.867102
37.850000 79.875000 55.867981
37.775000 78.359375 55.868613
37.725000 77.296875 55.869055
38.025000 76.343750 55.869452
37.075000 87.015625 56.020674
36.700000 85.421875 56.021338
36.325000 84.343750 56.021788
36.475000 83.203125 56.022263
36.900000 82.375000 56.022608
37.700000 80.031250 56.023585
38.025000 79.062500 56.023988
37.850000 77.953125 56.024451
36.825000 87.187500 56.193264
36.500000 85.718750 56.193876
36.250000 84.515625 56.194377
