25.375000 10.281250 6.377983
27.325000 17.375000 6.377983
27.400000 18.953125 6.377983
27.475000 18.906250 6.377983
27.700000 20.453125 6.377983
25.300000 3.859375 6.540279
25.550000 4.828125 6.540279
25.475000 6.531250 6.540279
25.250000 10.437500 6.540279
27.375000 15.984375 6.540279
27.400000 17.390625 6.540279
27.525000 18.609375 6.540279
25.475000 4.000000 6.688635
25.625000 4.609375 6.688635
25.775000 5.609375 6.688635
25.975000 7.031250 6.688635
25.250000 10.593750 6.688635
27.000000 15.796875 6.688635
27.325000 16.781250 6.688635
27.400000 18.000000 6.688635
27.475000 19.781250 6.688635
27.775000 20.265625 6.688635
25.550000 4.546875 6.849949
25.750000 5.875000 6.849949
27.075000 14.968750 6.849949
27.325000 16.125000 6.849949
27.350000 17.531250 6.849949
27.500000 18.953125 6.849949
25.675000 4.843750 7.000144
25.800000 5.484375 7.000144
25.750000 6.187500 7.000144
25.500000 8.531250 7.000144
25.475000 8.843750 7.000144
27.100000 15.656250 7.000144
27.375000 17.593750 7.000144
27.375000 18.406250 7.000144
27.475000 19.765625 7.000144
27.750000 19.734375 7.000144
25.800000 4.093750 7.165083
25.850000 6.312500 7.165083
25.900000 7.187500 7.165083
25.625000 9.140625 7.165083
25.550000 10.250000 7.165083
27.100000 15.437500 7.165083
27.375000 16.515625 7.165083
27.375000 17.859375 7.165083
27.500000 18.843750 7.165083
27.825000 20.890625 7.165083
25.800000 3.578125 7.325885
25.850000 4.703125 7.325885
25.625000 7.546875 7.325885
25.600000 8.781250 7.325885
27.050000 13.062500 7.325885
27.275000 14.468750 7.325885
27.400000 16.484375 7.325885
27.350000 16.937500 7.325885
27.375000 18.250000 7.325885
27.500000 19.312500 7.325885
27.825000 20.734375 7.325885
25.900000 4.796875 7.477918
25.875000 5.125000 7.477918
26.075000 6.765625 7.477918
25.925000 8.140625 7.477918
25.650000 9.578125 7.477918
27.175000 16.421875 7.477918
27.350000 17.281250 7.477918
27.350000 18.437500 7.477918
27.475000 19.453125 7.477918
27.750000 20.828125 7.477918
25.925000 4.890625 7.638511
25.950000 5.140625 7.638511
26.000000 6.781250 7.638511
25.850000 8.390625 7.638511
25.700000 8.468750 7.638511
25.525000 10.281250 7.638511
27.000000 12.093750 7.638511
27.150000 16.250000 7.638511
27.375000 16.625000 7.638511
27.475000 18.046875 7.638511
27.625000 19.515625 7.638511
27.800000 20.250000 7.638511
25.975000 4.421875 7.792350
26.025000 5.265625 7.792350
25.975000 6.062500 7.792350
25.900000 8.312500 7.792350
25.800000 9.234375 7.792350
27.175000 15.609375 7.792350
27.400000 16.125000 7.792350
27.450000 17.828125 7.792350
27.600000 18.812500 7.792350
26.000000 4.734375 7.950626
26.100000 5.125000 7.950626
26.150000 6.734375 7.950626
25.975000 7.234375 7.950626
25.800000 8.234375 7.950626
27.175000 15.703125 7.950626
27.400000 15.984375 7.950626
27.450000 17.531250 7.950626
27.600000 18.937500 7.950626
26.175000 2.687500 8.107223
26.250000 3.656250 8.107223
26.300000 5.328125 8.107223
26.175000 6.359375 8.107223
26.300000 7.140625 8.107223
26.175000 9.390625 8.107223
27.200000 15.546875 8.107223
27.500000 16.015625 8.107223
27.500000 17.515625 8.107223
27.600000 18.140625 8.107223
26.375000 4.109375 8.260563
26.400000 4.562500 8.260563
26.125000 8.093750 8.260563
25.975000 9.359375 8.260563
27.450000 15.921875 8.260563
27.550000 16.609375 8.260563
27.625000 18.390625 8.260563
27.750000 19.171875 8.260563
28.050000 20.734375 8.260563
26.400000 0.703125 8.416967
26.400000 2.531250 8.416967
26.325000 4.156250 8.416967
26.425000 5.031250 8.416967
26.350000 6.625000 8.416967
26.175000 7.453125 8.416967
26.025000 9.156250 8.416967
27.200000 12.656250 8.416967
27.400000 14.484375 8.416967
27.500000 16.015625 8.416967
27.475000 16.093750 8.416967
27.575000 18.218750 8.416967
27.725000 18.968750 8.416967
26.450000 5.078125 8.572311
26.450000 5.765625 8.572311
26.500000 6.390625 8.572311
26.300000 7.343750 8.572311
26.050000 8.421875 8.572311
27.525000 13.625000 8.572311
27.625000 14.812500 8.572311
27.550000 15.156250 8.572311
27.550000 17.312500 8.572311
27.625000 17.687500 8.572311
27.825000 18.656250 8.572311
28.050000 20.625000 8.572311
26.500000 3.015625 8.742627
26.500000 4.734375 8.742627
26.500000 5.171875 8.742627
26.475000 7.015625 8.742627
26.225000 8.437500 8.742627
26.075000 9.968750 8.742627
26.300000 10.843750 8.742627
26.700000 11.234375 8.742627
27.250000 14.593750 8.742627
27.550000 16.062500 8.742627
27.575000 16.593750 8.742627
27.650000 18.046875 8.742627
27.850000 19.156250 8.742627
28.175000 20.109375 8.742627
26.600000 3.281250 8.898910
26.500000 4.109375 8.898910
26.525000 4.500000 8.898910
26.525000 6.218750 8.898910
26.600000 7.203125 8.898910
26.375000 8.343750 8.898910
26.200000 9.765625 8.898910
26.475000 11.078125 8.898910
26.850000 11.140625 8.898910
27.275000 12.718750 8.898910
27.625000 13.328125 8.898910
27.600000 14.562500 8.898910
27.500000 16.328125 8.898910
27.575000 16.890625 8.898910
27.725000 18.796875 8.898910
26.475000 3.765625 9.052417
26.475000 4.875000 9.052417
26.500000 6.093750 9.052417
26.400000 8.187500 9.052417
26.175000 8.906250 9.052417
27.525000 16.187500 9.052417
27.550000 17.140625 9.052417
27.625000 17.734375 9.052417
27.825000 19.093750 9.052417
28.125000 20.093750 9.052417
27.100000 1.140625 9.209774
26.800000 3.875000 9.209774
26.525000 4.140625 9.209774
26.525000 5.984375 9.209774
26.525000 6.265625 9.209774
26.700000 7.390625 9.209774
26.575000 9.187500 9.209774
27.475000 13.359375 9.209774
27.650000 14.203125 9.209774
27.575000 15.062500 9.209774
27.575000 16.531250 9.209774
27.675000 17.468750 9.209774
27.875000 18.968750 9.209774
28.100000 19.671875 9.209774
27.075000 0.890625 9.363099
26.750000 3.484375 9.363099
26.500000 4.031250 9.363099
26.550000 5.187500 9.363099
26.550000 6.015625 9.363099
26.700000 7.171875 9.363099
26.575000 8.312500 9.363099
26.400000 9.078125 9.363099
26.675000 10.796875 9.363099
27.100000 12.453125 9.363099
27.325000 13.000000 9.363099
27.475000 13.671875 9.363099
27.575000 14.890625 9.363099
27.550000 16.500000 9.363099
27.650000 17.875000 9.363099
27.850000 19.093750 9.363099
27.025000 1.671875 9.518986
27.000000 2.906250 9.518986
26.700000 4.187500 9.518986
26.575000 4.921875 9.518986
26.550000 6.468750 9.518986
26.550000 6.921875 9.518986
26.575000 8.187500 9.518986
26.525000 9.875000 9.518986
27.500000 16.625000 9.518986
27.550000 17.062500 9.518986
27.700000 18.390625 9.518986
27.875000 19.515625 9.518986
28.225000 20.703125 9.518986
27.150000 0.718750 9.673054
27.300000 2.312500 9.673054
26.925000 3.062500 9.673054
26.600000 4.140625 9.673054
26.550000 5.218750 9.673054
26.525000 6.765625 9.673054
26.575000 7.218750 9.673054
26.600000 8.765625 9.673054
27.000000 12.312500 9.673054
27.650000 12.984375 9.673054
27.725000 14.453125 9.673054
27.525000 15.218750 9.673054
27.550000 16.453125 9.673054
27.625000 18.296875 9.673054
27.850000 18.812500 9.673054
28.125000 20.671875 9.673054
27.225000 1.078125 9.844114
26.900000 2.375000 9.844114
26.525000 3.500000 9.844114
26.550000 5.296875 9.844114
26.550000 6.359375 9.844114
26.550000 8.265625 9.844114
26.575000 8.500000 9.844114
26.600000 10.531250 9.844114
26.775000 10.859375 9.844114
27.175000 11.500000 9.844114
27.450000 13.125000 9.844114
27.525000 14.421875 9.844114
27.575000 14.796875 9.844114
27.575000 16.015625 9.844114
27.650000 17.687500 9.844114
27.875000 18.828125 9.844114
28.075000 20.156250 9.844114
27.300000 0.078125 10.000950
27.325000 2.156250 10.000950
26.950000 2.937500 10.000950
26.600000 4.218750 10.000950
26.550000 4.828125 10.000950
26.525000 6.578125 10.000950
26.575000 7.156250 10.000950
26.825000 11.109375 10.000950
27.250000 11.734375 10.000950
27.650000 13.546875 10.000950
27.725000 14.296875 10.000950
27.550000 16.093750 10.000950
27.550000 17.203125 10.000950
27.650000 17.890625 10.000950
27.825000 18.718750 10.000950
28.100000 20.562500 10.000950
26.850000 3.281250 10.157612
26.525000 4.968750 10.157612
26.525000 5.281250 10.157612
26.625000 7.125000 10.157612
26.375000 8.265625 10.157612
27.300000 14.343750 10.157612
27.525000 15.484375 10.157612
27.550000 17.093750 10.157612
27.650000 18.671875 10.157612
27.825000 19.140625 10.157612
28.175000 19.875000 10.157612
27.225000 1.750000 10.310716
27.025000 2.781250 10.310716
26.650000 3.531250 10.310716
26.550000 5.468750 10.310716
26.550000 6.453125 10.310716
26.250000 7.609375 10.310716
25.975000 8.656250 10.310716
26.225000 9.281250 10.310716
27.525000 14.265625 10.310716
27.575000 15.453125 10.310716
27.550000 15.984375 10.310716
27.625000 17.734375 10.310716
27.800000 19.000000 10.310716
28.000000 19.593750 10.310716
26.700000 4.234375 10.469376
26.550000 4.390625 10.469376
26.425000 5.250000 10.469376
26.250000 7.703125 10.469376
26.000000 8.625000 10.469376
27.525000 15.734375 10.469376
27.525000 16.890625 10.469376
27.675000 18.468750 10.469376
27.850000 19.250000 10.469376
28.200000 20.421875 10.469376
26.525000 4.359375 10.622720
26.325000 5.312500 10.622720
26.325000 7.171875 10.622720
26.075000 7.984375 10.622720
27.550000 14.062500 10.622720
27.550000 15.234375 10.622720
27.550000 16.250000 10.622720
27.650000 17.718750 10.622720
27.800000 18.406250 10.622720
27.975000 19.687500 10.622720
26.575000 3.937500 10.782055
26.275000 4.859375 10.782055
26.200000 6.187500 10.782055
26.325000 6.156250 10.782055
27.750000 14.328125 10.782055
27.550000 16.343750 10.782055
27.550000 17.375000 10.782055
27.550000 18.546875 10.782055
27.725000 19.234375 10.782055
28.150000 19.812500 10.782055
26.225000 4.437500 10.932273
26.150000 5.375000 10.932273
26.175000 6.593750 10.932273
25.900000 7.171875 10.932273
25.550000 8.921875 10.932273
27.200000 12.625000 10.932273
27.575000 13.718750 10.932273
27.625000 15.515625 10.932273
27.550000 17.078125 10.932273
27.625000 17.859375 10.932273
27.775000 19.125000 10.932273
27.975000 20.421875 10.932273
26.225000 2.593750 11.086727
26.325000 3.718750 11.086727
26.025000 5.390625 11.086727
25.925000 5.953125 11.086727
25.725000 8.218750 11.086727
25.500000 8.187500 11.086727
27.650000 15.562500 11.086727
27.475000 16.734375 11.086727
27.575000 17.984375 11.086727
27.725000 18.406250 11.086727
25.775000 3.062500 11.244196
25.925000 4.359375 11.244196
25.900000 6.015625 11.244196
26.100000 7.656250 11.244196
27.525000 16.343750 11.244196
27.525000 16.656250 11.244196
27.650000 18.671875 11.244196
25.800000 4.703125 11.401700
25.850000 5.171875 11.401700
25.875000 6.890625 11.401700
25.625000 7.750000 11.401700
25.300000 8.500000 11.401700
27.075000 13.937500 11.401700
27.450000 14.687500 11.401700
27.575000 16.109375 11.401700
27.550000 16.515625 11.401700
27.650000 17.734375 11.401700
27.800000 18.609375 11.401700
28.025000 19.890625 11.401700
25.775000 3.453125 11.559571
25.800000 5.984375 11.559571
27.525000 16.359375 11.559571
27.600000 17.890625 11.559571
27.775000 18.375000 11.559571
25.725000 4.890625 11.720243
25.750000 6.500000 11.720243
25.775000 7.343750 11.720243
25.425000 8.796875 11.720243
25.150000 10.140625 11.720243
27.550000 15.953125 11.720243
27.550000 17.000000 11.720243
27.625000 18.234375 11.720243
27.800000 19.031250 11.720243
28.050000 20.656250 11.720243
25.700000 3.031250 11.870842
25.700000 5.562500 11.870842
25.700000 6.250000 11.870842
25.750000 7.171875 11.870842
25.500000 8.578125 11.870842
25.200000 10.718750 11.870842
25.350000 10.078125 11.870842
27.500000 16.359375 11.870842
27.550000 17.671875 11.870842
27.675000 18.906250 11.870842
27.775000 19.578125 11.870842
28.125000 20.265625 11.870842
25.475000 4.218750 12.038897
25.450000 5.328125 12.038897
25.450000 5.578125 12.038897
25.550000 6.828125 12.038897
25.350000 8.281250 12.038897
25.175000 9.656250 12.038897
25.225000 10.937500 12.038897
25.400000 11.796875 12.038897
27.525000 16.328125 12.038897
27.575000 16.828125 12.038897
27.700000 19.093750 12.038897
25.350000 2.750000 12.196090
25.275000 4.078125 12.196090
25.325000 4.375000 12.196090
25.350000 6.609375 12.196090
25.400000 7.921875 12.196090
25.300000 10.046875 12.196090
25.100000 9.781250 12.196090
25.125000 12.265625 12.196090
25.350000 11.562500 12.196090
27.525000 17.265625 12.196090
27.650000 17.812500 12.196090
27.750000 19.375000 12.196090
27.950000 21.078125 12.196090
25.575000 1.421875 12.351801
25.375000 2.921875 12.351801
25.150000 5.281250 12.351801
25.300000 4.875000 12.351801
25.325000 7.421875 12.351801
25.175000 10.296875 12.351801
25.125000 11.437500 12.351801
25.375000 11.593750 12.351801
27.525000 17.875000 12.351801
27.600000 18.250000 12.351801
27.650000 19.828125 12.351801
27.850000 21.203125 12.351801
25.175000 2.953125 12.505766
25.100000 3.453125 12.505766
25.300000 5.062500 12.505766
25.300000 6.062500 12.505766
25.250000 10.843750 12.505766
25.200000 10.593750 12.505766
25.300000 12.312500 12.505766
27.325000 17.843750 12.505766
27.350000 18.609375 12.505766
27.550000 19.359375 12.505766
27.800000 20.390625 12.505766
25.100000 3.890625 12.664192
25.250000 5.875000 12.664192
25.275000 6.234375 12.664192
25.300000 7.140625 12.664192
25.425000 9.187500 12.664192
25.400000 10.500000 12.664192
25.275000 10.828125 12.664192
25.425000 13.156250 12.664192
27.225000 17.734375 12.664192
27.300000 19.218750 12.664192
27.400000 19.906250 12.664192
27.750000 20.625000 12.664192
25.225000 4.265625 12.818577
25.225000 6.062500 12.818577
25.250000 8.390625 12.818577
25.275000 7.703125 12.818577
25.450000 8.843750 12.818577
25.450000 11.390625 12.818577
25.375000 11.703125 12.818577
27.200000 17.156250 12.818577
27.100000 18.421875 12.818577
27.125000 19.671875 12.818577
25.050000 3.468750 12.980683
25.225000 5.500000 12.980683
25.250000 6.546875 12.980683
25.275000 8.109375 12.980683
25.375000 8.984375 12.980683
25.475000 11.078125 12.980683
25.550000 11.140625 12.980683
25.700000 11.453125 12.980683
27.125000 17.734375 12.980683
26.925000 18.265625 12.980683
27.100000 20.031250 12.980683
27.500000 20.765625 12.980683
25.150000 2.437500 13.129430
25.000000 3.453125 13.129430
24.975000 5.546875 13.129430
25.175000 5.343750 13.129430
25.225000 8.171875 13.129430
25.275000 8.562500 13.129430
25.325000 9.390625 13.129430
25.450000 11.187500 13.129430
25.675000 10.781250 13.129430
25.825000 11.765625 13.129430
27.000000 16.984375 13.129430
26.750000 17.515625 13.129430
26.750000 19.437500 13.129430
25.200000 1.296875 13.290191
25.250000 1.906250 13.290191
25.150000 2.968750 13.290191
25.125000 3.937500 13.290191
25.200000 6.125000 13.290191
25.250000 6.468750 13.290191
25.275000 7.765625 13.290191
25.350000 9.062500 13.290191
25.500000 10.406250 13.290191
25.675000 11.953125 13.290191
25.850000 13.546875 13.290191
26.900000 17.484375 13.290191
26.575000 18.656250 13.290191
26.650000 18.937500 13.290191
25.300000 3.109375 13.442573
25.175000 4.046875 13.442573
25.150000 3.562500 13.442573
25.200000 5.625000 13.442573
25.225000 5.640625 13.442573
25.250000 7.062500 13.442573
25.300000 8.750000 13.442573
25.450000 9.406250 13.442573
25.625000 10.937500 13.442573
25.700000 11.953125 13.442573
25.950000 12.156250 13.442573
26.425000 16.859375 13.442573
26.600000 17.671875 13.442573
26.475000 19.390625 13.442573
26.575000 20.015625 13.442573
26.850000 20.218750 13.442573
25.275000 2.515625 13.605935
25.150000 2.062500 13.605935
25.150000 3.843750 13.605935
25.200000 4.500000 13.605935
25.225000 6.640625 13.605935
25.275000 7.171875 13.605935
25.300000 7.781250 13.605935
25.475000 9.937500 13.605935
25.625000 10.031250 13.605935
25.700000 11.250000 13.605935
25.950000 12.421875 13.605935
26.425000 15.671875 13.605935
26.575000 17.125000 13.605935
26.450000 18.015625 13.605935
26.550000 19.640625 13.605935
26.775000 20.203125 13.605935
25.450000 2.265625 13.766609
25.200000 2.281250 13.766609
25.150000 3.437500 13.766609
25.200000 4.265625 13.766609
25.225000 7.000000 13.766609
25.250000 7.187500 13.766609
25.400000 7.890625 13.766609
25.575000 9.359375 13.766609
25.625000 9.906250 13.766609
25.675000 11.984375 13.766609
25.925000 12.671875 13.766609
26.250000 16.062500 13.766609
26.350000 16.765625 13.766609
26.350000 18.125000 13.766609
26.425000 19.828125 13.766609
25.175000 4.140625 13.919198
25.125000 3.234375 13.919198
25.200000 5.859375 13.919198
25.225000 5.718750 13.919198
25.275000 7.890625 13.919198
25.425000 7.859375 13.919198
25.575000 9.078125 13.919198
25.700000 9.937500 13.919198
25.775000 12.687500 13.919198
25.950000 12.296875 13.919198
25.900000 14.375000 13.919198
26.000000 17.515625 13.919198
25.875000 18.640625 13.919198
25.150000 3.421875 14.075706
25.225000 4.796875 14.075706
25.225000 6.546875 14.075706
25.275000 7.265625 14.075706
25.425000 7.640625 14.075706
25.575000 8.937500 14.075706
25.675000 10.234375 14.075706
25.775000 12.234375 14.075706
25.975000 13.656250 14.075706
26.000000 14.546875 14.075706
26.050000 15.062500 14.075706
25.975000 17.531250 14.075706
25.625000 18.031250 14.075706
25.525000 18.640625 14.075706
25.225000 5.515625 14.233404
25.250000 6.859375 14.233404
25.300000 7.703125 14.233404
25.450000 9.312500 14.233404
25.650000 10.000000 14.233404
25.775000 10.437500 14.233404
25.900000 11.640625 14.233404
26.150000 12.859375 14.233404
26.250000 14.937500 14.233404
25.875000 16.328125 14.233404
25.450000 19.093750 14.233404
25.400000 19.265625 14.233404
25.325000 2.531250 14.390509
25.075000 3.531250 14.390509
25.225000 5.671875 14.390509
25.250000 7.531250 14.390509
25.325000 7.328125 14.390509
25.475000 8.078125 14.390509
25.600000 10.015625 14.390509
25.700000 11.453125 14.390509
25.875000 11.718750 14.390509
26.175000 12.750000 14.390509
26.300000 14.453125 14.390509
26.100000 16.421875 14.390509
25.700000 16.421875 14.390509
25.450000 18.062500 14.390509
25.400000 20.078125 14.390509
25.800000 0.437500 14.542435
25.950000 1.671875 14.542435
25.125000 4.125000 14.542435
25.225000 6.671875 14.542435
25.225000 6.765625 14.542435
25.275000 7.578125 14.542435
25.450000 9.796875 14.542435
25.600000 10.453125 14.542435
25.675000 11.203125 14.542435
25.950000 12.953125 14.542435
26.250000 14.046875 14.542435
26.425000 14.437500 14.542435
26.300000 15.406250 14.542435
25.850000 17.046875 14.542435
25.550000 18.312500 14.542435
25.525000 19.390625 14.542435
25.225000 6.515625 14.702284
25.250000 6.765625 14.702284
25.300000 8.296875 14.702284
25.425000 8.906250 14.702284
25.625000 10.828125 14.702284
25.725000 10.265625 14.702284
25.850000 12.078125 14.702284
26.125000 12.953125 14.702284
26.250000 17.156250 14.702284
26.000000 17.750000 14.702284
25.775000 18.640625 14.702284
25.250000 2.687500 14.857785
25.075000 4.453125 14.857785
25.225000 5.515625 14.857785
25.250000 6.812500 14.857785
25.300000 7.687500 14.857785
25.450000 8.343750 14.857785
25.600000 9.640625 14.857785
25.700000 11.406250 14.857785
25.875000 12.609375 14.857785
26.150000 12.703125 14.857785
26.275000 16.218750 14.857785
26.200000 17.375000 14.857785
26.200000 18.703125 14.857785
25.100000 2.906250 15.014859
25.050000 4.125000 15.014859
25.225000 5.125000 15.014859
25.250000 7.765625 15.014859
25.300000 8.671875 15.014859
25.450000 9.843750 15.014859
25.575000 10.906250 15.014859
25.675000 11.109375 15.014859
25.875000 13.015625 15.014859
26.150000 13.203125 15.014859
26.275000 17.078125 15.014859
26.225000 18.359375 15.014859
26.225000 18.921875 15.014859
25.225000 2.906250 15.168000
25.025000 3.968750 15.168000
25.200000 6.000000 15.168000
25.250000 6.484375 15.168000
25.325000 7.062500 15.168000
25.400000 8.828125 15.168000
25.525000 9.437500 15.168000
25.725000 10.515625 15.168000
25.900000 12.468750 15.168000
26.150000 13.609375 15.168000
26.350000 16.234375 15.168000
26.350000 17.828125 15.168000
26.325000 19.640625 15.168000
26.450000 19.546875 15.168000
26.775000 21.000000 15.168000
24.975000 3.656250 15.328266
25.200000 4.828125 15.328266
25.250000 5.796875 15.328266
25.300000 8.593750 15.328266
25.375000 9.250000 15.328266
25.500000 10.234375 15.328266
25.700000 10.390625 15.328266
25.875000 13.078125 15.328266
26.125000 12.843750 15.328266
26.350000 16.015625 15.328266
26.375000 18.421875 15.328266
26.400000 18.593750 15.328266
26.550000 20.484375 15.328266
26.875000 21.296875 15.328266
24.925000 2.875000 15.484722
24.950000 4.796875 15.484722
25.200000 4.921875 15.484722
25.225000 7.015625 15.484722
25.300000 7.062500 15.484722
25.375000 9.203125 15.484722
25.500000 9.328125 15.484722
25.675000 10.421875 15.484722
25.850000 12.656250 15.484722
26.100000 13.734375 15.484722
26.425000 16.312500 15.484722
26.525000 17.406250 15.484722
26.475000 18.593750 15.484722
25.075000 4.640625 15.639691
24.925000 3.984375 15.639691
25.175000 4.890625 15.639691
25.225000 6.234375 15.639691
25.275000 7.703125 15.639691
25.350000 9.750000 15.639691
25.500000 10.453125 15.639691
25.675000 10.906250 15.639691
25.800000 13.250000 15.639691
26.050000 13.187500 15.639691
25.950000 14.734375 15.639691
26.550000 17.531250 15.639691
26.550000 19.375000 15.639691
25.425000 0.656250 15.795892
25.250000 2.484375 15.795892
25.000000 4.078125 15.795892
25.075000 6.250000 15.795892
25.200000 6.296875 15.795892
25.250000 7.953125 15.795892
25.300000 8.296875 15.795892
25.450000 9.937500 15.795892
25.650000 9.968750 15.795892
25.725000 11.265625 15.795892
25.800000 13.453125 15.795892
26.150000 13.468750 15.795892
26.575000 15.515625 15.795892
26.925000 16.531250 15.795892
26.875000 17.406250 15.795892
26.675000 17.984375 15.795892
26.750000 19.671875 15.795892
27.025000 20.765625 15.795892
25.325000 0.406250 15.966491
25.450000 1.937500 15.966491
25.125000 4.953125 15.966491
24.900000 4.921875 15.966491
25.125000 5.468750 15.966491
25.225000 6.921875 15.966491
25.275000 7.468750 15.966491
25.425000 9.250000 15.966491
25.550000 9.843750 15.966491
25.675000 11.750000 15.966491
25.775000 12.515625 15.966491
25.975000 14.234375 15.966491
26.025000 15.703125 15.966491
26.800000 18.828125 15.966491
26.825000 19.234375 15.966491
25.500000 0.453125 16.120673
25.450000 1.937500 16.120673
25.100000 3.718750 16.120673
24.875000 4.562500 16.120673
25.125000 5.328125 16.120673
25.225000 7.078125 16.120673
25.275000 6.890625 16.120673
25.425000 8.703125 16.120673
25.550000 10.671875 16.120673
25.575000 10.734375 16.120673
25.625000 12.218750 16.120673
25.775000 13.625000 16.120673
25.550000 14.609375 16.120673
27.500000 16.187500 16.120673
27.025000 17.640625 16.120673
26.925000 18.234375 16.120673
25.375000 0.859375 16.279835
25.400000 1.953125 16.279835
25.300000 3.312500 16.279835
25.200000 4.218750 16.279835
25.200000 6.171875 16.279835
25.250000 8.031250 16.279835
25.275000 7.703125 16.279835
25.450000 9.125000 16.279835
25.450000 10.671875 16.279835
25.325000 11.812500 16.279835
27.000000 16.515625 16.279835
27.025000 17.921875 16.279835
27.100000 19.156250 16.279835
25.325000 1.062500 16.433997
25.500000 1.093750 16.433997
25.200000 3.843750 16.433997
25.025000 4.265625 16.433997
25.200000 5.453125 16.433997
25.225000 6.421875 16.433997
25.250000 10.281250 16.433997
25.250000 12.437500 16.433997
25.400000 11.812500 16.433997
25.675000 14.000000 16.433997
25.550000 15.187500 16.433997
27.350000 16.093750 16.433997
27.050000 18.046875 16.433997
27.075000 18.328125 16.433997
25.475000 1.812500 16.592402
25.525000 2.265625 16.592402
25.325000 2.984375 16.592402
25.200000 4.687500 16.592402
25.200000 5.390625 16.592402
25.350000 7.375000 16.592402
25.525000 8.984375 16.592402
25.400000 10.000000 16.592402
25.250000 10.796875 16.592402
25.300000 12.375000 16.592402
27.075000 17.390625 16.592402
27.025000 18.093750 16.592402
27.175000 20.046875 16.592402
27.425000 20.765625 16.592402
25.200000 4.812500 16.744995
25.250000 4.312500 16.744995
25.325000 5.390625 16.744995
25.250000 10.562500 16.744995
25.200000 10.203125 16.744995
25.350000 11.593750 16.744995
27.200000 17.140625 16.744995
27.275000 18.234375 16.744995
27.375000 19.562500 16.744995
27.600000 20.750000 16.744995
25.250000 2.968750 16.900504
25.250000 4.750000 16.900504
25.325000 7.250000 16.900504
25.250000 10.687500 16.900504
25.200000 11.765625 16.900504
25.350000 11.921875 16.900504
25.675000 12.609375 16.900504
27.300000 16.953125 16.900504
27.425000 18.906250 16.900504
27.425000 19.328125 16.900504
27.600000 21.171875 16.900504
25.225000 3.234375 17.055122
25.275000 4.578125 17.055122
25.500000 5.421875 17.055122
25.650000 6.656250 17.055122
25.425000 9.046875 17.055122
25.250000 9.515625 17.055122
25.300000 10.750000 17.055122
25.750000 14.640625 17.055122
27.575000 15.625000 17.055122
27.325000 17.343750 17.055122
27.450000 18.437500 17.055122
27.475000 19.484375 17.055122
27.725000 20.093750 17.055122
25.325000 2.421875 17.213506
25.300000 5.203125 17.213506
25.425000 5.765625 17.213506
25.400000 8.140625 17.213506
25.250000 9.968750 17.213506
25.400000 11.140625 17.213506
27.325000 17.812500 17.213506
27.550000 18.125000 17.213506
25.325000 0.109375 17.369894
25.400000 2.734375 17.369894
25.350000 4.046875 17.369894
25.575000 5.593750 17.369894
25.475000 6.609375 17.369894
25.425000 11.203125 17.369894
27.350000 16.140625 17.369894
27.400000 18.359375 17.369894
27.500000 19.187500 17.369894
25.375000 4.078125 17.525581
25.575000 5.656250 17.525581
25.950000 11.781250 17.525581
26.425000 12.593750 17.525581
27.025000 15.921875 17.525581
27.375000 16.609375 17.525581
27.425000 17.250000 17.525581
27.525000 18.390625 17.525581
25.675000 4.328125 17.680439
25.775000 5.343750 17.680439
25.825000 7.687500 17.680439
25.575000 8.140625 17.680439
25.450000 9.609375 17.680439
27.125000 15.812500 17.680439
27.375000 17.187500 17.680439
27.400000 18.359375 17.680439
27.475000 19.640625 17.680439
27.750000 20.375000 17.680439
25.400000 2.250000 17.838902
25.725000 4.921875 17.838902
25.775000 5.187500 17.838902
25.650000 8.093750 17.838902
25.675000 8.984375 17.838902
27.350000 15.828125 17.838902
27.350000 16.843750 17.838902
27.525000 19.140625 17.838902
25.750000 4.015625 17.993877
25.850000 5.031250 17.993877
25.725000 8.453125 17.993877
25.825000 10.531250 17.993877
26.275000 11.500000 17.993877
26.650000 11.500000 17.993877
27.075000 15.515625 17.993877
27.325000 16.171875 17.993877
27.375000 18.062500 17.993877
27.525000 19.031250 17.993877
25.550000 3.312500 18.150689
25.875000 3.718750 18.150689
25.850000 4.890625 18.150689
25.700000 7.968750 18.150689
25.800000 10.375000 18.150689
26.200000 10.671875 18.150689
26.600000 11.718750 18.150689
27.100000 14.796875 18.150689
27.350000 16.734375 18.150689
27.325000 17.156250 18.150689
27.450000 18.171875 18.150689
25.900000 3.312500 18.319804
25.925000 4.656250 18.319804
25.750000 7.687500 18.319804
25.700000 9.078125 18.319804
27.325000 13.718750 18.319804
27.475000 14.640625 18.319804
27.400000 15.750000 18.319804
27.350000 16.750000 18.319804
27.400000 18.953125 18.319804
27.600000 19.406250 18.319804
27.950000 20.234375 18.319804
25.925000 4.328125 18.478056
25.975000 5.093750 18.478056
25.975000 7.421875 18.478056
25.850000 7.187500 18.478056
25.775000 8.515625 18.478056
27.150000 15.687500 18.478056
27.375000 17.109375 18.478056
27.425000 18.000000 18.478056
27.575000 18.421875 18.478056
27.825000 19.578125 18.478056
26.075000 4.109375 18.631970
26.050000 4.421875 18.631970
25.900000 8.625000 18.631970
25.775000 8.859375 18.631970
27.500000 13.875000 18.631970
27.575000 14.531250 18.631970
27.400000 15.937500 18.631970
27.425000 17.156250 18.631970
27.450000 18.687500 18.631970
27.600000 19.671875 18.631970
27.950000 20.812500 18.631970
26.250000 3.453125 18.789332
26.275000 5.171875 18.789332
25.975000 8.937500 18.789332
25.800000 9.890625 18.789332
27.575000 13.593750 18.789332
27.650000 14.812500 18.789332
27.425000 16.328125 18.789332
27.425000 17.468750 18.789332
27.450000 18.531250 18.789332
27.600000 18.765625 18.789332
27.950000 20.578125 18.789332
26.325000 3.062500 18.942940
26.350000 3.937500 18.942940
26.375000 5.750000 18.942940
26.550000 7.218750 18.942940
25.925000 8.750000 18.942940
27.425000 15.546875 18.942940
27.550000 16.468750 18.942940
27.600000 18.468750 18.942940
27.625000 19.875000 18.942940
27.950000 20.671875 18.942940
26.400000 3.812500 19.102895
26.400000 5.515625 19.102895
26.425000 7.171875 19.102895
26.225000 7.812500 19.102895
25.975000 9.312500 19.102895
27.375000 13.078125 19.102895
27.475000 14.390625 19.102895
27.450000 15.109375 19.102895
27.475000 16.343750 19.102895
27.600000 17.875000 19.102895
27.750000 19.265625 19.102895
27.900000 20.187500 19.102895
26.425000 1.828125 19.256990
26.450000 2.953125 19.256990
26.475000 4.562500 19.256990
26.450000 6.156250 19.256990
26.575000 7.093750 19.256990
26.325000 9.250000 19.256990
26.000000 9.281250 19.256990
27.500000 15.750000 19.256990
27.550000 16.921875 19.256990
27.650000 18.734375 19.256990
27.825000 18.937500 19.256990
28.150000 21.015625 19.256990
26.400000 5.031250 19.417210
26.450000 5.250000 19.417210
26.525000 6.171875 19.417210
26.325000 8.046875 19.417210
26.025000 9.937500 19.417210
27.550000 12.937500 19.417210
27.625000 14.093750 19.417210
27.525000 15.109375 19.417210
27.550000 16.562500 19.417210
27.625000 18.484375 19.417210
27.775000 18.593750 19.417210
28.000000 19.593750 19.417210
26.800000 0.968750 19.568699
26.675000 2.453125 19.568699
26.450000 3.812500 19.568699
26.525000 4.859375 19.568699
26.550000 6.578125 19.568699
26.400000 7.984375 19.568699
26.150000 9.281250 19.568699
27.475000 13.921875 19.568699
27.525000 15.453125 19.568699
27.525000 17.000000 19.568699
27.575000 17.687500 19.568699
27.775000 18.640625 19.568699
28.025000 20.187500 19.568699
26.475000 4.359375 19.731630
26.450000 5.375000 19.731630
26.525000 5.953125 19.731630
26.375000 7.968750 19.731630
26.175000 9.765625 19.731630
27.550000 15.187500 19.731630
27.550000 17.109375 19.731630
27.625000 17.828125 19.731630
27.875000 18.906250 19.731630
28.100000 20.375000 19.731630
27.100000 0.484375 19.891226
26.825000 2.609375 19.891226
26.525000 3.703125 19.891226
26.525000 5.593750 19.891226
26.525000 5.843750 19.891226
26.600000 7.000000 19.891226
26.425000 8.796875 19.891226
27.525000 12.765625 19.891226
27.625000 14.281250 19.891226
27.525000 15.109375 19.891226
27.525000 17.359375 19.891226
27.650000 18.062500 19.891226
27.875000 19.421875 19.891226
28.075000 19.953125 19.891226
26.700000 2.546875 20.044419
26.500000 4.562500 20.044419
26.475000 5.093750 20.044419
26.500000 6.687500 20.044419
26.575000 7.843750 20.044419
26.475000 8.703125 20.044419
27.550000 16.328125 20.044419
27.550000 16.484375 20.044419
27.625000 17.718750 20.044419
27.850000 19.015625 20.044419
28.125000 19.671875 20.044419
27.000000 1.218750 20.205134
26.925000 2.718750 20.205134
26.575000 4.109375 20.205134
26.550000 4.656250 20.205134
26.575000 5.390625 20.205134
26.550000 7.750000 20.205134
26.475000 8.015625 20.205134
26.400000 9.187500 20.205134
27.925000 13.750000 20.205134
27.800000 15.015625 20.205134
27.500000 15.859375 20.205134
27.625000 17.546875 20.205134
27.725000 18.343750 20.205134
27.150000 2.078125 20.357527
26.825000 2.218750 20.357527
26.525000 3.343750 20.357527
26.575000 5.203125 20.357527
26.550000 6.984375 20.357527
26.550000 7.875000 20.357527
26.575000 7.984375 20.357527
26.575000 10.062500 20.357527
26.750000 11.093750 20.357527
27.175000 12.187500 20.357527
27.375000 13.093750 20.357527
27.475000 13.703125 20.357527
27.575000 15.687500 20.357527
27.600000 16.250000 20.357527
27.700000 17.468750 20.357527
27.850000 18.109375 20.357527
28.075000 19.421875 20.357527
26.900000 3.140625 20.519217
26.600000 4.859375 20.519217
26.525000 6.328125 20.519217
26.500000 6.531250 20.519217
26.575000 7.859375 20.519217
26.625000 8.437500 20.519217
26.700000 9.921875 20.519217
26.950000 11.468750 20.519217
27.375000 14.046875 20.519217
27.550000 15.984375 20.519217
27.625000 16.468750 20.519217
27.700000 18.218750 20.519217
27.875000 18.765625 20.519217
28.150000 20.125000 20.519217
27.225000 1.281250 20.675347
26.525000 3.546875 20.675347
26.575000 5.375000 20.675347
26.550000 6.515625 20.675347
26.575000 7.453125 20.675347
26.500000 8.296875 20.675347
26.500000 9.953125 20.675347
26.775000 10.234375 20.675347
27.175000 11.265625 20.675347
27.450000 12.765625 20.675347
27.550000 13.765625 20.675347
27.600000 15.406250 20.675347
27.600000 16.031250 20.675347
27.675000 17.343750 20.675347
27.825000 18.359375 20.675347
28.025000 19.843750 20.675347
27.075000 0.859375 20.832350
27.050000 2.468750 20.832350
26.725000 3.390625 20.832350
26.550000 4.109375 20.832350
26.575000 5.375000 20.832350
26.700000 7.437500 20.832350
26.500000 7.906250 20.832350
27.475000 12.625000 20.832350
27.900000 13.515625 20.832350
27.850000 14.640625 20.832350
27.575000 16.625000 20.832350
27.625000 16.906250 20.832350
27.725000 18.796875 20.832350
26.925000 3.000000 20.987572
26.550000 4.875000 20.987572
26.550000 6.000000 20.987572
26.525000 6.546875 20.987572
26.275000 7.375000 20.987572
26.100000 8.625000 20.987572
26.400000 9.484375 20.987572
27.650000 14.343750 20.987572
27.525000 15.593750 20.987572
27.550000 16.875000 20.987572
27.625000 18.453125 20.987572
27.825000 19.328125 20.987572
28.100000 19.953125 20.987572
26.800000 3.265625 21.158412
26.550000 5.203125 21.158412
26.475000 5.484375 21.158412
26.225000 7.937500 21.158412
25.925000 8.421875 21.158412
27.350000 13.265625 21.158412
27.675000 13.250000 21.158412
27.675000 15.531250 21.158412
27.600000 16.578125 21.158412
27.625000 17.656250 21.158412
27.725000 19.015625 21.158412
26.525000 3.734375 21.312303
26.400000 5.328125 21.312303
26.400000 6.406250 21.312303
26.150000 7.812500 21.312303
27.675000 14.218750 21.312303
27.575000 15.687500 21.312303
27.575000 16.828125 21.312303
27.675000 17.546875 21.312303
27.825000 18.812500 21.312303
28.000000 20.187500 21.312303
26.350000 5.078125 21.470390
26.250000 5.843750 21.470390
26.350000 6.937500 21.470390
27.725000 15.062500 21.470390
27.550000 16.312500 21.470390
27.550000 16.546875 21.470390
27.525000 18.796875 21.470390
27.700000 18.875000 21.470390
28.100000 19.828125 21.470390
26.225000 3.875000 21.623995
26.200000 5.281250 21.623995
26.350000 7.234375 21.623995
27.675000 14.281250 21.623995
27.550000 16.015625 21.623995
27.550000 16.640625 21.623995
27.600000 17.421875 21.623995
27.750000 19.437500 21.623995
28.025000 20.656250 21.623995
26.175000 4.375000 21.782519
25.800000 7.421875 21.782519
27.550000 15.593750 21.782519
27.525000 16.421875 21.782519
27.600000 18.093750 21.782519
27.750000 18.937500 21.782519
28.050000 19.781250 21.782519
25.775000 3.593750 21.936093
25.950000 4.062500 21.936093
25.675000 8.390625 21.936093
27.575000 15.468750 21.936093
27.550000 16.812500 21.936093
27.600000 18.640625 21.936093
27.750000 19.312500 21.936093
28.075000 19.984375 21.936093
25.825000 3.843750 22.097863
25.900000 4.812500 22.097863
25.900000 7.390625 22.097863
25.700000 8.437500 22.097863
25.400000 8.296875 22.097863
27.550000 16.828125 22.097863
27.600000 17.671875 22.097863
27.750000 18.296875 22.097863
25.800000 5.015625 22.248196
25.825000 6.093750 22.248196
25.875000 6.265625 22.248196
25.625000 9.421875 22.248196
25.300000 9.625000 22.248196
27.575000 15.671875 22.248196
27.525000 17.218750 22.248196
27.600000 17.703125 22.248196
27.725000 18.718750 22.248196
28.000000 19.765625 22.248196
25.600000 0.609375 22.411276
25.725000 2.921875 22.411276
25.750000 4.578125 22.411276
25.775000 4.765625 22.411276
25.475000 8.593750 22.411276
25.350000 9.140625 22.411276
27.550000 16.703125 22.411276
27.600000 16.906250 22.411276
27.725000 18.250000 22.411276
25.725000 4.203125 22.572444
25.775000 5.625000 22.572444
25.800000 7.562500 22.572444
25.475000 8.765625 22.572444
25.200000 10.031250 22.572444
25.375000 11.140625 22.572444
27.550000 16.093750 22.572444
27.550000 16.343750 22.572444
27.600000 17.500000 22.572444
27.725000 19.421875 22.572444
28.025000 19.781250 22.572444
25.500000 4.437500 22.726077
25.575000 5.093750 22.726077
25.650000 6.046875 22.726077
25.800000 7.812500 22.726077
25.500000 8.218750 22.726077
25.175000 10.906250 22.726077
25.300000 10.390625 22.726077
27.550000 16.093750 22.726077
27.600000 17.015625 22.726077
27.750000 18.343750 22.726077
25.525000 0.359375 22.886340
25.525000 3.015625 22.886340
25.350000 4.703125 22.886340
25.400000 6.171875 22.886340
25.175000 9.500000 22.886340
25.100000 10.453125 22.886340
25.250000 11.343750 22.886340
27.525000 17.406250 22.886340
27.600000 17.343750 22.886340
27.725000 18.640625 22.886340
27.875000 19.968750 22.886340
25.175000 3.765625 23.043185
25.300000 5.843750 23.043185
25.300000 6.046875 23.043185
25.150000 9.718750 23.043185
25.100000 10.921875 23.043185
25.275000 11.171875 23.043185
27.575000 16.765625 23.043185
27.625000 18.234375 23.043185
27.650000 19.453125 23.043185
27.875000 20.843750 23.043185
25.175000 2.187500 23.198405
25.100000 4.687500 23.198405
25.275000 5.734375 23.198405
25.275000 6.812500 23.198405
25.225000 10.078125 23.198405
25.200000 10.328125 23.198405
25.350000 11.781250 23.198405
27.400000 17.031250 23.198405
27.350000 18.375000 23.198405
27.525000 19.140625 23.198405
27.825000 20.281250 23.198405
25.100000 4.593750 23.353187
25.250000 5.156250 23.353187
25.275000 6.203125 23.353187
25.275000 10.312500 23.353187
25.250000 12.578125 23.353187
25.425000 11.828125 23.353187
27.250000 17.671875 23.353187
27.325000 18.437500 23.353187
25.125000 4.375000 23.509332
25.175000 4.765625 23.509332
25.225000 5.718750 23.509332
25.250000 8.171875 23.509332
25.275000 9.015625 23.509332
25.425000 8.843750 23.509332
25.400000 10.328125 23.509332
25.250000 11.125000 23.509332
25.475000 12.359375 23.509332
27.350000 16.328125 23.509332
27.275000 17.515625 23.509332
27.275000 19.171875 23.509332
25.125000 4.187500 23.667341
25.025000 5.109375 23.667341
25.175000 5.687500 23.667341
25.225000 5.953125 23.667341
25.300000 6.593750 23.667341
25.325000 7.953125 23.667341
25.450000 9.640625 23.667341
25.550000 10.687500 23.667341
25.600000 12.640625 23.667341
27.150000 17.937500 23.667341
27.000000 18.281250 23.667341
27.075000 19.765625 23.667341
27.350000 20.906250 23.667341
24.975000 3.281250 23.820738
24.950000 4.609375 23.820738
25.200000 5.109375 23.820738
25.250000 5.890625 23.820738
25.275000 8.625000 23.820738
25.300000 8.546875 23.820738
25.425000 10.359375 23.820738
25.575000 11.218750 23.820738
25.750000 12.968750 23.820738
27.000000 17.078125 23.820738
26.825000 18.593750 23.820738
26.800000 18.421875 23.820738
25.250000 0.750000 23.982727
25.225000 2.531250 23.982727
25.075000 4.984375 23.982727
25.075000 4.078125 23.982727
25.200000 6.093750 23.982727
25.250000 7.203125 23.982727
25.300000 7.984375 23.982727
25.325000 10.437500 23.982727
25.450000 10.031250 23.982727
25.650000 11.421875 23.982727
25.850000 12.421875 23.982727
26.975000 16.468750 23.982727
26.675000 18.937500 23.982727
26.725000 18.843750 23.982727
25.250000 1.671875 24.145313
25.125000 2.656250 24.145313
25.075000 5.062500 24.145313
25.175000 5.531250 24.145313
25.225000 6.406250 24.145313
25.275000 6.890625 24.145313
25.325000 7.843750 24.145313
25.425000 8.921875 24.145313
25.550000 10.531250 24.145313
25.700000 12.046875 24.145313
25.950000 13.437500 24.145313
26.425000 16.375000 24.145313
26.650000 17.218750 24.145313
26.550000 19.015625 24.145313
25.225000 0.734375 24.292959
25.250000 2.046875 24.292959
25.100000 2.390625 24.292959
25.050000 4.125000 24.292959
25.200000 5.343750 24.292959
25.250000 7.828125 24.292959
25.300000 6.703125 24.292959
25.350000 9.281250 24.292959
25.500000 9.671875 24.292959
25.650000 10.375000 24.292959
25.750000 12.218750 24.292959
26.000000 13.250000 24.292959
26.400000 16.578125 24.292959
26.525000 17.109375 24.292959
26.425000 18.968750 24.292959
26.550000 19.468750 24.292959
26.875000 20.984375 24.292959
25.250000 0.421875 24.457037
25.300000 2.046875 24.457037
25.100000 4.609375 24.457037
25.050000 4.296875 24.457037
25.200000 5.125000 24.457037
25.250000 8.265625 24.457037
25.275000 8.562500 24.457037
25.450000 8.296875 24.457037
25.625000 9.859375 24.457037
25.700000 11.843750 24.457037
25.850000 11.828125 24.457037
26.225000 15.812500 24.457037
26.425000 16.671875 24.457037
26.425000 17.656250 24.457037
26.425000 19.203125 24.457037
25.300000 1.328125 24.612189
25.325000 2.406250 24.612189
25.275000 2.812500 24.612189
25.175000 4.781250 24.612189
25.225000 6.203125 24.612189
25.250000 6.687500 24.612189
25.325000 8.171875 24.612189
25.500000 8.890625 24.612189
25.675000 10.359375 24.612189
25.725000 12.281250 24.612189
25.950000 11.812500 24.612189
26.175000 16.734375 24.612189
26.275000 17.250000 24.612189
26.275000 18.203125 24.612189
25.325000 3.000000 24.769899
25.075000 4.859375 24.769899
25.200000 4.109375 24.769899
25.250000 5.156250 24.769899
25.250000 7.421875 24.769899
25.425000 8.234375 24.769899
25.575000 9.656250 24.769899
25.675000 11.031250 24.769899
25.725000 12.281250 24.769899
25.950000 12.828125 24.769899
25.900000 13.390625 24.769899
25.775000 16.843750 24.769899
25.650000 19.281250 24.769899
25.200000 3.031250 24.937171
25.250000 4.328125 24.937171
25.250000 5.734375 24.937171
25.275000 6.640625 24.937171
25.400000 9.500000 24.937171
25.575000 9.468750 24.937171
25.675000 10.328125 24.937171
25.825000 11.859375 24.937171
26.025000 12.156250 24.937171
25.975000 13.390625 24.937171
25.550000 17.312500 24.937171
25.400000 20.156250 24.937171
25.200000 5.484375 25.079866
25.250000 6.000000 25.079866
25.300000 6.812500 25.079866
25.425000 8.218750 25.079866
25.575000 10.609375 25.079866
25.675000 11.000000 25.079866
25.850000 11.359375 25.079866
26.075000 12.828125 25.079866
26.150000 14.390625 25.079866
25.450000 17.953125 25.079866
25.400000 19.328125 25.079866
25.300000 2.656250 25.236651
25.050000 4.140625 25.236651
25.200000 5.015625 25.236651
25.250000 6.406250 25.236651
25.325000 7.671875 25.236651
25.500000 8.484375 25.236651
25.625000 9.546875 25.236651
25.700000 11.000000 25.236651
25.950000 12.578125 25.236651
26.250000 12.906250 25.236651
26.425000 14.812500 25.236651
26.200000 15.546875 25.236651
25.700000 16.609375 25.236651
25.500000 17.968750 25.236651
25.500000 19.796875 25.236651
25.775000 1.812500 25.409226
25.550000 2.125000 25.409226
25.275000 3.625000 25.409226
25.175000 4.359375 25.409226
25.225000 5.968750 25.409226
25.275000 7.468750 25.409226
25.425000 7.968750 25.409226
25.600000 10.390625 25.409226
25.650000 11.312500 25.409226
25.750000 11.234375 25.409226
26.000000 13.140625 25.409226
26.125000 17.046875 25.409226
25.900000 17.171875 25.409226
25.650000 19.046875 25.409226
25.275000 3.328125 25.563174
25.050000 4.843750 25.563174
25.200000 6.046875 25.563174
25.250000 6.015625 25.563174
25.325000 7.265625 25.563174
25.475000 9.921875 25.563174
25.625000 9.531250 25.563174
25.700000 10.968750 25.563174
25.875000 12.968750 25.563174
26.200000 13.546875 25.563174
26.300000 14.578125 25.563174
26.350000 16.093750 25.563174
26.325000 16.828125 25.563174
26.100000 19.046875 25.563174
26.050000 19.093750 25.563174
25.200000 4.906250 25.720342
25.250000 6.625000 25.720342
25.300000 7.515625 25.720342
25.425000 8.375000 25.720342
25.575000 10.125000 25.720342
25.675000 10.593750 25.720342
25.825000 12.453125 25.720342
26.125000 12.531250 25.720342
26.300000 16.125000 25.720342
26.250000 18.093750 25.720342
26.225000 18.796875 25.720342
26.350000 20.312500 25.720342
26.650000 20.750000 25.720342
25.375000 2.734375 25.871472
25.100000 3.515625 25.871472
25.150000 3.875000 25.871472
25.225000 5.375000 25.871472
25.250000 6.484375 25.871472
25.325000 7.328125 25.871472
25.500000 8.781250 25.871472
25.650000 11.250000 25.871472
25.725000 11.828125 25.871472
25.950000 13.031250 25.871472
26.275000 13.046875 25.871472
26.450000 14.343750 25.871472
26.500000 15.609375 25.871472
26.425000 17.812500 25.871472
26.275000 18.875000 25.871472
26.275000 19.468750 25.871472
25.175000 4.515625 26.036267
25.175000 4.468750 26.036267
25.200000 5.859375 26.036267
25.275000 8.031250 26.036267
25.350000 8.546875 26.036267
25.500000 9.265625 26.036267
25.675000 11.468750 26.036267
25.775000 12.218750 26.036267
26.000000 13.562500 26.036267
26.375000 15.609375 26.036267
26.450000 17.671875 26.036267
26.350000 19.203125 26.036267
26.450000 20.093750 26.036267
25.175000 5.546875 26.185037
25.225000 7.515625 26.185037
25.275000 7.187500 26.185037
25.350000 9.125000 26.185037
25.500000 10.875000 26.185037
25.725000 11.390625 26.185037
25.875000 12.328125 26.185037
26.100000 12.781250 26.185037
26.425000 16.500000 26.185037
26.475000 18.468750 26.185037
26.450000 18.390625 26.185037
26.575000 19.781250 26.185037
26.925000 20.781250 26.185037
24.925000 3.812500 26.346243
25.150000 6.437500 26.346243
25.225000 6.640625 26.346243
25.275000 8.203125 26.346243
25.350000 8.000000 26.346243
25.500000 9.406250 26.346243
25.700000 10.734375 26.346243
25.825000 11.421875 26.346243
26.050000 12.656250 26.346243
26.400000 16.171875 26.346243
26.475000 18.296875 26.346243
26.450000 18.343750 26.346243
25.450000 0.078125 26.508846
25.575000 2.046875 26.508846
24.900000 5.062500 26.508846
25.150000 4.796875 26.508846
25.200000 6.140625 26.508846
25.275000 8.546875 26.508846
25.325000 9.718750 26.508846
25.400000 10.328125 26.508846
25.600000 10.812500 26.508846
25.825000 12.437500 26.508846
26.000000 13.312500 26.508846
25.925000 14.046875 26.508846
26.700000 17.796875 26.508846
26.650000 18.921875 26.508846
25.425000 0.468750 26.663190
25.525000 1.375000 26.663190
24.825000 4.312500 26.663190
25.075000 4.781250 26.663190
25.200000 6.093750 26.663190
25.275000 7.843750 26.663190
25.325000 9.406250 26.663190
25.550000 9.500000 26.663190
25.775000 11.734375 26.663190
25.800000 12.562500 26.663190
25.950000 12.609375 26.663190
25.850000 15.687500 26.663190
26.800000 17.171875 26.663190
26.725000 18.156250 26.663190
26.900000 20.625000 26.663190
27.250000 20.812500 26.663190
25.325000 0.546875 26.821934
25.475000 1.765625 26.821934
25.175000 3.546875 26.821934
24.975000 4.078125 26.821934
25.200000 6.078125 26.821934
25.250000 6.937500 26.821934
25.325000 8.406250 26.821934
25.375000 8.468750 26.821934
25.625000 9.843750 26.821934
25.775000 11.625000 26.821934
25.725000 12.031250 26.821934
25.950000 13.281250 26.821934
26.925000 18.609375 26.821934
26.875000 18.531250 26.821934
25.500000 1.218750 26.976374
25.500000 2.468750 26.976374
24.925000 3.875000 26.976374
25.175000 6.140625 26.976374
25.200000 6.062500 26.976374
25.275000 7.468750 26.976374
25.325000 11.187500 26.976374
25.450000 11.968750 26.976374
25.700000 12.734375 26.976374
27.075000 17.218750 26.976374
27.025000 18.546875 26.976374
25.400000 0.500000 27.130992
25.400000 2.546875 27.130992
25.275000 3.328125 27.130992
25.200000 4.890625 27.130992
25.225000 5.203125 27.130992
25.250000 6.359375 27.130992
25.275000 10.718750 27.130992
25.275000 12.312500 27.130992
27.050000 16.828125 27.130992
27.050000 18.593750 27.130992
27.125000 18.875000 27.130992
25.475000 1.109375 27.291276
25.200000 2.390625 27.291276
25.075000 3.421875 27.291276
25.200000 5.656250 27.291276
25.200000 7.281250 27.291276
25.225000 9.265625 27.291276
25.250000 12.500000 27.291276
25.400000 11.796875 27.291276
25.650000 13.406250 27.291276
27.075000 17.984375 27.291276
27.175000 19.000000 27.291276
25.525000 1.421875 27.443360
25.450000 3.312500 27.443360
25.175000 3.734375 27.443360
25.200000 4.375000 27.443360
25.225000 5.500000 27.443360
25.200000 8.750000 27.443360
25.200000 10.125000 27.443360
25.300000 11.828125 27.443360
27.175000 16.500000 27.443360
27.175000 18.609375 27.443360
27.225000 18.984375 27.443360
27.475000 20.125000 27.443360
25.350000 0.781250 27.608441
25.575000 1.265625 27.608441
25.375000 3.343750 27.608441
25.175000 3.921875 27.608441
25.300000 4.953125 27.608441
25.250000 9.234375 27.608441
25.200000 10.109375 27.608441
25.275000 12.078125 27.608441
27.325000 17.921875 27.608441
27.325000 18.515625 27.608441
25.525000 0.593750 27.755570
25.525000 1.812500 27.755570
25.325000 3.375000 27.755570
25.325000 4.093750 27.755570
25.375000 5.937500 27.755570
25.300000 6.828125 27.755570
25.200000 10.750000 27.755570
25.400000 11.656250 27.755570
27.275000 16.796875 27.755570
27.375000 18.671875 27.755570
