25.300000 -6.451660 1.732041
25.400000 -4.439453 1.732041
25.400000 -4.552246 1.732041
25.500000 -4.790039 1.732041
25.500000 -3.277832 1.732041
25.600000 -3.140625 1.732041
25.700000 -1.382812 1.732041
25.700000 -1.750000 1.732041
25.600000 -1.367188 1.732041
27.400000 -25.960938 1.885393
27.400000 -25.821777 1.885393
27.300000 -25.557617 1.885393
27.100000 -24.668457 1.885393
27.000000 -24.154297 1.885393
26.800000 -23.640137 1.885393
26.700000 -22.250977 1.885393
26.500000 -21.986816 1.885393
26.400000 -20.347656 1.885393
26.300000 -20.708496 1.885393
26.100000 -19.819336 1.885393
26.000000 -18.805176 1.885393
25.900000 -17.916016 1.885393
25.800000 -17.151855 1.885393
25.700000 -17.137695 1.885393
25.600000 -15.748535 1.885393
25.500000 -16.109375 1.885393
25.400000 -14.224121 1.885393
25.300000 -14.838867 1.885393
25.300000 -13.953613 1.885393
25.200000 -13.818359 1.885393
25.200000 -12.683105 1.885393
25.100000 -11.297852 1.885393
25.100000 -11.662598 1.885393
24.900000 -9.027344 1.885393
24.900000 -9.142090 1.885393
25.100000 -10.131836 1.885393
25.100000 -8.621582 1.885393
25.100000 -8.611328 1.885393
25.200000 -7.976074 1.885393
25.200000 -6.840820 1.885393
25.300000 -5.580566 1.885393
25.300000 -5.445312 1.885393
25.400000 -5.560059 1.885393
25.400000 -3.299805 1.885393
25.500000 -3.914551 1.885393
25.600000 -3.529297 1.885393
25.600000 -2.644043 1.885393
25.600000 -1.133789 1.885393
25.700000 -1.748535 1.885393
25.700000 -0.113281 1.885393
27.400000 -26.155273 2.027343
27.400000 -26.017578 2.027343
27.300000 -25.129883 2.027343
27.100000 -24.617188 2.027343
27.000000 -23.729492 2.027343
26.800000 -23.716797 2.027343
26.700000 -22.204102 2.027343
26.500000 -21.691406 2.027343
26.400000 -20.678711 2.027343
26.300000 -19.791016 2.027343
26.100000 -19.778320 2.027343
26.000000 -18.140625 2.027343
25.900000 -18.502930 2.027343
25.800000 -16.865234 2.027343
25.700000 -17.227539 2.027343
25.600000 -16.964844 2.027343
25.500000 -16.202148 2.027343
25.400000 -14.314453 2.027343
25.300000 -15.051758 2.027343
25.300000 -14.039062 2.027343
25.200000 -13.651367 2.027343
25.200000 -13.138672 2.027343
25.100000 -11.000977 2.027343
25.100000 -11.488281 2.027343
24.900000 -10.600586 2.027343
24.900000 -9.712891 2.027343
25.000000 -9.075195 2.027343
25.100000 -8.812500 2.027343
25.100000 -8.053711 2.027343
25.200000 -7.044922 2.027343
25.300000 -7.411133 2.027343
25.300000 -5.902344 2.027343
25.300000 -5.643555 2.027343
25.400000 -5.134766 2.027343
25.500000 -4.125977 2.027343
25.500000 -3.492188 2.027343
25.600000 -1.983398 2.027343
25.600000 -3.099609 2.027343
25.700000 -2.215820 2.027343
25.700000 -0.582031 2.027343
25.700000 -0.948242 2.027343
27.500000 -26.275391 2.169009
27.400000 -26.135742 2.169009
27.300000 -25.371094 2.169009
27.100000 -24.856445 2.169009
26.900000 -23.216797 2.169009
26.800000 -23.577148 2.169009
26.600000 -22.562500 2.169009
26.500000 -20.801758 2.169009
26.400000 -21.416016 2.169009
26.300000 -19.655273 2.169009
26.100000 -20.019531 2.169009
26.000000 -18.508789 2.169009
25.900000 -18.748047 2.169009
25.800000 -17.862305 2.169009
25.700000 -17.101562 2.169009
25.600000 -16.340820 2.169009
25.500000 -16.205078 2.169009
25.500000 -15.069336 2.169009
25.300000 -14.308594 2.169009
25.200000 -12.922852 2.169009
25.200000 -12.037109 2.169009
25.100000 -12.026367 2.169009
25.100000 -9.890625 2.169009
25.100000 -9.879883 2.169009
24.900000 -11.119141 2.169009
25.000000 -9.608398 2.169009
25.200000 -9.347656 2.169009
25.200000 -9.086914 2.169009
25.200000 -8.451172 2.169009
25.200000 -7.565430 2.169009
25.300000 -7.179688 2.169009
25.300000 -6.293945 2.169009
25.400000 -4.658203 2.169009
25.500000 -5.272461 2.169009
25.500000 -3.761719 2.169009
25.500000 -3.875977 2.169009
25.600000 -1.990234 2.169009
25.600000 -2.729492 2.169009
25.700000 -1.843750 2.169009
25.700000 -0.833496 2.169009
25.700000 -0.448242 2.169009
25.700000 -0.062988 2.169009
27.600000 -27.286133 2.325323
27.500000 -25.521973 2.325323
27.500000 -26.132812 2.325323
27.300000 -24.493652 2.325323
27.100000 -24.479492 2.325323
27.000000 -23.715332 2.325323
26.900000 -22.826172 2.325323
26.700000 -22.062012 2.325323
26.600000 -21.047852 2.325323
26.400000 -20.533691 2.325323
26.300000 -20.519531 2.325323
26.200000 -19.505371 2.325323
26.000000 -18.741211 2.325323
25.900000 -18.727051 2.325323
25.800000 -17.087891 2.325323
25.700000 -17.448730 2.325323
25.600000 -16.309570 2.325323
25.500000 -15.920410 2.325323
25.400000 -14.656250 2.325323
25.300000 -13.895996 2.325323
25.300000 -13.385742 2.325323
25.200000 -12.875488 2.325323
25.200000 -12.490234 2.325323
25.100000 -12.229980 2.325323
25.100000 -11.094727 2.325323
25.000000 -10.834473 2.325323
25.000000 -9.074219 2.325323
25.200000 -8.313965 2.325323
25.200000 -8.053711 2.325323
25.200000 -7.543457 2.325323
25.200000 -7.533203 2.325323
25.300000 -7.272949 2.325323
25.400000 -6.262695 2.325323
25.400000 -4.002441 2.325323
25.500000 -4.992188 2.325323
25.600000 -4.231934 2.325323
25.700000 -3.846680 2.325323
25.700000 -3.211426 2.325323
25.800000 -2.451172 2.325323
25.700000 -1.565918 2.325323
25.700000 -0.180664 2.325323
25.800000 -1.045410 2.325323
25.800000 -0.160156 2.325323
27.900000 -28.004883 2.465147
27.600000 -27.366699 2.465147
27.600000 -25.728516 2.465147
27.500000 -25.215332 2.465147
27.300000 -25.202148 2.465147
27.100000 -24.188965 2.465147
27.000000 -23.550781 2.465147
26.900000 -22.662598 2.465147
26.700000 -22.774414 2.465147
26.600000 -20.886230 2.465147
26.400000 -20.748047 2.465147
26.300000 -20.234863 2.465147
26.200000 -19.471680 2.465147
26.000000 -18.333496 2.465147
25.900000 -18.070312 2.465147
25.800000 -17.682129 2.465147
25.700000 -16.543945 2.465147
25.600000 -15.030762 2.465147
25.500000 -15.392578 2.465147
25.400000 -14.754395 2.465147
25.400000 -14.491211 2.465147
25.400000 -13.603027 2.465147
25.200000 -13.464844 2.465147
25.100000 -12.576660 2.465147
25.200000 -12.188477 2.465147
25.200000 -11.675293 2.465147
25.200000 -10.537109 2.465147
25.100000 -9.273926 2.465147
25.200000 -8.260742 2.465147
25.200000 -7.747559 2.465147
25.200000 -8.359375 2.465147
25.300000 -7.352051 2.465147
25.400000 -6.844727 2.465147
25.500000 -4.587402 2.465147
25.500000 -4.830078 2.465147
25.500000 -4.947754 2.465147
25.600000 -4.690430 2.465147
25.700000 -2.808105 2.465147
25.700000 -1.925781 2.465147
25.700000 -2.793457 2.465147
25.800000 -1.661133 2.465147
25.800000 -0.778809 2.465147
25.800000 -0.014160 2.465147
28.100000 -28.448242 2.605984
27.900000 -27.681641 2.605984
27.800000 -27.415039 2.605984
27.700000 -27.023438 2.605984
27.600000 -26.131836 2.605984
27.500000 -24.865234 2.605984
27.400000 -24.848633 2.605984
27.200000 -23.832031 2.605984
27.000000 -22.940430 2.605984
26.900000 -23.173828 2.605984
26.700000 -22.407227 2.605984
26.600000 -20.640625 2.605984
26.500000 -21.127930 2.605984
26.300000 -19.990234 2.605984
26.200000 -19.477539 2.605984
26.100000 -18.214844 2.605984
26.000000 -18.327148 2.605984
25.900000 -17.314453 2.605984
25.800000 -16.426758 2.605984
25.700000 -16.164062 2.605984
25.600000 -15.651367 2.605984
25.500000 -15.263672 2.605984
25.500000 -12.500977 2.605984
25.400000 -13.363281 2.605984
25.300000 -11.850586 2.605984
25.200000 -12.587891 2.605984
25.200000 -10.450195 2.605984
25.200000 -10.812500 2.605984
25.200000 -9.299805 2.605984
25.200000 -10.037109 2.605984
25.300000 -9.399414 2.605984
25.300000 -8.386719 2.605984
25.300000 -7.374023 2.605984
25.400000 -6.861328 2.605984
25.400000 -5.848633 2.605984
25.400000 -5.960938 2.605984
25.500000 -5.323242 2.605984
25.600000 -3.810547 2.605984
25.700000 -3.797852 2.605984
25.800000 -3.285156 2.605984
25.800000 -1.522461 2.605984
25.800000 -1.509766 2.605984
25.800000 -1.497070 2.605984
25.800000 -1.359375 2.605984
25.800000 -0.475098 2.605984
28.300000 -29.348145 2.749046
28.100000 -28.458008 2.749046
27.900000 -27.817871 2.749046
27.700000 -27.552734 2.749046
27.600000 -26.662598 2.749046
27.500000 -25.647461 2.749046
27.400000 -24.632324 2.749046
27.300000 -24.742188 2.749046
27.200000 -23.977051 2.749046
27.000000 -22.836914 2.749046
26.800000 -22.446777 2.749046
26.700000 -21.056641 2.749046
26.600000 -20.541504 2.749046
26.400000 -20.026367 2.749046
26.300000 -19.886230 2.749046
26.200000 -19.121094 2.749046
26.100000 -18.355957 2.749046
26.000000 -17.465820 2.749046
25.900000 -17.075684 2.749046
25.800000 -16.060547 2.749046
25.700000 -15.295410 2.749046
25.600000 -14.405273 2.749046
25.500000 -13.765137 2.749046
25.400000 -14.000000 2.749046
25.400000 -12.238770 2.749046
25.300000 -12.352539 2.749046
25.200000 -11.091309 2.749046
25.200000 -10.705078 2.749046
25.200000 -10.818848 2.749046
25.300000 -9.932617 2.749046
25.300000 -9.296387 2.749046
25.300000 -8.410156 2.749046
25.300000 -6.523926 2.749046
25.300000 -6.512695 2.749046
25.400000 -7.126465 2.749046
25.500000 -5.615234 2.749046
25.500000 -5.229004 2.749046
25.600000 -3.842773 2.749046
25.700000 -4.081543 2.749046
25.700000 -3.945312 2.749046
25.700000 -3.434082 2.749046
25.800000 -1.672852 2.749046
25.800000 -1.786621 2.749046
25.900000 -0.900391 2.749046
25.900000 -0.252930 2.749046
28.300000 -28.998535 2.902320
28.200000 -28.483398 2.902320
28.000000 -27.718262 2.902320
27.800000 -27.078125 2.902320
27.700000 -26.065918 2.902320
27.600000 -25.928711 2.902320
27.600000 -25.541504 2.902320
27.400000 -24.654297 2.902320
27.200000 -23.392090 2.902320
27.100000 -23.379883 2.902320
26.900000 -22.492676 2.902320
26.800000 -22.230469 2.902320
26.700000 -21.593262 2.902320
26.500000 -20.706055 2.902320
26.400000 -20.318848 2.902320
26.300000 -19.431641 2.902320
26.200000 -18.294434 2.902320
26.100000 -18.157227 2.902320
25.900000 -17.145020 2.902320
25.800000 -15.382812 2.902320
25.700000 -15.745605 2.902320
25.600000 -14.983398 2.902320
25.500000 -13.596191 2.902320
25.500000 -14.333984 2.902320
25.400000 -12.946777 2.902320
25.300000 -12.434570 2.902320
25.300000 -10.922363 2.902320
25.200000 -10.410156 2.902320
25.200000 -10.647949 2.902320
25.300000 -10.260742 2.902320
25.300000 -9.248535 2.902320
25.300000 -7.986328 2.902320
25.300000 -7.474121 2.902320
25.400000 -6.586914 2.902320
25.400000 -6.699707 2.902320
25.500000 -5.437500 2.902320
25.600000 -6.177734 2.902320
25.700000 -5.417969 2.902320
25.700000 -3.908203 2.902320
25.700000 -3.773438 2.902320
25.800000 -2.638672 2.902320
25.800000 -2.628906 2.902320
25.900000 -0.869141 2.902320
25.900000 -0.734375 2.902320
25.900000 -0.974609 2.902320
28.500000 -29.570801 3.042737
28.300000 -28.680664 3.042737
28.100000 -28.165527 3.042737
27.900000 -27.775391 3.042737
27.800000 -26.510254 3.042737
27.700000 -26.870117 3.042737
27.700000 -25.354980 3.042737
27.500000 -25.089844 3.042737
27.400000 -23.949707 3.042737
27.300000 -23.934570 3.042737
27.100000 -22.669434 3.042737
26.900000 -22.779297 3.042737
26.800000 -21.639160 3.042737
26.700000 -19.999023 3.042737
26.500000 -19.733887 3.042737
26.400000 -20.093750 3.042737
26.200000 -17.955566 3.042737
26.100000 -18.817383 3.042737
26.000000 -17.429199 3.042737
25.900000 -17.166016 3.042737
25.800000 -15.152832 3.042737
25.700000 -15.264648 3.042737
25.600000 -15.501465 3.042737
25.500000 -14.613281 3.042737
25.500000 -12.350098 3.042737
25.400000 -11.836914 3.042737
25.300000 -12.698730 3.042737
25.200000 -10.435547 3.042737
25.200000 -11.047363 3.042737
25.300000 -9.909180 3.042737
25.300000 -9.895996 3.042737
25.300000 -9.382812 3.042737
25.300000 -8.119629 3.042737
25.400000 -7.356445 3.042737
25.400000 -7.593262 3.042737
25.500000 -5.455078 3.042737
25.500000 -5.441895 3.042737
25.600000 -5.678711 3.042737
25.600000 -4.165527 3.042737
25.700000 -3.152344 3.042737
25.700000 -2.264160 3.042737
25.800000 -2.875977 3.042737
25.900000 -2.487793 3.042737
25.900000 -1.099609 3.042737
25.900000 -0.961426 3.042737
25.900000 -0.198242 3.042737
25.900000 -0.185059 3.042737
28.500000 -29.576172 3.182508
28.300000 -28.440430 3.182508
28.100000 -28.054688 3.182508
28.000000 -27.043945 3.182508
27.800000 -26.533203 3.182508
27.700000 -25.897461 3.182508
27.700000 -25.886719 3.182508
27.600000 -24.875977 3.182508
27.400000 -23.490234 3.182508
27.300000 -23.229492 3.182508
27.100000 -22.093750 3.182508
26.900000 -21.458008 3.182508
26.800000 -21.822266 3.182508
26.700000 -21.186523 3.182508
26.600000 -20.300781 3.182508
26.400000 -19.290039 3.182508
26.300000 -18.154297 3.182508
26.200000 -18.643555 3.182508
26.100000 -18.007812 3.182508
26.000000 -16.122070 3.182508
25.800000 -16.486328 3.182508
25.800000 -15.100586 3.182508
25.700000 -14.589844 3.182508
25.600000 -13.954102 3.182508
25.500000 -12.318359 3.182508
25.400000 -12.557617 3.182508
25.400000 -11.296875 3.182508
25.300000 -11.536621 3.182508
25.300000 -10.651367 3.182508
25.300000 -10.766113 3.182508
25.300000 -8.505859 3.182508
25.300000 -9.495605 3.182508
25.400000 -8.735352 3.182508
25.400000 -7.475098 3.182508
25.500000 -7.464844 3.182508
25.500000 -5.954590 3.182508
25.600000 -6.319336 3.182508
25.700000 -5.309082 3.182508
25.700000 -5.048828 3.182508
25.800000 -4.663574 3.182508
25.800000 -2.528320 3.182508
25.900000 -2.768066 3.182508
25.900000 -2.507812 3.182508
25.900000 -1.497559 3.182508
25.900000 -0.237305 3.182508
28.400000 -28.943359 3.321978
28.300000 -28.554688 3.321978
28.100000 -27.416016 3.321978
28.000000 -27.527344 3.321978
27.800000 -26.388672 3.321978
27.700000 -25.625000 3.321978
27.700000 -25.486816 3.321978
27.600000 -23.973633 3.321978
27.400000 -23.210449 3.321978
27.200000 -23.197266 3.321978
27.100000 -22.059082 3.321978
26.900000 -21.795898 3.321978
26.800000 -20.657715 3.321978
26.600000 -20.644531 3.321978
26.500000 -19.131348 3.321978
26.400000 -19.368164 3.321978
26.300000 -17.479980 3.321978
26.200000 -17.591797 3.321978
26.100000 -17.078613 3.321978
25.900000 -16.440430 3.321978
25.800000 -15.552246 3.321978
25.700000 -14.289062 3.321978
25.700000 -14.025879 3.321978
25.500000 -13.887695 3.321978
25.400000 -12.124512 3.321978
25.400000 -11.611328 3.321978
25.300000 -11.473145 3.321978
25.300000 -11.709961 3.321978
25.300000 -10.946777 3.321978
25.300000 -8.933594 3.321978
25.300000 -9.295410 3.321978
25.300000 -8.157227 3.321978
25.400000 -8.144043 3.321978
25.500000 -7.880859 3.321978
25.500000 -6.867676 3.321978
25.500000 -5.604492 3.321978
25.600000 -5.591309 3.321978
25.700000 -5.203125 3.321978
25.800000 -3.941895 3.321978
25.900000 -3.180664 3.321978
25.900000 -3.294434 3.321978
25.900000 -1.908203 3.321978
25.900000 -1.271973 3.321978
25.900000 -1.010742 3.321978
25.900000 -1.124512 3.321978
26.000000 -0.363281 3.321978
28.500000 -29.280273 3.476469
28.300000 -29.140625 3.476469
28.100000 -28.250977 3.476469
28.000000 -27.111328 3.476469
27.900000 -26.971680 3.476469
27.800000 -25.957031 3.476469
27.800000 -25.817383 3.476469
27.600000 -24.927734 3.476469
27.400000 -24.413086 3.476469
27.300000 -22.898438 3.476469
27.100000 -23.008789 3.476469
26.900000 -22.369141 3.476469
26.800000 -21.854492 3.476469
26.700000 -21.214844 3.476469
26.600000 -20.575195 3.476469
26.400000 -19.685547 3.476469
26.300000 -19.170898 3.476469
26.200000 -17.156250 3.476469
26.100000 -16.768066 3.476469
26.000000 -16.254883 3.476469
25.900000 -15.241699 3.476469
25.800000 -15.103516 3.476469
25.700000 -13.715332 3.476469
25.600000 -14.327148 3.476469
25.600000 -13.813965 3.476469
25.500000 -11.925781 3.476469
25.400000 -12.287598 3.476469
25.400000 -11.899414 3.476469
25.400000 -10.761230 3.476469
25.300000 -10.623047 3.476469
25.400000 -8.234863 3.476469
25.400000 -8.846680 3.476469
25.400000 -8.333496 3.476469
25.500000 -6.320312 3.476469
25.500000 -5.807129 3.476469
25.600000 -5.668945 3.476469
25.600000 -6.155762 3.476469
25.700000 -5.017578 3.476469
25.700000 -3.629395 3.476469
25.800000 -3.366211 3.476469
25.900000 -3.103027 3.476469
25.900000 -2.714844 3.476469
26.000000 -2.326660 3.476469
26.000000 -0.688477 3.476469
26.000000 -0.800293 3.476469
26.000000 -0.037109 3.476469
28.500000 -28.941406 3.618112
28.400000 -28.926758 3.618112
28.200000 -28.287109 3.618112
28.000000 -27.022461 3.618112
27.900000 -26.507812 3.618112
27.900000 -25.493164 3.618112
27.800000 -25.353516 3.618112
27.700000 -25.213867 3.618112
27.600000 -24.199219 3.618112
27.400000 -23.434570 3.618112
27.100000 -22.669922 3.618112
27.000000 -22.280273 3.618112
26.800000 -20.890625 3.618112
26.700000 -20.625977 3.618112
26.600000 -20.361328 3.618112
26.400000 -19.721680 3.618112
26.300000 -18.457031 3.618112
26.200000 -18.442383 3.618112
26.100000 -17.927734 3.618112
26.000000 -17.163086 3.618112
25.900000 -16.148438 3.618112
25.800000 -14.633789 3.618112
25.700000 -14.369141 3.618112
25.700000 -14.354492 3.618112
25.600000 -13.464844 3.618112
25.500000 -12.825195 3.618112
25.400000 -11.935547 3.618112
25.400000 -10.795898 3.618112
25.400000 -11.406250 3.618112
25.300000 -9.397949 3.618112
25.400000 -8.639648 3.618112
25.400000 -8.006348 3.618112
25.400000 -8.873047 3.618112
25.500000 -7.864746 3.618112
25.500000 -7.481445 3.618112
25.600000 -5.723145 3.618112
25.700000 -6.089844 3.618112
25.800000 -5.706543 3.618112
25.800000 -4.698242 3.618112
25.900000 -4.314941 3.618112
25.900000 -3.556641 3.618112
25.900000 -2.548340 3.618112
26.000000 -2.290039 3.618112
26.000000 -0.406738 3.618112
26.000000 -1.273438 3.618112
26.000000 -0.140137 3.618112
28.300000 -28.497559 3.759033
28.100000 -26.982422 3.759033
27.900000 -26.342285 3.759033
27.900000 -25.952148 3.759033
27.800000 -25.812012 3.759033
27.800000 -25.046875 3.759033
27.600000 -24.034668 3.759033
27.400000 -23.022461 3.759033
27.200000 -23.260254 3.759033
27.000000 -21.498047 3.759033
26.900000 -21.235840 3.759033
26.800000 -20.098633 3.759033
26.600000 -20.461426 3.759033
26.500000 -19.199219 3.759033
26.300000 -18.562012 3.759033
26.200000 -18.174805 3.759033
26.100000 -16.912598 3.759033
26.000000 -15.775391 3.759033
25.900000 -15.263184 3.759033
25.800000 -14.625977 3.759033
25.700000 -14.863770 3.759033
25.700000 -13.726562 3.759033
25.600000 -12.714355 3.759033
25.500000 -12.202148 3.759033
25.500000 -12.689941 3.759033
25.400000 -10.302734 3.759033
25.400000 -10.290527 3.759033
25.300000 -10.153320 3.759033
25.400000 -9.891113 3.759033
25.400000 -9.503906 3.759033
25.400000 -8.616699 3.759033
25.500000 -7.854492 3.759033
25.500000 -7.092285 3.759033
25.600000 -6.580078 3.759033
25.700000 -5.692871 3.759033
25.700000 -4.805664 3.759033
25.800000 -4.793457 3.759033
25.900000 -4.531250 3.759033
25.900000 -3.648438 3.759033
26.000000 -2.765625 3.759033
26.000000 -1.882812 3.759033
26.100000 -1.500000 3.759033
28.200000 -27.703125 3.899907
28.000000 -26.565430 3.899907
28.000000 -26.302734 3.899907
27.900000 -26.165039 3.899907
27.900000 -24.652344 3.899907
27.700000 -24.514648 3.899907
27.600000 -24.251953 3.899907
27.400000 -23.739258 3.899907
27.300000 -22.351562 3.899907
27.100000 -22.213867 3.899907
26.900000 -20.576172 3.899907
26.800000 -19.938477 3.899907
26.700000 -19.425781 3.899907
26.500000 -19.538086 3.899907
26.400000 -18.900391 3.899907
26.300000 -17.012695 3.899907
26.200000 -17.250000 3.899907
26.100000 -16.612793 3.899907
25.900000 -15.350586 3.899907
25.800000 -15.213379 3.899907
25.800000 -14.451172 3.899907
25.700000 -13.438965 3.899907
25.600000 -13.176758 3.899907
25.600000 -13.164551 3.899907
25.500000 -11.152344 3.899907
25.500000 -11.390137 3.899907
25.400000 -10.127930 3.899907
25.400000 -10.115723 3.899907
25.500000 -8.228516 3.899907
25.500000 -8.966309 3.899907
25.500000 -8.079102 3.899907
25.600000 -7.316895 3.899907
25.700000 -6.554688 3.899907
25.700000 -6.542480 3.899907
25.800000 -4.780273 3.899907
25.800000 -5.143066 3.899907
25.900000 -3.380859 3.899907
25.900000 -3.743652 3.899907
25.900000 -3.606445 3.899907
26.000000 -3.094238 3.899907
26.100000 -2.457031 3.899907
26.100000 -1.069824 3.899907
26.100000 -0.682617 3.899907
26.100000 -0.545410 3.899907
28.300000 -27.337891 4.053946
28.100000 -26.449219 4.053946
28.000000 -26.810547 4.053946
27.900000 -25.421875 4.053946
27.900000 -24.783203 4.053946
27.700000 -24.519531 4.053946
27.500000 -23.630859 4.053946
27.400000 -22.242188 4.053946
27.200000 -22.853516 4.053946
27.100000 -22.089844 4.053946
26.900000 -20.451172 4.053946
26.800000 -20.187500 4.053946
26.600000 -19.173828 4.053946
26.500000 -19.035156 4.053946
26.400000 -17.271484 4.053946
26.300000 -16.882812 4.053946
26.200000 -16.994141 4.053946
26.100000 -16.730469 4.053946
26.000000 -15.591797 4.053946
25.900000 -15.078125 4.053946
25.800000 -14.564453 4.053946
25.700000 -14.175781 4.053946
25.700000 -12.912109 4.053946
25.600000 -12.398438 4.053946
25.600000 -12.259766 4.053946
25.500000 -10.621094 4.053946
25.500000 -10.607422 4.053946
25.500000 -9.843750 4.053946
25.500000 -7.835938 4.053946
25.500000 -8.203125 4.053946
25.600000 -6.820312 4.053946
25.700000 -7.437500 4.053946
25.700000 -6.804688 4.053946
25.800000 -5.546875 4.053946
25.800000 -4.789062 4.053946
25.900000 -4.156250 4.053946
26.000000 -4.523438 4.053946
26.000000 -3.640625 4.053946
26.000000 -2.007812 4.053946
26.100000 -2.125000 4.053946
26.200000 -1.992188 4.053946
26.200000 -1.359375 4.053946
28.200000 -27.028320 4.194097
28.100000 -27.263184 4.194097
28.000000 -26.498047 4.194097
27.900000 -24.857910 4.194097
27.800000 -24.467773 4.194097
27.700000 -24.577637 4.194097
27.500000 -23.812500 4.194097
27.300000 -22.548828 4.194097
27.200000 -21.285156 4.194097
27.100000 -21.021484 4.194097
26.900000 -20.757812 4.194097
26.800000 -19.994141 4.194097
26.600000 -18.605469 4.194097
26.500000 -18.966797 4.194097
26.400000 -18.578125 4.194097
26.300000 -16.689453 4.194097
26.200000 -16.300781 4.194097
26.100000 -15.162109 4.194097
26.000000 -14.773438 4.194097
25.900000 -15.009766 4.194097
25.800000 -14.371094 4.194097
25.800000 -13.857422 4.194097
25.700000 -12.593750 4.194097
25.600000 -12.080078 4.194097
25.600000 -11.066406 4.194097
25.500000 -10.302734 4.194097
25.500000 -9.664062 4.194097
25.500000 -8.650391 4.194097
25.600000 -9.011719 4.194097
25.600000 -7.998047 4.194097
25.600000 -6.484375 4.194097
25.700000 -6.970703 4.194097
25.800000 -5.832031 4.194097
25.800000 -5.193359 4.194097
25.900000 -5.054688 4.194097
26.000000 -3.916016 4.194097
26.000000 -3.902344 4.194097
26.100000 -2.263672 4.194097
26.100000 -2.000000 4.194097
26.100000 -2.114746 4.194097
26.100000 -1.229492 4.194097
26.200000 -1.094238 4.194097
28.000000 -25.696777 4.338156
27.900000 -25.307617 4.338156
27.800000 -25.293457 4.338156
27.700000 -24.654297 4.338156
27.500000 -23.265137 4.338156
27.400000 -23.125977 4.338156
27.200000 -21.986816 4.338156
27.100000 -21.722656 4.338156
26.900000 -20.708496 4.338156
26.800000 -19.319336 4.338156
26.600000 -18.805176 4.338156
26.600000 -19.166016 4.338156
26.500000 -18.276855 4.338156
26.300000 -17.762695 4.338156
26.200000 -17.248535 4.338156
26.100000 -16.609375 4.338156
26.000000 -15.971680 4.338156
25.900000 -15.083984 4.338156
25.800000 -13.571289 4.338156
25.700000 -12.558594 4.338156
25.700000 -12.670898 4.338156
25.600000 -11.658203 4.338156
25.600000 -11.645508 4.338156
25.500000 -9.882812 4.338156
25.600000 -10.495117 4.338156
25.600000 -9.982422 4.338156
25.500000 -8.969727 4.338156
25.600000 -8.832031 4.338156
25.600000 -7.694336 4.338156
25.700000 -7.681641 4.338156
25.700000 -7.043945 4.338156
25.800000 -6.156250 4.338156
25.900000 -5.643555 4.338156
26.000000 -5.130859 4.338156
26.000000 -3.868164 4.338156
26.100000 -3.980469 4.338156
26.100000 -2.342773 4.338156
26.100000 -2.580078 4.338156
26.200000 -1.067383 4.338156
26.200000 -1.054688 4.338156
28.000000 -26.315430 4.492776
28.000000 -25.050293 4.492776
27.800000 -24.160156 4.492776
27.700000 -23.645020 4.492776
27.500000 -23.504883 4.492776
27.400000 -22.989746 4.492776
27.200000 -22.474609 4.492776
27.100000 -21.709473 4.492776
26.900000 -20.694336 4.492776
26.800000 -19.554199 4.492776
26.700000 -19.789062 4.492776
26.500000 -19.148926 4.492776
26.400000 -17.633789 4.492776
26.300000 -17.118652 4.492776
26.200000 -16.228516 4.492776
26.100000 -15.838379 4.492776
26.000000 -15.198242 4.492776
25.900000 -13.558105 4.492776
25.800000 -14.667969 4.492776
25.800000 -13.152832 4.492776
25.600000 -11.887695 4.492776
25.600000 -11.997559 4.492776
25.500000 -11.482422 4.492776
25.500000 -10.342285 4.492776
25.600000 -9.827148 4.492776
25.600000 -8.187012 4.492776
25.500000 -8.671875 4.492776
25.600000 -8.788086 4.492776
25.700000 -8.029297 4.492776
25.700000 -6.020508 4.492776
25.800000 -6.511719 4.492776
25.900000 -6.002930 4.492776
25.900000 -5.619141 4.492776
26.000000 -3.610352 4.492776
26.100000 -3.726562 4.492776
26.100000 -3.592773 4.492776
26.100000 -1.833984 4.492776
26.100000 -1.075195 4.492776
26.200000 -1.066406 4.492776
26.200000 -1.307617 4.492776
26.300000 -0.673828 4.492776
28.100000 -26.603516 4.632920
28.100000 -25.838867 4.632920
27.900000 -24.949219 4.632920
27.800000 -24.809570 4.632920
27.700000 -24.294922 4.632920
27.600000 -23.405273 4.632920
27.400000 -22.265625 4.632920
27.300000 -22.501465 4.632920
27.100000 -21.737305 4.632920
26.900000 -20.348145 4.632920
26.800000 -20.458984 4.632920
26.700000 -19.444824 4.632920
26.600000 -18.305664 4.632920
26.400000 -17.541504 4.632920
26.300000 -17.777344 4.632920
26.300000 -16.763184 4.632920
26.100000 -15.749023 4.632920
26.000000 -14.734863 4.632920
25.900000 -14.470703 4.632920
25.800000 -12.956543 4.632920
25.800000 -12.692383 4.632920
25.700000 -11.928223 4.632920
25.700000 -10.789062 4.632920
25.600000 -11.774902 4.632920
25.600000 -10.510742 4.632920
25.600000 -8.996582 4.632920
25.600000 -9.357422 4.632920
25.600000 -7.968262 4.632920
25.600000 -7.329102 4.632920
25.700000 -7.689941 4.632920
25.800000 -7.425781 4.632920
25.900000 -5.786621 4.632920
25.900000 -6.022461 4.632920
26.000000 -5.008301 4.632920
26.000000 -3.369141 4.632920
26.100000 -3.604980 4.632920
26.100000 -3.090820 4.632920
26.200000 -2.826660 4.632920
26.200000 -2.312500 4.632920
26.300000 -1.179199 4.632920
26.300000 -1.045898 4.632920
26.300000 -0.662598 4.632920
28.000000 -26.030273 4.775027
28.100000 -25.515625 4.775027
28.000000 -25.250977 4.775027
27.800000 -24.361328 4.775027
27.600000 -23.971680 4.775027
27.500000 -22.957031 4.775027
27.300000 -22.317383 4.775027
27.100000 -21.552734 4.775027
27.000000 -21.163086 4.775027
26.900000 -20.523438 4.775027
26.700000 -18.883789 4.775027
26.600000 -18.369141 4.775027
26.500000 -18.229492 4.775027
26.400000 -18.089844 4.775027
26.300000 -15.950195 4.775027
26.200000 -15.935547 4.775027
26.100000 -16.045898 4.775027
25.900000 -14.531250 4.775027
25.900000 -13.772461 4.775027
25.800000 -13.138672 4.775027
25.700000 -13.254883 4.775027
25.700000 -11.746094 4.775027
25.600000 -11.362305 4.775027
25.500000 -10.103516 4.775027
25.600000 -10.969727 4.775027
25.600000 -9.585938 4.775027
25.600000 -8.577148 4.775027
25.700000 -8.193359 4.775027
25.700000 -7.434570 4.775027
25.700000 -7.800781 4.775027
25.800000 -7.166992 4.775027
25.900000 -5.658203 4.775027
25.900000 -5.524414 4.775027
26.000000 -4.515625 4.775027
26.100000 -4.756836 4.775027
26.200000 -3.998047 4.775027
26.200000 -3.489258 4.775027
26.300000 -2.605469 4.775027
26.300000 -2.096680 4.775027
26.200000 -0.087891 4.775027
26.300000 -0.704102 4.775027
26.300000 -0.195312 4.775027
28.100000 -26.193359 4.916768
28.000000 -24.804199 4.916768
27.800000 -24.790039 4.916768
27.600000 -23.650879 4.916768
27.500000 -22.386719 4.916768
27.300000 -22.247559 4.916768
27.200000 -22.233398 4.916768
27.100000 -21.219238 4.916768
26.900000 -20.705078 4.916768
26.800000 -19.940918 4.916768
26.700000 -19.551758 4.916768
26.600000 -17.787598 4.916768
26.500000 -18.023438 4.916768
26.300000 -17.134277 4.916768
26.200000 -16.620117 4.916768
26.100000 -16.230957 4.916768
26.000000 -15.091797 4.916768
25.900000 -14.202637 4.916768
25.900000 -14.063477 4.916768
25.800000 -12.424316 4.916768
25.800000 -11.410156 4.916768
25.700000 -11.895996 4.916768
25.600000 -11.631836 4.916768
25.600000 -9.992676 4.916768
25.600000 -9.728516 4.916768
25.600000 -8.589355 4.916768
25.700000 -8.325195 4.916768
25.700000 -7.311035 4.916768
25.700000 -7.296875 4.916768
25.800000 -6.538086 4.916768
25.900000 -6.279297 4.916768
26.000000 -5.895508 4.916768
26.000000 -5.261719 4.916768
26.100000 -4.127930 4.916768
26.200000 -3.744141 4.916768
26.200000 -2.735352 4.916768
26.300000 -2.226562 4.916768
26.300000 -1.217773 4.916768
26.300000 -0.333984 4.916768
26.300000 -0.200195 4.916768
28.100000 -26.285156 5.058923
27.900000 -25.144043 5.058923
27.800000 -24.877930 5.058923
27.700000 -23.486816 5.058923
27.600000 -23.095703 5.058923
27.400000 -22.954590 5.058923
27.300000 -22.063477 5.058923
27.100000 -21.047363 5.058923
26.900000 -20.281250 5.058923
26.800000 -20.019043 5.058923
26.700000 -19.631836 5.058923
26.600000 -18.619629 5.058923
26.400000 -17.607422 5.058923
26.300000 -16.720215 5.058923
26.200000 -16.333008 5.058923
26.100000 -15.320801 5.058923
26.000000 -14.933594 5.058923
26.000000 -15.171387 5.058923
25.900000 -13.409180 5.058923
25.800000 -12.646973 5.058923
25.700000 -12.009766 5.058923
25.700000 -11.747559 5.058923
25.600000 -10.360352 5.058923
25.600000 -11.223145 5.058923
25.600000 -10.335938 5.058923
25.600000 -8.948730 5.058923
25.700000 -8.811523 5.058923
25.700000 -7.799316 5.058923
25.800000 -7.787109 5.058923
25.800000 -6.524902 5.058923
25.900000 -5.387695 5.058923
25.900000 -6.250488 5.058923
26.000000 -4.863281 5.058923
26.100000 -4.351074 5.058923
26.200000 -4.213867 5.058923
26.300000 -3.701660 5.058923
26.300000 -2.939453 5.058923
26.300000 -2.427246 5.058923
26.300000 -1.790039 5.058923
26.300000 -0.527832 5.058923
28.200000 -26.294922 5.214763
28.100000 -25.656738 5.214763
27.900000 -25.393555 5.214763
27.800000 -24.380371 5.214763
27.600000 -23.992188 5.214763
27.500000 -22.604004 5.214763
27.300000 -21.465820 5.214763
27.200000 -21.577637 5.214763
27.000000 -20.189453 5.214763
26.800000 -19.926270 5.214763
26.700000 -18.913086 5.214763
26.600000 -19.024902 5.214763
26.500000 -18.511719 5.214763
26.400000 -17.373535 5.214763
26.300000 -17.235352 5.214763
26.200000 -16.097168 5.214763
26.100000 -15.083984 5.214763
26.000000 -14.570801 5.214763
26.000000 -14.557617 5.214763
25.900000 -14.044434 5.214763
25.800000 -12.406250 5.214763
25.700000 -12.521484 5.214763
25.600000 -10.261719 5.214763
25.600000 -10.876953 5.214763
25.600000 -8.222656 5.214763
25.700000 -8.962891 5.214763
25.700000 -8.203125 5.214763
25.800000 -6.443359 5.214763
25.900000 -6.558594 5.214763
26.000000 -6.423828 5.214763
26.100000 -5.414062 5.214763
26.100000 -5.279297 5.214763
26.200000 -4.144531 5.214763
26.200000 -3.259766 5.214763
26.300000 -2.125000 5.214763
26.300000 -2.115234 5.214763
26.300000 -1.855469 5.214763
26.300000 -1.470703 5.214763
28.200000 -26.468750 5.356948
28.100000 -26.081055 5.356948
28.000000 -25.443359 5.356948
27.900000 -24.805664 5.356948
27.700000 -23.917969 5.356948
27.500000 -23.405273 5.356948
27.300000 -22.392578 5.356948
27.200000 -21.004883 5.356948
27.100000 -20.867188 5.356948
26.900000 -20.354492 5.356948
26.800000 -19.591797 5.356948
26.700000 -18.204102 5.356948
26.600000 -17.691406 5.356948
26.500000 -18.178711 5.356948
26.300000 -16.791016 5.356948
26.300000 -16.403320 5.356948
26.200000 -16.265625 5.356948
26.100000 -15.377930 5.356948
26.000000 -14.615234 5.356948
25.900000 -13.602539 5.356948
25.800000 -12.339844 5.356948
25.800000 -12.952148 5.356948
25.700000 -11.564453 5.356948
25.600000 -11.301758 5.356948
25.500000 -10.789062 5.356948
25.600000 -9.901367 5.356948
25.800000 -9.263672 5.356948
25.700000 -8.625977 5.356948
25.800000 -7.863281 5.356948
25.800000 -6.350586 5.356948
25.900000 -6.587891 5.356948
26.000000 -5.950195 5.356948
26.000000 -5.687500 5.356948
26.000000 -4.677734 5.356948
26.100000 -3.792969 5.356948
26.200000 -3.908203 5.356948
26.300000 -2.648438 5.356948
26.300000 -1.888672 5.356948
26.400000 -1.253906 5.356948
26.300000 -1.119141 5.356948
26.300000 -0.224609 5.356948
28.100000 -25.666016 5.496945
27.900000 -25.527344 5.496945
27.800000 -24.388672 5.496945
27.700000 -24.000000 5.496945
27.600000 -23.236328 5.496945
27.400000 -22.347656 5.496945
27.300000 -22.458984 5.496945
27.100000 -21.320312 5.496945
27.000000 -20.181641 5.496945
26.800000 -20.042969 5.496945
26.700000 -18.779297 5.496945
26.600000 -18.515625 5.496945
26.500000 -18.627441 5.496945
26.500000 -17.489258 5.496945
26.300000 -16.226074 5.496945
26.200000 -15.212891 5.496945
26.200000 -15.699707 5.496945
26.100000 -14.186523 5.496945
26.000000 -14.548340 5.496945
25.900000 -12.910156 5.496945
25.800000 -13.021973 5.496945
25.700000 -11.633789 5.496945
25.700000 -11.620605 5.496945
25.600000 -10.357422 5.496945
25.500000 -10.594238 5.496945
25.700000 -9.956055 5.496945
25.800000 -8.067871 5.496945
25.700000 -8.179688 5.496945
25.800000 -7.791504 5.496945
25.900000 -6.028320 5.496945
25.900000 -6.765137 5.496945
26.000000 -5.376953 5.496945
26.100000 -4.863770 5.496945
26.200000 -4.850586 5.496945
26.200000 -3.087402 5.496945
26.300000 -3.699219 5.496945
26.300000 -3.186035 5.496945
26.300000 -1.797852 5.496945
26.400000 -1.534668 5.496945
26.400000 -1.396484 5.496945
26.400000 -0.758301 5.496945
28.200000 -26.665039 5.639163
28.100000 -25.525391 5.639163
28.000000 -25.135742 5.639163
27.900000 -24.871094 5.639163
27.700000 -23.856445 5.639163
27.600000 -22.591797 5.639163
27.400000 -22.827148 5.639163
27.300000 -21.687500 5.639163
27.100000 -21.422852 5.639163
27.000000 -20.408203 5.639163
26.800000 -19.643555 5.639163
26.700000 -19.128906 5.639163
26.600000 -18.614258 5.639163
26.500000 -17.974609 5.639163
26.400000 -17.459961 5.639163
26.300000 -16.945312 5.639163
26.200000 -15.305664 5.639163
26.100000 -15.166016 5.639163
26.000000 -14.526367 5.639163
25.900000 -13.761719 5.639163
25.900000 -13.497070 5.639163
25.800000 -11.482422 5.639163
25.800000 -11.717773 5.639163
25.700000 -10.578125 5.639163
25.500000 -9.818848 5.639163
25.600000 -8.934570 5.639163
25.800000 -8.175293 5.639163
25.800000 -8.416016 5.639163
25.800000 -8.031738 5.639163
25.800000 -7.397461 5.639163
25.900000 -6.388184 5.639163
26.000000 -6.003906 5.639163
26.100000 -5.494629 5.639163
26.200000 -4.235352 5.639163
26.200000 -3.976074 5.639163
26.200000 -2.966797 5.639163
26.200000 -3.082520 5.639163
26.300000 -2.448242 5.639163
26.400000 -1.438965 5.639163
26.300000 -1.554688 5.639163
26.400000 -0.670410 5.639163
28.200000 -26.060547 5.777323
28.100000 -25.795898 5.777323
28.000000 -25.156250 5.777323
27.900000 -24.392578 5.777323
27.700000 -23.378906 5.777323
27.600000 -23.490234 5.777323
27.400000 -22.851562 5.777323
27.200000 -21.212891 5.777323
27.100000 -21.324219 5.777323
26.900000 -20.185547 5.777323
26.800000 -19.046875 5.777323
26.700000 -18.283203 5.777323
26.600000 -17.519531 5.777323
26.500000 -17.880859 5.777323
26.400000 -16.992188 5.777323
26.200000 -15.728516 5.777323
26.100000 -14.964844 5.777323
26.100000 -13.951172 5.777323
26.000000 -13.937500 5.777323
25.900000 -12.673828 5.777323
25.800000 -13.410156 5.777323
25.800000 -12.896484 5.777323
25.800000 -12.132812 5.777323
25.700000 -10.619141 5.777323
25.700000 -8.953125 5.777323
25.800000 -8.564453 5.777323
25.800000 -7.800781 5.777323
25.800000 -6.287109 5.777323
25.900000 -5.773438 5.777323
26.000000 -5.384766 5.777323
26.000000 -4.996094 5.777323
26.100000 -5.107422 5.777323
26.200000 -3.343750 5.777323
26.200000 -2.833496 5.777323
26.200000 -3.323242 5.777323
26.300000 -2.562988 5.777323
26.300000 -1.927734 5.777323
26.400000 -0.292480 5.777323
26.400000 -0.782227 5.777323
28.100000 -25.674805 5.930755
28.000000 -24.660156 5.930755
27.900000 -24.395508 5.930755
27.800000 -24.505859 5.930755
27.600000 -23.366211 5.930755
27.400000 -22.851562 5.930755
27.300000 -21.961914 5.930755
27.100000 -21.572266 5.930755
27.000000 -20.432617 5.930755
26.900000 -20.292969 5.930755
26.800000 -19.403320 5.930755
26.700000 -19.013672 5.930755
26.600000 -17.749023 5.930755
26.400000 -17.484375 5.930755
26.300000 -16.595703 5.930755
26.200000 -15.832031 5.930755
26.200000 -15.443359 5.930755
26.100000 -14.679688 5.930755
26.000000 -13.916016 5.930755
25.900000 -13.277344 5.930755
25.800000 -13.138672 5.930755
25.800000 -11.750000 5.930755
25.800000 -10.986328 5.930755
25.600000 -10.597656 5.930755
25.600000 -9.708984 5.930755
25.800000 -9.445312 5.930755
25.800000 -7.806641 5.930755
25.800000 -7.042969 5.930755
25.800000 -8.154297 5.930755
25.900000 -6.765625 5.930755
26.000000 -6.501953 5.930755
26.100000 -6.238281 5.930755
26.100000 -5.099609 5.930755
26.200000 -4.585938 5.930755
26.200000 -3.447266 5.930755
26.300000 -3.558594 5.930755
26.300000 -2.044922 5.930755
26.400000 -1.656250 5.930755
26.400000 -0.392578 5.930755
26.400000 -1.128906 5.930755
26.400000 -0.115234 5.930755
28.100000 -26.088379 6.072169
28.100000 -25.199219 6.072169
28.000000 -24.435059 6.072169
27.800000 -23.545898 6.072169
27.600000 -23.031738 6.072169
27.500000 -23.142578 6.072169
27.400000 -21.378418 6.072169
27.200000 -20.989258 6.072169
27.100000 -19.975098 6.072169
27.000000 -20.460938 6.072169
26.900000 -19.946777 6.072169
26.800000 -19.307617 6.072169
26.600000 -17.668457 6.072169
26.500000 -17.529297 6.072169
26.400000 -17.140137 6.072169
26.300000 -16.250977 6.072169
26.200000 -15.611816 6.072169
26.100000 -14.847656 6.072169
26.000000 -14.583496 6.072169
25.900000 -13.694336 6.072169
25.900000 -12.930176 6.072169
25.900000 -11.541016 6.072169
25.800000 -12.151855 6.072169
25.600000 -10.262695 6.072169
25.700000 -9.748535 6.072169
25.700000 -9.484375 6.072169
25.800000 -9.099609 6.072169
25.800000 -7.964844 6.072169
25.800000 -8.080078 6.072169
25.900000 -7.570312 6.072169
26.000000 -6.810547 6.072169
26.000000 -5.925781 6.072169
26.100000 -4.291016 6.072169
26.200000 -5.156250 6.072169
26.200000 -3.771484 6.072169
26.300000 -3.886719 6.072169
26.300000 -2.751953 6.072169
26.300000 -1.867188 6.072169
26.400000 -1.857422 6.072169
26.400000 -1.222656 6.072169
26.400000 -0.462891 6.072169
28.100000 -25.750000 6.210887
28.000000 -24.984375 6.210887
28.000000 -24.593750 6.210887
27.900000 -24.078125 6.210887
27.700000 -23.312500 6.210887
27.500000 -23.046875 6.210887
27.400000 -21.535156 6.210887
27.200000 -21.023438 6.210887
27.100000 -20.386719 6.210887
27.000000 -19.375000 6.210887
26.900000 -18.613281 6.210887
26.700000 -18.601562 6.210887
26.600000 -18.339844 6.210887
26.500000 -16.578125 6.210887
26.400000 -16.941406 6.210887
26.400000 -16.179688 6.210887
26.200000 -14.917969 6.210887
26.100000 -14.156250 6.210887
26.000000 -14.144531 6.210887
25.900000 -13.132812 6.210887
25.900000 -13.121094 6.210887
25.900000 -11.984375 6.210887
25.800000 -10.972656 6.210887
25.700000 -10.585938 6.210887
25.700000 -10.574219 6.210887
25.800000 -9.937500 6.210887
25.800000 -8.300781 6.210887
25.800000 -7.914062 6.210887
25.800000 -7.777344 6.210887
25.900000 -7.390625 6.210887
26.000000 -7.003906 6.210887
26.000000 -5.867188 6.210887
26.100000 -4.730469 6.210887
26.200000 -4.843750 6.210887
26.200000 -3.457031 6.210887
26.300000 -2.945312 6.210887
26.300000 -2.808594 6.210887
26.300000 -1.921875 6.210887
26.400000 -1.913086 6.210887
26.400000 -1.279297 6.210887
26.400000 -0.520508 6.210887
28.200000 -26.131348 6.365989
28.100000 -25.992188 6.365989
28.000000 -25.353027 6.365989
27.900000 -24.588867 6.365989
27.800000 -23.199707 6.365989
27.600000 -23.310547 6.365989
27.400000 -22.046387 6.365989
27.300000 -21.282227 6.365989
27.200000 -20.643066 6.365989
27.000000 -20.003906 6.365989
26.900000 -19.239746 6.365989
26.800000 -19.100586 6.365989
26.700000 -18.586426 6.365989
26.600000 -16.822266 6.365989
26.400000 -17.308105 6.365989
26.300000 -16.543945 6.365989
26.200000 -15.779785 6.365989
26.200000 -15.515625 6.365989
26.100000 -13.504395 6.365989
26.000000 -14.118164 6.365989
25.900000 -12.231934 6.365989
25.800000 -12.095703 6.365989
25.800000 -12.459473 6.365989
25.800000 -11.073242 6.365989
25.800000 -10.937012 6.365989
25.700000 -9.550781 6.365989
25.800000 -9.664551 6.365989
25.800000 -9.153320 6.365989
25.800000 -8.142090 6.365989
25.800000 -6.630859 6.365989
25.900000 -6.994629 6.365989
26.000000 -5.233398 6.365989
26.100000 -5.972168 6.365989
26.100000 -5.460938 6.365989
26.200000 -3.824707 6.365989
26.300000 -3.813477 6.365989
26.300000 -2.677246 6.365989
26.300000 -1.666016 6.365989
26.400000 -1.779785 6.365989
26.400000 -0.393555 6.365989
26.500000 -0.007324 6.365989
26.500000 -0.246094 6.365989
28.200000 -26.412109 6.509846
28.200000 -26.523438 6.509846
28.100000 -25.509766 6.509846
28.100000 -25.121094 6.509846
28.000000 -24.107422 6.509846
27.800000 -22.968750 6.509846
27.600000 -23.080078 6.509846
27.400000 -21.691406 6.509846
27.300000 -21.677734 6.509846
27.200000 -20.539062 6.509846
27.100000 -19.525391 6.509846
26.900000 -19.761719 6.509846
26.800000 -19.123047 6.509846
26.700000 -18.734375 6.509846
26.600000 -17.095703 6.509846
26.500000 -16.457031 6.509846
26.400000 -15.943359 6.509846
26.300000 -16.054688 6.509846
26.200000 -14.916016 6.509846
26.000000 -14.652344 6.509846
25.900000 -13.513672 6.509846
25.900000 -13.375000 6.509846
25.900000 -11.486328 6.509846
25.800000 -11.347656 6.509846
25.800000 -10.458984 6.509846
25.800000 -10.820312 6.509846
25.800000 -8.931641 6.509846
25.800000 -9.542969 6.509846
25.800000 -9.029297 6.509846
25.800000 -7.015625 6.509846
25.700000 -7.756836 6.509846
26.500000 -4.462891 6.509846
26.400000 -3.079102 6.509846
26.300000 -2.945312 6.509846
26.400000 -2.186523 6.509846
26.400000 -2.052734 6.509846
26.400000 -0.543945 6.509846
26.500000 -0.410156 6.509846
28.900000 -29.337891 6.646676
28.700000 -28.699219 6.646676
28.500000 -27.685547 6.646676
28.400000 -26.546875 6.646676
28.200000 -25.908203 6.646676
28.100000 -25.894531 6.646676
28.100000 -24.505859 6.646676
28.000000 -24.617188 6.646676
27.800000 -23.853516 6.646676
27.600000 -22.464844 6.646676
27.400000 -21.701172 6.646676
27.300000 -21.187500 6.646676
27.200000 -21.548828 6.646676
27.000000 -20.035156 6.646676
26.900000 -20.021484 6.646676
26.800000 -18.757812 6.646676
26.700000 -18.494141 6.646676
26.600000 -16.730469 6.646676
26.500000 -17.466797 6.646676
26.400000 -16.703125 6.646676
26.300000 -15.564453 6.646676
26.200000 -14.050781 6.646676
26.000000 -13.662109 6.646676
25.900000 -13.398438 6.646676
25.900000 -13.509766 6.646676
25.900000 -12.746094 6.646676
25.800000 -11.857422 6.646676
25.800000 -10.468750 6.646676
25.800000 -10.955078 6.646676
25.800000 -9.191406 6.646676
25.800000 -9.302734 6.646676
25.800000 -8.289062 6.646676
25.800000 -8.525391 6.646676
25.900000 -6.511719 6.646676
26.000000 -5.873047 6.646676
26.000000 -5.359375 6.646676
26.100000 -5.970703 6.646676
26.200000 -4.332031 6.646676
26.300000 -3.568359 6.646676
26.300000 -3.429688 6.646676
26.400000 -3.416016 6.646676
26.400000 -2.527344 6.646676
26.400000 -1.513672 6.646676
26.400000 -0.375000 6.646676
26.500000 -0.492676 6.646676
26.500000 -0.235352 6.646676
29.000000 -29.050781 6.800808
28.700000 -28.162109 6.800808
28.600000 -27.523438 6.800808
28.400000 -26.884766 6.800808
28.200000 -26.496094 6.800808
28.100000 -25.732422 6.800808
28.000000 -24.718750 6.800808
27.900000 -23.955078 6.800808
27.800000 -24.191406 6.800808
27.700000 -23.427734 6.800808
27.500000 -22.664062 6.800808
27.300000 -21.025391 6.800808
27.200000 -21.511719 6.800808
27.000000 -19.873047 6.800808
26.900000 -19.109375 6.800808
26.800000 -19.220703 6.800808
26.700000 -18.957031 6.800808
26.600000 -16.943359 6.800808
26.400000 -16.554688 6.800808
26.300000 -16.666016 6.800808
26.200000 -15.902344 6.800808
26.200000 -15.388672 6.800808
26.100000 -14.250000 6.800808
26.000000 -13.241699 6.800808
25.900000 -13.358398 6.800808
25.800000 -12.600098 6.800808
25.800000 -11.466797 6.800808
25.800000 -11.083496 6.800808
25.700000 -10.450195 6.800808
25.700000 -9.441895 6.800808
25.800000 -9.683594 6.800808
25.800000 -8.800293 6.800808
25.800000 -7.791992 6.800808
25.900000 -7.658691 6.800808
25.900000 -5.775391 6.800808
26.000000 -6.392090 6.800808
26.100000 -5.133789 6.800808
26.100000 -4.500488 6.800808
26.200000 -4.117188 6.800808
26.300000 -4.108887 6.800808
26.300000 -2.975586 6.800808
26.400000 -1.842285 6.800808
26.400000 -1.958984 6.800808
26.400000 -0.575684 6.800808
29.200000 -29.633301 6.942046
29.000000 -29.745117 6.942046
28.800000 -28.981934 6.942046
28.600000 -27.968750 6.942046
28.500000 -27.831055 6.942046
28.300000 -26.193359 6.942046
28.100000 -26.055664 6.942046
28.100000 -25.417969 6.942046
28.000000 -24.905273 6.942046
27.900000 -23.892578 6.942046
27.800000 -23.879883 6.942046
27.600000 -23.117188 6.942046
27.400000 -22.604492 6.942046
27.200000 -21.841797 6.942046
27.100000 -20.329102 6.942046
27.000000 -20.566406 6.942046
26.900000 -18.678711 6.942046
26.700000 -18.791016 6.942046
26.600000 -18.528320 6.942046
26.500000 -17.265625 6.942046
26.500000 -16.627930 6.942046
26.400000 -16.115234 6.942046
26.300000 -15.477539 6.942046
26.100000 -14.839844 6.942046
26.000000 -14.452148 6.942046
25.900000 -13.314453 6.942046
25.900000 -11.801758 6.942046
25.800000 -11.414062 6.942046
25.800000 -11.651367 6.942046
25.800000 -11.388672 6.942046
25.800000 -10.250977 6.942046
25.700000 -9.988281 6.942046
25.800000 -8.225586 6.942046
25.800000 -7.712891 6.942046
25.800000 -8.200195 6.942046
25.900000 -7.187500 6.942046
26.000000 -5.930664 6.942046
26.000000 -5.298828 6.942046
26.100000 -5.791992 6.942046
26.200000 -4.035156 6.942046
26.200000 -3.903320 6.942046
26.300000 -3.771484 6.942046
26.400000 -3.264648 6.942046
26.500000 -2.757812 6.942046
26.500000 -1.875977 6.942046
26.500000 -1.369141 6.942046
26.400000 -0.112305 6.942046
29.000000 -29.318848 7.081764
28.800000 -28.927734 7.081764
28.600000 -27.911621 7.081764
28.400000 -27.770508 7.081764
28.300000 -26.504395 7.081764
28.200000 -25.738281 7.081764
28.100000 -25.097168 7.081764
28.100000 -25.081055 7.081764
27.900000 -24.064941 7.081764
27.800000 -23.173828 7.081764
27.600000 -22.907715 7.081764
27.400000 -22.266602 7.081764
27.300000 -20.750488 7.081764
27.100000 -20.234375 7.081764
27.000000 -19.342773 7.081764
26.800000 -18.951172 7.081764
26.700000 -18.809570 7.081764
26.600000 -18.542969 7.081764
26.500000 -17.151367 7.081764
26.400000 -16.634766 7.081764
26.300000 -16.243164 7.081764
26.200000 -14.351562 7.081764
26.100000 -13.959961 7.081764
26.000000 -14.193359 7.081764
25.900000 -13.301758 7.081764
25.800000 -13.035156 7.081764
25.800000 -12.643555 7.081764
25.800000 -11.751953 7.081764
25.700000 -10.610352 7.081764
25.700000 -10.468750 7.081764
25.800000 -9.702148 7.081764
25.800000 -8.560547 7.081764
25.800000 -7.793945 7.081764
25.800000 -7.402344 7.081764
25.900000 -6.885742 7.081764
26.000000 -6.369141 7.081764
26.100000 -4.977539 7.081764
26.100000 -5.585938 7.081764
26.200000 -4.194336 7.081764
26.200000 -4.052734 7.081764
26.300000 -2.161133 7.081764
26.300000 -2.144531 7.081764
26.400000 -2.127930 7.081764
26.400000 -0.861328 7.081764
26.400000 -1.094727 7.081764
26.400000 -0.328125 7.081764
29.000000 -29.250000 7.237139
28.700000 -28.236328 7.237139
28.600000 -28.097656 7.237139
28.400000 -27.333984 7.237139
28.200000 -26.195312 7.237139
28.100000 -26.181641 7.237139
28.000000 -24.917969 7.237139
28.000000 -24.529297 7.237139
27.900000 -24.015625 7.237139
27.700000 -23.626953 7.237139
27.500000 -22.863281 7.237139
27.300000 -21.724609 7.237139
27.200000 -21.710938 7.237139
27.100000 -20.947266 7.237139
26.900000 -19.058594 7.237139
26.800000 -19.669922 7.237139
26.700000 -18.906250 7.237139
26.600000 -18.017578 7.237139
26.500000 -17.003906 7.237139
26.400000 -16.115234 7.237139
26.200000 -16.226562 7.237139
26.200000 -15.212891 7.237139
26.100000 -14.699219 7.237139
26.000000 -14.435547 7.237139
25.900000 -12.796875 7.237139
25.800000 -12.161621 7.237139
25.800000 -11.526367 7.237139
25.700000 -11.266113 7.237139
25.700000 -10.880859 7.237139
25.700000 -9.495605 7.237139
25.700000 -9.360352 7.237139
25.800000 -8.725098 7.237139
25.800000 -8.589844 7.237139
25.900000 -7.954590 7.237139
25.900000 -6.069336 7.237139
