28.700000 4.791992 10.230998
28.800000 5.847656 10.230998
28.800000 6.778320 10.230998
28.800000 6.458984 10.230998
29.000000 7.014648 10.230998
29.100000 7.820312 10.230998
29.100000 8.750977 10.230998
29.200000 8.806641 10.230998
28.700000 1.718750 10.395999
28.700000 2.023438 10.395999
28.700000 2.078125 10.395999
28.700000 2.757812 10.395999
28.700000 3.687500 10.395999
28.700000 4.117188 10.395999
28.800000 4.421875 10.395999
28.800000 5.101562 10.395999
28.900000 5.656250 10.395999
29.100000 6.210938 10.395999
29.100000 6.390625 10.395999
29.100000 7.570312 10.395999
29.100000 7.625000 10.395999
29.100000 8.054688 10.395999
29.100000 9.109375 10.395999
28.800000 2.173828 10.566999
28.800000 2.355469 10.566999
28.800000 2.287109 10.566999
28.800000 3.843750 10.566999
28.800000 3.525391 10.566999
28.800000 4.707031 10.566999
29.000000 4.638672 10.566999
29.100000 5.445312 10.566999
29.100000 6.126953 10.566999
29.100000 6.933594 10.566999
29.100000 6.990234 10.566999
29.100000 7.921875 10.566999
29.100000 8.353516 10.566999
29.200000 8.285156 10.566999
28.800000 1.416016 10.732000
28.800000 1.847656 10.732000
28.700000 2.779297 10.732000
28.800000 2.710938 10.732000
28.900000 3.642578 10.732000
28.900000 4.574219 10.732000
28.900000 4.380859 10.732000
28.900000 5.187500 10.732000
29.000000 5.494141 10.732000
29.100000 6.175781 10.732000
29.100000 7.357422 10.732000
29.100000 7.164062 10.732000
29.100000 7.720703 10.732000
29.100000 8.777344 10.732000
29.200000 8.833984 10.732000
28.700000 1.593750 10.893999
28.700000 2.023438 10.893999
28.800000 3.203125 10.893999
28.800000 2.882812 10.893999
28.800000 3.437500 10.893999
28.800000 4.367188 10.893999
28.800000 5.296875 10.893999
29.000000 5.726562 10.893999
29.100000 5.531250 10.893999
29.100000 6.460938 10.893999
29.100000 7.390625 10.893999
29.100000 7.320312 10.893999
29.100000 8.500000 10.893999
29.200000 8.679688 10.893999
28.800000 1.301270 11.058000
28.700000 1.857422 11.058000
28.700000 3.288574 11.058000
28.800000 2.844727 11.058000
28.800000 3.400879 11.058000
28.800000 4.207031 11.058000
28.800000 5.013184 11.058000
28.800000 5.194336 11.058000
28.900000 6.375488 11.058000
28.900000 6.306641 11.058000
29.000000 6.987793 11.058000
29.100000 7.293945 11.058000
29.100000 8.100098 11.058000
29.100000 8.781250 11.058000
28.700000 1.265625 11.222000
28.700000 2.070312 11.222000
28.700000 2.750000 11.222000
28.700000 3.304688 11.222000
28.700000 3.859375 11.222000
28.800000 4.039062 11.222000
28.800000 4.843750 11.222000
28.800000 4.773438 11.222000
28.800000 6.203125 11.222000
28.800000 6.756836 11.222000
28.900000 6.685547 11.222000
29.000000 6.989258 11.222000
29.000000 7.792969 11.222000
29.100000 8.721680 11.222000
29.100000 8.525391 11.222000
28.400000 1.453125 11.387000
28.400000 1.511719 11.387000
28.500000 2.195312 11.387000
28.600000 2.253906 11.387000
28.600000 3.312500 11.387000
28.600000 3.615234 11.387000
28.600000 4.417969 11.387000
28.600000 4.720703 11.387000
28.600000 5.148438 11.387000
28.700000 5.451172 11.387000
28.700000 6.253906 11.387000
28.700000 6.931641 11.387000
28.700000 7.484375 11.387000
28.800000 8.037109 11.387000
28.900000 8.339844 11.387000
29.000000 9.267578 11.387000
29.200000 9.695312 11.387000
28.300000 1.616699 11.549000
28.300000 2.045898 11.549000
28.300000 2.600098 11.549000
28.300000 3.029297 11.549000
28.300000 4.083496 11.549000
28.300000 3.762695 11.549000
28.300000 4.316895 11.549000
28.300000 5.746094 11.549000
28.300000 5.925293 11.549000
28.400000 6.229492 11.549000
28.400000 7.158691 11.549000
28.400000 7.212891 11.549000
28.400000 7.392090 11.549000
28.400000 8.571289 11.549000
28.500000 8.750488 11.549000
28.700000 9.179687 11.549000
29.200000 9.858887 11.549000
27.800000 1.149902 11.714999
28.000000 1.635254 11.714999
28.000000 2.690430 11.714999
28.000000 2.995605 11.714999
28.000000 3.800781 11.714999
28.000000 3.855957 11.714999
28.000000 4.661133 11.714999
28.000000 5.466309 11.714999
28.100000 5.896484 11.714999
28.200000 6.076660 11.714999
28.200000 6.381836 11.714999
28.200000 7.687012 11.714999
28.200000 7.492188 11.714999
28.300000 7.922363 11.714999
28.300000 9.102539 11.714999
28.300000 9.532715 11.714999
28.600000 9.462891 11.714999
27.800000 1.189941 11.885000
27.800000 2.552246 11.885000
27.800000 3.108398 11.885000
27.900000 3.914551 11.885000
27.900000 3.470703 11.885000
27.900000 4.901855 11.885000
27.900000 5.333008 11.885000
28.000000 5.889160 11.885000
28.000000 6.445312 11.885000
28.000000 6.126465 11.885000
28.100000 6.807617 11.885000
28.100000 8.238770 11.885000
28.200000 8.419922 11.885000
28.200000 9.226074 11.885000
28.300000 9.782227 11.885000
28.500000 9.838379 11.885000
28.100000 1.294922 12.049999
28.100000 1.851563 12.049999
28.100000 2.658203 12.049999
28.100000 3.339844 12.049999
28.100000 3.396484 12.049999
28.100000 4.078125 12.049999
28.200000 4.634766 12.049999
28.300000 5.691406 12.049999
28.300000 5.498047 12.049999
28.300000 6.804688 12.049999
28.300000 7.111328 12.049999
28.400000 7.917969 12.049999
28.400000 7.974609 12.049999
28.400000 9.031250 12.049999
28.500000 8.962891 12.049999
28.400000 1.839355 12.212999
28.400000 2.773438 12.212999
28.400000 3.207520 12.212999
28.500000 3.266602 12.212999
28.600000 4.200684 12.212999
28.600000 4.384766 12.212999
28.600000 5.568848 12.212999
28.600000 5.502930 12.212999
28.700000 6.187012 12.212999
28.700000 6.996094 12.212999
28.700000 7.055176 12.212999
28.800000 7.864258 12.212999
28.800000 8.798340 12.212999
28.900000 8.982422 12.212999
28.700000 1.324219 12.377000
28.700000 1.632812 12.377000
28.600000 2.941406 12.377000
28.600000 3.250000 12.377000
28.700000 3.433594 12.377000
28.700000 4.492188 12.377000
28.700000 4.675781 12.377000
28.700000 4.859375 12.377000
28.800000 5.917969 12.377000
28.800000 6.726562 12.377000
28.800000 6.910156 12.377000
28.900000 7.718750 12.377000
29.000000 8.027344 12.377000
29.100000 8.460938 12.377000
29.100000 8.769531 12.377000
29.300000 9.328125 12.377000
28.800000 1.387207 12.541999
28.800000 1.944336 12.541999
28.800000 2.626465 12.541999
28.800000 3.308594 12.541999
28.800000 3.615723 12.541999
28.800000 4.422852 12.541999
28.800000 4.479980 12.541999
28.800000 5.412109 12.541999
28.900000 6.094238 12.541999
29.100000 6.151367 12.541999
29.100000 6.708496 12.541999
29.100000 7.890625 12.541999
29.100000 8.572754 12.541999
29.100000 8.879883 12.541999
29.200000 9.187012 12.541999
28.800000 1.888672 12.704999
28.900000 1.824219 12.704999
29.100000 2.384766 12.704999
28.900000 3.820312 12.704999
28.900000 4.005859 12.704999
29.100000 4.691406 12.704999
29.100000 4.626953 12.704999
29.100000 5.562500 12.704999
29.100000 5.995605 12.704999
29.100000 6.803711 12.704999
29.100000 7.236816 12.704999
29.100000 7.669922 12.704999
29.200000 8.228027 12.704999
29.200000 8.661133 12.704999
29.100000 1.435547 12.869999
29.100000 2.119629 12.869999
29.100000 1.928711 12.869999
29.100000 3.112793 12.869999
29.100000 3.671875 12.869999
29.100000 3.603027 12.869999
29.100000 4.159180 12.869999
29.100000 5.340332 12.869999
29.100000 5.271484 12.869999
29.200000 6.077637 12.869999
29.200000 7.258789 12.869999
29.200000 6.939941 12.869999
29.300000 7.996094 12.869999
29.400000 8.427246 12.869999
29.400000 9.108398 12.869999
29.700000 9.164551 12.869999
29.100000 1.296875 13.031998
29.000000 1.725098 13.031998
28.900000 2.653320 13.031998
29.100000 2.706543 13.031998
29.100000 3.509766 13.031998
29.100000 3.312988 13.031998
29.200000 4.366211 13.031998
29.300000 4.919434 13.031998
29.300000 5.347656 13.031998
29.400000 5.775879 13.031998
29.400000 6.954102 13.031998
29.400000 6.757324 13.031998
29.400000 7.435547 13.031998
29.400000 8.488770 13.031998
29.500000 8.541992 13.031998
29.700000 9.345215 13.031998
29.100000 1.650391 13.203000
29.200000 2.078613 13.203000
29.400000 1.756836 13.203000
29.400000 3.060059 13.203000
29.400000 2.988281 13.203000
29.400000 3.666504 13.203000
29.400000 4.469727 13.203000
29.300000 5.022949 13.203000
29.300000 5.076172 13.203000
29.400000 5.879395 13.203000
29.400000 6.432617 13.203000
29.400000 7.485840 13.203000
29.400000 7.789063 13.203000
29.400000 7.967285 13.203000
29.400000 8.520508 13.203000
29.700000 9.198730 13.203000
29.100000 1.289062 13.367000
29.100000 1.842773 13.367000
29.100000 2.396484 13.367000
29.100000 2.575195 13.367000
29.200000 3.253906 13.367000
29.200000 3.807617 13.367000
29.100000 3.861328 13.367000
29.200000 4.540039 13.367000
29.200000 5.843750 13.367000
29.300000 5.522461 13.367000
29.400000 6.326172 13.367000
29.400000 6.504883 13.367000
29.400000 7.058594 13.367000
29.400000 8.362305 13.367000
29.500000 8.791016 13.367000
29.700000 8.844727 13.367000
29.100000 1.376465 13.531999
29.100000 2.555664 13.531999
29.200000 2.359863 13.531999
29.200000 3.039062 13.531999
29.200000 4.218262 13.531999
29.200000 4.147461 13.531999
29.200000 5.076660 13.531999
29.300000 5.255859 13.531999
29.400000 6.185059 13.531999
29.300000 6.239258 13.531999
29.300000 6.793457 13.531999
29.400000 7.847656 13.531999
29.400000 8.651855 13.531999
29.500000 8.581055 13.531999
29.100000 1.093750 13.695999
29.100000 1.898438 13.695999
29.100000 1.953125 13.695999
29.100000 3.257812 13.695999
29.100000 3.812500 13.695999
29.100000 4.492188 13.695999
29.100000 4.171875 13.695999
29.100000 4.851562 13.695999
29.200000 5.906250 13.695999
29.200000 5.960938 13.695999
29.300000 7.015625 13.695999
29.400000 7.195313 13.695999
29.400000 7.750000 13.695999
29.400000 8.554688 13.695999
29.500000 9.234375 13.695999
29.800000 9.539062 13.695999
29.100000 1.166016 13.861000
29.100000 1.350098 13.861000
29.100000 1.909180 13.861000
29.100000 2.843262 13.861000
29.100000 2.902344 13.861000
29.100000 3.586426 13.861000
29.200000 4.895508 13.861000
29.100000 4.954590 13.861000
29.200000 5.263672 13.861000
29.200000 6.697754 13.861000
29.200000 6.506836 13.861000
29.200000 7.440918 13.861000
29.200000 7.750000 13.861000
29.300000 8.683105 13.861000
29.400000 8.741211 13.861000
29.100000 1.595215 14.023999
29.100000 1.780273 14.023999
29.100000 2.840332 14.023999
29.100000 3.025391 14.023999
29.100000 3.460449 14.023999
29.100000 4.270508 14.023999
29.100000 4.580566 14.023999
29.100000 5.640625 14.023999
29.100000 6.198730 14.023999
29.200000 6.631836 14.023999
29.200000 6.939941 14.023999
29.200000 7.748047 14.023999
29.200000 8.181152 14.023999
29.300000 8.364258 14.023999
29.000000 1.179688 14.186999
29.000000 2.115234 14.186999
29.000000 2.550781 14.186999
29.100000 3.111328 14.186999
29.000000 3.671875 14.186999
29.000000 4.100586 14.186999
29.000000 4.404297 14.186999
29.000000 4.833008 14.186999
29.100000 5.636719 14.186999
29.100000 6.315430 14.186999
29.100000 6.119141 14.186999
29.100000 6.797852 14.186999
29.100000 7.601562 14.186999
29.100000 8.530273 14.186999
29.300000 8.333984 14.186999
28.600000 1.341797 14.348999
28.700000 1.645508 14.348999
28.700000 2.449219 14.348999
28.700000 3.752930 14.348999
28.700000 3.681641 14.348999
28.700000 3.985352 14.348999
28.800000 4.664062 14.348999
28.800000 5.592773 14.348999
28.900000 5.896484 14.348999
29.100000 6.325195 14.348999
29.100000 7.003906 14.348999
29.100000 7.182617 14.348999
29.000000 8.236328 14.348999
29.100000 8.540039 14.348999
29.100000 9.218750 14.348999
28.300000 1.562988 14.524999
28.300000 1.741211 14.524999
28.400000 1.669434 14.524999
28.400000 2.847656 14.524999
28.400000 2.775879 14.524999
28.400000 3.454102 14.524999
28.400000 3.757324 14.524999
28.400000 5.060547 14.524999
28.400000 5.238770 14.524999
28.400000 5.916992 14.524999
28.400000 6.970215 14.524999
28.500000 7.273438 14.524999
28.600000 7.201660 14.524999
28.700000 8.254883 14.524999
28.700000 8.433105 14.524999
28.900000 8.986328 14.524999
29.100000 9.289551 14.524999
28.200000 1.889648 14.686999
28.200000 1.818359 14.686999
28.200000 2.372070 14.686999
28.200000 2.800781 14.686999
28.200000 3.854492 14.686999
28.200000 3.783203 14.686999
28.300000 5.336914 14.686999
28.300000 5.515625 14.686999
28.300000 6.194336 14.686999
28.300000 6.498047 14.686999
28.300000 7.176758 14.686999
28.400000 7.355469 14.686999
28.400000 8.284180 14.686999
28.400000 9.087891 14.686999
28.500000 9.141602 14.686999
28.700000 9.570312 14.686999
28.300000 1.764160 14.850000
28.300000 2.569336 14.850000
28.400000 2.999512 14.850000
28.400000 3.179688 14.850000
28.400000 4.234863 14.850000
28.400000 4.165039 14.850000
28.500000 4.970215 14.850000
28.600000 5.900391 14.850000
28.600000 6.205566 14.850000
28.700000 7.010742 14.850000
28.700000 6.940918 14.850000
28.700000 8.121094 14.850000
28.700000 8.801270 14.850000
28.800000 8.606445 14.850000
28.700000 1.768555 15.013999
28.700000 1.700684 15.013999
28.700000 2.382812 15.013999
28.700000 3.439941 15.013999
28.700000 3.872070 15.013999
28.700000 4.679199 15.013999
28.700000 4.611328 15.013999
28.800000 4.793457 15.013999
28.800000 5.475586 15.013999
28.800000 6.782715 15.013999
28.800000 6.714844 15.013999
29.000000 7.021973 15.013999
29.100000 7.704102 15.013999
29.100000 8.886230 15.013999
29.100000 8.943359 15.013999
29.400000 9.125488 15.013999
28.800000 1.585937 15.177000
28.800000 2.645020 15.177000
28.800000 2.454102 15.177000
28.900000 3.013184 15.177000
28.800000 3.572266 15.177000
28.800000 4.631348 15.177000
28.900000 4.690430 15.177000
29.100000 5.499512 15.177000
29.100000 6.433594 15.177000
29.100000 6.867676 15.177000
29.100000 6.926758 15.177000
29.100000 7.235840 15.177000
29.200000 7.919922 15.177000
29.200000 8.229004 15.177000
29.000000 2.060059 15.341000
29.000000 2.369141 15.341000
29.100000 3.053223 15.341000
29.100000 3.987305 15.341000
29.100000 3.796387 15.341000
29.100000 4.980469 15.341000
29.100000 5.289551 15.341000
29.100000 6.348633 15.341000
29.100000 6.532715 15.341000
29.200000 7.091797 15.341000
29.300000 7.650879 15.341000
29.400000 7.834961 15.341000
29.400000 8.769043 15.341000
29.500000 9.328125 15.341000
29.100000 1.285156 15.506000
29.100000 2.094727 15.506000
29.100000 2.529297 15.506000
29.100000 3.088867 15.506000
29.100000 2.773438 15.506000
29.200000 3.458008 15.506000
29.200000 4.517578 15.506000
29.200000 5.327148 15.506000
29.300000 5.636719 15.506000
29.400000 5.696289 15.506000
29.400000 6.255859 15.506000
29.400000 7.440430 15.506000
29.400000 7.625000 15.506000
29.500000 8.684082 15.506000
29.500000 8.868164 15.506000
29.700000 8.927246 15.506000
29.100000 1.243164 15.667999
29.200000 1.929687 15.667999
29.300000 1.866211 15.667999
29.300000 3.177734 15.667999
29.400000 3.239258 15.667999
29.400000 3.925781 15.667999
29.400000 4.362305 15.667999
29.400000 4.923828 15.667999
29.400000 5.860352 15.667999
29.400000 6.046875 15.667999
29.400000 6.606445 15.667999
29.400000 7.541016 15.667999
29.400000 7.975586 15.667999
29.500000 8.035156 15.667999
29.500000 8.594727 15.667999
29.700000 8.904297 15.667999
29.400000 1.708008 15.832000
29.400000 1.769531 15.832000
29.400000 2.831055 15.832000
29.400000 3.267578 15.832000
29.400000 3.829102 15.832000
29.400000 3.890625 15.832000
29.400000 4.449219 15.832000
29.400000 6.007812 15.832000
29.400000 5.566406 15.832000
29.400000 6.625000 15.832000
29.500000 7.433594 15.832000
29.500000 7.992188 15.832000
29.500000 8.425781 15.832000
29.600000 9.234375 15.832000
29.400000 1.412109 15.996999
29.400000 1.472656 15.996999
29.400000 2.533203 15.996999
29.400000 3.093750 15.996999
29.400000 3.523926 15.996999
29.400000 3.704102 15.996999
29.400000 4.759277 15.996999
29.400000 5.439453 15.996999
29.400000 5.244629 15.996999
29.400000 6.174805 15.996999
29.500000 6.354980 15.996999
29.600000 7.160156 15.996999
29.500000 7.840332 15.996999
29.600000 7.895508 15.996999
29.600000 8.575684 15.996999
29.400000 1.752930 16.160999
29.400000 2.309082 16.160999
29.400000 3.240234 16.160999
29.400000 3.296387 16.160999
29.400000 3.602539 16.160999
29.400000 4.408691 16.160999
29.400000 4.589844 16.160999
29.400000 5.895996 16.160999
29.500000 5.827148 16.160999
29.500000 6.258301 16.160999
29.500000 7.314453 16.160999
29.500000 7.245605 16.160999
29.600000 8.301758 16.160999
29.600000 8.982910 16.160999
29.400000 1.518555 16.332000
29.400000 1.823730 16.332000
29.400000 3.128906 16.332000
29.400000 3.559082 16.332000
29.400000 4.239258 16.332000
29.400000 4.169434 16.332000
29.400000 5.224609 16.332000
29.400000 5.904785 16.332000
29.500000 6.334961 16.332000
29.500000 6.265137 16.332000
29.500000 7.445312 16.332000
29.500000 7.625488 16.332000
29.600000 8.180664 16.332000
29.600000 8.860840 16.332000
29.400000 1.492187 16.495999
29.400000 2.046875 16.495999
29.400000 2.226562 16.495999
29.400000 3.281250 16.495999
29.400000 3.335938 16.495999
29.400000 3.765625 16.495999
29.400000 4.945312 16.495999
29.400000 5.625000 16.495999
29.400000 6.054688 16.495999
29.500000 6.484375 16.495999
29.500000 6.789062 16.495999
29.500000 6.968750 16.495999
29.600000 7.898438 16.495999
29.600000 8.078125 16.495999
29.800000 9.132812 16.495999
30.100000 9.062500 16.495999
29.300000 1.188965 16.658998
29.200000 1.868164 16.658998
29.300000 2.297363 16.658998
29.300000 2.726562 16.658998
29.300000 3.155762 16.658998
29.400000 4.084961 16.658998
29.400000 5.014160 16.658998
29.400000 5.068359 16.658998
29.400000 5.872559 16.658998
29.400000 6.676758 16.658998
29.500000 6.980957 16.658998
29.500000 7.285156 16.658998
29.500000 8.214355 16.658998
29.500000 8.268555 16.658998
29.700000 8.822754 16.658998
30.200000 9.251953 16.658998
29.200000 1.429688 16.824000
29.200000 1.986816 16.824000
29.200000 2.918945 16.824000
29.200000 2.851074 16.824000
29.200000 3.283203 16.824000
29.200000 3.965332 16.824000
29.200000 5.022461 16.824000
29.200000 5.704590 16.824000
29.200000 6.136719 16.824000
29.200000 6.943848 16.824000
29.300000 6.875977 16.824000
29.400000 7.433105 16.824000
29.500000 7.740234 16.824000
29.500000 8.547363 16.824000
29.100000 1.168945 16.987999
29.100000 2.101074 16.987999
29.100000 1.908203 16.987999
29.100000 3.215332 16.987999
29.100000 2.897461 16.987999
29.100000 3.829590 16.987999
29.200000 4.261719 16.987999
29.200000 4.943848 16.987999
29.200000 5.750977 16.987999
29.200000 5.683105 16.987999
29.200000 7.115234 16.987999
29.200000 7.547363 16.987999
29.200000 8.229492 16.987999
29.300000 8.536621 16.987999
29.300000 8.718750 16.987999
28.900000 1.459961 17.151000
29.000000 2.017090 17.151000
29.000000 2.949219 17.151000
29.000000 2.756348 17.151000
29.000000 3.313477 17.151000
29.000000 4.370605 17.151000
29.000000 4.552734 17.151000
29.100000 5.234863 17.151000
29.100000 5.541992 17.151000
29.100000 6.849121 17.151000
29.100000 6.906250 17.151000
29.100000 7.837891 17.151000
29.100000 7.769531 17.151000
29.200000 8.451172 17.151000
29.300000 9.507812 17.151000
28.500000 1.693359 17.313999
28.500000 2.379883 17.313999
28.600000 2.191406 17.313999
28.600000 2.627930 17.313999
28.600000 3.314453 17.313999
28.700000 3.875977 17.313999
28.800000 4.812500 17.313999
28.800000 4.746582 17.313999
28.800000 6.180664 17.313999
28.800000 5.864746 17.313999
28.900000 6.923828 17.313999
28.900000 7.482910 17.313999
29.000000 8.041992 17.313999
29.000000 9.101074 17.313999
29.100000 8.535156 17.313999
28.300000 1.442383 17.478000
28.300000 1.877441 17.478000
28.300000 2.812500 17.478000
28.300000 3.368652 17.478000
28.300000 4.049805 17.478000
28.300000 4.105957 17.478000
28.300000 5.287109 17.478000
28.400000 5.093262 17.478000
28.400000 5.899414 17.478000
28.400000 5.955566 17.478000
28.400000 6.761719 17.478000
28.500000 7.192871 17.478000
28.500000 8.249023 17.478000
28.500000 8.305176 17.478000
28.600000 8.736328 17.478000
28.100000 1.181152 17.641000
28.100000 2.043457 17.641000
28.000000 2.224609 17.641000
28.100000 2.530762 17.641000
28.100000 4.211914 17.641000
28.100000 4.143066 17.641000
28.200000 4.199219 17.641000
28.200000 5.505371 17.641000
28.200000 5.686523 17.641000
28.300000 5.992676 17.641000
28.300000 6.548828 17.641000
28.300000 7.229980 17.641000
28.300000 7.661133 17.641000
28.400000 8.717285 17.641000
28.400000 9.273438 17.641000
28.300000 2.056641 17.813999
28.300000 1.610352 17.813999
28.300000 2.414063 17.813999
28.300000 3.592773 17.813999
28.300000 4.021484 17.813999
28.300000 4.075195 17.813999
28.300000 4.878906 17.813999
28.300000 5.307617 17.813999
28.400000 6.361328 17.813999
28.400000 6.165039 17.813999
28.400000 7.593750 17.813999
28.400000 7.647461 17.813999
28.500000 7.701172 17.813999
28.700000 8.129883 17.813999
28.700000 9.058594 17.813999
28.600000 1.708984 17.977998
28.600000 1.762695 17.977998
28.600000 2.566406 17.977998
28.600000 3.370117 17.977998
28.600000 3.798828 17.977998
28.900000 6.692383 17.977998
28.800000 6.746094 17.977998
28.800000 6.799805 17.977998
28.800000 7.478516 17.977998
28.800000 8.032227 17.977998
28.800000 8.585938 17.977998
28.900000 9.014648 17.977998
29.400000 9.693359 17.977998
28.700000 1.484863 18.141999
28.700000 1.914063 18.141999
28.700000 2.968262 18.141999
28.700000 3.147461 18.141999
28.700000 3.451660 18.141999
28.700000 4.005859 18.141999
28.800000 5.185059 18.141999
28.800000 4.864258 18.141999
28.800000 6.043457 18.141999
28.800000 6.097656 18.141999
28.900000 7.026855 18.141999
29.000000 7.081055 18.141999
29.100000 8.260254 18.141999
29.100000 8.314453 18.141999
29.100000 9.243652 18.141999
28.700000 1.135742 18.305000
28.800000 1.623047 18.305000
28.800000 2.804199 18.305000
28.800000 3.235352 18.305000
28.700000 4.041504 18.305000
28.700000 4.597656 18.305000
28.800000 4.778809 18.305000
28.900000 4.834961 18.305000
29.100000 5.641113 18.305000
29.100000 5.822266 18.305000
29.100000 6.753418 18.305000
29.100000 7.809570 18.305000
29.100000 8.115723 18.305000
29.100000 8.546875 18.305000
29.100000 9.101562 18.305000
29.400000 9.156250 18.305000
28.700000 1.380859 18.469999
28.800000 1.937500 18.469999
28.800000 1.869141 18.469999
28.900000 2.675781 18.469999
28.800000 3.107422 18.469999
28.800000 3.289062 18.469999
29.000000 3.970703 18.469999
29.000000 4.902344 18.469999
29.000000 5.583984 18.469999
29.100000 5.640625 18.469999
29.100000 6.321289 18.469999
29.100000 7.376953 18.469999
29.100000 7.557617 18.469999
29.200000 7.863281 18.469999
29.200000 8.293945 18.469999
28.800000 1.155273 18.633998
28.800000 1.339844 18.633998
28.800000 1.774414 18.633998
28.900000 3.083984 18.633998
29.100000 2.893555 18.633998
29.000000 3.578125 18.633998
28.900000 4.010254 18.633998
29.000000 4.817383 18.633998
29.100000 5.499512 18.633998
29.100000 5.681641 18.633998
29.100000 6.363770 18.633998
29.300000 6.795898 18.633998
29.300000 7.728027 18.633998
29.200000 8.410156 18.633998
29.300000 8.217285 18.633998
28.800000 1.719238 18.796999
28.800000 2.281250 18.796999
28.800000 2.834961 18.796999
28.800000 2.638672 18.796999
28.900000 3.692383 18.796999
29.000000 4.621094 18.796999
29.100000 4.674805 18.796999
29.200000 5.228516 18.796999
29.300000 6.032227 18.796999
29.300000 6.085937 18.796999
29.400000 6.639648 18.796999
29.400000 7.693359 18.796999
29.400000 8.372070 18.796999
29.400000 8.175781 18.796999
29.400000 9.479492 18.796999
29.600000 9.408203 18.796999
28.900000 1.458008 18.960999
28.900000 1.265137 18.960999
29.000000 1.572266 18.960999
29.200000 2.129395 18.960999
29.200000 2.686523 18.960999
29.100000 3.243652 18.960999
29.100000 4.175781 18.960999
29.200000 4.357910 18.960999
29.300000 5.290039 18.960999
29.300000 6.097168 18.960999
29.300000 6.529297 18.960999
29.200000 7.336426 18.960999
29.100000 7.518555 18.960999
29.200000 7.950684 18.960999
29.400000 8.382812 18.960999
29.400000 9.564941 18.960999
29.700000 9.497070 18.960999
29.000000 1.145508 19.131000
29.100000 1.703613 19.131000
29.100000 2.011719 19.131000
29.000000 2.569824 19.131000
29.000000 2.752930 19.131000
29.100000 3.436035 19.131000
29.100000 3.744141 19.131000
29.100000 5.052246 19.131000
29.100000 5.610352 19.131000
29.200000 5.668457 19.131000
29.300000 5.851562 19.131000
29.400000 6.534668 19.131000
29.400000 7.842773 19.131000
29.300000 7.900879 19.131000
29.300000 8.958984 19.131000
29.400000 8.892090 19.131000
28.900000 1.343750 19.297999
28.800000 1.273438 19.297999
28.800000 1.828125 19.297999
28.900000 2.382812 19.297999
29.000000 2.812500 19.297999
29.000000 3.867188 19.297999
29.100000 4.671875 19.297999
29.100000 4.476562 19.297999
29.100000 5.156250 19.297999
29.100000 5.960938 19.297999
29.100000 6.390625 19.297999
29.200000 6.695312 19.297999
29.200000 7.250000 19.297999
29.200000 8.179688 19.297999
29.200000 8.109375 19.297999
28.800000 1.162109 19.461999
28.800000 1.593750 19.461999
28.800000 2.025391 19.461999
28.800000 3.082031 19.461999
28.900000 3.638672 19.461999
28.900000 4.320312 19.461999
29.000000 3.876953 19.461999
29.100000 5.058594 19.461999
29.100000 5.615234 19.461999
29.100000 5.921875 19.461999
29.100000 6.853516 19.461999
29.100000 6.910156 19.461999
29.200000 7.466797 19.461999
29.200000 8.148438 19.461999
29.200000 8.830078 19.461999
28.800000 1.826172 19.622999
28.800000 2.632324 19.622999
28.800000 3.063477 19.622999
28.800000 3.744629 19.622999
28.800000 3.675781 19.622999
28.800000 4.481934 19.622999
28.800000 4.663086 19.622999
29.000000 5.969238 19.622999
29.100000 6.525391 19.622999
29.100000 6.706543 19.622999
29.100000 6.762695 19.622999
29.200000 7.318848 19.622999
29.200000 7.875000 19.622999
29.100000 9.054688 19.622999
29.200000 8.984375 19.622999
28.700000 1.978516 19.788998
28.700000 2.285156 19.788998
28.700000 2.466797 19.788998
28.700000 3.648437 19.788998
28.700000 3.580078 19.788998
28.800000 4.886719 19.788998
28.800000 4.818359 19.788998
28.800000 5.625000 19.788998
28.800000 5.679688 19.788998
28.800000 6.734375 19.788998
28.900000 7.039063 19.788998
29.000000 7.593750 19.788998
29.100000 7.898438 19.788998
29.100000 9.203125 19.788998
29.200000 9.507812 19.788998
29.400000 9.687500 19.788998
28.400000 2.397461 19.949999
28.400000 2.956543 19.949999
28.500000 3.265625 19.949999
28.500000 3.442383 19.949999
28.500000 4.119141 19.949999
28.600000 4.295898 19.949999
28.600000 5.222656 19.949999
28.600000 6.149414 19.949999
28.500000 5.951172 19.949999
28.500000 7.377930 19.949999
28.700000 8.054688 19.949999
28.700000 7.856445 19.949999
28.700000 8.533203 19.949999
28.800000 9.334961 19.949999
28.000000 2.224121 20.114999
28.000000 2.151367 20.114999
28.000000 3.078613 20.114999
28.000000 3.630859 20.114999
28.100000 3.433105 20.114999
28.100000 4.735352 20.114999
28.200000 5.037598 20.114999
28.200000 5.714844 20.114999
28.200000 5.892090 20.114999
28.300000 6.444336 20.114999
28.300000 7.121582 20.114999
28.300000 7.298828 20.114999
28.300000 7.976074 20.114999
28.300000 8.778320 20.114999
28.400000 9.205566 20.114999
27.700000 2.065430 20.287000
27.700000 2.244141 20.287000
27.800000 2.172852 20.287000
27.800000 2.976562 20.287000
27.800000 4.030273 20.287000
27.800000 4.583984 20.287000
27.800000 4.887695 20.287000
27.800000 5.691406 20.287000
27.800000 6.245117 20.287000
27.900000 6.798828 20.287000
27.900000 6.977539 20.287000
27.900000 8.031250 20.287000
28.000000 7.834961 20.287000
28.100000 9.138672 20.287000
28.100000 9.317383 20.287000
28.000000 1.804687 20.449999
28.000000 1.734375 20.449999
28.000000 2.789062 20.449999
28.000000 2.843750 20.449999
28.000000 3.898438 20.449999
28.000000 4.328125 20.449999
28.000000 5.132812 20.449999
28.000000 5.187500 20.449999
28.000000 6.492188 20.449999
28.000000 6.171875 20.449999
28.000000 7.351563 20.449999
28.000000 7.406250 20.449999
28.100000 7.960937 20.449999
28.200000 8.890625 20.449999
28.300000 9.195312 20.449999
28.000000 2.336426 20.615000
28.000000 1.893555 20.615000
28.000000 3.200684 20.615000
28.000000 3.007812 20.615000
28.200000 4.497070 20.615000
28.400000 6.168457 20.615000
28.500000 6.350586 20.615000
28.600000 7.532715 20.615000
28.600000 7.339844 20.615000
28.600000 8.521973 20.615000
28.600000 8.704102 20.615000
28.800000 9.261230 20.615000
28.500000 2.051270 20.777999
28.400000 2.735352 20.777999
28.400000 2.919434 20.777999
28.500000 3.603516 20.777999
28.600000 4.412598 20.777999
28.600000 4.846680 20.777999
28.600000 5.530762 20.777999
28.700000 5.339844 20.777999
28.700000 5.898926 20.777999
28.700000 6.958008 20.777999
28.700000 6.767090 20.777999
28.700000 7.701172 20.777999
28.700000 8.760254 20.777999
28.800000 8.944336 20.777999
28.900000 9.503418 20.777999
28.700000 1.506836 20.940998
28.700000 1.939453 20.940998
28.700000 2.497070 20.940998
28.700000 3.554687 20.940998
28.700000 4.237305 20.940998
28.700000 3.919922 20.940998
28.700000 4.977539 20.940998
28.700000 5.535156 20.940998
28.700000 6.217773 20.940998
28.700000 6.025391 20.940998
28.800000 6.583008 20.940998
28.800000 8.015625 20.940998
28.800000 8.321777 20.940998
28.800000 9.252930 20.940998
29.000000 9.559082 20.940998
28.700000 1.218262 21.105000
28.700000 1.901367 21.105000
28.700000 2.584473 21.105000
28.700000 3.267578 21.105000
28.700000 3.200684 21.105000
28.800000 3.883789 21.105000
28.800000 4.191895 21.105000
28.800000 5.250000 21.105000
28.700000 5.431152 21.105000
28.700000 6.237305 21.105000
28.800000 6.543457 21.105000
28.800000 7.349609 21.105000
29.000000 7.530762 21.105000
29.100000 8.711914 21.105000
29.100000 9.143066 21.105000
28.800000 1.599609 21.269999
28.800000 1.909180 21.269999
28.700000 2.843750 21.269999
28.700000 3.520996 21.269999
28.700000 4.323242 21.269999
28.700000 4.000488 21.269999
28.700000 5.302734 21.269999
28.700000 5.979980 21.269999
28.900000 5.907227 21.269999
29.100000 6.584473 21.269999
29.100000 7.261719 21.269999
29.100000 8.063965 21.269999
29.100000 8.116211 21.269999
29.100000 8.418457 21.269999
28.700000 1.481445 21.433999
28.700000 2.659668 21.433999
28.700000 3.337891 21.433999
28.700000 3.016113 21.433999
28.800000 3.569336 21.433999
28.800000 4.122559 21.433999
28.800000 5.425781 21.433999
28.800000 5.854004 21.433999
28.800000 5.907227 21.433999
28.900000 6.835449 21.433999
29.000000 7.138672 21.433999
29.100000 7.816895 21.433999
29.100000 8.245117 21.433999
29.200000 8.923340 21.433999
28.800000 1.394531 21.605000
28.800000 2.447266 21.605000
28.700000 2.750000 21.605000
28.700000 3.802734 21.605000
28.700000 3.355469 21.605000
28.800000 3.908203 21.605000
28.900000 5.335938 21.605000
28.900000 5.138672 21.605000
29.000000 5.941406 21.605000
29.100000 6.994141 21.605000
29.100000 6.671875 21.605000
29.100000 7.724609 21.605000
29.100000 8.027344 21.605000
29.200000 9.080078 21.605000
28.700000 1.359375 21.768999
28.700000 2.164062 21.768999
28.800000 2.093750 21.768999
28.800000 3.273438 21.768999
28.700000 3.328125 21.768999
28.800000 4.757812 21.768999
29.000000 5.187500 21.768999
29.100000 4.867187 21.768999
29.100000 5.546875 21.768999
29.100000 6.226562 21.768999
29.100000 7.281250 21.768999
29.100000 7.460938 21.768999
29.100000 8.265625 21.768999
29.100000 8.820312 21.768999
29.200000 8.875000 21.768999
28.700000 1.383301 21.932000
28.800000 1.690430 21.932000
28.700000 1.872559 21.932000
28.700000 2.804687 21.932000
28.700000 3.361816 21.932000
28.800000 3.668945 21.932000
28.800000 4.601074 21.932000
28.900000 5.158203 21.932000
29.100000 5.715332 21.932000
29.100000 6.522461 21.932000
29.100000 6.579590 21.932000
29.100000 6.761719 21.932000
29.100000 7.318848 21.932000
29.100000 7.750977 21.932000
29.200000 9.183105 21.932000
28.700000 1.268066 22.096999
28.700000 1.825195 22.096999
28.700000 1.757324 22.096999
28.700000 2.814453 22.096999
28.700000 2.871582 22.096999
28.700000 3.803711 22.096999
28.800000 4.110840 22.096999
28.800000 4.917969 22.096999
28.800000 5.225098 22.096999
29.000000 5.657227 22.096999
29.000000 6.464355 22.096999
29.000000 6.396484 22.096999
29.100000 7.328613 22.096999
29.100000 8.135742 22.096999
29.100000 8.817871 22.096999
29.200000 8.875000 22.096999
29.500000 9.556641 22.096999
28.700000 1.221680 22.260999
28.700000 1.905762 22.260999
28.700000 3.089844 22.260999
28.700000 3.273926 22.260999
28.700000 3.458008 22.260999
28.800000 4.267090 22.260999
28.800000 5.326172 22.260999
28.800000 5.510254 22.260999
28.800000 5.694336 22.260999
29.000000 7.003418 22.260999
29.100000 7.687500 22.260999
29.100000 7.996582 22.260999
29.100000 7.930664 22.260999
29.100000 9.114746 22.260999
29.600000 9.732910 22.260999
28.500000 1.476563 22.423000
28.500000 1.538086 22.423000
28.600000 2.349609 22.423000
28.600000 3.036133 22.423000
28.700000 3.472656 22.423000
28.700000 4.159180 22.423000
28.700000 4.470703 22.423000
28.700000 4.657227 22.423000
28.700000 5.343750 22.423000
28.700000 6.652344 22.423000
28.700000 6.460938 22.423000
28.800000 7.519531 22.423000
28.900000 8.078125 22.423000
29.000000 8.386719 22.423000
29.000000 9.070312 22.423000
29.100000 9.628906 22.423000
29.500000 9.812500 22.423000
28.300000 1.587891 22.588000
28.300000 2.147949 22.588000
28.300000 2.583008 22.588000
28.300000 2.643066 22.588000
28.400000 3.578125 22.588000
28.400000 3.760742 22.588000
28.400000 4.693359 22.588000
28.400000 5.000977 22.588000
28.400000 5.308594 22.588000
28.500000 6.116211 22.588000
28.500000 6.548828 22.588000
28.400000 7.731445 22.588000
28.400000 8.414063 22.588000
28.500000 8.596680 22.588000
28.700000 9.529297 22.588000
29.000000 9.836914 22.588000
29.300000 9.894531 22.588000
28.000000 1.548828 22.754999
28.000000 2.234375 22.754999
28.000000 3.040039 22.754999
28.000000 2.970703 22.754999
28.100000 3.526367 22.754999
28.100000 4.332031 22.754999
28.100000 4.262695 22.754999
28.100000 5.943359 22.754999
28.200000 5.749023 22.754999
28.300000 6.429688 22.754999
28.300000 6.610352 22.754999
28.300000 7.916016 22.754999
28.300000 8.346680 22.754999
28.300000 8.652344 22.754999
28.400000 8.708008 22.754999
28.600000 9.263672 22.754999
27.700000 1.366699 22.916000
27.700000 2.350098 22.916000
27.700000 3.154297 22.916000
27.700000 3.583496 22.916000
27.800000 3.512695 22.916000
27.800000 4.566895 22.916000
27.800000 4.621094 22.916000
27.900000 5.925293 22.916000
27.900000 5.729492 22.916000
28.000000 6.033691 22.916000
28.000000 6.962891 22.916000
28.000000 8.142090 22.916000
28.100000 7.696289 22.916000
28.100000 8.250488 22.916000
28.200000 9.054688 22.916000
28.000000 2.127930 23.085998
28.000000 2.683105 23.085998
28.000000 2.738281 23.085998
28.000000 3.418457 23.085998
28.000000 4.098633 23.085998
28.000000 4.403809 23.085998
28.100000 5.583984 23.085998
28.200000 5.889160 23.085998
28.300000 6.569336 23.085998
28.300000 7.124512 23.085998
28.300000 6.804688 23.085998
28.300000 7.609863 23.085998
28.300000 8.165039 23.085998
28.400000 8.720215 23.085998
28.500000 9.525391 23.085998
28.800000 9.330566 23.085998
28.300000 1.132812 23.252000
28.300000 1.186523 23.252000
28.300000 1.740234 23.252000
28.300000 2.793945 23.252000
28.300000 2.597656 23.252000
28.300000 3.401367 23.252000
28.400000 4.080078 23.252000
28.500000 4.258789 23.252000
28.600000 4.937500 23.252000
28.600000 6.116211 23.252000
28.600000 6.794922 23.252000
28.600000 6.348633 23.252000
28.600000 7.652344 23.252000
28.700000 8.456055 23.252000
28.700000 8.884766 23.252000
28.800000 9.438477 23.252000
28.600000 1.720703 23.415999
28.600000 2.399414 23.415999
28.600000 2.703125 23.415999
28.700000 3.381836 23.415999
28.700000 4.310547 23.415999
28.700000 4.614258 23.415999
28.700000 5.292969 23.415999
28.700000 5.596680 23.415999
28.800000 5.900391 23.415999
28.800000 6.704102 23.415999
28.900000 7.882812 23.415999
29.000000 8.311523 23.415999
29.000000 8.365234 23.415999
29.100000 9.293945 23.415999
28.800000 1.110840 23.580999
28.800000 1.541992 23.580999
28.700000 2.098145 23.580999
28.700000 2.779297 23.580999
28.700000 4.085449 23.580999
28.700000 4.391602 23.580999
28.700000 4.947754 23.580999
28.700000 5.628906 23.580999
28.800000 5.560059 23.580999
28.900000 6.366211 23.580999
29.100000 6.797363 23.580999
29.100000 7.728516 23.580999
29.100000 8.159668 23.580999
29.000000 8.340820 23.580999
29.100000 8.646973 23.580999
28.800000 1.361328 23.741999
28.800000 1.668457 23.741999
28.800000 2.850586 23.741999
28.800000 2.782715 23.741999
29.000000 2.964844 23.741999
29.000000 4.271973 23.741999
28.900000 4.954102 23.741999
29.000000 5.511230 23.741999
29.100000 5.568359 23.741999
29.100000 5.875488 23.741999
29.100000 6.557617 23.741999
29.100000 7.614746 23.741999
29.100000 7.921875 23.741999
29.200000 7.979004 23.741999
29.200000 9.286133 23.741999
29.100000 1.437500 23.906999
29.100000 2.371094 23.906999
29.100000 2.179687 23.906999
29.100000 2.863281 23.906999
29.100000 3.796875 23.906999
29.100000 4.480469 23.906999
29.100000 4.289062 23.906999
29.100000 5.222656 23.906999
29.100000 5.406250 23.906999
29.200000 6.338867 23.906999
29.200000 7.271484 23.906999
29.200000 7.079102 23.906999
29.300000 7.886719 23.906999
29.400000 8.819336 23.906999
29.400000 8.876953 23.906999
29.100000 1.223633 24.070000
29.100000 1.410156 24.070000
29.000000 2.471680 24.070000
29.000000 2.283203 24.070000
29.100000 2.969727 24.070000
29.100000 3.781250 24.070000
29.100000 3.840820 24.070000
29.100000 5.275391 24.070000
29.200000 5.084961 24.070000
29.200000 5.769531 24.070000
29.200000 6.704102 24.070000
29.400000 6.763672 24.070000
29.400000 7.698242 24.070000
29.400000 8.507812 24.070000
29.500000 8.692383 24.070000
29.700000 8.876953 24.070000
29.000000 1.129883 24.236999
29.100000 1.439941 24.236999
29.100000 2.125000 24.236999
29.100000 2.557129 24.236999
29.300000 2.489258 24.236999
29.400000 2.921387 24.236999
29.400000 3.978516 24.236999
29.400000 4.535645 24.236999
29.400000 5.342773 24.236999
29.400000 5.149902 24.236999
29.400000 5.832031 24.236999
29.400000 6.889160 24.236999
29.400000 7.071289 24.236999
29.500000 7.878418 24.236999
29.500000 8.810547 24.236999
29.500000 8.742676 24.236999
29.800000 9.549805 24.236999
29.100000 1.388672 24.398000
29.100000 1.820312 24.398000
29.100000 1.876953 24.398000
29.100000 2.558594 24.398000
29.100000 3.240234 24.398000
29.100000 3.921875 24.398000
29.200000 3.853516 24.398000
29.200000 4.910156 24.398000
29.200000 5.466797 24.398000
29.400000 5.648438 24.398000
29.400000 6.080078 24.398000
29.400000 6.761719 24.398000
29.400000 7.443359 24.398000
29.400000 8.000000 24.398000
29.500000 8.931641 24.398000
29.700000 8.863281 24.398000
29.100000 1.515625 24.569999
29.100000 1.945312 24.569999
29.100000 3.375000 24.569999
29.100000 3.179688 24.569999
29.100000 3.984375 24.569999
29.200000 4.414062 24.569999
29.300000 4.843750 24.569999
29.400000 5.773438 24.569999
29.400000 5.953125 24.569999
29.400000 7.257813 24.569999
29.400000 7.687500 24.569999
29.400000 8.117188 24.569999
29.500000 8.421875 24.569999
29.100000 2.179687 24.733999
29.100000 2.107422 24.733999
29.100000 3.285156 24.733999
29.100000 3.587891 24.733999
29.100000 3.765625 24.733999
29.100000 5.068359 24.733999
29.200000 4.746094 24.733999
29.300000 5.298828 24.733999
29.300000 6.226562 24.733999
29.300000 6.654297 24.733999
29.400000 6.957031 24.733999
29.400000 7.759766 24.733999
29.500000 8.812500 24.733999
29.100000 1.429688 24.897000
29.100000 2.234863 24.897000
29.100000 2.290039 24.897000
29.100000 2.720215 24.897000
29.100000 3.900391 24.897000
29.100000 3.830566 24.897000
29.200000 4.635742 24.897000
29.200000 4.940918 24.897000
29.200000 5.996094 24.897000
29.300000 5.926270 24.897000
29.300000 6.981445 24.897000
29.300000 8.036621 24.897000
29.300000 7.841797 24.897000
29.300000 8.646973 24.897000
29.100000 1.650391 25.059998
29.100000 2.455566 25.059998
29.100000 2.885742 25.059998
29.100000 3.315918 25.059998
29.100000 3.246094 25.059998
29.100000 4.426270 25.059998
29.100000 5.231445 25.059998
29.100000 5.411621 25.059998
29.200000 6.341797 25.059998
29.200000 6.771973 25.059998
29.200000 6.952148 25.059998
29.200000 8.007324 25.059998
29.200000 8.187500 25.059998
29.200000 8.242676 25.059998
29.100000 1.122070 25.225000
29.100000 2.054688 25.225000
29.100000 2.487305 25.225000
29.100000 3.044922 25.225000
29.100000 3.227539 25.225000
29.100000 3.785156 25.225000
29.100000 4.967773 25.225000
29.100000 4.900391 25.225000
29.100000 6.208008 25.225000
29.100000 6.265625 25.225000
29.200000 6.446289 25.225000
29.100000 7.501953 25.225000
29.100000 7.932617 25.225000
29.200000 8.738281 25.225000
29.300000 9.043945 25.225000
28.700000 1.705078 25.389000
28.800000 1.638184 25.389000
28.900000 3.071289 25.389000
28.800000 3.504395 25.389000
28.800000 3.812500 25.389000
28.800000 4.493652 25.389000
28.900000 4.799805 25.389000
29.000000 5.730957 25.389000
29.000000 5.662109 25.389000
29.000000 6.593262 25.389000
29.000000 7.149414 25.389000
29.000000 7.705566 25.389000
29.100000 8.261719 25.389000
29.100000 8.692871 25.389000
28.300000 1.297852 25.552999
28.400000 1.859375 25.552999
28.400000 1.663574 25.552999
28.400000 2.092773 25.552999
28.400000 3.396973 25.552999
28.400000 3.201172 25.552999
28.400000 3.880371 25.552999
28.500000 4.809570 25.552999
28.600000 5.488770 25.552999
28.600000 5.667969 25.552999
28.700000 6.597168 25.552999
28.700000 6.901367 25.552999
28.700000 7.080566 25.552999
28.800000 8.509766 25.552999
28.800000 8.438965 25.552999
28.900000 8.993164 25.552999
29.100000 9.672363 25.552999
28.200000 1.692383 25.723000
28.200000 2.500488 25.723000
28.200000 3.558594 25.723000
28.200000 3.616699 25.723000
28.200000 4.549805 25.723000
28.300000 4.482910 25.723000
28.300000 5.416016 25.723000
28.300000 5.974121 25.723000
28.300000 6.032227 25.723000
28.300000 6.840332 25.723000
28.400000 7.898438 25.723000
28.400000 7.581543 25.723000
28.400000 8.764648 25.723000
28.500000 8.947754 25.723000
28.700000 9.505859 25.723000
28.300000 1.915039 25.887999
28.300000 2.097168 25.887999
28.300000 2.904297 25.887999
28.300000 3.211426 25.887999
28.300000 3.518555 25.887999
28.300000 4.700684 25.887999
28.300000 4.632813 25.887999
28.300000 5.814941 25.887999
28.400000 6.122070 25.887999
28.500000 6.929199 25.887999
28.600000 6.986328 25.887999
28.600000 7.793457 25.887999
28.600000 8.350586 25.887999
28.700000 8.407715 25.887999
28.900000 9.089844 25.887999
28.600000 1.624023 26.051000
28.600000 2.056641 26.051000
28.600000 1.989258 26.051000
28.700000 2.546875 26.051000
28.700000 3.604492 26.051000
28.700000 3.662109 26.051000
28.700000 4.344727 26.051000
28.700000 5.402344 26.051000
28.700000 6.084961 26.051000
28.700000 6.767578 26.051000
28.800000 6.700195 26.051000
28.800000 7.882812 26.051000
28.900000 7.940430 26.051000
29.100000 8.498047 26.051000
29.100000 8.680664 26.051000
28.800000 1.453125 26.215001
28.800000 1.759766 26.215001
28.800000 1.941406 26.215001
28.800000 2.623047 26.215001
28.800000 3.054687 26.215001
28.800000 3.736328 26.215001
28.800000 3.792969 26.215001
28.800000 4.599609 26.215001
28.900000 5.781250 26.215001
29.000000 5.962891 26.215001
29.000000 6.019531 26.215001
29.100000 6.576172 26.215001
29.100000 7.257812 26.215001
29.200000 8.064453 26.215001
29.200000 9.121094 26.215001
29.100000 1.136719 26.378998
29.100000 1.569336 26.378998
29.100000 2.626953 26.378998
29.100000 2.684570 26.378998
29.100000 3.617188 26.378998
29.100000 4.174805 26.378998
29.100000 4.857422 26.378998
29.100000 5.415039 26.378998
29.000000 5.972656 26.378998
29.100000 6.405273 26.378998
29.100000 7.212891 26.378998
29.200000 7.270508 26.378998
29.400000 8.328125 26.378998
29.400000 8.884277 26.378998
29.000000 1.142578 26.542999
29.100000 1.825195 26.542999
29.100000 1.882813 26.542999
29.100000 2.440430 26.542999
29.100000 3.248047 26.542999
29.100000 3.805664 26.542999
29.100000 3.988281 26.542999
29.100000 4.545898 26.542999
29.200000 4.978516 26.542999
29.400000 5.911133 26.542999
29.400000 6.093750 26.542999
29.400000 7.024902 26.542999
29.400000 7.706055 26.542999
29.400000 7.887207 26.542999
29.500000 9.068359 26.542999
29.200000 1.294922 26.705999
29.300000 1.851563 26.705999
29.300000 3.158203 26.705999
29.200000 3.714844 26.705999
29.300000 4.146484 26.705999
29.400000 4.703125 26.705999
29.400000 4.758301 26.705999
29.400000 5.063477 26.705999
29.500000 5.743652 26.705999
29.500000 6.298828 26.705999
29.500000 7.479004 26.705999
29.500000 7.659180 26.705999
29.500000 8.589355 26.705999
29.600000 9.019531 26.705999
29.200000 1.143555 26.868999
29.400000 1.955078 26.868999
29.400000 2.516602 26.868999
29.400000 2.703125 26.868999
29.400000 3.132324 26.868999
29.400000 4.186523 26.868999
29.400000 3.990723 26.868999
29.400000 4.669922 26.868999
29.400000 5.724121 26.868999
29.500000 5.903320 26.868999
29.500000 6.457520 26.868999
29.500000 7.511719 26.868999
29.500000 8.065918 26.868999
29.500000 8.495117 26.868999
29.600000 9.174316 26.868999
29.800000 8.853516 26.868999
29.400000 2.086426 27.033998
29.400000 2.641602 27.033998
29.400000 3.321777 27.033998
29.400000 4.001953 27.033998
29.400000 3.807129 27.033998
29.500000 4.737305 27.033998
29.500000 4.792480 27.033998
29.500000 5.472656 27.033998
29.500000 6.527832 27.033998
29.500000 6.458008 27.033998
29.600000 7.888184 27.033998
29.600000 8.068359 27.033998
29.600000 8.373535 27.033998
29.800000 8.803711 27.033998
29.400000 1.693359 27.197999
29.400000 2.624512 27.197999
29.400000 2.555664 27.197999
29.500000 3.111816 27.197999
29.400000 4.417969 27.197999
29.400000 4.974121 27.197999
29.500000 4.655273 27.197999
29.500000 5.461426 27.197999
29.500000 5.892578 27.197999
29.500000 6.823730 27.197999
29.500000 7.504883 27.197999
29.500000 7.936035 27.197999
29.500000 8.367188 27.197999
29.700000 8.923340 27.197999
29.300000 1.199219 27.362000
29.400000 1.257813 27.362000
29.400000 2.066406 27.362000
29.400000 2.875000 27.362000
29.400000 3.308594 27.362000
29.400000 3.492188 27.362000
29.400000 4.175781 27.362000
29.400000 5.234375 27.362000
29.400000 5.417969 27.362000
29.500000 5.976563 27.362000
29.500000 6.410156 27.362000
29.500000 7.593750 27.362000
29.500000 7.277344 27.362000
29.500000 8.210938 27.362000
29.600000 9.019531 27.362000
29.900000 8.953125 27.362000
29.400000 1.101562 27.532999
29.400000 1.536133 27.532999
29.400000 2.970703 27.532999
29.400000 2.780273 27.532999
29.400000 3.464844 27.532999
29.400000 4.274414 27.532999
29.400000 4.208984 27.532999
29.500000 5.143555 27.532999
29.500000 6.203125 27.532999
29.500000 6.762695 27.532999
29.500000 6.572266 27.532999
29.600000 7.881836 27.532999
29.600000 8.316406 27.532999
29.600000 8.250977 27.532999
29.800000 8.810547 27.532999
30.200000 9.245117 27.532999
29.400000 1.724609 27.698001
29.400000 2.533691 27.698001
29.400000 3.342773 27.698001
29.400000 3.276855 27.698001
29.400000 4.335938 27.698001
29.300000 5.270020 27.698001
29.300000 4.829102 27.698001
29.500000 5.638184 27.698001
29.500000 6.322266 27.698001
29.500000 7.131348 27.698001
29.500000 7.565430 27.698001
29.500000 8.249512 27.698001
29.500000 8.808594 27.698001
29.700000 9.117676 27.698001
30.200000 9.426758 27.698001
29.200000 1.999023 27.860998
29.200000 2.683105 27.860998
29.200000 3.117188 27.860998
29.200000 3.551270 27.860998
29.200000 3.610352 27.860998
29.200000 3.919434 27.860998
29.200000 4.728516 27.860998
29.200000 5.537598 27.860998
29.200000 5.846680 27.860998
29.400000 6.780762 27.860998
29.500000 7.589844 27.860998
29.500000 7.398926 27.860998
29.500000 8.083008 27.860998
29.500000 8.517090 27.860998
29.800000 9.326172 27.860998
29.100000 1.947266 28.023999
29.100000 2.378906 28.023999
29.100000 3.060547 28.023999
29.100000 3.242188 28.023999
29.200000 4.298828 28.023999
29.200000 4.480469 28.023999
29.200000 4.662109 28.023999
29.200000 5.468750 28.023999
29.200000 5.525391 28.023999
29.200000 6.707031 28.023999
29.200000 6.888672 28.023999
29.200000 7.695313 28.023999
29.300000 8.001953 28.023999
29.300000 8.433594 28.023999
29.000000 1.597656 28.188999
29.000000 1.406250 28.188999
29.100000 2.089844 28.188999
29.100000 2.773438 28.188999
29.100000 3.832031 28.188999
29.100000 4.140625 28.188999
29.100000 4.449219 28.188999
29.100000 5.507813 28.188999
29.100000 5.316406 28.188999
29.100000 5.750000 28.188999
29.100000 6.558594 28.188999
29.200000 7.367188 28.188999
29.200000 7.675781 28.188999
29.200000 8.234375 28.188999
29.300000 8.916016 28.188999
28.700000 2.376953 28.351999
28.700000 2.934570 28.351999
28.700000 3.117188 28.351999
