48.925000 -39.156250 0.039999
47.825000 -37.843750 0.039999
46.700000 -36.578125 0.039999
46.225000 -35.843750 0.039999
46.150000 -34.484375 0.039999
44.275000 -31.234375 0.039999
43.950000 -30.234375 0.039999
44.075000 -29.093750 0.039999
48.875000 -39.062500 0.214001
47.925000 -38.093750 0.214001
45.775000 -35.578125 0.214001
45.775000 -34.781250 0.214001
44.025000 -30.171875 0.214001
44.025000 -29.218750 0.214001
47.925000 -37.921875 0.381001
46.275000 -35.781250 0.381001
46.375000 -34.546875 0.381001
44.025000 -30.281250 0.381001
44.075000 -29.031250 0.381001
48.825000 -39.265625 0.550000
48.200000 -38.250000 0.550000
48.300000 -37.312500 0.550000
46.350000 -35.156250 0.550000
46.350000 -33.937500 0.550000
46.800000 -32.890625 0.550000
44.225000 -30.312500 0.550000
44.050000 -29.515625 0.550000
44.675000 -28.609375 0.550000
48.950000 -39.015625 0.724001
48.175000 -38.140625 0.724001
46.425000 -35.859375 0.724001
46.250000 -34.546875 0.724001
45.875000 -33.468750 0.724001
45.425000 -32.343750 0.724001
44.875000 -31.265625 0.724001
44.150000 -30.312500 0.724001
44.100000 -29.062500 0.724001
49.125000 -39.796875 0.898000
48.475000 -38.625000 0.898000
48.500000 -37.484375 0.898000
46.375000 -35.140625 0.898000
46.325000 -34.187500 0.898000
46.325000 -33.218750 0.898000
44.425000 -30.703125 0.898000
44.175000 -29.812500 0.898000
44.475000 -28.562500 0.898000
49.250000 -39.015625 1.070001
48.150000 -37.953125 1.070001
47.100000 -36.781250 1.070001
46.225000 -35.484375 1.070001
46.200000 -34.406250 1.070001
46.425000 -33.578125 1.070001
44.550000 -31.093750 1.070001
44.200000 -30.125000 1.070001
44.200000 -28.781250 1.070001
49.225000 -38.984375 1.240001
48.300000 -37.750000 1.240001
46.225000 -35.359375 1.240001
46.225000 -34.609375 1.240001
46.450000 -33.546875 1.240001
44.525000 -31.093750 1.240001
44.175000 -29.921875 1.240001
44.325000 -28.953125 1.240001
49.425000 -39.703125 1.413001
48.950000 -38.578125 1.413001
48.400000 -37.500000 1.413001
46.050000 -35.218750 1.413001
46.025000 -34.312500 1.413001
46.650000 -33.359375 1.413001
44.450000 -31.093750 1.413001
44.175000 -29.656250 1.413001
44.325000 -28.671875 1.413001
49.025000 -38.984375 1.588001
48.325000 -37.781250 1.588001
47.400000 -36.625000 1.588001
46.350000 -35.500000 1.588001
46.200000 -34.390625 1.588001
46.675000 -33.531250 1.588001
44.525000 -31.171875 1.588001
44.175000 -29.796875 1.588001
44.300000 -29.046875 1.588001
49.175000 -38.640625 1.758001
48.400000 -37.562500 1.758001
46.550000 -35.093750 1.758001
46.525000 -34.296875 1.758001
46.300000 -33.171875 1.758001
44.425000 -30.687500 1.758001
44.175000 -29.656250 1.758001
44.475000 -28.484375 1.758001
49.175000 -38.656250 1.928000
48.375000 -37.406250 1.928000
46.725000 -35.171875 1.928000
46.675000 -34.265625 1.928000
44.775000 -31.906250 1.928000
44.400000 -30.531250 1.928000
44.150000 -29.515625 1.928000
44.575000 -28.593750 1.928000
49.375000 -39.250000 2.099034
48.575000 -38.218750 2.099034
48.275000 -36.953125 2.099034
47.450000 -35.968750 2.099034
46.675000 -34.765625 2.099034
46.600000 -33.640625 2.099034
44.575000 -31.562500 2.099034
44.350000 -30.156250 2.099034
49.275000 -38.703125 2.271000
48.500000 -37.546875 2.271000
47.950000 -36.390625 2.271000
47.250000 -35.328125 2.271000
46.825000 -34.234375 2.271000
46.175000 -33.187500 2.271000
45.050000 -31.890625 2.271000
44.450000 -31.109375 2.271000
44.200000 -30.046875 2.271000
44.350000 -29.000000 2.271000
49.250000 -38.750000 2.447001
48.475000 -37.734375 2.447001
47.850000 -36.468750 2.447001
47.125000 -35.281250 2.447001
46.825000 -34.171875 2.447001
44.800000 -32.109375 2.447001
44.425000 -30.953125 2.447001
44.200000 -29.890625 2.447001
44.475000 -28.906250 2.447001
48.375000 -37.312500 2.620001
47.575000 -36.171875 2.620001
46.775000 -35.062500 2.620001
46.725000 -33.906250 2.620001
44.750000 -31.875000 2.620001
44.400000 -30.718750 2.620001
44.175000 -29.687500 2.620001
44.700000 -28.750000 2.620001
48.350000 -37.359375 2.786001
47.575000 -36.281250 2.786001
46.775000 -35.187500 2.786001
46.725000 -34.093750 2.786001
44.750000 -31.640625 2.786001
44.400000 -30.859375 2.786001
44.175000 -29.718750 2.786001
44.675000 -28.781250 2.786001
48.500000 -37.328125 2.955000
47.750000 -36.203125 2.955000
47.050000 -35.062500 2.955000
46.775000 -33.921875 2.955000
44.725000 -31.687500 2.955000
44.375000 -30.796875 2.955000
44.175000 -29.406250 2.955000
44.700000 -28.375000 2.955000
48.375000 -37.671875 3.136001
48.050000 -36.437500 3.136001
47.450000 -35.312500 3.136001
46.800000 -34.125000 3.136001
44.725000 -31.937500 3.136001
44.375000 -30.906250 3.136001
44.200000 -29.796875 3.136001
44.675000 -28.765625 3.136001
49.450000 -39.281250 3.298000
48.825000 -38.125000 3.298000
48.150000 -37.046875 3.298000
47.350000 -36.093750 3.298000
46.925000 -35.078125 3.298000
46.700000 -33.937500 3.298000
44.550000 -31.500000 3.298000
44.275000 -30.375000 3.298000
44.175000 -29.218750 3.298000
49.500000 -39.562500 3.471001
48.975000 -38.421875 3.471001
46.825000 -36.156250 3.471001
46.725000 -35.125000 3.471001
46.500000 -33.781250 3.471001
44.650000 -31.453125 3.471001
44.300000 -30.453125 3.471001
44.175000 -29.453125 3.471001
49.200000 -39.000000 3.644001
48.525000 -38.218750 3.644001
46.775000 -35.953125 3.644001
46.925000 -34.843750 3.644001
46.625000 -33.437500 3.644001
44.500000 -31.343750 3.644001
44.175000 -30.234375 3.644001
44.225000 -29.156250 3.644001
46.775000 -36.453125 3.827000
46.275000 -35.328125 3.827000
46.350000 -34.625000 3.827000
46.625000 -33.390625 3.827000
44.400000 -31.015625 3.827000
44.200000 -29.937500 3.827000
44.425000 -29.109375 3.827000
49.425000 -39.718750 3.992001
48.875000 -38.718750 3.992001
47.075000 -36.375000 3.992001
46.225000 -34.453125 3.992001
46.625000 -33.187500 3.992001
44.325000 -30.828125 3.992001
44.225000 -29.984375 3.992001
44.575000 -28.843750 3.992001
49.475000 -39.968750 4.160000
49.050000 -39.109375 4.160000
46.775000 -36.625000 4.160000
46.275000 -35.437500 4.160000
46.100000 -34.375000 4.160000
46.375000 -33.390625 4.160000
44.400000 -31.093750 4.160000
44.125000 -30.031250 4.160000
44.325000 -29.000000 4.160000
49.025000 -39.031250 4.329001
46.750000 -36.890625 4.329001
46.100000 -35.578125 4.329001
45.925000 -34.578125 4.329001
46.300000 -33.500000 4.329001
44.475000 -31.359375 4.329001
44.025000 -30.296875 4.329001
44.075000 -28.968750 4.329001
48.900000 -39.062500 4.501001
46.075000 -35.515625 4.501001
45.800000 -34.718750 4.501001
46.200000 -33.609375 4.501001
44.350000 -31.265625 4.501001
43.875000 -29.984375 4.501001
44.075000 -29.203125 4.501001
48.850000 -39.171875 4.672000
47.850000 -37.968750 4.672000
46.425000 -35.578125 4.672000
46.250000 -34.578125 4.672000
46.050000 -33.453125 4.672000
45.475000 -32.515625 4.672000
44.350000 -31.265625 4.672000
43.850000 -30.234375 4.672000
44.075000 -29.078125 4.672000
48.800000 -39.171875 4.844000
48.275000 -38.031250 4.844000
46.450000 -35.765625 4.844000
46.300000 -34.671875 4.844000
46.000000 -33.734375 4.844000
44.325000 -31.453125 4.844000
43.800000 -30.156250 4.844000
44.100000 -29.359375 4.844000
48.750000 -39.437500 5.019000
48.125000 -38.078125 5.019000
45.825000 -36.031250 5.019000
45.700000 -34.968750 5.019000
45.875000 -33.703125 5.019000
45.825000 -32.671875 5.019000
43.800000 -30.343750 5.019000
43.925000 -29.343750 5.019000
48.900000 -39.484375 5.195000
48.000000 -38.328125 5.195000
45.725000 -36.343750 5.195000
45.600000 -34.984375 5.195000
45.650000 -33.890625 5.195000
46.025000 -32.953125 5.195000
44.000000 -30.671875 5.195000
43.825000 -29.656250 5.195000
48.125000 -38.750000 5.361002
45.825000 -36.453125 5.361002
45.625000 -35.281250 5.361002
45.675000 -34.375000 5.361002
46.025000 -33.187500 5.361002
44.000000 -30.875000 5.361002
43.825000 -30.031250 5.361002
44.250000 -28.906250 5.361002
48.875000 -39.625000 5.536002
47.975000 -38.546875 5.536002
45.725000 -36.265625 5.536002
45.575000 -35.015625 5.536002
45.650000 -34.218750 5.536002
44.200000 -31.671875 5.536002
43.850000 -30.609375 5.536002
43.825000 -29.484375 5.536002
48.000000 -38.796875 5.702002
47.675000 -37.750000 5.702002
45.625000 -35.531250 5.702002
45.650000 -34.578125 5.702002
45.200000 -33.234375 5.702002
44.350000 -32.187500 5.702002
43.875000 -31.109375 5.702002
43.725000 -30.093750 5.702002
44.125000 -29.031250 5.702002
47.900000 -38.421875 5.877003
45.850000 -35.984375 5.877003
45.725000 -34.765625 5.877003
45.325000 -33.671875 5.877003
44.550000 -32.859375 5.877003
44.050000 -31.390625 5.877003
43.750000 -30.640625 5.877003
43.900000 -29.359375 5.877003
47.950000 -38.562500 6.047002
47.375000 -37.765625 6.047002
46.400000 -36.531250 6.047002
45.900000 -35.296875 6.047002
45.350000 -34.062500 6.047002
44.600000 -33.062500 6.047002
44.175000 -32.140625 6.047002
43.800000 -30.812500 6.047002
43.725000 -30.015625 6.047002
44.150000 -28.718750 6.047002
47.750000 -38.218750 6.217001
47.050000 -37.156250 6.217001
46.300000 -35.968750 6.217001
45.475000 -35.015625 6.217001
44.850000 -34.000000 6.217001
44.450000 -32.984375 6.217001
44.000000 -31.859375 6.217001
43.725000 -30.765625 6.217001
43.825000 -29.578125 6.217001
47.725000 -38.375000 6.394001
47.025000 -37.218750 6.394001
46.300000 -36.078125 6.394001
45.500000 -34.890625 6.394001
44.825000 -33.718750 6.394001
44.400000 -32.968750 6.394001
43.950000 -31.578125 6.394001
43.625000 -30.500000 6.394001
43.725000 -29.562500 6.394001
47.875000 -39.187500 6.571001
47.550000 -38.046875 6.571001
46.750000 -36.828125 6.571001
46.300000 -35.984375 6.571001
45.550000 -34.703125 6.571001
44.625000 -33.406250 6.571001
44.150000 -32.609375 6.571001
43.700000 -31.484375 6.571001
43.500000 -30.421875 6.571001
43.825000 -29.265625 6.571001
47.925000 -38.765625 6.737001
47.350000 -37.750000 6.737001
46.500000 -36.656250 6.737001
45.575000 -35.500000 6.737001
44.850000 -34.281250 6.737001
44.400000 -33.328125 6.737001
43.900000 -32.203125 6.737001
43.525000 -31.125000 6.737001
43.500000 -29.734375 6.737001
44.075000 -29.109375 6.737001
47.550000 -38.156250 6.917003
46.775000 -37.046875 6.917003
46.325000 -35.953125 6.917003
45.550000 -34.953125 6.917003
44.675000 -33.718750 6.917003
44.150000 -32.656250 6.917003
43.625000 -31.406250 6.917003
43.400000 -30.203125 6.917003
43.725000 -29.328125 6.917003
47.925000 -38.812500 7.085001
47.325000 -37.390625 7.085001
46.475000 -36.390625 7.085001
45.575000 -35.296875 7.085001
44.900000 -34.156250 7.085001
44.425000 -33.046875 7.085001
43.850000 -31.796875 7.085001
43.450000 -30.875000 7.085001
43.450000 -30.000000 7.085001
44.225000 -29.000000 7.085001
47.875000 -39.140625 7.263001
47.525000 -38.109375 7.263001
46.725000 -36.921875 7.263001
45.950000 -35.562500 7.263001
45.125000 -34.453125 7.263001
44.500000 -33.359375 7.263001
44.000000 -32.437500 7.263001
43.550000 -31.203125 7.263001
43.425000 -30.109375 7.263001
43.800000 -29.218750 7.263001
47.975000 -38.796875 7.430001
47.500000 -37.593750 7.430001
46.675000 -36.671875 7.430001
45.800000 -35.437500 7.430001
44.950000 -34.234375 7.430001
44.400000 -33.171875 7.430001
43.900000 -32.156250 7.430001
43.525000 -30.921875 7.430001
43.375000 -29.875000 7.430001
43.950000 -28.968750 7.430001
47.800000 -39.250000 7.602000
47.525000 -38.187500 7.602000
46.750000 -36.875000 7.602000
46.175000 -35.921875 7.602000
45.400000 -34.671875 7.602000
44.600000 -33.609375 7.602000
44.125000 -32.437500 7.602000
43.600000 -31.296875 7.602000
43.400000 -30.125000 7.602000
43.800000 -29.281250 7.602000
47.975000 -39.046875 7.775000
47.475000 -37.718750 7.775000
46.675000 -36.468750 7.775000
45.800000 -35.421875 7.775000
44.950000 -34.265625 7.775000
44.400000 -33.343750 7.775000
43.925000 -32.281250 7.775000
43.500000 -31.046875 7.775000
43.350000 -30.140625 7.775000
43.850000 -28.953125 7.775000
47.925000 -38.812500 7.947000
47.350000 -37.687500 7.947000
46.625000 -36.375000 7.947000
45.700000 -35.218750 7.947000
44.875000 -34.328125 7.947000
44.400000 -32.906250 7.947000
43.850000 -32.109375 7.947000
43.450000 -30.765625 7.947000
47.925000 -38.453125 8.113000
47.300000 -37.343750 8.113000
46.600000 -36.328125 8.113000
45.700000 -35.062500 8.113000
44.875000 -33.968750 8.113000
44.375000 -32.812500 8.113000
43.850000 -32.062500 8.113000
43.450000 -30.781250 8.113000
47.550000 -38.265625 8.286001
46.800000 -37.000000 8.286001
46.425000 -35.937500 8.286001
44.600000 -33.500000 8.286001
44.125000 -32.593750 8.286001
43.600000 -31.234375 8.286001
43.375000 -30.296875 8.286001
43.675000 -29.187500 8.286001
47.700000 -38.265625 8.461000
47.025000 -37.187500 8.461000
46.500000 -36.218750 8.461000
45.675000 -34.812500 8.461000
44.750000 -33.937500 8.461000
44.250000 -32.671875 8.461000
43.700000 -31.500000 8.461000
43.400000 -30.375000 8.461000
43.600000 -29.328125 8.461000
47.525000 -37.750000 8.625000
46.750000 -36.968750 8.625000
46.200000 -35.640625 8.625000
45.375000 -34.484375 8.625000
44.500000 -33.500000 8.625000
44.000000 -32.140625 8.625000
43.550000 -31.031250 8.625000
43.400000 -30.203125 8.625000
43.750000 -29.203125 8.625000
47.550000 -38.062500 8.801000
46.825000 -37.156250 8.801000
46.325000 -35.843750 8.801000
45.525000 -34.875000 8.801000
44.625000 -33.765625 8.801000
44.125000 -32.625000 8.801000
43.675000 -31.468750 8.801000
43.450000 -30.484375 8.801000
43.600000 -29.375000 8.801000
47.525000 -37.875000 8.977001
46.850000 -36.734375 8.977001
46.375000 -35.953125 8.977001
45.500000 -34.671875 8.977001
44.625000 -33.546875 8.977001
44.150000 -32.437500 8.977001
43.700000 -31.187500 8.977001
43.475000 -30.062500 8.977001
43.675000 -29.312500 8.977001
47.550000 -37.937500 9.146001
46.875000 -36.765625 9.146001
46.275000 -35.906250 9.146001
45.450000 -34.609375 9.146001
44.750000 -33.640625 9.146001
44.225000 -32.484375 9.146001
43.700000 -31.140625 9.146001
43.475000 -30.312500 9.146001
43.675000 -29.109375 9.146001
47.875000 -38.859375 9.317001
47.375000 -37.406250 9.317001
46.475000 -36.453125 9.317001
45.850000 -35.156250 9.317001
45.250000 -34.109375 9.317001
44.525000 -32.921875 9.317001
44.050000 -31.984375 9.317001
43.625000 -31.046875 9.317001
43.550000 -29.796875 9.317001
44.125000 -28.968750 9.317001
47.850000 -38.734375 9.486002
47.450000 -37.531250 9.486002
46.400000 -36.437500 9.486002
45.675000 -35.312500 9.486002
45.250000 -34.156250 9.486002
44.700000 -33.046875 9.486002
44.250000 -32.187500 9.486002
43.800000 -30.812500 9.486002
43.575000 -29.984375 9.486002
43.975000 -28.953125 9.486002
47.750000 -38.234375 9.662000
45.825000 -35.671875 9.662000
45.600000 -34.765625 9.662000
45.200000 -33.640625 9.662000
44.500000 -32.515625 9.662000
44.000000 -31.281250 9.662000
43.775000 -30.468750 9.662000
43.850000 -29.109375 9.662000
48.250000 -39.046875 9.826000
47.550000 -37.687500 9.826000
45.625000 -35.578125 9.826000
45.600000 -34.531250 9.826000
45.200000 -33.359375 9.826000
44.450000 -32.296875 9.826000
43.975000 -31.218750 9.826000
43.775000 -30.046875 9.826000
44.000000 -28.890625 9.826000
48.825000 -39.468750 9.997000
48.075000 -38.328125 9.997000
48.050000 -37.359375 9.997000
45.550000 -35.156250 9.997000
45.775000 -34.078125 9.997000
44.200000 -31.828125 9.997000
43.725000 -30.718750 9.997000
48.800000 -39.390625 10.172001
48.050000 -38.562500 10.172001
46.325000 -36.046875 10.172001
45.675000 -35.171875 10.172001
45.775000 -34.109375 10.172001
44.200000 -31.703125 10.172001
43.825000 -30.765625 10.172001
47.950000 -38.937500 10.346003
47.525000 -37.859375 10.346003
45.700000 -35.562500 10.346003
45.700000 -34.687500 10.346003
45.950000 -33.437500 10.346003
44.100000 -31.250000 10.346003
43.775000 -30.000000 10.346003
44.000000 -29.140625 10.346003
48.400000 -38.828125 10.516001
47.750000 -37.609375 10.516001
45.775000 -35.375000 10.516001
45.750000 -34.515625 10.516001
46.150000 -33.281250 10.516001
44.125000 -30.859375 10.516001
43.850000 -29.859375 10.516001
44.100000 -28.953125 10.516001
49.125000 -39.953125 10.689001
48.625000 -38.890625 10.689001
47.750000 -37.734375 10.689001
46.700000 -36.625000 10.689001
46.525000 -35.734375 10.689001
46.475000 -34.531250 10.689001
45.600000 -33.421875 10.689001
44.850000 -32.125000 10.689001
44.125000 -31.265625 10.689001
43.800000 -29.984375 10.689001
44.025000 -29.109375 10.689001
48.650000 -38.812500 10.868003
47.750000 -37.875000 10.868003
46.700000 -36.671875 10.868003
46.300000 -35.500000 10.868003
46.275000 -34.515625 10.868003
44.350000 -31.125000 10.868003
43.950000 -30.203125 10.868003
44.025000 -29.109375 10.868003
48.925000 -39.156250 11.045000
48.150000 -38.031250 11.045000
45.700000 -35.562500 11.045000
45.700000 -34.843750 11.045000
44.100000 -30.203125 11.045000
44.025000 -29.328125 11.045000
48.450000 -38.671875 11.214001
48.025000 -37.578125 11.214001
46.700000 -35.546875 11.214001
46.700000 -34.312500 11.214001
46.050000 -33.343750 11.214001
45.300000 -32.171875 11.214001
44.325000 -31.015625 11.214001
44.025000 -29.906250 11.214001
44.325000 -28.750000 11.214001
47.775000 -37.812500 11.373000
46.675000 -36.531250 11.373000
46.425000 -35.671875 11.373000
46.550000 -34.562500 11.373000
45.675000 -33.218750 11.373000
44.975000 -32.078125 11.373000
44.525000 -31.281250 11.373000
44.125000 -30.078125 11.373000
44.200000 -28.937500 11.373000
48.050000 -37.625000 11.550001
47.025000 -36.656250 11.550001
46.600000 -35.687500 11.550001
46.525000 -34.468750 11.550001
46.075000 -33.203125 11.550001
45.350000 -32.218750 11.550001
44.500000 -31.000000 11.550001
44.100000 -30.046875 11.550001
44.200000 -28.734375 11.550001
49.025000 -38.750000 11.721000
48.025000 -37.546875 11.721000
47.075000 -36.593750 11.721000
46.450000 -35.593750 11.721000
46.350000 -34.328125 11.721000
46.225000 -33.171875 11.721000
44.500000 -30.984375 11.721000
44.125000 -29.781250 11.721000
44.225000 -28.937500 11.721000
49.100000 -39.078125 11.886001
48.150000 -38.062500 11.886001
47.250000 -36.640625 11.886001
46.250000 -35.656250 11.886001
46.100000 -34.578125 11.886001
46.250000 -33.421875 11.886001
45.500000 -32.343750 11.886001
44.625000 -31.390625 11.886001
44.100000 -30.109375 11.886001
44.050000 -29.296875 11.886001
49.275000 -39.734375 12.061001
48.650000 -38.500000 12.061001
48.675000 -37.406250 12.061001
46.425000 -35.265625 12.061001
46.400000 -34.000000 12.061001
46.400000 -32.921875 12.061001
44.425000 -30.812500 12.061001
44.150000 -29.531250 12.061001
44.525000 -28.671875 12.061001
49.450000 -39.546875 12.234000
48.825000 -38.453125 12.234000
48.650000 -37.468750 12.234000
46.425000 -35.062500 12.234000
46.425000 -34.187500 12.234000
46.325000 -32.781250 12.234000
44.325000 -30.734375 12.234000
44.150000 -29.421875 12.234000
44.525000 -28.453125 12.234000
49.400000 -39.328125 12.406001
48.700000 -38.437500 12.406001
48.275000 -37.406250 12.406001
46.600000 -35.125000 12.406001
46.600000 -33.781250 12.406001
46.000000 -32.687500 12.406001
45.050000 -31.515625 12.406001
44.325000 -30.437500 12.406001
44.175000 -29.484375 12.406001
44.650000 -28.312500 12.406001
49.800000 -39.515625 12.573000
49.000000 -38.500000 12.573000
48.050000 -37.328125 12.573000
47.000000 -36.062500 12.573000
46.575000 -34.937500 12.573000
46.575000 -34.109375 12.573000
45.900000 -32.968750 12.573000
44.950000 -31.921875 12.573000
44.300000 -30.640625 12.573000
44.150000 -29.421875 12.573000
44.525000 -28.578125 12.573000
49.800000 -39.562500 12.755003
49.150000 -38.406250 12.755003
48.375000 -37.453125 12.755003
46.775000 -35.203125 12.755003
46.725000 -34.000000 12.755003
44.800000 -31.750000 12.755003
44.325000 -30.859375 12.755003
44.150000 -29.703125 12.755003
44.525000 -28.750000 12.755003
47.175000 -36.781250 12.921001
47.325000 -35.781250 12.921001
47.300000 -34.671875 12.921001
47.125000 -33.578125 12.921001
44.500000 -31.187500 12.921001
44.225000 -29.828125 12.921001
44.425000 -29.093750 12.921001
49.200000 -38.640625 13.091000
48.425000 -37.640625 13.091000
47.700000 -36.625000 13.091000
47.050000 -35.468750 13.091000
46.850000 -34.390625 13.091000
44.850000 -32.078125 13.091000
44.500000 -30.968750 13.091000
44.300000 -29.953125 13.091000
44.425000 -28.750000 13.091000
49.575000 -39.515625 13.261000
48.725000 -38.390625 13.261000
48.250000 -37.156250 13.261000
47.450000 -35.828125 13.261000
46.750000 -34.843750 13.261000
46.700000 -33.781250 13.261000
44.725000 -31.593750 13.261000
44.425000 -30.562500 13.261000
49.350000 -38.875000 13.433001
48.425000 -37.656250 13.433001
47.850000 -36.671875 13.433001
47.175000 -35.546875 13.433001
46.950000 -34.375000 13.433001
44.850000 -32.031250 13.433001
44.425000 -30.859375 13.433001
44.225000 -29.750000 13.433001
44.400000 -29.031250 13.433001
48.400000 -37.718750 13.606001
47.725000 -36.453125 13.606001
47.050000 -35.359375 13.606001
46.800000 -34.093750 13.606001
44.825000 -32.109375 13.606001
44.450000 -30.906250 13.606001
44.250000 -29.625000 13.606001
44.550000 -28.921875 13.606001
48.500000 -37.843750 13.779001
47.925000 -36.531250 13.779001
47.175000 -35.421875 13.779001
46.900000 -34.359375 13.779001
44.825000 -32.265625 13.779001
44.400000 -30.953125 13.779001
44.225000 -30.062500 13.779001
44.425000 -28.906250 13.779001
49.350000 -38.250000 13.949000
48.425000 -37.296875 13.949000
47.575000 -36.000000 13.949000
47.200000 -35.078125 13.949000
46.975000 -33.718750 13.949000
44.625000 -31.640625 13.949000
44.300000 -30.375000 13.949000
48.500000 -37.421875 14.121000
48.150000 -36.406250 14.121000
47.400000 -35.421875 14.121000
46.800000 -34.046875 14.121000
44.800000 -31.718750 14.121000
44.425000 -30.671875 14.121000
44.225000 -29.625000 14.121000
44.550000 -28.812500 14.121000
48.300000 -37.578125 14.291001
47.625000 -36.562500 14.291001
46.800000 -35.187500 14.291001
46.525000 -34.218750 14.291001
44.775000 -31.937500 14.291001
44.375000 -30.906250 14.291001
44.200000 -29.828125 14.291001
44.525000 -28.796875 14.291001
49.350000 -38.765625 14.461000
47.075000 -36.718750 14.461000
46.525000 -35.343750 14.461000
46.350000 -34.296875 14.461000
46.600000 -33.453125 14.461000
44.350000 -31.062500 14.461000
44.300000 -30.078125 14.461000
44.500000 -28.890625 14.461000
49.075000 -39.500000 14.638000
48.550000 -38.437500 14.638000
46.475000 -35.984375 14.638000
46.425000 -35.171875 14.638000
46.450000 -33.937500 14.638000
44.500000 -31.562500 14.638000
44.100000 -30.468750 14.638000
44.100000 -29.531250 14.638000
46.875000 -36.703125 14.811001
46.175000 -34.375000 14.811001
46.550000 -33.281250 14.811001
44.375000 -31.187500 14.811001
44.200000 -30.171875 14.811001
44.425000 -28.968750 14.811001
46.975000 -36.671875 14.980000
46.150000 -34.328125 14.980000
46.375000 -33.437500 14.980000
44.375000 -30.843750 14.980000
44.100000 -29.906250 14.980000
44.325000 -28.703125 14.980000
48.975000 -39.187500 15.150001
48.600000 -38.265625 15.150001
46.200000 -34.968750 15.150001
46.325000 -33.656250 15.150001
44.575000 -31.328125 15.150001
44.075000 -30.281250 15.150001
44.025000 -29.437500 15.150001
48.850000 -39.390625 15.322000
48.225000 -38.468750 15.322000
46.325000 -35.156250 15.322000
46.225000 -34.125000 15.322000
46.125000 -32.906250 15.322000
43.975000 -30.687500 15.322000
43.950000 -29.562500 15.322000
49.375000 -39.859375 15.490001
48.750000 -38.703125 15.490001
46.000000 -35.531250 15.490001
46.150000 -34.343750 15.490001
46.050000 -33.453125 15.490001
44.200000 -31.093750 15.490001
43.900000 -30.062500 15.490001
44.300000 -28.875000 15.490001
48.725000 -39.062500 15.664001
48.325000 -38.265625 15.664001
46.700000 -35.734375 15.664001
46.000000 -33.609375 15.664001
44.400000 -31.453125 15.664001
43.875000 -30.343750 15.664001
44.025000 -29.343750 15.664001
48.825000 -39.359375 15.834002
48.025000 -38.515625 15.834002
45.800000 -36.265625 15.834002
45.725000 -35.093750 15.834002
45.925000 -33.937500 15.834002
46.450000 -32.984375 15.834002
43.950000 -30.500000 15.834002
43.925000 -29.562500 15.834002
48.850000 -39.578125 16.003028
48.125000 -38.515625 16.003028
45.725000 -36.234375 16.003028
45.600000 -35.156250 16.003028
45.675000 -34.171875 16.003028
46.000000 -33.031250 16.003028
44.075000 -30.750000 16.003028
47.975000 -38.109375 16.174001
45.650000 -35.609375 16.174001
45.600000 -34.687500 16.174001
45.850000 -33.484375 16.174001
44.225000 -31.265625 16.174001
43.800000 -30.125000 16.174001
44.050000 -29.156250 16.174001
47.800000 -38.281250 16.350000
45.750000 -36.156250 16.350000
45.675000 -34.937500 16.350000
45.875000 -33.750000 16.350000
44.125000 -31.375000 16.350000
43.775000 -30.515625 16.350000
43.925000 -29.593750 16.350000
48.275000 -39.000000 16.520001
47.725000 -37.937500 16.520001
45.625000 -35.546875 16.520001
45.600000 -34.406250 16.520001
45.150000 -33.578125 16.520001
44.425000 -32.406250 16.520001
44.000000 -31.328125 16.520001
43.800000 -29.953125 16.520001
44.075000 -28.937500 16.520001
47.800000 -38.203125 16.691001
45.725000 -35.812500 16.691001
45.725000 -34.953125 16.691001
45.275000 -33.546875 16.691001
44.475000 -32.500000 16.691001
44.100000 -31.593750 16.691001
43.850000 -30.265625 16.691001
43.900000 -29.343750 16.691001
48.050000 -39.140625 16.865000
47.700000 -37.890625 16.865000
46.700000 -36.781250 16.865000
45.950000 -35.812500 16.865000
45.400000 -34.500000 16.865000
44.800000 -33.312500 16.865000
44.300000 -32.125000 16.865000
43.850000 -31.062500 16.865000
43.775000 -30.140625 16.865000
44.075000 -28.953125 16.865000
47.925000 -38.984375 17.040001
47.575000 -37.890625 17.040001
46.800000 -36.625000 17.040001
46.200000 -35.453125 17.040001
45.525000 -34.562500 17.040001
44.700000 -33.265625 17.040001
44.200000 -32.296875 17.040001
43.750000 -31.078125 17.040001
43.575000 -29.906250 17.040001
43.975000 -28.968750 17.040001
47.900000 -38.546875 17.213001
47.250000 -37.375000 17.213001
46.400000 -36.234375 17.213001
45.575000 -35.328125 17.213001
44.850000 -34.015625 17.213001
44.450000 -32.906250 17.213001
44.000000 -31.953125 17.213001
43.625000 -30.875000 17.213001
43.650000 -29.593750 17.213001
44.375000 -28.921875 17.213001
47.875000 -38.750000 17.380000
47.250000 -37.593750 17.380000
46.400000 -36.531250 17.380000
45.575000 -35.265625 17.380000
44.850000 -34.187500 17.380000
44.425000 -32.921875 17.380000
43.975000 -32.015625 17.380000
43.600000 -30.859375 17.380000
43.625000 -29.906250 17.380000
44.350000 -28.812500 17.380000
47.875000 -38.546875 17.547031
47.225000 -37.515625 17.547031
46.400000 -36.531250 17.547031
45.550000 -35.046875 17.547031
44.825000 -34.312500 17.547031
44.400000 -33.187500 17.547031
43.950000 -31.953125 17.547031
43.600000 -30.656250 17.547031
43.600000 -29.937500 17.547031
44.325000 -28.859375 17.547031
47.875000 -38.718750 17.718000
47.225000 -37.687500 17.718000
46.400000 -36.453125 17.718000
45.550000 -35.359375 17.718000
44.825000 -34.328125 17.718000
44.375000 -32.937500 17.718000
43.925000 -31.828125 17.718000
43.575000 -30.859375 17.718000
47.775000 -38.281250 17.889000
47.025000 -37.312500 17.889000
46.400000 -36.046875 17.889000
45.600000 -34.781250 17.889000
44.700000 -33.765625 17.889000
44.175000 -32.578125 17.889000
43.675000 -31.453125 17.889000
43.425000 -30.656250 17.889000
43.600000 -29.500000 17.889000
47.925000 -39.125000 18.064000
47.450000 -37.984375 18.064000
46.675000 -36.812500 18.064000
45.850000 -35.406250 18.064000
45.050000 -34.468750 18.064000
44.450000 -33.328125 18.064000
43.975000 -32.078125 18.064000
43.550000 -31.296875 18.064000
43.450000 -29.875000 18.064000
43.950000 -28.937500 18.064000
47.875000 -38.750000 18.236000
47.250000 -37.671875 18.236000
46.425000 -36.406250 18.236000
45.575000 -35.203125 18.236000
44.825000 -34.140625 18.236000
44.350000 -33.156250 18.236000
43.900000 -32.093750 18.236000
43.550000 -30.921875 18.236000
43.500000 -29.718750 18.236000
44.225000 -28.750000 18.236000
47.925000 -38.515625 18.409000
47.225000 -37.312500 18.409000
46.550000 -36.296875 18.409000
45.675000 -35.000000 18.409000
44.800000 -34.000000 18.409000
44.275000 -32.734375 18.409000
43.750000 -31.656250 18.409000
43.425000 -30.890625 18.409000
43.475000 -29.531250 18.409000
47.900000 -38.312500 18.580001
47.200000 -37.281250 18.580001
46.550000 -36.265625 18.580001
45.675000 -35.140625 18.580001
44.775000 -34.015625 18.580001
44.250000 -32.640625 18.580001
43.725000 -31.578125 18.580001
43.400000 -30.500000 18.580001
43.500000 -29.406250 18.580001
47.450000 -36.843750 18.750001
44.075000 -32.531250 18.750001
43.625000 -31.265625 18.750001
43.400000 -30.453125 18.750001
43.700000 -29.343750 18.750001
47.900000 -38.828125 18.920000
47.375000 -37.625000 18.920000
46.650000 -36.359375 18.920000
45.800000 -35.312500 18.920000
45.000000 -34.187500 18.920000
44.425000 -33.250000 18.920000
43.900000 -32.140625 18.920000
43.475000 -30.890625 18.920000
43.350000 -29.906250 18.920000
43.950000 -29.046875 18.920000
47.900000 -38.609375 19.091001
47.200000 -37.406250 19.091001
46.550000 -36.390625 19.091001
45.675000 -35.046875 19.091001
44.775000 -34.000000 19.091001
44.350000 -33.125000 19.091001
43.900000 -31.937500 19.091001
43.425000 -30.890625 19.091001
47.900000 -38.765625 19.262001
47.400000 -37.703125 19.262001
46.625000 -36.671875 19.262001
45.800000 -35.343750 19.262001
45.000000 -34.203125 19.262001
44.425000 -33.343750 19.262001
43.900000 -32.343750 19.262001
43.475000 -31.250000 19.262001
43.350000 -29.906250 19.262001
43.825000 -28.953125 19.262001
47.550000 -38.109375 19.434001
46.800000 -36.828125 19.434001
46.175000 -35.781250 19.434001
45.350000 -34.484375 19.434001
44.475000 -33.281250 19.434001
44.000000 -32.265625 19.434001
43.575000 -31.078125 19.434001
43.375000 -29.984375 19.434001
43.700000 -28.937500 19.434001
47.900000 -38.656250 19.612000
47.375000 -37.687500 19.612000
46.550000 -36.359375 19.612000
45.675000 -35.375000 19.612000
44.975000 -34.265625 19.612000
44.425000 -33.031250 19.612000
43.925000 -32.203125 19.612000
43.500000 -30.953125 19.612000
43.375000 -29.734375 19.612000
44.025000 -28.968750 19.612000
47.750000 -38.281250 19.774000
47.075000 -37.187500 19.774000
46.425000 -36.265625 19.774000
45.550000 -35.125000 19.774000
44.775000 -33.953125 19.774000
44.350000 -32.843750 19.774000
43.825000 -31.703125 19.774000
43.425000 -30.437500 19.774000
47.825000 -38.890625 19.949000
47.375000 -37.687500 19.949000
46.650000 -36.375000 19.949000
46.300000 -35.500000 19.949000
44.525000 -33.250000 19.949000
44.100000 -32.109375 19.949000
43.675000 -30.875000 19.949000
43.475000 -30.062500 19.949000
44.025000 -28.890625 19.949000
47.850000 -38.562500 20.126001
47.350000 -37.609375 20.126001
46.550000 -36.312500 20.126001
46.025000 -35.343750 20.126001
45.375000 -34.218750 20.126001
44.600000 -32.968750 20.126001
44.100000 -32.109375 20.126001
43.625000 -30.828125 20.126001
43.500000 -29.968750 20.126001
44.075000 -28.609375 20.126001
48.150000 -39.062500 20.293001
47.575000 -37.812500 20.293001
45.950000 -35.671875 20.293001
45.325000 -34.406250 20.293001
44.750000 -33.515625 20.293001
44.300000 -32.140625 20.293001
43.850000 -31.281250 20.293001
43.650000 -30.343750 20.293001
43.875000 -28.937500 20.293001
48.150000 -38.968750 20.470001
47.625000 -37.718750 20.470001
45.650000 -35.656250 20.470001
45.800000 -34.562500 20.470001
44.300000 -32.421875 20.470001
43.825000 -31.031250 20.470001
43.650000 -30.140625 20.470001
43.875000 -29.093750 20.470001
48.050000 -38.734375 20.634000
47.500000 -37.765625 20.634000
45.600000 -35.437500 20.634000
45.675000 -34.218750 20.634000
45.225000 -33.281250 20.634000
44.350000 -31.937500 20.634000
43.875000 -31.062500 20.634000
43.700000 -29.781250 20.634000
44.125000 -28.875000 20.634000
48.750000 -39.468750 20.808001
47.900000 -38.359375 20.808001
47.900000 -37.546875 20.808001
45.550000 -35.062500 20.808001
45.900000 -34.203125 20.808001
44.150000 -31.593750 20.808001
43.625000 -30.625000 20.808001
48.000000 -38.203125 20.977002
45.800000 -35.890625 20.977002
45.625000 -35.093750 20.977002
45.800000 -33.828125 20.977002
44.150000 -31.625000 20.977002
43.775000 -30.625000 20.977002
48.125000 -38.937500 21.148001
47.700000 -37.781250 21.148001
45.875000 -35.546875 21.148001
45.700000 -34.218750 21.148001
44.475000 -32.000000 21.148001
43.975000 -30.968750 21.148001
43.800000 -29.906250 21.148001
44.125000 -29.000000 21.148001
48.900000 -39.296875 21.324001
47.875000 -38.250000 21.324001
46.175000 -35.968750 21.324001
46.150000 -34.875000 21.324001
45.850000 -33.875000 21.324001
44.325000 -31.593750 21.324001
43.925000 -30.500000 21.324001
43.925000 -29.312500 21.324001
48.675000 -38.875000 21.489000
47.725000 -37.765625 21.489000
46.350000 -35.562500 21.489000
46.300000 -34.296875 21.489000
45.875000 -33.156250 21.489000
44.150000 -30.953125 21.489000
43.825000 -30.156250 21.489000
44.125000 -28.750000 21.489000
48.750000 -39.593750 21.663000
48.100000 -38.500000 21.663000
48.350000 -37.390625 21.663000
46.175000 -35.000000 21.663000
44.100000 -30.593750 21.663000
43.925000 -29.796875 21.663000
44.475000 -28.578125 21.663000
48.800000 -39.546875 21.834001
48.100000 -38.265625 21.834001
47.550000 -37.156250 21.834001
45.950000 -35.062500 21.834001
44.075000 -30.484375 21.834001
43.900000 -29.562500 21.834001
44.625000 -28.437500 21.834001
48.800000 -39.390625 22.011000
48.125000 -38.437500 22.011000
47.475000 -37.171875 22.011000
46.325000 -35.843750 22.011000
45.975000 -35.078125 22.011000
44.100000 -30.312500 22.011000
43.925000 -29.406250 22.011000
44.625000 -28.328125 22.011000
48.925000 -39.359375 22.179001
48.175000 -38.250000 22.179001
45.825000 -35.640625 22.179001
45.850000 -34.734375 22.179001
44.050000 -30.468750 22.179001
48.000000 -37.765625 22.345001
46.975000 -36.500000 22.345001
46.525000 -35.718750 22.345001
46.500000 -34.593750 22.345001
45.800000 -33.453125 22.345001
45.100000 -32.296875 22.345001
44.550000 -31.156250 22.345001
44.000000 -29.968750 22.345001
44.125000 -29.000000 22.345001
48.575000 -38.812500 22.519001
48.175000 -37.625000 22.519001
46.450000 -35.390625 22.519001
46.350000 -34.187500 22.519001
46.325000 -33.203125 22.519001
44.450000 -30.734375 22.519001
44.125000 -29.562500 22.519001
44.300000 -28.671875 22.519001
48.900000 -39.656250 22.689001
48.300000 -38.343750 22.689001
48.575000 -37.328125 22.689001
46.250000 -34.953125 22.689001
46.350000 -34.156250 22.689001
46.600000 -33.062500 22.689001
44.450000 -30.718750 22.689001
44.100000 -29.531250 22.689001
44.475000 -28.562500 22.689001
49.075000 -39.390625 22.868002
48.325000 -38.078125 22.868002
47.400000 -36.890625 22.868002
46.425000 -35.750000 22.868002
46.300000 -34.765625 22.868002
46.350000 -33.796875 22.868002
45.850000 -32.640625 22.868002
44.875000 -31.296875 22.868002
44.225000 -30.468750 22.868002
48.250000 -37.796875 23.034000
46.025000 -35.546875 23.034000
46.125000 -34.406250 23.034000
46.700000 -33.515625 23.034000
44.525000 -30.906250 23.034000
44.100000 -29.906250 23.034000
44.250000 -29.109375 23.034000
49.575000 -39.750000 23.205000
49.025000 -38.546875 23.205000
48.400000 -37.421875 23.205000
46.175000 -35.265625 23.205000
46.175000 -34.187500 23.205000
46.400000 -33.125000 23.205000
44.325000 -30.828125 23.205000
44.125000 -29.640625 23.205000
44.400000 -28.656250 23.205000
48.950000 -38.546875 23.378001
48.050000 -37.218750 23.378001
46.525000 -35.203125 23.378001
46.575000 -34.062500 23.378001
45.975000 -32.953125 23.378001
44.975000 -31.625000 23.378001
44.300000 -30.828125 23.378001
44.200000 -29.375000 23.378001
44.575000 -28.609375 23.378001
49.850000 -39.515625 23.549000
48.975000 -38.250000 23.549000
48.150000 -37.375000 23.549000
46.500000 -34.937500 23.549000
46.600000 -34.125000 23.549000
44.800000 -31.828125 23.549000
44.425000 -30.531250 23.549000
44.175000 -29.625000 23.549000
44.525000 -28.406250 23.549000
49.150000 -38.750000 23.720001
48.325000 -37.515625 23.720001
47.500000 -36.578125 23.720001
46.800000 -35.171875 23.720001
46.625000 -34.234375 23.720001
46.325000 -33.015625 23.720001
44.150000 -29.593750 23.720001
44.425000 -28.812500 23.720001
49.650000 -39.296875 23.896001
48.775000 -38.187500 23.896001
48.175000 -37.312500 23.896001
47.350000 -36.203125 23.896001
46.650000 -34.890625 23.896001
46.700000 -34.062500 23.896001
44.575000 -31.718750 23.896001
44.325000 -30.703125 23.896001
44.175000 -29.375000 23.896001
44.725000 -28.468750 23.896001
49.475000 -39.343750 24.070000
48.650000 -38.203125 24.070000
48.275000 -36.843750 24.070000
47.450000 -35.671875 24.070000
46.775000 -34.640625 24.070000
46.600000 -33.828125 24.070000
44.475000 -31.531250 24.070000
44.350000 -30.328125 24.070000
44.375000 -29.328125 24.070000
49.300000 -38.562500 24.242000
48.350000 -37.640625 24.242000
47.525000 -36.296875 24.242000
46.825000 -35.484375 24.242000
46.750000 -34.312500 24.242000
44.725000 -31.906250 24.242000
44.325000 -30.796875 24.242000
44.150000 -29.609375 24.242000
44.425000 -28.796875 24.242000
49.300000 -38.625000 24.406000
48.350000 -37.500000 24.406000
47.750000 -36.687500 24.406000
47.025000 -35.531250 24.406000
46.775000 -34.468750 24.406000
44.725000 -32.000000 24.406000
44.325000 -30.843750 24.406000
44.150000 -29.890625 24.406000
44.425000 -28.703125 24.406000
47.025000 -36.578125 24.579001
47.075000 -35.468750 24.579001
47.475000 -34.718750 24.579001
45.100000 -32.078125 24.579001
44.375000 -31.234375 24.579001
44.275000 -29.921875 24.579001
44.400000 -29.156250 24.579001
49.350000 -38.390625 24.756000
48.450000 -37.171875 24.756000
47.625000 -35.968750 24.756000
47.250000 -34.796875 24.756000
46.925000 -33.796875 24.756000
44.550000 -31.546875 24.756000
44.325000 -30.531250 24.756000
48.425000 -37.406250 24.926002
48.125000 -36.437500 24.926002
47.400000 -35.125000 24.926002
46.750000 -34.312500 24.926002
44.700000 -31.765625 24.926002
44.275000 -30.609375 24.926002
44.175000 -29.843750 24.926002
44.575000 -28.843750 24.926002
49.700000 -39.500000 25.093001
49.150000 -38.421875 25.093001
48.150000 -37.500000 25.093001
47.400000 -36.171875 25.093001
46.850000 -34.937500 25.093001
46.525000 -34.125000 25.093001
44.675000 -31.812500 25.093001
44.275000 -30.796875 25.093001
49.325000 -39.093750 25.277001
48.400000 -37.890625 25.277001
47.450000 -36.859375 25.277001
46.550000 -35.656250 25.277001
46.575000 -34.640625 25.277001
46.750000 -33.562500 25.277001
44.375000 -31.109375 25.277001
44.200000 -30.218750 25.277001
44.350000 -29.000000 25.277001
49.175000 -39.218750 25.436025
48.375000 -37.984375 25.436025
46.775000 -34.796875 25.436025
46.475000 -33.781250 25.436025
44.475000 -31.406250 25.436025
44.200000 -30.125000 25.436025
44.225000 -29.078125 25.436025
49.325000 -39.812500 25.606000
48.825000 -38.703125 25.606000
46.425000 -35.250000 25.606000
46.325000 -34.281250 25.606000
44.700000 -31.656250 25.606000
44.275000 -30.781250 25.606000
49.275000 -40.000000 25.777000
48.700000 -38.578125 25.777000
47.050000 -36.546875 25.777000
46.175000 -34.125000 25.777000
46.525000 -33.140625 25.777000
44.300000 -30.937500 25.777000
44.250000 -29.937500 25.777000
44.550000 -28.921875 25.777000
48.975000 -38.687500 25.955000
46.925000 -36.781250 25.955000
46.075000 -34.421875 25.955000
46.175000 -33.265625 25.955000
44.375000 -31.171875 25.955000
44.075000 -30.015625 25.955000
44.350000 -28.984375 25.955000
49.100000 -39.781250 26.124001
48.500000 -38.796875 26.124001
46.550000 -36.390625 26.124001
46.300000 -35.531250 26.124001
46.025000 -34.515625 26.124001
46.025000 -33.328125 26.124001
44.200000 -30.796875 26.124001
43.875000 -29.781250 26.124001
44.375000 -28.750000 26.124001
48.950000 -39.203125 26.296001
48.225000 -38.078125 26.296001
46.275000 -36.062500 26.296001
46.225000 -34.765625 26.296001
46.150000 -33.859375 26.296001
45.650000 -32.578125 26.296001
44.525000 -31.328125 26.296001
43.875000 -30.375000 26.296001
43.950000 -29.546875 26.296001
48.325000 -38.875000 26.471000
45.775000 -36.281250 26.471000
45.825000 -35.531250 26.471000
46.025000 -34.296875 26.471000
45.950000 -33.281250 26.471000
44.125000 -31.015625 26.471000
43.850000 -29.937500 26.471000
44.325000 -28.812500 26.471000
48.850000 -39.609375 26.641001
48.025000 -38.453125 26.641001
45.900000 -36.015625 26.641001
45.825000 -34.875000 26.641001
45.950000 -33.859375 26.641001
46.500000 -32.953125 26.641001
44.050000 -30.718750 26.641001
43.875000 -29.562500 26.641001
48.850000 -39.453125 26.812000
47.875000 -38.437500 26.812000
45.700000 -36.156250 26.812000
45.600000 -35.296875 26.812000
45.700000 -33.953125 26.812000
46.025000 -33.140625 26.812000
44.050000 -30.578125 26.812000
48.075000 -37.984375 26.988001
45.675000 -35.875000 26.988001
45.650000 -34.515625 26.988001
45.750000 -33.531250 26.988001
44.200000 -31.312500 26.988001
43.825000 -30.312500 26.988001
44.075000 -29.234375 26.988001
48.850000 -39.171875 27.152001
47.800000 -38.265625 27.152001
45.650000 -35.953125 27.152001
45.600000 -34.828125 27.152001
45.925000 -33.593750 27.152001
44.200000 -31.453125 27.152001
43.750000 -30.312500 27.152001
43.925000 -29.359375 27.152001
48.450000 -39.156250 27.328000
47.725000 -37.875000 27.328000
45.650000 -35.796875 27.328000
45.625000 -34.562500 27.328000
45.200000 -33.421875 27.328000
44.400000 -32.343750 27.328000
43.975000 -31.156250 27.328000
43.800000 -30.109375 27.328000
44.050000 -29.218750 27.328000
47.825000 -39.171875 27.504001
47.750000 -38.062500 27.504001
45.650000 -35.984375 27.504001
45.700000 -34.812500 27.504001
45.275000 -33.531250 27.504001
44.475000 -32.328125 27.504001
44.025000 -31.453125 27.504001
43.750000 -30.453125 27.504001
43.925000 -29.234375 27.504001
47.725000 -37.953125 27.672001
46.850000 -37.046875 27.672001
45.925000 -35.843750 27.672001
45.575000 -34.906250 27.672001
45.125000 -33.625000 27.672001
44.450000 -32.593750 27.672001
44.000000 -31.328125 27.672001
43.725000 -30.218750 27.672001
43.925000 -29.265625 27.672001
47.900000 -38.609375 27.849002
47.325000 -37.625000 27.849002
46.400000 -36.546875 27.849002
45.850000 -35.421875 27.849002
45.250000 -34.125000 27.849002
44.525000 -33.015625 27.849002
44.100000 -31.906250 27.849002
43.725000 -30.984375 27.849002
43.700000 -29.593750 27.849002
44.325000 -28.781250 27.849002
47.900000 -38.953125 28.018001
47.450000 -37.875000 28.018001
46.650000 -36.609375 28.018001
46.150000 -35.625000 28.018001
45.425000 -34.453125 28.018001
44.625000 -33.312500 28.018001
44.175000 -32.156250 28.018001
43.700000 -31.234375 28.018001
43.625000 -30.250000 28.018001
44.125000 -29.031250 28.018001
47.925000 -38.984375 28.184001
47.400000 -37.718750 28.184001
46.525000 -36.500000 28.184001
45.700000 -35.468750 28.184001
45.000000 -34.531250 28.184001
44.525000 -33.281250 28.184001
44.075000 -32.312500 28.184001
43.675000 -30.875000 28.184001
43.600000 -29.875000 28.184001
44.050000 -28.828125 28.184001
47.900000 -38.718750 28.360000
47.300000 -37.609375 28.360000
46.400000 -36.500000 28.360000
45.525000 -35.328125 28.360000
44.875000 -34.078125 28.360000
44.500000 -33.187500 28.360000
43.950000 -31.906250 28.360000
43.575000 -31.046875 28.360000
43.600000 -29.937500 28.360000
44.150000 -28.828125 28.360000
47.900000 -38.843750 28.530999
47.450000 -37.968750 28.530999
46.625000 -36.687500 28.530999
45.825000 -35.484375 28.530999
45.075000 -34.687500 28.530999
44.500000 -33.250000 28.530999
44.050000 -32.156250 28.530999
43.650000 -31.296875 28.530999
43.500000 -29.921875 28.530999
43.900000 -28.906250 28.530999
46.825000 -36.500000 28.707000
45.700000 -35.406250 28.707000
44.550000 -32.843750 28.707000
43.750000 -32.031250 28.707000
43.425000 -30.937500 28.707000
47.600000 -38.234375 28.875001
46.750000 -36.921875 28.875001
46.350000 -35.921875 28.875001
44.600000 -33.609375 28.875001
44.075000 -32.562500 28.875001
43.575000 -31.375000 28.875001
43.400000 -30.296875 28.875001
43.700000 -29.281250 28.875001
47.600000 -38.203125 29.050001
46.850000 -37.046875 29.050001
46.450000 -35.921875 29.050001
44.625000 -33.703125 29.050001
44.125000 -32.671875 29.050001
43.625000 -31.515625 29.050001
43.350000 -30.312500 29.050001
43.625000 -29.500000 29.050001
47.950000 -39.265625 29.217000
47.475000 -37.812500 29.217000
46.650000 -36.968750 29.217000
46.075000 -35.671875 29.217000
45.325000 -34.437500 29.217000
44.500000 -33.500000 29.217000
44.000000 -32.421875 29.217000
43.575000 -31.203125 29.217000
43.400000 -30.328125 29.217000
43.775000 -29.171875 29.217000
47.625000 -38.109375 29.394001
46.875000 -37.109375 29.394001
46.450000 -36.046875 29.394001
44.600000 -33.500000 29.394001
44.075000 -32.343750 29.394001
43.600000 -31.562500 29.394001
43.375000 -30.359375 29.394001
43.625000 -29.437500 29.394001
48.000000 -38.859375 29.561000
47.375000 -37.421875 29.561000
46.600000 -36.562500 29.561000
45.700000 -35.406250 29.561000
44.925000 -34.281250 29.561000
44.425000 -32.968750 29.561000
43.850000 -32.156250 29.561000
43.425000 -30.953125 29.561000
43.425000 -29.734375 29.561000
44.100000 -29.031250 29.561000
47.975000 -38.531250 29.736001
47.350000 -37.593750 29.736001
46.600000 -36.296875 29.736001
45.700000 -35.359375 29.736001
44.900000 -34.296875 29.736001
44.400000 -32.890625 29.736001
43.850000 -32.078125 29.736001
43.400000 -30.890625 29.736001
47.925000 -38.703125 29.906000
47.375000 -37.812500 29.906000
46.625000 -36.609375 29.906000
45.800000 -35.390625 29.906000
44.975000 -34.296875 29.906000
44.475000 -33.281250 29.906000
43.950000 -32.031250 29.906000
43.550000 -31.078125 29.906000
43.475000 -30.015625 29.906000
43.975000 -28.843750 29.906000
