31.700000 -22.841797 78.957440
31.600000 -22.805664 78.957440
31.400000 -21.894531 78.957440
31.300000 -21.108398 78.957440
31.100000 -20.447266 78.957440
31.000000 -20.161133 78.957440
31.000000 -19.000000 78.957440
30.700000 -18.465332 78.957440
30.300000 -17.930664 78.957440
30.200000 -17.395996 78.957440
30.100000 -16.111328 78.957440
30.000000 -15.451660 78.957440
30.000000 -14.666992 78.957440
29.900000 -14.007324 78.957440
29.800000 -14.097656 78.957440
29.700000 -12.687988 78.957440
29.600000 -12.528320 78.957440
29.600000 -11.868652 78.957440
29.600000 -11.083984 78.957440
29.600000 -10.674316 78.957440
29.700000 -10.139648 78.957440
30.100000 -8.854980 78.957440
32.100000 -25.720703 79.098921
32.100000 -24.811523 79.098921
31.900000 -24.402344 79.098921
31.700000 -23.368164 79.098921
31.600000 -22.708984 79.098921
31.400000 -22.049805 79.098921
31.300000 -21.515625 79.098921
31.100000 -20.734863 79.098921
31.000000 -20.204102 79.098921
31.100000 -19.298340 79.098921
30.800000 -18.767578 79.098921
30.400000 -18.111816 79.098921
30.200000 -17.081055 79.098921
30.100000 -16.550293 79.098921
30.000000 -15.644531 79.098921
30.000000 -15.363770 79.098921
29.900000 -14.708008 79.098921
29.800000 -13.552246 79.098921
29.700000 -12.896484 79.098921
29.600000 -12.115723 79.098921
29.600000 -11.709961 79.098921
29.600000 -11.554199 79.098921
29.600000 -10.148438 79.098921
29.700000 -9.367676 79.098921
30.000000 -9.586914 79.098921
32.100000 -25.494629 79.225220
32.000000 -24.834961 79.225220
31.900000 -23.925293 79.225220
31.700000 -23.015625 79.225220
31.600000 -22.735352 79.225220
31.400000 -21.455078 79.225220
31.300000 -21.549805 79.225220
31.100000 -20.894531 79.225220
31.000000 -19.739258 79.225220
31.100000 -19.583984 79.225220
30.800000 -18.053711 79.225220
30.300000 -17.898438 79.225220
30.200000 -17.118164 79.225220
30.100000 -16.337891 79.225220
30.000000 -16.182617 79.225220
30.000000 -15.027344 79.225220
29.900000 -14.247070 79.225220
29.800000 -13.966797 79.225220
29.700000 -12.936523 79.225220
29.600000 -12.656250 79.225220
29.600000 -11.500977 79.225220
29.600000 -11.220703 79.225220
29.600000 -10.565430 79.225220
29.700000 -10.035156 79.225220
30.100000 -8.879883 79.225220
32.300000 -25.910645 79.364326
32.100000 -25.500000 79.364326
32.000000 -24.718262 79.364326
31.900000 -23.686523 79.364326
31.700000 -23.029785 79.364326
31.500000 -22.623047 79.364326
31.400000 -21.966309 79.364326
31.300000 -21.434570 79.364326
31.100000 -20.902832 79.364326
31.000000 -19.746094 79.364326
31.100000 -19.214355 79.364326
30.800000 -18.057617 79.364326
30.300000 -18.025879 79.364326
30.200000 -16.994141 79.364326
30.100000 -16.712402 79.364326
30.000000 -15.305664 79.364326
30.000000 -15.023926 79.364326
29.900000 -13.992188 79.364326
29.800000 -13.460449 79.364326
29.700000 -12.678711 79.364326
29.600000 -12.646973 79.364326
29.600000 -11.990234 79.364326
29.600000 -10.583496 79.364326
29.600000 -10.426758 79.364326
29.700000 -9.395020 79.364326
30.100000 -9.238281 79.364326
32.400000 -26.342285 79.505634
32.200000 -26.184570 79.505634
32.100000 -25.151855 79.505634
32.000000 -24.494141 79.505634
31.800000 -23.836426 79.505634
31.700000 -22.803711 79.505634
31.500000 -22.145996 79.505634
31.400000 -21.488281 79.505634
31.200000 -20.955566 79.505634
31.100000 -20.172852 79.505634
31.000000 -19.890137 79.505634
31.000000 -19.232422 79.505634
30.700000 -18.199707 79.505634
30.300000 -17.291992 79.505634
30.200000 -17.259277 79.505634
30.100000 -16.476562 79.505634
30.000000 -15.818848 79.505634
29.900000 -15.036133 79.505634
29.900000 -14.128418 79.505634
29.800000 -13.720703 79.505634
29.700000 -12.687988 79.505634
29.600000 -12.405273 79.505634
29.600000 -11.747559 79.505634
29.600000 -10.964844 79.505634
29.600000 -10.057129 79.505634
29.800000 -9.649414 79.505634
30.200000 -9.366699 79.505634
32.200000 -25.926758 79.646811
32.100000 -25.021484 79.646811
32.000000 -24.366211 79.646811
31.800000 -24.085938 79.646811
31.600000 -23.055664 79.646811
31.500000 -22.150391 79.646811
31.400000 -21.370117 79.646811
31.200000 -20.714844 79.646811
31.100000 -19.934570 79.646811
30.900000 -19.279297 79.646811
30.900000 -19.124023 79.646811
30.700000 -18.093750 79.646811
30.300000 -17.688477 79.646811
30.200000 -16.533203 79.646811
30.100000 -16.502930 79.646811
30.000000 -15.847656 79.646811
29.900000 -15.192383 79.646811
29.900000 -14.412109 79.646811
29.800000 -13.631836 79.646811
29.700000 -13.101562 79.646811
29.600000 -11.821289 79.646811
29.600000 -11.166016 79.646811
29.600000 -10.635742 79.646811
29.600000 -10.230469 79.646811
29.800000 -9.450195 79.646811
30.200000 -8.919922 79.646811
32.100000 -25.115723 79.784707
32.000000 -25.086914 79.784707
31.800000 -24.058105 79.784707
31.700000 -23.029297 79.784707
31.500000 -22.500488 79.784707
31.400000 -22.221680 79.784707
31.300000 -21.192871 79.784707
31.100000 -20.789062 79.784707
30.900000 -19.760254 79.784707
30.800000 -19.231445 79.784707
30.800000 -18.952637 79.784707
30.500000 -17.923828 79.784707
30.200000 -16.895020 79.784707
30.100000 -16.241211 79.784707
30.000000 -15.462402 79.784707
30.000000 -15.183594 79.784707
29.900000 -14.279785 79.784707
29.800000 -14.250977 79.784707
29.700000 -13.097168 79.784707
29.600000 -12.818359 79.784707
29.600000 -11.914551 79.784707
29.600000 -11.635742 79.784707
29.600000 -10.856934 79.784707
29.700000 -10.328125 79.784707
32.200000 -26.312500 79.926747
32.100000 -25.406250 79.926747
32.000000 -24.625000 79.926747
31.800000 -24.093750 79.926747
31.600000 -23.312500 79.926747
31.500000 -22.281250 79.926747
31.400000 -21.750000 79.926747
31.200000 -21.218750 79.926747
31.100000 -20.437500 79.926747
30.900000 -19.906250 79.926747
30.800000 -19.250000 79.926747
30.800000 -18.343750 79.926747
30.500000 -17.437500 79.926747
30.200000 -17.406250 79.926747
30.100000 -16.625000 79.926747
30.000000 -15.843750 79.926747
30.000000 -15.187500 79.926747
29.900000 -14.656250 79.926747
29.800000 -13.625000 79.926747
29.700000 -13.343750 79.926747
29.600000 -11.937500 79.926747
29.600000 -12.156250 79.926747
29.600000 -11.001953 79.926747
29.600000 -9.972656 79.926747
29.700000 -9.943359 79.926747
30.000000 -9.289062 79.926747
32.100000 -25.613281 80.079787
32.000000 -25.330078 80.079787
31.900000 -24.671875 80.079787
31.800000 -23.763672 80.079787
31.600000 -23.355469 80.079787
31.500000 -22.072266 80.079787
31.400000 -22.039062 80.079787
31.200000 -21.130859 80.079787
31.100000 -20.222656 80.079787
30.900000 -20.189453 80.079787
30.800000 -18.906250 80.079787
30.700000 -18.748047 80.079787
30.500000 -17.464844 80.079787
30.100000 -16.681641 80.079787
30.100000 -16.148438 80.079787
30.000000 -15.990234 80.079787
29.900000 -15.207031 80.079787
29.900000 -14.423828 80.079787
29.800000 -13.640625 80.079787
29.700000 -12.609375 80.079787
29.600000 -12.453125 80.079787
29.600000 -11.796875 80.079787
29.600000 -11.390625 80.079787
29.600000 -9.984375 80.079787
29.800000 -9.578125 80.079787
30.200000 -8.796875 80.079787
32.100000 -25.198242 80.207481
32.000000 -25.037109 80.207481
31.800000 -24.625977 80.207481
31.700000 -23.589844 80.207481
31.600000 -22.928711 80.207481
31.500000 -22.392578 80.207481
31.300000 -21.106445 80.207481
31.200000 -20.945312 80.207481
31.100000 -20.284180 80.207481
30.800000 -19.498047 80.207481
30.600000 -19.086914 80.207481
30.600000 -18.175781 80.207481
30.400000 -16.889648 80.207481
30.100000 -16.978516 80.207481
30.000000 -16.067383 80.207481
30.000000 -15.406250 80.207481
29.900000 -14.249512 80.207481
29.900000 -14.342773 80.207481
29.700000 -12.811035 80.207481
29.600000 -12.154297 80.207481
29.600000 -12.122559 80.207481
29.600000 -10.965820 80.207481
29.600000 -10.809082 80.207481
29.700000 -10.152344 80.207481
32.000000 -25.726562 80.346334
32.000000 -24.439453 80.346334
31.800000 -24.402344 80.346334
31.700000 -23.240234 80.346334
31.600000 -23.078125 80.346334
31.400000 -22.416016 80.346334
31.300000 -21.378906 80.346334
31.100000 -20.966797 80.346334
30.900000 -19.804688 80.346334
30.600000 -19.017578 80.346334
30.400000 -18.480469 80.346334
30.600000 -17.818359 80.346334
30.400000 -17.281250 80.346334
30.100000 -16.874512 80.346334
30.000000 -15.967773 80.346334
30.000000 -14.936035 80.346334
29.900000 -14.904297 80.346334
29.800000 -13.997559 80.346334
29.700000 -13.590820 80.346334
29.600000 -12.934082 80.346334
29.600000 -11.777344 80.346334
29.600000 -11.370605 80.346334
29.600000 -10.713867 80.346334
29.700000 -10.182129 80.346334
30.000000 -9.275391 80.346334
32.000000 -25.269531 80.487333
31.900000 -24.984375 80.487333
31.800000 -23.699219 80.487333
31.700000 -23.039062 80.487333
31.500000 -22.878906 80.487333
31.400000 -21.843750 80.487333
31.300000 -21.558594 80.487333
31.100000 -20.273438 80.487333
30.700000 -19.988281 80.487333
30.400000 -19.328125 80.487333
30.300000 -18.170898 80.487333
30.500000 -18.263672 80.487333
30.400000 -16.856445 80.487333
30.100000 -16.574219 80.487333
30.000000 -15.791992 80.487333
30.000000 -14.634766 80.487333
29.900000 -14.727539 80.487333
29.800000 -13.320312 80.487333
29.700000 -12.913086 80.487333
29.600000 -12.255859 80.487333
29.600000 -11.973633 80.487333
29.600000 -11.566406 80.487333
29.600000 -10.159180 80.487333
29.700000 -10.251953 80.487333
30.000000 -8.969727 80.487333
32.200000 -25.892090 80.630061
32.000000 -25.483398 80.630061
31.900000 -24.699707 80.630061
31.700000 -23.916016 80.630061
31.600000 -23.257324 80.630061
31.500000 -22.473633 80.630061
31.300000 -21.939941 80.630061
31.300000 -21.406250 80.630061
30.800000 -20.374023 80.630061
30.300000 -19.341797 80.630061
30.300000 -18.809570 80.630061
30.300000 -18.402344 80.630061
30.500000 -17.620117 80.630061
30.400000 -17.212891 80.630061
30.100000 -16.180664 80.630061
30.000000 -15.648438 80.630061
29.900000 -14.741211 80.630061
29.900000 -13.958984 80.630061
29.800000 -13.926758 80.630061
29.700000 -12.769531 80.630061
29.600000 -12.237305 80.630061
29.600000 -11.830078 80.630061
29.600000 -11.047852 80.630061
29.600000 -10.140625 80.630061
29.800000 -9.608398 80.630061
30.200000 -8.701172 80.630061
32.100000 -25.513672 80.770365
31.900000 -25.229004 80.770365
31.800000 -23.944336 80.770365
31.700000 -24.034668 80.770365
31.600000 -22.875000 80.770365
31.400000 -22.219238 80.770365
31.300000 -21.813477 80.770365
30.900000 -20.907715 80.770365
30.500000 -19.751953 80.770365
30.300000 -19.596191 80.770365
30.200000 -19.065430 80.770365
30.200000 -17.784668 80.770365
30.400000 -17.878906 80.770365
30.300000 -16.473145 80.770365
30.100000 -15.942383 80.770365
30.000000 -15.286621 80.770365
29.900000 -15.005859 80.770365
29.800000 -14.100098 80.770365
29.700000 -13.319336 80.770365
29.700000 -12.788574 80.770365
29.600000 -11.632812 80.770365
29.500000 -11.852051 80.770365
29.600000 -10.946289 80.770365
29.600000 -9.790527 80.770365
29.800000 -9.634766 80.770365
30.300000 -9.229004 80.770365
32.100000 -26.302734 80.911306
32.000000 -25.143555 80.911306
31.800000 -24.234375 80.911306
31.700000 -23.702637 80.911306
31.600000 -23.545898 80.911306
31.500000 -22.264160 80.911306
31.400000 -21.482422 80.911306
31.100000 -21.325684 80.911306
30.600000 -20.418945 80.911306
30.100000 -19.637207 80.911306
30.000000 -18.980469 80.911306
30.100000 -17.948730 80.911306
30.200000 -17.666992 80.911306
30.400000 -17.385254 80.911306
30.300000 -16.728516 80.911306
30.000000 -16.196777 80.911306
29.900000 -15.415039 80.911306
29.900000 -14.258301 80.911306
29.800000 -14.101562 80.911306
29.700000 -12.569824 80.911306
29.600000 -12.413086 80.911306
29.600000 -11.506348 80.911306
29.600000 -11.224609 80.911306
29.600000 -10.192871 80.911306
29.800000 -9.286133 80.911306
30.100000 -9.629395 80.911306
32.000000 -25.577148 81.051218
31.900000 -24.919922 81.051218
31.800000 -24.262695 81.051218
31.700000 -23.230469 81.051218
31.500000 -23.198242 81.051218
31.400000 -22.041016 81.051218
31.300000 -21.508789 81.051218
30.100000 -20.069336 81.051218
30.000000 -19.537109 81.051218
30.000000 -18.754883 81.051218
30.100000 -17.722656 81.051218
30.200000 -17.690430 81.051218
30.400000 -16.533203 81.051218
30.200000 -16.000977 81.051218
30.000000 -15.093750 81.051218
29.900000 -14.936523 81.051218
29.900000 -14.404297 81.051218
29.700000 -13.122070 81.051218
29.600000 -12.964844 81.051218
29.600000 -11.557617 81.051218
29.600000 -11.275391 81.051218
29.600000 -10.868164 81.051218
29.700000 -10.460938 81.051218
32.100000 -25.971680 81.191393
31.900000 -24.941406 81.191393
31.800000 -24.786133 81.191393
31.700000 -23.630859 81.191393
31.600000 -23.225586 81.191393
31.400000 -22.320312 81.191393
31.400000 -22.040039 81.191393
30.100000 -20.229492 81.191393
30.000000 -19.199219 81.191393
30.000000 -18.918945 81.191393
30.100000 -18.388672 81.191393
30.100000 -17.733398 81.191393
30.300000 -16.453125 81.191393
30.300000 -16.047852 81.191393
30.000000 -15.642578 81.191393
29.900000 -14.862305 81.191393
29.800000 -13.832031 81.191393
29.700000 -13.301758 81.191393
29.700000 -12.771484 81.191393
29.600000 -12.366211 81.191393
29.600000 -11.210938 81.191393
29.600000 -10.680664 81.191393
29.600000 -10.400391 81.191393
29.800000 -9.370117 81.191393
30.200000 -8.839844 81.191393
32.000000 -25.758789 81.330173
31.900000 -24.979004 81.330173
31.700000 -23.699219 81.330173
31.600000 -23.794434 81.330173
31.500000 -23.014648 81.330173
31.400000 -22.359863 81.330173
31.000000 -21.330078 81.330173
30.500000 -20.675293 81.330173
30.100000 -19.895508 81.330173
30.000000 -18.865723 81.330173
30.000000 -18.335938 81.330173
30.000000 -17.681152 81.330173
30.100000 -17.276367 81.330173
30.300000 -16.746582 81.330173
30.300000 -15.716797 81.330173
30.000000 -15.562012 81.330173
29.900000 -14.907227 81.330173
29.800000 -14.252441 81.330173
29.700000 -12.847656 81.330173
29.600000 -12.692871 81.330173
29.600000 -11.538086 81.330173
29.500000 -11.633301 81.330173
29.600000 -10.478516 81.330173
29.700000 -9.573730 81.330173
32.500000 -26.145996 81.469482
32.100000 -26.113281 81.469482
32.000000 -25.330566 81.469482
31.800000 -24.922852 81.469482
31.700000 -23.515137 81.469482
31.600000 -23.107422 81.469482
31.400000 -22.324707 81.469482
31.400000 -22.041992 81.469482
30.000000 -20.476562 81.469482
30.000000 -19.943848 81.469482
30.000000 -19.286133 81.469482
29.900000 -18.003418 81.469482
30.000000 -17.845703 81.469482
30.100000 -17.187988 81.469482
30.500000 -16.655273 81.469482
30.400000 -15.872559 81.469482
29.900000 -15.214844 81.469482
29.900000 -14.557129 81.469482
29.800000 -13.274414 81.469482
29.700000 -12.741699 81.469482
29.600000 -12.083984 81.469482
29.500000 -11.426270 81.469482
29.600000 -10.768555 81.469482
29.600000 -10.360840 81.469482
29.800000 -9.953125 81.469482
30.100000 -8.797852 81.469482
32.100000 -25.732910 81.610665
31.900000 -25.572266 81.610665
31.800000 -24.411621 81.610665
31.700000 -24.000977 81.610665
31.600000 -23.465332 81.610665
31.500000 -22.429688 81.610665
31.400000 -22.019043 81.610665
30.000000 -20.447754 81.610665
30.000000 -20.037109 81.610665
29.900000 -19.001465 81.610665
29.900000 -18.590820 81.610665
30.000000 -17.430176 81.610665
30.100000 -16.644531 81.610665
30.400000 -16.858887 81.610665
30.400000 -15.573242 81.610665
29.900000 -15.037598 81.610665
29.900000 -14.751953 81.610665
29.800000 -14.091309 81.610665
29.700000 -13.055664 81.610665
29.600000 -12.770020 81.610665
29.600000 -11.859375 81.610665
29.600000 -10.829102 81.610665
29.600000 -9.923828 81.610665
29.800000 -9.268555 81.610665
30.100000 -8.988281 81.610665
32.500000 -26.164062 81.751205
32.000000 -25.253906 81.751205
31.800000 -25.093750 81.751205
31.700000 -24.558594 81.751205
31.600000 -23.773438 81.751205
31.500000 -23.113281 81.751205
31.500000 -22.453125 81.751205
30.100000 -20.382812 81.751205
30.200000 -19.597656 81.751205
30.100000 -19.312500 81.751205
30.000000 -18.652344 81.751205
30.000000 -17.867188 81.751205
30.100000 -17.582031 81.751205
30.100000 -15.726562 81.751205
29.900000 -14.566406 81.751205
29.800000 -13.906250 81.751205
29.700000 -13.375488 81.751205
29.600000 -12.219727 81.751205
29.600000 -12.063965 81.751205
29.500000 -10.908203 81.751205
29.600000 -10.502441 81.751205
29.700000 -9.971680 81.751205
29.900000 -9.440918 81.751205
30.400000 -8.785156 81.751205
32.000000 -26.002930 81.893458
31.800000 -24.844238 81.893458
31.700000 -24.685547 81.893458
31.600000 -23.401855 81.893458
31.400000 -22.618164 81.893458
31.400000 -22.709473 81.893458
30.100000 -21.142090 81.893458
30.100000 -20.483398 81.893458
30.100000 -19.074707 81.893458
30.000000 -18.916016 81.893458
30.100000 -18.632324 81.893458
30.100000 -17.973633 81.893458
30.200000 -16.814941 81.893458
30.500000 -16.156250 81.893458
30.400000 -15.250000 81.893458
30.000000 -14.968750 81.893458
29.800000 -13.812500 81.893458
29.700000 -13.781250 81.893458
29.700000 -13.000000 81.893458
29.600000 -11.718750 81.893458
29.500000 -11.562500 81.893458
29.600000 -10.531250 81.893458
29.600000 -10.500000 81.893458
29.800000 -9.968750 81.893458
30.200000 -8.687500 81.893458
32.500000 -26.373047 82.031951
32.000000 -25.589355 82.031951
31.900000 -25.430664 82.031951
31.700000 -24.271973 82.031951
31.600000 -23.863281 82.031951
31.500000 -23.329590 82.031951
31.300000 -22.795898 82.031951
30.800000 -21.512207 82.031951
30.200000 -20.853516 82.031951
30.100000 -20.069824 82.031951
30.300000 -19.661133 82.031951
30.200000 -18.502441 82.031951
30.100000 -18.093750 82.031951
30.100000 -17.687012 82.031951
30.200000 -16.655273 82.031951
30.300000 -16.373535 82.031951
30.600000 -15.841797 82.031951
29.900000 -14.653320 82.031951
29.800000 -13.621582 82.031951
29.600000 -12.714844 82.031951
29.600000 -11.933105 82.031951
29.500000 -11.526367 82.031951
29.600000 -11.244629 82.031951
29.600000 -10.587891 82.031951
29.800000 -9.431152 82.031951
30.200000 -9.399414 82.031951
32.400000 -26.158203 82.172898
31.900000 -25.375000 82.172898
31.800000 -24.966797 82.172898
31.700000 -24.058594 82.172898
31.600000 -23.775391 82.172898
31.400000 -22.867188 82.172898
31.400000 -22.208984 82.172898
30.100000 -21.017578 82.172898
30.100000 -19.859375 82.172898
30.400000 -19.828125 82.172898
30.300000 -19.171875 82.172898
30.000000 -18.515625 82.172898
30.100000 -17.609375 82.172898
30.300000 -16.578125 82.172898
30.400000 -15.796875 82.172898
30.700000 -15.390625 82.172898
29.800000 -14.203125 82.172898
29.700000 -13.296875 82.172898
29.600000 -12.515625 82.172898
29.600000 -11.859375 82.172898
29.500000 -11.453125 82.172898
29.600000 -11.046875 82.172898
29.600000 -10.515625 82.172898
29.800000 -9.109375 82.172898
30.200000 -9.453125 82.172898
31.900000 -26.092773 82.313598
31.900000 -25.183594 82.313598
31.700000 -24.399414 82.313598
31.700000 -23.365234 82.313598
31.500000 -22.831055 82.313598
31.400000 -22.296875 82.313598
30.200000 -21.230469 82.313598
30.200000 -20.572266 82.313598
30.300000 -19.789062 82.313598
30.300000 -18.880859 82.313598
30.200000 -18.347656 82.313598
30.200000 -18.064453 82.313598
30.300000 -16.656250 82.313598
30.200000 -15.306641 82.313598
29.900000 -14.273438 82.313598
29.800000 -13.615234 82.313598
29.700000 -13.207031 82.313598
29.600000 -12.423828 82.313598
29.500000 -11.640625 82.313598
29.500000 -10.607422 82.313598
29.600000 -10.074219 82.313598
29.800000 -9.416016 82.313598
30.200000 -8.882812 82.313598
32.300000 -26.146484 82.452503
31.900000 -25.238281 82.452503
31.800000 -25.080078 82.452503
31.700000 -23.921875 82.452503
31.600000 -23.641113 82.452503
31.400000 -22.985352 82.452503
31.400000 -21.829590 82.452503
30.200000 -20.518066 82.452503
30.200000 -19.737305 82.452503
30.300000 -19.581543 82.452503
30.300000 -18.425781 82.452503
30.200000 -18.270020 82.452503
30.300000 -17.364258 82.452503
30.400000 -17.083496 82.452503
30.300000 -14.866211 82.452503
29.900000 -14.085449 82.452503
29.700000 -13.054688 82.452503
29.700000 -12.898926 82.452503
29.600000 -11.618164 82.452503
29.500000 -11.087402 82.452503
29.600000 -11.056641 82.452503
29.700000 -9.650879 82.452503
29.900000 -9.370117 82.452503
30.400000 -9.214355 82.452503
31.900000 -25.063477 82.593664
31.800000 -24.533203 82.593664
31.700000 -23.877930 82.593664
31.500000 -23.222656 82.593664
31.400000 -22.817383 82.593664
31.100000 -22.037109 82.593664
30.500000 -21.381836 82.593664
30.200000 -20.851562 82.593664
30.100000 -19.571289 82.593664
30.400000 -19.666016 82.593664
30.500000 -18.510742 82.593664
30.300000 -17.730469 82.593664
30.300000 -17.325195 82.593664
30.400000 -16.669922 82.593664
30.400000 -15.639648 82.593664
30.700000 -15.109375 82.593664
30.600000 -14.829102 82.593664
30.000000 -13.423828 82.593664
29.700000 -13.018555 82.593664
29.600000 -12.488281 82.593664
29.600000 -12.083008 82.593664
29.500000 -11.677734 82.593664
29.600000 -10.522461 82.593664
29.700000 -10.242188 82.593664
32.300000 -26.502930 82.720613
31.900000 -26.223145 82.720613
31.900000 -24.943359 82.720613
31.700000 -24.163574 82.720613
31.600000 -24.008789 82.720613
31.400000 -22.854004 82.720613
31.400000 -22.824219 82.720613
30.200000 -20.764648 82.720613
30.200000 -20.609863 82.720613
30.300000 -18.645508 82.720613
30.400000 -17.990723 82.720613
30.400000 -17.460938 82.720613
30.500000 -16.056152 82.720613
30.600000 -15.901367 82.720613
30.700000 -15.371582 82.720613
30.400000 -14.091797 82.720613
29.900000 -13.562012 82.720613
29.700000 -12.532227 82.720613
29.600000 -12.252441 82.720613
29.500000 -11.222656 82.720613
29.500000 -10.942871 82.720613
29.600000 -10.038086 82.720613
29.700000 -10.008301 82.720613
30.100000 -9.228516 82.720613
32.300000 -25.986816 82.872859
31.900000 -25.831055 82.872859
31.800000 -24.675293 82.872859
31.700000 -24.144531 82.872859
31.600000 -23.738770 82.872859
31.400000 -22.958008 82.872859
31.500000 -22.552246 82.872859
30.200000 -21.240723 82.872859
30.200000 -19.959961 82.872859
30.400000 -17.992676 82.872859
30.400000 -17.586914 82.872859
30.400000 -17.181152 82.872859
30.400000 -16.025391 82.872859
30.800000 -15.619629 82.872859
30.800000 -15.213867 82.872859
30.300000 -14.433105 82.872859
29.900000 -13.277344 82.872859
29.700000 -12.621582 82.872859
29.600000 -11.715820 82.872859
29.500000 -10.935059 82.872859
29.500000 -11.029297 82.872859
29.600000 -10.373535 82.872859
29.800000 -9.717773 82.872859
30.200000 -9.187012 82.872859
32.400000 -26.347656 82.998707
31.900000 -25.687988 82.998707
31.800000 -25.153320 82.998707
31.800000 -24.618652 82.998707
31.600000 -23.708984 82.998707
31.500000 -23.049316 82.998707
31.500000 -22.764648 82.998707
30.200000 -21.320312 82.998707
30.200000 -20.660645 82.998707
30.300000 -18.681641 82.998707
30.400000 -18.021973 82.998707
30.400000 -17.362305 82.998707
30.500000 -16.327637 82.998707
30.400000 -14.723633 82.998707
30.000000 -13.313965 82.998707
29.800000 -13.154297 82.998707
29.700000 -12.119629 82.998707
29.500000 -11.584961 82.998707
29.500000 -10.800293 82.998707
29.600000 -10.765625 82.998707
29.700000 -9.735840 82.998707
30.100000 -9.081055 82.998707
32.200000 -26.128906 83.152796
31.800000 -25.092773 83.152796
31.800000 -25.056641 83.152796
31.700000 -23.895508 83.152796
31.500000 -23.359375 83.152796
31.400000 -22.573242 83.152796
30.900000 -21.537109 83.152796
30.300000 -21.500977 83.152796
30.200000 -20.464844 83.152796
30.400000 -18.856445 83.152796
30.500000 -17.945312 83.152796
30.400000 -17.159180 83.152796
30.500000 -16.623047 83.152796
30.400000 -14.639648 83.152796
30.100000 -13.978516 83.152796
29.800000 -12.942383 83.152796
29.600000 -12.656250 83.152796
29.600000 -11.750488 83.152796
29.500000 -11.094727 83.152796
29.600000 -10.688965 83.152796
29.700000 -9.908203 83.152796
32.200000 -26.510254 83.293282
31.800000 -25.726562 83.293282
31.800000 -24.942871 83.293282
31.700000 -24.159180 83.293282
31.600000 -24.000488 83.293282
31.400000 -23.341797 83.293282
31.500000 -22.183105 83.293282
30.100000 -20.740723 83.293282
30.200000 -20.207031 83.293282
30.400000 -19.548340 83.293282
30.600000 -19.014648 83.293282
30.500000 -17.980957 83.293282
30.400000 -17.322266 83.293282
30.400000 -16.913574 83.293282
30.900000 -15.437500 83.293282
30.000000 -13.124023 83.293282
29.800000 -12.467285 83.293282
29.600000 -12.185547 83.293282
29.500000 -11.403809 83.293282
29.500000 -11.122070 83.293282
29.600000 -10.590332 83.293282
29.800000 -9.558594 83.293282
30.200000 -9.151855 83.293282
32.200000 -26.362305 83.432268
31.800000 -25.453613 83.432268
31.800000 -24.794922 83.432268
31.700000 -24.136230 83.432268
31.600000 -23.977539 83.432268
31.400000 -23.193848 83.432268
31.400000 -22.035156 83.432268
30.200000 -20.967773 83.432268
30.200000 -19.809082 83.432268
30.300000 -19.650391 83.432268
30.500000 -18.991699 83.432268
30.400000 -18.333008 83.432268
30.400000 -17.549316 83.432268
30.400000 -17.015625 83.432268
30.700000 -15.298340 83.432268
30.400000 -13.892578 83.432268
29.900000 -13.736816 83.432268
29.700000 -12.706055 83.432268
29.600000 -12.175293 83.432268
29.500000 -11.394531 83.432268
29.500000 -10.988770 83.432268
29.500000 -9.708008 83.432268
29.700000 -9.177246 83.432268
30.200000 -9.021484 83.432268
32.200000 -26.621094 83.572113
31.800000 -25.585938 83.572113
31.800000 -25.050781 83.572113
31.700000 -24.140625 83.572113
31.500000 -23.230469 83.572113
31.400000 -22.445312 83.572113
31.000000 -22.160156 83.572113
30.500000 -21.250000 83.572113
30.200000 -20.839844 83.572113
30.100000 -19.554688 83.572113
30.300000 -19.019531 83.572113
30.500000 -18.859375 83.572113
30.500000 -18.451172 83.572113
30.400000 -17.167969 83.572113
30.400000 -16.509766 83.572113
30.400000 -16.101562 83.572113
30.700000 -15.193359 83.572113
30.800000 -15.160156 83.572113
30.200000 -13.501953 83.572113
29.800000 -13.093750 83.572113
29.800000 -13.060547 83.572113
29.600000 -12.152344 83.572113
29.500000 -10.869141 83.572113
29.500000 -10.460938 83.572113
29.500000 -10.427734 83.572113
32.200000 -26.476562 83.712022
31.800000 -25.692383 83.712022
31.800000 -24.533203 83.712022
31.600000 -23.749023 83.712022
31.500000 -23.339844 83.712022
31.500000 -22.805664 83.712022
30.300000 -21.237305 83.712022
30.200000 -20.328125 83.712022
30.100000 -20.045898 83.712022
30.300000 -19.513672 83.712022
30.500000 -18.981445 83.712022
30.400000 -17.949219 83.712022
30.400000 -17.666992 83.712022
30.500000 -16.509766 83.712022
30.600000 -15.977539 83.712022
30.800000 -15.445312 83.712022
30.500000 -14.163086 83.712022
30.000000 -13.880859 83.712022
29.700000 -12.723633 83.712022
29.600000 -12.316406 83.712022
29.600000 -11.659180 83.712022
29.500000 -11.501953 83.712022
29.500000 -10.344727 83.712022
29.500000 -10.187500 83.712022
32.100000 -25.759766 83.850059
31.900000 -25.726562 83.850059
31.800000 -24.318359 83.850059
31.600000 -24.160156 83.850059
31.400000 -23.251953 83.850059
31.600000 -22.718750 83.850059
30.300000 -21.155273 83.850059
30.200000 -20.623535 83.850059
30.100000 -19.341797 83.850059
30.200000 -18.935059 83.850059
30.400000 -18.528320 83.850059
30.400000 -17.621582 83.850059
30.500000 -17.589844 83.850059
30.500000 -16.558105 83.850059
30.700000 -16.151367 83.850059
30.800000 -15.494629 83.850059
30.300000 -14.712891 83.850059
29.800000 -13.556152 83.850059
29.700000 -13.149414 83.850059
29.600000 -11.867676 83.850059
29.500000 -11.710938 83.850059
29.500000 -10.804199 83.850059
29.500000 -10.147461 83.850059
29.600000 -10.115723 83.850059
31.900000 -26.094727 83.989150
31.800000 -25.187988 83.989150
31.700000 -24.031250 83.989150
31.600000 -23.501465 83.989150
31.400000 -23.221680 83.989150
31.500000 -22.441895 83.989150
30.200000 -21.132324 83.989150
30.100000 -19.977539 83.989150
30.100000 -19.572754 83.989150
30.200000 -18.667969 83.989150
30.400000 -18.638184 83.989150
30.400000 -17.358398 83.989150
30.400000 -17.203613 83.989150
30.500000 -16.423828 83.989150
30.700000 -15.894043 83.989150
30.700000 -15.364258 83.989150
30.100000 -14.459473 83.989150
29.700000 -13.304688 83.989150
29.500000 -12.649902 83.989150
29.400000 -12.120117 83.989150
29.400000 -11.465332 83.989150
29.500000 -10.810547 83.989150
29.500000 -10.780762 83.989150
29.600000 -10.000977 83.989150
30.000000 -8.971191 83.989150
32.200000 -25.671875 84.129702
31.900000 -25.519043 84.129702
31.800000 -24.491211 84.129702
31.600000 -23.963379 84.129702
31.400000 -23.185547 84.129702
31.500000 -22.907715 84.129702
30.300000 -21.102051 84.129702
30.200000 -20.199219 84.129702
30.100000 -20.046387 84.129702
30.100000 -19.268555 84.129702
30.300000 -18.240723 84.129702
30.400000 -18.087891 84.129702
30.400000 -16.810059 84.129702
30.400000 -16.532227 84.129702
30.700000 -16.004395 84.129702
30.800000 -15.101562 84.129702
30.200000 -14.448730 84.129702
29.700000 -13.795898 84.129702
29.500000 -13.268066 84.129702
29.400000 -12.740234 84.129702
29.500000 -11.837402 84.129702
29.500000 -11.559570 84.129702
29.400000 -10.656738 84.129702
29.500000 -9.503906 84.129702
32.100000 -25.845215 84.271226
31.800000 -25.314453 84.271226
31.700000 -24.408691 84.271226
31.600000 -23.752930 84.271226
31.400000 -23.097168 84.271226
31.400000 -22.566406 84.271226
30.300000 -21.129883 84.271226
30.100000 -20.599121 84.271226
30.200000 -19.943359 84.271226
30.200000 -19.287598 84.271226
30.500000 -18.881836 84.271226
30.600000 -17.976074 84.271226
30.500000 -16.820312 84.271226
30.500000 -16.914551 84.271226
30.600000 -15.633789 84.271226
30.500000 -15.103027 84.271226
29.900000 -14.072266 84.271226
29.600000 -13.541504 84.271226
29.500000 -13.010742 84.271226
29.400000 -12.604980 84.271226
29.500000 -11.324219 84.271226
29.500000 -11.418457 84.271226
29.500000 -10.137695 84.271226
29.500000 -10.106934 84.271226
32.100000 -25.628906 84.399504
31.800000 -25.220703 84.399504
31.700000 -24.812500 84.399504
31.600000 -24.029297 84.399504
31.500000 -23.371094 84.399504
31.400000 -22.587891 84.399504
30.800000 -21.304688 84.399504
30.300000 -21.021484 84.399504
30.200000 -19.988281 84.399504
30.200000 -20.080078 84.399504
30.300000 -19.046875 84.399504
30.600000 -18.013672 84.399504
30.600000 -17.230469 84.399504
30.500000 -17.072266 84.399504
30.600000 -16.789062 84.399504
30.700000 -15.630859 84.399504
30.200000 -14.597656 84.399504
29.600000 -14.314453 84.399504
29.500000 -13.781250 84.399504
29.400000 -12.748047 84.399504
29.400000 -11.964844 84.399504
29.400000 -11.431641 84.399504
29.400000 -11.148438 84.399504
29.400000 -10.365234 84.399504
29.500000 -10.082031 84.399504
29.900000 -9.298828 84.399504
32.200000 -26.400391 84.539745
31.800000 -25.613281 84.539745
31.700000 -24.576172 84.539745
31.600000 -23.664062 84.539745
31.500000 -23.626953 84.539745
31.300000 -22.339844 84.539745
30.800000 -21.552734 84.539745
30.400000 -21.265625 84.539745
30.200000 -19.853516 84.539745
30.100000 -20.066406 84.539745
30.300000 -19.029297 84.539745
30.500000 -18.617188 84.539745
30.600000 -18.080078 84.539745
30.500000 -17.292969 84.539745
30.600000 -16.130859 84.539745
30.700000 -15.843750 84.539745
30.100000 -14.806641 84.539745
29.600000 -14.269531 84.539745
29.500000 -13.857422 84.539745
29.400000 -12.445312 84.539745
29.400000 -11.783203 84.539745
29.400000 -11.496094 84.539745
29.500000 -10.458984 84.539745
29.400000 -10.046875 84.539745
29.500000 -9.391113 84.539745
32.400000 -26.226562 84.694570
31.800000 -25.068359 84.694570
31.700000 -24.535156 84.694570
31.600000 -24.376953 84.694570
31.500000 -23.093750 84.694570
31.300000 -22.685547 84.694570
31.000000 -21.527344 84.694570
30.600000 -21.619141 84.694570
30.300000 -20.710938 84.694570
30.300000 -20.302734 84.694570
30.400000 -19.144531 84.694570
30.600000 -18.986328 84.694570
30.700000 -17.828125 84.694570
30.600000 -16.919922 84.694570
30.700000 -16.386719 84.694570
30.600000 -15.978516 84.694570
30.100000 -15.445312 84.694570
29.600000 -14.787109 84.694570
29.500000 -13.378906 84.694570
29.400000 -12.720703 84.694570
29.300000 -12.562500 84.694570
29.300000 -12.156250 84.694570
29.400000 -11.375000 84.694570
29.400000 -10.468750 84.694570
29.500000 -9.812500 84.694570
32.400000 -26.212402 84.834256
32.000000 -25.679688 84.834256
31.800000 -25.271973 84.834256
31.700000 -24.489258 84.834256
31.600000 -23.706543 84.834256
31.400000 -23.048828 84.834256
31.400000 -22.641113 84.834256
31.100000 -21.983398 84.834256
30.600000 -20.950684 84.834256
30.300000 -20.542969 84.834256
30.400000 -19.635254 84.834256
30.600000 -18.727539 84.834256
30.500000 -18.069824 84.834256
30.600000 -17.662109 84.834256
30.700000 -17.379395 84.834256
30.800000 -16.721680 84.834256
30.300000 -15.438965 84.834256
29.700000 -14.906250 84.834256
29.500000 -13.875000 84.834256
29.500000 -13.093750 84.834256
29.400000 -13.187500 84.834256
29.300000 -12.531250 84.834256
29.400000 -11.875000 84.834256
29.400000 -10.968750 84.834256
29.400000 -10.562500 84.834256
32.200000 -26.281738 84.975257
31.800000 -24.873047 84.975257
31.700000 -24.714355 84.975257
31.600000 -23.805664 84.975257
31.400000 -22.896973 84.975257
31.300000 -22.488281 84.975257
31.200000 -21.579590 84.975257
30.800000 -20.670898 84.975257
30.600000 -20.512207 84.975257
30.600000 -19.728516 84.975257
30.600000 -18.694824 84.975257
30.500000 -18.286133 84.975257
30.600000 -17.627441 84.975257
30.700000 -17.218750 84.975257
30.700000 -16.062500 84.975257
29.600000 -14.500000 84.975257
29.500000 -14.468750 84.975257
29.400000 -13.437500 84.975257
29.300000 -12.781250 84.975257
29.300000 -12.125000 84.975257
29.400000 -11.968750 84.975257
29.400000 -10.812500 84.975257
29.400000 -10.281250 84.975257
29.500000 -9.875000 84.975257
29.900000 -8.718750 84.975257
32.200000 -26.085938 85.115959
31.800000 -25.050781 85.115959
31.700000 -24.765625 85.115959
31.600000 -23.605469 85.115959
31.500000 -23.070312 85.115959
31.300000 -22.785156 85.115959
31.200000 -22.250000 85.115959
31.000000 -21.464844 85.115959
30.600000 -20.554688 85.115959
30.600000 -19.894531 85.115959
30.500000 -18.859375 85.115959
30.500000 -18.702148 85.115959
30.700000 -18.169922 85.115959
30.700000 -16.887695 85.115959
30.600000 -16.230469 85.115959
29.600000 -14.666016 85.115959
29.500000 -13.758789 85.115959
29.400000 -13.601562 85.115959
29.400000 -13.319336 85.115959
29.400000 -12.662109 85.115959
29.300000 -12.004883 85.115959
29.400000 -11.222656 85.115959
29.400000 -10.690430 85.115959
29.500000 -10.033203 85.115959
29.900000 -9.000977 85.115959
31.800000 -25.405273 85.254598
31.800000 -25.121582 85.254598
31.600000 -24.462891 85.254598
31.500000 -23.429199 85.254598
31.300000 -22.770508 85.254598
31.200000 -21.861816 85.254598
31.100000 -21.578125 85.254598
30.800000 -20.921387 85.254598
30.600000 -20.389648 85.254598
30.500000 -19.232910 85.254598
30.500000 -18.576172 85.254598
30.700000 -17.919434 85.254598
30.700000 -17.012695 85.254598
30.600000 -16.355957 85.254598
30.100000 -15.574219 85.254598
29.700000 -14.917480 85.254598
29.600000 -14.010742 85.254598
29.400000 -13.479004 85.254598
29.200000 -13.072266 85.254598
29.300000 -12.665527 85.254598
29.400000 -11.633789 85.254598
29.400000 -11.102051 85.254598
29.400000 -10.820312 85.254598
29.500000 -9.788574 85.254598
31.800000 -25.601074 85.394274
31.800000 -24.567383 85.394274
31.600000 -24.158691 85.394274
31.500000 -23.500000 85.394274
31.400000 -22.970703 85.394274
31.200000 -22.441406 85.394274
31.100000 -21.412109 85.394274
30.800000 -21.132812 85.394274
30.600000 -20.103516 85.394274
30.500000 -19.074219 85.394274
30.500000 -18.794922 85.394274
30.700000 -17.890625 85.394274
30.700000 -17.236328 85.394274
30.500000 -16.457031 85.394274
30.200000 -16.427734 85.394274
29.800000 -15.398438 85.394274
29.500000 -14.494141 85.394274
29.300000 -14.214844 85.394274
29.300000 -13.560547 85.394274
29.300000 -13.031250 85.394274
29.400000 -11.501953 85.394274
29.300000 -11.722656 85.394274
29.400000 -10.318359 85.394274
29.500000 -10.289062 85.394274
29.700000 -9.134766 85.394274
32.300000 -25.953125 85.521826
31.800000 -24.800293 85.521826
31.700000 -24.522461 85.521826
31.600000 -23.994629 85.521826
31.400000 -22.966797 85.521826
31.300000 -22.188965 85.521826
31.200000 -21.786133 85.521826
30.900000 -20.758301 85.521826
30.600000 -20.605469 85.521826
30.500000 -20.077637 85.521826
30.500000 -18.799805 85.521826
30.700000 -18.646973 85.521826
30.800000 -17.369141 85.521826
30.600000 -16.841309 85.521826
30.400000 -16.313477 85.521826
30.000000 -15.410645 85.521826
29.600000 -15.132812 85.521826
29.500000 -13.729980 85.521826
29.400000 -13.702148 85.521826
29.300000 -12.674316 85.521826
29.300000 -12.521484 85.521826
29.300000 -11.368652 85.521826
29.300000 -11.090820 85.521826
29.400000 -10.687988 85.521826
29.500000 -9.285156 85.521826
29.900000 -9.007324 85.521826
31.800000 -25.384766 85.661604
31.700000 -24.980957 85.661604
31.600000 -24.202148 85.661604
31.500000 -23.298340 85.661604
31.400000 -23.019531 85.661604
31.200000 -21.865723 85.661604
31.000000 -21.461914 85.661604
30.800000 -20.183105 85.661604
30.600000 -20.029297 85.661604
30.600000 -18.875488 85.661604
30.800000 -18.971680 85.661604
30.700000 -18.192871 85.661604
30.600000 -17.039062 85.661604
30.600000 -17.010254 85.661604
30.100000 -15.731445 85.661604
29.700000 -15.452637 85.661604
29.600000 -14.423828 85.661604
29.400000 -13.520020 85.661604
29.200000 -13.366211 85.661604
29.200000 -11.962402 85.661604
29.300000 -12.183594 85.661604
29.400000 -11.279785 85.661604
29.400000 -10.000977 85.661604
29.400000 -9.722168 85.661604
31.800000 -25.545410 85.803356
31.700000 -24.636719 85.803356
31.600000 -23.853027 85.803356
31.500000 -23.569336 85.803356
31.400000 -22.910645 85.803356
31.200000 -22.126953 85.803356
31.100000 -21.093262 85.803356
30.900000 -20.684570 85.803356
30.600000 -20.025879 85.803356
30.600000 -19.367188 85.803356
30.700000 -18.583496 85.803356
30.700000 -17.549805 85.803356
30.500000 -17.141113 85.803356
30.600000 -16.357422 85.803356
30.100000 -15.573730 85.803356
29.600000 -15.415039 85.803356
29.500000 -14.381348 85.803356
29.300000 -13.972656 85.803356
29.300000 -13.438965 85.803356
29.200000 -12.780273 85.803356
29.300000 -11.996582 85.803356
29.300000 -11.462891 85.803356
29.400000 -10.804199 85.803356
29.500000 -9.895508 85.803356
32.500000 -26.242188 85.944001
32.100000 -25.706055 85.944001
31.800000 -25.419922 85.944001
31.700000 -24.758789 85.944001
31.500000 -23.722656 85.944001
31.400000 -23.186523 85.944001
31.300000 -22.525391 85.944001
31.200000 -21.489258 85.944001
31.000000 -20.953125 85.944001
30.700000 -20.291992 85.944001
30.500000 -19.880859 85.944001
30.500000 -19.344727 85.944001
30.600000 -18.308594 85.944001
30.600000 -18.022461 85.944001
30.500000 -16.736328 85.944001
30.400000 -16.450195 85.944001
30.000000 -15.289062 85.944001
29.600000 -14.752930 85.944001
29.500000 -14.466797 85.944001
29.400000 -13.680664 85.944001
29.300000 -13.019531 85.944001
29.300000 -12.358398 85.944001
29.300000 -11.947266 85.944001
29.300000 -11.286133 85.944001
29.400000 -10.250000 85.944001
32.200000 -26.144531 86.085506
31.800000 -25.109375 86.085506
31.700000 -24.949219 86.085506
31.600000 -24.164062 86.085506
31.500000 -23.753906 86.085506
31.400000 -23.093750 86.085506
31.000000 -21.683594 86.085506
30.900000 -21.023438 86.085506
30.900000 -20.613281 86.085506
30.500000 -19.453125 86.085506
30.300000 -19.542969 86.085506
30.400000 -18.257812 86.085506
30.600000 -17.722656 86.085506
30.500000 -16.937500 86.085506
30.500000 -16.402344 86.085506
30.400000 -15.867188 86.085506
29.900000 -15.332031 86.085506
29.500000 -14.671875 86.085506
29.300000 -13.886719 86.085506
29.200000 -13.476562 86.085506
29.200000 -12.441406 86.085506
29.300000 -11.781250 86.085506
29.300000 -11.249023 86.085506
29.400000 -10.591797 86.085506
29.400000 -9.434570 86.085506
29.700000 -8.902344 86.085506
32.100000 -25.995117 86.225484
31.800000 -25.212402 86.225484
31.700000 -24.804688 86.225484
31.600000 -24.146973 86.225484
31.500000 -23.614258 86.225484
31.100000 -22.831543 86.225484
30.600000 -21.923828 86.225484
30.600000 -21.641113 86.225484
30.600000 -20.733398 86.225484
30.400000 -19.325684 86.225484
30.200000 -19.542969 86.225484
30.300000 -18.760254 86.225484
30.500000 -17.352539 86.225484
30.500000 -17.444824 86.225484
30.500000 -16.787109 86.225484
30.400000 -15.504395 86.225484
29.900000 -15.096680 86.225484
29.500000 -14.688965 86.225484
29.300000 -13.906250 86.225484
29.200000 -12.874023 86.225484
29.200000 -12.341797 86.225484
29.300000 -11.684570 86.225484
29.300000 -11.527344 86.225484
29.400000 -10.245117 86.225484
29.500000 -9.962891 86.225484
29.800000 -8.805664 86.225484
32.100000 -26.125000 86.366898
31.800000 -25.965820 86.366898
31.700000 -25.306641 86.366898
31.600000 -24.147461 86.366898
31.500000 -23.988281 86.366898
31.000000 -22.954102 86.366898
30.400000 -22.294922 86.366898
30.400000 -21.385742 86.366898
30.400000 -20.192383 86.366898
30.200000 -19.783203 86.366898
30.200000 -19.249023 86.366898
30.500000 -17.839844 86.366898
30.600000 -17.555664 86.366898
30.500000 -16.896484 86.366898
30.300000 -16.487305 86.366898
30.000000 -15.578125 86.366898
29.600000 -14.671387 86.366898
29.400000 -13.639648 86.366898
29.300000 -13.607910 86.366898
29.300000 -12.826172 86.366898
29.300000 -11.794434 86.366898
29.300000 -11.262695 86.366898
29.300000 -11.105957 86.366898
29.400000 -10.574219 86.366898
29.600000 -9.167480 86.366898
32.000000 -26.275879 86.506791
31.800000 -25.740234 86.506791
31.700000 -24.829590 86.506791
31.500000 -24.168945 86.506791
31.500000 -23.383301 86.506791
30.300000 -22.312012 86.506791
30.200000 -21.276367 86.506791
30.300000 -19.830078 86.506791
30.200000 -19.294434 86.506791
30.200000 -19.008789 86.506791
30.400000 -17.973145 86.506791
30.500000 -17.437500 86.506791
30.500000 -16.531738 86.506791
30.300000 -16.250977 86.506791
30.100000 -15.470215 86.506791
29.700000 -14.939453 86.506791
29.400000 -14.158691 86.506791
29.300000 -13.127930 86.506791
29.200000 -12.222168 86.506791
29.200000 -12.316406 86.506791
29.300000 -11.285645 86.506791
29.300000 -10.754883 86.506791
29.400000 -9.724121 86.506791
29.600000 -9.943359 86.506791
32.000000 -26.664062 86.648260
31.800000 -25.878906 86.648260
31.700000 -25.343750 86.648260
31.500000 -24.433594 86.648260
31.100000 -23.773438 86.648260
30.600000 -22.613281 86.648260
30.200000 -22.453125 86.648260
30.200000 -21.792969 86.648260
30.300000 -19.847656 86.648260
30.100000 -19.187500 86.648260
30.100000 -19.155273 86.648260
30.300000 -18.373047 86.648260
30.500000 -17.965820 86.648260
30.500000 -16.933594 86.648260
30.300000 -16.651367 86.648260
30.300000 -15.869141 86.648260
29.500000 -14.429688 86.648260
29.300000 -13.522461 86.648260
29.200000 -12.990234 86.648260
29.200000 -12.458008 86.648260
29.200000 -11.300781 86.648260
29.300000 -10.643555 86.648260
29.400000 -10.486328 86.648260
29.600000 -9.454102 86.648260
30.000000 -8.546875 86.648260
32.000000 -26.206543 86.786306
31.700000 -25.424805 86.786306
31.500000 -24.893066 86.786306
31.500000 -23.986328 86.786306
30.300000 -22.672852 86.786306
30.100000 -21.766113 86.786306
30.200000 -21.109375 86.786306
30.300000 -19.920898 86.786306
30.100000 -19.514160 86.786306
30.000000 -18.357422 86.786306
30.200000 -18.200684 86.786306
30.400000 -17.918945 86.786306
30.500000 -16.762207 86.786306
30.300000 -16.480469 86.786306
30.300000 -15.698730 86.786306
30.100000 -15.041992 86.786306
29.500000 -14.010254 86.786306
29.400000 -13.728516 86.786306
29.300000 -12.321777 86.786306
29.200000 -12.415039 86.786306
29.200000 -11.383301 86.786306
29.200000 -10.226562 86.786306
29.300000 -10.444824 86.786306
32.000000 -26.087891 86.927132
31.700000 -25.179199 86.927132
31.500000 -24.895508 86.927132
31.500000 -24.111816 86.927132
30.300000 -22.550781 86.927132
30.100000 -21.773438 86.927132
30.100000 -21.746094 86.927132
30.600000 -21.218750 86.927132
30.500000 -19.941406 86.927132
30.000000 -19.164062 86.927132
30.000000 -18.636719 86.927132
30.100000 -18.109375 86.927132
30.300000 -17.832031 86.927132
30.400000 -16.929688 86.927132
30.400000 -15.902344 86.927132
30.500000 -15.625000 86.927132
30.100000 -14.847656 86.927132
29.600000 -13.945312 86.927132
29.400000 -13.042969 86.927132
29.300000 -13.015625 86.927132
29.300000 -12.363281 86.927132
29.300000 -11.460938 86.927132
29.200000 -10.683594 86.927132
29.300000 -10.656250 86.927132
29.500000 -9.253906 86.927132
29.900000 -9.226562 86.927132
32.000000 -26.051758 87.067415
31.600000 -25.765625 87.067415
31.500000 -25.237793 87.067415
31.400000 -24.584961 87.067415
30.300000 -23.029297 87.067415
30.100000 -21.751465 87.067415
30.100000 -20.417969 87.067415
30.000000 -19.140137 87.067415
30.000000 -18.737305 87.067415
30.100000 -17.834473 87.067415
30.300000 -17.431641 87.067415
30.400000 -16.403809 87.067415
30.500000 -16.500977 87.067415
30.500000 -15.973145 87.067415
30.100000 -15.070312 87.067415
29.600000 -14.292480 87.067415
29.500000 -13.639648 87.067415
29.400000 -12.486816 87.067415
29.300000 -12.083984 87.067415
29.300000 -11.556152 87.067415
29.200000 -11.278320 87.067415
29.200000 -10.250488 87.067415
29.500000 -9.222656 87.067415
29.900000 -9.319824 87.067415
31.600000 -25.809570 87.207888
31.500000 -25.027344 87.207888
31.400000 -24.120117 87.207888
31.400000 -24.212891 87.207888
30.200000 -22.023438 87.207888
30.100000 -21.491211 87.207888
30.300000 -21.333984 87.207888
30.300000 -20.801758 87.207888
30.000000 -19.519531 87.207888
29.800000 -19.237305 87.207888
30.000000 -18.705078 87.207888
30.100000 -17.922852 87.207888
30.300000 -17.265625 87.207888
30.500000 -16.358398 87.207888
30.400000 -15.701172 87.207888
30.300000 -15.418945 87.207888
30.000000 -14.761719 87.207888
29.600000 -13.979492 87.207888
29.400000 -13.322266 87.207888
29.300000 -12.040039 87.207888
29.200000 -11.632812 87.207888
29.100000 -10.850586 87.207888
29.200000 -10.568359 87.207888
29.400000 -9.911133 87.207888
29.800000 -9.128906 87.207888
31.600000 -25.495117 87.349174
31.500000 -25.585449 87.349174
31.400000 -24.550781 87.349174
31.400000 -24.141113 87.349174
30.100000 -21.946777 87.349174
30.000000 -22.037109 87.349174
30.200000 -21.502441 87.349174
30.300000 -20.467773 87.349174
30.000000 -19.183105 87.349174
29.800000 -19.023438 87.349174
30.000000 -18.738770 87.349174
30.100000 -17.454102 87.349174
30.300000 -17.544434 87.349174
30.400000 -16.009766 87.349174
30.300000 -15.725098 87.349174
30.400000 -15.440430 87.349174
30.100000 -14.530762 87.349174
29.600000 -13.121094 87.349174
29.400000 -12.711426 87.349174
29.300000 -11.801758 87.349174
29.200000 -11.267090 87.349174
29.100000 -11.232422 87.349174
29.200000 -10.697754 87.349174
29.400000 -9.413086 87.349174
29.800000 -9.253418 87.349174
31.900000 -26.522949 87.489266
31.600000 -25.612305 87.489266
31.500000 -24.951660 87.489266
31.400000 -23.916016 87.489266
31.100000 -23.755371 87.489266
30.500000 -22.719727 87.489266
29.900000 -22.184082 87.489266
29.900000 -21.023438 87.489266
30.200000 -21.112793 87.489266
30.200000 -20.452148 87.489266
29.900000 -19.416504 87.489266
29.900000 -18.755859 87.489266
30.000000 -17.720215 87.489266
30.100000 -17.434570 87.489266
30.300000 -16.398926 87.489266
30.400000 -16.363281 87.489266
30.600000 -15.327637 87.489266
30.300000 -14.791992 87.489266
29.800000 -14.256348 87.489266
29.500000 -13.345703 87.489266
29.300000 -12.435059 87.489266
29.100000 -11.274414 87.489266
29.100000 -10.738770 87.489266
29.200000 -10.953125 87.489266
29.400000 -10.171387 87.489266
29.600000 -9.514648 87.489266
32.100000 -26.577637 87.631558
31.800000 -26.294922 87.631558
31.600000 -25.512207 87.631558
31.400000 -24.354492 87.631558
31.300000 -24.321777 87.631558
31.300000 -23.164062 87.631558
29.900000 -21.848633 87.631558
29.900000 -20.815918 87.631558
29.800000 -20.908203 87.631558
30.000000 -19.625488 87.631558
30.100000 -19.592773 87.631558
30.000000 -18.810059 87.631558
30.000000 -18.152344 87.631558
30.100000 -17.369629 87.631558
30.300000 -16.961914 87.631558
30.400000 -15.679199 87.631558
30.600000 -15.646484 87.631558
30.400000 -14.988770 87.631558
29.900000 -14.206055 87.631558
29.500000 -13.298340 87.631558
