48.175000 -38.000000 0.082524
47.600000 -36.703125 0.082524
46.850000 -35.796875 0.082524
45.925000 -34.265625 0.082524
45.175000 -33.234375 0.082524
44.750000 -32.234375 0.082524
44.275000 -30.875000 0.082524
43.925000 -29.859375 0.082524
44.100000 -28.656250 0.082524
48.025000 -37.468750 0.254774
47.350000 -36.531250 0.254774
46.550000 -35.203125 0.254774
45.750000 -33.937500 0.254774
45.050000 -32.953125 0.254774
44.525000 -31.640625 0.254774
44.025000 -30.546875 0.254774
48.225000 -38.234375 0.433132
47.725000 -37.031250 0.433132
46.825000 -35.906250 0.433132
46.200000 -34.890625 0.433132
45.600000 -33.734375 0.433132
44.850000 -32.671875 0.433132
44.425000 -31.328125 0.433132
44.050000 -30.421875 0.433132
44.125000 -29.171875 0.433132
48.125000 -38.296875 0.583894
47.625000 -37.031250 0.583894
46.625000 -35.984375 0.583894
45.975000 -34.718750 0.583894
45.500000 -33.390625 0.583894
44.775000 -32.515625 0.583894
44.300000 -31.156250 0.583894
43.975000 -30.015625 0.583894
44.125000 -29.234375 0.583894
48.000000 -37.484375 0.753595
45.850000 -35.156250 0.753595
46.050000 -34.093750 0.753595
44.500000 -31.828125 0.753595
44.050000 -30.593750 0.753595
43.925000 -29.437500 0.753595
44.375000 -28.578125 0.753595
48.200000 -38.328125 0.923525
47.750000 -37.218750 0.923525
45.850000 -34.984375 0.923525
46.025000 -34.093750 0.923525
44.450000 -31.562500 0.923525
44.000000 -30.609375 0.923525
48.950000 -39.484375 1.093407
48.125000 -38.203125 1.093407
47.625000 -37.187500 1.093407
45.700000 -34.734375 1.093407
45.475000 -33.640625 1.093407
44.900000 -32.500000 1.093407
44.300000 -31.437500 1.093407
43.975000 -30.140625 1.093407
44.100000 -29.125000 1.093407
49.100000 -39.750000 1.254652
48.350000 -38.703125 1.254652
47.950000 -37.578125 1.254652
45.850000 -35.203125 1.254652
45.650000 -34.015625 1.254652
45.250000 -32.765625 1.254652
44.525000 -31.906250 1.254652
44.050000 -30.515625 1.254652
43.950000 -29.515625 1.254652
44.650000 -28.421875 1.254652
48.875000 -39.640625 1.427273
47.775000 -38.390625 1.427273
46.075000 -35.062500 1.427273
45.825000 -33.781250 1.427273
45.275000 -32.609375 1.427273
44.425000 -31.453125 1.427273
44.050000 -30.484375 1.427273
44.100000 -29.375000 1.427273
47.800000 -37.484375 1.602295
45.850000 -35.421875 1.602295
45.825000 -34.203125 1.602295
45.350000 -32.828125 1.602295
44.525000 -32.046875 1.602295
44.075000 -30.796875 1.602295
43.925000 -29.687500 1.602295
44.375000 -28.390625 1.602295
48.775000 -39.781250 1.754930
48.175000 -38.609375 1.754930
48.050000 -37.515625 1.754930
45.850000 -35.000000 1.754930
45.800000 -33.921875 1.754930
45.475000 -32.781250 1.754930
44.725000 -31.546875 1.754930
44.150000 -30.500000 1.754930
48.875000 -39.656250 1.911771
48.200000 -38.421875 1.911771
47.550000 -37.281250 1.911771
45.575000 -35.062500 1.911771
45.850000 -33.734375 1.911771
45.425000 -32.687500 1.911771
44.625000 -31.250000 1.911771
44.100000 -30.328125 1.911771
44.075000 -29.265625 1.911771
48.775000 -39.421875 2.068878
48.100000 -38.531250 2.068878
47.900000 -37.343750 2.068878
45.950000 -34.906250 2.068878
46.000000 -33.875000 2.068878
46.250000 -32.953125 2.068878
44.075000 -30.453125 2.068878
43.975000 -29.265625 2.068878
48.875000 -39.546875 2.241616
48.150000 -38.234375 2.241616
45.675000 -34.640625 2.241616
43.950000 -30.328125 2.241616
44.075000 -29.203125 2.241616
48.650000 -39.578125 2.418594
48.150000 -38.609375 2.418594
47.850000 -37.218750 2.418594
46.075000 -35.140625 2.418594
46.000000 -33.906250 2.418594
46.625000 -32.968750 2.418594
44.100000 -30.343750 2.418594
44.000000 -29.421875 2.418594
48.175000 -38.593750 2.578322
48.200000 -37.718750 2.578322
46.100000 -35.046875 2.578322
46.050000 -34.234375 2.578322
46.250000 -33.062500 2.578322
44.050000 -30.718750 2.578322
48.925000 -39.359375 2.758122
48.100000 -38.078125 2.758122
45.875000 -35.562500 2.758122
45.875000 -34.640625 2.758122
46.000000 -33.703125 2.758122
44.300000 -31.031250 2.758122
43.925000 -30.015625 2.758122
44.075000 -28.828125 2.758122
48.650000 -38.796875 2.896361
48.075000 -37.687500 2.896361
46.075000 -35.296875 2.896361
46.050000 -34.234375 2.896361
46.000000 -33.218750 2.896361
44.025000 -30.734375 2.896361
43.900000 -29.500000 2.896361
44.375000 -28.500000 2.896361
49.000000 -39.546875 3.084666
48.300000 -38.453125 3.084666
47.500000 -37.187500 3.084666
46.325000 -36.000000 3.084666
46.375000 -35.156250 3.084666
46.425000 -34.015625 3.084666
44.350000 -31.562500 3.084666
43.975000 -30.437500 3.084666
49.350000 -39.593750 3.242338
48.550000 -38.671875 3.242338
47.750000 -37.593750 3.242338
46.200000 -35.250000 3.242338
46.325000 -33.968750 3.242338
44.325000 -31.718750 3.242338
43.950000 -30.656250 3.242338
48.950000 -39.343750 3.393636
48.125000 -38.000000 3.393636
47.400000 -36.953125 3.393636
46.700000 -35.906250 3.393636
46.300000 -34.531250 3.393636
46.225000 -33.421875 3.393636
44.125000 -31.031250 3.393636
43.825000 -30.156250 3.393636
44.025000 -29.078125 3.393636
49.075000 -39.453125 3.581942
48.150000 -38.343750 3.581942
47.725000 -37.203125 3.581942
47.000000 -35.828125 3.581942
46.425000 -34.734375 3.581942
46.100000 -33.593750 3.581942
44.100000 -31.234375 3.581942
43.800000 -30.203125 3.581942
43.925000 -29.140625 3.581942
49.100000 -39.234375 3.743098
48.150000 -38.046875 3.743098
47.550000 -36.828125 3.743098
46.775000 -35.750000 3.743098
46.425000 -34.515625 3.743098
44.425000 -31.968750 3.743098
44.050000 -31.109375 3.743098
43.900000 -30.000000 3.743098
44.075000 -28.703125 3.743098
48.125000 -37.968750 3.911270
47.500000 -36.937500 3.911270
46.725000 -35.640625 3.911270
46.375000 -34.359375 3.911270
44.400000 -32.015625 3.911270
44.050000 -31.125000 3.911270
43.875000 -30.062500 3.911270
44.050000 -28.765625 3.911270
48.975000 -39.453125 4.088428
48.150000 -38.218750 4.088428
47.725000 -37.187500 4.088428
46.975000 -35.890625 4.088428
46.425000 -34.890625 4.088428
45.725000 -33.406250 4.088428
44.700000 -32.484375 4.088428
44.100000 -31.109375 4.088428
43.775000 -30.296875 4.088428
43.875000 -29.093750 4.088428
48.100000 -37.843750 4.246282
47.475000 -36.593750 4.246282
46.775000 -35.609375 4.246282
46.225000 -34.406250 4.246282
45.275000 -33.234375 4.246282
44.375000 -32.046875 4.246282
44.000000 -30.859375 4.246282
43.775000 -29.781250 4.246282
44.175000 -28.750000 4.246282
49.000000 -39.187500 4.441447
48.125000 -37.984375 4.441447
47.525000 -36.906250 4.441447
46.475000 -35.437500 4.441447
45.925000 -34.609375 4.441447
45.350000 -33.343750 4.441447
44.400000 -32.000000 4.441447
43.925000 -30.765625 4.441447
43.750000 -29.953125 4.441447
44.050000 -28.718750 4.441447
48.850000 -39.671875 4.584641
48.175000 -38.859375 4.584641
47.425000 -37.468750 4.584641
46.075000 -35.312500 4.584641
46.075000 -34.140625 4.584641
44.250000 -31.656250 4.584641
43.900000 -30.781250 4.584641
43.850000 -29.390625 4.584641
44.375000 -28.625000 4.584641
48.725000 -39.796875 4.744211
48.150000 -38.875000 4.744211
46.200000 -35.203125 4.744211
45.950000 -34.156250 4.744211
45.250000 -32.828125 4.744211
44.300000 -31.781250 4.744211
43.900000 -30.828125 4.744211
43.850000 -29.453125 4.744211
44.375000 -28.578125 4.744211
48.750000 -39.484375 4.944615
48.300000 -38.437500 4.944615
46.200000 -36.281250 4.944615
46.175000 -34.890625 4.944615
46.025000 -33.937500 4.944615
45.225000 -32.750000 4.944615
44.300000 -31.781250 4.944615
43.925000 -30.625000 4.944615
48.725000 -39.718750 5.116557
48.125000 -38.640625 5.116557
46.175000 -36.093750 5.116557
46.075000 -34.953125 5.116557
45.950000 -34.062500 5.116557
45.400000 -33.015625 5.116557
44.425000 -31.843750 5.116557
43.800000 -30.656250 5.116557
48.800000 -39.093750 5.233689
46.625000 -36.859375 5.233689
46.100000 -35.703125 5.233689
45.700000 -34.484375 5.233689
45.875000 -33.328125 5.233689
45.150000 -32.015625 5.233689
44.100000 -30.843750 5.233689
43.750000 -29.921875 5.233689
44.050000 -28.984375 5.233689
46.500000 -36.718750 5.433484
46.200000 -35.640625 5.433484
45.875000 -34.281250 5.433484
45.850000 -33.421875 5.433484
45.150000 -32.187500 5.433484
44.050000 -30.781250 5.433484
43.650000 -29.859375 5.433484
44.050000 -28.671875 5.433484
48.450000 -38.875000 5.615391
45.825000 -35.515625 5.615391
45.925000 -34.281250 5.615391
45.925000 -33.140625 5.615391
44.025000 -30.718750 5.615391
43.650000 -29.828125 5.615391
44.175000 -28.625000 5.615391
48.725000 -39.078125 5.843030
48.325000 -38.125000 5.843030
46.550000 -35.640625 5.843030
46.450000 -34.718750 5.843030
45.225000 -33.234375 5.843030
44.075000 -30.984375 5.843030
43.675000 -29.890625 5.843030
44.000000 -28.890625 5.843030
48.425000 -38.843750 5.950975
45.925000 -35.203125 5.950975
45.725000 -34.343750 5.950975
46.175000 -33.140625 5.950975
43.925000 -30.953125 5.950975
43.650000 -29.531250 5.950975
44.200000 -28.546875 5.950975
48.425000 -37.843750 6.079316
45.775000 -35.656250 6.079316
45.700000 -34.296875 6.079316
46.025000 -33.484375 6.079316
44.075000 -31.125000 6.079316
43.725000 -29.968750 6.079316
44.175000 -28.875000 6.079316
47.725000 -37.859375 6.251991
45.700000 -35.531250 6.251991
45.675000 -34.156250 6.251991
45.800000 -33.234375 6.251991
43.950000 -30.703125 6.251991
43.675000 -29.890625 6.251991
44.150000 -28.578125 6.251991
47.925000 -37.796875 6.413899
45.675000 -35.437500 6.413899
45.675000 -34.390625 6.413899
45.275000 -33.187500 6.413899
44.500000 -31.921875 6.413899
43.950000 -30.687500 6.413899
43.700000 -29.750000 6.413899
44.175000 -28.687500 6.413899
48.000000 -38.031250 6.604711
45.750000 -35.828125 6.604711
45.625000 -34.750000 6.604711
45.350000 -33.484375 6.604711
44.750000 -32.437500 6.604711
44.225000 -31.359375 6.604711
43.850000 -30.062500 6.604711
44.000000 -28.921875 6.604711
48.000000 -38.187500 6.770062
45.775000 -35.625000 6.770062
45.750000 -34.671875 6.770062
45.400000 -33.531250 6.770062
44.700000 -32.515625 6.770062
44.225000 -31.312500 6.770062
43.850000 -30.156250 6.770062
44.000000 -29.031250 6.770062
48.150000 -38.343750 6.920246
47.625000 -37.312500 6.920246
46.525000 -36.046875 6.920246
45.975000 -34.906250 6.920246
45.550000 -33.750000 6.920246
44.800000 -32.765625 6.920246
44.300000 -31.406250 6.920246
43.925000 -30.578125 6.920246
48.125000 -38.546875 7.086823
47.600000 -37.500000 7.086823
46.675000 -36.109375 7.086823
46.125000 -35.109375 7.086823
45.550000 -34.046875 7.086823
44.800000 -32.859375 7.086823
44.325000 -31.468750 7.086823
43.925000 -30.265625 7.086823
48.225000 -38.500000 7.254724
47.750000 -37.531250 7.254724
47.025000 -36.484375 7.254724
46.300000 -35.109375 7.254724
45.550000 -34.031250 7.254724
44.950000 -33.046875 7.254724
44.400000 -31.703125 7.254724
43.900000 -30.453125 7.254724
43.900000 -29.484375 7.254724
44.625000 -28.640625 7.254724
47.925000 -37.734375 7.413705
47.225000 -36.656250 7.413705
46.625000 -35.296875 7.413705
45.850000 -34.296875 7.413705
44.950000 -33.250000 7.413705
44.500000 -31.937500 7.413705
44.075000 -30.843750 7.413705
43.950000 -29.578125 7.413705
44.300000 -28.687500 7.413705
48.250000 -38.468750 7.585880
47.725000 -37.453125 7.585880
47.000000 -36.171875 7.585880
46.100000 -35.015625 7.585880
45.325000 -34.000000 7.585880
44.800000 -32.812500 7.585880
44.300000 -31.671875 7.585880
43.925000 -30.593750 7.585880
43.925000 -29.531250 7.585880
44.625000 -28.187500 7.585880
48.250000 -38.625000 7.755073
47.775000 -37.421875 7.755073
47.025000 -36.203125 7.755073
46.050000 -34.828125 7.755073
45.300000 -33.750000 7.755073
44.800000 -32.703125 7.755073
44.300000 -31.359375 7.755073
43.900000 -30.500000 7.755073
48.200000 -38.375000 7.928197
47.675000 -37.265625 7.928197
46.925000 -35.937500 7.928197
46.050000 -34.843750 7.928197
45.325000 -33.781250 7.928197
44.775000 -32.546875 7.928197
44.275000 -31.406250 7.928197
43.900000 -30.078125 7.928197
43.975000 -29.296875 7.928197
48.250000 -38.296875 8.100919
47.700000 -37.203125 8.100919
46.925000 -36.125000 8.100919
46.050000 -34.687500 8.100919
45.300000 -33.671875 8.100919
44.750000 -32.671875 8.100919
44.250000 -31.171875 8.100919
43.875000 -30.343750 8.100919
44.000000 -29.093750 8.100919
48.250000 -38.140625 8.257997
47.675000 -37.296875 8.257997
46.925000 -35.937500 8.257997
46.050000 -34.734375 8.257997
45.300000 -33.843750 8.257997
44.750000 -32.546875 8.257997
44.250000 -31.359375 8.257997
43.900000 -30.218750 8.257997
48.125000 -37.703125 8.557985
47.375000 -36.453125 8.557985
46.950000 -35.343750 8.557985
45.050000 -33.031250 8.557985
44.525000 -32.140625 8.557985
44.075000 -30.890625 8.557985
43.900000 -29.687500 8.557985
44.275000 -28.687500 8.557985
48.275000 -38.015625 8.694435
47.500000 -36.578125 8.694435
46.950000 -35.734375 8.694435
45.125000 -33.140625 8.694435
44.650000 -32.140625 8.694435
44.225000 -31.125000 8.694435
44.000000 -29.750000 8.694435
44.275000 -28.781250 8.694435
48.250000 -38.000000 8.865887
47.500000 -36.578125 8.865887
46.950000 -35.531250 8.865887
45.125000 -33.375000 8.865887
44.600000 -31.968750 8.865887
44.075000 -30.906250 8.865887
43.900000 -29.750000 8.865887
44.250000 -28.796875 8.865887
48.375000 -38.265625 9.036619
47.725000 -36.906250 9.036619
47.075000 -35.921875 9.036619
46.225000 -34.500000 9.036619
45.300000 -33.421875 9.036619
44.700000 -32.281250 9.036619
44.225000 -31.187500 9.036619
43.975000 -29.906250 9.036619
44.150000 -29.140625 9.036619
48.075000 -37.343750 9.166145
47.300000 -36.171875 9.166145
46.425000 -35.000000 9.166145
45.550000 -33.968750 9.166145
44.925000 -32.640625 9.166145
44.475000 -31.656250 9.166145
44.025000 -30.687500 9.166145
43.925000 -29.515625 9.166145
44.600000 -28.234375 9.166145
48.375000 -38.359375 9.270734
47.725000 -37.265625 9.270734
47.075000 -35.890625 9.270734
46.200000 -34.843750 9.270734
45.325000 -33.453125 9.270734
44.775000 -32.515625 9.270734
44.275000 -31.500000 9.270734
43.975000 -30.187500 9.270734
44.100000 -29.265625 9.270734
48.400000 -38.375000 9.405270
48.025000 -37.156250 9.405270
47.250000 -36.031250 9.405270
46.400000 -35.093750 9.405270
45.625000 -33.828125 9.405270
44.975000 -32.718750 9.405270
44.450000 -31.453125 9.405270
44.000000 -30.468750 9.405270
48.275000 -37.968750 9.571139
47.525000 -36.687500 9.571139
46.975000 -35.765625 9.571139
46.225000 -34.265625 9.571139
45.250000 -33.125000 9.571139
44.650000 -32.015625 9.571139
44.225000 -31.062500 9.571139
43.975000 -29.890625 9.571139
44.250000 -28.937500 9.571139
48.375000 -38.218750 9.755126
47.750000 -36.937500 9.755126
47.075000 -35.796875 9.755126
46.225000 -34.500000 9.755126
45.325000 -33.515625 9.755126
44.725000 -32.281250 9.755126
44.275000 -31.312500 9.755126
43.900000 -30.093750 9.755126
44.050000 -29.062500 9.755126
48.350000 -38.328125 9.910006
48.000000 -37.468750 9.910006
47.250000 -36.078125 9.910006
46.400000 -34.984375 9.910006
45.525000 -33.734375 9.910006
44.900000 -32.578125 9.910006
44.400000 -31.343750 9.910006
43.900000 -30.296875 9.910006
48.225000 -37.906250 10.068712
47.500000 -36.625000 10.068712
46.950000 -35.718750 10.068712
46.200000 -34.531250 10.068712
45.225000 -33.046875 10.068712
44.675000 -32.062500 10.068712
44.250000 -30.812500 10.068712
44.000000 -29.640625 10.068712
44.250000 -28.765625 10.068712
48.050000 -37.437500 10.241008
47.300000 -36.218750 10.241008
46.425000 -35.218750 10.241008
45.575000 -34.109375 10.241008
44.950000 -32.625000 10.241008
44.475000 -31.562500 10.241008
44.050000 -30.406250 10.241008
48.250000 -37.937500 10.410039
47.575000 -36.843750 10.410039
46.950000 -35.531250 10.410039
46.100000 -34.437500 10.410039
45.225000 -33.281250 10.410039
44.725000 -32.359375 10.410039
44.225000 -31.125000 10.410039
43.900000 -30.078125 10.410039
44.075000 -28.937500 10.410039
48.325000 -38.296875 10.576119
47.950000 -37.343750 10.576119
47.200000 -35.859375 10.576119
46.200000 -34.921875 10.576119
45.325000 -33.593750 10.576119
44.850000 -32.375000 10.576119
44.375000 -31.593750 10.576119
43.925000 -30.406250 10.576119
44.000000 -29.140625 10.576119
48.250000 -38.453125 10.732772
47.875000 -37.484375 10.732772
47.175000 -36.281250 10.732772
46.700000 -35.140625 10.732772
44.875000 -32.734375 10.732772
44.475000 -31.562500 10.732772
44.050000 -30.484375 10.732772
48.225000 -38.234375 10.904976
47.700000 -37.000000 10.904976
46.850000 -35.937500 10.904976
46.300000 -34.578125 10.904976
45.625000 -33.671875 10.904976
44.825000 -32.468750 10.904976
44.350000 -31.250000 10.904976
43.975000 -29.968750 10.904976
44.100000 -28.953125 10.904976
48.150000 -38.625000 11.112096
47.800000 -37.234375 11.112096
46.850000 -36.359375 11.112096
46.100000 -34.968750 11.112096
45.550000 -33.812500 11.112096
44.925000 -32.609375 11.112096
44.450000 -31.531250 11.112096
44.025000 -30.625000 11.112096
48.200000 -38.156250 11.228429
47.825000 -36.921875 11.228429
45.950000 -34.640625 11.228429
45.500000 -33.375000 11.228429
44.825000 -32.484375 11.228429
44.325000 -31.093750 11.228429
43.975000 -30.140625 11.228429
44.125000 -28.796875 11.228429
48.175000 -38.031250 11.432907
47.600000 -37.031250 11.432907
46.525000 -35.765625 11.432907
45.900000 -34.703125 11.432907
45.475000 -33.343750 11.432907
44.775000 -32.406250 11.432907
44.300000 -31.031250 11.432907
44.000000 -30.203125 11.432907
44.175000 -28.859375 11.432907
48.150000 -38.125000 11.574802
47.475000 -37.046875 11.574802
46.375000 -35.750000 11.574802
45.750000 -34.578125 11.574802
45.325000 -33.406250 11.574802
44.775000 -32.156250 11.574802
44.275000 -31.343750 11.574802
43.975000 -30.062500 11.574802
44.150000 -28.812500 11.574802
48.100000 -38.109375 11.747181
45.800000 -35.406250 11.747181
45.625000 -34.593750 11.747181
45.250000 -33.078125 11.747181
44.700000 -32.078125 11.747181
44.225000 -31.140625 11.747181
43.975000 -29.953125 11.747181
44.250000 -28.781250 11.747181
49.000000 -39.625000 11.914221
48.200000 -38.625000 11.914221
47.875000 -37.453125 11.914221
45.925000 -34.984375 11.914221
45.675000 -33.890625 11.914221
45.225000 -32.703125 11.914221
44.475000 -31.546875 11.914221
44.025000 -30.625000 11.914221
48.925000 -38.968750 12.071288
48.075000 -38.000000 12.071288
45.850000 -35.796875 12.071288
45.800000 -34.609375 12.071288
46.250000 -33.484375 12.071288
44.225000 -31.015625 12.071288
43.975000 -29.859375 12.071288
44.150000 -28.984375 12.071288
47.875000 -37.812500 12.245048
46.200000 -35.671875 12.245048
46.125000 -34.312500 12.245048
46.125000 -33.343750 12.245048
44.225000 -31.015625 12.245048
43.975000 -29.953125 12.245048
44.225000 -28.828125 12.245048
48.775000 -39.656250 12.413121
48.125000 -38.515625 12.413121
48.050000 -37.390625 12.413121
45.700000 -34.921875 12.413121
45.825000 -33.921875 12.413121
45.400000 -32.859375 12.413121
44.575000 -31.625000 12.413121
44.000000 -30.328125 12.413121
43.975000 -29.421875 12.413121
48.675000 -39.812500 12.558953
48.250000 -38.593750 12.558953
44.100000 -30.453125 12.558953
48.750000 -38.703125 12.729928
47.825000 -37.765625 12.729928
46.600000 -34.187500 12.729928
46.000000 -32.984375 12.729928
44.150000 -30.718750 12.729928
43.825000 -29.687500 12.729928
44.450000 -28.687500 12.729928
48.925000 -39.734375 12.887101
48.275000 -38.781250 12.887101
47.875000 -37.546875 12.887101
46.350000 -35.343750 12.887101
46.275000 -34.046875 12.887101
46.200000 -33.171875 12.887101
44.075000 -30.531250 12.887101
48.900000 -39.296875 13.059841
48.175000 -38.265625 13.059841
46.100000 -36.000000 13.059841
45.950000 -34.609375 13.059841
45.950000 -33.625000 13.059841
45.975000 -32.375000 13.059841
43.875000 -30.218750 13.059841
43.975000 -28.906250 13.059841
48.900000 -39.250000 13.245684
48.100000 -38.125000 13.245684
46.000000 -35.906250 13.245684
45.925000 -34.765625 13.245684
45.875000 -33.421875 13.245684
44.300000 -31.046875 13.245684
43.875000 -30.140625 13.245684
44.050000 -29.093750 13.245684
48.975000 -38.906250 13.395140
47.925000 -37.921875 13.395140
46.000000 -35.453125 13.395140
46.050000 -34.406250 13.395140
46.250000 -33.281250 13.395140
44.225000 -30.843750 13.395140
43.900000 -29.718750 13.395140
44.150000 -28.843750 13.395140
48.800000 -39.500000 13.561634
48.125000 -38.593750 13.561634
46.050000 -35.953125 13.561634
46.150000 -34.984375 13.561634
46.275000 -33.843750 13.561634
44.400000 -31.390625 13.561634
44.000000 -30.281250 13.561634
43.975000 -29.171875 13.561634
49.375000 -39.812500 13.759504
48.575000 -38.453125 13.759504
47.675000 -37.281250 13.759504
46.350000 -35.187500 13.759504
46.400000 -34.187500 13.759504
44.375000 -31.671875 13.759504
44.075000 -30.625000 13.759504
49.225000 -39.625000 13.894037
48.375000 -38.609375 13.894037
47.775000 -37.203125 13.894037
46.025000 -34.859375 13.894037
46.350000 -33.859375 13.894037
44.275000 -31.609375 13.894037
43.950000 -30.234375 13.894037
43.875000 -29.343750 13.894037
49.075000 -39.531250 14.062151
48.200000 -38.343750 14.062151
47.825000 -37.062500 14.062151
47.050000 -35.875000 14.062151
46.350000 -34.953125 14.062151
46.250000 -33.609375 14.062151
44.225000 -31.515625 14.062151
43.925000 -30.218750 14.062151
44.000000 -28.968750 14.062151
49.000000 -39.125000 14.234480
48.100000 -38.140625 14.234480
47.500000 -36.906250 14.234480
46.725000 -35.750000 14.234480
46.475000 -34.718750 14.234480
44.425000 -32.125000 14.234480
44.075000 -30.875000 14.234480
43.875000 -30.062500 14.234480
44.050000 -28.828125 14.234480
48.525000 -38.593750 14.412718
47.800000 -37.453125 14.412718
47.025000 -36.156250 14.412718
46.475000 -35.062500 14.412718
46.125000 -33.968750 14.412718
44.150000 -31.687500 14.412718
44.025000 -30.421875 14.412718
43.950000 -29.187500 14.412718
49.100000 -39.593750 14.570478
48.225000 -38.421875 14.570478
47.750000 -37.343750 14.570478
46.975000 -36.171875 14.570478
46.600000 -35.031250 14.570478
46.075000 -33.875000 14.570478
44.825000 -32.390625 14.570478
44.100000 -31.578125 14.570478
44.000000 -30.312500 14.570478
43.950000 -29.250000 14.570478
48.825000 -38.796875 14.739411
48.000000 -37.406250 14.739411
47.250000 -36.500000 14.739411
46.650000 -35.187500 14.739411
46.250000 -34.265625 14.739411
44.200000 -31.671875 14.739411
43.875000 -30.656250 14.739411
43.800000 -29.421875 14.739411
44.500000 -28.671875 14.739411
48.025000 -37.875000 14.904010
47.550000 -36.656250 14.904010
46.800000 -35.453125 14.904010
46.150000 -34.250000 14.904010
45.275000 -33.062500 14.904010
44.350000 -31.890625 14.904010
43.925000 -30.750000 14.904010
43.825000 -29.640625 14.904010
44.325000 -28.656250 14.904010
49.000000 -39.953125 15.069067
48.375000 -38.640625 15.069067
47.475000 -37.312500 15.069067
46.625000 -36.343750 15.069067
46.300000 -34.968750 15.069067
45.925000 -34.000000 15.069067
45.075000 -32.734375 15.069067
44.225000 -31.640625 15.069067
43.925000 -30.500000 15.069067
48.850000 -39.140625 15.242032
46.775000 -36.718750 15.242032
46.100000 -35.546875 15.242032
45.875000 -34.609375 15.242032
45.950000 -33.453125 15.242032
43.925000 -31.062500 15.242032
43.800000 -29.984375 15.242032
44.200000 -28.734375 15.242032
46.900000 -36.515625 15.405695
45.875000 -34.437500 15.405695
45.925000 -33.187500 15.405695
43.900000 -30.984375 15.405695
43.800000 -29.812500 15.405695
44.300000 -28.781250 15.405695
48.725000 -39.593750 15.570547
48.450000 -38.578125 15.570547
46.125000 -36.015625 15.570547
46.000000 -35.000000 15.570547
45.925000 -33.781250 15.570547
45.200000 -32.828125 15.570547
44.275000 -31.359375 15.570547
43.875000 -30.484375 15.570547
48.825000 -39.062500 15.721967
46.500000 -36.890625 15.721967
46.025000 -35.656250 15.721967
45.750000 -34.687500 15.721967
45.800000 -33.390625 15.721967
44.975000 -32.359375 15.721967
44.150000 -31.187500 15.721967
43.850000 -29.765625 15.721967
44.025000 -28.718750 15.721967
49.150000 -39.906250 15.898916
48.500000 -38.984375 15.898916
46.675000 -36.765625 15.898916
46.350000 -35.375000 15.898916
45.850000 -34.484375 15.898916
46.100000 -33.281250 15.898916
43.800000 -30.953125 15.898916
43.675000 -29.812500 15.898916
44.250000 -28.578125 15.898916
48.125000 -38.578125 16.060387
43.575000 -30.546875 16.060387
48.750000 -39.531250 16.214102
48.075000 -38.359375 16.214102
46.500000 -36.046875 16.214102
46.375000 -34.750000 16.214102
45.250000 -33.484375 16.214102
45.075000 -32.421875 16.214102
43.725000 -30.156250 16.214102
43.950000 -29.281250 16.214102
48.250000 -38.890625 16.389513
45.725000 -35.468750 16.389513
45.725000 -34.390625 16.389513
46.000000 -33.203125 16.389513
43.875000 -30.906250 16.389513
43.725000 -29.453125 16.389513
44.300000 -28.703125 16.389513
48.800000 -39.375000 16.629525
48.075000 -38.359375 16.629525
45.825000 -35.859375 16.629525
45.700000 -34.546875 16.629525
45.575000 -33.515625 16.629525
44.975000 -32.500000 16.629525
44.125000 -31.265625 16.629525
43.725000 -30.125000 16.629525
43.975000 -29.078125 16.629525
48.750000 -38.968750 16.801341
47.575000 -37.609375 16.801341
45.725000 -35.500000 16.801341
45.625000 -34.375000 16.801341
45.975000 -33.156250 16.801341
44.050000 -30.750000 16.801341
43.800000 -29.703125 16.801341
44.250000 -28.890625 16.801341
48.150000 -38.812500 16.923068
45.700000 -35.343750 16.923068
45.700000 -34.156250 16.923068
45.225000 -32.968750 16.923068
44.325000 -31.640625 16.923068
43.775000 -30.531250 16.923068
43.725000 -29.515625 16.923068
44.325000 -28.578125 16.923068
47.900000 -37.687500 17.061902
45.700000 -35.437500 17.061902
45.800000 -34.218750 17.061902
45.325000 -33.265625 17.061902
44.500000 -31.812500 17.061902
44.025000 -30.906250 17.061902
43.800000 -29.781250 17.061902
44.225000 -28.671875 17.061902
48.150000 -38.703125 17.240803
47.775000 -37.296875 17.240803
45.725000 -35.046875 17.240803
45.675000 -33.875000 17.240803
45.175000 -32.796875 17.240803
44.325000 -31.578125 17.240803
43.875000 -30.578125 17.240803
43.900000 -29.406250 17.240803
44.575000 -28.359375 17.240803
48.125000 -38.484375 17.393444
47.725000 -37.203125 17.393444
45.875000 -34.812500 17.393444
45.475000 -33.750000 17.393444
44.750000 -32.828125 17.393444
44.275000 -31.515625 17.393444
43.975000 -30.484375 17.393444
44.025000 -29.437500 17.393444
48.075000 -38.250000 17.556351
47.475000 -37.062500 17.556351
46.400000 -35.671875 17.556351
45.825000 -34.531250 17.556351
45.425000 -33.406250 17.556351
44.700000 -32.312500 17.556351
44.250000 -31.296875 17.556351
43.875000 -29.921875 17.556351
44.000000 -28.937500 17.556351
48.000000 -38.031250 17.728797
47.325000 -36.625000 17.728797
46.400000 -35.406250 17.728797
45.625000 -34.593750 17.728797
45.125000 -33.437500 17.728797
44.625000 -32.000000 17.728797
44.125000 -31.015625 17.728797
43.950000 -29.921875 17.728797
44.275000 -28.640625 17.728797
48.000000 -37.890625 17.886519
47.325000 -36.937500 17.886519
46.550000 -35.750000 17.886519
45.700000 -34.687500 17.886519
45.000000 -33.296875 17.886519
44.600000 -32.109375 17.886519
44.125000 -31.234375 17.886519
43.925000 -29.937500 17.886519
44.125000 -28.984375 17.886519
48.150000 -38.562500 18.045067
47.750000 -37.546875 18.045067
47.000000 -36.250000 18.045067
46.075000 -35.109375 18.045067
45.350000 -33.968750 18.045067
44.850000 -32.968750 18.045067
44.425000 -31.828125 18.045067
43.975000 -30.390625 18.045067
43.900000 -29.484375 18.045067
44.550000 -28.406250 18.045067
48.100000 -38.265625 18.210771
47.575000 -37.312500 18.210771
46.825000 -36.156250 18.210771
45.950000 -34.687500 18.210771
45.250000 -33.890625 18.210771
44.800000 -32.625000 18.210771
44.275000 -31.484375 18.210771
43.950000 -30.140625 18.210771
44.025000 -29.328125 18.210771
48.175000 -37.968750 18.378382
47.475000 -36.906250 18.378382
46.700000 -35.625000 18.378382
45.825000 -34.515625 18.378382
45.100000 -33.281250 18.378382
44.600000 -32.281250 18.378382
44.175000 -31.140625 18.378382
43.925000 -30.171875 18.378382
44.125000 -28.968750 18.378382
48.125000 -37.921875 18.557255
47.450000 -36.765625 18.557255
46.825000 -35.765625 18.557255
45.925000 -34.500000 18.557255
45.100000 -33.484375 18.557255
44.625000 -32.000000 18.557255
44.125000 -31.062500 18.557255
43.900000 -29.890625 18.557255
44.125000 -28.750000 18.557255
47.975000 -37.265625 18.712690
46.950000 -36.046875 18.712690
46.100000 -34.843750 18.712690
45.375000 -33.468750 18.712690
44.775000 -32.406250 18.712690
44.275000 -31.171875 18.712690
43.950000 -30.375000 18.712690
44.050000 -29.234375 18.712690
48.125000 -37.953125 18.893319
47.400000 -36.546875 18.893319
46.925000 -35.593750 18.893319
45.100000 -33.000000 18.893319
44.600000 -32.031250 18.893319
44.150000 -30.921875 18.893319
43.925000 -29.578125 18.893319
44.250000 -28.703125 18.893319
48.250000 -38.500000 19.050433
47.875000 -37.281250 19.050433
47.125000 -36.093750 19.050433
46.300000 -35.015625 19.050433
45.525000 -33.984375 19.050433
44.875000 -32.734375 19.050433
44.375000 -31.515625 19.050433
43.975000 -30.359375 19.050433
48.150000 -37.953125 19.209947
47.425000 -36.578125 19.209947
46.950000 -35.593750 19.209947
45.100000 -33.125000 19.209947
44.600000 -31.890625 19.209947
44.125000 -30.906250 19.209947
43.925000 -29.562500 19.209947
44.250000 -28.765625 19.209947
48.375000 -38.390625 19.377570
47.950000 -37.343750 19.377570
47.175000 -36.265625 19.377570
46.300000 -35.078125 19.377570
45.525000 -33.765625 19.377570
44.925000 -32.703125 19.377570
44.350000 -31.281250 19.377570
43.950000 -30.281250 19.377570
48.375000 -38.484375 19.565892
47.925000 -37.234375 19.565892
47.175000 -35.921875 19.565892
46.300000 -35.093750 19.565892
45.500000 -33.937500 19.565892
44.925000 -32.687500 19.565892
44.350000 -31.343750 19.565892
43.950000 -30.328125 19.565892
48.175000 -37.640625 19.722348
47.450000 -36.500000 19.722348
46.875000 -35.140625 19.722348
45.075000 -33.062500 19.722348
44.625000 -31.953125 19.722348
44.125000 -30.593750 19.722348
43.875000 -29.500000 19.722348
44.375000 -28.515625 19.722348
48.275000 -37.968750 19.876987
47.525000 -36.546875 19.876987
47.050000 -35.687500 19.876987
45.100000 -32.968750 19.876987
44.600000 -31.906250 19.876987
44.150000 -31.046875 19.876987
43.925000 -29.828125 19.876987
44.250000 -28.765625 19.876987
48.400000 -38.171875 20.076267
47.775000 -36.984375 20.076267
47.150000 -35.859375 20.076267
45.250000 -33.515625 20.076267
44.850000 -32.390625 20.076267
44.275000 -31.078125 20.076267
43.925000 -30.156250 20.076267
44.125000 -28.812500 20.076267
48.000000 -37.343750 20.214876
47.300000 -36.234375 20.214876
46.375000 -34.953125 20.214876
45.525000 -33.968750 20.214876
45.000000 -32.765625 20.214876
44.475000 -31.421875 20.214876
43.975000 -30.640625 20.214876
48.375000 -38.375000 20.389038
47.900000 -37.078125 20.389038
47.175000 -35.812500 20.389038
46.225000 -34.937500 20.389038
45.375000 -33.750000 20.389038
44.875000 -32.437500 20.389038
44.375000 -31.218750 20.389038
43.975000 -30.359375 20.389038
44.050000 -29.171875 20.389038
48.250000 -37.890625 20.547631
47.525000 -36.718750 20.547631
47.050000 -35.640625 20.547631
45.125000 -33.140625 20.547631
44.700000 -32.171875 20.547631
44.225000 -31.015625 20.547631
43.925000 -29.796875 20.547631
44.275000 -28.546875 20.547631
48.375000 -38.109375 20.706649
47.775000 -37.000000 20.706649
47.100000 -35.875000 20.706649
46.200000 -34.687500 20.706649
45.375000 -33.375000 20.706649
44.850000 -32.343750 20.706649
44.375000 -31.250000 20.706649
43.975000 -29.921875 20.706649
44.000000 -29.046875 20.706649
48.000000 -37.343750 20.861490
47.300000 -36.156250 20.861490
46.650000 -35.234375 20.861490
45.850000 -34.015625 20.861490
45.050000 -32.703125 20.861490
44.525000 -31.625000 20.861490
44.000000 -30.531250 20.861490
43.900000 -29.359375 20.861490
44.575000 -28.390625 20.861490
48.125000 -38.046875 21.025452
47.500000 -36.671875 21.025452
46.850000 -35.781250 21.025452
45.975000 -34.593750 21.025452
45.150000 -33.109375 21.025452
44.750000 -32.343750 21.025452
44.300000 -30.953125 21.025452
43.925000 -29.828125 21.025452
44.150000 -28.734375 21.025452
48.125000 -37.890625 21.206599
47.500000 -37.031250 21.206599
46.825000 -35.734375 21.206599
45.950000 -34.718750 21.206599
45.200000 -33.593750 21.206599
44.800000 -32.234375 21.206599
44.275000 -30.968750 21.206599
43.925000 -30.046875 21.206599
44.150000 -29.031250 21.206599
48.125000 -37.875000 21.362355
47.500000 -36.609375 21.362355
46.650000 -35.250000 21.362355
45.775000 -34.218750 21.362355
45.100000 -33.046875 21.362355
44.675000 -31.984375 21.362355
44.200000 -30.984375 21.362355
43.925000 -29.531250 21.362355
44.275000 -28.718750 21.362355
48.050000 -37.781250 21.534627
47.450000 -36.406250 21.534627
46.450000 -35.140625 21.534627
45.575000 -33.953125 21.534627
45.075000 -33.171875 21.534627
44.625000 -31.984375 21.534627
44.125000 -30.781250 21.534627
43.975000 -29.750000 21.534627
44.500000 -28.515625 21.534627
48.200000 -38.171875 21.716523
47.775000 -37.109375 21.716523
46.700000 -36.015625 21.716523
46.025000 -34.812500 21.716523
45.550000 -33.578125 21.716523
44.850000 -32.343750 21.716523
44.350000 -31.421875 21.716523
43.925000 -30.312500 21.716523
44.000000 -29.171875 21.716523
48.125000 -37.921875 21.868569
47.525000 -36.890625 21.868569
46.500000 -35.562500 21.868569
46.000000 -34.500000 21.868569
45.525000 -33.484375 21.868569
44.750000 -32.265625 21.868569
44.275000 -31.187500 21.868569
43.925000 -29.765625 21.868569
44.250000 -28.843750 21.868569
48.175000 -38.171875 22.047966
47.750000 -37.000000 22.047966
45.775000 -34.796875 22.047966
45.400000 -33.343750 22.047966
44.800000 -32.421875 22.047966
44.275000 -31.156250 22.047966
43.975000 -30.156250 22.047966
44.175000 -29.156250 22.047966
48.125000 -37.890625 22.229636
45.875000 -35.484375 22.229636
45.725000 -34.218750 22.229636
45.125000 -28.671875 22.229636
48.900000 -39.421875 22.381138
48.175000 -38.234375 22.381138
47.850000 -37.265625 22.381138
45.750000 -35.062500 22.381138
46.000000 -33.875000 22.381138
44.350000 -31.312500 22.381138
43.975000 -30.453125 22.381138
44.025000 -29.125000 22.381138
48.550000 -38.859375 22.546892
47.675000 -37.625000 22.546892
45.900000 -35.078125 22.546892
45.750000 -34.250000 22.546892
45.300000 -32.859375 22.546892
44.600000 -31.937500 22.546892
44.125000 -30.671875 22.546892
43.975000 -29.421875 22.546892
44.600000 -28.625000 22.546892
48.875000 -39.218750 22.696442
48.150000 -38.265625 22.696442
46.175000 -35.718750 22.696442
46.050000 -34.578125 22.696442
45.850000 -33.531250 22.696442
44.250000 -31.015625 22.696442
43.975000 -30.109375 22.696442
44.150000 -28.906250 22.696442
48.875000 -39.593750 22.863448
48.125000 -38.390625 22.863448
48.200000 -37.265625 22.863448
45.750000 -35.093750 22.863448
45.750000 -34.046875 22.863448
45.300000 -32.843750 22.863448
44.475000 -31.468750 22.863448
43.975000 -30.265625 22.863448
48.850000 -39.515625 23.039988
48.125000 -38.468750 23.039988
48.125000 -37.203125 23.039988
45.750000 -34.828125 23.039988
45.775000 -33.781250 23.039988
45.450000 -32.625000 23.039988
44.750000 -31.640625 23.039988
44.125000 -30.578125 23.039988
48.875000 -39.109375 23.197613
48.125000 -38.078125 23.197613
45.575000 -34.765625 23.197613
45.350000 -33.265625 23.197613
44.250000 -31.046875 23.197613
43.925000 -30.000000 23.197613
44.100000 -29.140625 23.197613
48.350000 -38.875000 23.370334
47.900000 -37.671875 23.370334
46.525000 -35.156250 23.370334
46.400000 -33.968750 23.370334
46.100000 -33.125000 23.370334
44.125000 -30.593750 23.370334
43.950000 -29.671875 23.370334
44.575000 -28.656250 23.370334
48.775000 -39.437500 23.540489
48.175000 -38.359375 23.540489
47.775000 -37.218750 23.540489
45.725000 -34.812500 23.540489
43.975000 -30.171875 23.540489
44.000000 -29.109375 23.540489
48.875000 -39.593750 23.697540
48.175000 -38.765625 23.697540
48.000000 -37.562500 23.697540
46.100000 -35.078125 23.697540
46.125000 -34.093750 23.697540
46.250000 -33.109375 23.697540
44.100000 -30.406250 23.697540
48.750000 -39.578125 23.870206
48.125000 -38.390625 23.870206
46.000000 -35.015625 23.870206
46.050000 -34.078125 23.870206
46.100000 -32.718750 23.870206
44.050000 -30.250000 23.870206
48.875000 -39.156250 24.041012
48.100000 -37.984375 24.041012
46.025000 -35.906250 24.041012
46.075000 -34.515625 24.041012
46.225000 -33.437500 24.041012
44.225000 -31.265625 24.041012
43.900000 -30.140625 24.041012
44.075000 -28.781250 24.041012
48.775000 -38.921875 24.198137
48.025000 -37.828125 24.198137
46.150000 -35.546875 24.198137
46.150000 -34.296875 24.198137
45.950000 -33.250000 24.198137
44.025000 -30.671875 24.198137
43.850000 -29.781250 24.198137
44.250000 -28.515625 24.198137
48.875000 -39.390625 24.365369
48.125000 -37.968750 24.365369
46.175000 -35.656250 24.365369
46.050000 -34.687500 24.365369
46.350000 -33.671875 24.365369
44.225000 -31.031250 24.365369
43.825000 -30.156250 24.365369
43.900000 -28.828125 24.365369
48.825000 -39.125000 24.528254
48.100000 -37.843750 24.528254
46.325000 -35.515625 24.528254
46.275000 -34.515625 24.528254
45.725000 -33.171875 24.528254
44.650000 -32.218750 24.528254
44.050000 -30.718750 24.528254
43.825000 -29.656250 24.528254
44.150000 -28.796875 24.528254
49.025000 -39.375000 24.700099
48.125000 -38.062500 24.700099
47.625000 -37.078125 24.700099
46.875000 -35.671875 24.700099
46.425000 -34.671875 24.700099
45.925000 -33.515625 24.700099
44.850000 -32.218750 24.700099
44.125000 -31.312500 24.700099
43.800000 -29.921875 24.700099
43.900000 -29.093750 24.700099
48.675000 -38.687500 24.872846
47.875000 -37.390625 24.872846
47.100000 -36.312500 24.872846
46.375000 -35.250000 24.872846
46.125000 -34.187500 24.872846
44.225000 -31.718750 24.872846
43.875000 -30.406250 24.872846
47.900000 -37.453125 25.034432
47.150000 -36.593750 25.034432
46.425000 -35.468750 25.034432
46.150000 -34.203125 25.034432
44.400000 -31.906250 25.034432
44.100000 -30.687500 25.034432
43.825000 -29.703125 25.034432
44.375000 -28.671875 25.034432
48.075000 -38.000000 25.200796
47.375000 -36.687500 25.200796
46.575000 -35.593750 25.200796
46.125000 -34.296875 25.200796
45.300000 -33.046875 25.200796
44.400000 -31.906250 25.200796
44.025000 -30.937500 25.200796
43.800000 -29.750000 25.200796
44.125000 -28.578125 25.200796
49.025000 -39.656250 25.372921
48.300000 -38.406250 25.372921
47.875000 -37.406250 25.372921
47.050000 -36.171875 25.372921
46.475000 -34.984375 25.372921
46.250000 -33.812500 25.372921
44.075000 -31.250000 25.372921
43.850000 -30.343750 25.372921
43.975000 -29.218750 25.372921
49.150000 -39.921875 25.531301
48.500000 -38.671875 25.531301
47.925000 -37.718750 25.531301
47.300000 -36.484375 25.531301
46.575000 -35.234375 25.531301
46.150000 -34.093750 25.531301
44.200000 -31.640625 25.531301
43.875000 -30.765625 25.531301
43.800000 -29.390625 25.531301
44.350000 -28.421875 25.531301
48.825000 -39.828125 25.703441
48.150000 -38.515625 25.703441
46.550000 -36.265625 25.703441
46.350000 -35.093750 25.703441
46.000000 -33.875000 25.703441
45.125000 -32.890625 25.703441
44.125000 -31.453125 25.703441
43.800000 -30.453125 25.703441
46.575000 -36.625000 25.872700
45.475000 -33.234375 25.872700
44.850000 -28.656250 25.872700
48.800000 -39.515625 26.039826
45.900000 -36.000000 26.039826
45.775000 -34.718750 26.039826
46.000000 -33.640625 26.039826
44.125000 -31.281250 26.039826
43.875000 -30.109375 26.039826
43.975000 -29.234375 26.039826
48.750000 -39.140625 26.203088
46.400000 -36.687500 26.203088
45.900000 -35.671875 26.203088
45.700000 -34.421875 26.203088
45.825000 -33.468750 26.203088
44.950000 -32.234375 26.203088
44.075000 -31.234375 26.203088
43.850000 -29.828125 26.203088
44.075000 -28.984375 26.203088
48.750000 -39.671875 26.367324
48.100000 -38.671875 26.367324
46.075000 -36.328125 26.367324
45.875000 -35.250000 26.367324
45.900000 -33.968750 26.367324
46.125000 -33.187500 26.367324
43.850000 -30.703125 26.367324
48.750000 -39.171875 26.513896
46.650000 -36.921875 26.513896
46.025000 -35.453125 26.513896
45.725000 -34.515625 26.513896
45.975000 -33.265625 26.513896
44.025000 -31.125000 26.513896
43.675000 -29.734375 26.513896
44.075000 -28.859375 26.513896
46.225000 -36.734375 26.696092
46.150000 -35.453125 26.696092
45.975000 -34.171875 26.696092
45.900000 -33.375000 26.696092
43.950000 -31.015625 26.696092
43.675000 -29.656250 26.696092
44.225000 -28.640625 26.696092
48.875000 -39.578125 26.862644
48.025000 -38.375000 26.862644
46.150000 -36.015625 26.862644
46.050000 -34.906250 26.862644
45.750000 -33.875000 26.862644
46.400000 -32.812500 26.862644
43.775000 -30.343750 26.862644
43.900000 -29.312500 26.862644
48.775000 -39.500000 27.030302
48.050000 -38.359375 27.030302
46.075000 -36.015625 27.030302
45.975000 -34.796875 27.030302
45.325000 -33.781250 27.030302
44.300000 -31.171875 27.030302
43.750000 -30.281250 27.030302
43.875000 -29.093750 27.030302
47.950000 -38.562500 27.208879
45.875000 -36.296875 27.208879
45.700000 -34.890625 27.208879
45.675000 -34.093750 27.208879
46.125000 -32.937500 27.208879
43.825000 -30.484375 27.208879
43.850000 -29.468750 27.208879
48.425000 -38.687500 27.377558
45.925000 -36.437500 27.377558
45.725000 -35.328125 27.377558
45.625000 -34.078125 27.377558
45.750000 -32.921875 27.377558
43.975000 -30.765625 27.377558
43.775000 -29.453125 27.377558
44.350000 -28.562500 27.377558
48.100000 -38.578125 27.551491
45.850000 -36.062500 27.551491
45.675000 -35.093750 27.551491
45.750000 -34.203125 27.551491
45.300000 -32.921875 27.551491
44.300000 -31.765625 27.551491
43.825000 -30.515625 27.551491
43.850000 -29.437500 27.551491
44.575000 -28.453125 27.551491
47.900000 -37.906250 27.695175
45.725000 -35.593750 27.695175
45.800000 -34.250000 27.695175
45.350000 -33.093750 27.695175
44.525000 -32.000000 27.695175
44.075000 -30.843750 27.695175
43.825000 -29.953125 27.695175
44.225000 -28.843750 27.695175
48.050000 -38.515625 27.874636
47.400000 -37.046875 27.874636
46.325000 -36.078125 27.874636
45.700000 -34.968750 27.874636
45.375000 -33.875000 27.874636
44.800000 -32.734375 27.874636
44.300000 -31.625000 27.874636
43.875000 -30.156250 27.874636
43.875000 -29.281250 27.874636
48.050000 -38.265625 28.037032
47.650000 -37.093750 28.037032
45.875000 -35.109375 28.037032
45.525000 -33.843750 28.037032
44.775000 -32.453125 28.037032
44.275000 -31.359375 28.037032
43.950000 -30.562500 28.037032
43.975000 -29.250000 28.037032
48.075000 -38.265625 28.194133
47.425000 -37.140625 28.194133
46.425000 -35.859375 28.194133
45.775000 -34.562500 28.194133
45.300000 -33.718750 28.194133
44.700000 -32.546875 28.194133
44.200000 -31.250000 28.194133
43.875000 -30.062500 28.194133
44.075000 -29.015625 28.194133
48.125000 -38.421875 28.379573
47.600000 -37.234375 28.379573
46.750000 -36.171875 28.379573
46.025000 -35.015625 28.379573
45.375000 -33.890625 28.379573
44.775000 -32.609375 28.379573
44.275000 -31.593750 28.379573
43.950000 -30.234375 28.379573
48.075000 -38.125000 28.525337
47.425000 -37.296875 28.525337
46.675000 -35.953125 28.525337
45.850000 -34.875000 28.525337
45.125000 -33.796875 28.525337
44.675000 -32.546875 28.525337
44.250000 -31.437500 28.525337
43.925000 -30.328125 28.525337
44.050000 -28.984375 28.525337
48.100000 -38.062500 28.676175
47.425000 -37.109375 28.676175
46.675000 -35.750000 28.676175
45.825000 -34.812500 28.676175
45.100000 -33.312500 28.676175
44.675000 -32.218750 28.676175
44.200000 -31.000000 28.676175
43.950000 -30.156250 28.676175
44.125000 -29.109375 28.676175
48.000000 -37.921875 28.871781
47.250000 -36.734375 28.871781
46.725000 -35.500000 28.871781
44.975000 -33.312500 28.871781
44.525000 -31.937500 28.871781
44.050000 -31.000000 28.871781
43.950000 -29.843750 28.871781
44.350000 -28.703125 28.871781
48.275000 -38.500000 29.006136
47.650000 -37.109375 29.006136
46.775000 -35.921875 29.006136
45.950000 -34.734375 29.006136
45.275000 -33.890625 29.006136
44.750000 -32.640625 29.006136
44.275000 -31.578125 29.006136
43.950000 -30.406250 29.006136
48.200000 -38.281250 29.176412
47.575000 -37.218750 29.176412
46.800000 -35.890625 29.176412
45.950000 -34.593750 29.176412
45.225000 -33.734375 29.176412
44.700000 -32.593750 29.176412
44.200000 -31.453125 29.176412
43.950000 -30.312500 29.176412
44.100000 -29.078125 29.176412
48.250000 -37.859375 29.349840
47.500000 -36.750000 29.349840
46.850000 -35.687500 29.349840
45.975000 -34.546875 29.349840
45.075000 -33.250000 29.349840
44.600000 -32.156250 29.349840
44.175000 -31.171875 29.349840
43.925000 -30.046875 29.349840
44.225000 -28.812500 29.349840
47.300000 -36.281250 29.519673
46.675000 -35.265625 29.519673
45.825000 -33.968750 29.519673
44.925000 -33.156250 29.519673
44.325000 -31.875000 29.519673
43.900000 -30.765625 29.519673
43.875000 -29.468750 29.519673
44.425000 -28.515625 29.519673
48.350000 -38.281250 29.697590
47.850000 -37.328125 29.697590
47.125000 -36.109375 29.697590
46.125000 -34.750000 29.697590
45.300000 -33.546875 29.697590
44.775000 -32.578125 29.697590
44.275000 -31.578125 29.697590
43.950000 -30.484375 29.697590
48.550000 -38.515625 29.839205
48.000000 -37.484375 29.839205
47.275000 -36.359375 29.839205
46.375000 -34.906250 29.839205
45.500000 -33.984375 29.839205
44.875000 -32.812500 29.839205
44.450000 -31.421875 29.839205
43.975000 -30.531250 29.839205
43.900000 -29.421875 29.839205
44.675000 -28.343750 29.839205
