25.700000 4.286133 36.508888
25.700000 4.605957 36.508888
25.800000 5.550781 36.508888
25.900000 5.870605 36.508888
25.900000 6.565430 36.508888
26.000000 8.010254 36.508888
26.100000 8.955078 36.508888
26.100000 10.024902 36.508888
26.200000 9.719727 36.508888
26.300000 11.539551 36.508888
26.300000 10.984375 36.508888
26.300000 11.675781 36.508888
26.300000 12.242188 36.508888
26.400000 13.058594 36.508888
26.500000 14.000000 36.508888
26.600000 14.691406 36.508888
26.700000 15.132812 36.508888
26.700000 15.824219 36.508888
26.800000 16.140625 36.508888
26.900000 17.707031 36.508888
26.900000 18.523438 36.508888
27.000000 19.214844 36.508888
27.100000 18.906250 36.508888
27.200000 20.472656 36.508888
27.400000 20.164062 36.508888
27.500000 20.855469 36.508888
27.600000 22.421875 36.508888
27.800000 22.488281 36.508888
27.900000 22.929688 36.508888
28.200000 23.496094 36.508888
28.400000 24.312500 36.508888
28.700000 25.503906 36.508888
29.000000 26.320312 36.508888
29.300000 26.386719 36.508888
29.700000 26.953125 36.508888
30.000000 27.269531 36.508888
30.300000 28.835938 36.508888
30.500000 28.777344 36.508888
30.700000 29.468750 36.508888
31.000000 30.535156 36.508888
31.100000 30.726562 36.508888
31.300000 31.542969 36.508888
31.500000 32.109375 36.508888
31.800000 32.677734 36.508888
32.200000 33.871094 36.508888
25.500000 0.683594 36.633946
25.700000 1.377441 36.633946
25.700000 3.071289 36.633946
25.600000 3.265137 36.633946
25.700000 4.833984 36.633946
25.800000 4.902832 36.633946
25.800000 6.346680 36.633946
25.800000 6.665527 36.633946
25.800000 6.484375 36.633946
25.900000 8.302734 36.633946
26.000000 7.371094 36.633946
26.000000 8.064453 36.633946
26.200000 9.757812 36.633946
26.200000 9.701172 36.633946
26.300000 11.019531 36.633946
26.300000 11.837891 36.633946
26.300000 12.531250 36.633946
26.400000 12.599609 36.633946
26.500000 13.417969 36.633946
26.600000 13.611328 36.633946
26.600000 14.554688 36.633946
26.600000 16.248047 36.633946
26.700000 16.191406 36.633946
26.800000 17.259766 36.633946
26.900000 16.953125 36.633946
27.000000 18.271484 36.633946
27.100000 18.839844 36.633946
27.100000 20.158203 36.633946
27.300000 20.726562 36.633946
27.400000 20.669922 36.633946
27.500000 21.238281 36.633946
27.600000 22.306641 36.633946
27.800000 23.375000 36.633946
27.900000 23.193359 36.633946
28.200000 24.136719 36.633946
28.400000 25.330078 36.633946
28.800000 25.023438 36.633946
29.100000 25.841797 36.633946
29.400000 26.535156 36.633946
29.800000 27.228516 36.633946
30.000000 27.546875 36.633946
30.300000 28.614746 36.633946
30.600000 29.432617 36.633946
30.800000 29.375488 36.633946
31.100000 30.568359 36.633946
31.100000 31.261230 36.633946
31.300000 32.079102 36.633946
31.600000 32.521973 36.633946
32.000000 32.839844 36.633946
32.500000 33.782715 36.633946
25.700000 1.678223 36.771023
25.800000 1.750000 36.771023
25.800000 2.441406 36.771023
25.700000 4.382812 36.771023
25.700000 5.199219 36.771023
25.800000 4.640625 36.771023
25.800000 6.082031 36.771023
25.800000 6.648438 36.771023
25.900000 6.464844 36.771023
26.000000 7.656250 36.771023
26.100000 8.722656 36.771023
26.100000 8.414062 36.771023
26.200000 9.480469 36.771023
26.300000 9.796875 36.771023
26.300000 11.863281 36.771023
26.400000 11.304688 36.771023
26.400000 13.121094 36.771023
26.400000 12.562500 36.771023
26.500000 13.378906 36.771023
26.600000 14.570312 36.771023
26.600000 14.761719 36.771023
26.700000 15.703125 36.771023
26.800000 16.269531 36.771023
26.900000 17.585938 36.771023
27.000000 18.152344 36.771023
27.000000 18.968750 36.771023
27.200000 19.160156 36.771023
27.200000 19.726562 36.771023
27.300000 19.917969 36.771023
27.500000 20.859375 36.771023
27.600000 21.800781 36.771023
27.700000 22.867188 36.771023
27.900000 23.308594 36.771023
28.100000 23.500000 36.771023
28.300000 23.942383 36.771023
28.600000 25.009766 36.771023
29.000000 25.577148 36.771023
29.300000 25.894531 36.771023
29.600000 26.461914 36.771023
29.900000 27.654297 36.771023
30.200000 27.971680 36.771023
30.500000 28.414062 36.771023
30.800000 29.106445 36.771023
31.000000 29.798828 36.771023
31.200000 30.866211 36.771023
31.500000 31.433594 36.771023
31.600000 31.875977 36.771023
31.800000 32.818359 36.771023
32.100000 33.635742 36.771023
25.600000 1.654297 36.910857
25.600000 2.222656 36.910857
25.900000 2.041016 36.910857
25.800000 3.484375 36.910857
25.700000 4.052734 36.910857
25.700000 5.246094 36.910857
25.800000 5.564453 36.910857
25.800000 4.882812 36.910857
25.800000 6.451172 36.910857
25.900000 7.519531 36.910857
26.000000 7.087891 36.910857
26.100000 7.906250 36.910857
26.100000 9.099609 36.910857
26.200000 9.292969 36.910857
26.300000 9.986328 36.910857
26.300000 11.679688 36.910857
26.400000 11.123047 36.910857
26.400000 12.816406 36.910857
26.500000 13.634766 36.910857
26.500000 13.203125 36.910857
26.600000 14.146484 36.910857
26.600000 15.339844 36.910857
26.700000 15.408203 36.910857
26.800000 16.101562 36.910857
26.900000 16.794922 36.910857
27.000000 18.363281 36.910857
27.000000 18.181641 36.910857
27.100000 19.625000 36.910857
27.200000 19.815430 36.910857
27.300000 20.880859 36.910857
27.500000 21.196289 36.910857
27.600000 21.386719 36.910857
27.700000 22.827148 36.910857
27.900000 23.392578 36.910857
28.100000 24.083008 36.910857
28.300000 24.148438 36.910857
28.600000 24.963867 36.910857
29.000000 25.904297 36.910857
29.300000 26.094727 36.910857
29.600000 26.785156 36.910857
29.900000 27.475586 36.910857
30.200000 28.291016 36.910857
30.500000 28.606445 36.910857
30.700000 29.296875 36.910857
30.900000 30.237305 36.910857
31.200000 30.802734 36.910857
31.500000 31.743164 36.910857
31.600000 32.308594 36.910857
31.800000 32.374023 36.910857
32.200000 33.189453 36.910857
25.600000 1.301270 37.037906
25.900000 1.495117 37.037906
25.900000 3.313965 37.037906
25.800000 4.132812 37.037906
25.800000 3.576660 37.037906
25.800000 4.770508 37.037906
25.800000 5.714355 37.037906
25.800000 6.533203 37.037906
25.900000 7.602051 37.037906
25.900000 8.045898 37.037906
26.000000 8.989746 37.037906
26.000000 9.308594 37.037906
26.200000 9.127441 37.037906
26.200000 10.321289 37.037906
26.300000 11.140137 37.037906
26.300000 11.208984 37.037906
26.400000 12.777832 37.037906
26.400000 12.971680 37.037906
26.500000 13.040527 37.037906
26.600000 14.234375 37.037906
26.600000 14.674805 37.037906
26.600000 15.615234 37.037906
26.700000 16.180664 37.037906
26.800000 16.871094 37.037906
26.900000 16.936523 37.037906
27.000000 18.626953 37.037906
27.100000 18.817383 37.037906
27.200000 19.257812 37.037906
27.300000 20.698242 37.037906
27.400000 21.263672 37.037906
27.600000 21.079102 37.037906
27.700000 22.644531 37.037906
27.900000 22.209961 37.037906
28.100000 23.400391 37.037906
28.300000 24.215820 37.037906
28.500000 24.656250 37.037906
28.800000 25.596680 37.037906
29.100000 26.412109 37.037906
29.500000 26.352539 37.037906
29.800000 27.167969 37.037906
30.000000 27.358398 37.037906
30.300000 28.423828 37.037906
30.600000 28.864258 37.037906
30.800000 29.304688 37.037906
31.100000 30.245117 37.037906
31.200000 31.060547 37.037906
31.400000 31.625977 37.037906
31.700000 32.316406 37.037906
32.000000 32.756836 37.037906
32.500000 33.322266 37.037906
25.700000 2.175781 37.176024
25.800000 2.619141 37.176024
25.800000 3.937500 37.176024
25.800000 5.130859 37.176024
25.800000 4.574219 37.176024
25.900000 6.267578 37.176024
25.900000 7.210938 37.176024
26.000000 7.654297 37.176024
26.000000 7.847656 37.176024
26.100000 8.416016 37.176024
26.200000 8.734375 37.176024
26.200000 9.551270 37.176024
26.300000 10.118164 37.176024
26.300000 11.310059 37.176024
26.400000 12.126953 37.176024
26.400000 12.318848 37.176024
26.500000 13.260742 37.176024
26.500000 14.327637 37.176024
26.600000 15.019531 37.176024
26.700000 14.836426 37.176024
26.700000 16.028320 37.176024
26.800000 16.970215 37.176024
26.900000 17.287109 37.176024
27.000000 17.604004 37.176024
27.100000 18.670898 37.176024
27.200000 18.862793 37.176024
27.300000 20.804688 37.176024
27.400000 20.996582 37.176024
27.600000 21.063477 37.176024
27.700000 21.755371 37.176024
27.900000 22.447266 37.176024
28.100000 23.264160 37.176024
28.300000 24.331055 37.176024
28.500000 24.647949 37.176024
28.800000 24.964844 37.176024
29.100000 25.406738 37.176024
29.500000 26.723633 37.176024
29.800000 27.165527 37.176024
30.100000 28.107422 37.176024
30.300000 28.299316 37.176024
30.700000 28.741211 37.176024
30.900000 29.808105 37.176024
31.100000 30.125000 37.176024
31.200000 31.065918 37.176024
31.400000 31.631836 37.176024
31.700000 32.322754 37.176024
32.000000 32.638672 37.176024
32.500000 33.954590 37.176024
25.600000 0.630859 37.302063
25.700000 2.088867 37.302063
25.900000 2.783203 37.302063
25.800000 3.477539 37.302063
25.800000 5.546875 37.302063
25.800000 6.364746 37.302063
25.900000 6.057617 37.302063
25.900000 6.375488 37.302063
26.000000 7.068359 37.302063
26.000000 8.886230 37.302063
26.100000 9.454102 37.302063
26.200000 9.521973 37.302063
26.300000 10.214844 37.302063
26.300000 11.407715 37.302063
26.300000 10.975586 37.302063
26.400000 12.543457 37.302063
26.400000 13.361328 37.302063
26.500000 14.179199 37.302063
26.600000 13.622070 37.302063
26.600000 14.564941 37.302063
26.700000 15.632812 37.302063
26.900000 15.575684 37.302063
26.900000 16.268555 37.302063
26.900000 17.211426 37.302063
27.000000 18.154297 37.302063
27.100000 18.722168 37.302063
27.200000 19.790039 37.302063
27.300000 20.107910 37.302063
27.400000 20.925781 37.302063
27.600000 21.618652 37.302063
27.700000 22.186523 37.302063
27.900000 22.254395 37.302063
28.100000 23.322266 37.302063
28.300000 24.015137 37.302063
28.500000 24.708008 37.302063
28.800000 25.400879 37.302063
29.100000 25.468750 37.302063
29.500000 26.908203 37.302063
29.800000 27.347656 37.302063
30.100000 27.787109 37.302063
30.400000 28.851562 37.302063
30.700000 29.166016 37.302063
30.900000 29.480469 37.302063
31.200000 30.169922 37.302063
31.300000 31.359375 37.302063
31.400000 32.048828 37.302063
31.700000 32.738281 37.302063
32.000000 32.677734 37.302063
32.500000 33.742188 37.302063
25.600000 0.958496 37.440846
25.600000 0.901367 37.440846
25.800000 1.844238 37.440846
25.900000 2.287109 37.440846
25.900000 3.104980 37.440846
25.900000 4.172852 37.440846
25.800000 4.240723 37.440846
25.800000 5.933594 37.440846
25.900000 6.001465 37.440846
26.000000 6.069336 37.440846
26.000000 7.512207 37.440846
26.000000 9.080078 37.440846
26.100000 8.647949 37.440846
26.200000 9.590820 37.440846
26.300000 10.533691 37.440846
26.300000 10.226562 37.440846
26.400000 11.169434 37.440846
26.400000 11.862305 37.440846
26.400000 13.180176 37.440846
26.500000 13.998047 37.440846
26.600000 14.190918 37.440846
26.600000 14.633789 37.440846
26.700000 14.951660 37.440846
26.800000 16.769531 37.440846
26.900000 16.337402 37.440846
26.900000 17.405273 37.440846
27.000000 18.348145 37.440846
27.100000 18.416016 37.440846
27.200000 20.108887 37.440846
27.400000 20.051758 37.440846
27.500000 20.744629 37.440846
27.600000 21.812500 37.440846
27.800000 22.003418 37.440846
27.900000 22.944336 37.440846
28.100000 23.010254 37.440846
28.400000 24.201172 37.440846
28.600000 24.642090 37.440846
29.000000 25.708008 37.440846
29.300000 26.023926 37.440846
29.600000 26.464844 37.440846
29.900000 26.905762 37.440846
30.200000 27.721680 37.440846
30.500000 28.912598 37.440846
30.700000 29.603516 37.440846
30.900000 29.919434 37.440846
31.200000 30.485352 37.440846
31.400000 30.926270 37.440846
31.600000 31.617188 37.440846
31.900000 32.558105 37.440846
32.200000 32.749023 37.440846
32.600000 33.564941 37.440846
25.600000 0.890625 37.578957
25.500000 0.833984 37.578957
25.800000 1.902344 37.578957
26.000000 1.970703 37.578957
26.000000 3.664062 37.578957
25.800000 3.857422 37.578957
25.800000 5.300781 37.578957
25.800000 4.994141 37.578957
25.900000 6.562500 37.578957
26.000000 7.005859 37.578957
26.100000 7.824219 37.578957
26.100000 8.142578 37.578957
26.100000 8.335938 37.578957
26.200000 9.279297 37.578957
26.300000 10.472656 37.578957
26.300000 11.666016 37.578957
26.400000 11.609375 37.578957
26.400000 12.927734 37.578957
26.500000 13.246094 37.578957
26.500000 13.564453 37.578957
26.600000 14.757812 37.578957
26.600000 15.076172 37.578957
26.700000 15.519531 37.578957
26.800000 16.837891 37.578957
26.900000 16.406250 37.578957
27.000000 17.224121 37.578957
27.100000 18.041992 37.578957
27.200000 18.359863 37.578957
27.200000 19.802734 37.578957
27.400000 20.495605 37.578957
27.500000 21.563477 37.578957
27.700000 21.506348 37.578957
27.800000 22.449219 37.578957
27.900000 23.017090 37.578957
28.100000 23.834961 37.578957
28.400000 24.152832 37.578957
28.600000 24.970703 37.578957
29.000000 25.288574 37.578957
29.300000 25.856445 37.578957
29.600000 26.674316 37.578957
29.900000 27.367188 37.578957
30.200000 27.685059 37.578957
30.500000 29.002930 37.578957
30.700000 29.570801 37.578957
31.000000 29.638672 37.578957
31.300000 30.456543 37.578957
31.600000 31.024414 37.578957
31.700000 31.967285 37.578957
32.000000 32.785156 37.578957
32.400000 33.353027 37.578957
25.700000 1.093750 37.702136
25.700000 1.538086 37.702136
25.800000 3.482422 37.702136
25.900000 3.176758 37.702136
25.800000 3.746094 37.702136
25.900000 3.940430 37.702136
25.900000 5.509766 37.702136
25.900000 5.954102 37.702136
26.000000 6.398438 37.702136
26.000000 6.717773 37.702136
26.000000 8.537109 37.702136
26.100000 8.231445 37.702136
26.200000 9.925781 37.702136
26.300000 9.620117 37.702136
26.300000 11.314453 37.702136
26.300000 11.883789 37.702136
26.400000 11.953125 37.702136
26.400000 12.272461 37.702136
26.500000 13.716797 37.702136
26.600000 13.661133 37.702136
26.600000 15.605469 37.702136
26.700000 15.674805 37.702136
26.800000 15.869141 37.702136
26.900000 16.438477 37.702136
27.000000 17.632812 37.702136
27.100000 18.327148 37.702136
27.100000 18.396484 37.702136
27.300000 18.965820 37.702136
27.400000 20.160156 37.702136
27.500000 20.604492 37.702136
27.600000 21.298828 37.702136
27.800000 21.618164 37.702136
28.000000 23.062500 37.702136
28.200000 23.506836 37.702136
28.400000 24.076172 37.702136
28.700000 25.270508 37.702136
29.000000 25.339844 37.702136
29.300000 25.784180 37.702136
29.700000 26.478516 37.702136
29.900000 27.047852 37.702136
30.200000 28.242188 37.702136
30.500000 28.561523 37.702136
30.700000 28.880859 37.702136
31.000000 29.700195 37.702136
31.200000 30.769531 37.702136
31.600000 30.713867 37.702136
31.700000 31.533203 37.702136
31.900000 32.227539 37.702136
32.400000 32.796875 37.702136
32.900000 33.364746 37.702136
25.800000 0.960938 37.829132
25.800000 1.531250 37.829132
25.900000 1.976562 37.829132
25.900000 3.171875 37.829132
25.900000 3.867188 37.829132
25.900000 4.062500 37.829132
25.900000 4.882812 37.829132
25.900000 6.328125 37.829132
25.900000 7.398438 37.829132
26.000000 6.968750 37.829132
26.100000 8.536621 37.829132
26.100000 9.354492 37.829132
26.200000 9.172363 37.829132
26.300000 9.490234 37.829132
26.300000 11.433105 37.829132
26.400000 12.250977 37.829132
26.400000 12.318848 37.829132
26.500000 12.261719 37.829132
26.600000 14.079590 37.829132
26.600000 13.647461 37.829132
26.600000 14.340332 37.829132
26.700000 15.408203 37.829132
26.800000 15.601074 37.829132
26.900000 16.918945 37.829132
27.000000 17.486816 37.829132
27.100000 18.304688 37.829132
27.200000 18.622559 37.829132
27.300000 19.315430 37.829132
27.500000 20.383301 37.829132
27.600000 21.326172 37.829132
27.600000 22.019043 37.829132
27.800000 21.961914 37.829132
28.000000 23.279785 37.829132
28.200000 23.847656 37.829132
28.400000 24.540527 37.829132
28.700000 24.358398 37.829132
29.000000 24.926270 37.829132
29.300000 26.244141 37.829132
29.600000 26.687012 37.829132
29.900000 27.504883 37.829132
30.200000 28.197754 37.829132
30.500000 28.265625 37.829132
30.800000 29.083008 37.829132
31.000000 29.525391 37.829132
31.200000 30.467773 37.829132
31.500000 31.160156 37.829132
31.700000 31.977539 37.829132
32.000000 32.669922 37.829132
32.400000 33.237305 37.829132
32.900000 33.929688 37.829132
25.900000 2.718750 37.967923
25.900000 3.786621 37.967923
25.900000 3.979492 37.967923
25.900000 4.172363 37.967923
25.900000 5.865234 37.967923
25.900000 6.183105 37.967923
26.000000 6.625977 37.967923
26.000000 7.568848 37.967923
26.100000 7.511719 37.967923
26.200000 9.204590 37.967923
26.200000 9.965332 37.967923
26.300000 10.283203 37.967923
26.400000 11.351074 37.967923
25.800000 0.771484 38.108942
25.800000 2.339355 38.108942
25.800000 2.282227 38.108942
25.900000 2.600098 38.108942
25.900000 4.292969 38.108942
25.900000 3.860840 38.108942
25.900000 4.928711 38.108942
26.000000 5.246582 38.108942
26.000000 6.814453 38.108942
26.100000 7.507324 38.108942
26.100000 7.700195 38.108942
26.200000 7.893066 38.108942
26.300000 9.585938 38.108942
26.300000 10.403809 38.108942
26.300000 11.096680 38.108942
26.400000 11.664551 38.108942
26.400000 11.607422 38.108942
26.500000 13.175293 38.108942
26.600000 13.368164 38.108942
26.600000 14.186035 38.108942
26.700000 14.128906 38.108942
26.800000 15.446777 38.108942
26.900000 15.514648 38.108942
26.900000 16.332520 38.108942
27.000000 16.650391 38.108942
27.100000 17.343262 38.108942
27.200000 18.536133 38.108942
27.300000 18.729004 38.108942
27.400000 19.421875 38.108942
27.500000 20.238281 38.108942
27.700000 21.179688 38.108942
27.800000 22.121094 38.108942
27.900000 22.312500 38.108942
28.100000 23.253906 38.108942
28.300000 23.695312 38.108942
28.600000 24.511719 38.108942
28.900000 24.578125 38.108942
29.200000 25.894531 38.108942
29.500000 26.335938 38.108942
29.800000 27.402344 38.108942
30.100000 27.718750 38.108942
30.400000 28.410156 38.108942
30.700000 28.726562 38.108942
30.900000 29.667969 38.108942
31.200000 29.859375 38.108942
31.600000 32.308594 38.108942
31.900000 32.500000 38.108942
32.400000 33.691406 38.108942
25.800000 2.080078 38.234334
25.900000 2.772949 38.234334
25.900000 2.340820 38.234334
25.900000 4.158691 38.234334
25.900000 3.851562 38.234334
25.900000 5.294434 38.234334
25.900000 5.612305 38.234334
26.000000 7.055176 38.234334
26.100000 7.123047 38.234334
26.100000 7.565918 38.234334
26.200000 8.133789 38.234334
26.200000 8.826660 38.234334
26.300000 9.894531 38.234334
26.300000 10.462402 38.234334
26.400000 11.030273 38.234334
26.500000 12.348145 38.234334
26.500000 13.166016 38.234334
26.600000 13.983887 38.234334
26.700000 14.176758 38.234334
26.700000 14.994629 38.234334
26.800000 15.562500 38.234334
26.900000 16.001953 38.234334
27.000000 16.066406 38.234334
27.100000 17.255859 38.234334
27.100000 18.195312 38.234334
27.200000 18.509766 38.234334
27.300000 19.949219 38.234334
27.400000 20.138672 38.234334
27.600000 20.203125 38.234334
27.700000 21.392578 38.234334
27.800000 22.457031 38.234334
28.000000 23.146484 38.234334
28.100000 22.835938 38.234334
28.300000 23.525391 38.234334
28.600000 24.964844 38.234334
28.900000 25.154297 38.234334
29.200000 26.093750 38.234334
29.600000 26.658203 38.234334
29.800000 26.972656 38.234334
30.100000 27.412109 38.234334
30.400000 28.351562 38.234334
30.700000 29.166016 38.234334
31.000000 29.730469 38.234334
31.200000 29.919922 38.234334
31.200000 31.234375 38.234334
31.400000 31.298828 38.234334
31.800000 32.363281 38.234334
32.000000 32.677734 38.234334
32.600000 33.492188 38.234334
25.800000 1.513672 38.360003
25.800000 1.208008 38.360003
25.900000 2.152344 38.360003
25.900000 2.846680 38.360003
25.900000 4.416016 38.360003
25.900000 3.985352 38.360003
25.900000 6.054688 38.360003
25.900000 5.624023 38.360003
25.900000 7.068359 38.360003
26.000000 7.387695 38.360003
26.100000 7.332031 38.360003
26.100000 9.151367 38.360003
26.200000 9.845703 38.360003
26.300000 10.165039 38.360003
26.400000 11.109375 38.360003
26.500000 10.802246 38.360003
26.500000 12.495117 38.360003
26.500000 12.562988 38.360003
26.600000 13.005859 38.360003
26.700000 13.823730 38.360003
26.700000 14.641602 38.360003
26.800000 15.334473 38.360003
26.900000 16.277344 38.360003
27.000000 16.220215 38.360003
27.100000 18.163086 38.360003
27.100000 18.105957 38.360003
27.300000 18.173828 38.360003
27.400000 19.866699 38.360003
27.500000 19.559570 38.360003
27.600000 20.502441 38.360003
27.700000 21.070312 38.360003
27.900000 22.638184 38.360003
28.000000 22.956055 38.360003
28.100000 23.898926 38.360003
28.400000 23.966797 38.360003
28.700000 24.909668 38.360003
29.000000 25.727539 38.360003
29.300000 26.045410 38.360003
29.600000 26.863281 38.360003
30.000000 26.681152 38.360003
30.300000 27.624023 38.360003
30.500000 28.316895 38.360003
30.800000 28.884766 38.360003
31.000000 29.827637 38.360003
31.300000 30.395508 38.360003
31.500000 31.213379 38.360003
31.800000 31.656250 38.360003
32.000000 32.473145 38.360003
32.400000 33.040039 38.360003
32.900000 33.356934 38.360003
25.800000 1.136719 38.500123
25.800000 0.955566 38.500123
25.900000 1.524414 38.500123
25.900000 2.718262 38.500123
25.900000 2.912109 38.500123
25.900000 3.480957 38.500123
25.900000 5.799805 38.500123
25.900000 5.243652 38.500123
26.000000 6.062500 38.500123
26.100000 6.880371 38.500123
26.100000 7.948242 38.500123
26.200000 7.641113 38.500123
26.200000 9.708984 38.500123
26.400000 9.276855 38.500123
26.400000 10.844727 38.500123
26.400000 11.537598 38.500123
26.500000 11.355469 38.500123
26.600000 12.423340 38.500123
26.600000 12.991211 38.500123
26.600000 13.684082 38.500123
26.700000 14.126953 38.500123
26.800000 14.694824 38.500123
26.800000 15.637695 38.500123
26.900000 16.830566 38.500123
27.000000 16.773438 38.500123
27.100000 17.091309 38.500123
27.200000 18.409180 38.500123
27.300000 18.977051 38.500123
27.400000 19.294922 38.500123
27.500000 20.612793 38.500123
27.700000 21.680664 38.500123
27.800000 21.748535 38.500123
27.900000 22.691406 38.500123
28.100000 23.384277 38.500123
28.300000 23.327148 38.500123
28.500000 24.270020 38.500123
28.800000 24.712891 38.500123
29.200000 25.530762 38.500123
29.500000 26.473633 38.500123
29.800000 27.166504 38.500123
30.100000 27.484375 38.500123
30.400000 28.051758 38.500123
30.700000 28.869141 38.500123
30.900000 29.436523 38.500123
31.100000 29.753906 38.500123
31.600000 31.831055 38.500123
32.000000 32.523438 38.500123
32.200000 33.590820 38.500123
25.800000 1.171875 38.624936
25.900000 1.990234 38.624936
25.900000 2.183594 38.624936
25.900000 4.001953 38.624936
25.900000 4.320312 38.624936
25.900000 4.388672 38.624936
25.900000 5.582031 38.624936
26.000000 6.525391 38.624936
26.100000 6.843750 38.624936
26.100000 8.537109 38.624936
26.200000 8.480469 38.624936
26.300000 8.673828 38.624936
26.300000 10.242188 38.624936
26.400000 9.810547 38.624936
26.400000 11.503906 38.624936
26.500000 11.572266 38.624936
26.500000 11.765625 38.624936
26.600000 13.708984 38.624936
26.600000 13.902344 38.624936
26.700000 14.095703 38.624936
26.800000 14.789062 38.624936
26.900000 15.982422 38.624936
27.000000 16.425781 38.624936
27.100000 16.744141 38.624936
27.100000 17.437500 38.624936
27.200000 18.255859 38.624936
27.300000 19.324219 38.624936
27.400000 19.517578 38.624936
27.500000 20.585938 38.624936
27.700000 20.779297 38.624936
27.800000 21.847656 38.624936
27.900000 22.541016 38.624936
28.100000 22.609375 38.624936
28.300000 23.425293 38.624936
28.600000 23.991211 38.624936
28.900000 25.057129 38.624936
29.200000 25.623047 38.624936
29.500000 26.438965 38.624936
29.800000 26.879883 38.624936
30.100000 27.820801 38.624936
30.400000 28.511719 38.624936
30.700000 28.952637 38.624936
30.900000 29.768555 38.624936
31.200000 30.334473 38.624936
31.200000 31.025391 38.624936
31.400000 31.716309 38.624936
31.800000 32.282227 38.624936
32.000000 32.473145 38.624936
32.300000 33.164062 38.624936
25.800000 2.117188 38.763972
25.900000 2.312500 38.763972
25.900000 2.757812 38.763972
25.900000 3.453125 38.763972
25.900000 4.023438 38.763972
25.900000 5.593750 38.763972
26.000000 6.414062 38.763972
26.000000 5.859375 38.763972
26.100000 7.679688 38.763972
26.100000 7.375000 38.763972
26.200000 9.195312 38.763972
26.300000 9.390625 38.763972
26.400000 9.210938 38.763972
26.400000 10.656250 38.763972
26.500000 10.476562 38.763972
26.500000 11.171875 38.763972
26.500000 12.867188 38.763972
26.600000 12.437500 38.763972
26.600000 13.382812 38.763972
26.700000 14.203125 38.763972
26.800000 14.898438 38.763972
26.900000 16.468750 38.763972
26.900000 16.664062 38.763972
27.000000 17.359375 38.763972
27.100000 17.554688 38.763972
27.200000 19.125000 38.763972
27.300000 19.565430 38.763972
27.400000 19.380859 38.763972
27.500000 20.321289 38.763972
27.700000 21.261719 38.763972
27.800000 21.827148 38.763972
27.900000 22.642578 38.763972
28.100000 22.833008 38.763972
28.300000 24.023438 38.763972
28.600000 23.963867 38.763972
28.900000 24.529297 38.763972
29.200000 25.969727 38.763972
29.500000 26.535156 38.763972
29.800000 26.975586 38.763972
30.100000 27.791016 38.763972
30.400000 28.231445 38.763972
30.700000 28.421875 38.763972
30.900000 29.362305 38.763972
31.200000 29.927734 38.763972
31.200000 30.868164 38.763972
31.500000 31.308594 38.763972
31.800000 32.374023 38.763972
32.000000 32.814453 38.763972
32.200000 33.254883 38.763972
25.800000 2.616211 38.904129
25.900000 3.437500 38.904129
25.900000 3.383789 38.904129
25.900000 3.580078 38.904129
25.900000 4.651367 38.904129
25.900000 6.097656 38.904129
25.900000 5.668945 38.904129
26.000000 7.365234 38.904129
26.100000 6.686523 38.904129
26.200000 7.382812 38.904129
26.300000 8.079102 38.904129
26.300000 9.900391 38.904129
26.400000 10.096680 38.904129
26.400000 10.167969 38.904129
26.500000 11.489258 38.904129
26.500000 12.060547 38.904129
26.600000 13.131836 38.904129
26.600000 12.953125 38.904129
26.700000 14.769043 38.904129
26.800000 14.584961 38.904129
26.800000 15.650879 38.904129
26.900000 15.966797 38.904129
27.000000 16.907715 38.904129
27.100000 18.223633 38.904129
27.100000 18.164551 38.904129
27.200000 18.480469 38.904129
27.300000 19.296387 38.904129
27.500000 20.612305 38.904129
27.600000 20.803223 38.904129
27.700000 21.244141 38.904129
27.900000 21.685059 38.904129
28.000000 22.375977 38.904129
28.200000 23.316895 38.904129
28.500000 23.632812 38.904129
28.700000 24.948730 38.904129
29.000000 24.889648 38.904129
29.400000 25.705566 38.904129
29.700000 26.646484 38.904129
30.000000 27.337402 38.904129
30.300000 28.028320 38.904129
30.500000 28.219238 38.904129
30.800000 29.285156 38.904129
31.000000 29.851074 38.904129
31.300000 30.041992 38.904129
31.600000 31.232910 38.904129
31.800000 32.048828 38.904129
32.000000 31.989746 38.904129
32.400000 32.680664 38.904129
25.800000 1.530273 39.030956
25.900000 2.099121 39.030956
25.900000 2.792969 39.030956
25.900000 4.111816 39.030956
25.900000 4.305664 39.030956
25.900000 4.874512 39.030956
25.900000 6.568359 39.030956
26.000000 5.637207 39.030956
26.100000 6.831055 39.030956
26.100000 7.024902 39.030956
26.200000 8.218750 39.030956
26.300000 9.660156 39.030956
26.400000 9.226562 39.030956
26.400000 11.042969 39.030956
26.500000 10.984375 39.030956
26.500000 11.925781 39.030956
26.500000 12.242188 39.030956
26.600000 12.558594 39.030956
26.600000 14.500000 39.030956
26.700000 13.816406 39.030956
26.800000 15.382812 39.030956
26.900000 15.449219 39.030956
27.000000 16.640625 39.030956
27.000000 17.457031 39.030956
27.100000 18.148438 39.030956
27.200000 18.214844 39.030956
27.300000 18.531250 39.030956
27.400000 19.347656 39.030956
27.500000 20.789062 39.030956
27.700000 20.980469 39.030956
27.800000 22.296875 39.030956
27.900000 21.988281 39.030956
28.100000 22.929688 39.030956
28.300000 23.496094 39.030956
28.600000 23.937500 39.030956
28.900000 25.003906 39.030956
29.200000 25.445312 39.030956
29.500000 26.636719 39.030956
29.800000 26.953125 39.030956
30.100000 27.144531 39.030956
30.400000 27.960938 39.030956
30.700000 28.527344 39.030956
30.900000 29.343750 39.030956
31.200000 30.035645 39.030956
31.200000 30.602539 39.030956
31.500000 31.419434 39.030956
31.800000 31.986328 39.030956
32.000000 32.928223 39.030956
32.400000 33.245117 39.030956
25.900000 1.482422 39.158099
25.800000 0.803223 39.158099
25.800000 1.499023 39.158099
25.900000 2.319824 39.158099
25.900000 3.390625 39.158099
25.900000 3.331543 39.158099
25.900000 5.397461 39.158099
25.900000 4.713379 39.158099
26.000000 5.404297 39.158099
26.100000 6.220215 39.158099
26.100000 7.661133 39.158099
26.200000 8.102051 39.158099
26.300000 9.167969 39.158099
26.300000 9.358887 39.158099
26.400000 10.049805 39.158099
26.500000 10.240723 39.158099
26.500000 11.431641 39.158099
26.500000 12.247559 39.158099
26.600000 12.438477 39.158099
26.600000 13.504395 39.158099
26.700000 14.195312 39.158099
26.800000 14.636230 39.158099
26.800000 15.952148 39.158099
26.900000 15.768066 39.158099
27.000000 16.833984 39.158099
27.100000 17.024902 39.158099
27.100000 18.465820 39.158099
27.200000 18.781738 39.158099
27.300000 18.972656 39.158099
27.500000 19.663574 39.158099
27.600000 20.604492 39.158099
27.700000 21.545410 39.158099
27.900000 22.361328 39.158099
28.000000 22.927246 39.158099
28.200000 23.243164 39.158099
28.500000 23.809082 39.158099
28.700000 24.375000 39.158099
29.000000 24.939941 39.158099
29.400000 26.379883 39.158099
29.700000 26.319824 39.158099
30.000000 27.634766 39.158099
30.300000 28.074707 39.158099
30.500000 28.514648 39.158099
30.800000 29.454590 39.158099
31.000000 30.144531 39.158099
31.300000 30.459473 39.158099
31.600000 31.399414 39.158099
31.800000 31.589355 39.158099
32.100000 32.404297 39.158099
32.400000 33.094238 39.158099
25.900000 1.298828 39.297079
25.800000 0.742188 39.297079
25.800000 2.185547 39.297079
25.900000 2.128906 39.297079
25.900000 2.572266 39.297079
25.900000 3.890625 39.297079
25.900000 4.208984 39.297079
25.900000 6.152344 39.297079
26.000000 6.470703 39.297079
26.100000 7.664062 39.297079
26.100000 7.732422 39.297079
26.200000 7.925781 39.297079
26.300000 8.244141 39.297079
26.300000 9.687500 39.297079
26.400000 9.505859 39.297079
26.400000 11.574219 39.297079
26.500000 12.142578 39.297079
26.500000 11.710938 39.297079
26.600000 12.404297 39.297079
26.600000 13.972656 39.297079
26.700000 14.541016 39.297079
26.800000 15.234375 39.297079
26.800000 16.052734 39.297079
26.900000 15.746094 39.297079
27.000000 17.314453 39.297079
27.100000 17.757812 39.297079
27.100000 17.576172 39.297079
27.200000 18.519531 39.297079
27.300000 19.462891 39.297079
27.400000 20.781250 39.297079
27.500000 20.474609 39.297079
27.700000 21.167969 39.297079
27.900000 22.111328 39.297079
28.000000 23.179688 39.297079
28.200000 23.123047 39.297079
28.500000 23.566406 39.297079
28.700000 24.884766 39.297079
29.000000 25.578125 39.297079
29.400000 26.396484 39.297079
29.700000 26.464844 39.297079
30.000000 27.658203 39.297079
30.200000 27.601562 39.297079
30.600000 28.669922 39.297079
30.900000 29.363281 39.297079
31.100000 29.431641 39.297079
31.400000 30.250000 39.297079
31.700000 31.068359 39.297079
31.900000 32.011719 39.297079
32.100000 32.705078 39.297079
32.300000 33.398438 39.297079
25.800000 2.236328 39.435125
25.800000 1.554688 39.435125
25.900000 2.873047 39.435125
25.900000 4.316406 39.435125
25.900000 4.009766 39.435125
25.900000 4.328125 39.435125
26.000000 5.146484 39.435125
26.000000 5.464844 39.435125
26.100000 6.408203 39.435125
26.100000 7.476562 39.435125
26.200000 8.919922 39.435125
26.200000 9.363281 39.435125
26.400000 10.181641 39.435125
26.400000 10.375000 39.435125
26.400000 11.568359 39.435125
26.500000 11.636719 39.435125
26.500000 11.830078 39.435125
26.600000 12.398438 39.435125
26.600000 13.341797 39.435125
26.700000 14.035156 39.435125
26.800000 14.853516 39.435125
26.900000 15.421875 39.435125
27.000000 16.364258 39.435125
27.000000 16.556641 39.435125
27.100000 17.749023 39.435125
27.200000 18.941406 39.435125
27.300000 19.133789 39.435125
27.400000 19.576172 39.435125
27.400000 20.268555 39.435125
27.600000 20.335938 39.435125
27.700000 21.028320 39.435125
27.900000 21.845703 39.435125
28.100000 22.913086 39.435125
28.300000 23.355469 39.435125
28.500000 24.297852 39.435125
28.800000 25.240234 39.435125
29.100000 25.432617 39.435125
29.400000 26.000000 39.435125
29.800000 26.817383 39.435125
30.100000 27.509766 39.435125
30.400000 27.702148 39.435125
30.700000 28.519531 39.435125
30.900000 29.086914 39.435125
31.100000 29.654297 39.435125
31.300000 30.346680 39.435125
31.700000 31.289062 39.435125
31.900000 32.106445 39.435125
32.000000 32.298828 39.435125
32.300000 32.866211 39.435125
25.400000 1.779785 39.563068
31.100000 29.627441 39.563068
31.400000 30.444336 39.563068
31.700000 31.011230 39.563068
25.700000 1.246094 39.701003
25.800000 1.066895 39.701003
25.800000 1.387695 39.701003
25.900000 2.333496 39.701003
25.900000 3.029297 39.701003
25.900000 3.725098 39.701003
25.900000 5.295898 39.701003
25.900000 5.991699 39.701003
26.000000 5.687500 39.701003
26.100000 6.879883 39.701003
26.100000 7.447266 39.701003
26.200000 8.889648 39.701003
26.300000 9.582031 39.701003
26.400000 9.024414 39.701003
26.400000 11.091797 39.701003
26.500000 10.909180 39.701003
26.500000 11.351562 39.701003
26.500000 12.168945 39.701003
26.600000 13.111328 39.701003
26.700000 13.553711 39.701003
26.800000 14.121094 39.701003
26.800000 14.938477 39.701003
26.800000 15.755859 39.701003
26.900000 15.948242 39.701003
27.000000 17.140625 39.701003
27.100000 18.333008 39.701003
27.200000 18.025391 39.701003
27.300000 18.592773 39.701003
27.400000 20.285156 39.701003
27.500000 20.977539 39.701003
27.600000 21.669922 39.701003
27.800000 21.487305 39.701003
27.900000 22.304688 39.701003
28.100000 23.122070 39.701003
28.300000 23.564453 39.701003
28.600000 23.881836 39.701003
28.800000 24.699219 39.701003
29.100000 25.141602 39.701003
29.400000 26.083984 39.701003
29.800000 27.151367 39.701003
30.100000 27.093750 39.701003
30.400000 28.036133 39.701003
30.700000 28.853516 39.701003
30.900000 29.670898 39.701003
31.100000 29.738281 39.701003
31.300000 30.805664 39.701003
31.600000 31.248047 39.701003
31.900000 32.315430 39.701003
32.000000 32.757812 39.701003
32.300000 32.950195 39.701003
25.800000 0.968750 39.825663
25.800000 2.410156 39.825663
25.800000 3.101562 39.825663
25.800000 2.917969 39.825663
25.900000 3.984375 39.825663
25.900000 4.300781 39.825663
25.900000 6.117188 39.825663
26.000000 6.183594 39.825663
26.000000 6.500000 39.825663
26.100000 7.691406 39.825663
26.200000 9.132812 39.825663
26.300000 8.699219 39.825663
26.400000 9.390625 39.825663
26.400000 10.332031 39.825663
26.500000 10.523438 39.825663
26.500000 11.714844 39.825663
26.500000 13.031250 39.825663
26.600000 12.472656 39.825663
26.700000 13.414062 39.825663
26.800000 13.730469 39.825663
26.800000 15.671875 39.825663
26.800000 16.238281 39.825663
26.900000 16.179688 39.825663
27.000000 17.496094 39.825663
27.100000 17.812500 39.825663
27.100000 17.753906 39.825663
27.200000 19.195312 39.825663
27.400000 19.511719 39.825663
27.500000 20.203125 39.825663
27.600000 21.394531 39.825663
27.700000 22.210938 39.825663
27.900000 22.152344 39.825663
28.100000 23.593750 39.825663
28.300000 23.534668 39.825663
28.500000 24.100586 39.825663
28.700000 25.416504 39.825663
29.100000 25.982422 39.825663
29.400000 25.923340 39.825663
29.700000 26.739258 39.825663
30.100000 27.805176 39.825663
30.300000 27.871094 39.825663
30.600000 28.937012 39.825663
30.900000 29.627930 39.825663
31.100000 29.943848 39.825663
31.400000 30.384766 39.825663
31.700000 31.075684 39.825663
31.900000 32.141602 39.825663
32.100000 32.457520 39.825663
32.300000 32.898438 39.825663
25.700000 1.401367 39.966089
25.700000 1.343262 39.966089
25.800000 2.285156 39.966089
25.800000 2.352051 39.966089
25.800000 3.293945 39.966089
25.900000 4.610840 39.966089
25.900000 4.552734 39.966089
25.900000 6.244629 39.966089
25.900000 6.061523 39.966089
26.000000 7.753418 39.966089
26.100000 7.070312 39.966089
26.200000 8.762207 39.966089
26.300000 8.579102 39.966089
26.300000 10.270996 39.966089
26.400000 10.212891 39.966089
26.400000 10.779785 39.966089
26.500000 11.971680 39.966089
26.500000 11.913574 39.966089
26.600000 13.105469 39.966089
26.600000 13.172363 39.966089
26.700000 14.239258 39.966089
26.700000 14.556152 39.966089
26.800000 15.373047 39.966089
26.900000 16.689941 39.966089
27.000000 17.506836 39.966089
27.100000 17.323730 39.966089
27.100000 18.515625 39.966089
27.200000 19.081055 39.966089
27.400000 19.771484 39.966089
27.500000 19.836914 39.966089
27.600000 21.277344 39.966089
27.700000 21.467773 39.966089
27.800000 22.533203 39.966089
28.000000 22.473633 39.966089
28.300000 23.539062 39.966089
28.400000 24.229492 39.966089
28.700000 24.669922 39.966089
29.100000 25.985352 39.966089
29.400000 26.425781 39.966089
29.700000 26.616211 39.966089
30.000000 27.306641 39.966089
30.300000 27.872070 39.966089
30.600000 28.937500 39.966089
30.800000 29.002930 39.966089
31.100000 30.193359 39.966089
31.300000 30.758789 39.966089
31.700000 30.949219 39.966089
31.900000 31.514648 39.966089
32.100000 32.205078 39.966089
32.300000 33.395508 39.966089
25.800000 0.660645 40.091294
25.800000 1.604492 40.091294
25.800000 2.798340 40.091294
25.800000 3.492188 40.091294
25.800000 3.811035 40.091294
25.900000 4.004883 40.091294
25.900000 5.448730 40.091294
25.900000 5.267578 40.091294
26.000000 6.461426 40.091294
26.000000 6.905273 40.091294
26.100000 7.849121 40.091294
26.200000 8.917969 40.091294
26.300000 9.361816 40.091294
26.400000 9.430664 40.091294
26.400000 10.499512 40.091294
26.400000 11.193359 40.091294
26.500000 11.262207 40.091294
26.500000 12.581055 40.091294
26.600000 12.899902 40.091294
26.600000 14.093750 40.091294
26.700000 14.160156 40.091294
26.800000 14.601562 40.091294
26.900000 15.292969 40.091294
26.900000 17.234375 40.091294
27.000000 16.675781 40.091294
27.100000 17.867188 40.091294
27.200000 18.558594 40.091294
27.300000 18.625000 40.091294
27.400000 20.441406 40.091294
27.500000 20.007812 40.091294
27.600000 21.074219 40.091294
27.700000 21.890625 40.091294
27.800000 22.832031 40.091294
28.000000 22.898438 40.091294
28.300000 24.339844 40.091294
28.600000 24.531250 40.091294
28.800000 24.722656 40.091294
29.100000 25.289062 40.091294
29.400000 26.105469 40.091294
29.800000 27.046875 40.091294
30.100000 27.238281 40.091294
30.400000 28.054688 40.091294
30.700000 28.871094 40.091294
30.900000 29.562500 40.091294
31.100000 30.003906 40.091294
31.300000 30.695312 40.091294
31.500000 31.261719 40.091294
31.800000 32.328125 40.091294
31.900000 32.394531 40.091294
32.300000 33.210938 40.091294
25.800000 1.970703 40.230097
25.800000 1.789551 40.230097
25.800000 2.108398 40.230097
25.800000 3.427246 40.230097
25.800000 3.996094 40.230097
25.900000 4.314941 40.230097
25.900000 5.383789 40.230097
25.900000 6.702637 40.230097
25.900000 7.396484 40.230097
26.000000 6.840332 40.230097
26.100000 7.284180 40.230097
26.200000 9.478027 40.230097
26.200000 8.921875 40.230097
26.300000 10.866211 40.230097
26.300000 10.685547 40.230097
26.400000 10.754883 40.230097
26.500000 11.449219 40.230097
26.600000 12.768555 40.230097
26.600000 12.837891 40.230097
26.600000 14.282227 40.230097
26.700000 14.726562 40.230097
26.800000 15.045898 40.230097
26.900000 15.865234 40.230097
26.900000 16.934570 40.230097
27.000000 17.128906 40.230097
27.100000 18.198242 40.230097
27.200000 18.517578 40.230097
27.200000 19.961914 40.230097
27.400000 20.281250 40.230097
27.500000 20.725586 40.230097
27.600000 21.419922 40.230097
27.700000 21.864258 40.230097
27.900000 22.433594 40.230097
28.100000 23.502930 40.230097
28.300000 24.197266 40.230097
28.500000 24.891602 40.230097
28.800000 25.335938 40.230097
29.200000 25.780273 40.230097
29.500000 26.349609 40.230097
29.900000 26.918945 40.230097
30.200000 28.238281 40.230097
30.500000 28.682617 40.230097
30.800000 28.876953 40.230097
31.000000 29.446289 40.230097
31.200000 30.015625 40.230097
31.400000 31.207520 40.230097
31.600000 31.524414 40.230097
31.800000 32.216309 40.230097
25.700000 0.666504 40.354491
25.700000 2.861328 40.354491
25.800000 2.306152 40.354491
25.800000 3.750977 40.354491
25.700000 4.070801 40.354491
25.800000 4.265625 40.354491
25.900000 4.958984 40.354491
25.900000 6.277344 40.354491
25.900000 7.095703 40.354491
26.000000 6.664062 40.354491
26.100000 7.357422 40.354491
26.200000 8.675781 40.354491
26.200000 8.744141 40.354491
26.300000 10.562500 40.354491
26.300000 9.880859 40.354491
26.400000 11.824219 40.354491
26.500000 12.267578 40.354491
26.500000 12.085938 40.354491
26.600000 14.029297 40.354491
26.600000 13.472656 40.354491
26.700000 15.166016 40.354491
26.800000 15.984375 40.354491
26.800000 16.427734 40.354491
26.900000 17.121094 40.354491
27.000000 17.564453 40.354491
27.100000 18.507812 40.354491
27.100000 19.326172 40.354491
27.200000 18.769531 40.354491
27.300000 19.587891 40.354491
27.400000 21.156250 40.354491
27.600000 20.974609 40.354491
27.700000 22.167969 40.354491
27.900000 22.986328 40.354491
28.100000 23.554688 40.354491
28.300000 24.123047 40.354491
28.500000 24.566406 40.354491
28.800000 25.009766 40.354491
29.100000 25.953125 40.354491
29.400000 26.396973 40.354491
29.800000 27.090820 40.354491
30.200000 27.784668 40.354491
30.400000 28.603516 40.354491
30.700000 28.672363 40.354491
31.000000 29.741211 40.354491
31.200000 30.435059 40.354491
31.300000 30.628906 40.354491
31.500000 31.572754 40.354491
31.800000 32.266602 40.354491
32.000000 33.085449 40.354491
32.500000 33.654297 40.354491
25.800000 1.195312 40.494826
25.800000 2.890625 40.494826
25.700000 2.835938 40.494826
25.700000 3.531250 40.494826
25.800000 4.101562 40.494826
25.800000 5.546875 40.494826
25.900000 6.242188 40.494826
25.900000 7.437500 40.494826
26.000000 6.882812 40.494826
26.100000 7.953125 40.494826
26.200000 8.773438 40.494826
26.200000 9.218750 40.494826
26.300000 9.414062 40.494826
26.300000 11.109375 40.494826
26.400000 11.179688 40.494826
26.400000 11.875000 40.494826
26.500000 12.195312 40.494826
26.500000 13.890625 40.494826
26.600000 14.335938 40.494826
26.700000 15.156250 40.494826
26.700000 15.351562 40.494826
26.800000 16.046875 40.494826
26.900000 16.617188 40.494826
26.900000 18.187500 40.494826
27.000000 18.632812 40.494826
27.100000 18.828125 40.494826
27.200000 20.023438 40.494826
27.300000 19.718750 40.494826
27.400000 20.664062 40.494826
27.600000 21.234375 40.494826
27.700000 22.425293 40.494826
27.800000 22.741211 40.494826
28.000000 22.932129 40.494826
28.200000 23.998047 40.494826
28.500000 25.188965 40.494826
28.800000 24.879883 40.494826
29.200000 25.695801 40.494826
29.500000 26.261719 40.494826
29.800000 27.202637 40.494826
30.200000 27.518555 40.494826
30.400000 28.459473 40.494826
30.700000 29.150391 40.494826
30.900000 29.466309 40.494826
31.200000 30.657227 40.494826
31.300000 30.848145 40.494826
31.500000 32.039062 40.494826
31.700000 32.729980 40.494826
32.000000 32.670898 40.494826
32.500000 33.861816 40.494826
25.600000 0.683594 40.620894
25.700000 2.128418 40.620894
25.700000 2.823242 40.620894
25.700000 3.143066 40.620894
25.700000 3.087891 40.620894
25.800000 4.282715 40.620894
25.700000 4.102539 40.620894
25.800000 5.297363 40.620894
25.800000 6.242188 40.620894
25.900000 6.437012 40.620894
26.000000 8.131836 40.620894
26.000000 8.076660 40.620894
26.100000 9.021484 40.620894
26.300000 9.216309 40.620894
26.300000 10.661133 40.620894
26.300000 11.730957 40.620894
26.300000 11.425781 40.620894
26.400000 12.245605 40.620894
26.500000 13.065430 40.620894
26.500000 14.010254 40.620894
26.600000 14.705078 40.620894
26.700000 14.774902 40.620894
26.700000 16.094727 40.620894
26.700000 16.914551 40.620894
26.800000 16.609375 40.620894
27.000000 17.300781 40.620894
27.000000 18.492188 40.620894
27.100000 19.558594 40.620894
27.200000 19.125000 40.620894
27.300000 20.441406 40.620894
27.400000 21.132812 40.620894
27.600000 21.324219 40.620894
27.800000 21.765625 40.620894
27.900000 23.207031 40.620894
28.100000 23.273438 40.620894
28.300000 23.839844 40.620894
28.600000 25.281250 40.620894
28.900000 25.722656 40.620894
29.300000 26.414062 40.620894
29.500000 27.230469 40.620894
29.800000 27.671875 40.620894
30.200000 27.738281 40.620894
30.500000 28.929688 40.620894
30.800000 29.496094 40.620894
31.000000 29.937500 40.620894
31.300000 30.253906 40.620894
31.600000 31.070312 40.620894
31.700000 31.886719 40.620894
31.900000 32.453125 40.620894
32.200000 33.269531 40.620894
25.600000 1.446289 40.758745
25.600000 2.140625 40.758745
25.700000 1.959961 40.758745
25.700000 3.029297 40.758745
25.700000 4.098633 40.758745
25.800000 5.292969 40.758745
25.800000 4.987305 40.758745
25.800000 6.681641 40.758745
25.900000 7.375977 40.758745
25.900000 6.820312 40.758745
26.000000 7.889648 40.758745
26.100000 8.208984 40.758745
26.200000 9.028320 40.758745
26.200000 10.347656 40.758745
26.300000 10.291992 40.758745
26.300000 10.736328 40.758745
26.400000 12.055664 40.758745
26.400000 13.250000 40.758745
26.400000 13.941406 40.758745
26.500000 13.507812 40.758745
26.500000 14.574219 40.758745
26.700000 14.890625 40.758745
26.700000 16.082031 40.758745
26.800000 16.148438 40.758745
26.900000 17.589844 40.758745
26.900000 17.906250 40.758745
27.000000 19.472656 40.758745
27.200000 19.539062 40.758745
27.300000 20.230469 40.758745
27.400000 21.171875 40.758745
27.500000 20.863281 40.758745
27.600000 22.304688 40.758745
27.700000 22.496094 40.758745
28.000000 23.562500 40.758745
28.200000 23.878906 40.758745
28.500000 24.945312 40.758745
28.800000 25.261719 40.758745
29.100000 25.578125 40.758745
29.400000 26.019531 40.758745
29.800000 26.960938 40.758745
30.100000 27.777344 40.758745
30.400000 28.093750 40.758745
30.600000 28.910156 40.758745
30.800000 29.476562 40.758745
31.100000 30.542969 40.758745
31.200000 31.109375 40.758745
31.400000 31.550781 40.758745
31.700000 32.117188 40.758745
31.900000 32.933594 40.758745
32.500000 33.125000 40.758745
25.500000 1.404297 40.884224
25.600000 0.722656 40.884224
25.600000 2.666016 40.884224
25.600000 2.359375 40.884224
25.600000 3.802734 40.884224
25.700000 4.746094 40.884224
25.700000 4.439453 40.884224
25.700000 5.507812 40.884224
25.700000 7.326172 40.884224
25.800000 7.019531 40.884224
25.900000 6.837891 40.884224
26.000000 8.156250 40.884224
26.100000 8.973145 40.884224
26.200000 8.915039 40.884224
26.200000 10.606934 40.884224
26.200000 11.798828 40.884224
26.300000 11.740723 40.884224
26.400000 12.307617 40.884224
26.400000 12.249512 40.884224
26.500000 14.066406 40.884224
26.500000 14.008301 40.884224
26.500000 15.200195 40.884224
26.600000 15.017090 40.884224
26.700000 16.083984 40.884224
26.800000 16.525879 40.884224
26.900000 17.592773 40.884224
27.000000 18.159668 40.884224
27.000000 19.601562 40.884224
27.100000 19.293457 40.884224
27.200000 20.735352 40.884224
27.400000 20.927246 40.884224
27.500000 21.994141 40.884224
27.600000 21.936035 40.884224
27.800000 23.127930 40.884224
28.000000 23.694824 40.884224
28.200000 24.136719 40.884224
28.500000 25.078613 40.884224
28.800000 25.395508 40.884224
29.100000 26.337402 40.884224
29.500000 27.029297 40.884224
29.800000 27.471191 40.884224
30.200000 28.038086 40.884224
30.400000 28.229980 40.884224
30.700000 29.421875 40.884224
30.900000 29.614258 40.884224
31.100000 30.556641 40.884224
31.400000 31.249023 40.884224
31.600000 32.066406 40.884224
31.700000 32.633789 40.884224
25.600000 1.537598 41.023886
25.600000 2.483398 41.023886
25.600000 2.554199 41.023886
25.600000 3.125000 41.023886
25.700000 4.192383 41.023886
25.600000 5.634766 41.023886
25.700000 6.202148 41.023886
25.700000 6.019531 41.023886
25.800000 7.586914 41.023886
26.000000 8.029297 41.023886
26.000000 8.221680 41.023886
26.100000 9.664062 41.023886
26.100000 10.356445 41.023886
26.200000 10.048828 41.023886
26.200000 11.991211 41.023886
26.200000 12.558594 41.023886
26.300000 12.125977 41.023886
26.400000 12.693359 41.023886
26.400000 13.510742 41.023886
26.400000 14.578125 41.023886
26.500000 15.520508 41.023886
