31.300000 1.551758 5.712022
31.000000 2.934082 5.712022
30.600000 4.436523 5.712022
30.700000 4.563965 5.712022
30.700000 5.066406 5.712022
31.000000 5.818848 5.712022
31.400000 6.446289 5.712022
31.600000 7.073730 5.712022
31.800000 7.576172 5.712022
32.100000 9.208496 5.712022
32.300000 10.335938 5.712022
32.100000 10.963379 5.712022
32.100000 11.340820 5.712022
32.200000 11.718262 5.712022
32.300000 12.470703 5.712022
32.300000 13.098145 5.712022
32.400000 13.600586 5.712022
32.500000 14.353027 5.712022
32.800000 14.980469 5.712022
31.400000 -0.461426 5.861023
31.200000 0.041992 5.861023
31.300000 0.420410 5.861023
31.300000 1.298828 5.861023
30.900000 3.559082 5.861023
30.600000 4.062500 5.861023
30.600000 4.940430 5.861023
30.600000 5.318359 5.861023
30.800000 5.446289 5.861023
31.200000 6.199219 5.861023
31.500000 7.202148 5.861023
31.700000 7.330078 5.861023
31.800000 7.958008 5.861023
32.000000 8.335938 5.861023
32.500000 9.338867 5.861023
32.500000 10.216797 5.861023
32.300000 10.469727 5.861023
32.200000 11.222656 5.861023
32.200000 11.725586 5.861023
32.300000 12.603516 5.861023
32.300000 12.981445 5.861023
32.400000 13.609375 5.861023
32.400000 14.487305 5.861023
32.700000 15.115234 5.861023
31.300000 -0.572754 6.010025
31.200000 0.306641 6.010025
31.300000 0.311035 6.010025
31.200000 1.065430 6.010025
30.900000 2.953613 6.010025
30.600000 4.333008 6.010025
30.600000 4.837402 6.010025
30.600000 5.466797 6.010025
30.800000 5.721191 6.010025
31.200000 6.350586 6.010025
31.500000 6.604980 6.010025
31.700000 7.609375 6.010025
31.800000 7.986328 6.010025
32.100000 8.613281 6.010025
32.600000 9.240234 6.010025
32.500000 10.242187 6.010025
32.300000 10.994141 6.010025
32.200000 10.996094 6.010025
32.200000 11.498047 6.010025
32.300000 12.375000 6.010025
32.300000 12.876953 6.010025
32.400000 13.628906 6.010025
32.400000 14.255859 6.010025
32.700000 15.257812 6.010025
31.000000 -0.383301 6.155023
31.200000 0.247070 6.155023
31.200000 1.002441 6.155023
31.100000 1.507812 6.155023
31.200000 2.388184 6.155023
31.500000 2.393555 6.155023
30.500000 4.529297 6.155023
30.500000 4.659668 6.155023
31.000000 6.800781 6.155023
31.600000 7.306152 6.155023
31.800000 7.936523 6.155023
32.100000 9.452637 6.155023
32.300000 10.458008 6.155023
32.200000 10.588379 6.155023
32.300000 11.218750 6.155023
32.300000 12.344727 6.155023
32.300000 12.470703 6.155023
32.300000 13.346680 6.155023
32.300000 13.972656 6.155023
32.500000 14.473633 6.155023
32.800000 14.849609 6.155023
30.900000 -0.581055 6.304022
31.000000 -0.206543 6.304022
31.200000 0.667969 6.304022
31.200000 1.542480 6.304022
31.100000 1.666992 6.304022
31.100000 2.041504 6.304022
31.500000 2.791016 6.304022
30.500000 4.415039 6.304022
30.500000 4.539551 6.304022
31.000000 6.413086 6.304022
31.600000 7.287598 6.304022
31.800000 7.912109 6.304022
32.100000 9.410645 6.304022
32.300000 10.035156 6.304022
32.200000 10.784668 6.304022
32.300000 11.659180 6.304022
32.300000 11.783691 6.304022
32.300000 12.783203 6.304022
32.300000 13.032715 6.304022
32.400000 13.782227 6.304022
32.600000 14.281738 6.304022
33.000000 15.406250 6.304022
31.300000 -1.078125 6.442026
31.000000 -0.327148 6.442026
31.100000 0.548828 6.442026
31.100000 1.424805 6.442026
31.100000 1.800781 6.442026
30.700000 3.928711 6.442026
30.300000 4.804688 6.442026
30.400000 5.305664 6.442026
31.000000 6.433594 6.442026
31.600000 7.059570 6.442026
31.800000 7.810547 6.442026
32.100000 9.563477 6.442026
32.300000 9.939453 6.442026
32.300000 10.565430 6.442026
32.300000 11.691406 6.442026
32.300000 12.067383 6.442026
32.300000 12.943359 6.442026
32.300000 13.194336 6.442026
32.400000 14.070313 6.442026
32.600000 14.446289 6.442026
33.000000 15.447266 6.442026
31.200000 -1.203125 6.590026
30.900000 0.054688 6.590026
31.000000 -0.062500 6.590026
31.100000 1.070313 6.590026
31.000000 1.078125 6.590026
30.700000 3.225586 6.590026
30.300000 3.982422 6.590026
30.300000 5.114258 6.590026
30.600000 4.996094 6.590026
31.100000 7.516602 6.590026
31.700000 7.898438 6.590026
32.000000 8.405273 6.590026
32.300000 8.787109 6.590026
32.500000 9.168945 6.590026
32.300000 10.300781 6.590026
32.200000 10.682617 6.590026
32.200000 11.564453 6.590026
32.200000 11.821289 6.590026
32.300000 12.453125 6.590026
32.300000 13.334961 6.590026
32.300000 14.216797 6.590026
32.500000 14.348633 6.590026
32.800000 15.230469 6.590026
30.800000 -0.471191 6.741993
30.900000 -0.088867 6.741993
31.000000 0.668457 6.741993
31.000000 1.175781 6.741993
30.900000 2.058105 6.741993
30.500000 3.580078 6.741993
30.200000 4.087402 6.741993
30.500000 5.094727 6.741993
30.600000 5.977051 6.741993
30.800000 6.609375 6.741993
31.200000 6.614258 6.741993
31.300000 7.619141 6.741993
31.500000 7.999023 6.741993
31.900000 8.378906 6.741993
32.300000 9.383789 6.741993
32.400000 9.638672 6.741993
32.300000 10.643555 6.741993
32.200000 11.023438 6.741993
32.200000 11.903320 6.741993
32.300000 12.158203 6.741993
32.400000 12.913086 6.741993
32.400000 13.792969 6.741993
32.400000 14.422852 6.741993
32.600000 14.677734 6.741993
31.100000 -0.965332 6.884023
30.900000 -0.335938 6.884023
30.900000 -0.081543 6.884023
31.000000 1.047852 6.884023
30.900000 1.677246 6.884023
30.900000 2.056641 6.884023
30.900000 3.186035 6.884023
30.700000 3.315430 6.884023
30.300000 4.319824 6.884023
30.200000 4.574219 6.884023
30.500000 5.328613 6.884023
30.600000 5.833008 6.884023
30.700000 6.212402 6.884023
30.800000 6.841797 6.884023
31.100000 7.971191 6.884023
31.400000 8.475586 6.884023
32.000000 8.479980 6.884023
32.400000 9.734375 6.884023
32.400000 9.863281 6.884023
32.200000 10.867187 6.884023
32.200000 11.246094 6.884023
32.200000 11.875000 6.884023
32.300000 12.753906 6.884023
32.300000 12.882812 6.884023
32.400000 13.886719 6.884023
32.400000 14.015625 6.884023
32.700000 14.894531 6.884023
31.100000 -1.001953 7.032029
30.800000 0.125977 7.032029
30.800000 0.253906 7.032029
30.900000 1.131836 7.032029
30.900000 1.884766 7.032029
30.800000 2.262695 7.032029
30.900000 3.015625 7.032029
30.900000 3.268555 7.032029
30.500000 3.896484 7.032029
30.200000 4.899414 7.032029
30.300000 5.527344 7.032029
30.400000 6.530273 7.032029
30.500000 6.283203 7.032029
30.700000 7.286133 7.032029
30.900000 7.914062 7.032029
31.300000 8.166992 7.032029
31.900000 8.919922 7.032029
32.300000 9.422852 7.032029
32.300000 10.175781 7.032029
32.300000 11.053711 7.032029
32.200000 11.681641 7.032029
32.200000 11.934570 7.032029
32.300000 12.312500 7.032029
32.300000 13.314941 7.032029
32.300000 13.817383 7.032029
32.400000 14.194824 7.032029
32.700000 15.197266 7.032029
30.700000 -0.322266 7.170022
30.800000 1.053711 7.170022
30.800000 0.929688 7.170022
30.800000 1.680664 7.170022
30.700000 2.556641 7.170022
30.800000 3.182617 7.170022
30.700000 4.058594 7.170022
30.200000 4.684570 7.170022
30.100000 4.935547 7.170022
30.300000 6.061523 7.170022
30.300000 6.562500 7.170022
30.400000 6.688477 7.170022
30.600000 7.439453 7.170022
30.900000 8.065430 7.170022
31.900000 9.317383 7.170022
32.300000 9.693359 7.170022
32.300000 10.069336 7.170022
32.300000 10.695313 7.170022
32.200000 11.946289 7.170022
32.300000 12.072266 7.170022
32.400000 12.698242 7.170022
32.400000 13.824219 7.170022
32.300000 13.825195 7.170022
32.500000 14.826172 7.170022
30.700000 -0.343750 7.318025
30.800000 1.031250 7.318025
30.800000 1.531250 7.318025
30.700000 1.656250 7.318025
30.700000 2.281250 7.318025
30.700000 3.531250 7.318025
30.700000 3.781250 7.318025
30.300000 4.656250 7.318025
30.100000 5.531250 7.318025
30.200000 5.656250 7.318025
30.300000 6.031250 7.318025
30.400000 6.781250 7.318025
30.600000 7.406250 7.318025
30.800000 8.156250 7.318025
31.800000 9.031250 7.318025
32.200000 9.656250 7.318025
32.300000 10.156250 7.318025
32.200000 10.781250 7.318025
32.200000 11.781250 7.318025
32.300000 12.031250 7.318025
32.300000 13.156250 7.318025
32.300000 13.281250 7.318025
32.300000 13.906250 7.318025
30.600000 0.223633 7.468022
30.700000 0.853027 7.468022
30.600000 1.482422 7.468022
30.600000 1.986816 7.468022
30.600000 2.741211 7.468022
30.600000 2.995605 7.468022
30.800000 3.750000 7.468022
30.100000 5.004883 7.468022
30.100000 6.007324 7.468022
30.200000 6.384766 7.468022
30.300000 7.012207 7.468022
30.500000 7.639648 7.468022
30.700000 8.267090 7.468022
32.300000 10.401855 7.468022
32.200000 11.029297 7.468022
32.200000 11.406738 7.468022
32.200000 12.159180 7.468022
32.200000 13.036621 7.468022
32.200000 13.289062 7.468022
32.200000 14.166504 7.468022
32.400000 14.668945 7.468022
32.700000 15.046387 7.468022
30.400000 -0.266602 7.614023
30.500000 0.613281 7.614023
30.600000 0.618164 7.614023
30.600000 1.123047 7.614023
30.600000 2.002930 7.614023
30.500000 3.257812 7.614023
30.600000 3.262695 7.614023
30.700000 4.142578 7.614023
30.300000 4.522461 7.614023
30.100000 5.527344 7.614023
30.100000 6.032227 7.614023
30.300000 6.287109 7.614023
30.400000 7.416992 7.614023
30.500000 7.671875 7.614023
30.800000 8.174316 7.614023
32.200000 10.309082 7.614023
32.200000 11.436523 7.614023
32.100000 11.688965 7.614023
32.000000 12.191406 7.614023
32.000000 12.943848 7.614023
32.100000 13.571289 7.614023
32.200000 14.573730 7.614023
32.400000 14.826172 7.614023
30.600000 -0.591797 7.761025
30.400000 0.163574 7.761025
30.600000 0.418945 7.761025
30.600000 0.799316 7.761025
30.600000 1.679688 7.761025
30.600000 2.310059 7.761025
30.400000 3.440430 7.761025
30.600000 4.070801 7.761025
30.500000 4.326172 7.761025
30.200000 5.081543 7.761025
30.200000 5.211914 7.761025
30.300000 6.342285 7.761025
30.300000 6.722656 7.761025
30.400000 7.728027 7.761025
30.600000 8.108398 7.761025
31.000000 8.363770 7.761025
31.500000 8.994141 7.761025
32.100000 9.499512 7.761025
32.300000 10.129883 7.761025
32.200000 11.260254 7.761025
32.000000 11.515625 7.761025
31.800000 12.393066 7.761025
32.000000 12.645508 7.761025
32.000000 13.522949 7.761025
32.100000 13.900391 7.761025
32.200000 14.902832 7.761025
32.600000 15.155273 7.761025
30.600000 -0.166016 7.909018
30.300000 -0.415039 7.909018
30.500000 0.210938 7.909018
30.600000 1.586914 7.909018
30.600000 1.587891 7.909018
30.500000 2.088867 7.909018
30.500000 2.839844 7.909018
30.500000 3.590820 7.909018
30.700000 4.341797 7.909018
30.500000 5.092773 7.909018
30.100000 5.718750 7.909018
30.200000 5.844727 7.909018
30.300000 7.345703 7.909018
30.400000 7.471680 7.909018
30.600000 7.722656 7.909018
30.900000 8.598633 7.909018
31.400000 9.474609 7.909018
32.000000 9.725586 7.909018
32.200000 10.226562 7.909018
32.000000 11.352539 7.909018
31.800000 11.978516 7.909018
31.800000 12.354492 7.909018
31.900000 13.105469 7.909018
31.900000 13.356445 7.909018
32.000000 13.982422 7.909018
30.500000 -0.296875 8.047018
30.200000 -0.542969 8.047018
30.400000 0.335938 8.047018
30.400000 0.964844 8.047018
30.400000 1.718750 8.047018
30.500000 2.347656 8.047018
30.500000 2.726562 8.047018
30.400000 3.230469 8.047018
30.500000 3.984375 8.047018
30.600000 4.488281 8.047018
30.300000 5.492188 8.047018
30.300000 5.996094 8.047018
30.400000 6.375000 8.047018
30.400000 7.128906 8.047018
30.600000 7.757813 8.047018
30.900000 8.386719 8.047018
31.200000 9.265625 8.047018
31.700000 9.519531 8.047018
32.100000 10.273438 8.047018
32.000000 11.027344 8.047018
31.800000 11.406250 8.047018
31.800000 11.910156 8.047018
31.800000 12.664062 8.047018
31.800000 13.667969 8.047018
31.800000 14.171875 8.047018
31.900000 14.675781 8.047018
32.300000 15.554687 8.047018
30.100000 -0.523438 8.195023
30.200000 0.109375 8.195023
30.300000 0.867188 8.195023
30.300000 1.875000 8.195023
30.400000 2.132812 8.195023
30.400000 3.140625 8.195023
30.500000 3.895996 8.195023
30.400000 4.526367 8.195023
30.500000 4.906738 8.195023
30.600000 5.537109 8.195023
30.500000 6.167480 8.195023
30.500000 6.297852 8.195023
30.500000 6.803223 8.195023
30.600000 7.558594 8.195023
30.800000 8.188965 8.195023
31.200000 8.819336 8.195023
31.600000 9.824707 8.195023
32.000000 9.955078 8.195023
32.100000 10.835449 8.195023
31.900000 11.465820 8.195023
31.800000 11.846191 8.195023
31.600000 12.851562 8.195023
31.700000 12.981934 8.195023
31.700000 14.112305 8.195023
31.800000 14.242676 8.195023
32.000000 15.373047 8.195023
29.900000 -0.137695 8.342025
30.100000 -0.255859 8.342025
30.200000 0.500977 8.342025
30.200000 1.132812 8.342025
30.300000 1.514648 8.342025
30.300000 2.521484 8.342025
30.400000 3.278320 8.342025
30.500000 3.785156 8.342025
30.500000 4.166992 8.342025
30.500000 5.048828 8.342025
30.600000 5.305664 8.342025
30.600000 6.437500 8.342025
30.500000 7.191895 8.342025
30.600000 7.821289 8.342025
30.800000 8.075684 8.342025
31.000000 8.580078 8.342025
31.300000 9.334473 8.342025
31.700000 9.588867 8.342025
31.900000 10.718262 8.342025
31.900000 10.972656 8.342025
31.700000 11.977051 8.342025
31.400000 12.231445 8.342025
31.400000 12.735840 8.342025
31.400000 13.865234 8.342025
31.600000 14.244629 8.342025
31.800000 14.499023 8.342025
32.200000 15.128418 8.342025
30.100000 0.140625 8.491023
30.200000 -0.106445 8.491023
30.200000 1.146484 8.491023
30.200000 1.274414 8.491023
30.300000 1.777344 8.491023
30.300000 2.905273 8.491023
30.400000 3.158203 8.491023
30.400000 4.536133 8.491023
30.400000 5.039063 8.491023
30.500000 4.916992 8.491023
30.500000 6.044922 8.491023
30.500000 6.922852 8.491023
30.500000 7.300781 8.491023
30.700000 7.678711 8.491023
30.900000 8.181641 8.491023
31.200000 8.684570 8.491023
31.500000 9.687500 8.491023
31.800000 10.442383 8.491023
31.900000 10.947266 8.491023
31.600000 11.077148 8.491023
31.300000 12.332031 8.491023
31.200000 12.336914 8.491023
31.200000 13.591797 8.491023
31.300000 13.596680 8.491023
31.500000 14.226562 8.491023
31.900000 14.981445 8.491023
30.000000 -0.029785 8.637023
30.200000 1.099609 8.637023
30.200000 0.979004 8.637023
30.200000 1.983398 8.637023
30.300000 2.737793 8.637023
30.300000 3.242188 8.637023
30.300000 3.871582 8.637023
30.400000 4.875977 8.637023
30.400000 5.505371 8.637023
30.500000 5.634766 8.637023
30.500000 6.014160 8.637023
30.600000 7.393555 8.637023
30.700000 7.522949 8.637023
30.800000 8.402344 8.637023
31.100000 8.906738 8.637023
31.400000 9.536133 8.637023
31.500000 9.665527 8.637023
31.700000 10.544922 8.637023
31.600000 11.049316 8.637023
31.200000 12.178711 8.637023
31.100000 12.308105 8.637023
31.100000 12.937500 8.637023
31.100000 13.566406 8.637023
31.300000 14.570313 8.637023
30.200000 -0.539551 8.775024
30.000000 0.087891 8.775024
30.100000 0.090332 8.775024
30.200000 0.842773 8.775024
30.200000 1.220215 8.775024
30.200000 1.722656 8.775024
30.300000 2.475098 8.775024
30.300000 3.227539 8.775024
30.300000 4.354980 8.775024
30.400000 4.732422 8.775024
30.500000 4.984863 8.775024
30.500000 5.987305 8.775024
30.500000 6.864746 8.775024
30.500000 7.242188 8.775024
30.700000 7.869629 8.775024
30.900000 8.372070 8.775024
31.100000 8.749512 8.775024
31.400000 9.626953 8.775024
31.600000 10.004395 8.775024
31.500000 10.506836 8.775024
31.200000 11.259277 8.775024
31.000000 12.386719 8.775024
30.900000 12.514160 8.775024
31.000000 13.141602 8.775024
31.100000 14.019043 8.775024
31.200000 14.396484 8.775024
30.200000 -0.519043 8.924023
30.000000 -0.137695 8.924023
30.100000 0.868652 8.924023
30.200000 1.125000 8.924023
30.200000 1.376465 8.924023
30.200000 2.002930 8.924023
30.300000 2.754395 8.924023
30.300000 3.380859 8.924023
30.300000 4.257324 8.924023
30.300000 5.133789 8.924023
30.400000 5.135254 8.924023
30.400000 6.511719 8.924023
30.400000 6.763184 8.924023
30.500000 7.139648 8.924023
30.700000 7.891113 8.924023
30.900000 8.392578 8.924023
31.200000 10.146973 8.924023
31.200000 11.023438 8.924023
31.000000 11.274902 8.924023
30.800000 12.401367 8.924023
30.800000 12.527832 8.924023
30.800000 13.279297 8.924023
30.900000 14.280762 8.924023
31.100000 14.282227 8.924023
30.000000 -0.383301 9.071023
30.000000 -0.128906 9.071023
30.100000 0.750488 9.071023
30.200000 1.129883 9.071023
30.200000 2.259277 9.071023
30.200000 2.763672 9.071023
30.300000 3.018066 9.071023
30.300000 3.397461 9.071023
30.300000 4.151855 9.071023
30.400000 5.281250 9.071023
30.400000 5.660156 9.071023
30.500000 6.039063 9.071023
30.500000 6.917969 9.071023
30.600000 7.546875 9.071023
30.800000 7.925781 9.071023
31.000000 10.062500 9.071023
31.100000 10.816406 9.071023
31.000000 11.570312 9.071023
30.800000 11.699219 9.071023
30.800000 12.578125 9.071023
30.700000 13.457031 9.071023
30.700000 13.585938 9.071023
30.900000 14.089844 9.071023
31.400000 15.597656 9.071023
30.400000 -1.300781 9.221024
30.200000 -1.171875 9.221024
30.000000 -0.542969 9.221024
30.000000 -0.039062 9.221024
30.100000 0.714844 9.221024
30.200000 1.093750 9.221024
30.200000 2.222656 9.221024
30.200000 3.101562 9.221024
30.200000 3.730469 9.221024
30.300000 3.984375 9.221024
30.300000 4.238281 9.221024
30.400000 5.617188 9.221024
30.400000 6.121094 9.221024
30.400000 6.250000 9.221024
30.500000 7.253906 9.221024
30.600000 7.507812 9.221024
30.800000 8.261719 9.221024
30.900000 10.643555 9.221024
30.800000 10.645020 9.221024
30.700000 12.147949 9.221024
30.400000 -1.371094 9.365023
30.300000 -1.367188 9.365023
30.000000 -0.238281 9.365023
30.000000 0.390625 9.365023
30.100000 1.144531 9.365023
30.100000 1.398438 9.365023
30.200000 2.402344 9.365023
30.200000 3.156250 9.365023
30.200000 3.410156 9.365023
30.300000 3.789062 9.365023
30.300000 4.167969 9.365023
30.400000 5.046875 9.365023
30.400000 5.675781 9.365023
30.400000 6.179688 9.365023
30.500000 6.933594 9.365023
30.600000 7.687500 9.365023
30.800000 8.316406 9.365023
30.700000 10.453125 9.365023
29.800000 12.718750 9.365023
29.800000 13.470703 9.365023
30.300000 -0.679688 9.505993
30.000000 -0.302734 9.505993
29.900000 0.574219 9.505993
30.100000 1.201172 9.505993
30.100000 1.203125 9.505993
30.100000 1.830078 9.505993
30.200000 2.332031 9.505993
30.200000 3.208984 9.505993
30.200000 4.335937 9.505993
30.300000 4.087891 9.505993
30.400000 4.839844 9.505993
30.400000 6.216797 9.505993
30.400000 6.093750 9.505993
30.400000 7.345703 9.505993
30.600000 7.222656 9.505993
30.800000 8.224609 9.505993
30.600000 10.105469 9.505993
29.900000 11.609375 9.505993
29.700000 12.361328 9.505993
29.700000 13.238281 9.505993
29.600000 13.490234 9.505993
29.900000 14.244141 9.505993
30.300000 -0.648926 9.652023
30.000000 -0.015625 9.652023
29.900000 0.236816 9.652023
30.100000 0.614258 9.652023
30.100000 1.991699 9.652023
30.100000 2.494141 9.652023
30.100000 3.246582 9.652023
30.200000 3.749023 9.652023
30.200000 3.876465 9.652023
30.300000 4.753906 9.652023
30.400000 5.631348 9.652023
30.400000 5.633789 9.652023
30.400000 6.886230 9.652023
30.400000 6.763672 9.652023
30.600000 8.016113 9.652023
30.700000 7.893555 9.652023
30.400000 10.275879 9.652023
29.700000 11.655762 9.652023
29.600000 12.033203 9.652023
29.600000 12.660645 9.652023
29.600000 13.288086 9.652023
29.700000 14.165527 9.652023
30.500000 -1.391602 9.804024
30.000000 -0.884766 9.804024
29.800000 -0.377930 9.804024
30.000000 0.253906 9.804024
30.000000 1.385742 9.804024
30.000000 2.267578 9.804024
30.000000 2.274414 9.804024
30.100000 2.906250 9.804024
30.100000 3.535645 9.804024
30.200000 4.665039 9.804024
30.300000 4.919434 9.804024
30.300000 5.673828 9.804024
30.300000 5.928223 9.804024
30.300000 7.182617 9.804024
30.500000 7.812012 9.804024
30.700000 7.941406 9.804024
30.700000 9.070801 9.804024
29.900000 11.338379 9.804024
29.700000 12.217773 9.804024
29.600000 12.222168 9.804024
29.600000 13.726562 9.804024
29.600000 13.480957 9.804024
29.800000 14.110352 9.804024
30.500000 -1.470215 9.947022
30.400000 -1.087891 9.947022
29.900000 -0.205566 9.947022
29.800000 0.301758 9.947022
30.000000 1.059082 9.947022
30.000000 1.066406 9.947022
30.000000 1.698730 9.947022
30.000000 2.581055 9.947022
30.100000 3.713379 9.947022
30.100000 3.845703 9.947022
30.100000 4.603027 9.947022
30.300000 5.360352 9.947022
30.300000 5.492676 9.947022
30.300000 6.125000 9.947022
30.400000 7.004883 9.947022
30.500000 7.384766 9.947022
30.700000 8.139648 9.947022
30.700000 9.269531 9.947022
30.400000 11.284180 9.947022
29.800000 11.793945 9.947022
29.800000 12.798828 9.947022
29.800000 13.178711 9.947022
29.800000 -0.156250 10.094022
29.900000 0.722656 10.094022
29.900000 1.101562 10.094022
30.000000 2.105469 10.094022
30.000000 2.609375 10.094022
30.100000 3.363281 10.094022
30.100000 3.492188 10.094022
30.100000 3.996094 10.094022
30.200000 4.750000 10.094022
30.200000 5.753906 10.094022
30.300000 6.007812 10.094022
30.300000 6.761719 10.094022
30.400000 7.640625 10.094022
30.500000 8.394531 10.094022
30.700000 8.898438 10.094022
30.500000 11.410156 10.094022
30.300000 12.037109 10.094022
30.100000 12.789062 10.094022
30.000000 12.916016 10.094022
30.100000 13.917969 10.094022
30.200000 14.419922 10.094022
30.400000 15.171875 10.094022
29.700000 -0.491211 10.242994
29.900000 0.261230 10.242994
29.900000 1.013672 10.242994
30.000000 1.516113 10.242994
30.000000 2.393555 10.242994
30.000000 3.145996 10.242994
30.000000 3.273438 10.242994
30.000000 4.525879 10.242994
30.100000 5.153320 10.242994
30.200000 5.655762 10.242994
30.200000 6.158203 10.242994
30.300000 6.535645 10.242994
30.300000 7.538086 10.242994
30.500000 8.040527 10.242994
30.600000 8.417969 10.242994
30.700000 9.170410 10.242994
30.600000 10.802734 10.242994
30.400000 11.805176 10.242994
30.300000 12.307617 10.242994
30.200000 12.810059 10.242994
30.300000 13.812500 10.242994
30.400000 14.188965 10.242994
30.500000 14.440430 10.242994
30.700000 15.441895 10.242994
29.600000 -0.460937 10.380023
29.800000 0.541016 10.380023
29.800000 1.167969 10.380023
29.800000 1.669922 10.380023
29.900000 2.421875 10.380023
29.900000 3.298828 10.380023
30.000000 4.050781 10.380023
30.000000 4.177734 10.380023
30.100000 5.054688 10.380023
30.100000 5.181641 10.380023
30.200000 6.558594 10.380023
30.300000 6.435547 10.380023
30.300000 7.312500 10.380023
30.500000 8.314453 10.380023
30.600000 8.441406 10.380023
30.700000 9.193359 10.380023
30.600000 11.199219 10.380023
30.400000 11.826172 10.380023
30.300000 12.078125 10.380023
30.300000 12.830078 10.380023
30.300000 13.332031 10.380023
30.400000 13.958984 10.380023
30.500000 14.710938 10.380023
29.600000 -0.318848 10.526994
29.600000 0.063477 10.526994
29.700000 1.070801 10.526994
29.800000 1.203125 10.526994
29.800000 1.953613 10.526994
29.800000 2.454102 10.526994
29.900000 3.579590 10.526994
29.900000 4.330078 10.526994
30.000000 4.455566 10.526994
30.000000 4.831055 10.526994
30.000000 5.956543 10.526994
30.100000 6.082031 10.526994
30.200000 6.957520 10.526994
30.300000 7.333008 10.526994
30.400000 7.833496 10.526994
30.600000 8.458984 10.526994
30.700000 10.835449 10.526994
30.500000 11.585938 10.526994
30.400000 11.711426 10.526994
30.300000 12.836914 10.526994
30.300000 12.837402 10.526994
30.400000 14.087891 10.526994
30.500000 14.463379 10.526994
30.600000 15.213867 10.526994
29.500000 -0.208984 10.675026
29.600000 0.546875 10.675026
29.600000 0.927734 10.675026
29.700000 2.058594 10.675026
29.700000 2.564453 10.675026
29.800000 3.195312 10.675026
29.900000 3.326172 10.675026
29.900000 4.332031 10.675026
29.900000 5.337891 10.675026
29.900000 5.593750 10.675026
30.000000 6.222168 10.675026
30.100000 6.475586 10.675026
30.200000 7.354004 10.675026
30.300000 7.607422 10.675026
30.500000 8.235840 10.675026
30.600000 9.239258 10.675026
30.600000 11.124512 10.675026
30.500000 11.627930 10.675026
30.400000 12.631348 10.675026
30.400000 12.509766 10.675026
30.400000 13.763184 10.675026
30.400000 13.891602 10.675026
30.600000 14.395020 10.675026
30.800000 15.773438 10.675026
31.200000 15.776855 10.675026
29.400000 -0.187500 10.822034
29.300000 0.066406 10.822034
29.500000 0.570313 10.822034
29.600000 0.949219 10.822034
29.600000 1.578125 10.822034
29.700000 3.082031 10.822034
29.800000 2.960938 10.822034
29.900000 3.464844 10.822034
29.900000 4.468750 10.822034
29.900000 4.972656 10.822034
29.900000 5.851562 10.822034
30.000000 6.605469 10.822034
30.100000 6.859375 10.822034
30.100000 7.738281 10.822034
30.300000 7.867188 10.822034
30.500000 8.996094 10.822034
30.800000 11.383789 10.822034
30.500000 11.761719 10.822034
30.500000 12.389648 10.822034
30.500000 12.767578 10.822034
30.400000 13.645508 10.822034
30.500000 14.523438 10.822034
30.700000 14.776367 10.822034
31.100000 15.654297 10.822034
29.400000 -0.348633 10.971023
29.300000 0.408691 10.971023
29.400000 0.291016 10.971023
29.500000 1.673340 10.971023
29.600000 1.805664 10.971023
29.700000 3.062988 10.971023
29.800000 2.945312 10.971023
29.900000 3.577637 10.971023
29.900000 4.709961 10.971023
29.900000 4.717285 10.971023
29.900000 5.974609 10.971023
29.900000 6.106934 10.971023
30.000000 6.614258 10.971023
30.100000 7.371582 10.971023
30.200000 7.878906 10.971023
30.400000 8.636230 10.971023
30.600000 10.915527 10.971023
30.600000 11.922852 10.971023
30.500000 12.180176 10.971023
30.500000 13.062500 10.971023
30.500000 13.690430 10.971023
30.600000 14.068359 10.971023
30.800000 15.321289 10.971023
31.100000 15.699219 10.971023
30.000000 -1.299316 11.110024
29.300000 0.209473 11.110024
29.400000 0.838867 11.110024
29.400000 1.718262 11.110024
29.500000 1.847656 11.110024
29.600000 2.352051 11.110024
29.800000 3.231445 11.110024
29.800000 3.360840 11.110024
29.800000 4.115234 11.110024
29.900000 4.744629 11.110024
29.900000 5.124023 11.110024
30.000000 6.128418 11.110024
30.000000 6.507812 11.110024
30.000000 7.637207 11.110024
30.000000 8.141602 11.110024
30.200000 8.395996 11.110024
30.800000 11.038574 11.110024
30.900000 11.917969 11.110024
30.600000 12.422363 11.110024
30.600000 13.051758 11.110024
30.600000 13.806152 11.110024
30.600000 14.185547 11.110024
30.800000 14.689941 11.110024
29.600000 -0.735352 11.255994
29.300000 -0.102051 11.255994
29.400000 0.156250 11.255994
29.400000 1.409668 11.255994
29.500000 1.413086 11.255994
29.600000 2.291504 11.255994
29.700000 2.544922 11.255994
29.800000 3.548340 11.255994
29.800000 4.176758 11.255994
29.800000 4.680176 11.255994
29.900000 5.433594 11.255994
29.900000 5.687012 11.255994
29.900000 6.565430 11.255994
29.800000 6.943848 11.255994
29.900000 8.322266 11.255994
30.100000 8.200684 11.255994
30.300000 8.704102 11.255994
31.000000 11.842773 11.255994
30.800000 12.346191 11.255994
30.700000 13.224609 11.255994
30.600000 13.353027 11.255994
30.700000 14.481445 11.255994
30.800000 14.609863 11.255994
29.900000 -1.324219 11.404023
29.400000 -0.193848 11.404023
29.300000 0.311523 11.404023
29.400000 0.816895 11.404023
29.400000 1.822266 11.404023
29.500000 1.827637 11.404023
29.600000 2.833008 11.404023
29.800000 2.963379 11.404023
29.800000 3.843750 11.404023
29.700000 4.347656 11.404023
29.800000 5.101562 11.404023
29.900000 5.605469 11.404023
29.600000 6.609375 11.404023
29.600000 6.738281 11.404023
29.700000 7.492188 11.404023
29.900000 7.871094 11.404023
30.100000 8.750000 11.404023
31.300000 10.761719 11.404023
31.100000 11.390625 11.404023
31.000000 11.644531 11.404023
30.900000 12.648438 11.404023
30.900000 13.027344 11.404023
30.800000 13.406250 11.404023
30.900000 14.660156 11.404023
31.100000 14.664063 11.404023
30.000000 -1.311523 11.550994
29.600000 -0.557129 11.550994
29.300000 -0.302734 11.550994
29.400000 0.201660 11.550994
29.500000 0.831055 11.550994
29.600000 2.085449 11.550994
29.600000 2.589844 11.550994
29.700000 2.844238 11.550994
29.700000 3.223633 11.550994
29.600000 5.486816 11.550994
29.400000 5.866211 11.550994
29.400000 6.495605 11.550994
29.500000 7.250000 11.550994
29.600000 8.377930 11.550994
29.900000 8.130859 11.550994
31.000000 11.895508 11.550994
30.800000 12.398438 11.550994
30.900000 12.651367 11.550994
30.900000 13.029297 11.550994
30.900000 13.782227 11.550994
31.000000 14.785156 11.550994
31.200000 15.288086 11.550994
29.400000 -0.670898 11.700023
29.500000 0.207520 11.700023
29.700000 0.960938 11.700023
29.700000 1.089355 11.700023
29.700000 2.592773 11.700023
29.800000 2.721191 11.700023
29.400000 4.984863 11.700023
29.300000 6.363281 11.700023
29.400000 6.241699 11.700023
29.500000 7.620117 11.700023
29.600000 8.123535 11.700023
29.800000 8.251953 11.700023
30.200000 9.005371 11.700023
31.100000 11.643555 11.700023
30.900000 12.146484 11.700023
30.800000 12.899414 11.700023
31.000000 13.277344 11.700023
31.100000 14.030273 11.700023
31.000000 14.158203 11.700023
31.200000 14.786133 11.700023
31.600000 15.539063 11.700023
30.000000 -1.584961 11.849028
29.700000 -1.333496 11.849028
29.500000 -0.582031 11.849028
29.600000 0.419434 11.849028
29.700000 0.545898 11.849028
29.700000 1.922363 11.849028
29.800000 2.298828 11.849028
29.800000 2.675293 11.849028
29.200000 5.056152 11.849028
29.200000 5.432617 11.849028
29.300000 6.934082 11.849028
29.500000 6.935547 11.849028
29.600000 7.812012 11.849028
29.900000 8.063477 11.849028
30.100000 8.939941 11.849028
30.700000 10.569336 11.849028
31.100000 10.945801 11.849028
31.100000 11.822266 11.849028
31.100000 12.573730 11.849028
31.100000 13.200195 11.849028
31.100000 13.701660 11.849028
31.100000 14.578125 11.849028
31.200000 14.955566 11.849028
31.600000 15.458008 11.849028
29.900000 -0.796387 11.985021
29.500000 -0.420898 11.985021
29.600000 0.204590 11.985021
29.700000 1.080078 11.985021
29.800000 1.580566 11.985021
29.900000 2.331055 11.985021
29.200000 5.583496 11.985021
29.300000 6.458984 11.985021
29.400000 6.084473 11.985021
29.500000 7.584961 11.985021
29.700000 7.335449 11.985021
30.000000 8.585938 11.985021
30.400000 8.961426 11.985021
30.900000 10.462891 11.985021
31.100000 11.213379 11.985021
31.100000 11.463867 11.985021
31.100000 12.839355 11.985021
31.200000 12.839844 11.985021
31.200000 13.715332 11.985021
31.100000 14.215820 11.985021
31.300000 14.966309 11.985021
31.600000 15.716797 11.985021
30.100000 -1.228516 12.134024
29.900000 -0.971680 12.134024
29.600000 -0.464844 12.134024
29.700000 0.541992 12.134024
29.900000 1.048828 12.134024
29.900000 1.555664 12.134024
29.900000 2.062500 12.134024
29.300000 4.324219 12.134024
29.300000 5.577148 12.134024
29.400000 6.455078 12.134024
29.600000 6.458008 12.134024
29.800000 7.210938 12.134024
30.000000 7.713867 12.134024
30.300000 8.091797 12.134024
30.900000 10.475586 12.134024
31.200000 10.603516 12.134024
31.100000 11.606445 12.134024
31.100000 12.109375 12.134024
31.200000 12.987305 12.134024
31.300000 13.365234 12.134024
31.300000 14.243164 12.134024
31.200000 14.871094 12.134024
31.400000 14.749023 12.134024
31.900000 15.376953 12.134024
30.100000 -0.897949 12.281023
29.800000 -0.266602 12.281023
29.900000 0.114746 12.281023
30.000000 1.621094 12.281023
30.000000 2.127441 12.281023
29.500000 4.777832 12.281023
29.300000 5.284180 12.281023
29.500000 6.040527 12.281023
29.700000 6.046875 12.281023
29.900000 6.426270 12.281023
30.100000 6.930664 12.281023
30.400000 8.185059 12.281023
30.800000 8.564453 12.281023
31.100000 10.452637 12.281023
31.200000 11.082031 12.281023
31.100000 11.211426 12.281023
31.200000 11.840820 12.281023
31.200000 12.720215 12.281023
31.200000 13.099609 12.281023
31.300000 13.854004 12.281023
31.300000 14.983398 12.281023
31.600000 15.112793 12.281023
30.100000 -0.474609 12.428022
29.800000 0.156250 12.428022
29.900000 0.537109 12.428022
30.000000 0.667969 12.428022
30.000000 2.173828 12.428022
29.800000 3.941406 12.428022
29.500000 4.572266 12.428022
29.600000 5.203125 12.428022
29.800000 5.208984 12.428022
30.400000 6.976563 12.428022
30.800000 8.357422 12.428022
31.200000 10.125000 12.428022
31.300000 10.126953 12.428022
31.100000 11.253906 12.428022
31.100000 11.755859 12.428022
31.200000 12.007812 12.428022
31.200000 13.009766 12.428022
31.200000 13.886719 12.428022
31.200000 14.513672 12.428022
31.300000 14.765625 12.428022
30.200000 -0.494141 12.575027
30.000000 -0.613281 12.575027
30.000000 0.142578 12.575027
30.100000 1.398438 12.575027
30.100000 1.529297 12.575027
29.900000 4.046875 12.575027
29.600000 4.552734 12.575027
29.700000 5.058594 12.575027
30.000000 5.064453 12.575027
30.500000 7.582031 12.575027
30.900000 7.587891 12.575027
31.100000 8.593750 12.575027
31.300000 9.349609 12.575027
31.600000 9.855469 12.575027
31.400000 10.111328 12.575027
31.200000 10.992188 12.575027
31.100000 11.623047 12.575027
31.200000 12.253906 12.575027
31.100000 12.509766 12.575027
31.300000 13.015625 12.575027
31.300000 14.394531 12.575027
31.300000 14.898438 12.575027
30.200000 -0.894531 12.716023
30.100000 -0.140625 12.716023
30.100000 0.363281 12.716023
30.100000 0.992188 12.716023
30.200000 1.371094 12.716023
30.000000 2.125000 12.716023
30.100000 2.253906 12.716023
29.900000 4.011719 12.716023
29.800000 4.890625 12.716023
30.000000 5.144531 12.716023
30.600000 7.156250 12.716023
31.000000 7.285156 12.716023
31.200000 7.914063 12.716023
31.400000 8.792969 12.716023
31.600000 9.046875 12.716023
31.500000 9.925781 12.716023
31.200000 10.554687 12.716023
31.200000 11.058594 12.716023
31.200000 12.062500 12.716023
31.200000 12.316406 12.716023
31.300000 13.570312 12.716023
31.300000 13.574219 12.716023
31.400000 14.328125 12.716023
30.200000 -1.053223 12.862024
30.100000 -0.295898 12.862024
30.200000 -0.163574 12.862024
30.300000 0.593750 12.862024
30.300000 1.596680 12.862024
30.200000 1.974609 12.862024
30.300000 3.102539 12.862024
30.200000 2.980469 12.862024
29.900000 3.608398 12.862024
29.900000 4.361328 12.862024
30.100000 4.739258 12.862024
30.600000 7.373047 12.862024
31.000000 7.375977 12.862024
31.100000 8.253906 12.862024
31.300000 8.881836 12.862024
31.500000 9.009766 12.862024
31.500000 10.012695 12.862024
31.300000 10.515625 12.862024
31.200000 11.143555 12.862024
31.200000 12.146484 12.862024
31.200000 12.399414 12.862024
31.300000 12.777344 12.862024
31.300000 13.405273 12.862024
31.400000 14.158203 12.862024
31.600000 15.161133 12.862024
30.200000 -0.640625 13.008023
30.300000 -0.134766 13.008023
30.400000 0.371094 13.008023
30.400000 1.126953 13.008023
30.300000 2.382812 13.008023
30.400000 2.763672 13.008023
30.400000 3.519531 13.008023
30.000000 4.275391 13.008023
29.900000 4.281250 13.008023
30.200000 5.035645 13.008023
30.700000 7.048828 13.008023
31.000000 7.053223 13.008023
31.200000 8.307617 13.008023
31.400000 8.937012 13.008023
31.600000 8.941406 13.008023
31.500000 10.195801 13.008023
31.300000 10.325195 13.008023
31.300000 10.829590 13.008023
31.300000 11.708984 13.008023
31.300000 12.588379 13.008023
31.300000 12.967773 13.008023
31.400000 13.847168 13.008023
31.400000 14.226562 13.008023
30.600000 -0.608398 13.156022
30.500000 0.270996 13.156022
30.600000 0.400391 13.156022
30.600000 0.904785 13.156022
30.500000 1.659180 13.156022
30.500000 3.042969 13.156022
30.100000 3.422363 13.156022
30.000000 4.426758 13.156022
30.100000 4.806152 13.156022
30.700000 6.819336 13.156022
31.200000 7.698730 13.156022
31.400000 8.203125 13.156022
31.700000 8.705078 13.156022
31.700000 9.332031 13.156022
31.500000 10.083984 13.156022
31.400000 10.835938 13.156022
31.400000 10.962891 13.156022
31.300000 11.714844 13.156022
31.300000 12.216797 13.156022
31.300000 12.968750 13.156022
31.400000 13.720703 13.156022
31.600000 14.222656 13.156022
30.500000 -0.478516 13.305023
30.600000 0.025879 13.305023
30.700000 0.780273 13.305023
30.600000 0.909668 13.305023
30.600000 1.664062 13.305023
30.200000 4.052246 13.305023
30.100000 4.806641 13.305023
30.200000 4.811035 13.305023
30.700000 6.949219 13.305023
31.400000 7.453613 13.305023
31.500000 8.208008 13.305023
31.700000 8.712402 13.305023
31.700000 9.216797 13.305023
31.500000 9.721191 13.305023
31.400000 10.350586 13.305023
31.400000 11.229980 13.305023
31.400000 11.859375 13.305023
31.300000 12.860352 13.305023
31.400000 12.861328 13.305023
31.500000 13.362305 13.305023
31.600000 14.488281 13.305023
30.700000 -0.678711 13.444023
30.800000 0.447754 13.444023
30.800000 0.574219 13.444023
30.800000 1.575684 13.444023
30.500000 3.830078 13.444023
30.200000 4.581543 13.444023
30.200000 4.833008 13.444023
30.400000 5.334473 13.444023
30.900000 6.838867 13.444023
31.500000 7.965332 13.444023
31.700000 9.844727 13.444023
31.600000 10.096191 13.444023
31.500000 10.847656 13.444023
31.500000 11.349121 13.444023
31.500000 12.100586 13.444023
31.400000 12.602051 13.444023
31.600000 12.978516 13.444023
31.700000 13.729980 13.444023
31.700000 14.731445 13.444023
32.000000 15.232910 13.444023
30.900000 -0.500000 13.591018
30.900000 1.002441 13.591018
30.900000 1.004883 13.591018
30.800000 1.757324 13.591018
30.900000 2.134766 13.591018
31.100000 3.012207 13.591018
30.300000 4.517090 13.591018
30.400000 5.269531 13.591018
30.900000 6.526855 13.591018
31.600000 7.279297 13.591018
31.800000 8.031738 13.591018
31.900000 8.284180 13.591018
31.900000 8.911621 13.591018
31.600000 9.539062 13.591018
31.600000 10.416504 13.591018
31.500000 11.293945 13.591018
31.500000 11.921387 13.591018
31.600000 12.548828 13.591018
31.600000 13.301270 13.591018
31.700000 13.803711 13.591018
31.700000 14.556152 13.591018
31.800000 14.808594 13.591018
32.400000 15.186035 13.591018
31.000000 0.192383 13.738017
31.100000 0.446777 13.738017
31.000000 1.451172 13.738017
31.000000 1.580566 13.738017
31.100000 2.709961 13.738017
30.900000 3.714355 13.738017
30.500000 4.468750 13.738017
30.400000 4.972656 13.738017
30.500000 4.976562 13.738017
30.700000 6.105469 13.738017
31.100000 5.984375 13.738017
31.400000 7.238281 13.738017
31.600000 7.617187 13.738017
31.700000 9.628906 13.738017
31.700000 10.132812 13.738017
31.600000 10.261719 13.738017
31.600000 11.640625 13.738017
31.600000 11.769531 13.738017
31.600000 12.898438 13.738017
31.700000 13.277344 13.738017
31.800000 14.031250 13.738017
31.800000 14.410156 13.738017
32.000000 14.914062 13.738017
32.300000 -1.511719 13.887026
31.700000 -1.007813 13.887026
31.200000 -0.128906 13.887026
31.200000 0.250000 13.887026
31.200000 0.753906 13.887026
31.100000 2.007812 13.887026
31.100000 1.886719 13.887026
31.100000 2.640625 13.887026
30.500000 4.148438 13.887026
30.500000 4.402344 13.887026
30.500000 5.281250 13.887026
30.800000 5.535156 13.887026
31.200000 6.914063 13.887026
31.500000 6.917969 13.887026
31.700000 7.796875 13.887026
31.800000 8.300293 13.887026
31.900000 8.553711 13.887026
31.900000 9.432129 13.887026
31.700000 9.810547 13.887026
31.600000 10.438965 13.887026
31.600000 11.692383 13.887026
31.700000 12.070801 13.887026
31.700000 12.449219 13.887026
31.800000 13.077637 13.887026
31.900000 13.706055 13.887026
32.000000 14.709473 13.887026
32.400000 15.212891 13.887026
32.200000 -1.412109 14.033020
31.200000 -0.272461 14.033020
31.300000 0.734863 14.033020
31.200000 1.367188 14.033020
31.200000 2.249512 14.033020
31.200000 2.131836 14.033020
31.300000 3.389160 14.033020
31.000000 3.896484 14.033020
30.600000 4.653809 14.033020
30.700000 4.786133 14.033020
30.900000 5.293457 14.033020
31.100000 6.175781 14.033020
31.400000 6.683105 14.033020
31.600000 7.315430 14.033020
31.800000 7.822754 14.033020
32.100000 8.705078 14.033020
32.100000 9.587402 14.033020
31.700000 10.344727 14.033020
31.600000 10.852051 14.033020
31.600000 11.359375 14.033020
31.600000 11.738281 14.033020
31.700000 12.367188 14.033020
31.900000 12.871094 14.033020
31.900000 14.125000 14.033020
31.900000 14.253906 14.033020
32.200000 15.257812 14.033020
32.200000 -1.402344 14.181022
31.800000 -0.896484 14.181022
31.400000 -0.390625 14.181022
31.300000 0.115234 14.181022
31.300000 0.746094 14.181022
31.300000 1.626953 14.181022
31.200000 2.007812 14.181022
31.300000 2.763672 14.181022
31.100000 4.019531 14.181022
30.800000 4.025391 14.181022
30.700000 5.031250 14.181022
31.200000 6.298828 14.181022
31.700000 7.179688 14.181022
31.900000 7.435547 14.181022
32.000000 8.316406 14.181022
32.000000 9.322266 14.181022
31.800000 10.078125 14.181022
31.700000 10.458984 14.181022
31.700000 10.839844 14.181022
31.700000 11.720703 14.181022
31.800000 12.601563 14.181022
31.800000 12.857422 14.181022
31.900000 13.488281 14.181022
32.000000 14.369141 14.181022
32.100000 15.000000 14.181022
32.600000 15.255371 14.181022
32.200000 -1.074219 14.323025
31.800000 -0.820313 14.323025
31.400000 -0.066406 14.323025
31.400000 1.062500 14.323025
31.300000 1.191406 14.323025
31.300000 1.695312 14.323025
31.200000 2.574219 14.323025
31.400000 2.828125 14.323025
31.300000 4.332031 14.323025
30.900000 4.210938 14.323025
30.900000 4.964844 14.323025
31.400000 6.976563 14.323025
31.900000 7.480469 14.323025
31.900000 8.484375 14.323025
32.100000 8.863281 14.323025
32.200000 8.992188 14.323025
31.900000 9.871094 14.323025
31.800000 10.750000 14.323025
31.800000 11.503906 14.323025
31.800000 12.007812 14.323025
31.800000 12.386719 14.323025
31.900000 13.140625 14.323025
31.900000 14.144531 14.323025
32.000000 14.273438 14.323025
32.300000 14.777344 14.323025
31.900000 -0.900391 14.468023
31.500000 0.105957 14.468023
31.400000 0.612305 14.468023
31.400000 1.493652 14.468023
31.300000 2.125000 14.468023
31.300000 2.375977 14.468023
31.300000 3.001953 14.468023
31.500000 3.877930 14.468023
31.300000 4.253906 14.468023
31.000000 5.004883 14.468023
30.900000 5.880859 14.468023
31.200000 5.881836 14.468023
31.700000 6.507812 14.468023
31.900000 7.008789 14.468023
32.000000 7.884766 14.468023
32.100000 8.385742 14.468023
32.100000 9.136719 14.468023
32.000000 9.762695 14.468023
31.800000 10.638672 14.468023
31.800000 11.014648 14.468023
31.900000 11.890625 14.468023
31.900000 12.391602 14.468023
31.900000 12.767578 14.468023
31.900000 13.643555 14.468023
32.100000 14.269531 14.468023
32.200000 -1.501465 14.614023
31.800000 -0.617676 14.614023
31.400000 0.386719 14.614023
31.500000 0.516113 14.614023
31.400000 1.145508 14.614023
31.300000 2.399902 14.614023
31.300000 2.779297 14.614023
31.300000 3.158691 14.614023
31.500000 3.538086 14.614023
31.400000 4.292480 14.614023
31.100000 5.421875 14.614023
31.200000 5.673828 14.614023
31.500000 6.425781 14.614023
31.800000 6.552734 14.614023
31.900000 7.554688 14.614023
32.000000 9.310547 14.614023
31.900000 10.312500 14.614023
31.900000 10.439453 14.614023
31.900000 11.691406 14.614023
31.900000 11.568359 14.614023
31.900000 12.570313 14.614023
32.000000 12.947266 14.614023
32.100000 13.699219 14.614023
32.200000 14.076172 14.614023
32.400000 14.953125 14.614023
32.200000 -1.140625 14.762022
31.800000 -0.262695 14.762022
31.500000 -0.009766 14.762022
31.600000 0.368164 14.762022
31.500000 0.871094 14.762022
31.400000 1.999023 14.762022
31.300000 2.626953 14.762022
31.300000 2.879883 14.762022
31.500000 4.007812 14.762022
31.500000 4.010742 14.762022
31.300000 4.888672 14.762022
31.300000 5.266602 14.762022
31.600000 5.894531 14.762022
31.800000 6.897461 14.762022
31.900000 7.150391 14.762022
32.100000 7.778320 14.762022
32.300000 8.781250 14.762022
32.200000 9.533203 14.762022
32.000000 9.910156 14.762022
31.900000 10.787109 14.762022
31.900000 11.039063 14.762022
32.000000 11.416016 14.762022
31.900000 12.417969 14.762022
32.000000 12.919922 14.762022
32.100000 13.796875 14.762022
32.200000 14.298828 14.762022
31.400000 0.019531 14.908994
31.600000 0.397461 14.908994
31.500000 1.650391 14.908994
31.400000 2.153320 14.908994
31.400000 2.531250 14.908994
31.500000 3.159180 14.908994
31.400000 3.912109 14.908994
31.200000 4.540039 14.908994
31.200000 4.792969 14.908994
31.500000 5.920898 14.908994
31.600000 6.673828 14.908994
31.700000 6.551758 14.908994
31.900000 7.804688 14.908994
32.000000 9.438477 14.908994
32.000000 10.441406 14.908994
31.900000 10.694336 14.908994
31.900000 11.072266 14.908994
31.900000 11.700195 14.908994
31.900000 12.203125 14.908994
32.000000 13.330566 14.908994
32.100000 13.708008 14.908994
32.200000 14.085449 14.908994
32.500000 14.962891 14.908994
31.900000 -1.173828 15.047023
31.600000 -0.545410 15.047023
31.600000 0.083008 15.047023
31.600000 1.211426 15.047023
31.500000 1.214844 15.047023
31.500000 2.093262 15.047023
31.600000 2.971680 15.047023
31.500000 3.225098 15.047023
31.200000 4.353516 15.047023
31.100000 4.981934 15.047023
31.200000 5.485352 15.047023
31.500000 5.613770 15.047023
31.600000 6.367188 15.047023
31.800000 6.870605 15.047023
32.000000 7.499023 15.047023
32.000000 9.759277 15.047023
32.000000 10.387695 15.047023
32.000000 10.766113 15.047023
32.000000 11.894531 15.047023
32.000000 11.897949 15.047023
32.000000 12.901367 15.047023
32.200000 13.279785 15.047023
32.200000 13.658203 15.047023
32.300000 14.536621 15.047023
32.700000 15.290039 15.047023
31.500000 -0.716797 15.196023
31.500000 -0.459961 15.196023
31.600000 0.671875 15.196023
31.500000 0.800293 15.196023
31.500000 2.053711 15.196023
31.500000 2.557129 15.196023
31.400000 2.810547 15.196023
31.200000 3.938965 15.196023
31.100000 4.692383 15.196023
31.100000 5.070801 15.196023
31.200000 5.699219 15.196023
31.500000 5.952637 15.196023
31.600000 6.456055 15.196023
31.900000 7.084473 15.196023
32.000000 7.837891 15.196023
32.200000 8.216309 15.196023
32.400000 9.344727 15.196023
32.200000 9.848145 15.196023
32.000000 10.601562 15.196023
32.000000 10.979980 15.196023
32.100000 11.858398 15.196023
32.000000 12.111816 15.196023
32.000000 12.865234 15.196023
32.100000 13.868652 15.196023
32.200000 14.497070 15.196023
31.700000 -0.464844 15.344029
31.500000 -0.084473 15.344029
31.600000 0.795898 15.344029
31.500000 1.426270 15.344029
31.500000 1.556641 15.344029
31.500000 2.562012 15.344029
31.300000 2.817383 15.344029
31.100000 3.947754 15.344029
31.100000 4.328125 15.344029
31.100000 4.582520 15.344029
31.200000 5.711914 15.344029
31.500000 5.966309 15.344029
31.700000 6.470703 15.344029
31.900000 7.600098 15.344029
32.000000 8.354492 15.344029
32.200000 8.858887 15.344029
32.400000 9.113281 15.344029
32.200000 9.867676 15.344029
32.000000 10.497070 15.344029
32.000000 11.126465 15.344029
32.000000 11.505859 15.344029
32.000000 12.510254 15.344029
32.000000 13.389648 15.344029
32.100000 13.394043 15.344029
32.200000 14.523438 15.344029
32.000000 -0.997070 15.490024
31.500000 -0.491699 15.490024
31.500000 -0.111328 15.490024
31.600000 0.894043 15.490024
31.500000 1.149414 15.490024
31.500000 2.529785 15.490024
31.500000 2.535156 15.490024
31.200000 3.290527 15.490024
31.000000 4.295898 15.490024
31.300000 5.812012 15.490024
31.600000 6.192383 15.490024
31.800000 6.822754 15.490024
32.000000 7.828125 15.490024
32.100000 9.838379 15.490024
32.100000 9.841797 15.490024
32.000000 11.095215 15.490024
32.000000 11.098633 15.490024
32.000000 12.227051 15.490024
32.100000 12.605469 15.490024
32.200000 13.483887 15.490024
32.200000 14.237305 15.490024
32.300000 14.240723 15.490024
32.700000 14.744141 15.490024
31.700000 -0.857910 15.637023
31.500000 -0.475586 15.637023
31.600000 0.531738 15.637023
31.500000 1.414063 15.637023
31.400000 1.421387 15.637023
31.500000 2.553711 15.637023
31.400000 3.061035 15.637023
30.900000 4.193359 15.637023
30.900000 4.825684 15.637023
31.000000 5.083008 15.637023
31.200000 5.715332 15.637023
31.500000 5.972656 15.637023
31.600000 6.479980 15.637023
31.900000 7.237305 15.637023
32.200000 9.509277 15.637023
32.300000 9.516602 15.637023
32.100000 10.398926 15.637023
32.100000 10.781250 15.637023
32.000000 11.661133 15.637023
32.000000 12.166016 15.637023
32.000000 13.170898 15.637023
32.200000 13.925781 15.637023
32.300000 14.305664 15.637023
32.500000 14.810547 15.637023
31.400000 -0.480469 15.785023
31.500000 0.148926 15.785023
31.500000 1.153320 15.785023
31.400000 1.407715 15.785023
31.500000 1.787109 15.785023
31.300000 3.291504 15.785023
30.900000 3.420898 15.785023
30.900000 4.175293 15.785023
31.200000 6.188477 15.785023
31.500000 6.942871 15.785023
31.800000 6.822266 15.785023
32.000000 8.201660 15.785023
32.100000 9.339844 15.785023
32.100000 10.344238 15.785023
32.000000 10.598633 15.785023
32.000000 11.728027 15.785023
32.100000 11.982422 15.785023
32.100000 12.861816 15.785023
32.100000 13.366211 15.785023
32.400000 14.120605 15.785023
32.500000 14.375000 15.785023
32.900000 15.253418 15.785023
31.700000 -0.307617 15.923003
31.500000 0.069824 15.923003
31.500000 0.947266 15.923003
31.400000 1.074707 15.923003
31.400000 1.827148 15.923003
31.500000 2.454590 15.923003
