39.225000 5.125000 2.358001
39.000000 6.609375 2.358001
38.850000 7.578125 2.358001
39.025000 9.140625 2.358001
39.425000 10.312500 2.358001
38.650000 -2.718750 2.502000
38.675000 -1.062500 2.502000
38.750000 0.031250 2.502000
38.775000 1.250000 2.502000
38.800000 2.343750 2.502000
39.050000 3.640625 2.502000
39.225000 5.234375 2.502000
39.000000 6.640625 2.502000
38.850000 7.921875 2.502000
39.025000 9.015625 2.502000
39.450000 10.125000 2.502000
38.675000 -2.593750 2.645003
38.700000 -1.500000 2.645003
38.775000 -0.203125 2.645003
38.850000 1.046875 2.645003
38.800000 2.312500 2.645003
39.025000 3.734375 2.645003
39.225000 4.953125 2.645003
39.000000 6.531250 2.645003
38.825000 7.781250 2.645003
39.025000 8.859375 2.645003
39.450000 10.156250 2.645003
39.050000 -3.500000 2.788001
38.875000 -2.328125 2.788001
38.600000 -0.812500 2.788001
38.875000 0.062500 2.788001
38.850000 1.531250 2.788001
38.650000 2.750000 2.788001
38.875000 3.906250 2.788001
39.250000 5.218750 2.788001
39.100000 6.484375 2.788001
38.900000 7.859375 2.788001
39.100000 9.484375 2.788001
39.750000 10.250000 2.788001
38.725000 -3.312500 2.929000
38.525000 -2.093750 2.929000
38.700000 -0.609375 2.929000
38.500000 0.609375 2.929000
38.400000 1.843750 2.929000
38.425000 2.968750 2.929000
38.775000 4.156250 2.929000
39.525000 5.734375 2.929000
39.325000 7.015625 2.929000
38.925000 8.125000 2.929000
39.200000 9.296875 2.929000
38.825000 -2.765625 3.070000
38.575000 -1.609375 3.070000
38.850000 -0.312500 3.070000
38.550000 0.828125 3.070000
38.225000 1.984375 3.070000
38.550000 3.656250 3.070000
38.950000 4.671875 3.070000
39.200000 5.984375 3.070000
39.025000 7.062500 3.070000
38.950000 8.468750 3.070000
39.275000 9.968750 3.070000
38.450000 -1.640625 3.211001
38.775000 -0.656250 3.211001
38.425000 0.796875 3.211001
38.025000 3.125000 3.211001
38.650000 4.671875 3.211001
39.500000 5.812500 3.211001
39.300000 6.968750 3.211001
38.875000 8.484375 3.211001
39.150000 9.531250 3.211001
38.375000 -1.609375 3.359001
38.725000 -0.421875 3.359001
38.150000 1.984375 3.359001
39.150000 5.562500 3.359001
39.275000 6.843750 3.359001
38.875000 8.125000 3.359001
39.175000 9.390625 3.359001
38.175000 -2.937500 3.499000
38.375000 -1.578125 3.499000
38.800000 -0.328125 3.499000
39.300000 7.140625 3.499000
38.900000 8.625000 3.499000
39.175000 9.890625 3.499000
38.050000 -3.125000 3.646002
37.975000 0.828125 3.646002
38.125000 2.062500 3.646002
39.125000 6.031250 3.646002
39.275000 7.234375 3.646002
38.875000 8.578125 3.646002
39.150000 9.703125 3.646002
37.950000 -3.250000 3.779000
37.975000 0.718750 3.779000
38.025000 2.312500 3.779000
39.250000 7.484375 3.779000
38.875000 8.390625 3.779000
39.050000 9.625000 3.779000
38.250000 -1.828125 3.923000
38.850000 -0.453125 3.923000
38.025000 1.812500 3.923000
39.225000 6.968750 3.923000
38.875000 8.343750 3.923000
39.000000 9.640625 3.923000
37.700000 -2.781250 4.068000
38.200000 -1.921875 4.068000
38.700000 -0.609375 4.068000
37.775000 1.953125 4.068000
38.125000 3.640625 4.068000
38.525000 4.734375 4.068000
39.325000 6.125000 4.068000
39.200000 7.125000 4.068000
38.850000 8.750000 4.068000
39.000000 9.562500 4.068000
38.125000 -2.593750 4.211002
38.150000 -1.312500 4.211002
38.300000 0.093750 4.211002
37.975000 1.640625 4.211002
37.725000 2.656250 4.211002
38.175000 3.906250 4.211002
38.675000 5.078125 4.211002
39.175000 6.375000 4.211002
39.175000 7.468750 4.211002
38.875000 8.718750 4.211002
39.100000 9.937500 4.211002
38.175000 -2.218750 4.351000
38.125000 -1.281250 4.351000
38.675000 0.203125 4.351000
39.150000 6.406250 4.351000
39.125000 7.484375 4.351000
38.800000 9.250000 4.351000
39.075000 10.406250 4.351000
38.425000 -3.453125 4.495000
38.250000 -2.000000 4.495000
38.025000 -1.046875 4.495000
37.600000 0.375000 4.495000
37.350000 1.468750 4.495000
37.675000 2.828125 4.495000
38.100000 4.140625 4.495000
38.600000 5.343750 4.495000
39.025000 6.421875 4.495000
39.025000 7.828125 4.495000
38.850000 9.218750 4.495000
39.350000 10.437500 4.495000
37.925000 -1.890625 4.636000
37.700000 -0.531250 4.636000
37.200000 0.953125 4.636000
37.350000 1.875000 4.636000
37.625000 3.312500 4.636000
38.025000 4.328125 4.636000
38.850000 5.609375 4.636000
39.275000 7.078125 4.636000
39.050000 8.093750 4.636000
38.875000 9.546875 4.636000
38.000000 -1.687500 4.780001
37.800000 -0.593750 4.780001
37.300000 1.078125 4.780001
37.250000 2.406250 4.780001
37.550000 3.640625 4.780001
38.850000 8.281250 4.780001
38.950000 9.625000 4.780001
37.950000 -2.718750 4.920001
38.075000 -1.093750 4.920001
38.500000 -0.046875 4.920001
37.250000 2.671875 4.920001
37.600000 3.968750 4.920001
38.050000 5.296875 4.920001
38.825000 6.218750 4.920001
38.975000 7.640625 4.920001
38.675000 8.984375 4.920001
39.050000 10.312500 4.920001
38.325000 -3.703125 5.059035
38.075000 -2.500000 5.059035
38.000000 -1.031250 5.059035
38.450000 0.203125 5.059035
37.325000 2.921875 5.059035
37.675000 4.125000 5.059035
38.400000 5.343750 5.059035
38.700000 6.593750 5.059035
38.525000 8.156250 5.059035
38.275000 -3.218750 5.201000
38.075000 -2.125000 5.201000
38.025000 -1.078125 5.201000
38.425000 0.578125 5.201000
37.325000 3.031250 5.201000
37.675000 4.531250 5.201000
38.350000 5.812500 5.201000
38.575000 7.093750 5.201000
38.450000 8.265625 5.201000
38.375000 -3.562500 5.344000
37.975000 -1.875000 5.344000
38.000000 -0.859375 5.344000
38.250000 0.703125 5.344000
37.400000 2.984375 5.344000
37.725000 4.171875 5.344000
38.150000 5.796875 5.344000
38.350000 6.718750 5.344000
38.450000 8.406250 5.344000
38.675000 9.437500 5.344000
38.250000 -3.468750 5.493001
37.900000 -1.953125 5.493001
37.900000 -0.875000 5.493001
37.825000 0.578125 5.493001
37.525000 2.000000 5.493001
37.400000 3.296875 5.493001
37.675000 4.453125 5.493001
38.075000 5.343750 5.493001
38.275000 7.000000 5.493001
38.400000 7.859375 5.493001
38.025000 -2.921875 5.639001
37.875000 -1.406250 5.639001
37.875000 -0.218750 5.639001
37.950000 1.000000 5.639001
37.800000 2.609375 5.639001
37.675000 3.703125 5.639001
37.900000 5.171875 5.639001
38.125000 6.031250 5.639001
38.275000 7.687500 5.639001
38.450000 8.812500 5.639001
38.800000 9.812500 5.639001
38.225000 -3.578125 5.770000
37.875000 -2.140625 5.770000
37.900000 -0.734375 5.770000
37.825000 0.328125 5.770000
37.775000 1.843750 5.770000
37.775000 2.984375 5.770000
37.900000 4.265625 5.770000
38.025000 5.312500 5.770000
38.175000 6.968750 5.770000
38.400000 8.156250 5.770000
38.650000 -4.078125 5.915001
38.000000 -2.734375 5.915001
37.850000 -1.734375 5.915001
37.850000 -0.359375 5.915001
37.825000 1.187500 5.915001
37.775000 2.515625 5.915001
37.975000 3.687500 5.915001
38.000000 4.625000 5.915001
37.925000 6.140625 5.915001
38.125000 7.625000 5.915001
38.350000 8.593750 5.915001
38.675000 9.812500 5.915001
37.800000 -2.406250 6.068001
37.800000 -1.453125 6.068001
37.825000 0.328125 6.068001
37.775000 1.171875 6.068001
37.750000 2.921875 6.068001
37.775000 4.031250 6.068001
37.850000 5.078125 6.068001
37.975000 6.281250 6.068001
38.125000 7.718750 6.068001
38.325000 9.203125 6.068001
38.750000 10.281250 6.068001
37.975000 -3.406250 6.199000
37.700000 -1.953125 6.199000
37.875000 -0.921875 6.199000
37.825000 0.765625 6.199000
37.725000 1.671875 6.199000
37.900000 3.015625 6.199000
37.875000 4.343750 6.199000
37.825000 5.750000 6.199000
38.025000 6.656250 6.199000
38.175000 8.359375 6.199000
38.400000 9.500000 6.199000
39.050000 10.750000 6.199000
37.825000 -2.812500 6.346001
37.800000 -1.406250 6.346001
37.800000 0.078125 6.346001
37.775000 1.390625 6.346001
37.775000 2.437500 6.346001
37.875000 3.734375 6.346001
37.875000 4.984375 6.346001
37.900000 6.156250 6.346001
38.075000 7.671875 6.346001
38.250000 8.546875 6.346001
38.550000 9.968750 6.346001
37.950000 -3.546875 6.487002
37.675000 -2.234375 6.487002
37.850000 -0.890625 6.487002
37.800000 0.500000 6.487002
37.725000 2.140625 6.487002
37.900000 2.906250 6.487002
37.900000 4.296875 6.487002
37.800000 5.718750 6.487002
37.975000 7.031250 6.487002
38.150000 8.046875 6.487002
37.800000 -2.406250 6.630001
37.800000 -1.500000 6.630001
37.775000 -0.062500 6.630001
37.750000 1.140625 6.630001
37.775000 2.703125 6.630001
37.775000 3.890625 6.630001
37.825000 5.062500 6.630001
37.950000 6.328125 6.630001
38.075000 7.609375 6.630001
38.200000 8.812500 6.630001
38.525000 10.328125 6.630001
37.850000 -0.765625 6.773001
37.825000 0.187500 6.773001
37.800000 1.531250 6.773001
37.975000 3.046875 6.773001
37.875000 4.390625 6.773001
37.775000 5.484375 6.773001
37.975000 6.734375 6.773001
38.150000 7.859375 6.773001
38.300000 9.593750 6.773001
38.800000 10.718750 6.773001
37.875000 -2.875000 6.918002
37.775000 -1.562500 6.918002
37.800000 -0.546875 6.918002
37.800000 0.765625 6.918002
37.800000 2.078125 6.918002
38.000000 3.375000 6.918002
38.050000 4.859375 6.918002
37.900000 5.843750 6.918002
37.950000 7.093750 6.918002
38.125000 8.390625 6.918002
38.375000 9.734375 6.918002
37.800000 -2.500000 7.054010
37.850000 -1.109375 7.054010
37.800000 0.453125 7.054010
37.800000 1.328125 7.054010
37.950000 2.890625 7.054010
37.825000 3.828125 7.054010
37.700000 5.453125 7.054010
37.900000 6.703125 7.054010
38.075000 7.750000 7.054010
38.275000 8.906250 7.054010
38.625000 10.171875 7.054010
38.300000 -2.968750 7.197001
37.775000 -1.640625 7.197001
37.800000 -0.250000 7.197001
37.800000 1.062500 7.197001
37.850000 2.281250 7.197001
37.925000 3.515625 7.197001
37.950000 4.734375 7.197001
37.925000 6.015625 7.197001
37.975000 7.343750 7.197001
38.125000 8.640625 7.197001
38.350000 9.796875 7.197001
37.775000 -1.734375 7.341001
37.825000 -0.343750 7.341001
37.800000 0.859375 7.341001
37.850000 2.031250 7.341001
37.925000 3.531250 7.341001
37.950000 4.921875 7.341001
37.925000 6.250000 7.341001
38.000000 7.375000 7.341001
38.200000 8.765625 7.341001
38.400000 9.781250 7.341001
38.250000 -2.468750 7.482001
37.825000 -1.468750 7.482001
37.800000 -0.031250 7.482001
37.775000 1.203125 7.482001
37.875000 2.453125 7.482001
37.875000 3.609375 7.482001
37.900000 4.750000 7.482001
38.000000 6.296875 7.482001
38.050000 7.500000 7.482001
38.200000 8.765625 7.482001
38.500000 10.171875 7.482001
37.825000 -1.406250 7.627001
37.800000 -0.171875 7.627001
37.800000 0.953125 7.627001
37.875000 2.203125 7.627001
37.875000 3.843750 7.627001
37.875000 4.843750 7.627001
38.000000 6.546875 7.627001
38.075000 7.406250 7.627001
38.200000 8.765625 7.627001
38.500000 10.187500 7.627001
37.825000 -2.640625 7.765000
37.850000 -1.265625 7.765000
37.800000 0.156250 7.765000
37.775000 1.671875 7.765000
37.950000 2.375000 7.765000
37.950000 4.015625 7.765000
37.800000 5.046875 7.765000
37.900000 6.687500 7.765000
38.075000 7.671875 7.765000
38.275000 9.140625 7.765000
38.575000 10.328125 7.765000
37.825000 -2.281250 7.912001
37.850000 -0.921875 7.912001
37.800000 0.484375 7.912001
37.800000 1.671875 7.912001
38.100000 2.843750 7.912001
38.000000 4.265625 7.912001
37.775000 5.625000 7.912001
37.975000 6.671875 7.912001
38.125000 7.875000 7.912001
38.325000 9.500000 7.912001
38.725000 10.375000 7.912001
37.625000 -2.750000 8.050001
37.800000 -1.343750 8.050001
37.800000 -0.078125 8.050001
37.775000 1.203125 8.050001
37.950000 2.437500 8.050001
37.925000 3.875000 8.050001
37.775000 5.328125 8.050001
37.900000 6.250000 8.050001
38.075000 7.656250 8.050001
38.275000 9.062500 8.050001
38.575000 10.078125 8.050001
37.600000 -2.421875 8.197000
37.775000 -1.375000 8.197000
37.775000 0.125000 8.197000
37.775000 1.453125 8.197000
37.875000 2.546875 8.197000
37.850000 3.734375 8.197000
37.775000 5.453125 8.197000
37.900000 6.281250 8.197000
38.075000 7.500000 8.197000
38.275000 8.890625 8.197000
38.575000 10.484375 8.197000
37.675000 -2.687500 8.339001
37.775000 -1.156250 8.339001
37.775000 -0.031250 8.339001
37.775000 1.312500 8.339001
37.875000 2.718750 8.339001
37.950000 3.718750 8.339001
37.875000 5.156250 8.339001
37.900000 6.234375 8.339001
38.050000 7.421875 8.339001
38.200000 8.828125 8.339001
38.500000 10.296875 8.339001
37.925000 -2.671875 8.477001
37.800000 -1.531250 8.477001
37.775000 0.156250 8.477001
37.775000 1.062500 8.477001
37.850000 2.265625 8.477001
38.050000 3.703125 8.477001
38.000000 4.968750 8.477001
37.900000 6.156250 8.477001
38.125000 7.625000 8.477001
38.275000 8.734375 8.477001
38.500000 10.296875 8.477001
37.750000 -2.765625 8.621002
37.750000 -1.296875 8.621002
37.775000 0.062500 8.621002
37.775000 1.375000 8.621002
37.875000 2.375000 8.621002
38.150000 4.000000 8.621002
38.075000 5.000000 8.621002
37.900000 6.250000 8.621002
38.125000 7.640625 8.621002
38.300000 9.171875 8.621002
38.575000 10.125000 8.621002
37.775000 -2.406250 8.762001
37.850000 -1.000000 8.762001
37.825000 0.390625 8.762001
37.800000 1.390625 8.762001
37.925000 2.703125 8.762001
38.300000 3.796875 8.762001
38.200000 5.515625 8.762001
37.900000 6.687500 8.762001
38.150000 7.781250 8.762001
38.375000 9.015625 8.762001
38.650000 10.390625 8.762001
38.100000 -3.421875 8.906000
37.825000 -2.265625 8.906000
37.850000 -1.093750 8.906000
37.925000 0.109375 8.906000
37.925000 1.609375 8.906000
37.825000 3.046875 8.906000
38.125000 4.062500 8.906000
38.175000 5.281250 8.906000
38.050000 6.921875 8.906000
38.225000 8.250000 8.906000
38.350000 9.125000 8.906000
38.875000 10.437500 8.906000
37.750000 -1.593750 9.046001
37.925000 -0.781250 9.046001
37.850000 0.984375 9.046001
37.750000 2.046875 9.046001
37.750000 3.125000 9.046001
38.150000 4.265625 9.046001
38.325000 6.031250 9.046001
38.200000 7.250000 9.046001
38.350000 8.187500 9.046001
38.600000 9.609375 9.046001
38.075000 -2.562500 9.190000
37.800000 -1.718750 9.190000
37.900000 -0.125000 9.190000
38.000000 0.828125 9.190000
37.750000 2.484375 9.190000
37.625000 3.640625 9.190000
38.150000 4.703125 9.190000
38.375000 5.875000 9.190000
38.275000 7.187500 9.190000
38.450000 8.703125 9.190000
38.700000 9.718750 9.190000
37.750000 -2.500000 9.334001
37.875000 -1.171875 9.334001
37.925000 0.031250 9.334001
38.125000 1.296875 9.334001
37.925000 2.828125 9.334001
37.725000 4.296875 9.334001
38.275000 5.390625 9.334001
38.450000 6.484375 9.334001
38.300000 7.781250 9.334001
38.475000 9.250000 9.334001
38.950000 10.593750 9.334001
38.175000 -3.421875 9.475001
37.900000 -2.078125 9.475001
38.000000 -0.765625 9.475001
37.800000 0.343750 9.475001
37.450000 1.812500 9.475001
37.425000 3.078125 9.475001
37.750000 4.250000 9.475001
38.225000 5.843750 9.475001
38.400000 6.812500 9.475001
38.400000 8.171875 9.475001
38.600000 9.312500 9.475001
37.875000 -2.031250 9.620000
38.000000 -0.859375 9.620000
38.175000 0.515625 9.620000
37.775000 2.187500 9.620000
37.500000 3.484375 9.620000
37.900000 4.750000 9.620000
38.425000 6.031250 9.620000
38.525000 7.125000 9.620000
38.375000 8.625000 9.620000
38.650000 9.593750 9.620000
38.725000 -4.125000 9.760001
38.250000 -2.859375 9.760001
37.900000 -1.734375 9.760001
38.125000 -0.406250 9.760001
38.700000 0.718750 9.760001
37.600000 3.734375 9.760001
38.050000 4.718750 9.760001
38.625000 5.828125 9.760001
38.700000 7.390625 9.760001
38.525000 8.906250 9.760001
38.700000 9.953125 9.760001
37.950000 -2.390625 9.905000
38.175000 -1.265625 9.905000
37.775000 0.125000 9.905000
37.350000 1.500000 9.905000
37.525000 2.562500 9.905000
37.800000 3.796875 9.905000
38.075000 5.062500 9.905000
38.400000 6.343750 9.905000
38.575000 7.968750 9.905000
38.675000 9.000000 9.905000
39.150000 10.390625 9.905000
38.175000 -3.187500 10.046000
37.975000 -2.218750 10.046000
38.175000 -0.656250 10.046000
38.450000 0.281250 10.046000
38.075000 1.703125 10.046000
37.650000 3.140625 10.046000
38.050000 4.578125 10.046000
38.525000 5.531250 10.046000
38.675000 6.843750 10.046000
38.625000 8.140625 10.046000
38.300000 -3.046875 10.182001
38.050000 -1.859375 10.182001
38.000000 2.265625 10.182001
38.100000 3.203125 10.182001
38.525000 4.750000 10.182001
39.100000 6.078125 10.182001
39.100000 7.468750 10.182001
38.725000 8.343750 10.182001
38.950000 9.703125 10.182001
37.925000 -2.703125 10.328002
38.200000 -1.343750 10.328002
37.925000 -0.015625 10.328002
37.600000 1.375000 10.328002
37.625000 3.000000 10.328002
38.025000 3.937500 10.328002
38.550000 4.984375 10.328002
39.100000 6.296875 10.328002
39.125000 7.562500 10.328002
38.800000 9.125000 10.328002
39.150000 10.484375 10.328002
38.300000 -1.453125 10.468000
37.825000 -0.015625 10.468000
37.450000 1.375000 10.468000
37.875000 2.281250 10.468000
38.625000 3.593750 10.468000
39.000000 4.984375 10.468000
39.250000 6.250000 10.468000
39.200000 7.656250 10.468000
38.900000 8.671875 10.468000
39.150000 10.109375 10.468000
38.750000 -3.015625 10.609000
38.300000 -1.671875 10.609000
38.125000 -0.078125 10.609000
37.750000 1.390625 10.609000
37.875000 2.406250 10.609000
38.575000 3.375000 10.609000
39.000000 4.953125 10.609000
39.350000 6.031250 10.609000
39.350000 7.343750 10.609000
39.000000 8.671875 10.609000
39.200000 9.796875 10.609000
38.300000 -1.421875 10.754001
38.100000 -0.093750 10.754001
37.725000 0.984375 10.754001
37.875000 2.406250 10.754001
38.525000 3.750000 10.754001
39.025000 4.875000 10.754001
39.375000 6.375000 10.754001
39.275000 7.265625 10.754001
38.975000 8.765625 10.754001
39.125000 9.906250 10.754001
38.325000 -1.640625 10.895000
38.225000 -0.390625 10.895000
37.800000 1.015625 10.895000
37.875000 2.156250 10.895000
38.525000 3.531250 10.895000
39.025000 4.906250 10.895000
39.350000 6.343750 10.895000
39.250000 7.312500 10.895000
39.000000 8.859375 10.895000
39.150000 9.937500 10.895000
38.325000 -1.296875 11.038001
38.125000 -0.218750 11.038001
37.825000 1.390625 11.038001
38.000000 2.546875 11.038001
38.500000 3.640625 11.038001
38.650000 4.984375 11.038001
39.025000 6.125000 11.038001
39.250000 7.531250 11.038001
39.125000 8.718750 11.038001
39.350000 9.953125 11.038001
38.325000 -2.640625 11.181000
38.350000 -1.109375 11.181000
38.225000 0.015625 11.181000
37.975000 1.281250 11.181000
37.900000 2.531250 11.181000
38.325000 3.546875 11.181000
38.925000 4.828125 11.181000
39.200000 6.343750 11.181000
39.150000 7.656250 11.181000
39.100000 8.953125 11.181000
39.350000 10.234375 11.181000
39.225000 -4.031250 11.320026
38.575000 -2.750000 11.320026
38.450000 -1.125000 11.320026
38.225000 -0.171875 11.320026
37.975000 1.234375 11.320026
38.025000 2.531250 11.320026
38.475000 3.609375 11.320026
38.950000 4.953125 11.320026
39.200000 6.156250 11.320026
39.150000 7.625000 11.320026
39.100000 8.875000 11.320026
39.325000 10.406250 11.320026
38.775000 -3.375000 11.470001
38.700000 -2.171875 11.470001
38.225000 2.046875 11.470001
37.975000 3.218750 11.470001
38.550000 4.312500 11.470001
39.225000 5.421875 11.470001
39.250000 6.796875 11.470001
39.025000 8.359375 11.470001
39.275000 9.515625 11.470001
38.425000 -2.093750 11.609000
38.325000 1.796875 11.609000
38.225000 3.234375 11.609000
38.850000 4.250000 11.609000
39.425000 5.843750 11.609000
39.250000 7.062500 11.609000
39.000000 8.468750 11.609000
39.250000 9.359375 11.609000
38.425000 -2.640625 11.750002
38.625000 -1.531250 11.750002
38.700000 -0.171875 11.750002
38.400000 1.250000 11.750002
37.975000 2.156250 11.750002
38.350000 3.812500 11.750002
39.025000 4.984375 11.750002
39.225000 6.359375 11.750002
39.075000 7.265625 11.750002
39.075000 8.593750 11.750002
39.375000 9.859375 11.750002
39.575000 -3.781250 11.895001
39.050000 -2.296875 11.895001
38.625000 -1.000000 11.895001
38.625000 0.234375 11.895001
38.350000 1.781250 11.895001
38.200000 2.750000 11.895001
38.800000 4.046875 11.895001
39.400000 5.093750 11.895001
39.275000 6.765625 11.895001
38.975000 7.968750 11.895001
39.125000 9.000000 11.895001
39.625000 10.234375 11.895001
39.300000 -3.406250 12.033001
39.075000 -2.140625 12.033001
38.625000 -0.953125 12.033001
38.825000 0.281250 12.033001
38.575000 1.828125 12.033001
39.200000 6.906250 12.033001
39.000000 8.125000 12.033001
39.175000 9.515625 12.033001
39.950000 10.734375 12.033001
38.525000 -3.031250 12.173002
38.625000 -1.703125 12.173002
38.725000 -0.312500 12.173002
38.625000 1.234375 12.173002
38.300000 2.203125 12.173002
38.525000 3.265625 12.173002
39.150000 4.859375 12.173002
39.175000 5.890625 12.173002
38.975000 7.156250 12.173002
39.000000 8.796875 12.173002
39.350000 9.734375 12.173002
39.800000 -3.750000 12.319002
39.050000 -2.625000 12.319002
38.675000 -1.156250 12.319002
38.700000 0.281250 12.319002
38.600000 1.250000 12.319002
38.575000 2.906250 12.319002
38.925000 4.140625 12.319002
39.325000 5.437500 12.319002
39.125000 6.609375 12.319002
38.925000 7.640625 12.319002
39.100000 9.281250 12.319002
39.600000 10.484375 12.319002
39.450000 -3.562500 12.460001
39.150000 -2.296875 12.460001
38.700000 -0.937500 12.460001
38.725000 0.250000 12.460001
38.675000 1.531250 12.460001
38.750000 3.015625 12.460001
39.150000 4.375000 12.460001
39.400000 5.359375 12.460001
39.175000 7.031250 12.460001
38.975000 8.390625 12.460001
39.225000 9.640625 12.460001
38.750000 -3.171875 12.599001
38.525000 -1.781250 12.599001
38.800000 -0.734375 12.599001
38.800000 0.953125 12.599001
38.800000 1.937500 12.599001
38.900000 3.265625 12.599001
39.175000 4.359375 12.599001
39.100000 6.078125 12.599001
38.875000 7.187500 12.599001
38.950000 8.562500 12.599001
39.225000 9.812500 12.599001
38.525000 -2.921875 12.749002
38.625000 -1.281250 12.749002
38.725000 -0.453125 12.749002
38.750000 0.953125 12.749002
38.825000 2.140625 12.749002
39.100000 3.406250 12.749002
39.275000 4.859375 12.749002
39.025000 6.453125 12.749002
38.825000 7.625000 12.749002
39.000000 8.656250 12.749002
39.450000 9.937500 12.749002
38.800000 -3.968750 12.885000
38.650000 -2.875000 12.885000
38.800000 -1.562500 12.885000
39.150000 -0.578125 12.885000
39.125000 0.734375 12.885000
38.775000 2.078125 12.885000
38.875000 3.312500 12.885000
39.225000 4.562500 12.885000
39.025000 5.875000 12.885000
38.750000 7.250000 12.885000
38.975000 8.781250 12.885000
39.425000 9.921875 12.885000
38.525000 -2.609375 13.027001
38.675000 -1.593750 13.027001
38.750000 -0.375000 13.027001
38.750000 1.265625 13.027001
38.825000 2.531250 13.027001
39.100000 3.734375 13.027001
39.275000 5.046875 13.027001
39.000000 6.093750 13.027001
38.800000 7.609375 13.027001
38.975000 8.843750 13.027001
39.425000 10.171875 13.027001
38.550000 -2.484375 13.169001
38.750000 -1.375000 13.169001
38.750000 -0.140625 13.169001
38.750000 1.375000 13.169001
38.800000 2.500000 13.169001
39.125000 3.718750 13.169001
39.250000 4.968750 13.169001
38.975000 6.234375 13.169001
38.825000 7.515625 13.169001
39.000000 8.859375 13.169001
39.425000 10.125000 13.169001
38.525000 -2.718750 13.315001
38.750000 -1.359375 13.315001
38.750000 0.062500 13.315001
38.750000 0.953125 13.315001
38.800000 2.296875 13.315001
39.100000 3.609375 13.315001
39.250000 4.796875 13.315001
39.000000 6.203125 13.315001
38.850000 7.609375 13.315001
39.000000 8.890625 13.315001
39.425000 9.953125 13.315001
38.700000 -2.859375 13.453001
38.700000 -1.187500 13.453001
38.775000 -0.171875 13.453001
38.775000 1.328125 13.453001
38.800000 2.453125 13.453001
39.075000 3.687500 13.453001
39.250000 4.890625 13.453001
39.000000 6.328125 13.453001
38.800000 7.937500 13.453001
39.000000 8.828125 13.453001
39.525000 9.984375 13.453001
39.550000 -3.828125 13.596002
38.800000 -2.250000 13.596002
38.675000 -0.953125 13.596002
38.775000 -0.078125 13.596002
38.725000 1.406250 13.596002
38.700000 2.468750 13.596002
39.050000 3.718750 13.596002
39.225000 5.328125 13.596002
38.925000 6.359375 13.596002
38.750000 7.531250 13.596002
39.000000 9.078125 13.596002
39.500000 10.234375 13.596002
39.525000 -3.921875 13.737000
38.900000 -2.453125 13.737000
38.625000 -0.921875 13.737000
38.900000 0.296875 13.737000
38.900000 1.296875 13.737000
38.575000 2.515625 13.737000
38.900000 3.703125 13.737000
39.200000 5.062500 13.737000
38.950000 6.656250 13.737000
38.850000 8.062500 13.737000
39.075000 8.984375 13.737000
39.600000 10.296875 13.737000
38.775000 -3.500000 13.883001
38.700000 -2.125000 13.883001
38.675000 -0.906250 13.883001
38.425000 0.468750 13.883001
38.400000 1.609375 13.883001
38.375000 3.234375 13.883001
38.650000 4.234375 13.883001
39.450000 5.718750 13.883001
39.250000 6.984375 13.883001
38.900000 8.453125 13.883001
39.175000 9.687500 13.883001
38.400000 -1.937500 14.022001
38.700000 -0.515625 14.022001
38.425000 0.937500 14.022001
38.050000 3.265625 14.022001
38.700000 4.218750 14.022001
39.500000 5.687500 14.022001
39.250000 7.093750 14.022001
38.875000 8.156250 14.022001
39.175000 9.640625 14.022001
39.100000 -4.109375 14.164001
38.600000 -2.750000 14.164001
38.525000 -1.546875 14.164001
38.500000 -0.390625 14.164001
38.200000 1.031250 14.164001
37.975000 2.515625 14.164001
38.350000 3.562500 14.164001
38.925000 4.859375 14.164001
39.100000 6.109375 14.164001
38.975000 7.296875 14.164001
38.950000 8.781250 14.164001
39.300000 10.109375 14.164001
38.800000 -3.859375 14.310001
38.800000 -2.156250 14.310001
38.525000 -1.312500 14.310001
38.200000 0.125000 14.310001
37.925000 1.687500 14.310001
38.100000 3.046875 14.310001
38.675000 3.921875 14.310001
39.125000 5.500000 14.310001
38.900000 6.906250 14.310001
38.850000 8.109375 14.310001
39.050000 9.421875 14.310001
39.700000 10.453125 14.310001
38.250000 -2.250000 14.451001
38.950000 -1.000000 14.451001
38.125000 1.843750 14.451001
39.000000 5.734375 14.451001
39.125000 6.875000 14.451001
38.875000 8.375000 14.451001
39.150000 9.625000 14.451001
38.175000 -2.734375 14.595001
38.200000 -1.078125 14.595001
37.875000 -0.203125 14.595001
37.750000 1.421875 14.595001
37.975000 2.421875 14.595001
38.400000 3.765625 14.595001
38.900000 4.921875 14.595001
39.150000 6.093750 14.595001
39.000000 7.421875 14.595001
38.975000 8.953125 14.595001
39.275000 10.156250 14.595001
38.650000 -3.437500 14.734000
38.600000 -2.062500 14.734000
38.250000 -1.062500 14.734000
37.875000 0.203125 14.734000
37.800000 1.687500 14.734000
37.975000 2.781250 14.734000
38.300000 4.062500 14.734000
38.975000 5.359375 14.734000
39.150000 6.562500 14.734000
38.950000 7.906250 14.734000
39.025000 9.468750 14.734000
39.525000 10.296875 14.734000
38.150000 -1.750000 14.875001
38.625000 -0.578125 14.875001
37.925000 2.078125 14.875001
38.925000 5.609375 14.875001
39.125000 7.093750 14.875001
38.850000 8.328125 14.875001
38.950000 9.609375 14.875001
38.150000 -2.578125 15.021000
38.150000 -1.078125 15.021000
37.900000 0.234375 15.021000
37.625000 1.734375 15.021000
37.800000 2.796875 15.021000
38.275000 3.734375 15.021000
38.700000 5.265625 15.021000
39.125000 6.156250 15.021000
39.075000 7.781250 15.021000
38.850000 9.109375 15.021000
39.150000 10.234375 15.021000
38.125000 -1.781250 15.160000
38.000000 -0.406250 15.160000
37.475000 1.062500 15.160000
37.575000 2.203125 15.160000
38.050000 3.296875 15.160000
38.400000 4.421875 15.160000
39.050000 5.562500 15.160000
39.150000 7.218750 15.160000
38.875000 8.234375 15.160000
38.950000 9.609375 15.160000
38.100000 -1.859375 15.302000
38.025000 -0.437500 15.302000
37.525000 0.843750 15.302000
37.575000 1.984375 15.302000
38.175000 3.281250 15.302000
38.625000 7.453125 15.302000
38.850000 8.578125 15.302000
38.900000 9.796875 15.302000
38.050000 -2.953125 15.444000
38.075000 -1.328125 15.444000
38.375000 -0.218750 15.444000
37.325000 2.671875 15.444000
37.675000 3.906250 15.444000
38.300000 5.109375 15.444000
39.100000 6.078125 15.444000
39.200000 7.312500 15.444000
38.800000 8.734375 15.444000
39.000000 10.046875 15.444000
37.825000 -2.890625 15.586001
38.050000 -1.218750 15.586001
38.450000 -0.343750 15.586001
37.325000 2.750000 15.586001
37.675000 3.656250 15.586001
38.225000 5.015625 15.586001
39.025000 6.187500 15.586001
39.050000 7.734375 15.586001
38.675000 8.765625 15.586001
38.975000 10.171875 15.586001
38.025000 -2.578125 15.733001
37.625000 1.421875 15.733001
37.300000 2.796875 15.733001
37.625000 4.156250 15.733001
38.150000 5.015625 15.733001
38.900000 6.234375 15.733001
39.075000 7.718750 15.733001
38.800000 8.843750 15.733001
39.100000 10.203125 15.733001
38.300000 -3.359375 15.871001
38.050000 -2.343750 15.871001
38.000000 -0.640625 15.871001
38.400000 0.500000 15.871001
37.225000 2.921875 15.871001
37.625000 4.218750 15.871001
38.300000 5.484375 15.871001
38.800000 6.875000 15.871001
38.750000 7.875000 15.871001
38.275000 -3.343750 16.016000
38.000000 -2.109375 16.016000
38.000000 -1.000000 16.016000
38.550000 0.625000 16.016000
37.325000 3.140625 16.016000
37.875000 6.906250 16.016000
38.425000 8.359375 16.016000
37.850000 -2.140625 16.159001
37.975000 -0.500000 16.159001
38.425000 0.421875 16.159001
37.375000 3.187500 16.159001
37.750000 4.343750 16.159001
38.175000 5.484375 16.159001
38.350000 6.765625 16.159001
38.450000 8.515625 16.159001
38.650000 9.562500 16.159001
38.150000 -3.000000 16.297000
37.900000 -1.578125 16.297000
37.900000 -0.531250 16.297000
38.250000 0.984375 16.297000
37.525000 3.828125 16.297000
37.950000 4.812500 16.297000
38.250000 6.250000 16.297000
38.300000 7.546875 16.297000
38.450000 8.718750 16.297000
38.775000 10.031250 16.297000
37.725000 -2.843750 16.439001
37.875000 -1.359375 16.439001
37.875000 0.015625 16.439001
38.050000 1.343750 16.439001
37.825000 2.328125 16.439001
37.650000 3.843750 16.439001
37.975000 5.203125 16.439001
38.150000 6.296875 16.439001
38.300000 7.484375 16.439001
38.525000 8.984375 16.439001
38.925000 10.125000 16.439001
38.125000 -3.703125 16.588001
37.825000 -2.109375 16.588001
37.850000 -0.921875 16.588001
37.850000 0.171875 16.588001
37.925000 1.375000 16.588001
37.825000 2.609375 16.588001
37.950000 3.859375 16.588001
38.125000 5.343750 16.588001
38.100000 6.578125 16.588001
38.300000 7.718750 16.588001
38.525000 9.312500 16.588001
39.050000 10.265625 16.588001
38.175000 -3.546875 16.728001
37.825000 -2.125000 16.728001
37.825000 -0.984375 16.728001
37.850000 0.578125 16.728001
37.775000 1.640625 16.728001
37.775000 2.843750 16.728001
37.850000 4.093750 16.728001
37.950000 5.453125 16.728001
38.075000 6.703125 16.728001
38.300000 8.406250 16.728001
38.150000 -3.531250 16.866001
37.800000 -2.203125 16.866001
37.825000 -0.921875 16.866001
37.825000 0.437500 16.866001
37.775000 1.796875 16.866001
37.775000 3.062500 16.866001
37.850000 4.046875 16.866001
37.925000 5.312500 16.866001
38.075000 6.875000 16.866001
38.225000 8.218750 16.866001
38.425000 9.218750 16.866001
39.050000 10.546875 16.866001
38.100000 -3.593750 17.010000
37.775000 -2.265625 17.010000
37.825000 -1.015625 17.010000
37.825000 0.500000 17.010000
37.750000 1.875000 17.010000
37.875000 3.078125 17.010000
37.925000 4.343750 17.010000
37.875000 5.656250 17.010000
38.025000 6.812500 17.010000
38.200000 8.328125 17.010000
37.625000 -1.890625 17.151002
37.800000 -0.578125 17.151002
37.800000 0.468750 17.151002
37.725000 2.109375 17.151002
37.950000 3.187500 17.151002
38.000000 4.328125 17.151002
37.850000 5.531250 17.151002
38.000000 7.125000 17.151002
38.200000 8.093750 17.151002
38.425000 9.390625 17.151002
37.900000 -2.796875 17.293001
37.825000 -1.562500 17.293001
37.850000 -0.453125 17.293001
37.775000 1.000000 17.293001
37.775000 2.500000 17.293001
37.850000 3.500000 17.293001
37.850000 4.750000 17.293001
37.875000 6.203125 17.293001
38.025000 7.640625 17.293001
38.225000 8.531250 17.293001
38.525000 10.218750 17.293001
38.200000 -3.515625 17.434001
37.750000 -2.484375 17.434001
37.800000 -1.015625 17.434001
37.800000 0.296875 17.434001
37.775000 1.671875 17.434001
37.925000 2.937500 17.434001
37.825000 4.140625 17.434001
37.750000 5.390625 17.434001
38.050000 6.734375 17.434001
38.175000 7.828125 17.434001
38.325000 9.203125 17.434001
38.850000 10.312500 17.434001
37.925000 -3.156250 17.586001
37.750000 -1.718750 17.586001
37.800000 -0.390625 17.586001
37.800000 0.734375 17.586001
37.775000 2.015625 17.586001
38.075000 3.375000 17.586001
38.125000 4.875000 17.586001
37.900000 5.718750 17.586001
37.975000 7.109375 17.586001
38.125000 8.609375 17.586001
38.375000 9.781250 17.586001
37.650000 -3.156250 17.718000
37.750000 -1.703125 17.718000
37.800000 -0.281250 17.718000
37.800000 1.125000 17.718000
37.775000 2.343750 17.718000
38.075000 3.203125 17.718000
38.125000 4.531250 17.718000
37.875000 6.062500 17.718000
37.950000 7.015625 17.718000
38.125000 8.265625 17.718000
38.375000 9.671875 17.718000
37.825000 -1.625000 17.861000
37.850000 -0.187500 17.861000
37.800000 0.890625 17.861000
37.775000 2.265625 17.861000
37.875000 3.312500 17.861000
37.925000 4.625000 17.861000
37.900000 5.953125 17.861000
38.000000 7.171875 17.861000
38.125000 8.718750 17.861000
38.425000 10.171875 17.861000
37.850000 -1.078125 18.003000
37.850000 0.093750 18.003000
37.825000 1.109375 18.003000
37.875000 2.234375 18.003000
37.900000 3.968750 18.003000
37.925000 5.078125 18.003000
37.950000 6.187500 18.003000
38.025000 7.468750 18.003000
38.175000 9.015625 18.003000
38.450000 10.328125 18.003000
37.800000 -1.500000 18.145000
37.825000 0.031250 18.145000
37.725000 1.296875 18.145000
37.800000 2.281250 18.145000
37.900000 3.562500 18.145000
37.925000 4.796875 18.145000
37.950000 6.453125 18.145000
38.000000 7.437500 18.145000
38.150000 9.015625 18.145000
38.450000 9.859375 18.145000
38.275000 -2.453125 18.288001
37.800000 -1.359375 18.288001
37.825000 -0.312500 18.288001
37.825000 1.218750 18.288001
37.875000 2.671875 18.288001
37.875000 3.687500 18.288001
37.900000 5.109375 18.288001
37.975000 6.171875 18.288001
38.050000 7.515625 18.288001
38.175000 8.796875 18.288001
38.450000 10.015625 18.288001
38.025000 -2.906250 18.435001
37.800000 -1.218750 18.435001
37.825000 -0.015625 18.435001
37.825000 1.109375 18.435001
37.875000 2.390625 18.435001
37.875000 3.859375 18.435001
37.875000 4.890625 18.435001
37.925000 6.515625 18.435001
38.000000 7.609375 18.435001
38.150000 8.890625 18.435001
38.425000 10.250000 18.435001
37.800000 -1.250000 18.573001
37.800000 -0.218750 18.573001
37.825000 1.140625 18.573001
37.875000 2.375000 18.573001
37.875000 3.703125 18.573001
37.850000 4.828125 18.573001
37.900000 6.312500 18.573001
37.975000 7.531250 18.573001
38.125000 8.812500 18.573001
38.400000 9.953125 18.573001
37.600000 -2.187500 18.714000
37.800000 -1.093750 18.714000
37.800000 1.828125 18.714000
38.000000 2.750000 18.714000
38.000000 3.984375 18.714000
37.850000 5.312500 18.714000
38.000000 6.796875 18.714000
38.100000 7.953125 18.714000
38.275000 9.265625 18.714000
38.675000 10.546875 18.714000
37.775000 -0.546875 18.856000
37.775000 0.718750 18.856000
37.825000 1.781250 18.856000
38.200000 3.171875 18.856000
38.125000 4.453125 18.856000
37.825000 5.937500 18.856000
37.975000 7.140625 18.856000
38.175000 7.984375 18.856000
38.400000 9.515625 18.856000
39.025000 10.578125 18.856000
37.775000 -1.609375 18.998000
37.800000 -0.140625 18.998000
37.750000 0.859375 18.998000
37.775000 2.359375 18.998000
37.900000 3.468750 18.998000
37.925000 5.015625 18.998000
37.900000 6.234375 18.998000
38.000000 7.171875 18.998000
38.125000 8.578125 18.998000
38.425000 10.140625 18.998000
37.625000 -2.593750 19.143001
37.800000 -1.125000 19.143001
37.750000 0.218750 19.143001
37.800000 1.265625 19.143001
37.925000 2.437500 19.143001
37.850000 3.828125 19.143001
37.775000 5.484375 19.143001
37.925000 6.484375 19.143001
38.100000 7.765625 19.143001
38.275000 8.859375 19.143001
38.575000 10.281250 19.143001
38.000000 -3.859375 19.285000
37.725000 -2.515625 19.285000
37.750000 -0.937500 19.285000
37.750000 0.265625 19.285000
37.750000 1.765625 19.285000
37.875000 2.671875 19.285000
37.825000 3.937500 19.285000
37.750000 5.562500 19.285000
37.925000 6.500000 19.285000
38.100000 7.828125 19.285000
38.300000 9.281250 19.285000
38.675000 10.156250 19.285000
38.075000 -3.406250 19.423001
37.750000 -2.203125 19.423001
37.775000 -0.906250 19.423001
37.775000 0.296875 19.423001
37.750000 1.593750 19.423001
37.875000 3.046875 19.423001
37.800000 4.250000 19.423001
37.750000 5.625000 19.423001
38.025000 6.984375 19.423001
38.150000 8.281250 19.423001
38.300000 9.500000 19.423001
38.800000 10.687500 19.423001
37.950000 -3.500000 19.566000
37.750000 -2.218750 19.566000
37.775000 -1.140625 19.566000
37.800000 0.390625 19.566000
37.800000 1.703125 19.566000
37.850000 2.687500 19.566000
38.000000 4.000000 19.566000
37.975000 5.312500 19.566000
38.025000 6.843750 19.566000
38.175000 7.812500 19.566000
38.325000 9.171875 19.566000
38.825000 10.625000 19.566000
37.975000 -3.593750 19.710000
37.725000 -2.296875 19.710000
37.775000 -1.000000 19.710000
37.800000 0.593750 19.710000
37.775000 1.828125 19.710000
37.800000 3.078125 19.710000
38.225000 4.046875 19.710000
38.250000 5.562500 19.710000
38.025000 6.703125 19.710000
38.200000 8.015625 19.710000
38.400000 9.359375 19.710000
38.950000 10.406250 19.710000
37.800000 -1.828125 19.853000
37.875000 -0.687500 19.853000
37.875000 0.671875 19.853000
37.950000 1.796875 19.853000
37.925000 2.968750 19.853000
38.125000 4.484375 19.853000
38.225000 5.703125 19.853000
38.075000 7.281250 19.853000
38.275000 8.515625 19.853000
38.450000 9.734375 19.853000
38.025000 -2.765625 19.996002
37.700000 -1.468750 19.996002
37.875000 -0.296875 19.996002
37.850000 0.703125 19.996002
37.625000 2.140625 19.996002
37.625000 3.453125 19.996002
38.175000 4.531250 19.996002
38.400000 5.781250 19.996002
38.275000 7.390625 19.996002
38.425000 8.468750 19.996002
38.600000 10.015625 19.996002
38.025000 -2.765625 20.136000
37.725000 -1.843750 20.136000
37.900000 -0.593750 20.136000
38.000000 1.031250 20.136000
37.725000 2.234375 20.136000
37.575000 3.500000 20.136000
37.975000 4.546875 20.136000
38.225000 6.109375 20.136000
38.275000 7.171875 20.136000
38.425000 8.531250 20.136000
38.600000 9.812500 20.136000
38.675000 -4.015625 20.281001
38.025000 -2.906250 20.281001
37.875000 -1.687500 20.281001
38.000000 -0.171875 20.281001
38.500000 0.781250 20.281001
37.550000 3.843750 20.281001
37.875000 4.718750 20.281001
38.225000 5.968750 20.281001
38.375000 7.625000 20.281001
38.475000 9.031250 20.281001
38.750000 10.156250 20.281001
38.100000 -2.750000 20.421000
38.000000 -1.406250 20.421000
38.000000 -0.078125 20.421000
38.375000 1.171875 20.421000
37.600000 4.062500 20.421000
37.975000 5.375000 20.421000
38.325000 6.406250 20.421000
38.425000 7.906250 20.421000
38.550000 9.156250 20.421000
38.975000 10.125000 20.421000
38.125000 -2.609375 20.567001
38.000000 -1.250000 20.567001
37.925000 0.062500 20.567001
37.900000 1.343750 20.567001
37.725000 2.546875 20.567001
37.600000 4.093750 20.567001
38.000000 4.906250 20.567001
38.350000 6.171875 20.567001
38.425000 7.609375 20.567001
38.550000 8.734375 20.567001
38.950000 10.171875 20.567001
37.950000 -2.531250 20.707001
38.100000 -1.390625 20.707001
37.700000 0.421875 20.707001
37.325000 1.562500 20.707001
37.500000 2.734375 20.707001
37.825000 3.968750 20.707001
38.100000 5.312500 20.707001
38.400000 6.406250 20.707001
38.550000 7.765625 20.707001
38.650000 9.218750 20.707001
39.000000 10.250000 20.707001
38.100000 -3.578125 20.848001
38.050000 -2.156250 20.848001
38.150000 -0.750000 20.848001
37.950000 0.640625 20.848001
37.625000 1.703125 20.848001
37.550000 2.875000 20.848001
37.900000 4.187500 20.848001
38.200000 5.390625 20.848001
38.450000 6.671875 20.848001
38.625000 7.765625 20.848001
38.725000 9.265625 20.848001
39.325000 10.484375 20.848001
37.975000 -1.906250 20.991001
38.225000 -0.625000 20.991001
38.675000 0.359375 20.991001
37.775000 3.421875 20.991001
38.225000 4.453125 20.991001
38.850000 5.750000 20.991001
38.950000 6.984375 20.991001
38.800000 8.250000 20.991001
38.925000 9.328125 20.991001
38.425000 -3.187500 21.136000
38.100000 -1.562500 21.136000
38.125000 -0.296875 21.136000
38.475000 0.937500 21.136000
38.400000 2.484375 21.136000
38.300000 3.703125 21.136000
38.750000 4.546875 21.136000
39.225000 5.843750 21.136000
39.250000 7.562500 21.136000
38.875000 8.390625 21.136000
39.050000 9.984375 21.136000
38.675000 -2.687500 21.275000
38.225000 -1.578125 21.275000
38.000000 -0.296875 21.275000
37.650000 1.281250 21.275000
37.850000 2.562500 21.275000
38.600000 3.640625 21.275000
39.000000 4.765625 21.275000
39.325000 6.015625 21.275000
39.275000 7.656250 21.275000
38.875000 8.953125 21.275000
39.100000 9.781250 21.275000
38.025000 -2.484375 21.420001
38.325000 -1.468750 21.420001
38.000000 -0.078125 21.420001
37.625000 1.562500 21.420001
37.925000 2.515625 21.420001
38.475000 4.093750 21.420001
38.575000 5.046875 21.420001
38.875000 6.562500 21.420001
39.100000 7.750000 21.420001
38.900000 9.140625 21.420001
39.250000 10.031250 21.420001
38.225000 -3.703125 21.562001
38.250000 -2.265625 21.562001
38.375000 -0.843750 21.562001
38.475000 0.500000 21.562001
38.150000 1.703125 21.562001
39.150000 6.843750 21.562001
39.100000 8.234375 21.562001
39.025000 9.187500 21.562001
39.600000 10.296875 21.562001
38.325000 -3.250000 21.704000
38.275000 -2.062500 21.704000
38.400000 -0.593750 21.704000
38.675000 0.171875 21.704000
37.775000 3.062500 21.704000
38.325000 4.500000 21.704000
39.150000 5.375000 21.704000
39.350000 6.718750 21.704000
39.100000 8.265625 21.704000
38.225000 -1.937500 21.843000
38.375000 -0.515625 21.843000
38.950000 0.515625 21.843000
38.175000 3.437500 21.843000
38.700000 4.312500 21.843000
39.300000 5.734375 21.843000
39.400000 6.781250 21.843000
39.150000 8.281250 21.843000
39.200000 9.406250 21.843000
38.775000 -3.156250 21.984001
38.425000 -1.875000 21.984001
38.400000 -0.328125 21.984001
38.150000 1.171875 21.984001
38.025000 2.375000 21.984001
38.400000 3.437500 21.984001
39.050000 4.500000 21.984001
39.500000 6.156250 21.984001
39.325000 7.515625 21.984001
39.075000 8.734375 21.984001
39.250000 9.734375 21.984001
38.575000 -2.562500 22.126001
38.525000 -1.687500 22.126001
38.275000 0.109375 22.126001
37.975000 1.078125 22.126001
38.025000 2.265625 22.126001
38.450000 3.812500 22.126001
39.000000 5.046875 22.126001
39.300000 6.156250 22.126001
39.225000 7.484375 22.126001
39.125000 8.625000 22.126001
39.350000 9.859375 22.126001
38.650000 -3.359375 22.270000
38.600000 -2.343750 22.270000
38.475000 -1.046875 22.270000
38.850000 0.171875 22.270000
38.525000 1.593750 22.270000
39.400000 6.765625 22.270000
39.150000 7.781250 22.270000
39.200000 9.062500 22.270000
39.700000 10.687500 22.270000
38.450000 -2.015625 22.416001
38.575000 -0.421875 22.416001
38.700000 0.875000 22.416001
38.450000 2.156250 22.416001
38.200000 3.500000 22.416001
38.900000 4.390625 22.416001
39.550000 5.796875 22.416001
39.325000 7.203125 22.416001
39.025000 8.437500 22.416001
39.275000 9.609375 22.416001
38.450000 -1.937500 22.554001
38.575000 -0.484375 22.554001
38.950000 0.500000 22.554001
39.325000 6.968750 22.554001
39.100000 8.203125 22.554001
39.325000 9.468750 22.554001
38.425000 -2.015625 22.698001
38.550000 -0.484375 22.698001
38.450000 0.859375 22.698001
38.175000 2.296875 22.698001
38.200000 3.562500 22.698001
38.850000 4.359375 22.698001
39.475000 5.718750 22.698001
39.300000 7.312500 22.698001
39.000000 8.625000 22.698001
39.275000 9.578125 22.698001
38.500000 -1.984375 22.840000
38.650000 -0.562500 22.840000
38.550000 0.812500 22.840000
38.275000 2.000000 22.840000
38.225000 3.203125 22.840000
38.900000 4.531250 22.840000
39.500000 5.890625 22.840000
39.275000 7.000000 22.840000
39.000000 8.484375 22.840000
39.275000 9.750000 22.840000
38.475000 -2.156250 22.984030
38.700000 -0.765625 22.984030
39.050000 0.406250 22.984030
38.750000 2.218750 22.984030
38.425000 3.046875 22.984030
39.025000 4.359375 22.984030
39.500000 5.921875 22.984030
39.300000 6.921875 22.984030
39.025000 8.234375 22.984030
39.250000 9.390625 22.984030
38.600000 -3.203125 23.121001
38.625000 -1.984375 23.121001
38.725000 -0.687500 23.121001
38.950000 0.734375 23.121001
38.675000 2.390625 23.121001
38.575000 3.328125 23.121001
39.125000 4.828125 23.121001
39.175000 6.046875 23.121001
39.000000 7.515625 23.121001
39.025000 8.531250 23.121001
39.375000 10.015625 23.121001
39.175000 -4.046875 23.265001
38.575000 -2.765625 23.265001
38.650000 -1.671875 23.265001
38.775000 -0.343750 23.265001
38.925000 1.250000 23.265001
38.800000 2.093750 23.265001
38.850000 3.421875 23.265001
39.200000 4.687500 23.265001
39.075000 6.015625 23.265001
38.875000 7.609375 23.265001
38.975000 8.750000 23.265001
39.300000 10.125000 23.265001
38.900000 -2.640625 23.408001
38.700000 -1.484375 23.408001
38.750000 -0.125000 23.408001
38.750000 1.390625 23.408001
38.825000 2.421875 23.408001
39.125000 3.796875 23.408001
39.325000 5.156250 23.408001
39.100000 6.328125 23.408001
38.875000 7.890625 23.408001
39.000000 9.125000 23.408001
39.500000 10.093750 23.408001
39.450000 -3.437500 23.552001
39.075000 -1.906250 23.552001
38.700000 -0.750000 23.552001
38.800000 0.531250 23.552001
38.750000 1.812500 23.552001
38.800000 3.140625 23.552001
39.125000 4.218750 23.552001
39.375000 5.437500 23.552001
39.100000 6.843750 23.552001
38.950000 8.406250 23.552001
39.300000 9.234375 23.552001
38.875000 -2.890625 23.692000
38.525000 -1.890625 23.692000
38.725000 -0.640625 23.692000
38.825000 0.531250 23.692000
38.800000 1.890625 23.692000
38.950000 3.343750 23.692000
39.275000 4.421875 23.692000
39.100000 5.750000 23.692000
38.825000 7.234375 23.692000
39.050000 8.406250 23.692000
39.400000 9.578125 23.692000
38.575000 -2.953125 23.835001
38.625000 -1.328125 23.835001
38.675000 -0.265625 23.835001
38.750000 1.156250 23.835001
38.750000 2.484375 23.835001
39.075000 3.375000 23.835001
39.275000 5.015625 23.835001
39.000000 6.296875 23.835001
38.775000 7.703125 23.835001
38.950000 8.796875 23.835001
39.425000 10.062500 23.835001
38.775000 -2.265625 23.977001
38.700000 -1.437500 23.977001
38.775000 0.078125 23.977001
38.725000 1.296875 23.977001
38.750000 2.671875 23.977001
39.025000 4.140625 23.977001
39.225000 5.375000 23.977001
39.050000 6.687500 23.977001
38.825000 7.750000 23.977001
39.025000 9.296875 23.977001
39.550000 10.234375 23.977001
39.450000 -3.546875 24.119999
38.925000 -2.484375 24.119999
38.725000 -1.218750 24.119999
38.800000 0.015625 24.119999
38.750000 1.625000 24.119999
38.775000 2.984375 24.119999
39.025000 3.906250 24.119999
39.275000 5.296875 24.119999
39.075000 6.640625 24.119999
38.900000 7.812500 24.119999
39.125000 9.109375 24.119999
39.700000 10.343750 24.119999
39.325000 -3.703125 24.259000
39.100000 -2.218750 24.259000
38.775000 -0.953125 24.259000
38.825000 0.265625 24.259000
38.825000 1.437500 24.259000
38.875000 3.078125 24.259000
39.050000 4.140625 24.259000
39.450000 5.531250 24.259000
39.250000 6.750000 24.259000
38.875000 7.968750 24.259000
39.150000 9.218750 24.259000
39.875000 10.546875 24.259000
38.950000 -3.312500 24.404000
38.700000 -2.015625 24.404000
38.700000 -0.859375 24.404000
38.800000 0.687500 24.404000
38.750000 1.953125 24.404000
38.800000 3.328125 24.404000
39.100000 4.453125 24.404000
39.550000 5.656250 24.404000
39.375000 7.078125 24.404000
38.975000 8.078125 24.404000
39.200000 9.593750 24.404000
38.500000 -3.046875 24.544999
38.650000 -1.437500 24.544999
39.100000 -0.390625 24.544999
39.225000 1.093750 24.544999
38.825000 2.000000 24.544999
38.925000 3.484375 24.544999
39.250000 4.718750 24.544999
39.100000 6.156250 24.544999
38.875000 7.171875 24.544999
38.975000 8.656250 24.544999
39.350000 9.656250 24.544999
38.800000 -2.687500 24.689001
38.700000 -1.265625 24.689001
38.975000 0.265625 24.689001
38.825000 1.437500 24.689001
38.425000 2.875000 24.689001
38.875000 3.609375 24.689001
39.275000 4.906250 24.689001
39.025000 6.531250 24.689001
38.850000 8.015625 24.689001
38.975000 8.906250 24.689001
39.500000 10.078125 24.689001
38.675000 -3.375000 24.831002
38.600000 -1.843750 24.831002
38.625000 -0.937500 24.831002
38.325000 0.375000 24.831002
38.350000 1.843750 24.831002
38.400000 2.968750 24.831002
38.675000 4.281250 24.831002
39.475000 5.437500 24.831002
39.225000 7.078125 24.831002
38.850000 7.968750 24.831002
39.150000 9.343750 24.831002
38.625000 -3.359375 24.976000
38.600000 -2.328125 24.976000
38.625000 -0.750000 24.976000
38.275000 0.406250 24.976000
38.225000 1.734375 24.976000
39.000000 5.312500 24.976000
39.075000 6.796875 24.976000
38.825000 8.359375 24.976000
38.375000 -1.796875 25.121000
