38.950000 9.718750 2.646839
38.150000 -2.656250 2.774120
38.325000 -1.500000 2.774120
38.525000 -0.078125 2.774120
38.250000 1.468750 2.774120
38.900000 6.234375 2.774120
38.750000 7.906250 2.774120
38.875000 9.250000 2.774120
39.200000 10.375000 2.774120
39.050000 -3.921875 2.896361
38.850000 -2.078125 2.896361
38.350000 -0.953125 2.896361
38.450000 0.234375 2.896361
38.225000 2.000000 2.896361
38.100000 3.015625 2.896361
38.675000 4.109375 2.896361
39.000000 5.765625 2.896361
38.775000 6.656250 2.896361
38.625000 8.234375 2.896361
38.850000 9.421875 2.896361
39.650000 10.640625 2.896361
38.275000 -1.718750 3.053406
38.400000 -0.062500 3.053406
38.650000 1.156250 3.053406
38.275000 2.546875 3.053406
38.175000 3.843750 3.053406
38.800000 4.890625 3.053406
38.825000 6.171875 3.053406
38.575000 7.609375 3.053406
38.700000 9.000000 3.053406
39.150000 10.156250 3.053406
38.675000 -2.640625 3.210085
38.350000 -1.343750 3.210085
38.350000 0.296875 3.210085
38.400000 1.625000 3.210085
38.450000 2.781250 3.210085
38.750000 4.031250 3.210085
39.000000 5.484375 3.210085
38.700000 6.656250 3.210085
38.550000 8.296875 3.210085
38.850000 9.390625 3.210085
39.425000 10.734375 3.210085
39.600000 -3.656250 3.326741
38.750000 -2.328125 3.326741
38.350000 -0.671875 3.326741
38.400000 0.515625 3.326741
38.350000 1.843750 3.326741
38.400000 3.234375 3.326741
38.675000 4.484375 3.326741
38.925000 5.812500 3.326741
38.750000 7.031250 3.326741
38.625000 8.359375 3.326741
38.950000 9.828125 3.326741
39.000000 -3.281250 3.456527
38.725000 -1.812500 3.456527
38.400000 -0.578125 3.456527
38.500000 0.671875 3.456527
38.425000 2.281250 3.456527
38.600000 3.187500 3.456527
38.900000 4.718750 3.456527
38.700000 6.109375 3.456527
38.425000 7.406250 3.456527
38.675000 8.921875 3.456527
39.050000 9.968750 3.456527
38.325000 -1.515625 3.613194
38.400000 0.062500 3.613194
38.450000 1.015625 3.613194
38.450000 2.546875 3.613194
38.700000 3.718750 3.613194
38.700000 5.171875 3.613194
38.500000 6.203125 3.613194
38.500000 7.515625 3.613194
38.675000 8.984375 3.613194
39.175000 10.468750 3.613194
38.325000 -1.218750 3.743098
38.400000 0.062500 3.743098
38.450000 1.390625 3.743098
38.450000 2.640625 3.743098
38.750000 3.765625 3.743098
38.875000 5.187500 3.743098
38.600000 6.578125 3.743098
38.475000 7.515625 3.743098
38.675000 8.812500 3.743098
39.150000 10.125000 3.743098
38.450000 -2.140625 3.880009
38.350000 -1.171875 3.880009
38.450000 0.406250 3.880009
38.475000 1.421875 3.880009
38.450000 3.093750 3.880009
38.750000 4.343750 3.880009
38.975000 5.390625 3.880009
38.675000 6.984375 3.880009
38.525000 8.187500 3.880009
38.825000 9.218750 3.880009
39.375000 10.390625 3.880009
38.425000 -2.312500 4.036879
38.350000 -1.218750 4.036879
38.575000 0.390625 4.036879
38.600000 1.750000 4.036879
38.350000 2.921875 4.036879
38.625000 4.250000 4.036879
38.850000 5.687500 4.036879
38.575000 6.671875 4.036879
38.500000 8.359375 4.036879
38.800000 9.156250 4.036879
39.375000 10.484375 4.036879
38.175000 -2.531250 4.160445
38.325000 -1.203125 4.160445
38.525000 0.062500 4.160445
38.400000 1.421875 4.160445
38.150000 2.828125 4.160445
38.625000 4.125000 4.160445
38.900000 5.390625 4.160445
38.575000 6.562500 4.160445
38.500000 7.984375 4.160445
38.775000 9.500000 4.160445
39.325000 10.609375 4.160445
38.175000 -2.421875 4.317959
38.225000 -1.390625 4.317959
38.025000 0.078125 4.317959
38.175000 2.484375 4.317959
38.700000 4.234375 4.317959
38.975000 5.468750 4.317959
38.700000 6.859375 4.317959
38.500000 8.218750 4.317959
38.750000 9.234375 4.317959
39.300000 10.609375 4.317959
38.575000 -2.562500 4.468956
38.325000 -1.187500 4.468956
38.000000 0.359375 4.468956
37.775000 1.750000 4.468956
38.050000 2.937500 4.468956
38.575000 4.406250 4.468956
38.950000 5.234375 4.468956
38.775000 6.796875 4.468956
38.575000 7.953125 4.468956
38.750000 9.359375 4.468956
38.750000 -3.390625 4.595643
38.750000 -2.375000 4.595643
38.350000 -0.937500 4.595643
37.975000 0.515625 4.595643
37.750000 1.812500 4.595643
38.450000 5.500000 4.595643
38.725000 6.984375 4.595643
38.575000 8.250000 4.595643
38.875000 9.578125 4.595643
38.425000 -3.234375 4.738704
38.425000 -1.843750 4.738704
38.525000 -0.765625 4.738704
37.700000 2.000000 4.738704
38.500000 6.031250 4.738704
38.850000 7.265625 4.738704
38.725000 8.546875 4.738704
38.900000 9.625000 4.738704
38.425000 -3.281250 4.862311
38.350000 -2.156250 4.862311
38.300000 -0.703125 4.862311
37.950000 0.531250 4.862311
37.700000 2.078125 4.862311
38.575000 5.765625 4.862311
38.950000 6.937500 4.862311
38.700000 8.359375 4.862311
38.800000 9.546875 4.862311
37.925000 -1.703125 5.006204
38.300000 -0.703125 5.006204
37.975000 0.625000 5.006204
37.825000 2.062500 5.006204
38.775000 5.765625 5.006204
39.025000 7.531250 5.006204
38.750000 8.468750 5.006204
38.825000 10.046875 5.006204
38.550000 -2.812500 5.143712
38.075000 -1.421875 5.143712
38.400000 -0.109375 5.143712
37.675000 2.390625 5.143712
38.550000 4.843750 5.143712
39.225000 6.359375 5.143712
39.125000 7.671875 5.143712
38.825000 9.203125 5.143712
39.100000 10.046875 5.143712
37.900000 -2.500000 5.316712
38.125000 -1.421875 5.316712
37.700000 2.984375 5.316712
38.125000 4.234375 5.316712
38.600000 7.859375 5.316712
38.825000 9.171875 5.316712
39.200000 10.531250 5.316712
38.350000 -3.406250 5.417075
38.250000 -2.218750 5.417075
38.025000 -0.875000 5.417075
37.975000 2.984375 5.417075
38.425000 4.437500 5.417075
38.550000 5.796875 5.417075
38.875000 7.109375 5.417075
39.000000 8.500000 5.417075
38.850000 9.812500 5.417075
38.250000 -3.375000 5.599548
38.075000 -1.750000 5.599548
37.825000 -0.625000 5.599548
37.950000 3.203125 5.599548
38.325000 4.656250 5.599548
38.925000 5.921875 5.599548
39.225000 7.078125 5.599548
38.900000 8.718750 5.599548
38.800000 9.984375 5.599548
38.050000 -1.531250 5.749452
37.775000 3.421875 5.749452
38.150000 4.921875 5.749452
38.900000 5.906250 5.749452
39.100000 7.390625 5.749452
38.775000 8.500000 5.749452
38.875000 10.062500 5.749452
38.350000 -2.765625 5.913069
38.150000 -1.406250 5.913069
38.450000 0.125000 5.913069
37.425000 2.937500 5.913069
37.750000 3.859375 5.913069
38.175000 5.187500 5.913069
38.550000 6.453125 5.913069
38.775000 7.859375 5.913069
38.800000 9.218750 5.913069
39.275000 10.218750 5.913069
38.250000 -2.234375 6.014005
38.300000 -1.156250 6.014005
38.600000 0.125000 6.014005
37.450000 2.796875 6.014005
38.575000 8.281250 6.014005
38.725000 9.687500 6.014005
38.300000 -2.265625 6.110576
38.300000 -1.015625 6.110576
38.600000 0.218750 6.110576
37.475000 3.109375 6.110576
37.850000 4.468750 6.110576
38.550000 5.406250 6.110576
38.800000 6.859375 6.110576
38.725000 8.140625 6.110576
38.950000 9.812500 6.110576
38.300000 -2.062500 6.251991
38.300000 -0.796875 6.251991
38.600000 0.578125 6.251991
37.575000 3.171875 6.251991
37.975000 4.750000 6.251991
38.400000 5.968750 6.251991
38.575000 7.000000 6.251991
38.650000 8.296875 6.251991
38.950000 9.828125 6.251991
38.225000 -2.234375 6.398250
38.275000 -1.140625 6.398250
38.150000 0.218750 6.398250
37.600000 2.828125 6.398250
37.925000 4.484375 6.398250
38.325000 5.828125 6.398250
38.550000 6.734375 6.398250
38.700000 8.109375 6.398250
38.925000 9.609375 6.398250
38.100000 -2.687500 6.523668
38.200000 -1.093750 6.523668
38.175000 -0.093750 6.523668
38.275000 1.406250 6.523668
38.050000 2.562500 6.523668
37.975000 4.187500 6.523668
38.275000 5.578125 6.523668
38.400000 6.718750 6.523668
38.625000 7.859375 6.523668
38.900000 9.453125 6.523668
39.400000 10.375000 6.523668
38.325000 -2.859375 6.689315
38.325000 -1.437500 6.689315
38.275000 0.250000 6.689315
38.300000 1.218750 6.689315
38.175000 2.781250 6.689315
38.075000 3.859375 6.689315
38.300000 5.046875 6.689315
38.450000 6.734375 6.689315
38.650000 7.687500 6.689315
38.875000 9.281250 6.689315
39.375000 10.234375 6.689315
38.500000 -2.968750 6.833795
38.325000 -1.609375 6.833795
38.300000 0.031250 6.833795
38.250000 1.437500 6.833795
38.200000 2.703125 6.833795
38.350000 4.000000 6.833795
38.425000 5.281250 6.833795
38.425000 6.343750 6.833795
38.650000 7.812500 6.833795
38.800000 9.296875 6.833795
39.225000 10.187500 6.833795
38.575000 -2.578125 6.942138
38.325000 -1.562500 6.942138
38.325000 -0.171875 6.942138
38.300000 1.046875 6.942138
38.325000 2.328125 6.942138
38.525000 3.484375 6.942138
38.500000 5.109375 6.942138
38.400000 6.531250 6.942138
38.600000 7.656250 6.942138
38.800000 9.140625 6.942138
39.200000 10.109375 6.942138
38.725000 -2.734375 7.086823
38.325000 -1.406250 7.086823
38.300000 -0.250000 7.086823
38.300000 1.031250 7.086823
38.325000 2.656250 7.086823
38.500000 3.640625 7.086823
38.475000 5.265625 7.086823
38.375000 6.671875 7.086823
38.575000 8.000000 7.086823
38.775000 8.890625 7.086823
39.200000 10.406250 7.086823
38.725000 -2.750000 7.233694
38.325000 -1.218750 7.233694
38.300000 0.078125 7.233694
38.300000 1.375000 7.233694
38.300000 2.562500 7.233694
38.325000 3.859375 7.233694
38.325000 4.875000 7.233694
38.375000 6.343750 7.233694
38.550000 7.765625 7.233694
38.750000 9.062500 7.233694
39.200000 10.406250 7.233694
38.125000 -2.359375 7.377006
38.375000 -1.218750 7.377006
38.400000 0.000000 7.377006
38.375000 1.609375 7.377006
38.350000 2.859375 7.377006
38.275000 4.093750 7.377006
38.300000 5.343750 7.377006
38.425000 6.593750 7.377006
38.600000 7.765625 7.377006
38.850000 9.250000 7.377006
39.375000 10.390625 7.377006
38.350000 -1.515625 7.507358
38.350000 -0.218750 7.507358
38.325000 1.234375 7.507358
38.325000 2.421875 7.507358
38.350000 3.953125 7.507358
38.350000 4.953125 7.507358
38.375000 6.156250 7.507358
38.500000 7.703125 7.507358
38.700000 8.906250 7.507358
39.175000 10.312500 7.507358
38.500000 -1.359375 7.660923
38.450000 0.156250 7.660923
38.375000 1.234375 7.660923
38.400000 2.812500 7.660923
38.400000 3.765625 7.660923
38.350000 5.328125 7.660923
38.450000 6.468750 7.660923
38.600000 7.984375 7.660923
38.800000 9.265625 7.660923
39.350000 10.406250 7.660923
38.500000 -1.468750 7.786338
38.450000 0.218750 7.786338
38.400000 1.343750 7.786338
38.425000 2.750000 7.786338
38.425000 4.156250 7.786338
38.400000 5.140625 7.786338
38.450000 6.328125 7.786338
38.600000 7.812500 7.786338
38.800000 9.234375 7.786338
39.350000 10.484375 7.786338
38.550000 -1.343750 7.928197
38.525000 -0.453125 7.928197
38.500000 1.281250 7.928197
38.425000 2.546875 7.928197
38.375000 3.765625 7.928197
38.375000 5.265625 7.928197
38.400000 6.437500 7.928197
38.625000 7.796875 7.928197
38.800000 9.109375 7.928197
39.175000 10.359375 7.928197
38.575000 -0.609375 8.085294
38.575000 0.703125 8.085294
38.550000 2.000000 8.085294
38.725000 3.125000 8.085294
38.675000 4.437500 8.085294
38.475000 6.171875 8.085294
38.550000 7.328125 8.085294
38.650000 8.375000 8.085294
38.900000 9.843750 8.085294
38.475000 -1.984375 8.226360
38.575000 -1.000000 8.226360
38.550000 0.609375 8.226360
38.550000 1.890625 8.226360
38.850000 2.828125 8.226360
38.775000 4.625000 8.226360
38.450000 5.625000 8.226360
38.550000 7.078125 8.226360
38.700000 8.281250 8.226360
38.950000 9.562500 8.226360
38.600000 -1.109375 8.366322
38.600000 0.234375 8.366322
38.575000 1.640625 8.366322
38.700000 2.484375 8.366322
38.600000 4.218750 8.366322
38.400000 5.546875 8.366322
38.550000 6.484375 8.366322
38.725000 7.953125 8.366322
38.850000 9.000000 8.366322
39.375000 10.437500 8.366322
38.550000 -1.937500 8.570648
38.600000 -0.328125 8.570648
38.575000 0.671875 8.570648
38.575000 2.000000 8.570648
38.650000 3.625000 8.570648
38.575000 5.000000 8.570648
38.450000 6.250000 8.570648
38.650000 7.625000 8.570648
38.875000 8.609375 8.570648
39.100000 10.140625 8.570648
38.550000 -2.062500 8.675085
38.600000 -0.703125 8.675085
38.600000 0.437500 8.675085
38.575000 2.140625 8.675085
38.850000 3.203125 8.675085
38.775000 4.296875 8.675085
38.500000 6.062500 8.675085
38.600000 7.375000 8.675085
38.700000 8.312500 8.675085
38.950000 9.796875 8.675085
38.525000 -1.281250 8.810235
38.550000 0.140625 8.810235
38.575000 1.406250 8.810235
38.650000 2.546875 8.810235
38.525000 3.625000 8.810235
38.500000 5.234375 8.810235
38.600000 6.406250 8.810235
38.625000 7.500000 8.810235
38.775000 9.031250 8.810235
39.225000 10.453125 8.810235
38.575000 -2.250000 8.928188
38.625000 -1.078125 8.928188
38.575000 0.421875 8.928188
38.550000 1.468750 8.928188
38.825000 3.062500 8.928188
38.750000 4.515625 8.928188
38.450000 5.421875 8.928188
38.575000 7.015625 8.928188
38.750000 8.218750 8.928188
38.575000 -0.656250 9.051144
38.550000 0.718750 9.051144
38.550000 2.125000 9.051144
38.725000 3.203125 9.051144
38.750000 4.625000 9.051144
38.600000 5.937500 9.051144
38.675000 7.281250 9.051144
38.850000 8.656250 9.051144
39.125000 9.843750 9.051144
38.525000 -2.437500 9.182569
38.600000 -1.203125 9.182569
38.600000 0.390625 9.182569
38.575000 1.687500 9.182569
38.825000 2.703125 9.182569
38.725000 4.156250 9.182569
38.450000 5.765625 9.182569
38.575000 7.000000 9.182569
38.750000 8.078125 9.182569
38.600000 -0.578125 9.324733
38.575000 0.687500 9.324733
38.575000 2.234375 9.324733
38.725000 3.359375 9.324733
38.725000 4.859375 9.324733
38.550000 5.953125 9.324733
38.650000 7.171875 9.324733
38.850000 8.812500 9.324733
39.175000 9.984375 9.324733
38.550000 -2.265625 9.485516
38.575000 -0.875000 9.485516
38.550000 0.375000 9.485516
38.550000 1.828125 9.485516
38.800000 2.859375 9.485516
38.750000 4.421875 9.485516
38.475000 5.734375 9.485516
38.600000 7.031250 9.485516
38.725000 8.359375 9.485516
38.950000 9.328125 9.485516
38.500000 -1.921875 9.619076
38.525000 -0.281250 9.619076
38.500000 1.031250 9.619076
38.550000 2.046875 9.619076
38.700000 3.281250 9.619076
38.675000 4.734375 9.619076
38.525000 6.359375 9.619076
38.650000 7.390625 9.619076
38.850000 8.578125 9.619076
39.150000 10.187500 9.619076
38.575000 -1.375000 9.754125
38.575000 0.093750 9.754125
38.575000 1.468750 9.754125
38.675000 2.484375 9.754125
38.575000 4.078125 9.754125
38.400000 5.390625 9.754125
38.550000 6.765625 9.754125
38.725000 8.062500 9.754125
38.875000 9.156250 9.754125
39.400000 10.312500 9.754125
38.350000 -2.343750 9.878735
38.575000 -1.171875 9.878735
38.550000 0.093750 9.878735
38.550000 1.593750 9.878735
38.675000 3.078125 9.878735
38.575000 4.421875 9.878735
38.450000 5.406250 9.878735
38.600000 6.640625 9.878735
38.775000 8.234375 9.878735
38.525000 -2.312500 10.021425
38.550000 -0.890625 10.021425
38.525000 0.546875 10.021425
38.525000 1.968750 10.021425
38.675000 3.062500 10.021425
38.600000 4.218750 10.021425
38.475000 5.671875 10.021425
38.600000 6.750000 10.021425
38.750000 8.437500 10.021425
38.975000 9.812500 10.021425
38.375000 -1.640625 10.162871
38.475000 -0.171875 10.162871
38.475000 0.828125 10.162871
38.550000 2.015625 10.162871
38.800000 3.500000 10.162871
38.750000 4.843750 10.162871
38.525000 6.093750 10.162871
38.650000 7.593750 10.162871
38.850000 8.875000 10.162871
39.175000 9.828125 10.162871
38.525000 -2.500000 10.295924
38.425000 -1.578125 10.295924
38.450000 -0.140625 10.295924
38.450000 1.218750 10.295924
38.525000 2.281250 10.295924
38.775000 3.671875 10.295924
38.725000 5.250000 10.295924
38.575000 6.359375 10.295924
38.775000 7.843750 10.295924
38.950000 9.187500 10.295924
39.275000 10.265625 10.295924
38.525000 -2.593750 10.447898
38.400000 -1.328125 10.447898
38.500000 0.187500 10.447898
38.525000 1.203125 10.447898
38.525000 2.656250 10.447898
38.750000 4.000000 10.447898
38.700000 5.343750 10.447898
38.500000 6.546875 10.447898
38.700000 8.062500 10.447898
38.900000 9.046875 10.447898
39.375000 10.234375 10.447898
38.325000 -2.562500 10.576119
38.425000 -1.109375 10.576119
38.550000 0.328125 10.576119
38.475000 1.625000 10.576119
38.400000 2.671875 10.576119
38.625000 3.890625 10.576119
38.675000 5.484375 10.576119
38.600000 6.640625 10.576119
38.775000 8.203125 10.576119
39.000000 9.218750 10.576119
38.300000 -2.156250 10.717151
38.525000 -1.156250 10.717151
38.550000 0.171875 10.717151
38.650000 1.765625 10.717151
38.475000 3.109375 10.717151
38.425000 4.109375 10.717151
38.575000 5.734375 10.717151
38.600000 6.921875 10.717151
38.775000 8.109375 10.717151
38.975000 9.453125 10.717151
38.575000 -3.375000 10.858056
38.325000 -1.906250 10.858056
38.425000 -0.625000 10.858056
38.375000 0.421875 10.858056
38.200000 2.125000 10.858056
38.150000 3.281250 10.858056
38.300000 4.453125 10.858056
38.500000 6.015625 10.858056
38.600000 7.312500 10.858056
38.750000 8.171875 10.858056
39.000000 9.453125 10.858056
38.425000 -1.734375 11.013602
38.425000 -0.437500 11.013602
38.250000 0.875000 11.013602
37.975000 2.187500 11.013602
37.950000 3.453125 11.013602
38.375000 4.515625 11.013602
38.575000 5.890625 11.013602
38.675000 7.312500 11.013602
38.850000 8.796875 11.013602
39.125000 9.687500 11.013602
38.550000 -3.390625 11.149178
38.300000 -1.796875 11.149178
38.425000 -0.437500 11.149178
38.225000 0.625000 11.149178
37.775000 2.218750 11.149178
37.825000 3.187500 11.149178
38.225000 4.703125 11.149178
38.500000 6.078125 11.149178
38.600000 7.234375 11.149178
38.725000 8.671875 11.149178
38.975000 9.625000 11.149178
38.175000 -2.234375 11.275715
38.400000 -0.859375 11.275715
38.100000 0.390625 11.275715
37.725000 3.171875 11.275715
38.050000 4.203125 11.275715
38.800000 5.406250 11.275715
39.025000 6.734375 11.275715
38.775000 8.343750 11.275715
38.500000 -2.500000 11.453373
38.425000 -1.453125 11.453373
38.375000 -0.078125 11.453373
38.100000 1.453125 11.453373
37.900000 2.968750 11.453373
37.950000 4.078125 11.453373
38.275000 5.312500 11.453373
38.525000 6.375000 11.453373
38.700000 7.640625 11.453373
38.875000 9.078125 11.453373
39.375000 10.296875 11.453373
38.625000 -2.703125 11.559166
38.375000 -1.578125 11.559166
38.300000 -0.171875 11.559166
38.100000 1.578125 11.559166
37.925000 2.796875 11.559166
37.975000 3.828125 11.559166
38.175000 5.406250 11.559166
38.425000 6.703125 11.559166
38.700000 8.000000 11.559166
38.925000 9.281250 11.559166
39.375000 10.140625 11.559166
38.575000 -2.468750 11.734391
38.300000 -1.625000 11.734391
38.025000 0.031250 11.734391
37.875000 2.437500 11.734391
38.075000 3.890625 11.734391
38.300000 5.031250 11.734391
38.550000 6.328125 11.734391
38.700000 7.906250 11.734391
38.900000 8.906250 11.734391
39.375000 10.234375 11.734391
38.550000 -2.984375 11.824768
38.275000 -1.296875 11.824768
38.125000 0.031250 11.824768
37.850000 1.484375 11.824768
37.900000 2.703125 11.824768
38.050000 3.812500 11.824768
38.500000 5.203125 11.824768
38.775000 6.359375 11.824768
38.750000 7.453125 11.824768
38.900000 8.984375 11.824768
39.225000 10.437500 11.824768
38.175000 -1.828125 11.977141
38.200000 2.046875 11.977141
38.300000 3.609375 11.977141
38.700000 7.671875 11.977141
38.850000 8.812500 11.977141
39.175000 9.890625 11.977141
38.175000 -1.500000 12.118165
38.175000 2.328125 12.118165
38.425000 3.562500 12.118165
38.850000 7.593750 12.118165
38.850000 8.875000 12.118165
39.150000 10.156250 12.118165
38.375000 -2.906250 12.261184
38.250000 -1.312500 12.261184
38.200000 -0.281250 12.261184
37.925000 1.359375 12.261184
37.975000 2.171875 12.261184
38.575000 3.718750 12.261184
38.950000 7.328125 12.261184
38.925000 8.859375 12.261184
39.150000 10.000000 12.261184
38.500000 -2.562500 12.404123
38.250000 -1.390625 12.404123
38.125000 0.015625 12.404123
37.725000 1.156250 12.404123
37.875000 2.390625 12.404123
38.475000 3.750000 12.404123
38.925000 5.250000 12.404123
39.550000 6.062500 12.404123
38.900000 8.828125 12.404123
39.250000 10.453125 12.404123
38.075000 -2.468750 12.543044
38.250000 -0.953125 12.543044
38.025000 0.203125 12.543044
37.675000 1.437500 12.543044
39.000000 9.453125 12.543044
39.475000 10.750000 12.543044
38.225000 -2.406250 12.677956
38.325000 -1.171875 12.677956
38.325000 0.312500 12.677956
37.950000 1.718750 12.677956
39.050000 6.921875 12.677956
39.175000 8.140625 12.677956
38.250000 -3.421875 12.808578
38.250000 -2.250000 12.808578
38.350000 -0.890625 12.808578
38.650000 0.437500 12.808578
37.900000 2.890625 12.808578
38.375000 4.390625 12.808578
39.000000 5.671875 12.808578
39.200000 6.843750 12.808578
38.950000 8.453125 12.808578
38.975000 9.593750 12.808578
38.275000 -3.265625 12.949636
38.125000 -1.781250 12.949636
38.050000 2.015625 12.949636
38.075000 3.187500 12.949636
38.675000 4.734375 12.949636
39.200000 5.812500 12.949636
39.150000 7.265625 12.949636
38.925000 8.546875 12.949636
39.025000 10.062500 12.949636
38.425000 -2.890625 13.091099
38.300000 -1.468750 13.091099
38.175000 -0.078125 13.091099
37.850000 2.562500 13.091099
38.225000 3.781250 13.091099
38.850000 5.140625 13.091099
39.200000 6.031250 13.091099
39.050000 7.718750 13.091099
38.900000 8.890625 13.091099
39.100000 10.078125 13.091099
39.250000 -3.921875 13.252691
38.550000 -2.515625 13.252691
38.325000 -1.015625 13.252691
38.425000 -0.015625 13.252691
38.125000 1.562500 13.252691
37.825000 2.671875 13.252691
38.375000 3.921875 13.252691
39.150000 5.296875 13.252691
39.075000 6.953125 13.252691
38.675000 7.875000 13.252691
38.825000 9.406250 13.252691
39.475000 10.531250 13.252691
38.700000 -3.359375 13.379281
38.575000 -1.890625 13.379281
38.325000 -0.703125 13.379281
38.450000 0.781250 13.379281
38.150000 2.156250 13.379281
39.025000 7.015625 13.379281
38.725000 8.359375 13.379281
38.950000 10.015625 13.379281
39.000000 -3.640625 13.508859
38.825000 -2.234375 13.508859
38.350000 -1.015625 13.508859
38.625000 0.703125 13.508859
38.350000 2.031250 13.508859
37.950000 3.265625 13.508859
38.575000 4.609375 13.508859
39.175000 5.562500 13.508859
38.925000 7.328125 13.508859
38.650000 8.500000 13.508859
38.950000 9.515625 13.508859
39.150000 -3.625000 13.663634
38.825000 -2.156250 13.663634
38.350000 -0.796875 13.663634
38.600000 0.750000 13.663634
38.425000 2.109375 13.663634
38.275000 3.296875 13.663634
38.800000 4.234375 13.663634
39.150000 5.906250 13.663634
38.900000 7.375000 13.663634
38.650000 8.234375 13.663634
38.925000 9.546875 13.663634
39.600000 -3.562500 13.796554
38.800000 -2.015625 13.796554
38.350000 -0.562500 13.796554
38.375000 0.640625 13.796554
38.325000 1.640625 13.796554
38.400000 2.984375 13.796554
38.800000 4.343750 13.796554
39.125000 5.921875 13.796554
38.875000 7.015625 13.796554
38.625000 8.468750 13.796554
38.925000 9.875000 13.796554
39.200000 -3.281250 13.929332
38.775000 -2.031250 13.929332
38.350000 -0.734375 13.929332
38.375000 0.828125 13.929332
38.300000 2.031250 13.929332
38.375000 2.984375 13.929332
38.775000 4.656250 13.929332
39.025000 5.781250 13.929332
38.775000 7.171875 13.929332
38.700000 8.437500 13.929332
39.000000 9.593750 13.929332
39.200000 -3.328125 14.062151
38.775000 -1.828125 14.062151
38.350000 -0.703125 14.062151
38.375000 0.812500 14.062151
38.325000 1.812500 14.062151
38.475000 3.250000 14.062151
38.850000 4.453125 14.062151
39.025000 5.765625 14.062151
38.675000 7.328125 14.062151
38.500000 8.593750 14.062151
38.875000 9.812500 14.062151
39.175000 -3.390625 14.218857
38.875000 -1.843750 14.218857
38.350000 -0.562500 14.218857
38.400000 0.562500 14.218857
38.350000 2.140625 14.218857
38.475000 3.093750 14.218857
38.825000 4.421875 14.218857
39.100000 5.875000 14.218857
38.800000 6.984375 14.218857
38.525000 8.453125 14.218857
38.875000 9.640625 14.218857
38.725000 -2.046875 14.353810
38.375000 -0.531250 14.353810
38.400000 0.609375 14.353810
38.350000 1.875000 14.353810
38.425000 3.375000 14.353810
38.700000 4.265625 14.353810
39.175000 5.859375 14.353810
38.900000 7.078125 14.353810
38.575000 8.296875 14.353810
38.950000 9.437500 14.353810
38.500000 -1.921875 14.501828
38.350000 -0.578125 14.501828
38.400000 0.843750 14.501828
38.425000 2.062500 14.501828
38.550000 3.343750 14.501828
38.800000 4.437500 14.501828
39.150000 5.859375 14.501828
38.875000 7.046875 14.501828
38.525000 8.609375 14.501828
38.875000 9.953125 14.501828
38.150000 -2.046875 14.647487
38.325000 -0.359375 14.647487
38.250000 0.718750 14.647487
38.275000 1.984375 14.647487
38.400000 3.390625 14.647487
38.700000 4.437500 14.647487
39.175000 6.015625 14.647487
38.950000 7.312500 14.647487
38.600000 8.703125 14.647487
38.875000 10.187500 14.647487
38.250000 -1.500000 14.785967
38.500000 -0.234375 14.785967
38.250000 0.906250 14.785967
38.050000 2.484375 14.785967
38.275000 3.437500 14.785967
38.625000 4.937500 14.785967
38.975000 6.265625 14.785967
38.825000 7.390625 14.785967
38.600000 8.718750 14.785967
38.975000 10.062500 14.785967
38.275000 -2.890625 14.916010
38.275000 -1.515625 14.916010
38.600000 -0.406250 14.916010
38.350000 0.968750 14.916010
38.000000 2.296875 14.916010
38.400000 3.734375 14.916010
38.800000 5.000000 14.916010
38.775000 6.281250 14.916010
38.550000 7.546875 14.916010
38.625000 8.859375 14.916010
39.100000 10.171875 14.916010
38.375000 -2.593750 15.044016
38.225000 -1.218750 15.044016
37.900000 0.515625 15.044016
37.700000 1.328125 15.044016
38.100000 2.781250 15.044016
38.625000 4.296875 15.044016
39.000000 5.218750 15.044016
38.925000 6.906250 15.044016
38.625000 8.203125 15.044016
38.775000 9.328125 15.044016
39.325000 10.781250 15.044016
38.650000 -3.484375 15.187025
38.550000 -2.078125 15.187025
38.375000 -0.531250 15.187025
38.100000 0.500000 15.187025
37.775000 1.734375 15.187025
38.500000 5.656250 15.187025
38.775000 7.125000 15.187025
38.600000 8.187500 15.187025
38.850000 9.671875 15.187025
37.825000 -1.703125 15.345779
38.450000 -0.625000 15.345779
37.800000 2.234375 15.345779
39.000000 7.484375 15.345779
38.625000 8.937500 15.345779
38.825000 10.312500 15.345779
38.100000 -2.625000 15.479253
38.050000 -1.468750 15.479253
37.850000 2.687500 15.479253
38.500000 4.984375 15.479253
38.975000 6.328125 15.479253
38.900000 7.859375 15.479253
38.750000 9.250000 15.479253
39.100000 10.468750 15.479253
37.975000 -2.453125 15.603622
38.100000 -1.156250 15.603622
37.725000 2.921875 15.603622
38.175000 4.218750 15.603622
38.500000 5.125000 15.603622
38.950000 6.625000 15.603622
39.000000 7.734375 15.603622
38.775000 9.046875 15.603622
39.100000 10.437500 15.603622
38.325000 -2.093750 15.754735
38.050000 -0.593750 15.754735
37.650000 1.859375 15.754735
37.825000 2.875000 15.754735
38.175000 4.421875 15.754735
38.725000 5.578125 15.754735
38.975000 6.687500 15.754735
38.925000 8.312500 15.754735
38.825000 9.656250 15.754735
38.450000 -3.609375 15.877915
38.325000 -2.093750 15.877915
38.025000 -1.046875 15.877915
37.600000 0.703125 15.877915
37.525000 1.640625 15.877915
38.075000 2.968750 15.877915
38.425000 4.484375 15.877915
38.550000 5.468750 15.877915
38.800000 7.125000 15.877915
38.950000 8.281250 15.877915
38.825000 9.390625 15.877915
38.175000 -2.578125 16.028615
38.175000 -1.187500 16.028615
37.700000 2.656250 16.028615
38.175000 3.921875 16.028615
38.675000 7.859375 16.028615
38.925000 9.515625 16.028615
38.050000 -2.671875 16.163957
38.225000 -1.296875 16.163957
38.675000 -0.078125 16.163957
38.400000 5.328125 16.163957
38.925000 6.656250 16.163957
38.975000 7.734375 16.163957
38.750000 9.421875 16.163957
39.100000 10.312500 16.163957
38.450000 -2.562500 16.297478
38.225000 -1.140625 16.297478
38.400000 0.109375 16.297478
37.400000 2.593750 16.297478
37.750000 3.890625 16.297478
38.200000 5.281250 16.297478
38.700000 6.515625 16.297478
38.775000 7.750000 16.297478
38.625000 9.046875 16.297478
39.075000 10.421875 16.297478
38.525000 -2.828125 16.455016
38.250000 -1.281250 16.455016
38.200000 -0.203125 16.455016
37.450000 2.390625 16.455016
37.775000 3.640625 16.455016
38.075000 5.078125 16.455016
38.500000 6.203125 16.455016
38.700000 7.750000 16.455016
38.650000 9.031250 16.455016
39.075000 10.078125 16.455016
38.050000 -2.578125 16.655165
38.250000 -0.937500 16.655165
38.425000 -0.078125 16.655165
37.425000 2.687500 16.655165
37.800000 3.937500 16.655165
38.525000 5.406250 16.655165
38.800000 6.796875 16.655165
38.700000 7.812500 16.655165
38.050000 -2.656250 16.786602
38.250000 -1.125000 16.786602
38.200000 0.140625 16.786602
37.425000 2.812500 16.786602
37.800000 3.921875 16.786602
38.525000 5.390625 16.786602
38.800000 6.656250 16.786602
38.650000 8.000000 16.786602
38.825000 9.171875 16.786602
38.125000 -2.296875 16.876194
38.125000 -1.125000 16.876194
38.125000 0.140625 16.876194
37.550000 2.968750 16.876194
37.900000 4.343750 16.876194
38.375000 5.546875 16.876194
38.600000 6.703125 16.876194
38.650000 8.187500 16.876194
38.125000 -2.234375 17.033833
38.225000 -0.765625 17.033833
38.175000 0.578125 17.033833
37.525000 2.843750 17.033833
37.900000 4.390625 17.033833
38.350000 5.375000 17.033833
38.575000 6.828125 17.033833
38.625000 8.312500 17.033833
38.050000 -2.640625 17.141600
38.250000 -1.171875 17.141600
38.250000 0.062500 17.141600
38.325000 1.359375 17.141600
38.125000 2.859375 17.141600
38.025000 3.828125 17.141600
38.325000 5.296875 17.141600
38.500000 6.812500 17.141600
38.650000 8.171875 17.141600
38.850000 9.062500 17.141600
39.375000 10.296875 17.141600
38.075000 -2.437500 17.290831
38.250000 -1.250000 17.290831
38.250000 0.359375 17.290831
38.325000 1.296875 17.290831
38.200000 2.609375 17.290831
38.200000 4.140625 17.290831
38.425000 5.578125 17.290831
38.475000 6.765625 17.290831
38.650000 7.921875 17.290831
38.825000 9.375000 17.290831
39.425000 10.468750 17.290831
38.225000 -2.781250 17.412804
38.225000 -1.375000 17.412804
38.225000 0.265625 17.412804
38.200000 1.468750 17.412804
38.175000 2.437500 17.412804
38.350000 3.906250 17.412804
38.475000 5.328125 17.412804
38.450000 6.453125 17.412804
38.575000 7.843750 17.412804
38.775000 8.968750 17.412804
39.350000 10.187500 17.412804
38.225000 -1.562500 17.556351
38.325000 -0.218750 17.556351
38.325000 1.046875 17.556351
38.300000 2.328125 17.556351
38.500000 3.375000 17.556351
38.525000 5.015625 17.556351
38.425000 5.921875 17.556351
38.525000 7.343750 17.556351
38.675000 8.859375 17.556351
39.100000 9.968750 17.556351
38.375000 -2.140625 17.722796
38.375000 -0.968750 17.722796
38.350000 0.546875 17.722796
38.300000 1.828125 17.722796
38.425000 3.093750 17.722796
38.425000 4.203125 17.722796
38.375000 5.578125 17.722796
38.500000 7.187500 17.722796
38.700000 8.515625 17.722796
38.950000 9.406250 17.722796
38.325000 -2.468750 17.869619
38.350000 -1.265625 17.869619
38.275000 0.484375 17.869619
38.275000 1.781250 17.869619
38.350000 2.890625 17.869619
38.300000 3.953125 17.869619
38.275000 5.375000 17.869619
38.475000 6.921875 17.869619
38.625000 8.125000 17.869619
38.550000 -2.718750 17.993827
38.425000 -1.546875 17.993827
38.425000 -0.031250 17.993827
38.375000 1.140625 17.993827
38.350000 2.421875 17.993827
38.400000 3.546875 17.993827
38.350000 5.296875 17.993827
38.400000 6.250000 17.993827
38.600000 7.515625 17.993827
38.750000 9.156250 17.993827
39.150000 10.343750 17.993827
38.425000 -1.531250 18.132966
38.450000 -0.312500 18.132966
38.400000 1.125000 18.132966
38.325000 2.453125 18.132966
38.475000 3.609375 18.132966
38.500000 4.781250 18.132966
38.400000 6.062500 18.132966
38.525000 7.562500 18.132966
38.725000 8.906250 18.132966
39.100000 10.187500 18.132966
38.525000 -2.343750 18.273669
38.525000 -1.218750 18.273669
38.425000 0.437500 18.273669
38.400000 1.875000 18.273669
38.575000 3.171875 18.273669
38.450000 4.281250 18.273669
38.375000 5.359375 18.273669
38.550000 6.750000 18.273669
38.625000 8.046875 18.273669
38.475000 -0.343750 18.394007
38.425000 1.000000 18.394007
38.400000 2.000000 18.394007
38.500000 3.359375 18.394007
38.525000 4.812500 18.394007
38.475000 5.937500 18.394007
38.575000 7.468750 18.394007
38.700000 8.531250 18.394007
39.050000 9.843750 18.394007
38.550000 -1.421875 18.540666
38.550000 0.000000 18.540666
38.575000 1.171875 18.540666
38.575000 2.828125 18.540666
38.525000 3.687500 18.540666
38.475000 5.328125 18.540666
38.500000 6.546875 18.540666
38.600000 7.796875 18.540666
38.825000 9.218750 18.540666
39.275000 10.531250 18.540666
38.475000 -2.156250 18.683244
38.575000 -0.921875 18.683244
38.575000 0.421875 18.683244
38.550000 2.031250 18.683244
38.800000 3.250000 18.683244
38.750000 4.437500 18.683244
38.525000 5.546875 18.683244
38.600000 7.296875 18.683244
38.700000 8.453125 18.683244
38.950000 9.812500 18.683244
38.575000 -1.421875 18.822544
38.575000 0.046875 18.822544
38.575000 1.562500 18.822544
38.650000 2.437500 18.822544
38.625000 3.906250 18.822544
38.475000 5.156250 18.822544
38.475000 6.406250 18.822544
38.650000 7.703125 18.822544
38.850000 9.421875 18.822544
39.350000 10.546875 18.822544
38.500000 -1.578125 18.957852
38.525000 -0.515625 18.957852
38.525000 1.171875 18.957852
38.575000 2.265625 18.957852
38.600000 3.593750 18.957852
38.500000 5.078125 18.957852
38.425000 5.968750 18.957852
38.675000 7.218750 18.957852
38.850000 8.640625 18.957852
39.100000 9.875000 18.957852
38.800000 -2.468750 19.110527
38.525000 -0.796875 19.110527
38.550000 0.156250 19.110527
38.525000 1.687500 19.110527
38.725000 2.671875 19.110527
38.675000 4.421875 19.110527
38.475000 5.484375 19.110527
38.575000 7.046875 19.110527
38.650000 8.250000 19.110527
38.600000 -1.640625 19.241157
38.600000 -0.218750 19.241157
38.625000 0.953125 19.241157
38.600000 2.453125 19.241157
38.525000 4.109375 19.241157
38.475000 5.281250 19.241157
38.525000 6.484375 19.241157
38.625000 7.859375 19.241157
38.825000 9.218750 19.241157
39.375000 10.500000 19.241157
38.525000 -1.734375 19.377570
38.550000 -0.078125 19.377570
38.525000 1.078125 19.377570
38.600000 2.218750 19.377570
38.575000 3.671875 19.377570
38.575000 4.875000 19.377570
38.625000 6.093750 19.377570
38.725000 7.375000 19.377570
38.850000 8.671875 19.377570
39.175000 9.968750 19.377570
38.475000 -1.875000 19.534260
38.600000 -0.546875 19.534260
38.550000 0.421875 19.534260
38.625000 1.968750 19.534260
38.925000 3.296875 19.534260
38.775000 4.500000 19.534260
38.525000 5.890625 19.534260
38.675000 6.937500 19.534260
38.825000 8.359375 19.534260
39.000000 9.625000 19.534260
38.475000 -1.875000 19.659827
38.600000 -0.718750 19.659827
38.550000 0.390625 19.659827
38.525000 1.640625 19.659827
38.900000 3.171875 19.659827
38.800000 4.609375 19.659827
38.475000 5.890625 19.659827
38.625000 7.250000 19.659827
38.725000 8.265625 19.659827
38.975000 9.750000 19.659827
38.600000 -1.000000 19.803573
38.575000 0.078125 19.803573
38.550000 1.203125 19.803573
38.650000 2.437500 19.803573
38.625000 4.031250 19.803573
38.525000 5.125000 19.803573
38.575000 6.718750 19.803573
38.675000 8.078125 19.803573
38.875000 9.343750 19.803573
39.350000 10.296875 19.803573
38.500000 -1.484375 19.938635
38.550000 -0.546875 19.938635
38.525000 1.234375 19.938635
38.550000 2.468750 19.938635
38.600000 3.328125 19.938635
38.625000 5.062500 19.938635
38.575000 6.359375 19.938635
38.700000 7.281250 19.938635
38.875000 8.953125 19.938635
39.125000 10.125000 19.938635
38.575000 -0.625000 20.086922
38.525000 0.562500 20.086922
38.600000 1.734375 20.086922
38.925000 3.093750 20.086922
38.775000 4.781250 20.086922
38.525000 5.984375 20.086922
38.675000 7.375000 20.086922
38.825000 8.515625 20.086922
39.025000 9.812500 20.086922
38.325000 -2.250000 20.230057
38.575000 -1.234375 20.230057
38.575000 0.390625 20.230057
38.550000 1.734375 20.230057
38.650000 2.640625 20.230057
38.575000 4.015625 20.230057
38.450000 5.421875 20.230057
38.550000 6.718750 20.230057
38.750000 7.875000 20.230057
38.950000 9.437500 20.230057
38.475000 -0.250000 20.359377
38.425000 0.937500 20.359377
38.525000 1.937500 20.359377
38.775000 3.500000 20.359377
38.675000 4.562500 20.359377
38.475000 6.046875 20.359377
38.700000 7.515625 20.359377
38.825000 8.453125 20.359377
39.075000 9.906250 20.359377
38.300000 -2.484375 20.503744
38.500000 -0.859375 20.503744
38.525000 0.156250 20.503744
38.525000 1.859375 20.503744
38.625000 2.968750 20.503744
38.550000 4.140625 20.503744
38.425000 5.500000 20.503744
38.550000 6.671875 20.503744
38.775000 7.984375 20.503744
38.450000 -1.984375 20.643747
38.525000 -0.703125 20.643747
38.500000 0.578125 20.643747
38.500000 2.000000 20.643747
38.700000 3.421875 20.643747
38.625000 4.437500 20.643747
38.500000 5.781250 20.643747
38.650000 7.109375 20.643747
38.825000 8.468750 20.643747
39.050000 9.609375 20.643747
38.550000 -2.750000 20.790962
38.450000 -1.609375 20.790962
38.500000 0.031250 20.790962
38.450000 1.328125 20.790962
38.525000 2.578125 20.790962
38.775000 3.828125 20.790962
38.700000 5.203125 20.790962
38.525000 6.562500 20.790962
38.725000 7.656250 20.790962
38.875000 8.781250 20.790962
39.200000 9.984375 20.790962
38.375000 -2.218750 20.923998
38.475000 -0.812500 20.923998
38.400000 0.578125 20.923998
38.400000 1.968750 20.923998
38.500000 3.031250 20.923998
38.450000 4.140625 20.923998
38.425000 5.625000 20.923998
38.550000 6.843750 20.923998
38.725000 8.406250 20.923998
39.000000 9.406250 20.923998
38.525000 -2.890625 21.063284
38.350000 -1.765625 21.063284
38.500000 -0.468750 21.063284
38.500000 0.890625 21.063284
38.550000 2.265625 21.063284
38.600000 3.390625 21.063284
38.600000 4.812500 21.063284
38.575000 6.296875 21.063284
38.700000 7.468750 21.063284
38.875000 9.062500 21.063284
39.150000 10.218750 21.063284
38.350000 -2.328125 21.190975
38.450000 -1.000000 21.190975
38.400000 0.562500 21.190975
38.425000 1.828125 21.190975
38.400000 3.015625 21.190975
38.675000 4.421875 21.190975
38.775000 5.625000 21.190975
38.575000 7.093750 21.190975
38.725000 8.156250 21.190975
39.000000 9.765625 21.190975
38.475000 -2.515625 21.350984
38.375000 -1.281250 21.350984
38.475000 0.140625 21.350984
38.425000 1.140625 21.350984
38.275000 2.343750 21.350984
38.250000 3.890625 21.350984
38.375000 4.953125 21.350984
38.525000 6.312500 21.350984
38.650000 7.953125 21.350984
38.825000 9.000000 21.350984
39.350000 10.359375 21.350984
38.375000 -1.609375 21.472118
38.350000 -0.734375 21.472118
38.225000 0.890625 21.472118
37.950000 2.234375 21.472118
38.000000 3.671875 21.472118
38.500000 4.812500 21.472118
38.700000 5.968750 21.472118
38.650000 7.250000 21.472118
38.775000 8.406250 21.472118
39.075000 9.687500 21.472118
38.550000 -3.093750 21.613156
38.300000 -1.750000 21.613156
38.400000 -0.375000 21.613156
38.275000 0.859375 21.613156
37.900000 2.171875 21.613156
37.950000 3.109375 21.613156
38.275000 4.500000 21.613156
38.500000 5.750000 21.613156
38.650000 6.984375 21.613156
38.825000 8.437500 21.613156
39.100000 10.015625 21.613156
38.250000 -2.234375 21.782801
38.375000 -0.968750 21.782801
38.100000 0.640625 21.782801
37.700000 1.640625 21.782801
37.800000 3.046875 21.782801
38.175000 4.500000 21.782801
38.450000 5.453125 21.782801
38.650000 7.015625 21.782801
38.800000 8.015625 21.782801
39.000000 9.703125 21.782801
38.425000 -2.453125 21.920290
38.400000 -1.218750 21.920290
38.325000 0.328125 21.920290
38.025000 1.312500 21.920290
37.875000 2.890625 21.920290
38.000000 3.953125 21.920290
38.650000 5.218750 21.920290
38.950000 6.562500 21.920290
38.825000 8.062500 21.920290
38.925000 9.078125 21.920290
39.550000 10.640625 21.920290
38.475000 -2.750000 22.063656
38.325000 -1.421875 22.063656
38.400000 -0.187500 22.063656
38.300000 1.265625 22.063656
38.000000 2.906250 22.063656
37.975000 4.093750 22.063656
38.325000 5.156250 22.063656
38.550000 6.781250 22.063656
38.650000 7.875000 22.063656
38.825000 9.359375 22.063656
39.350000 10.343750 22.063656
38.600000 -2.578125 22.198209
38.325000 -1.296875 22.198209
38.200000 -0.312500 22.198209
38.075000 1.359375 22.198209
38.000000 2.656250 22.198209
38.025000 4.062500 22.198209
38.275000 4.875000 22.198209
38.525000 6.203125 22.198209
38.650000 7.671875 22.198209
38.850000 9.265625 22.198209
39.325000 10.093750 22.198209
38.425000 -2.968750 22.312910
38.200000 -1.812500 22.312910
38.150000 2.296875 22.312910
38.050000 3.859375 22.312910
38.450000 4.890625 22.312910
38.775000 6.125000 22.312910
38.800000 7.546875 22.312910
38.875000 8.687500 22.312910
39.150000 10.343750 22.312910
38.400000 -2.843750 22.463494
38.175000 -1.671875 22.463494
38.150000 2.328125 22.463494
38.075000 3.812500 22.463494
38.475000 5.109375 22.463494
39.100000 5.937500 22.463494
39.125000 7.750000 22.463494
38.875000 8.765625 22.463494
39.175000 10.000000 22.463494
38.450000 -3.156250 22.612127
38.275000 -1.843750 22.612127
38.050000 2.109375 22.612127
38.075000 3.296875 22.612127
38.525000 4.812500 22.612127
39.250000 5.609375 22.612127
39.300000 7.140625 22.612127
38.850000 8.515625 22.612127
39.050000 9.812500 22.612127
38.325000 -1.187500 22.745555
38.025000 0.281250 22.745555
37.675000 1.343750 22.745555
38.825000 6.843750 22.745555
39.025000 7.765625 22.745555
38.900000 9.375000 22.745555
39.525000 10.375000 22.745555
38.575000 -2.875000 22.863448
38.325000 -1.390625 22.863448
38.025000 0.109375 22.863448
37.650000 1.375000 22.863448
37.925000 2.281250 22.863448
38.650000 3.843750 22.863448
39.025000 5.093750 22.863448
39.400000 6.187500 22.863448
39.350000 7.546875 22.863448
38.950000 8.953125 22.863448
39.250000 10.296875 22.863448
38.300000 -3.203125 23.008737
38.250000 -1.921875 23.008737
38.375000 -0.843750 23.008737
38.625000 0.328125 23.008737
38.250000 1.843750 23.008737
39.325000 6.765625 23.008737
39.150000 8.281250 23.008737
39.075000 9.375000 23.008737
38.500000 -2.781250 23.162824
38.275000 -1.421875 23.162824
38.375000 -0.265625 23.162824
38.275000 0.859375 23.162824
38.150000 2.312500 23.162824
38.475000 3.593750 23.162824
38.900000 4.921875 23.162824
39.425000 6.062500 23.162824
39.375000 7.515625 23.162824
38.975000 8.875000 23.162824
39.175000 10.000000 23.162824
38.200000 -2.546875 23.291801
38.375000 -1.140625 23.291801
38.400000 0.453125 23.291801
38.000000 1.500000 23.291801
39.125000 6.671875 23.291801
39.150000 8.328125 23.291801
38.250000 -1.453125 23.445164
38.350000 -0.515625 23.445164
38.125000 0.718750 23.445164
37.875000 2.031250 23.445164
38.225000 3.390625 23.445164
38.850000 4.640625 23.445164
39.250000 5.984375 23.445164
39.125000 7.312500 23.445164
38.950000 8.625000 23.445164
39.125000 10.250000 23.445164
38.400000 -3.343750 23.587763
38.350000 -2.234375 23.587763
38.075000 1.843750 23.587763
37.900000 3.031250 23.587763
38.350000 4.421875 23.587763
39.050000 5.703125 23.587763
39.100000 7.281250 23.587763
38.925000 8.468750 23.587763
39.100000 9.437500 23.587763
39.200000 -3.796875 23.713163
38.500000 -2.296875 23.713163
38.325000 -1.203125 23.713163
38.350000 0.468750 23.713163
38.025000 1.812500 23.713163
37.750000 2.656250 23.713163
38.225000 4.187500 23.713163
38.975000 5.421875 23.713163
39.075000 6.781250 23.713163
38.850000 7.890625 23.713163
38.925000 9.375000 23.713163
39.325000 10.609375 23.713163
39.250000 -3.484375 23.864200
38.675000 -2.296875 23.864200
38.350000 -0.921875 23.864200
38.400000 0.359375 23.864200
38.025000 1.750000 23.864200
37.825000 2.765625 23.864200
38.425000 4.031250 23.864200
39.100000 5.531250 23.864200
39.075000 6.578125 23.864200
38.800000 7.984375 23.864200
38.875000 9.312500 23.864200
39.450000 10.562500 23.864200
39.425000 -3.578125 23.978508
38.650000 -2.593750 23.978508
38.325000 -1.140625 23.978508
38.450000 0.015625 23.978508
38.125000 1.312500 23.978508
37.825000 2.593750 23.978508
38.425000 3.875000 23.978508
39.125000 5.140625 23.978508
39.050000 6.531250 23.978508
38.725000 8.015625 23.978508
38.850000 9.265625 23.978508
39.275000 10.468750 23.978508
39.350000 -3.671875 24.135198
38.750000 -2.203125 24.135198
38.350000 -1.078125 24.135198
38.500000 0.031250 24.135198
38.250000 1.656250 24.135198
38.025000 2.625000 24.135198
38.500000 4.250000 24.135198
38.975000 5.562500 24.135198
38.900000 6.484375 24.135198
38.700000 8.046875 24.135198
38.825000 9.046875 24.135198
39.275000 10.703125 24.135198
39.450000 -3.703125 24.292361
38.800000 -2.312500 24.292361
38.375000 -0.640625 24.292361
38.425000 0.593750 24.292361
38.325000 1.781250 24.292361
38.325000 3.234375 24.292361
38.750000 4.312500 24.292361
39.050000 5.312500 24.292361
38.775000 6.796875 24.292361
38.600000 7.953125 24.292361
38.875000 9.500000 24.292361
39.425000 10.640625 24.292361
39.625000 -3.671875 24.417761
38.775000 -2.125000 24.417761
38.375000 -1.000000 24.417761
38.425000 0.609375 24.417761
38.350000 1.859375 24.417761
38.375000 2.796875 24.417761
38.750000 4.390625 24.417761
39.050000 5.656250 24.417761
38.750000 7.031250 24.417761
38.575000 8.218750 24.417761
38.925000 9.375000 24.417761
39.475000 10.718750 24.417761
38.175000 -1.734375 24.565357
38.350000 -0.281250 24.565357
38.425000 0.921875 24.565357
38.450000 2.046875 24.565357
38.600000 3.531250 24.565357
38.825000 4.531250 24.565357
38.675000 5.906250 24.565357
38.525000 7.125000 24.565357
38.775000 8.781250 24.565357
39.125000 9.828125 24.565357
38.200000 -1.718750 24.722096
38.375000 -0.500000 24.722096
38.450000 1.015625 24.722096
38.400000 2.328125 24.722096
38.575000 3.421875 24.722096
38.850000 4.734375 24.722096
38.675000 6.203125 24.722096
38.450000 7.359375 24.722096
38.725000 8.812500 24.722096
39.125000 9.859375 24.722096
38.075000 -2.406250 24.856830
38.325000 -1.437500 24.856830
38.425000 0.046875 24.856830
38.450000 1.406250 24.856830
38.450000 2.703125 24.856830
38.750000 3.671875 24.856830
38.850000 5.234375 24.856830
38.550000 6.656250 24.856830
38.450000 7.609375 24.856830
38.650000 9.171875 24.856830
39.150000 10.171875 24.856830
38.300000 -2.718750 24.998021
38.300000 -1.703125 24.998021
38.375000 -0.359375 24.998021
38.450000 1.015625 24.998021
38.450000 2.515625 24.998021
38.750000 3.421875 24.998021
38.975000 5.078125 24.998021
38.650000 6.125000 24.998021
38.525000 7.562500 24.998021
38.675000 9.078125 24.998021
38.975000 9.859375 24.998021
38.400000 -2.937500 25.135633
38.325000 -1.281250 25.135633
38.400000 -0.437500 25.135633
38.350000 1.062500 25.135633
38.300000 2.593750 25.135633
38.725000 3.531250 25.135633
39.000000 4.750000 25.135633
38.700000 6.406250 25.135633
38.525000 7.703125 25.135633
38.650000 8.734375 25.135633
39.075000 10.125000 25.135633
38.550000 -3.312500 25.264834
38.500000 -2.046875 25.264834
38.350000 -0.953125 25.264834
38.250000 0.406250 25.264834
38.200000 1.734375 25.264834
38.100000 2.875000 25.264834
38.450000 4.250000 25.264834
39.025000 5.812500 25.264834
38.775000 7.156250 25.264834
38.550000 8.421875 25.264834
38.150000 -1.718750 25.404179
38.425000 -0.375000 25.404179
38.200000 0.625000 25.404179
38.050000 2.218750 25.404179
38.075000 3.234375 25.404179
38.400000 4.546875 25.404179
39.150000 6.062500 25.404179
38.950000 7.187500 25.404179
38.575000 8.625000 25.404179
38.900000 10.031250 25.404179
38.075000 -2.593750 25.566661
38.200000 -1.359375 25.566661
37.925000 0.109375 25.566661
37.725000 1.562500 25.566661
37.975000 2.437500 25.566661
38.425000 4.125000 25.566661
38.825000 4.968750 25.566661
38.800000 6.453125 25.566661
38.550000 7.671875 25.566661
38.600000 9.078125 25.566661
39.075000 10.500000 25.566661
38.125000 -2.140625 25.687819
38.600000 -0.703125 25.687819
37.900000 1.875000 25.687819
38.750000 5.812500 25.687819
38.900000 7.406250 25.687819
38.575000 8.343750 25.687819
38.875000 9.515625 25.687819
38.000000 -2.468750 25.816986
38.050000 -1.328125 25.816986
37.825000 1.437500 25.816986
37.875000 2.703125 25.816986
38.900000 5.343750 25.816986
38.825000 6.718750 25.816986
38.575000 7.750000 25.816986
38.625000 9.343750 25.816986
39.075000 10.625000 25.816986
37.925000 -1.468750 25.966800
38.675000 -0.453125 25.966800
37.750000 2.375000 25.966800
39.000000 7.578125 25.966800
38.700000 8.843750 25.966800
38.875000 10.156250 25.966800
38.275000 -2.578125 26.109064
38.025000 -1.187500 26.109064
37.550000 1.609375 26.109064
37.975000 2.968750 26.109064
38.350000 4.343750 26.109064
38.700000 5.468750 26.109064
39.025000 6.546875 26.109064
38.850000 7.859375 26.109064
38.725000 9.343750 26.109064
39.150000 10.312500 26.109064
38.300000 -2.750000 26.254282
38.050000 -1.687500 26.254282
38.475000 -0.515625 26.254282
37.775000 2.265625 26.254282
39.250000 7.625000 26.254282
38.775000 8.953125 26.254282
38.875000 10.234375 26.254282
38.450000 -3.609375 26.381943
38.325000 -2.296875 26.381943
38.050000 -0.890625 26.381943
37.675000 0.750000 26.381943
37.625000 1.984375 26.381943
37.875000 2.906250 26.381943
38.225000 4.468750 26.381943
38.650000 5.421875 26.381943
