29.200000 -27.823242 7.997792
29.000000 -27.429199 7.997792
28.900000 -26.535156 7.997792
28.700000 -25.516113 7.997792
28.500000 -25.747070 7.997792
28.300000 -24.478027 7.997792
28.100000 -23.583984 7.997792
27.900000 -23.189941 7.997792
27.900000 -22.295898 7.997792
27.800000 -21.526855 7.997792
27.500000 -21.382812 7.997792
27.200000 -20.988770 7.997792
27.200000 -19.969727 7.997792
27.100000 -19.325684 7.997792
27.000000 -19.056641 7.997792
26.900000 -17.912598 7.997792
26.800000 -17.143555 7.997792
26.700000 -16.874512 7.997792
26.600000 -16.105469 7.997792
26.600000 -14.961426 7.997792
26.500000 -15.067383 7.997792
26.500000 -14.048340 7.997792
26.500000 -13.279297 7.997792
26.600000 -13.010254 7.997792
26.700000 -12.241211 7.997792
29.600000 -29.494141 8.124792
29.500000 -29.347656 8.124792
29.300000 -27.951172 8.124792
29.100000 -27.554688 8.124792
28.900000 -26.283203 8.124792
28.700000 -26.636719 8.124792
28.500000 -25.740234 8.124792
28.400000 -24.968750 8.124792
28.200000 -24.447266 8.124792
28.000000 -23.675781 8.124792
27.900000 -22.654297 8.124792
27.800000 -22.382812 8.124792
27.500000 -20.611328 8.124792
27.300000 -20.714844 8.124792
27.200000 -19.818359 8.124792
27.100000 -19.671875 8.124792
27.000000 -18.902344 8.124792
26.900000 -17.632812 8.124792
26.800000 -17.613281 8.124792
26.700000 -15.843750 8.124792
26.600000 -16.324219 8.124792
26.500000 -15.929688 8.124792
26.500000 -14.535156 8.124792
26.500000 -13.390625 8.124792
26.500000 -13.996094 8.124792
26.500000 -12.476562 8.124792
26.600000 -12.207031 8.124792
29.600000 -29.399414 8.266792
29.400000 -28.879395 8.266792
29.300000 -27.734375 8.266792
29.000000 -27.466309 8.266792
28.900000 -26.323242 8.266792
28.700000 -26.430176 8.266792
28.500000 -25.037109 8.266792
28.300000 -24.394043 8.266792
28.200000 -23.500977 8.266792
28.000000 -23.357910 8.266792
27.900000 -22.589844 8.266792
27.900000 -21.821777 8.266792
27.500000 -21.428711 8.266792
27.200000 -19.910645 8.266792
27.100000 -19.392578 8.266792
27.100000 -19.624512 8.266792
27.000000 -18.106445 8.266792
26.800000 -17.838379 8.266792
26.800000 -17.195312 8.266792
26.700000 -16.052246 8.266792
26.600000 -16.409180 8.266792
26.600000 -15.516113 8.266792
26.500000 -15.248047 8.266792
26.500000 -14.104980 8.266792
26.400000 -12.461914 8.266792
26.500000 -12.943848 8.266792
26.600000 -12.550781 8.266792
29.600000 -29.315430 8.421791
29.400000 -28.292969 8.421791
29.200000 -28.520508 8.421791
29.000000 -27.498047 8.421791
28.900000 -26.725586 8.421791
28.700000 -25.578125 8.421791
28.500000 -25.055664 8.421791
28.300000 -25.158203 8.421791
28.100000 -23.635742 8.421791
28.000000 -23.488281 8.421791
27.900000 -22.215820 8.421791
27.800000 -22.068359 8.421791
27.400000 -21.295898 8.421791
27.200000 -21.023438 8.421791
27.100000 -20.375977 8.421791
27.100000 -19.228516 8.421791
27.000000 -18.831055 8.421791
26.800000 -17.058594 8.421791
26.700000 -17.286133 8.421791
26.700000 -17.013672 8.421791
26.600000 -15.366211 8.421791
26.500000 -15.468750 8.421791
26.500000 -14.450684 8.421791
26.500000 -14.057617 8.421791
26.500000 -13.289551 8.421791
26.500000 -12.396484 8.421791
26.600000 -12.128418 8.421791
29.600000 -29.339844 8.564250
29.400000 -28.814941 8.564250
29.200000 -28.290039 8.564250
29.000000 -27.765137 8.564250
28.900000 -26.865234 8.564250
28.700000 -26.215332 8.564250
28.500000 -25.940430 8.564250
28.300000 -24.415527 8.564250
28.200000 -24.015625 8.564250
28.000000 -23.496582 8.564250
27.900000 -22.727539 8.564250
27.800000 -21.833496 8.564250
27.400000 -21.564453 8.564250
27.300000 -20.670410 8.564250
27.100000 -19.901367 8.564250
27.000000 -19.382324 8.564250
26.900000 -18.738281 8.564250
26.800000 -17.344238 8.564250
26.800000 -17.825195 8.564250
26.700000 -16.806152 8.564250
26.600000 -16.287109 8.564250
26.500000 -15.768066 8.564250
26.500000 -14.499023 8.564250
26.400000 -14.479980 8.564250
26.400000 -12.960938 8.564250
26.500000 -11.816895 8.564250
26.600000 -12.047852 8.564250
29.400000 -28.534180 8.705091
29.200000 -28.511230 8.705091
29.000000 -27.988281 8.705091
28.900000 -26.590332 8.705091
28.700000 -26.567383 8.705091
28.500000 -24.919434 8.705091
28.300000 -24.271484 8.705091
28.200000 -23.748535 8.705091
28.000000 -23.600586 8.705091
28.000000 -22.202637 8.705091
27.800000 -21.929688 8.705091
27.500000 -21.781738 8.705091
27.300000 -20.633789 8.705091
27.100000 -20.360840 8.705091
27.000000 -19.462891 8.705091
26.900000 -18.939941 8.705091
26.800000 -18.166992 8.705091
26.700000 -17.769043 8.705091
26.700000 -16.871094 8.705091
26.600000 -16.348145 8.705091
26.500000 -15.825195 8.705091
26.400000 -13.802246 8.705091
26.400000 -13.529297 8.705091
26.400000 -12.506348 8.705091
26.400000 -12.733398 8.705091
26.600000 -11.835449 8.705091
29.500000 -29.442383 8.844295
29.300000 -28.667969 8.844295
29.100000 -27.893555 8.844295
28.900000 -27.369141 8.844295
28.800000 -26.219727 8.844295
28.600000 -25.320312 8.844295
28.300000 -24.670898 8.844295
28.200000 -24.771484 8.844295
28.000000 -23.372070 8.844295
27.900000 -22.722656 8.844295
27.900000 -22.073242 8.844295
27.600000 -21.798828 8.844295
27.300000 -20.649414 8.844295
27.100000 -20.375000 8.844295
27.000000 -19.227539 8.844295
26.900000 -19.330078 8.844295
26.800000 -17.557617 8.844295
26.700000 -17.285156 8.844295
26.700000 -16.762695 8.844295
26.600000 -16.115234 8.844295
26.500000 -15.467773 8.844295
26.400000 -14.195312 8.844295
26.400000 -14.672852 8.844295
26.300000 -13.400391 8.844295
26.400000 -12.752930 8.844295
26.400000 -12.230469 8.844295
29.400000 -28.921875 8.984253
29.200000 -28.273438 8.984253
29.000000 -27.500000 8.984253
28.900000 -26.851562 8.984253
28.800000 -26.453125 8.984253
28.600000 -25.929688 8.984253
28.300000 -25.406250 8.984253
28.200000 -24.007812 8.984253
28.100000 -23.859375 8.984253
28.000000 -22.460938 8.984253
27.900000 -22.562500 8.984253
27.600000 -21.164062 8.984253
27.200000 -20.140625 8.984253
27.100000 -20.617188 8.984253
27.000000 -19.343750 8.984253
26.900000 -18.820312 8.984253
26.800000 -18.671875 8.984253
26.700000 -17.648438 8.984253
26.700000 -16.125000 8.984253
26.600000 -15.226562 8.984253
26.500000 -15.078125 8.984253
26.400000 -14.804688 8.984253
26.300000 -13.781250 8.984253
26.400000 -12.882812 8.984253
26.400000 -12.859375 8.984253
26.400000 -11.835938 8.984253
26.600000 -11.562500 8.984253
27.000000 -11.289062 8.984253
29.400000 -29.166992 9.125551
29.300000 -28.267578 9.125551
29.000000 -28.243164 9.125551
28.900000 -27.343750 9.125551
28.700000 -26.194336 9.125551
28.500000 -25.794922 9.125551
28.300000 -25.270508 9.125551
28.200000 -24.621094 9.125551
28.000000 -23.596680 9.125551
27.900000 -23.572266 9.125551
28.000000 -22.172852 9.125551
27.600000 -22.148438 9.125551
27.300000 -20.374023 9.125551
27.100000 -19.474609 9.125551
27.000000 -19.950195 9.125551
26.900000 -19.300781 9.125551
26.800000 -18.026367 9.125551
26.700000 -16.876953 9.125551
26.600000 -17.352539 9.125551
26.600000 -16.703125 9.125551
26.500000 -15.306152 9.125551
26.400000 -14.909180 9.125551
26.300000 -14.762207 9.125551
26.300000 -13.865234 9.125551
26.300000 -12.468262 9.125551
26.400000 -11.821289 9.125551
26.600000 -11.674316 9.125551
27.000000 -11.527344 9.125551
29.400000 -29.042969 9.269090
29.300000 -28.267578 9.269090
29.000000 -27.242188 9.269090
28.900000 -27.591797 9.269090
28.700000 -26.066406 9.269090
28.500000 -25.791016 9.269090
28.300000 -24.640625 9.269090
28.200000 -23.997559 9.269090
28.000000 -23.479492 9.269090
27.900000 -23.086426 9.269090
27.900000 -22.193359 9.269090
27.600000 -22.050293 9.269090
27.300000 -20.907227 9.269090
27.100000 -20.014160 9.269090
27.000000 -18.996094 9.269090
26.900000 -18.603027 9.269090
26.800000 -18.084961 9.269090
26.700000 -17.566895 9.269090
26.600000 -16.673828 9.269090
26.600000 -16.655762 9.269090
26.500000 -14.887695 9.269090
26.400000 -15.494629 9.269090
26.400000 -14.101562 9.269090
26.300000 -13.208496 9.269090
26.300000 -13.565430 9.269090
26.400000 -11.922363 9.269090
26.500000 -11.529297 9.269090
26.900000 -11.636230 9.269090
29.400000 -28.849609 9.410445
29.300000 -28.453125 9.410445
29.000000 -28.181641 9.410445
28.900000 -27.160156 9.410445
28.800000 -26.388672 9.410445
28.600000 -25.492188 9.410445
28.300000 -25.720703 9.410445
28.200000 -24.699219 9.410445
28.100000 -23.677734 9.410445
27.900000 -23.531250 9.410445
27.900000 -22.884766 9.410445
27.700000 -21.738281 9.410445
27.200000 -21.216797 9.410445
27.100000 -20.570312 9.410445
26.900000 -19.298828 9.410445
26.900000 -18.777344 9.410445
26.800000 -17.755859 9.410445
26.700000 -17.859375 9.410445
26.700000 -17.212891 9.410445
26.500000 -15.691406 9.410445
26.500000 -16.419922 9.410445
26.400000 -15.523438 9.410445
26.400000 -14.876953 9.410445
26.300000 -14.355469 9.410445
26.300000 -13.458984 9.410445
26.400000 -12.562500 9.410445
26.500000 -11.918945 9.410445
26.800000 -11.650391 9.410445
29.300000 -29.855469 9.562433
29.300000 -28.959961 9.562433
29.200000 -27.939453 9.562433
29.000000 -28.043945 9.562433
28.900000 -27.273438 9.562433
28.700000 -26.502930 9.562433
28.500000 -25.732422 9.562433
28.300000 -25.461914 9.562433
28.100000 -24.191406 9.562433
27.900000 -23.545898 9.562433
27.900000 -23.150391 9.562433
27.800000 -21.879883 9.562433
27.500000 -20.859375 9.562433
27.200000 -21.092773 9.562433
27.100000 -20.201172 9.562433
26.900000 -19.309570 9.562433
26.900000 -19.167969 9.562433
26.800000 -18.026367 9.562433
26.700000 -17.259766 9.562433
26.600000 -17.243164 9.562433
26.500000 -16.351562 9.562433
26.500000 -15.709961 9.562433
26.400000 -14.068359 9.562433
26.300000 -13.676758 9.562433
26.300000 -13.160156 9.562433
26.300000 -13.518555 9.562433
26.400000 -12.876953 9.562433
26.500000 -11.485352 9.562433
26.800000 -11.593750 9.562433
29.300000 -29.435547 9.705377
29.200000 -28.918945 9.705377
29.000000 -27.902344 9.705377
28.900000 -27.385742 9.705377
28.700000 -26.494141 9.705377
28.500000 -26.227539 9.705377
28.300000 -25.710938 9.705377
28.200000 -24.194336 9.705377
28.000000 -24.177734 9.705377
27.800000 -23.411133 9.705377
27.900000 -22.644531 9.705377
27.600000 -21.502930 9.705377
27.200000 -21.361328 9.705377
27.000000 -20.594727 9.705377
26.900000 -19.203125 9.705377
26.800000 -19.061523 9.705377
26.800000 -17.669922 9.705377
26.700000 -18.403320 9.705377
26.700000 -17.511719 9.705377
26.600000 -16.495117 9.705377
26.500000 -15.978516 9.705377
26.400000 -14.961914 9.705377
26.300000 -14.695312 9.705377
26.300000 -14.053711 9.705377
26.300000 -12.537109 9.705377
26.400000 -12.895508 9.705377
26.500000 -12.503906 9.705377
29.200000 -29.529785 9.845405
29.100000 -28.382812 9.845405
29.000000 -28.360840 9.845405
28.800000 -27.338867 9.845405
28.700000 -26.191895 9.845405
28.500000 -25.419922 9.845405
28.300000 -24.897949 9.845405
28.100000 -24.500977 9.845405
28.000000 -23.729004 9.845405
27.800000 -22.957031 9.845405
27.800000 -22.060059 9.845405
27.600000 -21.788086 9.845405
27.200000 -21.266113 9.845405
27.000000 -20.869141 9.845405
26.900000 -19.722168 9.845405
26.800000 -19.325195 9.845405
26.700000 -18.928223 9.845405
26.700000 -17.281250 9.845405
26.700000 -16.635742 9.845405
26.600000 -16.365234 9.845405
26.500000 -16.344727 9.845405
26.400000 -15.699219 9.845405
26.300000 -15.053711 9.845405
26.300000 -13.408203 9.845405
26.300000 -13.387695 9.845405
26.400000 -13.117188 9.845405
26.500000 -12.596680 9.845405
29.300000 -29.441406 9.984976
29.300000 -28.916992 9.984976
29.300000 -27.892578 9.984976
29.300000 -27.243164 9.984976
29.300000 -26.718750 9.984976
29.400000 -25.699707 9.984976
29.500000 -24.930664 9.984976
26.400000 -18.384277 9.984976
26.400000 -18.240234 9.984976
26.300000 -16.596191 9.984976
26.100000 -16.308105 9.984976
26.000000 -15.539062 9.984976
25.900000 -13.606934 9.984976
26.000000 -12.693848 9.984976
26.800000 -11.655762 9.984976
29.200000 -29.300293 10.123723
29.100000 -29.151367 10.123723
28.900000 -28.502441 10.123723
28.800000 -27.478516 10.123723
28.600000 -26.829590 10.123723
28.400000 -26.555664 10.123723
28.300000 -25.156738 10.123723
28.000000 -24.757812 10.123723
27.900000 -24.358887 10.123723
27.800000 -23.334961 10.123723
27.700000 -22.061035 10.123723
27.500000 -21.912109 10.123723
27.100000 -21.013184 10.123723
26.900000 -20.614258 10.123723
26.900000 -19.965332 10.123723
26.800000 -19.316406 10.123723
26.700000 -18.167480 10.123723
26.700000 -18.018555 10.123723
26.600000 -16.869629 10.123723
26.500000 -15.720703 10.123723
26.400000 -15.696777 10.123723
26.400000 -15.672852 10.123723
26.300000 -14.773926 10.123723
26.300000 -13.500000 10.123723
26.300000 -13.231445 10.123723
26.300000 -12.962891 10.123723
26.500000 -11.819336 10.123723
26.700000 -11.050781 10.123723
29.200000 -29.931641 10.263922
29.100000 -28.532227 10.263922
28.900000 -28.132812 10.263922
28.800000 -27.483398 10.263922
28.700000 -26.833984 10.263922
28.500000 -26.809570 10.263922
28.300000 -26.035156 10.263922
28.200000 -24.635742 10.263922
28.000000 -24.486328 10.263922
27.800000 -24.086914 10.263922
27.700000 -22.937500 10.263922
27.600000 -21.790527 10.263922
27.400000 -21.518555 10.263922
27.000000 -21.246582 10.263922
26.900000 -20.099609 10.263922
26.800000 -19.952637 10.263922
26.800000 -19.305664 10.263922
26.800000 -18.783691 10.263922
26.700000 -17.886719 10.263922
26.600000 -17.364746 10.263922
26.500000 -16.342773 10.263922
26.400000 -15.070801 10.263922
26.400000 -14.548828 10.263922
26.200000 -14.526855 10.263922
26.200000 -12.629883 10.263922
26.300000 -12.982910 10.263922
26.400000 -12.460938 10.263922
26.600000 -11.063965 10.263922
26.900000 -11.541992 10.263922
29.100000 -29.177734 10.417345
29.000000 -28.905762 10.417345
28.900000 -28.383789 10.417345
28.700000 -27.986816 10.417345
28.600000 -26.339844 10.417345
28.400000 -25.692871 10.417345
28.300000 -25.920898 10.417345
28.100000 -25.023926 10.417345
27.900000 -24.001953 10.417345
27.700000 -23.104980 10.417345
27.600000 -22.583008 10.417345
27.600000 -22.561035 10.417345
27.300000 -21.289062 10.417345
27.000000 -20.642090 10.417345
26.800000 -20.495117 10.417345
26.800000 -18.598145 10.417345
26.700000 -18.076172 10.417345
26.700000 -18.054199 10.417345
26.600000 -17.407227 10.417345
26.600000 -16.885254 10.417345
26.500000 -16.113281 10.417345
26.400000 -15.216309 10.417345
26.300000 -14.944336 10.417345
26.200000 -13.672363 10.417345
26.300000 -13.775391 10.417345
26.400000 -12.503418 10.417345
26.400000 -11.606445 10.417345
29.000000 -29.258789 10.559090
28.900000 -28.485840 10.559090
28.700000 -27.462891 10.559090
28.500000 -26.689941 10.559090
28.400000 -26.541992 10.559090
28.300000 -25.894043 10.559090
28.100000 -24.996094 10.559090
27.900000 -24.473145 10.559090
27.700000 -23.325195 10.559090
27.600000 -22.802246 10.559090
27.500000 -22.654297 10.559090
27.400000 -21.256348 10.559090
27.200000 -20.483398 10.559090
26.900000 -20.460449 10.559090
26.800000 -19.937500 10.559090
26.800000 -18.791992 10.559090
26.700000 -18.021484 10.559090
26.700000 -18.000977 10.559090
26.600000 -17.230469 10.559090
26.500000 -16.084961 10.559090
26.400000 -15.439453 10.559090
26.300000 -13.793945 10.559090
26.200000 -13.523438 10.559090
26.200000 -13.002930 10.559090
26.300000 -13.357422 10.559090
26.400000 -12.086914 10.559090
26.600000 -11.941406 10.559090
27.000000 -11.670898 10.559090
29.100000 -29.187500 10.700455
29.000000 -28.664062 10.700455
28.900000 -28.640625 10.700455
28.700000 -27.246582 10.700455
28.600000 -27.102539 10.700455
28.500000 -26.708496 10.700455
28.300000 -25.064453 10.700455
28.100000 -25.045410 10.700455
27.900000 -23.901367 10.700455
27.700000 -23.132324 10.700455
27.500000 -22.238281 10.700455
27.200000 -21.469238 10.700455
27.200000 -21.825195 10.700455
27.200000 -20.681152 10.700455
27.000000 -20.412109 10.700455
26.800000 -19.143066 10.700455
26.800000 -18.874023 10.700455
26.700000 -18.354980 10.700455
26.700000 -17.835938 10.700455
26.600000 -17.191895 10.700455
26.500000 -16.422852 10.700455
26.400000 -16.028809 10.700455
26.300000 -14.384766 10.700455
26.200000 -13.240723 10.700455
26.200000 -13.721680 10.700455
26.300000 -12.577637 10.700455
26.400000 -12.558594 10.700455
26.600000 -11.414551 10.700455
27.000000 -10.520508 10.700455
29.000000 -29.542969 10.840674
28.900000 -28.895508 10.840674
28.800000 -27.498047 10.840674
28.700000 -26.725586 10.840674
28.500000 -26.203125 10.840674
28.400000 -25.430664 10.840674
28.100000 -24.658203 10.840674
28.000000 -24.135742 10.840674
27.800000 -23.738281 10.840674
27.300000 -23.215820 10.840674
27.200000 -21.693359 10.840674
27.100000 -21.545898 10.840674
27.200000 -21.398438 10.840674
27.200000 -20.875977 10.840674
26.900000 -19.603516 10.840674
26.800000 -18.456055 10.840674
26.700000 -18.558594 10.840674
26.700000 -17.286133 10.840674
26.600000 -17.638672 10.840674
26.500000 -16.116211 10.840674
26.400000 -15.843750 10.840674
26.400000 -15.574707 10.840674
26.300000 -13.555664 10.840674
26.300000 -14.286621 10.840674
26.300000 -12.892578 10.840674
26.400000 -12.248535 10.840674
26.500000 -12.104492 10.840674
26.800000 -11.710449 10.840674
29.100000 -29.835938 10.982077
29.000000 -28.563477 10.982077
28.900000 -28.416016 10.982077
28.700000 -27.143555 10.982077
28.500000 -27.121094 10.982077
28.400000 -26.348633 10.982077
28.300000 -25.701172 10.982077
28.200000 -24.303711 10.982077
27.100000 -21.994141 10.982077
27.100000 -21.475586 10.982077
27.100000 -21.082031 10.982077
27.200000 -21.188477 10.982077
27.100000 -20.419922 10.982077
26.900000 -19.651367 10.982077
26.800000 -18.132812 10.982077
26.700000 -17.614258 10.982077
26.700000 -17.720703 10.982077
26.600000 -16.577148 10.982077
26.500000 -15.433594 10.982077
26.400000 -15.665039 10.982077
26.300000 -15.271484 10.982077
26.300000 -14.252930 10.982077
26.300000 -13.484375 10.982077
26.400000 -13.340820 10.982077
26.400000 -11.947266 10.982077
26.600000 -11.678711 10.982077
27.000000 -10.660156 10.982077
29.100000 -29.001953 11.123888
29.000000 -28.982910 11.123888
28.900000 -28.588867 11.123888
28.700000 -28.069824 11.123888
28.500000 -27.300781 11.123888
28.400000 -26.281738 11.123888
28.300000 -25.887695 11.123888
28.100000 -24.868652 11.123888
27.000000 -22.186523 11.123888
27.000000 -21.542480 11.123888
27.100000 -21.398438 11.123888
27.100000 -20.879395 11.123888
27.200000 -19.985352 11.123888
27.100000 -19.591309 11.123888
26.900000 -18.697266 11.123888
26.800000 -18.053223 11.123888
26.700000 -16.659180 11.123888
26.600000 -17.015137 11.123888
26.500000 -16.246094 11.123888
26.400000 -15.227051 11.123888
26.300000 -14.833008 11.123888
26.300000 -13.938965 11.123888
26.300000 -13.669922 11.123888
26.300000 -13.025879 11.123888
26.400000 -12.006836 11.123888
26.600000 -11.237793 11.123888
27.000000 -10.718750 11.123888
29.000000 -29.477539 11.274478
28.900000 -28.580078 11.274478
28.800000 -27.557617 11.274478
28.600000 -27.035156 11.274478
28.500000 -26.637695 11.274478
28.300000 -25.990234 11.274478
28.100000 -24.842773 11.274478
27.100000 -23.172852 11.274478
27.000000 -22.900391 11.274478
27.000000 -21.377930 11.274478
27.000000 -20.855469 11.274478
27.000000 -21.083008 11.274478
27.100000 -20.810547 11.274478
27.300000 -19.163086 11.274478
27.100000 -18.390625 11.274478
26.800000 -18.620605 11.274478
26.700000 -17.600586 11.274478
26.600000 -16.705566 11.274478
26.500000 -15.935547 11.274478
26.400000 -16.040527 11.274478
26.400000 -14.020508 11.274478
26.200000 -13.625488 11.274478
26.300000 -13.605469 11.274478
26.500000 -13.085449 11.274478
26.500000 -12.190430 11.274478
26.700000 -12.170410 11.274478
27.000000 -11.025391 11.274478
29.000000 -29.196777 11.407474
28.900000 -28.922852 11.407474
28.900000 -27.523926 11.407474
28.700000 -27.500000 11.407474
28.500000 -27.105469 11.407474
27.100000 -23.277344 11.407474
27.000000 -23.257812 11.407474
27.000000 -22.488281 11.407474
27.000000 -21.593750 11.407474
27.000000 -20.699219 11.407474
27.000000 -20.304688 11.407474
27.200000 -20.035156 11.407474
27.400000 -19.640625 11.407474
27.200000 -18.746094 11.407474
26.800000 -17.351562 11.407474
26.600000 -16.957031 11.407474
26.500000 -16.312500 11.407474
26.500000 -16.292969 11.407474
26.400000 -15.648438 11.407474
26.300000 -13.753906 11.407474
26.300000 -14.234375 11.407474
26.400000 -12.839844 11.407474
26.500000 -12.320312 11.407474
26.600000 -12.050781 11.407474
29.200000 -29.791504 11.549905
29.000000 -29.016602 11.549905
28.900000 -28.616699 11.549905
28.800000 -27.341797 11.549905
28.600000 -27.441895 11.549905
28.500000 -26.291992 11.549905
28.400000 -25.642090 11.549905
27.100000 -23.567383 11.549905
27.000000 -22.917480 11.549905
27.000000 -22.642578 11.549905
27.000000 -21.617676 11.549905
27.000000 -21.342773 11.549905
27.100000 -20.067871 11.549905
27.300000 -19.917969 11.549905
27.500000 -18.518066 11.549905
26.700000 -16.968262 11.549905
26.600000 -16.568359 11.549905
26.500000 -15.918457 11.549905
26.400000 -15.393555 11.549905
26.400000 -15.368652 11.549905
26.400000 -14.343750 11.549905
26.400000 -13.449707 11.549905
26.500000 -12.930664 11.549905
26.500000 -11.786621 11.549905
26.700000 -12.267578 11.549905
27.000000 -11.248535 11.549905
29.100000 -29.870117 11.689020
29.000000 -28.597168 11.689020
28.900000 -27.699219 11.689020
28.800000 -27.051270 11.689020
28.600000 -26.403320 11.689020
28.400000 -26.630371 11.689020
28.400000 -25.232422 11.689020
27.100000 -23.686523 11.689020
27.100000 -22.413574 11.689020
27.000000 -22.390625 11.689020
27.000000 -21.617188 11.689020
27.000000 -21.593750 11.689020
27.100000 -21.070312 11.689020
27.300000 -20.296875 11.689020
27.400000 -19.648438 11.689020
27.600000 -18.250000 11.689020
26.800000 -16.703125 11.689020
26.600000 -16.429688 11.689020
26.500000 -15.281250 11.689020
26.500000 -15.257812 11.689020
26.400000 -14.734375 11.689020
26.400000 -14.210938 11.689020
26.400000 -13.937500 11.689020
26.400000 -12.789062 11.689020
26.600000 -12.515625 11.689020
29.500000 -29.958008 11.843144
29.000000 -28.937012 11.843144
28.900000 -28.541016 11.843144
28.800000 -27.645020 11.843144
28.800000 -27.624023 11.843144
28.600000 -26.978027 11.843144
28.500000 -25.457031 11.843144
27.300000 -24.290039 11.843144
27.100000 -23.769043 11.843144
27.200000 -23.373047 11.843144
27.100000 -22.477051 11.843144
27.000000 -21.831055 11.843144
27.100000 -20.310059 11.843144
27.100000 -20.539062 11.843144
27.300000 -19.768066 11.843144
27.400000 -18.997070 11.843144
27.600000 -19.226074 11.843144
26.800000 -17.059082 11.843144
26.700000 -15.788086 11.843144
26.600000 -15.892090 11.843144
26.500000 -14.496094 11.843144
26.400000 -14.975098 11.843144
26.400000 -13.454102 11.843144
26.500000 -12.433105 11.843144
26.500000 -12.162109 11.843144
26.600000 -12.391113 11.843144
26.900000 -11.245117 11.843144
29.100000 -29.548340 11.984340
29.000000 -28.648438 11.984340
28.900000 -27.748535 11.984340
28.800000 -27.348633 11.984340
28.600000 -27.073730 11.984340
27.300000 -23.699219 11.984340
27.300000 -23.049316 11.984340
27.100000 -21.524414 11.984340
27.000000 -20.749512 11.984340
27.100000 -20.974609 11.984340
27.200000 -19.324707 11.984340
27.400000 -19.549805 11.984340
27.200000 -17.727539 11.984340
26.900000 -17.205078 11.984340
26.700000 -15.307617 11.984340
26.600000 -15.160156 11.984340
26.500000 -14.512695 11.984340
26.400000 -13.990234 11.984340
26.500000 -13.467773 11.984340
26.600000 -12.945312 11.984340
26.600000 -11.297852 11.984340
29.500000 -29.838379 12.124665
29.100000 -29.314453 12.124665
29.000000 -28.790527 12.124665
28.900000 -28.141602 12.124665
28.800000 -27.492676 12.124665
28.600000 -25.968750 12.124665
28.500000 -25.447266 12.124665
27.300000 -24.154297 12.124665
27.300000 -24.007812 12.124665
27.500000 -23.486328 12.124665
27.500000 -22.464844 12.124665
27.300000 -22.068359 12.124665
27.200000 -21.046875 12.124665
27.300000 -19.775391 12.124665
27.400000 -20.128906 12.124665
27.500000 -18.857422 12.124665
27.800000 -18.210938 12.124665
28.100000 -17.814453 12.124665
26.900000 -15.771484 12.124665
26.700000 -16.250000 12.124665
26.600000 -15.603516 12.124665
26.500000 -14.332031 12.124665
26.500000 -13.685547 12.124665
26.500000 -13.539062 12.124665
26.500000 -11.642578 12.124665
26.700000 -11.746094 12.124665
27.000000 -11.849609 12.124665
29.200000 -29.246582 12.267135
29.100000 -28.473633 12.267135
28.900000 -27.325684 12.267135
28.800000 -27.052734 12.267135
28.600000 -25.904785 12.267135
28.600000 -26.006836 12.267135
27.300000 -24.085938 12.267135
27.400000 -23.312988 12.267135
27.400000 -21.869141 12.267135
27.300000 -20.471191 12.267135
27.400000 -20.198242 12.267135
27.400000 -20.175293 12.267135
27.800000 -17.856445 12.267135
27.700000 -16.458496 12.267135
27.100000 -16.310547 12.267135
26.700000 -15.912598 12.267135
26.700000 -15.264648 12.267135
26.600000 -13.491699 12.267135
26.500000 -13.468750 12.267135
26.500000 -13.576172 12.267135
26.500000 -12.683594 12.267135
26.700000 -11.666016 12.267135
27.000000 -10.898438 12.267135
29.300000 -29.601074 12.405057
29.200000 -28.704102 12.405057
29.000000 -28.557129 12.405057
28.900000 -27.160156 12.405057
28.800000 -26.763184 12.405057
28.600000 -26.741211 12.405057
28.600000 -25.469238 12.405057
27.400000 -24.300293 12.405057
27.500000 -22.903320 12.405057
27.500000 -21.215820 12.405057
27.400000 -21.072266 12.405057
27.500000 -20.303711 12.405057
27.600000 -20.035156 12.405057
27.800000 -17.604492 12.405057
27.600000 -16.335938 12.405057
27.100000 -16.692383 12.405057
26.800000 -15.923828 12.405057
26.700000 -14.905273 12.405057
26.600000 -14.261719 12.405057
26.500000 -13.868164 12.405057
26.500000 -13.099609 12.405057
26.600000 -12.331055 12.405057
26.800000 -12.187500 12.405057
27.100000 -11.543945 12.405057
29.200000 -29.417969 12.559315
29.100000 -28.525391 12.559315
29.000000 -28.257812 12.559315
28.900000 -27.365234 12.559315
28.700000 -26.597656 12.559315
28.700000 -26.205078 12.559315
27.400000 -23.919922 12.559315
27.400000 -23.277344 12.559315
27.500000 -23.509766 12.559315
27.600000 -21.582031 12.559315
27.600000 -20.564453 12.559315
27.600000 -19.796875 12.559315
27.700000 -19.154297 12.559315
27.900000 -18.761719 12.559315
28.100000 -18.494141 12.559315
27.900000 -17.476562 12.559315
27.400000 -16.833984 12.559315
27.000000 -15.316406 12.559315
26.800000 -15.298828 12.559315
26.700000 -15.156250 12.559315
26.600000 -14.013672 12.559315
26.500000 -12.746094 12.559315
26.500000 -12.728516 12.559315
26.600000 -12.335938 12.559315
29.900000 -29.852051 12.699644
29.300000 -29.956055 12.699644
29.200000 -29.185059 12.699644
29.100000 -28.164062 12.699644
29.000000 -27.768066 12.699644
28.800000 -26.497070 12.699644
28.600000 -26.476074 12.699644
28.600000 -25.955078 12.699644
27.400000 -23.288086 12.699644
27.500000 -23.017090 12.699644
27.600000 -21.579102 12.699644
27.600000 -20.933105 12.699644
27.600000 -19.537109 12.699644
27.700000 -19.016113 12.699644
27.700000 -19.120117 12.699644
27.800000 -17.849121 12.699644
27.900000 -17.828125 12.699644
27.600000 -17.309082 12.699644
27.100000 -16.540039 12.699644
26.900000 -15.270996 12.699644
26.800000 -14.626953 12.699644
26.600000 -14.357910 12.699644
26.500000 -13.713867 12.699644
26.600000 -13.194824 12.699644
26.700000 -12.675781 12.699644
26.800000 -10.906738 12.699644
27.100000 -11.262695 12.699644
29.400000 -29.755371 12.825022
29.300000 -28.732422 12.825022
29.100000 -28.459473 12.825022
29.000000 -27.936523 12.825022
28.900000 -26.788574 12.825022
28.600000 -26.640625 12.825022
28.600000 -25.245605 12.825022
27.500000 -23.830566 12.825022
27.600000 -23.310547 12.825022
27.600000 -22.415527 12.825022
27.700000 -22.270508 12.825022
27.800000 -21.250488 12.825022
27.600000 -20.730469 12.825022
27.600000 -19.585449 12.825022
27.800000 -19.315430 12.825022
27.900000 -18.295410 12.825022
27.900000 -18.025391 12.825022
27.900000 -17.255371 12.825022
27.500000 -17.110352 12.825022
27.100000 -16.340332 12.825022
27.000000 -15.445312 12.825022
26.800000 -14.175293 12.825022
26.700000 -14.155273 12.825022
26.600000 -12.885254 12.825022
26.600000 -13.240234 12.825022
26.600000 -11.595215 12.825022
26.800000 -11.325195 12.825022
27.200000 -10.680176 12.825022
29.400000 -29.742188 12.979186
29.300000 -29.467773 12.979186
29.300000 -28.693359 12.979186
29.100000 -27.418945 12.979186
28.900000 -26.519531 12.979186
28.600000 -26.245117 12.979186
28.700000 -25.970703 12.979186
27.500000 -23.671875 12.979186
27.600000 -23.897461 12.979186
27.600000 -22.873047 12.979186
27.700000 -22.723633 12.979186
27.800000 -20.824219 12.979186
27.700000 -20.799805 12.979186
27.700000 -20.525391 12.979186
27.800000 -19.500977 12.979186
27.900000 -19.226562 12.979186
27.900000 -17.702148 12.979186
27.800000 -17.427734 12.979186
27.500000 -16.653320 12.979186
27.100000 -16.253906 12.979186
26.900000 -15.854492 12.979186
26.900000 -15.330078 12.979186
26.800000 -14.555664 12.979186
26.700000 -13.906250 12.979186
26.600000 -13.138672 12.979186
26.600000 -11.621094 12.979186
26.800000 -11.853516 12.979186
27.200000 -10.460938 12.979186
29.300000 -29.441406 13.118900
29.300000 -27.916016 13.118900
29.100000 -27.765625 13.118900
28.900000 -26.365234 13.118900
28.800000 -25.964844 13.118900
28.800000 -26.064453 13.118900
27.700000 -24.013672 13.118900
27.600000 -23.238281 13.118900
27.600000 -22.962891 13.118900
27.700000 -21.812500 13.118900
27.800000 -21.790527 13.118900
27.700000 -20.768555 13.118900
27.700000 -20.371582 13.118900
27.800000 -19.849609 13.118900
28.000000 -18.577637 13.118900
28.000000 -18.180664 13.118900
27.700000 -17.658691 13.118900
27.400000 -16.636719 13.118900
27.100000 -16.364746 13.118900
26.900000 -15.967773 13.118900
26.900000 -14.820801 13.118900
26.800000 -14.298828 13.118900
26.800000 -13.901855 13.118900
26.700000 -13.129883 13.118900
26.600000 -12.607910 13.118900
26.800000 -11.210938 13.118900
27.200000 -11.438965 13.118900
29.500000 -29.835938 13.262623
29.400000 -28.441406 13.262623
29.300000 -27.671875 13.262623
29.100000 -27.527344 13.262623
28.900000 -26.507812 13.262623
28.800000 -26.363281 13.262623
28.400000 -25.218750 13.262623
27.900000 -24.949219 13.262623
27.700000 -23.304688 13.262623
27.700000 -22.660156 13.262623
27.600000 -22.265625 13.262623
27.700000 -21.371094 13.262623
27.800000 -21.101562 13.262623
27.800000 -20.707031 13.262623
27.900000 -19.812500 13.262623
27.900000 -19.667969 13.262623
28.000000 -18.898438 13.262623
28.100000 -18.378906 13.262623
27.700000 -17.484375 13.262623
27.200000 -16.464844 13.262623
27.000000 -15.320312 13.262623
26.800000 -15.800781 13.262623
26.800000 -14.781250 13.262623
26.700000 -14.136719 13.262623
26.700000 -13.617188 13.262623
26.700000 -13.097656 13.262623
26.700000 -11.953125 13.262623
26.900000 -11.183594 13.262623
27.400000 -11.289062 13.262623
30.300000 -29.977539 13.402544
29.800000 -29.203613 13.402544
29.400000 -29.179688 13.402544
29.300000 -28.655762 13.402544
29.200000 -27.881836 13.402544
29.000000 -26.357910 13.402544
28.900000 -26.333984 13.402544
28.700000 -25.935059 13.402544
28.200000 -24.536133 13.402544
27.700000 -23.512207 13.402544
27.600000 -22.863281 13.402544
27.600000 -22.464355 13.402544
27.700000 -22.440430 13.402544
27.800000 -22.041504 13.402544
27.800000 -20.267578 13.402544
27.900000 -20.243652 13.402544
28.000000 -19.594727 13.402544
28.100000 -18.945801 13.402544
28.000000 -18.796875 13.402544
27.600000 -17.149902 13.402544
27.200000 -17.252930 13.402544
27.100000 -15.980957 13.402544
26.900000 -15.958984 13.402544
26.800000 -15.187012 13.402544
26.800000 -13.665039 13.402544
26.800000 -13.143066 13.402544
26.700000 -11.996094 13.402544
26.700000 -12.474121 13.402544
26.900000 -11.827148 13.402544
27.300000 -11.180176 13.402544
29.500000 -28.820312 13.544176
29.400000 -28.171875 13.544176
29.300000 -27.648438 13.544176
29.100000 -27.500000 13.544176
28.900000 -25.976562 13.544176
29.000000 -25.953125 13.544176
27.800000 -24.156250 13.544176
27.700000 -24.007812 13.544176
27.700000 -22.609375 13.544176
27.600000 -21.710938 13.544176
27.800000 -21.187500 13.544176
27.800000 -20.789062 13.544176
27.800000 -20.265625 13.544176
28.000000 -19.617188 13.544176
28.100000 -18.843750 13.544176
28.100000 -18.195312 13.544176
27.600000 -17.296875 13.544176
27.200000 -16.648438 13.544176
27.000000 -16.500000 13.544176
26.900000 -15.726562 13.544176
26.700000 -14.703125 13.544176
26.700000 -14.054688 13.544176
26.800000 -14.031250 13.544176
26.800000 -12.257812 13.544176
26.800000 -12.734375 13.544176
26.900000 -11.835938 13.544176
27.200000 -11.062500 13.544176
30.100000 -29.750000 13.685480
29.800000 -29.226562 13.685480
29.500000 -28.703125 13.685480
29.400000 -28.054688 13.685480
29.200000 -27.281250 13.685480
29.000000 -26.507812 13.685480
28.900000 -25.734375 13.685480
27.900000 -23.937500 13.685480
27.700000 -24.164062 13.685480
27.700000 -22.515625 13.685480
27.600000 -22.867188 13.685480
27.700000 -21.343750 13.685480
27.900000 -21.070312 13.685480
28.100000 -20.796875 13.685480
28.100000 -19.898438 13.685480
28.100000 -19.375000 13.685480
28.000000 -18.226562 13.685480
27.600000 -18.078125 13.685480
27.300000 -16.929688 13.685480
27.000000 -15.906250 13.685480
26.900000 -16.132812 13.685480
26.800000 -15.234375 13.685480
26.800000 -14.460938 13.685480
26.800000 -14.062500 13.685480
26.800000 -13.544434 13.685480
26.800000 -12.276367 13.685480
26.900000 -12.383301 13.685480
27.100000 -11.365234 13.685480
30.100000 -29.872070 13.829138
29.800000 -28.849609 13.829138
29.500000 -28.077148 13.829138
29.400000 -28.179688 13.829138
29.200000 -26.782227 13.829138
29.100000 -26.009766 13.829138
28.900000 -26.112305 13.829138
28.400000 -24.839844 13.829138
27.900000 -24.442383 13.829138
27.800000 -23.294922 13.829138
27.700000 -23.522461 13.829138
27.600000 -22.125000 13.829138
27.700000 -22.106934 13.829138
27.900000 -21.213867 13.829138
28.000000 -20.070801 13.829138
28.100000 -19.927734 13.829138
28.100000 -19.284668 13.829138
28.000000 -18.891602 13.829138
27.600000 -18.123535 13.829138
27.200000 -16.730469 13.829138
27.000000 -16.837402 13.829138
26.900000 -15.569336 13.829138
26.800000 -14.801270 13.829138
26.800000 -14.033203 13.829138
26.800000 -13.265137 13.829138
26.800000 -13.247070 13.829138
26.800000 -12.229004 13.829138
26.900000 -12.210938 13.829138
27.100000 -10.567871 13.829138
30.100000 -29.747070 13.983330
29.600000 -28.604980 13.983330
29.600000 -28.087891 13.983330
29.400000 -27.445801 13.983330
29.300000 -27.303711 13.983330
29.100000 -26.161621 13.983330
28.900000 -25.644531 13.983330
28.400000 -24.752441 13.983330
28.000000 -24.110352 13.983330
27.900000 -22.968262 13.983330
27.800000 -23.076172 13.983330
28.000000 -20.649902 13.983330
28.200000 -20.507812 13.983330
28.200000 -20.115723 13.983330
28.200000 -18.848633 13.983330
27.900000 -17.581543 13.983330
27.500000 -17.439453 13.983330
27.200000 -16.922363 13.983330
27.000000 -16.530273 13.983330
26.900000 -15.013184 13.983330
26.800000 -15.246094 13.983330
26.800000 -14.104004 13.983330
26.800000 -13.586914 13.983330
26.900000 -13.069824 13.983330
26.900000 -12.552734 13.983330
26.900000 -12.035645 13.983330
27.200000 -10.768555 13.983330
29.900000 -28.678711 14.111150
29.600000 -28.781250 14.111150
29.500000 -27.758789 14.111150
29.300000 -26.736328 14.111150
29.100000 -26.463867 14.111150
29.000000 -26.191406 14.111150
28.600000 -24.418945 14.111150
28.200000 -24.771484 14.111150
28.000000 -24.124023 14.111150
27.900000 -22.726562 14.111150
28.000000 -22.454102 14.111150
28.100000 -21.431641 14.111150
28.200000 -20.784180 14.111150
28.200000 -20.261719 14.111150
28.300000 -20.114258 14.111150
28.200000 -19.216797 14.111150
28.000000 -18.694336 14.111150
27.500000 -17.921875 14.111150
27.200000 -16.776367 14.111150
27.000000 -16.380859 14.111150
26.900000 -15.360352 14.111150
26.800000 -14.839844 14.111150
26.800000 -13.569336 14.111150
26.800000 -13.673828 14.111150
26.900000 -12.403320 14.111150
26.900000 -12.257812 14.111150
27.000000 -12.112305 14.111150
27.200000 -10.841797 14.111150
30.100000 -29.089355 14.250381
29.600000 -28.318359 14.250381
29.500000 -28.047363 14.250381
29.400000 -26.651367 14.250381
29.200000 -26.630371 14.250381
29.100000 -25.484375 14.250381
29.000000 -24.712891 14.250381
28.600000 -24.566406 14.250381
28.200000 -23.294922 14.250381
28.000000 -23.398438 14.250381
28.100000 -22.126953 14.250381
28.200000 -21.730469 14.250381
28.200000 -21.083984 14.250381
28.300000 -20.562500 14.250381
28.300000 -20.041016 14.250381
28.200000 -19.019531 14.250381
28.000000 -18.498047 14.250381
27.500000 -18.226562 14.250381
27.200000 -17.205078 14.250381
27.000000 -16.183594 14.250381
26.900000 -16.037109 14.250381
26.800000 -14.515625 14.250381
26.800000 -13.994141 14.250381
26.800000 -13.972656 14.250381
26.900000 -12.326172 14.250381
26.900000 -12.554688 14.250381
27.000000 -11.658203 14.250381
27.200000 -11.386719 14.250381
30.000000 -29.449219 14.405779
29.600000 -28.425293 14.405779
29.500000 -28.276367 14.405779
29.400000 -27.502441 14.405779
29.200000 -26.478516 14.405779
29.000000 -25.829590 14.405779
29.000000 -25.430664 14.405779
28.800000 -24.406738 14.405779
28.400000 -23.632812 14.405779
28.200000 -23.233887 14.405779
28.300000 -22.834961 14.405779
28.200000 -21.811035 14.405779
28.200000 -21.162109 14.405779
28.300000 -20.638184 14.405779
28.300000 -19.864258 14.405779
28.200000 -19.590332 14.405779
27.800000 -17.941406 14.405779
27.300000 -17.292480 14.405779
27.200000 -17.143555 14.405779
27.000000 -16.619629 14.405779
27.000000 -15.595703 14.405779
26.900000 -15.196777 14.405779
26.800000 -14.172852 14.405779
26.900000 -13.023926 14.405779
26.900000 -13.375000 14.405779
26.900000 -12.357422 14.405779
27.000000 -12.089844 14.405779
29.600000 -28.139648 14.545664
29.600000 -28.239746 14.545664
29.500000 -27.464844 14.545664
29.300000 -26.189941 14.545664
29.100000 -25.790039 14.545664
29.000000 -25.265137 14.545664
28.900000 -24.240234 14.545664
28.600000 -23.840332 14.545664
28.400000 -22.565430 14.545664
28.300000 -22.540527 14.545664
28.200000 -21.265625 14.545664
28.300000 -21.120117 14.545664
28.300000 -20.349609 14.545664
28.300000 -19.454102 14.545664
28.200000 -19.683594 14.545664
27.800000 -17.913086 14.545664
27.400000 -17.892578 14.545664
27.200000 -16.872070 14.545664
27.000000 -16.601562 14.545664
26.900000 -14.831055 14.545664
27.000000 -14.685547 14.545664
27.000000 -14.415039 14.545664
26.900000 -14.144531 14.545664
26.900000 -12.374023 14.545664
26.900000 -12.603516 14.545664
26.900000 -11.208008 14.545664
27.200000 -11.437500 14.545664
30.200000 -29.179688 14.688328
29.700000 -28.285156 14.688328
29.600000 -27.890625 14.688328
29.500000 -26.621094 14.688328
29.300000 -26.851562 14.688328
29.200000 -25.957031 14.688328
29.000000 -25.562500 14.688328
28.900000 -24.917969 14.688328
28.600000 -23.898438 14.688328
28.400000 -23.378906 14.688328
28.300000 -21.859375 14.688328
28.300000 -21.589844 14.688328
28.400000 -20.945312 14.688328
28.400000 -20.425781 14.688328
28.200000 -20.281250 14.688328
28.200000 -18.761719 14.688328
27.800000 -18.117188 14.688328
27.300000 -17.597656 14.688328
27.200000 -16.828125 14.688328
27.000000 -16.808594 14.688328
26.900000 -15.414062 14.688328
27.000000 -14.894531 14.688328
27.000000 -14.125000 14.688328
26.900000 -13.230469 14.688328
26.900000 -13.335938 14.688328
26.900000 -12.691406 14.688328
27.000000 -11.046875 14.688328
29.700000 -28.937500 14.830693
29.600000 -27.537109 14.830693
29.500000 -27.511719 14.830693
29.400000 -26.611328 14.830693
29.200000 -25.835938 14.830693
29.000000 -25.435547 14.830693
28.900000 -24.660156 14.830693
28.600000 -24.009766 14.830693
28.400000 -23.359375 14.830693
28.300000 -22.958984 14.830693
28.300000 -21.558594 14.830693
28.500000 -21.033203 14.830693
28.400000 -20.132812 14.830693
28.200000 -20.357422 14.830693
28.200000 -19.457031 14.830693
27.800000 -17.931641 14.830693
27.300000 -18.031250 14.830693
27.200000 -17.133301 14.830693
27.000000 -16.360352 14.830693
26.900000 -16.087402 14.830693
26.900000 -14.439453 14.830693
27.000000 -14.166504 14.830693
26.900000 -14.143555 14.830693
27.000000 -12.495605 14.830693
27.100000 -12.972656 14.830693
27.100000 -11.074707 14.830693
27.200000 -11.426758 14.830693
30.300000 -29.398438 14.968147
29.800000 -29.001953 14.968147
29.700000 -28.355469 14.968147
29.600000 -26.958984 14.968147
29.400000 -26.562500 14.968147
29.300000 -26.414062 14.968147
29.100000 -25.390625 14.968147
28.900000 -24.617188 14.968147
28.700000 -23.968750 14.968147
28.400000 -23.320312 14.968147
28.300000 -22.796875 14.968147
28.300000 -21.773438 14.968147
28.500000 -21.000000 14.968147
28.400000 -20.226562 14.968147
28.200000 -19.703125 14.968147
28.200000 -19.429688 14.968147
27.900000 -18.906250 14.968147
27.500000 -17.257812 14.968147
27.200000 -17.484375 14.968147
27.100000 -16.585938 14.968147
26.900000 -15.187500 14.968147
26.900000 -15.664062 14.968147
27.000000 -14.265625 14.968147
26.900000 -14.242188 14.968147
26.900000 -12.593750 14.968147
27.100000 -12.570312 14.968147
27.100000 -12.046875 14.968147
30.400000 -29.749023 15.110275
30.100000 -29.224609 15.110275
29.700000 -28.450195 15.110275
29.600000 -27.800781 15.110275
29.500000 -27.026367 15.110275
29.300000 -26.501953 15.110275
29.200000 -25.727539 15.110275
29.000000 -25.203125 15.110275
28.800000 -23.678711 15.110275
28.600000 -23.654297 15.110275
28.400000 -23.004883 15.110275
28.400000 -21.605469 15.110275
28.500000 -21.581055 15.110275
28.400000 -20.556641 15.110275
28.200000 -20.407227 15.110275
28.200000 -19.632812 15.110275
28.100000 -18.483398 15.110275
27.600000 -18.208984 15.110275
27.200000 -17.684570 15.110275
27.100000 -16.785156 15.110275
27.000000 -15.260742 15.110275
26.900000 -15.736328 15.110275
26.900000 -14.711914 15.110275
27.000000 -13.937500 15.110275
27.000000 -12.792969 15.110275
27.100000 -13.023438 15.110275
27.100000 -12.628906 15.110275
27.200000 -11.859375 15.110275
27.600000 -11.089844 15.110275
30.400000 -29.204102 15.252507
30.000000 -28.182129 15.252507
29.700000 -28.035156 15.252507
29.600000 -27.263184 15.252507
29.500000 -26.241211 15.252507
29.400000 -25.469238 15.252507
29.200000 -25.572266 15.252507
29.100000 -24.675293 15.252507
28.800000 -24.278320 15.252507
28.600000 -23.631348 15.252507
28.500000 -22.859375 15.252507
28.400000 -22.341797 15.252507
28.500000 -21.699219 15.252507
28.400000 -21.056641 15.252507
28.200000 -20.414062 15.252507
28.200000 -19.646484 15.252507
28.100000 -18.003906 15.252507
27.600000 -17.236328 15.252507
27.200000 -17.593750 15.252507
27.100000 -17.076172 15.252507
27.000000 -15.433594 15.252507
27.000000 -15.166016 15.252507
27.000000 -14.523438 15.252507
27.000000 -14.380859 15.252507
27.000000 -12.863281 15.252507
27.000000 -12.595703 15.252507
27.100000 -11.328125 15.252507
27.200000 -11.560547 15.252507
27.600000 -11.417969 15.252507
30.500000 -29.870605 15.408317
30.100000 -28.603516 15.408317
29.700000 -28.086426 15.408317
29.700000 -27.319336 15.408317
29.600000 -26.802246 15.408317
29.500000 -26.285156 15.408317
29.300000 -25.393066 15.408317
29.100000 -25.000977 15.408317
28.900000 -24.233887 15.408317
28.700000 -23.216797 15.408317
28.400000 -23.199707 15.408317
28.400000 -22.057617 15.408317
28.400000 -21.540527 15.408317
28.500000 -21.148438 15.408317
28.400000 -20.631348 15.408317
28.200000 -19.489258 15.408317
28.200000 -18.722168 15.408317
27.900000 -18.455078 15.408317
27.400000 -16.937988 15.408317
27.200000 -16.295898 15.408317
27.100000 -16.653809 15.408317
27.000000 -15.886719 15.408317
26.900000 -15.119629 15.408317
27.000000 -14.602539 15.408317
27.000000 -13.585449 15.408317
27.000000 -12.443359 15.408317
27.100000 -12.551270 15.408317
27.200000 -11.659180 15.408317
30.600000 -29.664062 15.536866
30.100000 -29.017090 15.536866
29.700000 -27.870117 15.536866
29.700000 -27.848145 15.536866
29.600000 -27.076172 15.536866
29.500000 -26.429199 15.536866
29.400000 -25.532227 15.536866
29.100000 -24.510254 15.536866
28.900000 -24.488281 15.536866
28.800000 -23.341309 15.536866
28.500000 -22.569336 15.536866
28.400000 -22.172363 15.536866
28.400000 -20.900391 15.536866
28.400000 -20.878418 15.536866
28.400000 -20.356445 15.536866
28.200000 -19.084473 15.536866
28.200000 -19.312500 15.536866
27.900000 -17.418457 15.536866
27.500000 -17.774414 15.536866
27.300000 -16.755371 15.536866
27.200000 -16.111328 15.536866
27.000000 -14.967285 15.536866
26.900000 -15.198242 15.536866
26.900000 -14.304199 15.536866
27.000000 -12.660156 15.536866
27.000000 -13.266113 15.536866
27.100000 -11.497070 15.536866
27.200000 -11.478027 15.536866
30.300000 -29.294434 15.677189
29.800000 -28.899414 15.677189
29.700000 -27.629395 15.677189
29.600000 -27.609375 15.677189
29.500000 -27.089844 15.677189
29.500000 -26.195312 15.677189
29.300000 -25.550781 15.677189
29.000000 -24.906250 15.677189
28.800000 -24.261719 15.677189
28.700000 -23.492188 15.677189
28.400000 -22.847656 15.677189
28.200000 -21.578125 15.677189
28.200000 -21.558594 15.677189
28.400000 -21.039062 15.677189
28.400000 -19.519531 15.677189
28.200000 -18.875000 15.677189
28.200000 -18.855469 15.677189
27.800000 -18.210938 15.677189
27.400000 -16.566406 15.677189
27.200000 -17.046875 15.677189
27.100000 -15.902344 15.677189
27.000000 -15.382812 15.677189
26.900000 -14.488281 15.677189
27.000000 -13.593750 15.677189
27.000000 -13.074219 15.677189
27.000000 -12.429688 15.677189
27.200000 -12.535156 15.677189
27.300000 -11.140625 15.677189
27.700000 -10.621094 15.677189
30.500000 -29.390625 15.831933
30.000000 -28.867188 15.831933
29.700000 -27.843750 15.831933
29.700000 -27.070312 15.831933
29.600000 -26.921875 15.831933
29.500000 -25.773438 15.831933
29.200000 -24.875000 15.831933
28.600000 -24.851562 15.831933
28.600000 -24.453125 15.831933
28.600000 -23.804688 15.831933
28.400000 -22.156250 15.831933
28.100000 -21.757812 15.831933
28.100000 -21.859375 15.831933
28.400000 -20.335938 15.831933
28.400000 -20.562500 15.831933
28.300000 -19.539062 15.831933
28.200000 -19.140625 15.831933
28.100000 -18.242188 15.831933
27.700000 -17.718750 15.831933
27.300000 -17.070312 15.831933
27.200000 -15.921875 15.831933
27.000000 -15.773438 15.831933
26.900000 -13.875000 15.831933
26.900000 -14.356445 15.831933
27.000000 -13.337891 15.831933
27.000000 -13.069336 15.831933
27.200000 -12.425781 15.831933
27.300000 -10.907227 15.831933
30.700000 -29.371582 15.972023
30.000000 -28.972656 15.972023
29.800000 -28.448730 15.972023
29.700000 -27.549805 15.972023
29.600000 -26.775879 15.972023
29.500000 -25.876953 15.972023
28.500000 -24.704102 15.972023
28.500000 -23.555176 15.972023
28.600000 -23.406250 15.972023
28.500000 -22.762207 15.972023
28.200000 -21.993164 15.972023
28.100000 -21.974121 15.972023
28.200000 -20.455078 15.972023
28.400000 -20.561035 15.972023
28.400000 -19.416992 15.972023
28.200000 -19.397949 15.972023
28.200000 -18.253906 15.972023
27.800000 -17.609863 15.972023
27.400000 -16.715820 15.972023
27.200000 -16.321777 15.972023
27.100000 -15.802734 15.972023
27.000000 -14.533691 15.972023
26.900000 -13.889648 15.972023
26.900000 -13.745605 15.972023
27.000000 -12.101562 15.972023
27.100000 -12.082520 15.972023
27.300000 -11.438477 15.972023
30.600000 -29.939453 16.113396
30.000000 -29.291504 16.113396
29.800000 -28.393555 16.113396
29.700000 -27.745605 16.113396
29.600000 -26.972656 16.113396
29.500000 -26.199707 16.113396
28.400000 -24.903809 16.113396
28.400000 -24.005859 16.113396
28.300000 -22.959961 16.113396
28.100000 -22.687012 16.113396
28.000000 -21.539062 16.113396
28.200000 -21.266113 16.113396
28.300000 -20.493164 16.113396
28.300000 -19.470215 16.113396
28.300000 -18.822266 16.113396
28.200000 -18.049316 16.113396
27.900000 -17.776367 16.113396
27.500000 -16.878418 16.113396
27.200000 -15.355469 16.113396
27.100000 -14.957520 16.113396
27.000000 -15.309570 16.113396
26.900000 -13.536621 16.113396
27.000000 -13.763672 16.113396
27.000000 -12.240723 16.113396
27.100000 -12.217773 16.113396
27.300000 -11.194824 16.113396
