30.900000 -20.349609 5.744998
30.700000 -20.472168 5.744998
30.600000 -19.094727 5.744998
30.700000 -18.592285 5.744998
32.100000 -27.610840 5.892999
32.100000 -27.103516 5.892999
32.000000 -25.846191 5.892999
31.800000 -25.463867 5.892999
31.600000 -24.706543 5.892999
31.400000 -24.074219 5.892999
31.300000 -23.816895 5.892999
31.100000 -22.559570 5.892999
31.000000 -22.052246 5.892999
30.800000 -21.169922 5.892999
30.700000 -20.787598 5.892999
30.600000 -20.280273 5.892999
30.500000 -19.397949 5.892999
30.500000 -19.265625 5.892999
31.800000 -26.617188 6.038000
31.700000 -26.109375 6.038000
31.500000 -25.351562 6.038000
31.300000 -24.593750 6.038000
31.200000 -23.960938 6.038000
31.000000 -23.328125 6.038000
30.900000 -22.695312 6.038000
30.700000 -22.437500 6.038000
30.600000 -21.429688 6.038000
30.500000 -21.171875 6.038000
30.400000 -20.289062 6.038000
31.500000 -26.625977 6.187999
31.400000 -26.115723 6.187999
31.300000 -25.605469 6.187999
31.100000 -24.970215 6.187999
30.900000 -24.209961 6.187999
30.800000 -23.324707 6.187999
30.700000 -22.689453 6.187999
30.500000 -21.804199 6.187999
30.300000 -21.668945 6.187999
30.200000 -20.408691 6.187999
30.100000 -20.523438 6.187999
31.500000 -27.815430 6.333000
31.400000 -26.931152 6.333000
31.200000 -26.421875 6.333000
31.100000 -25.413574 6.333000
30.900000 -25.155273 6.333000
30.700000 -24.146973 6.333000
30.500000 -23.638672 6.333000
30.400000 -22.880371 6.333000
30.200000 -21.872070 6.333000
30.100000 -21.488770 6.333000
30.000000 -20.480469 6.333000
29.800000 -19.722168 6.333000
29.800000 -19.963867 6.333000
30.100000 -18.830566 6.333000
31.700000 -27.195313 6.472000
31.600000 -26.061523 6.472000
31.400000 -25.302734 6.472000
31.200000 -24.918945 6.472000
31.000000 -24.410156 6.472000
30.900000 -23.901367 6.472000
30.700000 -22.892578 6.472000
30.600000 -22.383789 6.472000
30.400000 -21.625000 6.472000
30.300000 -21.246094 6.472000
30.100000 -20.242188 6.472000
29.900000 -19.738281 6.472000
30.200000 -18.984375 6.472000
32.000000 -27.031738 6.621000
31.800000 -26.024414 6.621000
31.600000 -25.892090 6.621000
31.400000 -25.134766 6.621000
31.200000 -24.502441 6.621000
31.100000 -23.995117 6.621000
31.000000 -23.487793 6.621000
30.800000 -22.230469 6.621000
30.600000 -21.848145 6.621000
30.500000 -20.965820 6.621000
30.400000 -20.208496 6.621000
30.200000 -20.201172 6.621000
30.300000 -19.443848 6.621000
32.000000 -26.664551 6.767000
31.800000 -26.158203 6.767000
31.700000 -25.026855 6.767000
31.500000 -24.145508 6.767000
31.300000 -24.264160 6.767000
31.100000 -22.882812 6.767000
31.000000 -22.251465 6.767000
30.800000 -21.870117 6.767000
30.700000 -21.613770 6.767000
30.600000 -20.607422 6.767000
30.400000 -19.601074 6.767000
30.300000 -18.969727 6.767000
30.600000 -18.588379 6.767000
32.100000 -26.505859 6.914999
31.900000 -25.499512 6.914999
31.800000 -25.243164 6.914999
31.600000 -24.361816 6.914999
31.400000 -24.105469 6.914999
31.300000 -22.974121 6.914999
31.000000 -22.217773 6.914999
30.900000 -21.836426 6.914999
30.800000 -21.580078 6.914999
30.600000 -20.448730 6.914999
30.500000 -19.942383 6.914999
32.000000 -25.829102 7.053999
31.900000 -24.945801 7.053999
31.700000 -24.812500 7.053999
31.500000 -23.805664 7.053999
31.300000 -22.923828 7.053999
31.100000 -22.166992 7.053999
31.000000 -22.035156 7.053999
30.800000 -21.528320 7.053999
30.700000 -20.771484 7.053999
30.600000 -20.264648 7.053999
30.500000 -19.257812 7.053999
30.900000 -18.375977 7.053999
32.200000 -26.457031 7.201999
32.100000 -25.447266 7.201999
31.900000 -24.937500 7.201999
31.700000 -24.052734 7.201999
31.500000 -23.542969 7.201999
31.300000 -22.908203 7.201999
31.200000 -22.523437 7.201999
31.100000 -21.888672 7.201999
30.900000 -21.253906 7.201999
30.800000 -19.869141 7.201999
30.600000 -19.984375 7.201999
30.700000 -18.727051 7.201999
32.100000 -26.017090 7.350000
32.000000 -24.882812 7.350000
31.800000 -24.748535 7.350000
31.600000 -23.614258 7.350000
31.500000 -23.354980 7.350000
31.300000 -22.720703 7.350000
31.100000 -21.711426 7.350000
31.000000 -21.452148 7.350000
30.800000 -20.817871 7.350000
30.700000 -19.558594 7.350000
32.500000 -25.792480 7.497000
32.100000 -25.660156 7.497000
31.900000 -25.027832 7.497000
31.800000 -24.020508 7.497000
31.600000 -23.513184 7.497000
31.400000 -22.380859 7.497000
31.200000 -22.373535 7.497000
31.100000 -21.366211 7.497000
30.900000 -21.108887 7.497000
30.800000 -20.351562 7.497000
30.600000 -19.469238 7.497000
30.800000 -19.086914 7.497000
32.400000 -25.718750 7.644999
32.100000 -25.337402 7.644999
31.800000 -24.199707 7.644999
31.600000 -23.568359 7.644999
31.400000 -22.937012 7.644999
31.200000 -21.680664 7.644999
31.100000 -21.674316 7.644999
30.900000 -20.792969 7.644999
30.800000 -20.036621 7.644999
30.600000 -19.405273 7.644999
30.800000 -19.148926 7.644999
32.000000 -25.377930 7.784000
31.900000 -24.869629 7.784000
31.700000 -24.361328 7.784000
31.600000 -23.603027 7.784000
31.400000 -22.594727 7.784000
31.200000 -22.461426 7.784000
31.100000 -21.828125 7.784000
30.900000 -21.199219 7.784000
30.800000 -20.445312 7.784000
30.600000 -19.941406 7.784000
30.700000 -18.562500 7.784000
30.900000 -18.683594 7.784000
32.100000 -26.054688 7.930000
32.000000 -24.796875 7.930000
31.800000 -24.789062 7.930000
31.600000 -23.656250 7.930000
31.400000 -22.898437 7.930000
31.300000 -22.515625 7.930000
31.100000 -22.132812 7.930000
31.000000 -20.875000 7.930000
30.800000 -20.617188 7.930000
30.600000 -19.609375 7.930000
32.200000 -26.183594 8.078000
32.000000 -25.301758 8.078000
31.800000 -24.919922 8.078000
31.600000 -24.288086 8.078000
31.400000 -23.156250 8.078000
31.300000 -22.899414 8.078000
31.200000 -22.142578 8.078000
31.000000 -21.135742 8.078000
30.800000 -20.628906 8.078000
30.700000 -19.747070 8.078000
30.600000 -19.615234 8.078000
30.800000 -19.233398 8.078000
32.100000 -26.792969 8.228000
32.000000 -25.659180 8.228000
31.800000 -25.650391 8.228000
31.700000 -24.516602 8.228000
31.500000 -24.007812 8.228000
31.300000 -22.874023 8.228000
31.100000 -22.490234 8.228000
31.000000 -21.981445 8.228000
30.900000 -21.597656 8.228000
30.800000 -20.713867 8.228000
30.600000 -19.830078 8.228000
31.900000 -26.246582 8.364000
31.800000 -25.862305 8.364000
31.700000 -25.353027 8.364000
31.500000 -24.343750 8.364000
31.300000 -23.962402 8.364000
31.100000 -23.331055 8.364000
31.000000 -22.574707 8.364000
30.900000 -22.068359 8.364000
30.700000 -21.062012 8.364000
30.600000 -20.305664 8.364000
30.400000 -19.799316 8.364000
30.400000 -19.042969 8.364000
32.000000 -27.268555 8.513000
31.800000 -26.384766 8.513000
31.600000 -25.500977 8.513000
31.500000 -24.867188 8.513000
31.200000 -24.483398 8.513000
31.100000 -23.099609 8.513000
31.000000 -23.090820 8.513000
30.800000 -22.457031 8.513000
30.700000 -21.823242 8.513000
30.600000 -21.314453 8.513000
30.400000 -20.680664 8.513000
30.200000 -19.296875 8.513000
30.400000 -19.040039 8.513000
31.800000 -27.076172 8.659999
31.600000 -26.319336 8.659999
31.400000 -25.187500 8.659999
31.200000 -24.555664 8.659999
31.000000 -23.923828 8.659999
30.900000 -23.791992 8.659999
30.800000 -23.160156 8.659999
30.600000 -22.403320 8.659999
30.500000 -21.271484 8.659999
30.400000 -21.014648 8.659999
30.200000 -20.007812 8.659999
31.700000 -28.296387 8.806000
31.700000 -27.415039 8.806000
31.500000 -26.908691 8.806000
31.300000 -25.527344 8.806000
31.100000 -25.270996 8.806000
30.900000 -24.889648 8.806000
30.800000 -23.758301 8.806000
30.600000 -23.376953 8.806000
30.500000 -22.745605 8.806000
30.400000 -21.989258 8.806000
30.200000 -21.357910 8.806000
30.000000 -20.851562 8.806000
29.900000 -19.970215 8.806000
30.100000 -19.213867 8.806000
31.600000 -28.345703 8.953999
31.400000 -27.086914 8.953999
31.200000 -26.953125 8.953999
31.000000 -25.949707 8.953999
30.800000 -25.571289 8.953999
30.700000 -24.817871 8.953999
30.600000 -24.064453 8.953999
30.400000 -23.311035 8.953999
30.200000 -23.182617 8.953999
30.100000 -22.304199 8.953999
30.000000 -21.675781 8.953999
29.800000 -20.422363 8.953999
29.700000 -19.668945 8.953999
29.700000 -19.415527 8.953999
31.400000 -28.027832 9.092999
31.500000 -27.394531 9.092999
31.300000 -27.011230 9.092999
31.100000 -26.377930 9.092999
31.000000 -26.119629 9.092999
30.800000 -24.986328 9.092999
30.600000 -24.228027 9.092999
30.400000 -24.094727 9.092999
30.300000 -23.086426 9.092999
30.100000 -21.953125 9.092999
30.000000 -21.946289 9.092999
29.800000 -20.564453 9.092999
29.700000 -19.932617 9.092999
29.600000 -19.425781 9.092999
29.900000 -19.418945 9.092999
31.600000 -26.855469 9.241999
31.400000 -25.970703 9.241999
31.200000 -25.960938 9.241999
31.000000 -25.201172 9.241999
30.900000 -24.691406 9.241999
30.700000 -23.806641 9.241999
30.600000 -22.921875 9.241999
30.400000 -22.287109 9.241999
30.300000 -21.902344 9.241999
30.100000 -21.392578 9.241999
30.000000 -20.757812 9.241999
32.200000 -27.143066 9.387000
31.600000 -26.384766 9.387000
31.400000 -25.626465 9.387000
31.200000 -25.118164 9.387000
31.000000 -24.234863 9.387000
30.900000 -23.601562 9.387000
30.800000 -23.093262 9.387000
30.600000 -22.584961 9.387000
30.500000 -21.951660 9.387000
30.300000 -20.818359 9.387000
30.200000 -20.685059 9.387000
31.900000 -26.396484 9.534000
31.700000 -26.015137 9.534000
31.500000 -25.383789 9.534000
31.300000 -24.502441 9.534000
31.200000 -24.246094 9.534000
31.000000 -23.364746 9.534000
30.800000 -22.483398 9.534000
30.700000 -21.602051 9.534000
30.500000 -21.470703 9.534000
30.400000 -20.464355 9.534000
30.200000 -19.833008 9.534000
30.200000 -19.701660 9.534000
30.500000 -19.070312 9.534000
31.900000 -26.228516 9.673998
31.800000 -25.843262 9.673998
31.700000 -25.333008 9.673998
31.500000 -24.697754 9.673998
31.300000 -23.812500 9.673998
31.100000 -23.557129 9.673998
30.900000 -22.926758 9.673998
30.800000 -22.046387 9.673998
30.700000 -21.291016 9.673998
30.500000 -20.285645 9.673998
30.400000 -20.155273 9.673998
32.100000 -27.125000 9.822000
32.000000 -26.492188 9.822000
31.800000 -25.734375 9.822000
31.700000 -24.851563 9.822000
31.500000 -24.593750 9.822000
31.300000 -23.335938 9.822000
31.100000 -22.578125 9.822000
31.000000 -22.195313 9.822000
30.800000 -21.312500 9.822000
30.700000 -20.929688 9.822000
30.500000 -20.671875 9.822000
30.400000 -20.039063 9.822000
30.600000 -19.031250 9.822000
32.100000 -27.220703 9.969999
32.100000 -27.214355 9.969999
32.000000 -25.958008 9.969999
31.900000 -25.326660 9.969999
31.700000 -24.570312 9.969999
31.500000 -23.938965 9.969999
31.300000 -23.557617 9.969999
31.200000 -22.801270 9.969999
31.000000 -21.794922 9.969999
30.900000 -21.663574 9.969999
30.700000 -20.907227 9.969999
30.600000 -20.025879 9.969999
30.400000 -19.394531 9.969999
30.600000 -19.138184 9.969999
32.300000 -26.706055 10.118000
32.000000 -26.323730 10.118000
31.900000 -25.316406 10.118000
31.700000 -24.934082 10.118000
31.600000 -24.426758 10.118000
31.400000 -23.294434 10.118000
31.200000 -22.912109 10.118000
31.000000 -21.779785 10.118000
30.900000 -21.397461 10.118000
30.700000 -21.265137 10.118000
30.600000 -19.882812 10.118000
30.400000 -20.000488 10.118000
30.600000 -18.743164 10.118000
31.700000 -24.129883 10.264999
31.400000 -23.746094 10.264999
31.300000 -23.112305 10.264999
31.100000 -21.853516 10.264999
31.000000 -21.719727 10.264999
30.800000 -20.960938 10.264999
30.600000 -20.077148 10.264999
30.500000 -19.693359 10.264999
30.600000 -18.684570 10.264999
32.000000 -25.483398 10.404999
31.700000 -24.973145 10.404999
31.500000 -24.212891 10.404999
31.300000 -23.452637 10.404999
31.200000 -22.567383 10.404999
31.000000 -21.557129 10.404999
30.900000 -21.171875 10.404999
30.800000 -20.915039 10.404999
30.600000 -20.283203 10.404999
31.900000 -25.879883 10.549999
31.700000 -24.745605 10.549999
31.600000 -24.111328 10.549999
31.400000 -23.352051 10.549999
31.200000 -23.092773 10.549999
31.100000 -22.458496 10.549999
30.900000 -21.574219 10.549999
30.800000 -21.439941 10.549999
30.700000 -20.805664 10.549999
30.600000 -19.421387 10.549999
30.500000 -19.287109 10.549999
30.800000 -18.777832 10.549999
32.200000 -27.511719 10.698000
32.200000 -26.505371 10.698000
32.000000 -26.124023 10.698000
31.900000 -25.367676 10.698000
31.700000 -24.361328 10.698000
31.500000 -24.104980 10.698000
31.300000 -23.473633 10.698000
31.100000 -22.592285 10.698000
31.000000 -22.085938 10.698000
30.900000 -21.204590 10.698000
30.700000 -21.198242 10.698000
30.600000 -19.941895 10.698000
32.400000 -27.322266 10.845000
32.100000 -26.441406 10.845000
31.900000 -25.810547 10.845000
31.800000 -25.554688 10.845000
31.700000 -24.923828 10.845000
31.500000 -24.417969 10.845000
31.300000 -23.662109 10.845000
31.100000 -22.531250 10.845000
30.900000 -21.650391 10.845000
30.800000 -21.769531 10.845000
30.700000 -21.013672 10.845000
30.500000 -20.132812 10.845000
31.800000 -25.908203 10.985999
31.700000 -25.649902 10.985999
31.500000 -24.891602 10.985999
31.300000 -24.258301 10.985999
31.100000 -23.000000 10.985999
31.000000 -22.623535 10.985999
30.900000 -22.247070 10.985999
30.700000 -21.620605 10.985999
30.600000 -20.994141 10.985999
30.400000 -20.242676 10.985999
31.900000 -27.914063 11.131999
31.900000 -27.031250 11.131999
31.800000 -26.023438 11.131999
31.600000 -25.765625 11.131999
31.400000 -25.382812 11.131999
31.200000 -24.000000 11.131999
31.000000 -23.492188 11.131999
30.900000 -22.984375 11.131999
30.800000 -22.601562 11.131999
30.600000 -21.718750 11.131999
30.500000 -21.460938 11.131999
30.300000 -20.203125 11.131999
30.200000 -19.570312 11.131999
30.400000 -18.937500 11.131999
31.800000 -27.089355 11.279000
31.600000 -26.833008 11.279000
31.500000 -26.201660 11.279000
31.300000 -25.070312 11.279000
31.100000 -24.813965 11.279000
30.900000 -23.557617 11.279000
30.800000 -22.801270 11.279000
30.600000 -22.169922 11.279000
30.500000 -21.788574 11.279000
30.300000 -21.282227 11.279000
30.200000 -20.650879 11.279000
30.000000 -19.894531 11.279000
30.200000 -19.263184 11.279000
31.600000 -28.143555 11.425999
31.800000 -27.634766 11.425999
31.500000 -27.000977 11.425999
31.300000 -26.242188 11.425999
31.100000 -25.608398 11.425999
31.000000 -24.599609 11.425999
30.800000 -24.215820 11.425999
30.700000 -23.707031 11.425999
30.500000 -22.573242 11.425999
30.400000 -22.439453 11.425999
30.200000 -21.680664 11.425999
30.000000 -21.171875 11.425999
29.900000 -20.038086 11.425999
30.000000 -19.404297 11.425999
30.300000 -19.145508 11.425999
31.500000 -27.322266 11.574999
31.300000 -27.187500 11.574999
31.100000 -26.431152 11.574999
30.900000 -25.799805 11.574999
30.700000 -24.543457 11.574999
30.600000 -24.037109 11.574999
30.400000 -23.405762 11.574999
30.300000 -22.649414 11.574999
30.100000 -22.643066 11.574999
30.000000 -21.011719 11.574999
29.900000 -20.755371 11.574999
29.700000 -19.749023 11.574999
29.800000 -19.992676 11.574999
31.700000 -28.404785 11.714000
31.500000 -27.144531 11.714000
31.300000 -26.634277 11.714000
31.100000 -25.749023 11.714000
30.900000 -25.613770 11.714000
30.700000 -24.478516 11.714000
30.600000 -24.093262 11.714000
30.500000 -23.708008 11.714000
30.300000 -22.947754 11.714000
30.200000 -21.937500 11.714000
30.100000 -21.557617 11.714000
29.900000 -20.427734 11.714000
29.700000 -20.172852 11.714000
29.800000 -19.792969 11.714000
31.900000 -27.859375 11.862999
31.800000 -27.100586 11.862999
31.600000 -26.466797 11.862999
31.400000 -26.083008 11.862999
31.200000 -25.324219 11.862999
31.100000 -24.690430 11.862999
30.900000 -24.181641 11.862999
30.700000 -23.047852 11.862999
30.600000 -22.664062 11.862999
30.500000 -21.780273 11.862999
30.300000 -21.271484 11.862999
30.200000 -20.262695 11.862999
30.000000 -20.003906 11.862999
30.100000 -19.870117 11.862999
31.700000 -26.570312 12.008000
31.600000 -25.437500 12.008000
31.400000 -24.929688 12.008000
31.200000 -24.046875 12.008000
31.000000 -23.789062 12.008000
30.900000 -23.281250 12.008000
30.800000 -22.523437 12.008000
30.600000 -21.765625 12.008000
30.500000 -21.382812 12.008000
30.400000 -20.375000 12.008000
32.300000 -27.643555 12.156000
32.100000 -27.012207 12.156000
31.900000 -26.255859 12.156000
31.700000 -25.374512 12.156000
31.600000 -25.118164 12.156000
31.400000 -24.611816 12.156000
31.200000 -23.730469 12.156000
31.000000 -22.724121 12.156000
30.900000 -22.467773 12.156000
30.800000 -21.336426 12.156000
30.600000 -20.455078 12.156000
30.500000 -20.073730 12.156000
30.400000 -19.317383 12.156000
30.500000 -19.186035 12.156000
32.200000 -26.539062 12.295000
32.000000 -25.656250 12.295000
31.800000 -25.148437 12.295000
31.700000 -24.640625 12.295000
31.500000 -23.759766 12.295000
31.300000 -23.128906 12.295000
31.100000 -22.873047 12.295000
31.000000 -21.992188 12.295000
30.800000 -21.361328 12.295000
30.700000 -20.605469 12.295000
30.600000 -20.224609 12.295000
32.200000 -25.967773 12.442000
32.000000 -25.335938 12.442000
31.900000 -24.704102 12.442000
31.700000 -24.197266 12.442000
31.600000 -23.315430 12.442000
31.400000 -22.808594 12.442000
31.200000 -22.676758 12.442000
31.000000 -21.919922 12.442000
30.900000 -21.413086 12.442000
30.800000 -20.156250 12.442000
30.600000 -19.275879 12.442000
30.600000 -19.145508 12.442000
30.800000 -18.390137 12.442000
32.600000 -27.210937 12.588999
32.300000 -26.828125 12.588999
32.200000 -25.945313 12.588999
32.000000 -25.437500 12.588999
31.900000 -24.929688 12.588999
31.700000 -24.171875 12.588999
31.500000 -23.164062 12.588999
31.300000 -22.281250 12.588999
31.200000 -21.648438 12.588999
31.000000 -21.390625 12.588999
30.900000 -20.882812 12.588999
30.800000 -19.875000 12.588999
32.300000 -26.222656 12.735999
32.100000 -25.341797 12.735999
31.900000 -24.710938 12.735999
31.800000 -23.955078 12.735999
31.600000 -23.449219 12.735999
31.500000 -23.193359 12.735999
31.300000 -21.812500 12.735999
31.100000 -21.431641 12.735999
31.000000 -21.050781 12.735999
30.900000 -20.669922 12.735999
30.800000 -19.914062 12.735999
30.900000 -18.908203 12.735999
32.200000 -25.531250 12.883998
32.000000 -25.027344 12.883998
31.900000 -24.398438 12.883998
31.700000 -23.394531 12.883998
31.600000 -23.140625 12.883998
31.400000 -22.511719 12.883998
31.300000 -21.632812 12.883998
31.100000 -20.753906 12.883998
31.000000 -20.500000 12.883998
30.900000 -20.121094 12.883998
32.500000 -25.746582 13.024999
32.100000 -24.987305 13.024999
31.900000 -24.978027 13.024999
31.800000 -23.968750 13.024999
31.700000 -23.089355 13.024999
31.500000 -22.959961 13.024999
31.300000 -22.205566 13.024999
31.200000 -21.076172 13.024999
31.000000 -20.696777 13.024999
30.800000 -20.317383 13.024999
30.700000 -19.062988 13.024999
30.900000 -18.433594 13.024999
31.600000 -23.541016 13.171999
31.400000 -22.159180 13.171999
31.300000 -22.277344 13.171999
31.100000 -21.020508 13.171999
31.000000 -20.888672 13.171999
30.900000 -20.131836 13.171999
30.800000 -19.250000 13.171999
31.000000 -18.369141 13.171999
32.400000 -26.031738 13.318000
32.100000 -24.898438 13.318000
31.900000 -24.890137 13.318000
31.700000 -23.756836 13.318000
31.600000 -23.373535 13.318000
31.500000 -22.865234 13.318000
31.300000 -22.231934 13.318000
31.200000 -21.098633 13.318000
31.000000 -20.590332 13.318000
30.900000 -19.832031 13.318000
30.800000 -19.573730 13.318000
31.000000 -18.815430 13.318000
32.300000 -26.093750 13.465999
32.100000 -25.583984 13.465999
31.900000 -24.699219 13.465999
31.700000 -24.064453 13.465999
31.600000 -23.429688 13.465999
31.500000 -22.544922 13.465999
31.300000 -22.285156 13.465999
31.100000 -21.400391 13.465999
30.900000 -20.390625 13.465999
30.800000 -20.255859 13.465999
30.700000 -19.371094 13.465999
30.900000 -18.736328 13.465999
32.200000 -26.040527 13.614000
32.000000 -25.409180 13.614000
31.900000 -25.027832 13.614000
31.800000 -24.021484 13.614000
31.600000 -23.765137 13.614000
31.400000 -22.508789 13.614000
31.300000 -22.127441 13.614000
31.100000 -21.621094 13.614000
31.000000 -21.114746 13.614000
30.800000 -20.483398 13.614000
30.700000 -19.227051 13.614000
30.900000 -19.220703 13.614000
32.200000 -26.180664 13.752999
32.000000 -25.671387 13.752999
31.900000 -25.037109 13.752999
31.700000 -24.402832 13.752999
31.600000 -23.893555 13.752999
31.400000 -23.134277 13.752999
31.200000 -22.500000 13.752999
31.000000 -21.745605 13.752999
30.900000 -20.991211 13.752999
30.700000 -20.111816 13.752999
30.600000 -19.732422 13.752999
30.700000 -19.353027 13.752999
30.900000 -18.348633 13.752999
32.200000 -26.204590 13.899998
32.000000 -25.572266 13.899998
31.800000 -25.314941 13.899998
31.700000 -24.057617 13.899998
31.400000 -23.675293 13.899998
31.200000 -22.917969 13.899998
31.100000 -22.785645 13.899998
31.000000 -21.403320 13.899998
30.800000 -20.895996 13.899998
30.700000 -20.013672 13.899998
30.600000 -19.631348 13.899998
30.600000 -19.249023 13.899998
30.900000 -18.866699 13.899998
32.200000 -27.259766 14.046000
32.100000 -26.877930 14.046000
32.000000 -26.371094 14.046000
31.800000 -25.739258 14.046000
31.600000 -24.607422 14.046000
31.400000 -23.975586 14.046000
31.200000 -23.218750 14.046000
31.100000 -23.211914 14.046000
30.900000 -22.330078 14.046000
30.800000 -21.948242 14.046000
30.700000 -21.191406 14.046000
30.500000 -20.184570 14.046000
30.400000 -19.677734 14.046000
30.600000 -19.045898 14.046000
31.300000 -25.077148 14.194000
31.100000 -23.820312 14.194000
31.000000 -23.188477 14.194000
30.800000 -22.431641 14.194000
30.700000 -21.924805 14.194000
30.500000 -21.042969 14.194000
30.300000 -20.536133 14.194000
30.200000 -20.154297 14.194000
31.800000 -27.512695 14.333999
31.800000 -27.253906 14.333999
31.600000 -26.745117 14.333999
31.400000 -25.861328 14.333999
31.300000 -25.602539 14.333999
31.200000 -24.968750 14.333999
31.000000 -23.961426 14.333999
30.800000 -23.579102 14.333999
30.600000 -22.696777 14.333999
30.500000 -22.314453 14.333999
30.400000 -21.307129 14.333999
30.200000 -20.674805 14.333999
30.100000 -20.292480 14.333999
30.200000 -19.410156 14.333999
31.500000 -27.086426 14.481998
31.400000 -26.452148 14.481998
31.200000 -25.692871 14.481998
31.000000 -24.808594 14.481998
30.800000 -24.549316 14.481998
30.700000 -23.415039 14.481998
30.500000 -22.780762 14.481998
30.400000 -22.271484 14.481998
30.200000 -21.387207 14.481998
30.100000 -20.752930 14.481998
30.000000 -19.993652 14.481998
31.800000 -26.631836 14.629000
31.700000 -26.124512 14.629000
31.500000 -25.492188 14.629000
31.300000 -24.734863 14.629000
31.100000 -24.352539 14.629000
31.000000 -23.345215 14.629000
30.800000 -22.962891 14.629000
30.700000 -22.580566 14.629000
30.600000 -21.823242 14.629000
30.400000 -20.690918 14.629000
30.200000 -20.183594 14.629000
32.000000 -26.441406 14.776999
31.800000 -25.684082 14.776999
31.700000 -25.051758 14.776999
31.500000 -24.419434 14.776999
31.300000 -23.662109 14.776999
31.100000 -23.529785 14.776999
31.000000 -22.772461 14.776999
30.800000 -22.015137 14.776999
30.700000 -21.382812 14.776999
30.600000 -21.000488 14.776999
30.500000 -19.743164 14.776999
32.200000 -26.255859 14.924999
32.000000 -25.875977 14.924999
31.800000 -24.871094 14.924999
31.700000 -24.366211 14.924999
31.500000 -23.861328 14.924999
31.300000 -23.106445 14.924999
31.200000 -22.226562 14.924999
31.000000 -21.596680 14.924999
30.900000 -21.216797 14.924999
30.700000 -20.336914 14.924999
30.600000 -19.832031 14.924999
32.300000 -26.111328 15.062000
32.100000 -25.728027 15.062000
31.900000 -24.594727 15.062000
31.800000 -24.086426 15.062000
31.600000 -23.578125 15.062000
31.400000 -22.574219 15.062000
31.200000 -22.445312 15.062000
31.100000 -21.941406 15.062000
31.000000 -20.812500 15.062000
30.900000 -20.183594 15.062000
30.800000 -20.054688 15.062000
30.700000 -18.675781 15.062000
31.000000 -18.546875 15.062000
32.500000 -27.103516 15.208999
32.500000 -26.971191 15.208999
32.300000 -26.338867 15.208999
32.100000 -25.206543 15.208999
31.900000 -24.449219 15.208999
31.800000 -23.816895 15.208999
31.600000 -23.059570 15.208999
31.500000 -23.052246 15.208999
31.300000 -22.294922 15.208999
31.200000 -21.412598 15.208999
31.100000 -20.280273 15.208999
30.900000 -20.147949 15.208999
30.800000 -19.765625 15.208999
30.900000 -18.884766 15.208999
32.600000 -26.852539 15.356000
32.300000 -25.844238 15.356000
32.200000 -25.210938 15.356000
32.000000 -24.952637 15.356000
31.800000 -23.819336 15.356000
31.700000 -23.061035 15.356000
31.500000 -22.302734 15.356000
31.400000 -22.294434 15.356000
31.200000 -21.161133 15.356000
31.100000 -20.652832 15.356000
30.900000 -20.019531 15.356000
30.800000 -19.136230 15.356000
31.000000 -19.127930 15.356000
32.600000 -26.316895 15.506999
32.400000 -26.183594 15.506999
32.200000 -25.050293 15.506999
32.000000 -24.416992 15.506999
31.900000 -23.783691 15.506999
31.700000 -22.900391 15.506999
31.600000 -22.392090 15.506999
31.400000 -21.633789 15.506999
31.200000 -21.500488 15.506999
31.100000 -20.742188 15.506999
30.900000 -19.608887 15.506999
30.900000 -19.100586 15.506999
32.500000 -26.009277 15.653999
32.200000 -24.752930 15.653999
32.000000 -24.371582 15.653999
31.900000 -23.990234 15.653999
31.800000 -23.483887 15.653999
31.600000 -22.602539 15.653999
31.400000 -21.471191 15.653999
31.300000 -21.214844 15.653999
31.100000 -20.708496 15.653999
30.900000 -19.702148 15.653999
30.900000 -19.195801 15.653999
31.100000 -18.689453 15.653999
32.300000 -25.254395 15.790000
32.100000 -24.369141 15.790000
31.900000 -24.108887 15.790000
31.800000 -23.223633 15.790000
31.700000 -22.463379 15.790000
31.400000 -21.578125 15.790000
31.300000 -20.948730 15.790000
31.200000 -20.819336 15.790000
31.000000 -19.564941 15.790000
30.900000 -18.935547 15.790000
31.100000 -18.306152 15.790000
31.800000 -23.398438 15.938999
31.600000 -22.890625 15.938999
31.400000 -22.257812 15.938999
31.300000 -21.625000 15.938999
31.200000 -20.617187 15.938999
31.100000 -19.859375 15.938999
30.900000 -19.476562 15.938999
31.100000 -18.843750 15.938999
32.400000 -25.061523 16.085998
32.200000 -24.556641 16.085998
32.000000 -24.426758 16.085998
31.900000 -23.171875 16.085998
31.700000 -22.666992 16.085998
31.600000 -22.287109 16.085998
31.400000 -21.532227 16.085998
31.300000 -21.027344 16.085998
31.100000 -20.647461 16.085998
31.000000 -19.267578 16.085998
32.200000 -25.014648 16.234999
32.000000 -24.132813 16.234999
31.900000 -23.875977 16.234999
31.700000 -22.744141 16.234999
31.600000 -21.987305 16.234999
31.400000 -21.355469 16.234999
31.200000 -21.098633 16.234999
31.100000 -20.341797 16.234999
31.000000 -19.959961 16.234999
32.500000 -26.096680 16.375999
32.300000 -25.337402 16.375999
32.100000 -24.953125 16.375999
32.000000 -23.946289 16.375999
31.800000 -23.439453 16.375999
31.700000 -22.682617 16.375999
31.500000 -21.800781 16.375999
31.300000 -21.418945 16.375999
31.100000 -20.662109 16.375999
31.000000 -20.655273 16.375999
30.900000 -19.898438 16.375999
32.300000 -25.931641 16.519000
32.200000 -25.421875 16.519000
32.000000 -24.787109 16.519000
31.900000 -24.152344 16.519000
31.700000 -23.267578 16.519000
31.600000 -23.007812 16.519000
31.400000 -22.498047 16.519000
31.300000 -21.738281 16.519000
31.100000 -20.978516 16.519000
30.900000 -20.093750 16.519000
30.900000 -19.335938 16.519000
32.300000 -25.851562 16.667999
32.100000 -25.092285 16.667999
31.900000 -24.833008 16.667999
31.800000 -24.073730 16.667999
31.600000 -23.814453 16.667999
31.500000 -23.180176 16.667999
31.300000 -22.295898 16.667999
31.100000 -21.786621 16.667999
31.000000 -21.027344 16.667999
30.800000 -20.518066 16.667999
30.800000 -19.258789 16.667999
30.900000 -18.749512 16.667999
32.100000 -25.746582 16.814000
31.900000 -25.114258 16.814000
31.700000 -24.856934 16.814000
31.600000 -23.474609 16.814000
31.400000 -23.467285 16.814000
31.200000 -22.459961 16.814000
31.100000 -21.702637 16.814000
30.900000 -21.070312 16.814000
30.800000 -20.437988 16.814000
30.700000 -20.180664 16.814000
32.100000 -26.421875 16.961999
32.000000 -26.167969 16.961999
31.800000 -25.539063 16.961999
31.700000 -25.035156 16.961999
31.500000 -24.281250 16.961999
31.300000 -23.152344 16.961999
31.200000 -23.023438 16.961999
31.000000 -22.644531 16.961999
30.900000 -21.890625 16.961999
30.700000 -20.886719 16.961999
30.600000 -20.507812 16.961999
30.500000 -19.628906 16.961999
30.600000 -19.375000 16.961999
31.900000 -26.874023 17.102000
31.800000 -25.990234 17.102000
31.600000 -25.606445 17.102000
31.400000 -24.597656 17.102000
31.300000 -24.338867 17.102000
31.100000 -23.455078 17.102000
30.900000 -22.821289 17.102000
30.800000 -22.312500 17.102000
30.700000 -21.558594 17.102000
30.500000 -20.554688 17.102000
30.400000 -19.800781 17.102000
30.300000 -19.421875 17.102000
31.600000 -26.383789 17.247998
31.500000 -26.126465 17.247998
31.300000 -25.744141 17.247998
31.100000 -24.361816 17.247998
31.000000 -24.354492 17.247998
30.800000 -23.097168 17.247998
30.700000 -22.464844 17.247998
30.500000 -21.957520 17.247998
30.400000 -21.825195 17.247998
30.300000 -21.067871 17.247998
30.100000 -19.810547 17.247998
31.600000 -27.588867 17.396000
31.400000 -27.205566 17.396000
31.200000 -26.572266 17.396000
31.100000 -25.563965 17.396000
30.900000 -24.930664 17.396000
30.700000 -24.047363 17.396000
30.500000 -23.539063 17.396000
30.400000 -22.655762 17.396000
30.300000 -22.022461 17.396000
30.100000 -21.514160 17.396000
30.000000 -20.880859 17.396000
29.800000 -20.622559 17.396000
29.800000 -19.489258 17.396000
30.100000 -19.230957 17.396000
31.700000 -26.773437 17.543999
31.500000 -26.263672 17.543999
31.400000 -25.253906 17.543999
31.100000 -25.244141 17.543999
31.000000 -23.984375 17.543999
30.800000 -23.724609 17.543999
30.700000 -23.339844 17.543999
30.500000 -22.080078 17.543999
30.400000 -22.070312 17.543999
30.200000 -21.310547 17.543999
30.100000 -20.175781 17.543999
31.700000 -26.222656 17.683000
31.500000 -25.587891 17.683000
31.300000 -25.078125 17.683000
31.200000 -24.320801 17.683000
31.100000 -23.313477 17.683000
30.900000 -22.556152 17.683000
30.800000 -22.423828 17.683000
30.600000 -21.416504 17.683000
30.500000 -21.159180 17.683000
30.300000 -20.401855 17.683000
32.000000 -26.884766 17.828999
31.900000 -26.125977 17.828999
31.700000 -25.367188 17.828999
31.500000 -24.483398 17.828999
31.300000 -23.599609 17.828999
31.100000 -23.465820 17.828999
31.000000 -22.707031 17.828999
30.800000 -22.323242 17.828999
30.700000 -21.314453 17.828999
30.600000 -20.180664 17.828999
30.400000 -19.546875 17.828999
32.000000 -26.375488 17.977998
31.800000 -25.617188 17.977998
30.700000 -22.825684 17.977998
30.700000 -21.692383 17.977998
30.700000 -21.184082 17.977998
30.700000 -20.675781 17.977998
30.600000 -19.667480 17.977998
32.500000 -27.024902 18.123999
32.200000 -26.519531 18.123999
32.100000 -25.889160 18.123999
31.900000 -25.383789 18.123999
31.800000 -24.753418 18.123999
31.600000 -23.623047 18.123999
31.400000 -23.742676 18.123999
31.200000 -22.737305 18.123999
31.000000 -22.106934 18.123999
30.900000 -21.726563 18.123999
30.800000 -20.596191 18.123999
30.700000 -19.715820 18.123999
30.500000 -19.585449 18.123999
30.700000 -19.080078 18.123999
32.100000 -25.809082 18.271000
31.900000 -24.802734 18.271000
31.800000 -24.421387 18.271000
31.600000 -24.040039 18.271000
31.400000 -23.408691 18.271000
31.200000 -22.902344 18.271000
31.100000 -22.020996 18.271000
30.900000 -20.889648 18.271000
30.800000 -20.633301 18.271000
30.600000 -20.251953 18.271000
32.200000 -25.906250 18.411000
32.100000 -25.273438 18.411000
31.900000 -25.140625 18.411000
31.700000 -24.007812 18.411000
31.500000 -23.750000 18.411000
31.400000 -22.621582 18.411000
31.200000 -21.993164 18.411000
31.100000 -21.614746 18.411000
31.000000 -21.111328 18.411000
30.700000 -20.482910 18.411000
30.600000 -19.729492 18.411000
30.700000 -19.101074 18.411000
32.000000 -25.070312 18.558999
31.800000 -24.562500 18.558999
31.600000 -23.679687 18.558999
31.400000 -23.296875 18.558999
31.200000 -22.039062 18.558999
31.100000 -21.656250 18.558999
31.000000 -21.023437 18.558999
30.900000 -20.015625 18.558999
30.700000 -19.382812 18.558999
32.300000 -26.209961 18.705999
32.000000 -25.078125 18.705999
31.800000 -23.814453 18.705999
31.500000 -23.057617 18.705999
31.300000 -22.675781 18.705999
31.200000 -21.918945 18.705999
31.000000 -21.162109 18.705999
30.900000 -20.655273 18.705999
30.800000 -19.773438 18.705999
30.700000 -19.141602 18.705999
30.800000 -19.009766 18.705999
32.200000 -25.933594 18.855999
32.000000 -25.050293 18.855999
31.800000 -24.666992 18.855999
31.600000 -24.283691 18.855999
31.500000 -23.400391 18.855999
31.300000 -22.892090 18.855999
31.200000 -21.633789 18.855999
31.000000 -21.125488 18.855999
30.900000 -20.742188 18.855999
30.700000 -20.358887 18.855999
32.100000 -25.619629 19.000999
31.900000 -25.114258 19.000999
31.700000 -24.108887 19.000999
31.600000 -23.478516 19.000999
31.400000 -23.473145 19.000999
31.300000 -22.842773 19.000999
31.100000 -21.587402 19.000999
30.900000 -21.332031 19.000999
30.800000 -20.201660 19.000999
30.700000 -20.196289 19.000999
32.100000 -25.790527 19.140000
32.000000 -25.280273 19.140000
31.800000 -24.770020 19.140000
31.700000 -24.384766 19.140000
31.500000 -23.749512 19.140000
31.300000 -22.864258 19.140000
31.200000 -22.229004 19.140000
31.000000 -21.343750 19.140000
30.900000 -20.714844 19.140000
30.800000 -20.335938 19.140000
30.600000 -19.207031 19.140000
30.600000 -18.828125 19.140000
32.100000 -26.158203 19.288000
32.000000 -25.401367 19.288000
31.800000 -25.144531 19.288000
31.600000 -24.512695 19.288000
31.400000 -23.255859 19.288000
31.300000 -22.874023 19.288000
31.100000 -22.242188 19.288000
31.000000 -22.110352 19.288000
30.800000 -21.353516 19.288000
30.700000 -20.471680 19.288000
30.500000 -19.589844 19.288000
30.600000 -19.333008 19.288000
30.800000 -18.701172 19.288000
31.900000 -26.271484 19.434000
31.700000 -25.514160 19.434000
31.600000 -24.381836 19.434000
31.400000 -24.374512 19.434000
31.200000 -23.367188 19.434000
31.000000 -22.984863 19.434000
30.900000 -21.727539 19.434000
30.800000 -21.345215 19.434000
30.700000 -20.962891 19.434000
30.500000 -19.705566 19.434000
31.900000 -26.594238 19.584999
31.700000 -26.084961 19.584999
31.500000 -25.450684 19.584999
31.400000 -24.566406 19.584999
31.200000 -23.807129 19.584999
31.000000 -23.047852 19.584999
30.900000 -22.538574 19.584999
30.700000 -22.154297 19.584999
30.600000 -21.395020 19.584999
30.500000 -21.010742 19.584999
30.300000 -19.501465 19.584999
30.300000 -19.492188 19.584999
30.600000 -19.107910 19.584999
31.800000 -26.582031 19.728999
31.600000 -26.447266 19.728999
31.400000 -25.812500 19.728999
31.200000 -25.055176 19.728999
31.000000 -24.047852 19.728999
30.900000 -23.040527 19.728999
30.800000 -22.908203 19.728999
30.600000 -22.400879 19.728999
30.500000 -21.768555 19.728999
30.400000 -21.261230 19.728999
30.200000 -20.503906 19.728999
31.700000 -27.186523 19.869000
31.400000 -26.429688 19.869000
31.300000 -26.047852 19.869000
31.100000 -25.291016 19.869000
30.900000 -24.409180 19.869000
30.700000 -23.402344 19.869000
30.600000 -23.270508 19.869000
30.500000 -22.263672 19.869000
30.300000 -21.506836 19.869000
30.200000 -21.500000 19.869000
30.000000 -19.870605 19.869000
29.900000 -19.491211 19.869000
30.200000 -19.361816 19.869000
31.900000 -27.788086 20.017999
31.400000 -27.281250 20.017999
31.200000 -26.774414 20.017999
31.000000 -26.267578 20.017999
30.800000 -25.260742 20.017999
30.700000 -24.753906 20.017999
30.500000 -24.122070 20.017999
30.400000 -23.365234 20.017999
30.200000 -22.108398 20.017999
30.000000 -21.726563 20.017999
29.900000 -20.844727 20.017999
29.800000 -20.587891 20.017999
31.300000 -27.322266 20.165999
31.200000 -26.816406 20.165999
31.000000 -26.310547 20.165999
30.800000 -25.554688 20.165999
30.600000 -24.423828 20.165999
30.400000 -23.917969 20.165999
30.300000 -23.162109 20.165999
30.100000 -23.031250 20.165999
30.000000 -21.775391 20.165999
29.800000 -21.269531 20.165999
29.700000 -20.263672 20.165999
31.700000 -27.980469 20.311000
31.700000 -27.476563 20.311000
31.500000 -26.597656 20.311000
31.300000 -25.718750 20.311000
31.100000 -25.589844 20.311000
30.900000 -24.335938 20.311000
30.800000 -24.207031 20.311000
30.600000 -23.453125 20.311000
30.500000 -22.199219 20.311000
30.300000 -22.445312 20.311000
30.100000 -20.941406 20.311000
30.000000 -21.187500 20.311000
29.900000 -19.933594 20.311000
29.900000 -19.554688 20.311000
31.700000 -27.142578 20.449999
31.600000 -26.509277 20.449999
31.400000 -25.875977 20.449999
31.200000 -24.992676 20.449999
31.000000 -24.359375 20.449999
30.900000 -23.603516 20.449999
30.700000 -22.972656 20.449999
30.600000 -22.341797 20.449999
30.400000 -21.335938 20.449999
30.200000 -21.330078 20.449999
30.100000 -20.574219 20.449999
32.100000 -27.527344 20.597000
31.900000 -27.268555 20.597000
31.800000 -26.509766 20.597000
31.600000 -25.500977 20.597000
31.400000 -25.117188 20.597000
31.200000 -23.983398 20.597000
31.000000 -23.974609 20.597000
30.900000 -23.340820 20.597000
30.800000 -22.457031 20.597000
30.600000 -21.823242 20.597000
30.500000 -21.064453 20.597000
30.300000 -20.430664 20.597000
30.200000 -19.796875 20.597000
30.400000 -19.290039 20.597000
32.000000 -26.562988 20.745000
31.800000 -26.179688 20.745000
31.600000 -25.046387 20.745000
31.400000 -24.413086 20.745000
31.300000 -23.529785 20.745000
31.100000 -23.021484 20.745000
30.900000 -22.763184 20.745000
30.800000 -21.629883 20.745000
30.700000 -21.496582 20.745000
30.500000 -20.738281 20.745000
30.300000 -19.979980 20.745000
30.300000 -18.971680 20.745000
30.600000 -18.463379 20.745000
32.400000 -27.097656 20.891998
31.900000 -26.340332 20.891998
31.800000 -25.708008 20.891998
31.600000 -24.575684 20.891998
31.400000 -24.193359 20.891998
31.200000 -23.686035 20.891998
31.100000 -22.303711 20.891998
30.900000 -22.296387 20.891998
30.800000 -21.539063 20.891998
30.700000 -20.656738 20.891998
30.500000 -20.149414 20.891998
32.200000 -27.437500 21.037999
32.100000 -26.547852 21.037999
31.800000 -25.165527 21.037999
31.700000 -24.783203 21.037999
31.500000 -24.275879 21.037999
31.300000 -23.768555 21.037999
31.100000 -22.511230 21.037999
31.000000 -22.003906 21.037999
30.900000 -21.746582 21.037999
30.700000 -21.239258 21.037999
30.600000 -20.356934 21.037999
30.500000 -19.474609 21.037999
30.600000 -19.092285 21.037999
32.100000 -26.111328 21.181999
31.800000 -25.226562 21.181999
31.600000 -24.466797 21.181999
31.500000 -23.832031 21.181999
31.300000 -23.572266 21.181999
31.200000 -22.562500 21.181999
31.100000 -22.183105 21.181999
30.900000 -21.053711 21.181999
30.700000 -21.049316 21.181999
30.600000 -19.794922 21.181999
31.800000 -25.205566 21.326000
31.700000 -24.698242 21.326000
31.500000 -24.190918 21.326000
31.300000 -23.308594 21.326000
31.200000 -22.301270 21.326000
31.000000 -21.793945 21.326000
30.900000 -20.786621 21.326000
30.700000 -20.904297 21.326000
30.600000 -20.146973 21.326000
31.200000 -23.140137 21.473999
31.100000 -22.381836 21.473999
30.900000 -21.623535 21.473999
30.800000 -20.865234 21.473999
30.700000 -20.106934 21.473999
30.500000 -19.473633 21.473999
30.600000 -18.840332 21.473999
31.800000 -24.877930 21.622000
31.700000 -24.870605 21.622000
31.500000 -23.613281 21.622000
31.300000 -23.230957 21.622000
31.200000 -22.598633 21.622000
31.000000 -21.841309 21.622000
30.900000 -21.208984 21.622000
30.700000 -20.701660 21.622000
30.600000 -20.319336 21.622000
32.100000 -26.729492 21.761999
31.900000 -25.970703 21.761999
31.800000 -25.336914 21.761999
31.600000 -24.703125 21.761999
31.400000 -23.946777 21.761999
31.200000 -22.940430 21.761999
31.000000 -22.434082 21.761999
30.900000 -22.052734 21.761999
30.800000 -20.921387 21.761999
30.700000 -20.790039 21.761999
30.500000 -19.783691 21.761999
32.000000 -26.531250 21.908999
31.900000 -25.773438 21.908999
31.800000 -25.265625 21.908999
31.600000 -24.882812 21.908999
31.500000 -24.000000 21.908999
31.200000 -22.992188 21.908999
31.100000 -22.859375 21.908999
30.900000 -21.601562 21.908999
30.800000 -21.468750 21.908999
30.600000 -20.710938 21.908999
30.500000 -20.328125 21.908999
32.100000 -27.669922 22.054000
32.000000 -26.788086 22.054000
31.900000 -26.156250 22.054000
31.700000 -25.899414 22.054000
31.600000 -24.642578 22.054000
31.400000 -24.010742 22.054000
31.200000 -23.878906 22.054000
31.000000 -22.747070 22.054000
30.900000 -22.490234 22.054000
30.800000 -21.858398 22.054000
30.600000 -20.726562 22.054000
30.400000 -20.719727 22.054000
30.300000 -20.087891 22.054000
30.500000 -19.456055 22.054000
31.800000 -26.306641 22.203000
31.600000 -25.675781 22.203000
31.500000 -25.044922 22.203000
31.300000 -24.414062 22.203000
31.100000 -24.033203 22.203000
31.000000 -22.902344 22.203000
30.800000 -22.896484 22.203000
30.700000 -21.515625 22.203000
30.500000 -21.009766 22.203000
30.400000 -20.753906 22.203000
30.200000 -19.873047 22.203000
30.300000 -18.867188 22.203000
31.600000 -25.794922 22.349000
31.400000 -25.664063 22.349000
31.200000 -25.158203 22.349000
31.100000 -24.402344 22.349000
30.900000 -23.896484 22.349000
30.800000 -22.890625 22.349000
30.600000 -21.884766 22.349000
30.500000 -21.878906 22.349000
30.300000 -20.748047 22.349000
30.100000 -20.242188 22.349000
31.600000 -27.023438 22.489000
31.400000 -26.640625 22.489000
31.200000 -25.257812 22.489000
31.100000 -25.250000 22.489000
30.900000 -23.867188 22.489000
30.700000 -23.984375 22.489000
30.600000 -23.103516 22.489000
30.500000 -22.722656 22.489000
30.300000 -22.091797 22.489000
30.100000 -20.710938 22.489000
30.000000 -20.705078 22.489000
31.900000 -27.583008 22.637000
31.400000 -26.824219 22.637000
31.200000 -26.440430 22.637000
31.000000 -25.306641 22.637000
30.800000 -24.797852 22.637000
30.700000 -24.289063 22.637000
30.500000 -23.405273 22.637000
30.400000 -23.521484 22.637000
30.200000 -22.887695 22.637000
30.100000 -21.878906 22.637000
29.900000 -20.995117 22.637000
29.800000 -20.611328 22.637000
31.400000 -26.992188 22.783999
31.200000 -26.234375 22.783999
31.000000 -25.601562 22.783999
30.900000 -25.593750 22.783999
30.700000 -24.710938 22.783999
30.500000 -23.828125 22.783999
30.400000 -23.070312 22.783999
30.200000 -22.812500 22.783999
30.100000 -22.304687 22.783999
30.000000 -21.671875 22.783999
29.800000 -20.914062 22.783999
31.800000 -27.715820 22.931998
31.700000 -27.333984 22.931998
31.600000 -26.827148 22.931998
31.400000 -25.820312 22.931998
31.200000 -25.438477 22.931998
31.000000 -24.556641 22.931998
30.900000 -23.674805 22.931998
30.800000 -23.417969 22.931998
30.600000 -23.161133 22.931998
30.500000 -21.904297 22.931998
30.300000 -21.522461 22.931998
30.200000 -20.515625 22.931998
30.000000 -20.258789 22.931998
30.000000 -19.626953 22.931998
32.200000 -27.789063 23.077999
31.900000 -26.781250 23.077999
31.700000 -26.401367 23.077999
31.500000 -25.896484 23.077999
31.400000 -24.891602 23.077999
31.200000 -24.011719 23.077999
31.100000 -23.506836 23.077999
30.900000 -23.251953 23.077999
30.800000 -22.122070 23.077999
30.600000 -22.117188 23.077999
30.500000 -21.237305 23.077999
30.400000 -20.107422 23.077999
30.200000 -19.852539 23.077999
30.300000 -19.097656 23.077999
32.300000 -27.249023 23.218000
32.100000 -26.615234 23.218000
31.900000 -26.356445 23.218000
31.700000 -25.597656 23.218000
31.600000 -24.713867 23.218000
31.400000 -23.955078 23.218000
31.200000 -23.196289 23.218000
31.000000 -23.312500 23.218000
30.900000 -22.434082 23.218000
30.800000 -21.305664 23.218000
30.600000 -21.052246 23.218000
30.500000 -20.548828 23.218000
30.300000 -19.295410 23.218000
30.500000 -19.291992 23.218000
32.100000 -26.738281 23.366000
32.000000 -25.856445 23.366000
31.800000 -24.974609 23.366000
31.600000 -24.092773 23.366000
31.400000 -23.585938 23.366000
31.300000 -22.829102 23.366000
31.100000 -22.822266 23.366000
31.000000 -22.190430 23.366000
30.800000 -21.183594 23.366000
30.700000 -20.301758 23.366000
30.500000 -19.794922 23.366000
30.500000 -19.038086 23.366000
30.800000 -18.781250 23.366000
32.200000 -26.295410 23.512000
32.000000 -26.038086 23.512000
31.800000 -24.905762 23.512000
31.700000 -24.523438 23.512000
31.600000 -23.641113 23.512000
31.400000 -23.383789 23.512000
31.200000 -22.626465 23.512000
31.000000 -21.994141 23.512000
30.900000 -21.111816 23.512000
30.800000 -20.104492 23.512000
30.700000 -19.972168 23.512000
30.600000 -19.339844 23.512000
30.900000 -19.082520 23.512000
32.300000 -26.204102 23.660000
32.100000 -25.568848 23.660000
31.900000 -24.808594 23.660000
31.800000 -24.673340 23.660000
31.600000 -23.538086 23.660000
31.400000 -23.527832 23.660000
31.300000 -22.892578 23.660000
31.100000 -21.882324 23.660000
31.000000 -20.997070 23.660000
30.800000 -20.111816 23.660000
30.700000 -19.476563 23.660000
32.300000 -26.448242 23.798000
32.100000 -25.437500 23.798000
32.000000 -25.055176 23.798000
31.800000 -24.422852 23.798000
31.700000 -23.665527 23.798000
31.500000 -22.658203 23.798000
31.300000 -21.900879 23.798000
31.100000 -21.643555 23.798000
31.000000 -20.636230 23.798000
30.900000 -20.628906 23.798000
30.800000 -19.371582 23.798000
30.700000 -18.739258 23.798000
31.000000 -18.481934 23.798000
32.600000 -26.889648 23.945998
32.300000 -25.996094 23.945998
32.000000 -24.986816 23.945998
31.900000 -24.727539 23.945998
31.800000 -23.968262 23.945998
31.600000 -23.458984 23.945998
31.400000 -22.324707 23.945998
31.200000 -21.940430 23.945998
31.200000 -21.556152 23.945998
31.000000 -20.296875 23.945998
30.900000 -20.164062 23.945998
32.000000 -24.836914 24.092999
31.900000 -24.204590 24.092999
31.700000 -23.322266 24.092999
31.600000 -22.814941 24.092999
31.400000 -22.057617 24.092999
31.200000 -21.925293 24.092999
31.100000 -21.042969 24.092999
30.900000 -20.660645 24.092999
30.800000 -20.028320 24.092999
30.700000 -19.020996 24.092999
31.100000 -18.388672 24.092999
31.300000 -22.209961 24.243000
31.200000 -21.328125 24.243000
31.100000 -20.696289 24.243000
31.000000 -20.189453 24.243000
30.800000 -19.432617 24.243000
32.000000 -24.871094 24.387999
31.900000 -24.491211 24.387999
31.700000 -23.861328 24.387999
31.500000 -22.981445 24.387999
31.300000 -21.976562 24.387999
31.200000 -21.721680 24.387999
31.100000 -21.341797 24.387999
30.900000 -19.836914 24.387999
30.800000 -19.832031 24.387999
30.800000 -19.327148 24.387999
31.100000 -18.822266 24.387999
32.200000 -25.736328 24.527999
32.000000 -24.603027 24.527999
31.800000 -24.344727 24.527999
31.700000 -23.336426 24.527999
31.500000 -22.953125 24.527999
31.300000 -22.697266 24.527999
31.200000 -21.441406 24.527999
31.100000 -20.810547 24.527999
30.900000 -20.179687 24.527999
30.800000 -19.923828 24.527999
32.300000 -26.203125 24.677000
32.200000 -25.570312 24.677000
32.000000 -24.812500 24.677000
31.800000 -24.679688 24.677000
31.600000 -23.921875 24.677000
31.500000 -22.789063 24.677000
31.300000 -22.656250 24.677000
31.100000 -22.148438 24.677000
31.000000 -21.265625 24.677000
30.900000 -20.757812 24.677000
30.800000 -20.250000 24.677000
32.300000 -26.279297 24.823000
32.100000 -25.394531 24.823000
31.900000 -24.759766 24.823000
31.800000 -24.250000 24.823000
31.600000 -23.865234 24.823000
31.400000 -23.480469 24.823000
31.200000 -22.345703 24.823000
31.000000 -21.835938 24.823000
30.900000 -21.326172 24.823000
30.800000 -20.566406 24.823000
30.700000 -19.431641 24.823000
32.200000 -26.637695 24.969000
32.000000 -25.879395 24.969000
31.800000 -24.871094 24.969000
31.600000 -24.487793 24.969000
31.500000 -23.354492 24.969000
31.300000 -23.096191 24.969000
31.100000 -22.587891 24.969000
31.000000 -21.579590 24.969000
30.900000 -21.446289 24.969000
30.700000 -20.812988 24.969000
30.600000 -19.804688 24.969000
30.600000 -19.296387 24.969000
30.900000 -18.413086 24.969000
32.000000 -26.477539 25.117999
31.900000 -25.843750 25.117999
31.700000 -24.837402 25.117999
31.600000 -24.581055 25.117999
31.400000 -23.699707 25.117999
31.200000 -23.193359 25.117999
31.100000 -22.687012 25.117999
30.900000 -22.180664 25.117999
30.700000 -20.674316 25.117999
30.600000 -20.042969 25.117999
30.500000 -19.411621 25.117999
30.500000 -18.905273 25.117999
30.800000 -18.523926 25.117999
