27.175000 -17.140625 25.219650
25.150000 -13.406250 25.219650
25.100000 -12.875000 25.219650
25.325000 -11.515625 25.219650
28.150000 -26.218750 25.356671
27.925000 -24.734375 25.356671
27.675000 -23.390625 25.356671
27.400000 -22.078125 25.356671
27.125000 -20.468750 25.356671
26.975000 -18.875000 25.356671
26.925000 -17.906250 25.356671
27.025000 -16.875000 25.356671
25.525000 -13.312500 25.356671
25.400000 -13.046875 25.356671
25.450000 -11.921875 25.356671
28.150000 -25.984375 25.499113
27.950000 -25.000000 25.499113
27.675000 -23.250000 25.499113
27.400000 -21.984375 25.499113
27.125000 -20.937500 25.499113
26.975000 -20.406250 25.499113
26.925000 -17.875000 25.499113
27.175000 -17.156250 25.499113
25.650000 -13.859375 25.499113
25.425000 -11.609375 25.499113
25.450000 -12.156250 25.499113
28.075000 -26.593750 25.627933
27.875000 -24.515625 25.627933
27.650000 -23.109375 25.627933
27.375000 -22.375000 25.627933
27.150000 -20.765625 25.627933
27.000000 -18.937500 25.627933
26.975000 -17.953125 25.627933
27.175000 -16.468750 25.627933
25.625000 -13.750000 25.627933
25.500000 -13.078125 25.627933
25.575000 -10.859375 25.627933
25.900000 -10.671875 25.627933
28.125000 -26.187500 25.780236
27.900000 -24.718750 25.780236
27.650000 -23.609375 25.780236
27.375000 -22.703125 25.780236
27.125000 -21.140625 25.780236
26.950000 -19.750000 25.780236
26.950000 -17.593750 25.780236
27.300000 -17.406250 25.780236
25.725000 -13.031250 25.780236
25.525000 -13.093750 25.780236
28.150000 -27.609375 25.916841
27.975000 -25.250000 25.916841
27.800000 -24.671875 25.916841
27.525000 -23.000000 25.916841
27.200000 -21.828125 25.916841
26.975000 -20.890625 25.916841
26.900000 -18.531250 25.916841
26.975000 -18.171875 25.916841
26.875000 -16.390625 25.916841
25.725000 -13.468750 25.916841
25.600000 -11.578125 25.916841
29.625000 -30.781250 26.047266
28.125000 -27.671875 26.047266
28.075000 -26.312500 26.047266
27.850000 -25.000000 26.047266
27.575000 -22.984375 26.047266
27.325000 -22.531250 26.047266
27.025000 -20.843750 26.047266
26.825000 -19.375000 26.047266
26.425000 -14.609375 26.047266
25.875000 -13.203125 26.047266
25.700000 -12.406250 26.047266
25.775000 -11.890625 26.047266
26.125000 -10.187500 26.047266
28.025000 -27.890625 26.199321
28.025000 -26.156250 26.199321
27.850000 -25.234375 26.199321
27.575000 -23.843750 26.199321
27.250000 -22.468750 26.199321
26.900000 -20.796875 26.199321
26.650000 -19.265625 26.199321
26.425000 -14.718750 26.199321
26.050000 -14.625000 26.199321
25.825000 -12.515625 26.199321
25.850000 -11.765625 26.199321
26.150000 -10.546875 26.199321
29.550000 -30.562500 26.342218
28.100000 -27.562500 26.342218
28.050000 -26.265625 26.342218
27.850000 -24.312500 26.342218
27.575000 -22.671875 26.342218
27.300000 -21.234375 26.342218
27.000000 -20.375000 26.342218
26.775000 -19.671875 26.342218
26.575000 -15.812500 26.342218
26.175000 -14.421875 26.342218
25.900000 -12.515625 26.342218
25.950000 -11.734375 26.342218
26.225000 -10.437500 26.342218
28.125000 -27.437500 26.478441
27.975000 -25.453125 26.478441
27.775000 -24.312500 26.478441
27.600000 -23.234375 26.478441
27.150000 -21.078125 26.478441
26.725000 -20.328125 26.478441
26.725000 -19.015625 26.478441
26.600000 -14.234375 26.478441
26.225000 -13.781250 26.478441
26.000000 -12.781250 26.478441
28.125000 -26.953125 26.620417
27.900000 -25.171875 26.620417
27.650000 -23.843750 26.620417
27.200000 -21.875000 26.620417
26.775000 -21.375000 26.620417
26.675000 -19.531250 26.620417
26.775000 -16.265625 26.620417
26.650000 -14.781250 26.620417
26.225000 -13.390625 26.620417
26.100000 -12.203125 26.620417
26.275000 -10.843750 26.620417
29.725000 -30.062500 26.759860
28.150000 -27.468750 26.759860
27.975000 -25.453125 26.759860
27.700000 -24.515625 26.759860
27.250000 -22.906250 26.759860
26.775000 -21.703125 26.759860
26.650000 -19.750000 26.759860
26.725000 -19.109375 26.759860
26.575000 -14.781250 26.759860
26.225000 -13.203125 26.759860
26.125000 -12.437500 26.759860
29.875000 -30.125000 26.898837
28.275000 -27.406250 26.898837
28.175000 -26.296875 26.898837
27.825000 -24.531250 26.898837
27.175000 -23.093750 26.898837
26.725000 -21.625000 26.898837
26.625000 -20.546875 26.898837
26.700000 -19.234375 26.898837
26.850000 -17.156250 26.898837
27.125000 -15.953125 26.898837
26.950000 -14.890625 26.898837
26.500000 -13.453125 26.898837
26.325000 -12.828125 26.898837
29.800000 -30.375000 27.042665
28.275000 -27.625000 27.042665
28.175000 -25.812500 27.042665
28.025000 -24.859375 27.042665
26.650000 -21.609375 27.042665
26.625000 -19.968750 27.042665
26.700000 -18.984375 27.042665
26.850000 -14.921875 27.042665
26.750000 -14.218750 27.042665
26.375000 -12.453125 27.042665
29.500000 -29.578125 27.175762
28.400000 -26.906250 27.175762
28.275000 -25.468750 27.175762
28.325000 -24.296875 27.175762
26.675000 -20.656250 27.175762
26.650000 -20.468750 27.175762
26.825000 -18.968750 27.175762
27.050000 -18.078125 27.175762
27.175000 -16.437500 27.175762
27.075000 -14.906250 27.175762
26.725000 -13.171875 27.175762
26.425000 -12.625000 27.175762
29.525000 -29.796875 27.318156
28.450000 -26.562500 27.318156
28.300000 -25.109375 27.318156
27.750000 -24.312500 27.318156
27.050000 -23.015625 27.318156
26.750000 -21.281250 27.318156
26.775000 -19.843750 27.318156
27.000000 -18.375000 27.318156
27.375000 -18.156250 27.318156
27.425000 -15.875000 27.318156
27.075000 -15.312500 27.318156
26.750000 -13.671875 27.318156
26.450000 -11.390625 27.318156
29.525000 -29.015625 27.457384
28.525000 -26.593750 27.457384
28.125000 -24.578125 27.457384
26.900000 -22.437500 27.457384
26.900000 -21.156250 27.457384
27.000000 -19.921875 27.457384
27.125000 -16.281250 27.457384
26.975000 -13.921875 27.457384
26.600000 -13.031250 27.457384
26.350000 -12.062500 27.457384
29.375000 -30.187500 27.607442
29.625000 -29.484375 27.607442
28.575000 -26.718750 27.607442
28.350000 -25.390625 27.607442
27.025000 -21.640625 27.607442
27.100000 -20.984375 27.607442
27.225000 -19.578125 27.607442
27.500000 -18.968750 27.607442
27.925000 -16.671875 27.607442
26.925000 -14.625000 27.607442
26.600000 -13.296875 27.607442
26.375000 -11.515625 27.607442
26.550000 -10.656250 27.607442
29.775000 -29.921875 27.736234
29.700000 -29.015625 27.736234
28.600000 -26.406250 27.736234
28.550000 -25.093750 27.736234
27.150000 -22.093750 27.736234
27.400000 -20.609375 27.736234
27.525000 -19.171875 27.736234
27.475000 -18.093750 27.736234
27.450000 -16.625000 27.736234
27.275000 -15.718750 27.736234
26.875000 -13.812500 27.736234
26.525000 -13.265625 27.736234
26.425000 -10.765625 27.736234
26.650000 -9.984375 27.736234
29.500000 -30.125000 27.881609
29.725000 -29.218750 27.881609
28.600000 -25.937500 27.881609
28.475000 -24.250000 27.881609
27.400000 -19.890625 27.881609
27.600000 -17.703125 27.881609
27.425000 -16.562500 27.881609
27.200000 -15.437500 27.881609
26.850000 -13.171875 27.881609
26.525000 -11.875000 27.881609
26.425000 -10.421875 27.881609
26.700000 -10.375000 27.881609
26.725000 -44.312500 28.018915
29.475000 -30.031250 28.018915
29.175000 -27.062500 28.018915
28.625000 -25.593750 28.018915
27.350000 -22.625000 28.018915
27.300000 -21.281250 28.018915
27.500000 -20.656250 28.018915
27.775000 -19.453125 28.018915
27.925000 -17.765625 28.018915
27.650000 -16.859375 28.018915
27.075000 -14.984375 28.018915
26.750000 -12.765625 28.018915
26.525000 -12.515625 28.018915
29.475000 -30.265625 28.167086
29.625000 -29.281250 28.167086
29.425000 -27.468750 28.167086
28.900000 -26.859375 28.167086
28.575000 -24.796875 28.167086
27.550000 -19.140625 28.167086
27.900000 -18.171875 28.167086
27.850000 -17.468750 28.167086
27.375000 -16.093750 28.167086
26.850000 -13.453125 28.167086
26.575000 -12.984375 28.167086
26.450000 -10.750000 28.167086
26.575000 -10.859375 28.167086
29.175000 -27.265625 28.314954
28.775000 -25.531250 28.314954
27.575000 -23.187500 28.314954
27.625000 -21.781250 28.314954
27.750000 -20.593750 28.314954
27.900000 -19.437500 28.314954
28.100000 -17.953125 28.314954
27.075000 -14.140625 28.314954
26.750000 -13.296875 28.314954
26.525000 -12.562500 28.314954
29.275000 -27.687500 28.441719
28.950000 -25.578125 28.441719
28.450000 -24.531250 28.441719
27.825000 -23.406250 28.441719
27.725000 -19.281250 28.441719
27.975000 -17.734375 28.441719
27.725000 -16.968750 28.441719
27.150000 -15.156250 28.441719
26.750000 -14.078125 28.441719
26.550000 -12.656250 28.441719
29.300000 -26.984375 28.595267
28.975000 -26.156250 28.595267
27.675000 -23.500000 28.595267
27.475000 -21.906250 28.595267
27.625000 -19.984375 28.595267
27.975000 -19.250000 28.595267
28.100000 -17.796875 28.595267
27.775000 -16.218750 28.595267
27.125000 -15.515625 28.595267
26.750000 -14.031250 28.595267
26.575000 -11.906250 28.595267
29.350000 -26.765625 28.727809
28.925000 -25.375000 28.727809
27.650000 -21.984375 28.727809
27.775000 -21.640625 28.727809
27.975000 -19.875000 28.727809
28.125000 -18.890625 28.727809
28.125000 -17.968750 28.727809
27.650000 -15.296875 28.727809
27.050000 -13.859375 28.727809
26.825000 -13.203125 28.727809
26.675000 -11.375000 28.727809
29.225000 -27.796875 28.861646
29.150000 -26.640625 28.861646
28.950000 -24.671875 28.861646
27.675000 -21.968750 28.861646
27.925000 -21.015625 28.861646
28.050000 -19.218750 28.861646
28.100000 -18.093750 28.861646
27.950000 -17.046875 28.861646
27.450000 -15.812500 28.861646
27.025000 -14.640625 28.861646
26.725000 -12.093750 28.861646
26.625000 -11.484375 28.861646
26.775000 -9.828125 28.861646
29.600000 -27.890625 29.005635
29.300000 -26.265625 29.005635
28.950000 -24.656250 29.005635
27.750000 -21.312500 29.005635
27.925000 -20.750000 29.005635
28.100000 -19.781250 29.005635
28.175000 -18.296875 29.005635
27.775000 -16.140625 29.005635
27.250000 -15.703125 29.005635
26.925000 -14.156250 29.005635
26.650000 -12.890625 29.005635
26.600000 -11.484375 29.005635
26.925000 -10.500000 29.005635
30.250000 -29.265625 29.143357
30.875000 -28.718750 29.143357
29.175000 -25.843750 29.143357
27.825000 -22.968750 29.143357
27.725000 -21.359375 29.143357
27.875000 -20.234375 29.143357
28.150000 -19.015625 29.143357
28.150000 -17.390625 29.143357
27.625000 -15.796875 29.143357
27.075000 -14.171875 29.143357
26.850000 -13.109375 29.143357
26.700000 -12.078125 29.143357
30.375000 -29.703125 29.289244
30.900000 -28.953125 29.289244
29.275000 -25.703125 29.289244
27.900000 -22.437500 29.289244
27.725000 -21.656250 29.289244
27.875000 -19.562500 29.289244
28.175000 -18.421875 29.289244
28.200000 -17.656250 29.289244
27.700000 -15.546875 29.289244
27.175000 -13.968750 29.289244
26.950000 -13.828125 29.289244
26.725000 -12.390625 29.289244
30.775000 -28.828125 29.423432
29.375000 -25.875000 29.423432
29.025000 -24.656250 29.423432
27.800000 -22.234375 29.423432
27.900000 -20.953125 29.423432
28.150000 -18.937500 29.423432
28.250000 -17.421875 29.423432
27.800000 -16.640625 29.423432
27.275000 -15.343750 29.423432
26.925000 -13.296875 29.423432
26.725000 -12.265625 29.423432
26.675000 -10.390625 29.423432
26.925000 -10.406250 29.423432
31.050000 -28.484375 29.566367
29.250000 -25.187500 29.566367
27.925000 -23.078125 29.566367
27.950000 -20.734375 29.566367
28.100000 -19.468750 29.566367
28.225000 -19.187500 29.566367
28.125000 -17.796875 29.566367
27.600000 -15.625000 29.566367
27.225000 -14.859375 29.566367
26.975000 -12.421875 29.566367
26.675000 -11.140625 29.566367
31.050000 -28.562500 29.704836
29.275000 -25.125000 29.704836
27.975000 -22.718750 29.704836
27.975000 -21.734375 29.704836
28.075000 -20.187500 29.704836
28.225000 -18.718750 29.704836
28.100000 -17.171875 29.704836
27.575000 -15.375000 29.704836
27.225000 -14.843750 29.704836
27.025000 -12.687500 29.704836
26.775000 -11.406250 29.704836
29.225000 -24.593750 29.847423
28.025000 -21.843750 29.847423
27.925000 -20.390625 29.847423
28.075000 -20.000000 29.847423
28.250000 -18.453125 29.847423
27.975000 -17.187500 29.847423
27.375000 -15.640625 29.847423
27.050000 -13.984375 29.847423
27.000000 -11.984375 29.847423
26.825000 -11.687500 29.847423
26.825000 -44.156250 29.998666
31.025000 -28.421875 29.998666
29.450000 -25.390625 29.998666
29.100000 -24.390625 29.998666
27.925000 -21.156250 29.998666
28.000000 -20.578125 29.998666
28.200000 -18.953125 29.998666
28.200000 -17.328125 29.998666
27.775000 -16.578125 29.998666
27.275000 -14.828125 29.998666
27.000000 -12.750000 29.998666
26.750000 -12.500000 29.998666
31.075000 -29.046875 30.126081
29.475000 -26.453125 30.126081
29.125000 -24.093750 30.126081
28.450000 -23.609375 30.126081
28.000000 -22.093750 30.126081
27.950000 -20.062500 30.126081
28.150000 -18.984375 30.126081
28.250000 -17.906250 30.126081
27.825000 -16.421875 30.126081
27.275000 -15.000000 30.126081
27.000000 -13.015625 30.126081
26.800000 -12.781250 30.126081
26.675000 -11.281250 30.126081
31.025000 -28.375000 30.265176
29.450000 -25.593750 30.265176
29.050000 -24.593750 30.265176
28.475000 -22.625000 30.265176
27.950000 -21.296875 30.265176
28.025000 -20.546875 30.265176
28.250000 -18.625000 30.265176
28.200000 -17.390625 30.265176
27.775000 -16.218750 30.265176
27.300000 -14.281250 30.265176
27.025000 -13.765625 30.265176
26.800000 -12.531250 30.265176
30.600000 -28.875000 30.416544
29.250000 -25.281250 30.416544
28.925000 -24.062500 30.416544
28.475000 -21.578125 30.416544
28.100000 -20.562500 30.416544
28.200000 -19.500000 30.416544
28.250000 -18.046875 30.416544
27.950000 -16.453125 30.416544
27.500000 -15.359375 30.416544
27.200000 -14.140625 30.416544
27.000000 -13.125000 30.416544
26.850000 -11.625000 30.416544
30.925000 -28.906250 30.547670
29.450000 -25.609375 30.547670
29.000000 -24.156250 30.547670
28.525000 -23.093750 30.547670
28.225000 -20.843750 30.547670
28.175000 -20.640625 30.547670
28.250000 -19.390625 30.547670
28.275000 -17.125000 30.547670
27.850000 -16.125000 30.547670
27.300000 -15.031250 30.547670
27.025000 -13.171875 30.547670
26.800000 -12.609375 30.547670
30.650000 -29.140625 30.697498
29.250000 -24.453125 30.697498
28.825000 -23.843750 30.697498
28.450000 -21.812500 30.697498
28.175000 -21.109375 30.697498
28.200000 -19.390625 30.697498
28.200000 -18.046875 30.697498
27.925000 -16.875000 30.697498
27.525000 -15.187500 30.697498
27.175000 -13.671875 30.697498
26.975000 -12.703125 30.697498
26.825000 -11.937500 30.697498
30.875000 -28.921875 30.838097
29.425000 -25.953125 30.838097
29.075000 -24.343750 30.838097
28.500000 -22.453125 30.838097
28.100000 -21.187500 30.838097
28.100000 -19.937500 30.838097
28.175000 -18.953125 30.838097
28.250000 -17.187500 30.838097
27.850000 -16.031250 30.838097
27.250000 -14.890625 30.838097
26.950000 -13.625000 30.838097
26.775000 -12.062500 30.838097
30.575000 -28.937500 30.980639
29.375000 -25.968750 30.980639
29.025000 -24.687500 30.980639
28.500000 -22.859375 30.980639
28.025000 -22.078125 30.980639
27.950000 -20.359375 30.980639
28.075000 -18.734375 30.980639
28.125000 -18.375000 30.980639
27.800000 -16.718750 30.980639
27.325000 -14.984375 30.980639
27.025000 -13.125000 30.980639
26.800000 -12.453125 30.980639
26.725000 -10.937500 30.980639
26.975000 -9.500000 30.980639
30.500000 -28.656250 31.120616
29.350000 -25.953125 31.120616
28.900000 -24.218750 31.120616
28.350000 -22.437500 31.120616
28.025000 -21.625000 31.120616
27.950000 -20.109375 31.120616
28.075000 -18.718750 31.120616
28.100000 -17.984375 31.120616
27.775000 -16.171875 31.120616
27.325000 -14.359375 31.120616
27.000000 -13.843750 31.120616
26.750000 -12.296875 31.120616
26.700000 -10.375000 31.120616
26.975000 -9.812500 31.120616
29.950000 -30.328125 31.260986
30.475000 -29.140625 31.260986
29.275000 -26.031250 31.260986
28.650000 -24.468750 31.260986
28.100000 -22.796875 31.260986
27.950000 -21.687500 31.260986
27.925000 -20.859375 31.260986
28.050000 -18.625000 31.260986
28.100000 -17.734375 31.260986
27.775000 -16.031250 31.260986
27.300000 -14.546875 31.260986
26.975000 -13.734375 31.260986
26.750000 -12.875000 31.260986
26.700000 -11.609375 31.260986
26.975000 -9.359375 31.260986
30.125000 -29.484375 31.404941
29.825000 -26.781250 31.404941
29.100000 -25.125000 31.404941
27.800000 -21.843750 31.404941
27.750000 -21.593750 31.404941
27.900000 -19.812500 31.404941
28.000000 -18.359375 31.404941
28.300000 -17.671875 31.404941
27.200000 -13.875000 31.404941
26.900000 -13.671875 31.404941
26.750000 -11.234375 31.404941
29.800000 -30.500000 31.541908
30.250000 -29.296875 31.541908
29.150000 -25.703125 31.541908
27.925000 -23.359375 31.541908
27.850000 -22.218750 31.541908
27.850000 -20.078125 31.541908
27.900000 -19.703125 31.541908
27.950000 -17.718750 31.541908
27.675000 -16.078125 31.541908
27.350000 -15.468750 31.541908
27.025000 -13.375000 31.541908
26.800000 -11.984375 31.541908
26.750000 -11.171875 31.541908
26.925000 -10.421875 31.541908
29.975000 -29.156250 31.686878
29.000000 -25.250000 31.686878
27.775000 -21.734375 31.686878
27.800000 -20.687500 31.686878
27.825000 -20.031250 31.686878
27.900000 -18.921875 31.686878
28.125000 -16.906250 31.686878
27.100000 -14.375000 31.686878
26.825000 -12.578125 31.686878
26.725000 -12.078125 31.686878
30.000000 -30.093750 31.812250
30.175000 -29.187500 31.812250
29.000000 -26.203125 31.812250
27.700000 -22.625000 31.812250
27.700000 -21.687500 31.812250
27.750000 -20.875000 31.812250
27.800000 -18.796875 31.812250
27.775000 -17.281250 31.812250
27.600000 -17.000000 31.812250
27.350000 -15.390625 31.812250
27.000000 -13.828125 31.812250
26.775000 -12.718750 31.812250
26.725000 -10.765625 31.812250
26.925000 -9.484375 31.812250
29.775000 -29.500000 31.969326
29.475000 -26.812500 31.969326
28.825000 -25.625000 31.969326
27.475000 -22.046875 31.969326
27.550000 -21.078125 31.969326
27.725000 -19.890625 31.969326
27.850000 -18.234375 31.969326
28.075000 -17.312500 31.969326
27.800000 -15.890625 31.969326
27.225000 -15.093750 31.969326
26.950000 -13.421875 31.969326
26.750000 -11.703125 31.969326
26.725000 -11.046875 31.969326
27.050000 -9.937500 31.969326
29.425000 -30.281250 32.108761
29.850000 -28.843750 32.108761
28.975000 -26.281250 32.108761
28.575000 -25.015625 32.108761
27.525000 -21.437500 32.108761
27.625000 -21.296875 32.108761
27.700000 -19.781250 32.108761
27.700000 -17.921875 32.108761
27.750000 -17.093750 32.108761
27.575000 -15.421875 32.108761
27.150000 -13.406250 32.108761
26.875000 -12.640625 32.108761
26.675000 -10.859375 32.108761
29.300000 -26.703125 32.247719
28.725000 -25.890625 32.247719
27.475000 -22.312500 32.247719
27.475000 -21.250000 32.247719
27.550000 -20.312500 32.247719
27.700000 -19.093750 32.247719
27.650000 -17.593750 32.247719
27.500000 -16.531250 32.247719
27.300000 -15.125000 32.247719
26.950000 -13.421875 32.247719
26.725000 -12.156250 32.247719
26.675000 -11.406250 32.247719
26.950000 -9.609375 32.247719
29.725000 -29.968750 32.374595
29.850000 -29.296875 32.374595
28.800000 -25.796875 32.374595
27.500000 -22.968750 32.374595
27.375000 -21.218750 32.374595
27.450000 -20.187500 32.374595
27.625000 -18.921875 32.374595
27.675000 -17.843750 32.374595
27.650000 -17.093750 32.374595
27.500000 -15.468750 32.374595
27.125000 -14.234375 32.374595
26.800000 -12.890625 32.374595
26.675000 -10.500000 32.374595
26.800000 -9.578125 32.374595
29.900000 -30.359375 32.515983
29.975000 -29.156250 32.515983
28.675000 -26.109375 32.515983
27.325000 -23.296875 32.515983
27.375000 -22.156250 32.515983
27.550000 -20.875000 32.515983
27.600000 -18.593750 32.515983
27.425000 -15.187500 32.515983
26.975000 -13.890625 32.515983
26.675000 -11.890625 32.515983
26.600000 -10.906250 32.515983
26.850000 -9.906250 32.515983
29.600000 -29.109375 32.662411
28.725000 -26.796875 32.662411
28.525000 -25.140625 32.662411
27.225000 -19.437500 32.662411
27.550000 -18.484375 32.662411
27.950000 -17.296875 32.662411
27.150000 -14.125000 32.662411
26.900000 -13.031250 32.662411
26.725000 -12.296875 32.662411
29.875000 -30.218750 32.798110
29.975000 -28.843750 32.798110
28.600000 -26.218750 32.798110
27.175000 -22.843750 32.798110
27.175000 -21.765625 32.798110
27.250000 -19.890625 32.798110
27.325000 -19.218750 32.798110
27.475000 -17.953125 32.798110
27.625000 -16.109375 32.798110
27.425000 -14.906250 32.798110
27.050000 -13.250000 32.798110
26.775000 -12.031250 32.798110
26.650000 -11.328125 32.798110
26.775000 -10.203125 32.798110
29.725000 -28.937500 32.951729
28.600000 -26.828125 32.951729
28.350000 -24.765625 32.951729
27.025000 -22.265625 32.951729
27.100000 -20.656250 32.951729
27.075000 -19.625000 32.951729
27.175000 -15.328125 32.951729
27.075000 -13.968750 32.951729
26.825000 -12.609375 32.951729
26.625000 -11.953125 32.951729
29.850000 -30.328125 33.079282
28.400000 -26.125000 33.079282
27.000000 -22.546875 33.079282
26.900000 -21.484375 33.079282
26.875000 -20.234375 33.079282
26.975000 -18.546875 33.079282
27.300000 -17.828125 33.079282
27.500000 -16.265625 33.079282
27.325000 -15.562500 33.079282
27.025000 -13.546875 33.079282
26.700000 -12.703125 33.079282
26.500000 -10.656250 33.079282
26.675000 -10.000000 33.079282
26.775000 -44.187500 33.225340
29.600000 -29.750000 33.225340
28.525000 -27.062500 33.225340
28.175000 -25.562500 33.225340
26.800000 -21.968750 33.225340
26.750000 -20.437500 33.225340
26.750000 -20.218750 33.225340
26.975000 -18.218750 33.225340
27.075000 -17.203125 33.225340
27.200000 -16.484375 33.225340
27.200000 -14.718750 33.225340
26.900000 -13.578125 33.225340
26.650000 -12.640625 33.225340
29.825000 -29.437500 33.356268
28.450000 -27.187500 33.356268
28.200000 -25.890625 33.356268
27.600000 -23.984375 33.356268
26.950000 -22.062500 33.356268
26.700000 -21.796875 33.356268
26.675000 -19.937500 33.356268
26.825000 -18.937500 33.356268
27.225000 -17.812500 33.356268
27.475000 -16.406250 33.356268
27.150000 -14.468750 33.356268
26.800000 -13.890625 33.356268
26.600000 -12.390625 33.356268
26.450000 -11.140625 33.356268
26.675000 -9.609375 33.356268
29.725000 -30.312500 33.499969
28.350000 -26.843750 33.499969
28.075000 -25.625000 33.499969
27.525000 -23.453125 33.499969
26.925000 -22.828125 33.499969
26.700000 -21.109375 33.499969
26.650000 -19.156250 33.499969
26.800000 -18.843750 33.499969
27.150000 -16.937500 33.499969
27.350000 -16.593750 33.499969
26.550000 -13.406250 33.499969
26.475000 -12.265625 33.499969
26.400000 -11.125000 33.499969
26.675000 -9.609375 33.499969
30.175000 -30.437500 33.641385
28.350000 -26.687500 33.641385
28.125000 -25.531250 33.641385
27.975000 -24.812500 33.641385
26.650000 -21.750000 33.641385
26.650000 -19.687500 33.641385
26.800000 -18.953125 33.641385
27.200000 -18.203125 33.641385
27.450000 -16.296875 33.641385
26.550000 -13.796875 33.641385
26.400000 -11.484375 33.641385
26.350000 -11.500000 33.641385
26.650000 -9.671875 33.641385
28.250000 -26.234375 33.787716
28.000000 -25.468750 33.787716
27.900000 -23.546875 33.787716
26.700000 -21.546875 33.787716
26.650000 -19.359375 33.787716
26.800000 -18.078125 33.787716
27.125000 -17.390625 33.787716
27.250000 -15.765625 33.787716
26.925000 -14.687500 33.787716
26.450000 -12.937500 33.787716
26.250000 -11.078125 33.787716
29.650000 -30.921875 33.920731
28.300000 -27.984375 33.920731
28.125000 -25.906250 33.920731
27.775000 -24.359375 33.920731
27.550000 -23.343750 33.920731
27.125000 -21.921875 33.920731
26.700000 -20.046875 33.920731
26.650000 -18.890625 33.920731
26.900000 -17.937500 33.920731
27.050000 -17.343750 33.920731
26.975000 -15.625000 33.920731
26.600000 -14.531250 33.920731
26.225000 -12.968750 33.920731
26.150000 -10.562500 33.920731
26.300000 -10.203125 33.920731
28.300000 -26.953125 34.067453
28.050000 -26.109375 34.067453
27.750000 -24.687500 34.067453
27.525000 -22.781250 34.067453
27.125000 -21.984375 34.067453
26.800000 -20.093750 34.067453
26.750000 -18.546875 34.067453
27.000000 -18.140625 34.067453
27.225000 -17.046875 34.067453
26.225000 -14.187500 34.067453
26.075000 -12.796875 34.067453
26.100000 -11.796875 34.067453
26.325000 -9.687500 34.067453
28.175000 -26.218750 34.204800
27.975000 -25.125000 34.204800
27.675000 -24.156250 34.204800
27.375000 -22.812500 34.204800
27.050000 -21.281250 34.204800
26.800000 -19.546875 34.204800
26.850000 -17.968750 34.204800
27.050000 -16.796875 34.204800
27.075000 -15.828125 34.204800
26.575000 -15.140625 34.204800
26.075000 -13.312500 34.204800
25.950000 -12.328125 34.204800
28.250000 -26.968750 34.350747
28.025000 -26.250000 34.350747
27.750000 -24.562500 34.350747
27.450000 -23.062500 34.350747
27.175000 -21.140625 34.350747
26.975000 -20.843750 34.350747
26.850000 -18.765625 34.350747
27.050000 -18.078125 34.350747
27.125000 -16.125000 34.350747
25.975000 -13.203125 34.350747
25.825000 -12.625000 34.350747
25.850000 -11.375000 34.350747
26.150000 -9.828125 34.350747
28.125000 -26.718750 34.485421
27.875000 -24.812500 34.485421
27.625000 -23.921875 34.485421
27.300000 -21.546875 34.485421
27.075000 -20.875000 34.485421
26.975000 -19.703125 34.485421
26.975000 -18.593750 34.485421
26.875000 -16.203125 34.485421
26.450000 -15.906250 34.485421
25.975000 -14.187500 34.485421
25.775000 -11.734375 34.485421
25.750000 -10.609375 34.485421
26.000000 -10.015625 34.485421
28.125000 -26.546875 34.626684
27.875000 -25.109375 34.626684
27.650000 -23.140625 34.626684
27.375000 -22.671875 34.626684
27.125000 -21.078125 34.626684
26.975000 -19.328125 34.626684
26.900000 -18.468750 34.626684
26.750000 -17.468750 34.626684
26.375000 -15.609375 34.626684
25.900000 -14.109375 34.626684
25.675000 -13.078125 34.626684
25.675000 -11.890625 34.626684
28.175000 -26.218750 34.765802
27.975000 -25.656250 34.765802
27.675000 -23.562500 34.765802
27.400000 -22.640625 34.765802
27.150000 -20.562500 34.765802
27.025000 -20.437500 34.765802
26.900000 -19.078125 34.765802
26.675000 -16.406250 34.765802
26.300000 -15.140625 34.765802
25.850000 -14.578125 34.765802
25.625000 -12.187500 34.765802
25.600000 -12.375000 34.765802
28.175000 -26.578125 34.915772
27.975000 -24.734375 34.915772
27.700000 -24.421875 34.915772
27.475000 -22.375000 34.915772
27.225000 -21.625000 34.915772
27.050000 -20.218750 34.915772
26.925000 -18.500000 34.915772
26.600000 -16.859375 34.915772
26.200000 -15.656250 34.915772
25.800000 -14.156250 34.915772
25.550000 -12.156250 34.915772
25.575000 -12.171875 34.915772
28.250000 -27.359375 35.049036
28.050000 -25.156250 35.049036
27.750000 -24.015625 35.049036
27.525000 -22.546875 35.049036
27.275000 -21.484375 35.049036
27.100000 -20.453125 35.049036
26.950000 -19.218750 35.049036
26.525000 -17.468750 35.049036
26.100000 -15.687500 35.049036
25.725000 -13.953125 35.049036
25.475000 -13.531250 35.049036
25.450000 -11.671875 35.049036
28.200000 -27.109375 35.191265
27.975000 -25.328125 35.191265
27.750000 -24.062500 35.191265
27.525000 -22.453125 35.191265
27.225000 -21.437500 35.191265
27.050000 -20.156250 35.191265
26.925000 -18.937500 35.191265
25.575000 -15.250000 35.191265
25.150000 -14.562500 35.191265
25.125000 -13.593750 35.191265
25.350000 -11.578125 35.191265
28.200000 -26.734375 35.328706
27.975000 -25.562500 35.328706
27.700000 -23.953125 35.328706
27.475000 -23.203125 35.328706
27.225000 -21.812500 35.328706
27.050000 -20.421875 35.328706
26.925000 -18.390625 35.328706
25.200000 -16.140625 35.328706
24.850000 -13.328125 35.328706
24.900000 -13.296875 35.328706
25.250000 -12.406250 35.328706
28.175000 -27.890625 35.476719
28.125000 -25.484375 35.476719
27.850000 -25.203125 35.476719
27.625000 -23.796875 35.476719
27.350000 -22.265625 35.476719
27.175000 -21.125000 35.476719
27.100000 -19.875000 35.476719
24.850000 -14.421875 35.476719
24.700000 -13.484375 35.476719
24.950000 -11.734375 35.476719
28.200000 -26.843750 35.622926
28.000000 -25.031250 35.622926
27.700000 -23.671875 35.622926
27.475000 -23.015625 35.622926
27.225000 -21.250000 35.622926
27.025000 -20.250000 35.622926
26.900000 -18.046875 35.622926
25.000000 -15.921875 35.622926
24.725000 -14.109375 35.622926
28.250000 -27.218750 35.761086
28.075000 -25.593750 35.761086
27.800000 -24.687500 35.761086
27.550000 -23.390625 35.761086
27.275000 -21.546875 35.761086
27.100000 -20.437500 35.761086
27.025000 -18.500000 35.761086
26.675000 -18.078125 35.761086
24.825000 -13.375000 35.761086
28.100000 -26.421875 35.905349
27.850000 -24.921875 35.905349
27.625000 -23.015625 35.905349
27.375000 -22.437500 35.905349
27.150000 -20.203125 35.905349
27.075000 -19.703125 35.905349
26.775000 -17.578125 35.905349
25.125000 -15.062500 35.905349
24.900000 -13.437500 35.905349
25.100000 -13.046875 35.905349
28.100000 -26.343750 36.038792
27.850000 -24.437500 36.038792
27.625000 -23.062500 36.038792
27.350000 -22.343750 36.038792
27.150000 -21.015625 36.038792
27.000000 -18.890625 36.038792
26.700000 -18.359375 36.038792
26.325000 -17.031250 36.038792
25.800000 -15.468750 36.038792
25.300000 -13.500000 36.038792
25.250000 -13.125000 36.038792
28.100000 -25.890625 36.169921
27.850000 -25.406250 36.169921
27.625000 -23.781250 36.169921
27.350000 -22.625000 36.169921
27.150000 -21.296875 36.169921
27.075000 -18.703125 36.169921
27.025000 -17.828125 36.169921
25.900000 -14.781250 36.169921
25.525000 -14.203125 36.169921
25.350000 -13.000000 36.169921
28.100000 -26.640625 36.310652
27.875000 -25.031250 36.310652
27.625000 -23.671875 36.310652
27.350000 -22.656250 36.310652
27.150000 -21.343750 36.310652
26.975000 -19.109375 36.310652
26.925000 -17.578125 36.310652
27.050000 -17.140625 36.310652
25.575000 -14.156250 36.310652
25.425000 -12.796875 36.310652
28.100000 -26.046875 36.465891
27.875000 -25.187500 36.465891
27.650000 -23.468750 36.465891
27.350000 -22.562500 36.465891
27.100000 -20.453125 36.465891
26.950000 -20.062500 36.465891
27.000000 -18.812500 36.465891
27.275000 -17.171875 36.465891
25.725000 -14.390625 36.465891
25.525000 -13.421875 36.465891
26.700000 -44.375000 36.602865
28.175000 -27.250000 36.602865
27.975000 -25.765625 36.602865
27.725000 -24.109375 36.602865
27.425000 -22.406250 36.602865
27.150000 -21.062500 36.602865
26.950000 -19.984375 36.602865
26.925000 -19.015625 36.602865
26.775000 -17.859375 36.602865
26.350000 -16.171875 36.602865
25.950000 -14.875000 36.602865
25.650000 -12.531250 36.602865
25.625000 -12.421875 36.602865
28.150000 -26.984375 36.734204
27.950000 -24.843750 36.734204
27.675000 -24.375000 36.734204
27.375000 -23.109375 36.734204
27.125000 -20.578125 36.734204
26.925000 -20.140625 36.734204
26.925000 -17.890625 36.734204
26.800000 -16.625000 36.734204
26.400000 -15.781250 36.734204
25.975000 -13.828125 36.734204
25.700000 -13.390625 36.734204
25.700000 -11.031250 36.734204
28.125000 -26.687500 36.872763
27.925000 -25.718750 36.872763
27.700000 -24.140625 36.872763
27.425000 -23.125000 36.872763
27.150000 -21.187500 36.872763
26.900000 -19.921875 36.872763
26.825000 -18.593750 36.872763
25.825000 -12.875000 36.872763
25.750000 -11.531250 36.872763
28.075000 -26.906250 37.013107
27.850000 -25.531250 37.013107
27.625000 -24.156250 37.013107
27.350000 -22.031250 37.013107
27.000000 -21.281250 37.013107
26.775000 -19.953125 37.013107
26.925000 -18.078125 37.013107
27.250000 -17.234375 37.013107
26.175000 -14.484375 37.013107
25.875000 -12.750000 37.013107
25.850000 -11.546875 37.013107
26.125000 -10.421875 37.013107
28.075000 -26.062500 37.158010
27.850000 -24.984375 37.158010
27.625000 -24.140625 37.158010
27.450000 -22.531250 37.158010
27.075000 -21.375000 37.158010
26.750000 -19.953125 37.158010
26.900000 -18.781250 37.158010
27.250000 -17.187500 37.158010
27.150000 -16.171875 37.158010
25.875000 -12.812500 37.158010
25.850000 -10.796875 37.158010
26.125000 -10.187500 37.158010
29.250000 -30.468750 37.294706
28.100000 -27.093750 37.294706
28.075000 -26.609375 37.294706
27.850000 -25.203125 37.294706
27.625000 -23.171875 37.294706
27.225000 -22.140625 37.294706
26.800000 -21.125000 37.294706
26.700000 -19.265625 37.294706
26.675000 -15.421875 37.294706
26.350000 -14.296875 37.294706
26.050000 -12.437500 37.294706
26.050000 -11.015625 37.294706
26.275000 -10.734375 37.294706
28.150000 -26.468750 37.433336
27.950000 -25.640625 37.433336
27.700000 -24.203125 37.433336
27.350000 -22.968750 37.433336
26.900000 -21.828125 37.433336
26.625000 -20.109375 37.433336
26.775000 -18.671875 37.433336
26.825000 -16.796875 37.433336
26.875000 -15.578125 37.433336
26.750000 -14.796875 37.433336
26.250000 -13.062500 37.433336
26.075000 -11.140625 37.433336
29.950000 -30.171875 37.574588
28.300000 -27.640625 37.574588
28.100000 -26.046875 37.574588
27.775000 -24.609375 37.574588
27.200000 -22.281250 37.574588
26.750000 -21.984375 37.574588
26.575000 -20.359375 37.574588
26.700000 -19.578125 37.574588
26.650000 -14.484375 37.574588
26.325000 -13.796875 37.574588
26.200000 -12.781250 37.574588
26.225000 -10.968750 37.574588
26.575000 -10.093750 37.574588
29.650000 -29.421875 37.727775
28.300000 -26.531250 37.727775
28.100000 -26.015625 37.727775
28.000000 -24.843750 37.727775
26.650000 -20.906250 37.727775
26.575000 -19.671875 37.727775
26.700000 -18.156250 37.727775
26.775000 -15.484375 37.727775
26.475000 -13.921875 37.727775
26.225000 -11.796875 37.727775
26.225000 -10.843750 37.727775
26.600000 -9.921875 37.727775
29.650000 -29.843750 37.867284
28.350000 -26.203125 37.867284
28.150000 -25.578125 37.867284
28.050000 -23.859375 37.867284
26.675000 -21.250000 37.867284
26.725000 -19.937500 37.867284
26.975000 -16.500000 37.867284
26.975000 -14.937500 37.867284
26.525000 -13.343750 37.867284
26.250000 -12.531250 37.867284
29.750000 -29.968750 38.008192
28.375000 -26.171875 38.008192
28.250000 -24.750000 38.008192
26.700000 -21.843750 38.008192
26.700000 -19.953125 38.008192
26.825000 -19.671875 38.008192
27.025000 -18.531250 38.008192
27.300000 -17.156250 38.008192
27.225000 -15.250000 38.008192
26.825000 -13.921875 38.008192
26.475000 -12.718750 38.008192
26.350000 -11.718750 38.008192
26.600000 -10.000000 38.008192
29.675000 -29.796875 38.148867
28.475000 -26.828125 38.148867
28.100000 -25.015625 38.148867
26.850000 -22.718750 38.148867
26.775000 -20.578125 38.148867
26.875000 -20.046875 38.148867
27.050000 -15.265625 38.148867
26.950000 -14.078125 38.148867
26.550000 -12.781250 38.148867
26.325000 -11.343750 38.148867
26.500000 -10.000000 38.148867
29.500000 -29.421875 38.280577
28.550000 -26.406250 38.280577
28.125000 -24.718750 38.280577
27.375000 -23.468750 38.280577
26.925000 -22.328125 38.280577
26.950000 -21.562500 38.280577
27.075000 -20.031250 38.280577
27.150000 -15.437500 38.280577
26.975000 -14.578125 38.280577
26.600000 -13.406250 38.280577
26.375000 -12.281250 38.280577
29.500000 -29.203125 38.429387
28.550000 -26.546875 38.429387
28.225000 -25.562500 38.429387
27.075000 -22.781250 38.429387
27.250000 -21.062500 38.429387
27.325000 -20.218750 38.429387
27.250000 -16.515625 38.429387
26.975000 -14.093750 38.429387
26.575000 -12.515625 38.429387
26.350000 -12.328125 38.429387
29.300000 -30.546875 38.570511
29.550000 -29.296875 38.570511
28.650000 -26.718750 38.570511
28.375000 -25.593750 38.570511
27.375000 -20.062500 38.570511
27.725000 -18.156250 38.570511
28.050000 -17.203125 38.570511
26.950000 -13.593750 38.570511
26.575000 -12.375000 38.570511
26.375000 -11.656250 38.570511
26.550000 -10.921875 38.570511
29.375000 -30.578125 38.713448
29.575000 -29.546875 38.713448
28.650000 -26.937500 38.713448
28.375000 -25.484375 38.713448
27.425000 -19.781250 38.713448
27.825000 -18.734375 38.713448
27.900000 -17.406250 38.713448
27.475000 -16.203125 38.713448
26.950000 -14.312500 38.713448
26.575000 -12.312500 38.713448
26.400000 -12.296875 38.713448
26.550000 -10.312500 38.713448
29.700000 -30.296875 38.853352
29.675000 -29.562500 38.853352
28.775000 -26.375000 38.853352
28.650000 -25.437500 38.853352
27.525000 -19.109375 38.853352
27.775000 -18.406250 38.853352
27.650000 -16.328125 38.853352
27.300000 -15.765625 38.853352
26.875000 -14.234375 38.853352
26.550000 -12.843750 38.853352
26.450000 -11.046875 38.853352
26.675000 -10.500000 38.853352
29.200000 -27.656250 38.993415
28.825000 -26.390625 38.993415
28.575000 -25.171875 38.993415
27.600000 -19.843750 38.993415
27.875000 -18.546875 38.993415
27.700000 -16.421875 38.993415
27.225000 -15.734375 38.993415
26.825000 -13.218750 38.993415
26.525000 -12.406250 38.993415
26.475000 -11.687500 38.993415
26.775000 -9.359375 38.993415
29.200000 -26.843750 39.133382
28.800000 -25.953125 39.133382
27.575000 -22.500000 39.133382
27.625000 -21.015625 39.133382
27.750000 -19.640625 39.133382
27.900000 -18.812500 39.133382
28.125000 -18.296875 39.133382
27.050000 -14.750000 39.133382
26.725000 -12.921875 39.133382
26.550000 -11.500000 39.133382
29.175000 -30.640625 39.271896
29.200000 -26.203125 39.271896
28.775000 -25.421875 39.271896
27.650000 -22.421875 39.271896
28.000000 -21.671875 39.271896
28.075000 -19.765625 39.271896
28.050000 -19.109375 39.271896
27.975000 -16.765625 39.271896
27.450000 -16.062500 39.271896
26.950000 -13.796875 39.271896
26.750000 -13.546875 39.271896
26.600000 -11.390625 39.271896
29.650000 -28.000000 39.414340
29.150000 -25.734375 39.414340
28.875000 -24.484375 39.414340
27.675000 -22.046875 39.414340
27.900000 -21.156250 39.414340
28.000000 -19.734375 39.414340
28.025000 -18.375000 39.414340
27.775000 -16.203125 39.414340
27.225000 -15.578125 39.414340
26.800000 -14.328125 39.414340
26.600000 -12.984375 39.414340
26.550000 -10.890625 39.414340
26.775000 -9.687500 39.414340
29.400000 -26.343750 39.554017
28.975000 -25.640625 39.554017
27.700000 -22.156250 39.554017
27.750000 -21.687500 39.554017
27.900000 -19.609375 39.554017
28.125000 -18.484375 39.554017
28.275000 -17.796875 39.554017
27.150000 -15.015625 39.554017
26.900000 -12.859375 39.554017
26.650000 -11.031250 39.554017
29.575000 -27.109375 39.694297
29.225000 -25.859375 39.694297
28.750000 -24.437500 39.694297
27.575000 -21.031250 39.694297
27.800000 -19.937500 39.694297
28.125000 -18.812500 39.694297
28.225000 -18.406250 39.694297
27.200000 -15.046875 39.694297
26.925000 -13.875000 39.694297
26.675000 -11.828125 39.694297
29.625000 -27.671875 39.835241
29.225000 -26.156250 39.835241
28.850000 -24.781250 39.835241
27.725000 -21.375000 39.835241
27.875000 -20.890625 39.835241
28.125000 -19.625000 39.835241
28.225000 -17.531250 39.835241
27.225000 -14.625000 39.835241
26.950000 -14.078125 39.835241
26.675000 -11.812500 39.835241
29.725000 -26.937500 39.974689
29.175000 -25.828125 39.974689
27.850000 -22.578125 39.974689
27.775000 -20.609375 39.974689
27.925000 -19.546875 39.974689
28.200000 -18.984375 39.974689
28.075000 -17.500000 39.974689
27.575000 -15.281250 39.974689
27.150000 -14.703125 39.974689
26.925000 -12.687500 39.974689
26.700000 -11.203125 39.974689
30.750000 -28.937500 40.107931
29.400000 -26.343750 40.107931
29.075000 -24.156250 40.107931
27.775000 -22.187500 40.107931
27.900000 -20.312500 40.107931
28.125000 -19.531250 40.107931
28.250000 -17.484375 40.107931
27.875000 -15.906250 40.107931
27.300000 -14.609375 40.107931
26.950000 -14.234375 40.107931
26.725000 -12.531250 40.107931
26.675000 -11.265625 40.107931
26.975000 -9.937500 40.107931
26.775000 -44.890625 40.254480
30.950000 -28.734375 40.254480
29.375000 -25.937500 40.254480
28.925000 -24.484375 40.254480
27.825000 -21.281250 40.254480
27.925000 -20.031250 40.254480
28.175000 -18.593750 40.254480
28.275000 -17.484375 40.254480
27.825000 -15.625000 40.254480
27.300000 -14.515625 40.254480
27.025000 -13.437500 40.254480
26.725000 -11.718750 40.254480
29.275000 -25.671875 40.393587
27.900000 -22.328125 40.393587
27.900000 -21.546875 40.393587
28.100000 -19.984375 40.393587
28.300000 -19.031250 40.393587
28.075000 -16.875000 40.393587
27.525000 -15.671875 40.393587
27.175000 -13.921875 40.393587
27.000000 -13.484375 40.393587
26.800000 -11.453125 40.393587
29.250000 -24.781250 40.535656
27.975000 -21.875000 40.535656
27.900000 -20.343750 40.535656
28.050000 -20.062500 40.535656
28.250000 -18.531250 40.535656
28.025000 -17.531250 40.535656
27.400000 -16.031250 40.535656
27.075000 -14.359375 40.535656
27.025000 -13.359375 40.535656
26.850000 -10.953125 40.535656
29.250000 -25.187500 40.671706
28.000000 -22.359375 40.671706
27.925000 -20.140625 40.671706
28.100000 -19.625000 40.671706
28.300000 -18.796875 40.671706
27.975000 -17.140625 40.671706
27.325000 -15.921875 40.671706
27.025000 -13.734375 40.671706
27.025000 -12.953125 40.671706
26.850000 -11.828125 40.671706
31.100000 -28.453125 40.816725
29.400000 -25.687500 40.816725
29.050000 -24.453125 40.816725
27.975000 -20.781250 40.816725
28.100000 -20.234375 40.816725
28.250000 -18.265625 40.816725
28.100000 -17.562500 40.816725
27.600000 -16.156250 40.816725
27.225000 -14.343750 40.816725
27.000000 -12.906250 40.816725
26.750000 -12.031250 40.816725
29.275000 -25.109375 40.954627
28.900000 -23.968750 40.954627
28.325000 -22.218750 40.954627
28.050000 -21.437500 40.954627
28.225000 -20.156250 40.954627
28.275000 -18.265625 40.954627
28.000000 -17.421875 40.954627
27.525000 -15.812500 40.954627
27.200000 -14.500000 40.954627
27.025000 -12.921875 40.954627
26.825000 -11.437500 40.954627
30.825000 -29.062500 41.097240
29.175000 -25.093750 41.097240
28.625000 -23.265625 41.097240
28.150000 -21.296875 41.097240
28.000000 -20.078125 41.097240
28.150000 -18.968750 41.097240
28.225000 -17.968750 41.097240
27.850000 -16.843750 41.097240
27.375000 -14.390625 41.097240
27.075000 -13.109375 41.097240
26.775000 -11.500000 41.097240
26.700000 -10.609375 41.097240
26.975000 -9.937500 41.097240
30.400000 -29.578125 41.235250
29.325000 -24.812500 41.235250
28.925000 -24.000000 41.235250
28.475000 -22.531250 41.235250
28.175000 -20.953125 41.235250
28.225000 -20.125000 41.235250
28.350000 -18.796875 41.235250
28.125000 -17.687500 41.235250
27.600000 -15.406250 41.235250
27.175000 -14.031250 41.235250
27.000000 -13.515625 41.235250
26.800000 -11.250000 41.235250
30.950000 -28.468750 41.377441
29.450000 -25.500000 41.377441
29.050000 -24.187500 41.377441
28.550000 -22.843750 41.377441
28.275000 -21.328125 41.377441
28.200000 -19.562500 41.377441
28.225000 -19.093750 41.377441
28.300000 -17.781250 41.377441
27.275000 -14.281250 41.377441
27.025000 -13.046875 41.377441
26.800000 -12.437500 41.377441
30.375000 -29.703125 41.516576
29.350000 -25.593750 41.516576
28.950000 -23.859375 41.516576
28.475000 -22.875000 41.516576
28.150000 -20.890625 41.516576
28.175000 -19.625000 41.516576
28.250000 -18.984375 41.516576
28.150000 -16.875000 41.516576
27.650000 -16.281250 41.516576
27.200000 -14.890625 41.516576
26.975000 -12.609375 41.516576
26.800000 -12.171875 41.516576
30.550000 -29.031250 41.662379
29.375000 -26.078125 41.662379
29.150000 -24.546875 41.662379
28.625000 -23.703125 41.662379
28.200000 -21.812500 41.662379
28.075000 -20.781250 41.662379
28.125000 -19.656250 41.662379
28.150000 -18.031250 41.662379
27.775000 -15.906250 41.662379
27.350000 -14.625000 41.662379
27.050000 -14.171875 41.662379
26.775000 -12.828125 41.662379
26.700000 -11.078125 41.662379
26.950000 -10.515625 41.662379
29.725000 -27.328125 41.798148
29.325000 -25.390625 41.798148
28.700000 -23.640625 41.798148
28.200000 -23.218750 41.798148
27.975000 -21.265625 41.798148
27.950000 -20.421875 41.798148
28.100000 -18.687500 41.798148
28.225000 -17.531250 41.798148
27.875000 -16.156250 41.798148
27.275000 -14.515625 41.798148
27.000000 -13.062500 41.798148
26.775000 -12.203125 41.798148
26.775000 -10.078125 41.798148
27.125000 -10.093750 41.798148
30.400000 -29.421875 41.939702
29.300000 -26.062500 41.939702
29.050000 -24.359375 41.939702
28.450000 -23.031250 41.939702
28.075000 -22.500000 41.939702
28.000000 -20.859375 41.939702
28.000000 -19.765625 41.939702
28.075000 -18.031250 41.939702
27.850000 -16.937500 41.939702
27.425000 -15.796875 41.939702
27.075000 -14.531250 41.939702
26.850000 -12.531250 41.939702
26.750000 -11.593750 41.939702
30.200000 -29.125000 42.079462
29.125000 -25.734375 42.079462
27.900000 -22.531250 42.079462
27.850000 -20.859375 42.079462
27.900000 -19.281250 42.079462
28.025000 -18.906250 42.079462
28.275000 -17.875000 42.079462
27.200000 -13.937500 42.079462
26.975000 -13.296875 42.079462
26.800000 -12.218750 42.079462
30.125000 -29.375000 42.228147
29.100000 -24.953125 42.228147
27.825000 -22.234375 42.228147
27.825000 -20.656250 42.228147
27.900000 -19.937500 42.228147
28.000000 -18.625000 42.228147
28.300000 -17.125000 42.228147
27.175000 -14.062500 42.228147
26.950000 -12.859375 42.228147
26.775000 -11.765625 42.228147
30.025000 -29.609375 42.360264
29.050000 -26.234375 42.360264
29.050000 -25.109375 42.360264
27.825000 -22.406250 42.360264
27.875000 -21.390625 42.360264
27.850000 -19.343750 42.360264
27.850000 -18.328125 42.360264
27.975000 -17.578125 42.360264
27.700000 -15.937500 42.360264
27.100000 -14.062500 42.360264
26.850000 -12.500000 42.360264
26.700000 -12.093750 42.360264
29.475000 -30.015625 42.503248
30.050000 -28.937500 42.503248
29.075000 -25.796875 42.503248
28.800000 -24.859375 42.503248
27.800000 -21.843750 42.503248
27.825000 -21.046875 42.503248
27.775000 -19.656250 42.503248
27.675000 -18.421875 42.503248
27.600000 -17.203125 42.503248
27.450000 -14.921875 42.503248
27.025000 -14.375000 42.503248
26.800000 -13.000000 42.503248
26.725000 -11.250000 42.503248
29.600000 -27.234375 42.640708
28.900000 -25.828125 42.640708
27.650000 -22.609375 42.640708
27.700000 -21.781250 42.640708
27.725000 -20.265625 42.640708
27.800000 -18.484375 42.640708
27.825000 -17.312500 42.640708
27.625000 -16.359375 42.640708
27.350000 -15.484375 42.640708
27.000000 -13.968750 42.640708
26.650000 -11.484375 42.640708
26.625000 -11.281250 42.640708
26.950000 -10.281250 42.640708
29.850000 -29.750000 42.785264
28.950000 -26.812500 42.785264
28.875000 -24.953125 42.785264
27.500000 -22.406250 42.785264
27.650000 -21.390625 42.785264
27.825000 -19.531250 42.785264
27.925000 -18.156250 42.785264
28.225000 -17.343750 42.785264
27.125000 -14.687500 42.785264
26.925000 -13.406250 42.785264
26.775000 -10.796875 42.785264
29.300000 -27.390625 42.920685
28.750000 -25.203125 42.920685
27.525000 -23.250000 42.920685
27.575000 -21.562500 42.920685
27.600000 -19.703125 42.920685
27.675000 -18.656250 42.920685
27.775000 -17.531250 42.920685
27.600000 -15.625000 42.920685
27.275000 -14.531250 42.920685
27.000000 -13.859375 42.920685
26.700000 -11.937500 42.920685
26.650000 -10.953125 42.920685
26.975000 -10.000000 42.920685
30.025000 -30.062500 43.064181
29.975000 -29.015625 43.064181
28.775000 -25.578125 43.064181
27.450000 -22.453125 43.064181
27.450000 -22.015625 43.064181
27.525000 -20.015625 43.064181
27.625000 -18.890625 43.064181
27.450000 -15.625000 43.064181
27.050000 -13.484375 43.064181
26.775000 -13.109375 43.064181
26.650000 -10.890625 43.064181
26.825000 -10.406250 43.064181
29.525000 -29.875000 43.205585
29.750000 -28.921875 43.205585
28.800000 -26.281250 43.205585
28.350000 -24.203125 43.205585
27.700000 -23.593750 43.205585
27.275000 -22.015625 43.205585
27.375000 -20.890625 43.205585
27.600000 -19.781250 43.205585
27.775000 -18.234375 43.205585
28.000000 -17.390625 43.205585
27.675000 -15.640625 43.205585
27.125000 -14.187500 43.205585
26.825000 -13.078125 43.205585
26.650000 -11.062500 43.205585
26.775000 -10.609375 43.205585
29.675000 -29.453125 43.349016
28.775000 -26.937500 43.349016
28.625000 -25.593750 43.349016
27.225000 -19.468750 43.349016
27.375000 -15.468750 43.349016
27.150000 -14.671875 43.349016
26.950000 -13.140625 43.349016
26.750000 -11.703125 43.349016
29.600000 -29.296875 43.481768
28.725000 -26.843750 43.481768
28.500000 -25.421875 43.481768
27.175000 -19.359375 43.481768
27.475000 -18.671875 43.481768
27.950000 -17.093750 43.481768
27.150000 -14.953125 43.481768
26.925000 -12.890625 43.481768
26.725000 -12.250000 43.481768
29.600000 -29.031250 43.629512
28.650000 -26.500000 43.629512
28.350000 -25.671875 43.629512
27.050000 -21.718750 43.629512
27.200000 -21.531250 43.629512
27.175000 -20.265625 43.629512
27.325000 -18.171875 43.629512
27.775000 -17.046875 43.629512
27.650000 -16.125000 43.629512
27.150000 -14.875000 43.629512
26.925000 -12.718750 43.629512
26.700000 -11.343750 43.629512
29.750000 -29.515625 43.769403
