25.000000 -24.609375 5.922818
24.725000 -22.875000 5.922818
24.475000 -21.109375 5.922818
24.225000 -19.437500 5.922818
27.125000 -32.437500 6.057474
26.675000 -30.937500 6.057474
26.250000 -29.421875 6.057474
25.925000 -28.656250 6.057474
25.600000 -26.968750 6.057474
25.275000 -25.265625 6.057474
25.000000 -23.828125 6.057474
24.700000 -21.828125 6.057474
24.450000 -20.140625 6.057474
24.200000 -19.562500 6.057474
26.925000 -31.734375 6.202438
26.500000 -30.296875 6.202438
26.125000 -28.656250 6.202438
25.750000 -27.015625 6.202438
25.450000 -25.640625 6.202438
25.150000 -24.625000 6.202438
24.875000 -23.250000 6.202438
24.625000 -21.921875 6.202438
24.375000 -20.156250 6.202438
27.300000 -32.359375 6.342172
26.700000 -31.187500 6.342172
26.300000 -30.015625 6.342172
25.950000 -27.828125 6.342172
25.600000 -26.312500 6.342172
25.300000 -24.625000 6.342172
25.050000 -24.859375 6.342172
24.750000 -22.984375 6.342172
24.450000 -22.125000 6.342172
24.225000 -18.750000 6.342172
26.900000 -31.421875 6.482859
26.475000 -30.500000 6.482859
26.100000 -29.046875 6.482859
25.750000 -27.156250 6.482859
25.425000 -25.140625 6.482859
25.125000 -25.406250 6.482859
24.850000 -22.609375 6.482859
24.600000 -22.500000 6.482859
24.350000 -19.578125 6.482859
26.675000 -31.718750 6.617926
26.275000 -29.546875 6.617926
25.875000 -28.093750 6.617926
25.525000 -27.593750 6.617926
25.225000 -25.234375 6.617926
24.975000 -25.281250 6.617926
24.700000 -23.843750 6.617926
24.425000 -20.843750 6.617926
24.175000 -20.859375 6.617926
26.925000 -32.890625 6.762923
26.625000 -31.781250 6.762923
26.225000 -30.656250 6.762923
25.850000 -28.640625 6.762923
25.525000 -27.843750 6.762923
25.200000 -25.984375 6.762923
24.900000 -23.468750 6.762923
24.625000 -24.265625 6.762923
24.375000 -22.515625 6.762923
24.125000 -19.531250 6.762923
26.725000 -33.359375 6.902091
26.300000 -30.968750 6.902091
25.925000 -30.406250 6.902091
25.575000 -28.750000 6.902091
25.225000 -25.687500 6.902091
24.900000 -24.375000 6.902091
24.625000 -24.015625 6.902091
24.375000 -23.359375 6.902091
24.125000 -21.578125 6.902091
23.875000 -20.921875 6.902091
26.700000 -33.765625 7.043786
26.175000 -30.781250 7.043786
25.800000 -30.750000 7.043786
25.450000 -28.609375 7.043786
25.100000 -27.843750 7.043786
24.750000 -25.937500 7.043786
24.450000 -24.968750 7.043786
24.200000 -22.921875 7.043786
23.950000 -22.156250 7.043786
23.700000 -20.406250 7.043786
26.400000 -33.953125 7.176991
26.075000 -32.265625 7.176991
25.675000 -30.687500 7.176991
25.325000 -29.375000 7.176991
24.950000 -29.015625 7.176991
24.625000 -27.453125 7.176991
24.350000 -25.562500 7.176991
24.050000 -24.531250 7.176991
23.800000 -22.984375 7.176991
23.550000 -21.796875 7.176991
26.125000 -36.390625 7.322790
26.150000 -34.609375 7.322790
25.825000 -33.593750 7.322790
25.425000 -31.187500 7.322790
25.025000 -28.625000 7.322790
24.675000 -27.046875 7.322790
24.350000 -27.484375 7.322790
24.075000 -26.453125 7.322790
23.800000 -23.843750 7.322790
23.500000 -22.031250 7.322790
23.275000 -21.468750 7.322790
25.750000 -36.375000 7.462218
25.825000 -35.500000 7.462218
25.575000 -32.328125 7.462218
25.175000 -32.656250 7.462218
24.775000 -31.390625 7.462218
24.400000 -28.546875 7.462218
24.075000 -27.890625 7.462218
23.775000 -26.531250 7.462218
23.500000 -25.921875 7.462218
23.225000 -22.796875 7.462218
22.950000 -21.484375 7.462218
22.725000 -21.312500 7.462218
25.400000 -35.296875 7.602997
25.175000 -34.953125 7.602997
24.750000 -32.062500 7.602997
24.325000 -31.140625 7.602997
23.975000 -28.875000 7.602997
23.625000 -28.906250 7.602997
23.325000 -27.250000 7.602997
23.075000 -26.546875 7.602997
22.800000 -23.375000 7.602997
22.500000 -22.734375 7.602997
22.275000 -21.250000 7.602997
25.550000 -37.937500 7.739648
24.975000 -35.531250 7.739648
24.475000 -34.765625 7.739648
24.075000 -33.609375 7.739648
23.675000 -31.140625 7.739648
23.325000 -29.218750 7.739648
23.000000 -27.906250 7.739648
22.700000 -26.593750 7.739648
22.400000 -25.281250 7.739648
22.125000 -24.671875 7.739648
21.875000 -23.640625 7.739648
24.675000 -35.468750 7.879707
24.275000 -32.531250 7.879707
23.875000 -31.234375 7.879707
23.500000 -30.671875 7.879707
23.175000 -29.968750 7.879707
22.850000 -27.312500 7.879707
22.525000 -27.531250 7.879707
22.250000 -24.703125 7.879707
21.975000 -23.390625 7.879707
21.725000 -22.093750 7.879707
25.300000 -35.859375 8.019238
24.900000 -34.437500 8.019238
24.450000 -31.656250 8.019238
24.075000 -32.171875 8.019238
23.725000 -29.046875 8.019238
23.400000 -29.312500 8.019238
23.075000 -26.859375 8.019238
22.750000 -25.140625 8.019238
22.475000 -23.843750 8.019238
22.225000 -23.968750 8.019238
22.000000 -21.218750 8.019238
25.400000 -35.140625 8.160217
24.950000 -32.468750 8.160217
24.525000 -31.000000 8.160217
24.150000 -29.281250 8.160217
23.800000 -27.968750 8.160217
23.475000 -28.078125 8.160217
23.175000 -26.796875 8.160217
22.875000 -24.046875 8.160217
22.675000 -24.140625 8.160217
22.425000 -21.437500 8.160217
25.550000 -34.140625 8.302048
25.125000 -33.859375 8.302048
24.725000 -31.421875 8.302048
24.325000 -29.203125 8.302048
23.975000 -29.328125 8.302048
23.650000 -27.671875 8.302048
23.350000 -26.609375 8.302048
23.075000 -23.843750 8.302048
22.825000 -22.531250 8.302048
22.575000 -21.218750 8.302048
26.175000 -35.781250 8.439400
25.700000 -34.000000 8.439400
25.275000 -32.234375 8.439400
24.875000 -30.140625 8.439400
24.475000 -29.734375 8.439400
24.125000 -27.640625 8.439400
23.800000 -27.625000 8.439400
23.500000 -24.890625 8.439400
23.225000 -23.578125 8.439400
22.975000 -22.593750 8.439400
22.750000 -22.593750 8.439400
25.725000 -33.500000 8.592170
25.325000 -32.890625 8.592170
24.925000 -31.953125 8.592170
24.550000 -29.765625 8.592170
24.225000 -29.078125 8.592170
23.875000 -27.359375 8.592170
23.575000 -24.546875 8.592170
23.300000 -23.234375 8.592170
23.050000 -21.921875 8.592170
22.825000 -20.609375 8.592170
25.625000 -33.171875 8.718078
25.225000 -31.328125 8.718078
24.875000 -29.656250 8.718078
24.550000 -29.296875 8.718078
24.225000 -28.406250 8.718078
23.875000 -25.390625 8.718078
23.550000 -24.078125 8.718078
23.300000 -22.765625 8.718078
23.050000 -21.578125 8.718078
22.800000 -20.140625 8.718078
26.075000 -34.296875 8.866831
25.550000 -33.375000 8.866831
25.125000 -31.671875 8.866831
24.750000 -30.468750 8.866831
24.400000 -28.968750 8.866831
24.025000 -27.125000 8.866831
23.725000 -26.156250 8.866831
23.475000 -24.531250 8.866831
23.225000 -22.187500 8.866831
22.975000 -21.515625 8.866831
25.775000 -35.703125 9.013035
25.675000 -32.531250 9.013035
25.300000 -31.593750 9.013035
24.900000 -31.515625 9.013035
24.550000 -28.515625 9.013035
24.250000 -27.625000 9.013035
23.925000 -25.484375 9.013035
23.575000 -25.312500 9.013035
23.350000 -23.781250 9.013035
23.075000 -21.562500 9.013035
22.800000 -21.578125 9.013035
25.775000 -33.078125 9.152889
25.375000 -33.390625 9.152889
24.975000 -31.718750 9.152889
24.625000 -28.703125 9.152889
24.275000 -28.484375 9.152889
23.950000 -26.953125 9.152889
23.650000 -26.265625 9.152889
23.400000 -24.875000 9.152889
23.100000 -22.593750 9.152889
22.825000 -21.468750 9.152889
25.925000 -34.781250 9.280415
25.400000 -32.484375 9.280415
25.000000 -31.171875 9.280415
24.600000 -28.953125 9.280415
24.250000 -29.156250 9.280415
23.925000 -26.312500 9.280415
23.625000 -26.140625 9.280415
23.350000 -23.687500 9.280415
23.050000 -22.390625 9.280415
22.800000 -21.484375 9.280415
25.825000 -35.640625 9.426827
25.775000 -35.218750 9.426827
25.350000 -32.031250 9.426827
24.950000 -32.875000 9.426827
24.550000 -29.156250 9.426827
24.200000 -29.265625 9.426827
23.875000 -26.531250 9.426827
23.550000 -26.781250 9.426827
23.300000 -25.687500 9.426827
23.025000 -23.953125 9.426827
22.750000 -22.500000 9.426827
25.500000 -35.656250 9.575024
25.225000 -33.890625 9.575024
24.825000 -31.203125 9.575024
24.425000 -30.984375 9.575024
24.100000 -29.890625 9.575024
23.775000 -28.921875 9.575024
23.425000 -25.828125 9.575024
23.150000 -26.234375 9.575024
22.875000 -23.203125 9.575024
22.600000 -21.890625 9.575024
22.400000 -20.578125 9.575024
25.275000 -35.406250 9.702287
25.075000 -33.531250 9.702287
24.650000 -33.609375 9.702287
24.250000 -30.218750 9.702287
23.875000 -30.250000 9.702287
23.550000 -29.281250 9.702287
23.250000 -27.968750 9.702287
22.950000 -25.890625 9.702287
22.650000 -23.656250 9.702287
22.400000 -22.343750 9.702287
22.175000 -21.031250 9.702287
25.325000 -37.968750 9.855763
25.050000 -35.546875 9.855763
24.850000 -33.328125 9.855763
24.425000 -32.015625 9.855763
24.025000 -30.828125 9.855763
23.650000 -31.031250 9.855763
23.325000 -29.453125 9.855763
23.000000 -28.000000 9.855763
22.700000 -26.796875 9.855763
22.400000 -24.140625 9.855763
22.125000 -22.812500 9.855763
21.900000 -21.515625 9.855763
24.775000 -36.078125 9.990703
24.550000 -34.609375 9.990703
24.150000 -32.843750 9.990703
23.775000 -32.875000 9.990703
23.350000 -29.875000 9.990703
23.000000 -28.312500 9.990703
22.700000 -28.750000 9.990703
22.400000 -25.937500 9.990703
22.125000 -25.875000 9.990703
21.850000 -23.312500 9.990703
21.575000 -21.984375 9.990703
25.400000 -36.109375 10.133642
25.175000 -34.359375 10.133642
24.725000 -34.843750 10.133642
24.325000 -31.484375 10.133642
23.925000 -30.187500 10.133642
23.575000 -30.687500 10.133642
23.275000 -29.109375 10.133642
22.975000 -26.250000 10.133642
22.675000 -25.843750 10.133642
22.400000 -23.625000 10.133642
22.100000 -22.312500 10.133642
25.725000 -35.875000 10.275471
25.625000 -35.515625 10.275471
25.275000 -33.515625 10.275471
24.900000 -32.640625 10.275471
24.525000 -31.421875 10.275471
24.175000 -29.218750 10.275471
23.825000 -28.390625 10.275471
23.525000 -25.500000 10.275471
23.250000 -24.187500 10.275471
22.950000 -22.875000 10.275471
22.700000 -22.250000 10.275471
26.100000 -34.937500 10.413833
25.675000 -33.718750 10.413833
25.300000 -31.921875 10.413833
24.925000 -30.703125 10.413833
24.575000 -28.453125 10.413833
24.275000 -28.156250 10.413833
23.950000 -25.984375 10.413833
23.650000 -24.781250 10.413833
23.400000 -22.218750 10.413833
23.125000 -20.906250 10.413833
26.150000 -35.484375 10.550605
26.325000 -33.250000 10.550605
25.900000 -32.765625 10.550605
25.525000 -31.140625 10.550605
25.125000 -29.078125 10.550605
24.775000 -27.687500 10.550605
24.500000 -25.671875 10.550605
24.200000 -24.359375 10.550605
23.900000 -22.718750 10.550605
23.625000 -21.406250 10.550605
23.400000 -21.765625 10.550605
26.375000 -32.875000 10.692956
26.000000 -31.187500 10.692956
25.625000 -30.250000 10.692956
25.275000 -28.984375 10.692956
24.925000 -27.765625 10.692956
24.625000 -25.265625 10.692956
24.350000 -24.234375 10.692956
24.075000 -21.843750 10.692956
23.825000 -21.328125 10.692956
23.575000 -20.187500 10.692956
26.725000 -34.921875 10.834587
26.775000 -32.906250 10.834587
26.375000 -31.750000 10.834587
26.000000 -30.625000 10.834587
25.625000 -29.046875 10.834587
25.300000 -27.625000 10.834587
25.000000 -26.125000 10.834587
24.700000 -23.468750 10.834587
24.425000 -22.484375 10.834587
24.150000 -21.671875 10.834587
23.900000 -19.656250 10.834587
26.775000 -33.953125 10.976449
26.675000 -31.953125 10.976449
26.250000 -31.312500 10.976449
25.900000 -29.734375 10.976449
25.575000 -26.578125 10.976449
25.250000 -26.140625 10.976449
24.975000 -24.531250 10.976449
24.675000 -22.390625 10.976449
24.400000 -21.078125 10.976449
24.175000 -21.046875 10.976449
26.900000 -31.468750 11.117530
26.450000 -30.625000 11.117530
26.100000 -30.046875 11.117530
25.750000 -28.390625 11.117530
25.425000 -26.000000 11.117530
25.125000 -24.781250 11.117530
24.850000 -24.062500 11.117530
24.600000 -22.125000 11.117530
24.350000 -21.187500 11.117530
24.100000 -19.562500 11.117530
26.875000 -32.453125 11.259523
26.600000 -30.265625 11.259523
26.225000 -30.031250 11.259523
25.875000 -27.265625 11.259523
25.550000 -26.921875 11.259523
25.275000 -25.375000 11.259523
24.950000 -22.812500 11.259523
24.675000 -23.078125 11.259523
24.450000 -21.000000 11.259523
24.225000 -20.359375 11.259523
26.650000 -30.890625 11.399338
26.225000 -29.468750 11.399338
25.900000 -27.968750 11.399338
25.600000 -27.078125 11.399338
25.300000 -25.703125 11.399338
25.025000 -23.531250 11.399338
24.775000 -23.000000 11.399338
24.525000 -21.593750 11.399338
24.275000 -19.812500 11.399338
26.625000 -31.078125 11.540880
26.250000 -29.500000 11.540880
25.925000 -28.265625 11.540880
25.600000 -26.828125 11.540880
25.300000 -24.078125 11.540880
25.025000 -24.234375 11.540880
24.775000 -22.140625 11.540880
24.525000 -20.593750 11.540880
24.275000 -19.718750 11.540880
27.100000 -31.500000 11.674761
26.525000 -30.859375 11.674761
26.175000 -29.359375 11.674761
25.850000 -27.984375 11.674761
25.550000 -26.000000 11.674761
25.225000 -24.468750 11.674761
24.950000 -23.843750 11.674761
24.675000 -22.078125 11.674761
24.425000 -20.109375 11.674761
27.100000 -33.187500 11.807876
26.725000 -31.375000 11.807876
26.325000 -30.343750 11.807876
26.000000 -28.015625 11.807876
25.675000 -25.812500 11.807876
25.400000 -25.390625 11.807876
25.125000 -24.656250 11.807876
24.825000 -21.453125 11.807876
24.600000 -22.062500 11.807876
24.350000 -18.828125 11.807876
27.075000 -33.062500 11.946358
26.700000 -30.500000 11.946358
26.300000 -30.015625 11.946358
25.975000 -28.250000 11.946358
25.650000 -27.343750 11.946358
25.375000 -25.312500 11.946358
25.100000 -23.781250 11.946358
24.800000 -23.000000 11.946358
24.525000 -21.484375 11.946358
24.275000 -18.859375 11.946358
26.825000 -32.875000 12.103509
26.500000 -30.750000 12.103509
26.125000 -29.015625 12.103509
25.750000 -27.953125 12.103509
25.475000 -26.906250 12.103509
25.200000 -24.125000 12.103509
24.875000 -22.312500 12.103509
24.625000 -22.171875 12.103509
24.400000 -21.609375 12.103509
24.200000 -19.687500 12.103509
26.775000 -32.921875 12.242166
26.525000 -31.468750 12.242166
26.175000 -30.625000 12.242166
25.800000 -28.656250 12.242166
25.475000 -27.281250 12.242166
25.200000 -25.875000 12.242166
24.900000 -23.875000 12.242166
24.625000 -23.078125 12.242166
24.400000 -20.515625 12.242166
24.150000 -20.406250 12.242166
26.675000 -32.843750 12.379110
26.375000 -32.359375 12.379110
25.975000 -30.093750 12.379110
25.650000 -29.593750 12.379110
25.375000 -28.406250 12.379110
25.025000 -25.953125 12.379110
24.750000 -25.390625 12.379110
24.500000 -24.125000 12.379110
24.200000 -21.187500 12.379110
23.900000 -19.625000 12.379110
26.475000 -33.203125 12.518707
26.025000 -31.781250 12.518707
25.675000 -29.437500 12.518707
25.350000 -29.343750 12.518707
25.025000 -25.906250 12.518707
24.725000 -26.390625 12.518707
24.450000 -24.703125 12.518707
24.200000 -22.875000 12.518707
23.925000 -22.578125 12.518707
23.625000 -19.312500 12.518707
26.275000 -34.171875 12.656831
25.975000 -32.828125 12.656831
25.625000 -31.578125 12.656831
25.250000 -29.406250 12.656831
24.925000 -27.656250 12.656831
24.600000 -26.984375 12.656831
24.300000 -24.250000 12.656831
24.025000 -23.703125 12.656831
23.775000 -22.937500 12.656831
23.525000 -21.500000 12.656831
26.050000 -34.609375 12.792187
25.675000 -32.812500 12.792187
25.275000 -31.234375 12.792187
24.925000 -30.281250 12.792187
24.575000 -28.296875 12.792187
24.275000 -26.125000 12.792187
24.000000 -26.062500 12.792187
23.750000 -24.906250 12.792187
23.475000 -23.484375 12.792187
23.225000 -21.984375 12.792187
25.650000 -33.843750 12.938312
25.225000 -33.296875 12.938312
24.850000 -31.515625 12.938312
24.475000 -28.546875 12.938312
24.150000 -27.234375 12.938312
23.875000 -27.187500 12.938312
23.575000 -24.625000 12.938312
23.325000 -23.328125 12.938312
23.075000 -23.625000 12.938312
22.825000 -22.312500 12.938312
25.250000 -33.421875 13.078972
24.825000 -33.937500 13.078972
24.425000 -30.687500 13.078972
24.075000 -29.375000 13.078972
23.725000 -28.062500 13.078972
23.425000 -26.765625 13.078972
23.125000 -26.953125 13.078972
22.875000 -24.656250 13.078972
22.600000 -22.843750 13.078972
22.350000 -21.546875 13.078972
24.700000 -34.968750 13.219580
24.300000 -34.593750 13.219580
23.875000 -32.109375 13.219580
23.500000 -31.484375 13.219580
23.175000 -29.609375 13.219580
22.850000 -28.781250 13.219580
22.550000 -27.562500 13.219580
22.250000 -24.828125 13.219580
21.975000 -24.656250 13.219580
21.750000 -22.328125 13.219580
25.000000 -36.500000 13.362803
24.525000 -33.671875 13.362803
24.100000 -33.531250 13.362803
23.750000 -31.296875 13.362803
23.400000 -30.156250 13.362803
23.075000 -28.640625 13.362803
22.775000 -26.500000 13.362803
22.475000 -26.031250 13.362803
22.200000 -25.359375 13.362803
21.975000 -23.953125 13.362803
21.725000 -21.265625 13.362803
21.750000 -21.375000 13.362803
25.125000 -35.000000 13.498326
24.700000 -33.453125 13.498326
24.300000 -30.859375 13.498326
23.900000 -29.546875 13.498326
23.550000 -28.234375 13.498326
23.250000 -28.703125 13.498326
22.975000 -25.609375 13.498326
22.675000 -24.312500 13.498326
22.400000 -23.000000 13.498326
22.150000 -21.687500 13.498326
25.575000 -34.781250 13.639292
25.100000 -33.015625 13.639292
24.675000 -30.953125 13.639292
24.300000 -30.437500 13.639292
23.950000 -30.093750 13.639292
23.625000 -26.765625 13.639292
23.325000 -27.234375 13.639292
23.050000 -24.906250 13.639292
22.775000 -23.093750 13.639292
22.525000 -22.890625 13.639292
25.950000 -36.828125 13.778560
25.825000 -34.890625 13.778560
25.275000 -33.375000 13.778560
24.850000 -31.890625 13.778560
24.475000 -29.328125 13.778560
24.125000 -29.890625 13.778560
23.800000 -26.703125 13.778560
23.475000 -25.390625 13.778560
23.200000 -25.453125 13.778560
22.950000 -22.765625 13.778560
22.700000 -21.468750 13.778560
25.700000 -36.453125 13.924819
25.750000 -34.812500 13.924819
25.300000 -31.968750 13.924819
24.900000 -31.390625 13.924819
24.525000 -30.828125 13.924819
24.175000 -28.859375 13.924819
23.850000 -26.859375 13.924819
23.550000 -26.453125 13.924819
23.275000 -24.609375 13.924819
23.025000 -23.515625 13.924819
22.775000 -22.078125 13.924819
25.650000 -34.359375 14.055504
25.250000 -32.906250 14.055504
24.850000 -30.828125 14.055504
24.500000 -30.171875 14.055504
24.150000 -27.296875 14.055504
23.825000 -26.062500 14.055504
23.550000 -25.484375 14.055504
23.325000 -23.531250 14.055504
23.050000 -21.718750 14.055504
22.825000 -20.406250 14.055504
26.100000 -34.812500 14.201974
25.525000 -32.359375 14.201974
25.125000 -31.671875 14.201974
24.750000 -30.937500 14.201974
24.400000 -27.546875 14.201974
24.050000 -26.921875 14.201974
23.750000 -26.734375 14.201974
23.475000 -23.609375 14.201974
23.225000 -22.296875 14.201974
23.000000 -22.125000 14.201974
25.675000 -32.625000 14.342046
25.300000 -33.000000 14.342046
24.925000 -31.031250 14.342046
24.550000 -30.093750 14.342046
24.200000 -28.468750 14.342046
23.900000 -25.406250 14.342046
23.625000 -26.125000 14.342046
23.325000 -24.140625 14.342046
23.050000 -21.718750 14.342046
22.825000 -21.625000 14.342046
26.475000 -36.234375 14.487649
25.500000 -33.218750 14.487649
25.100000 -30.765625 14.487649
24.725000 -28.828125 14.487649
24.375000 -29.515625 14.487649
24.050000 -27.812500 14.487649
23.750000 -26.562500 14.487649
23.475000 -25.156250 14.487649
23.225000 -22.890625 14.487649
22.975000 -20.953125 14.487649
25.650000 -33.203125 14.620938
25.225000 -30.578125 14.620938
24.850000 -30.468750 14.620938
24.500000 -30.046875 14.620938
24.150000 -27.140625 14.620938
23.825000 -26.890625 14.620938
23.550000 -25.406250 14.620938
23.300000 -24.468750 14.620938
23.050000 -22.953125 14.620938
22.800000 -20.328125 14.620938
26.175000 -36.078125 14.763895
25.675000 -34.437500 14.763895
25.250000 -32.109375 14.763895
24.850000 -30.828125 14.763895
24.475000 -28.687500 14.763895
24.125000 -29.187500 14.763895
23.825000 -26.750000 14.763895
23.525000 -24.750000 14.763895
23.225000 -23.437500 14.763895
22.975000 -22.109375 14.763895
22.750000 -20.921875 14.763895
25.700000 -35.062500 14.903320
25.250000 -33.859375 14.903320
24.850000 -32.359375 14.903320
24.450000 -30.968750 14.903320
24.100000 -29.671875 14.903320
23.775000 -27.609375 14.903320
23.450000 -25.578125 14.903320
23.175000 -24.265625 14.903320
22.925000 -23.468750 14.903320
22.700000 -21.312500 14.903320
25.675000 -35.000000 15.049057
25.125000 -33.125000 15.049057
24.700000 -32.906250 15.049057
24.300000 -31.640625 15.049057
23.950000 -29.031250 15.049057
23.625000 -27.453125 15.049057
23.325000 -25.718750 15.049057
23.050000 -24.421875 15.049057
22.800000 -24.218750 15.049057
22.550000 -21.796875 15.049057
25.575000 -37.156250 15.185619
25.450000 -36.031250 15.185619
24.975000 -34.703125 15.185619
24.525000 -32.968750 15.185619
24.125000 -31.296875 15.185619
23.775000 -29.312500 15.185619
23.425000 -27.500000 15.185619
23.125000 -26.187500 15.185619
22.850000 -24.875000 15.185619
22.575000 -23.703125 15.185619
22.350000 -22.265625 15.185619
22.100000 -21.375000 15.185619
25.200000 -35.578125 15.322164
24.675000 -34.968750 15.322164
24.275000 -33.656250 15.322164
23.875000 -30.578125 15.322164
23.500000 -29.265625 15.322164
23.150000 -27.953125 15.322164
22.825000 -26.640625 15.322164
22.550000 -26.703125 15.322164
22.300000 -24.015625 15.322164
22.050000 -23.953125 15.322164
21.775000 -21.390625 15.322164
24.775000 -37.234375 15.462893
24.475000 -35.250000 15.462893
24.025000 -34.281250 15.462893
23.625000 -32.281250 15.462893
23.275000 -29.984375 15.462893
22.925000 -30.078125 15.462893
22.600000 -27.359375 15.462893
22.325000 -27.125000 15.462893
22.025000 -24.734375 15.462893
21.775000 -23.671875 15.462893
21.550000 -22.531250 15.462893
25.150000 -35.203125 15.608098
24.725000 -33.156250 15.608098
24.350000 -32.000000 15.608098
23.975000 -30.250000 15.608098
23.600000 -29.046875 15.608098
23.300000 -27.250000 15.608098
23.000000 -25.250000 15.608098
22.725000 -23.937500 15.608098
22.475000 -23.406250 15.608098
22.250000 -21.296875 15.608098
25.650000 -33.140625 15.742899
25.225000 -32.781250 15.742899
24.850000 -30.734375 15.742899
24.475000 -29.828125 15.742899
24.150000 -28.875000 15.742899
23.825000 -26.796875 15.742899
23.500000 -24.390625 15.742899
23.250000 -24.625000 15.742899
23.025000 -21.750000 15.742899
22.775000 -22.015625 15.742899
26.175000 -34.625000 15.885943
25.950000 -33.593750 15.885943
25.525000 -32.078125 15.885943
25.125000 -29.828125 15.885943
24.750000 -29.453125 15.885943
24.450000 -27.421875 15.885943
24.150000 -25.156250 15.885943
23.850000 -23.515625 15.885943
23.575000 -22.203125 15.885943
23.350000 -22.500000 15.885943
23.125000 -19.578125 15.885943
26.450000 -33.609375 16.027075
26.050000 -32.250000 16.027075
25.650000 -30.250000 16.027075
25.275000 -29.390625 16.027075
24.925000 -27.375000 16.027075
24.600000 -26.796875 16.027075
24.325000 -24.937500 16.027075
24.050000 -23.281250 16.027075
23.800000 -23.031250 16.027075
23.550000 -21.328125 16.027075
26.475000 -32.890625 16.173436
26.050000 -30.984375 16.173436
25.675000 -30.046875 16.173436
25.325000 -27.218750 16.173436
25.000000 -26.921875 16.173436
24.700000 -25.046875 16.173436
24.400000 -24.281250 16.173436
24.150000 -22.875000 16.173436
23.875000 -20.156250 16.173436
26.700000 -32.546875 16.308605
26.275000 -31.296875 16.308605
25.900000 -30.062500 16.308605
25.550000 -27.859375 16.308605
25.200000 -27.437500 16.308605
24.925000 -26.125000 16.308605
24.650000 -24.109375 16.308605
24.375000 -23.218750 16.308605
24.100000 -21.296875 16.308605
23.850000 -19.765625 16.308605
26.800000 -32.593750 16.449485
26.425000 -31.343750 16.449485
26.025000 -29.328125 16.449485
25.675000 -28.234375 16.449485
25.350000 -27.000000 16.449485
25.025000 -24.031250 16.449485
24.725000 -22.468750 16.449485
24.475000 -21.156250 16.449485
24.225000 -21.093750 16.449485
24.000000 -18.531250 16.449485
26.925000 -32.703125 16.590010
26.825000 -32.156250 16.590010
26.400000 -30.656250 16.590010
26.025000 -29.421875 16.590010
25.675000 -28.062500 16.590010
25.375000 -26.531250 16.590010
25.075000 -24.609375 16.590010
24.775000 -22.984375 16.590010
24.550000 -21.468750 16.590010
24.300000 -21.171875 16.590010
26.725000 -31.859375 16.733676
26.325000 -29.296875 16.733676
25.950000 -28.687500 16.733676
25.625000 -26.546875 16.733676
25.325000 -25.875000 16.733676
25.025000 -24.875000 16.733676
24.750000 -23.062500 16.733676
24.475000 -21.968750 16.733676
24.250000 -20.625000 16.733676
26.825000 -33.281250 16.868857
27.025000 -31.703125 16.868857
26.575000 -31.171875 16.868857
26.175000 -28.343750 16.868857
25.825000 -27.187500 16.868857
25.525000 -26.609375 16.868857
25.225000 -25.750000 16.868857
24.925000 -22.828125 16.868857
24.675000 -22.843750 16.868857
24.400000 -20.750000 16.868857
27.125000 -31.640625 17.009571
26.650000 -31.343750 17.009571
26.275000 -30.093750 17.009571
25.925000 -28.765625 17.009571
25.575000 -25.515625 17.009571
25.250000 -25.203125 17.009571
25.025000 -24.609375 17.009571
24.750000 -21.296875 17.009571
24.475000 -21.859375 17.009571
24.225000 -18.796875 17.009571
26.800000 -32.921875 17.150020
26.975000 -31.562500 17.150020
26.550000 -31.234375 17.150020
26.150000 -28.812500 17.150020
25.800000 -27.046875 17.150020
25.500000 -26.781250 17.150020
25.200000 -25.062500 17.150020
24.900000 -23.687500 17.150020
24.650000 -20.968750 17.150020
24.400000 -21.000000 17.150020
26.900000 -31.828125 17.293645
26.500000 -30.765625 17.293645
26.125000 -29.984375 17.293645
25.775000 -28.093750 17.293645
25.400000 -25.984375 17.293645
25.075000 -24.421875 17.293645
24.850000 -22.359375 17.293645
24.625000 -22.093750 17.293645
24.350000 -20.500000 17.293645
26.600000 -31.296875 17.431235
26.200000 -30.453125 17.431235
25.875000 -29.406250 17.431235
25.525000 -27.843750 17.431235
25.175000 -24.625000 17.431235
24.900000 -23.687500 17.431235
24.650000 -23.781250 17.431235
24.375000 -22.031250 17.431235
24.125000 -20.656250 17.431235
26.800000 -33.078125 17.567699
26.375000 -30.968750 17.567699
25.975000 -30.578125 17.567699
25.625000 -28.625000 17.567699
25.275000 -26.937500 17.567699
24.975000 -26.203125 17.567699
24.700000 -24.187500 17.567699
24.425000 -21.656250 17.567699
24.150000 -20.343750 17.567699
23.925000 -20.875000 17.567699
26.450000 -32.375000 17.710343
26.075000 -31.593750 17.710343
25.675000 -28.984375 17.710343
25.325000 -28.859375 17.710343
25.025000 -26.828125 17.710343
24.700000 -25.937500 17.710343
24.425000 -23.562500 17.710343
24.150000 -22.734375 17.710343
23.900000 -21.937500 17.710343
26.625000 -34.171875 17.856822
26.200000 -32.890625 17.856822
25.775000 -29.703125 17.856822
25.400000 -29.500000 17.856822
25.050000 -28.562500 17.856822
24.725000 -26.968750 17.856822
24.425000 -25.984375 17.856822
24.175000 -22.984375 17.856822
23.900000 -23.062500 17.856822
23.625000 -21.984375 17.856822
26.400000 -33.000000 17.993441
25.850000 -32.250000 17.993441
25.475000 -29.609375 17.993441
25.100000 -30.250000 17.993441
24.750000 -28.968750 17.993441
24.450000 -26.125000 17.993441
24.150000 -25.734375 17.993441
23.875000 -24.890625 17.993441
23.575000 -21.640625 17.993441
23.350000 -21.031250 17.993441
26.125000 -34.890625 18.129193
25.625000 -33.218750 18.129193
25.225000 -32.281250 18.129193
24.825000 -30.328125 18.129193
24.475000 -29.296875 18.129193
24.150000 -26.281250 18.129193
23.850000 -25.968750 18.129193
23.575000 -23.671875 18.129193
23.325000 -22.359375 18.129193
23.075000 -21.046875 18.129193
25.600000 -35.359375 18.276220
25.300000 -33.765625 18.276220
24.875000 -33.171875 18.276220
24.500000 -29.875000 18.276220
24.150000 -30.343750 18.276220
23.825000 -28.453125 18.276220
23.500000 -25.828125 18.276220
23.225000 -25.734375 18.276220
22.950000 -24.218750 18.276220
22.700000 -21.921875 18.276220
22.450000 -20.375000 18.276220
25.275000 -36.312500 18.419451
24.775000 -34.765625 18.419451
24.350000 -32.437500 18.419451
23.925000 -31.171875 18.419451
23.550000 -29.546875 18.419451
23.250000 -27.687500 18.419451
22.950000 -27.750000 18.419451
22.675000 -25.062500 18.419451
22.375000 -23.765625 18.419451
22.100000 -22.453125 18.419451
21.875000 -21.140625 18.419451
24.825000 -35.265625 18.555629
24.350000 -33.171875 18.555629
23.925000 -32.921875 18.555629
23.550000 -32.312500 18.555629
23.200000 -30.734375 18.555629
22.850000 -28.796875 18.555629
22.500000 -27.296875 18.555629
22.225000 -26.593750 18.555629
21.975000 -25.281250 18.555629
21.725000 -24.031250 18.555629
25.625000 -37.796875 18.696580
25.150000 -36.078125 18.696580
24.675000 -33.421875 18.696580
24.275000 -31.625000 18.696580
23.900000 -32.031250 18.696580
23.525000 -29.000000 18.696580
23.225000 -27.687500 18.696580
22.925000 -27.984375 18.696580
22.650000 -26.140625 18.696580
22.350000 -23.750000 18.696580
22.075000 -22.437500 18.696580
25.100000 -33.765625 18.837092
24.700000 -33.046875 18.837092
24.300000 -30.265625 18.837092
23.900000 -28.953125 18.837092
23.600000 -28.593750 18.837092
23.300000 -26.328125 18.837092
22.975000 -25.906250 18.837092
22.725000 -25.203125 18.837092
22.425000 -22.390625 18.837092
22.175000 -21.093750 18.837092
25.500000 -36.125000 18.982129
25.350000 -33.500000 18.982129
24.925000 -31.406250 18.982129
24.525000 -31.046875 18.982129
24.175000 -29.531250 18.982129
23.825000 -27.468750 18.982129
23.525000 -27.562500 18.982129
23.225000 -26.203125 18.982129
22.950000 -24.234375 18.982129
22.700000 -22.234375 18.982129
22.450000 -20.921875 18.982129
25.650000 -34.359375 19.117482
25.475000 -34.328125 19.117482
25.050000 -31.484375 19.117482
24.625000 -30.593750 19.117482
24.275000 -28.250000 19.117482
23.925000 -26.937500 19.117482
23.625000 -25.625000 19.117482
23.350000 -25.656250 19.117482
23.075000 -23.406250 19.117482
22.825000 -21.687500 19.117482
22.575000 -21.968750 19.117482
25.825000 -34.781250 19.256416
25.400000 -32.843750 19.256416
25.000000 -31.078125 19.256416
24.625000 -30.625000 19.256416
24.275000 -29.265625 19.256416
23.925000 -26.875000 19.256416
23.625000 -26.843750 19.256416
23.375000 -24.875000 19.256416
23.125000 -23.796875 19.256416
22.850000 -21.078125 19.256416
25.700000 -33.593750 19.397331
25.300000 -32.968750 19.397331
24.900000 -31.593750 19.397331
24.550000 -28.265625 19.397331
24.225000 -28.000000 19.397331
23.900000 -26.812500 19.397331
23.575000 -24.453125 19.397331
23.300000 -23.937500 19.397331
23.050000 -21.718750 19.397331
22.800000 -20.406250 19.397331
25.975000 -34.453125 19.542623
25.575000 -33.468750 19.542623
25.150000 -31.218750 19.542623
24.775000 -29.984375 19.542623
24.450000 -28.703125 19.542623
24.125000 -27.125000 19.542623
23.800000 -26.500000 19.542623
23.500000 -23.921875 19.542623
23.225000 -22.359375 19.542623
23.000000 -21.046875 19.542623
25.800000 -34.765625 19.680763
25.725000 -34.234375 19.680763
25.325000 -32.296875 19.680763
24.900000 -30.421875 19.680763
24.525000 -28.843750 19.680763
24.250000 -26.437500 19.680763
23.950000 -25.500000 19.680763
23.600000 -24.937500 19.680763
23.325000 -22.500000 19.680763
23.025000 -21.453125 19.680763
22.775000 -20.921875 19.680763
22.850000 -18.828125 19.680763
25.775000 -34.156250 19.821105
25.375000 -32.796875 19.821105
24.975000 -31.062500 19.821105
24.600000 -29.906250 19.821105
24.250000 -28.015625 19.821105
23.950000 -27.468750 19.821105
23.675000 -25.515625 19.821105
23.400000 -23.125000 19.821105
23.100000 -23.156250 19.821105
22.850000 -22.156250 19.821105
25.800000 -34.203125 19.961042
25.375000 -33.265625 19.961042
24.950000 -29.906250 19.961042
24.575000 -28.593750 19.961042
24.225000 -27.281250 19.961042
23.900000 -27.609375 19.961042
23.600000 -24.656250 19.961042
23.325000 -24.031250 19.961042
23.075000 -22.031250 19.961042
22.825000 -20.468750 19.961042
25.950000 -34.796875 20.103766
25.375000 -33.234375 20.103766
24.950000 -30.453125 20.103766
24.575000 -30.968750 20.103766
24.225000 -27.828125 20.103766
23.875000 -27.890625 20.103766
23.600000 -26.906250 20.103766
23.325000 -25.531250 20.103766
23.075000 -24.140625 20.103766
22.800000 -22.640625 20.103766
25.700000 -34.343750 20.240961
25.250000 -32.734375 20.240961
24.850000 -30.796875 20.240961
24.450000 -29.484375 20.240961
24.100000 -29.375000 20.240961
23.775000 -27.687500 20.240961
23.475000 -26.953125 20.240961
23.200000 -25.734375 20.240961
22.925000 -22.921875 20.240961
22.675000 -21.609375 20.240961
25.325000 -34.125000 20.382522
25.150000 -34.500000 20.382522
24.725000 -33.421875 20.382522
24.325000 -30.687500 20.382522
23.950000 -29.593750 20.382522
23.625000 -29.234375 20.382522
23.325000 -26.968750 20.382522
23.025000 -24.828125 20.382522
22.750000 -24.296875 20.382522
22.500000 -23.375000 20.382522
22.275000 -22.328125 20.382522
25.175000 -36.031250 20.520571
24.925000 -34.828125 20.520571
24.500000 -32.750000 20.520571
24.100000 -31.234375 20.520571
23.700000 -30.562500 20.520571
23.375000 -28.531250 20.520571
23.075000 -27.421875 20.520571
22.750000 -25.156250 20.520571
22.475000 -25.328125 20.520571
22.225000 -22.531250 20.520571
22.000000 -21.234375 20.520571
24.900000 -34.796875 20.667497
24.625000 -35.250000 20.667497
24.250000 -33.296875 20.667497
23.825000 -30.875000 20.667497
23.450000 -29.562500 20.667497
23.100000 -29.703125 20.667497
22.800000 -27.859375 20.667497
22.500000 -26.328125 20.667497
22.200000 -25.437500 20.667497
21.950000 -23.015625 20.667497
21.700000 -23.046875 20.667497
24.975000 -35.921875 20.805070
24.700000 -34.218750 20.805070
24.275000 -32.343750 20.805070
23.825000 -32.406250 20.805070
23.450000 -30.500000 20.805070
23.125000 -28.406250 20.805070
22.800000 -28.265625 20.805070
22.500000 -26.812500 20.805070
22.175000 -24.453125 20.805070
21.900000 -24.218750 20.805070
21.625000 -21.828125 20.805070
25.475000 -35.703125 20.945659
25.075000 -33.296875 20.945659
24.650000 -31.156250 20.945659
24.275000 -29.843750 20.945659
23.900000 -28.531250 20.945659
23.600000 -28.562500 20.945659
23.325000 -27.359375 20.945659
23.025000 -24.609375 20.945659
22.750000 -23.281250 20.945659
22.475000 -23.265625 20.945659
26.250000 -36.218750 21.083412
25.825000 -33.828125 21.083412
25.400000 -32.687500 21.083412
25.025000 -30.640625 21.083412
24.650000 -30.062500 21.083412
24.325000 -29.328125 21.083412
24.025000 -27.750000 21.083412
23.725000 -25.781250 21.083412
23.400000 -23.468750 21.083412
23.125000 -22.156250 21.083412
22.925000 -21.468750 21.083412
25.825000 -33.687500 21.222492
25.975000 -33.468750 21.222492
25.575000 -30.937500 21.222492
25.175000 -30.046875 21.222492
24.825000 -29.078125 21.222492
24.525000 -27.718750 21.222492
24.200000 -24.843750 21.222492
23.900000 -24.671875 21.222492
23.650000 -23.796875 21.222492
23.375000 -21.234375 21.222492
26.350000 -32.578125 21.364961
25.950000 -31.843750 21.364961
25.575000 -29.812500 21.364961
25.225000 -28.296875 21.364961
24.875000 -27.390625 21.364961
24.575000 -26.218750 21.364961
24.325000 -25.484375 21.364961
24.050000 -22.156250 21.364961
23.775000 -22.421875 21.364961
23.525000 -19.515625 21.364961
26.525000 -33.375000 21.503624
26.100000 -31.015625 21.503624
25.700000 -30.062500 21.503624
25.375000 -28.796875 21.503624
25.050000 -26.093750 21.503624
24.750000 -25.984375 21.503624
24.500000 -23.218750 21.503624
24.225000 -21.640625 21.503624
23.950000 -21.734375 21.503624
23.725000 -20.078125 21.503624
26.600000 -32.437500 21.642399
26.225000 -31.375000 21.642399
25.850000 -28.921875 21.642399
25.500000 -28.265625 21.642399
25.175000 -27.000000 21.642399
24.900000 -25.578125 21.642399
24.625000 -24.546875 21.642399
24.375000 -22.031250 21.642399
24.100000 -19.828125 21.642399
26.875000 -33.359375 21.784317
26.675000 -31.250000 21.784317
26.275000 -30.734375 21.784317
25.950000 -29.687500 21.784317
25.625000 -28.218750 21.784317
25.300000 -25.953125 21.784317
25.000000 -24.140625 21.784317
24.725000 -23.703125 21.784317
24.475000 -22.468750 21.784317
24.250000 -20.578125 21.784317
26.825000 -32.390625 21.923653
26.625000 -30.703125 21.923653
26.250000 -30.140625 21.923653
25.900000 -29.046875 21.923653
25.575000 -25.640625 21.923653
25.250000 -24.828125 21.923653
25.000000 -24.843750 21.923653
24.725000 -21.562500 21.923653
24.450000 -21.203125 21.923653
24.225000 -20.750000 21.923653
26.600000 -31.390625 22.067605
26.250000 -29.015625 22.067605
25.900000 -28.312500 22.067605
25.600000 -26.781250 22.067605
25.300000 -24.968750 22.067605
25.000000 -22.656250 22.067605
24.725000 -21.093750 22.067605
24.500000 -21.515625 22.067605
24.250000 -20.250000 22.067605
27.125000 -31.390625 22.206306
26.550000 -30.281250 22.206306
26.200000 -29.531250 22.206306
25.875000 -28.250000 22.206306
25.550000 -25.906250 22.206306
25.225000 -23.671875 22.206306
24.975000 -22.953125 22.206306
24.725000 -22.703125 22.206306
24.475000 -20.484375 22.206306
27.125000 -32.218750 22.346431
26.550000 -30.156250 22.346431
26.150000 -28.921875 22.346431
25.825000 -27.015625 22.346431
25.550000 -25.140625 22.346431
25.250000 -24.953125 22.346431
24.975000 -23.671875 22.346431
24.700000 -21.296875 22.346431
24.450000 -20.296875 22.346431
26.825000 -31.718750 22.487334
26.375000 -29.843750 22.487334
26.050000 -28.421875 22.487334
25.725000 -27.203125 22.487334
25.450000 -25.546875 22.487334
25.175000 -24.875000 22.487334
24.875000 -23.109375 22.487334
24.600000 -20.859375 22.487334
24.350000 -18.765625 22.487334
26.575000 -31.046875 22.627478
26.225000 -29.328125 22.627478
25.900000 -27.687500 22.627478
25.575000 -25.953125 22.627478
25.275000 -25.234375 22.627478
25.000000 -23.046875 22.627478
24.725000 -22.000000 22.627478
24.500000 -20.468750 22.627478
24.250000 -19.359375 22.627478
26.700000 -31.687500 22.768178
26.325000 -30.765625 22.768178
25.975000 -28.890625 22.768178
25.650000 -27.765625 22.768178
25.375000 -26.484375 22.768178
25.075000 -23.687500 22.768178
24.800000 -23.781250 22.768178
24.550000 -22.203125 22.768178
24.275000 -19.203125 22.768178
26.650000 -33.890625 22.908013
26.675000 -31.984375 22.908013
26.275000 -30.187500 22.908013
25.925000 -28.812500 22.908013
25.600000 -26.843750 22.908013
25.300000 -26.468750 22.908013
25.000000 -24.859375 22.908013
24.725000 -22.234375 22.908013
24.475000 -22.484375 22.908013
24.225000 -20.187500 22.908013
26.625000 -32.812500 23.053776
26.250000 -30.796875 23.053776
25.900000 -29.906250 23.053776
25.575000 -28.062500 23.053776
25.275000 -27.046875 23.053776
24.975000 -25.984375 23.053776
24.700000 -24.031250 23.053776
24.425000 -21.515625 23.053776
24.175000 -21.859375 23.053776
23.950000 -20.187500 23.053776
26.525000 -32.515625 23.188959
26.125000 -32.031250 23.188959
25.775000 -30.421875 23.188959
25.425000 -27.203125 23.188959
25.075000 -26.031250 23.188959
24.800000 -26.312500 23.188959
24.550000 -25.218750 23.188959
24.275000 -23.562500 23.188959
24.025000 -20.953125 23.188959
23.775000 -20.875000 23.188959
26.300000 -35.093750 23.329783
26.375000 -33.656250 23.329783
25.925000 -31.609375 23.329783
25.550000 -30.062500 23.329783
25.200000 -29.390625 23.329783
24.875000 -28.031250 23.329783
24.600000 -26.406250 23.329783
24.350000 -25.437500 23.329783
24.075000 -23.046875 23.329783
23.800000 -22.218750 23.329783
23.550000 -20.343750 23.329783
26.125000 -33.671875 23.469199
25.650000 -31.640625 23.469199
25.300000 -31.156250 23.469199
24.950000 -29.640625 23.469199
24.650000 -28.515625 23.469199
24.350000 -26.062500 23.469199
24.050000 -24.968750 23.469199
23.775000 -22.750000 23.469199
23.525000 -22.718750 23.469199
23.275000 -20.015625 23.469199
25.825000 -35.328125 23.614825
25.675000 -33.437500 23.614825
25.250000 -32.218750 23.614825
24.875000 -31.296875 23.614825
24.550000 -29.921875 23.614825
24.225000 -26.703125 23.614825
23.900000 -26.156250 23.614825
23.625000 -25.531250 23.614825
23.375000 -24.093750 23.614825
23.100000 -22.812500 23.614825
22.875000 -20.156250 23.614825
25.500000 -35.171875 23.761811
25.050000 -33.265625 23.761811
24.675000 -32.218750 23.761811
24.325000 -29.781250 23.761811
23.950000 -27.843750 23.761811
23.625000 -26.859375 23.761811
23.350000 -25.218750 23.761811
23.050000 -23.906250 23.761811
22.800000 -23.765625 23.761811
22.575000 -22.843750 23.761811
25.000000 -35.171875 23.890601
24.575000 -33.500000 23.890601
24.200000 -33.234375 23.890601
23.850000 -31.500000 23.890601
23.475000 -28.609375 23.890601
23.150000 -28.546875 23.890601
22.850000 -25.984375 23.890601
22.550000 -25.968750 23.890601
22.275000 -23.359375 23.890601
22.025000 -22.046875 23.890601
25.400000 -36.140625 24.032504
24.900000 -36.500000 24.032504
24.475000 -34.500000 24.032504
24.050000 -32.078125 24.032504
23.650000 -30.765625 24.032504
23.275000 -30.250000 24.032504
22.950000 -29.718750 24.032504
22.650000 -26.828125 24.032504
22.350000 -25.531250 24.032504
22.100000 -25.453125 24.032504
21.825000 -24.281250 24.032504
21.600000 -22.546875 24.032504
25.475000 -35.875000 24.174351
25.250000 -35.906250 24.174351
24.725000 -33.968750 24.174351
24.275000 -31.859375 24.174351
23.900000 -32.046875 24.174351
23.550000 -28.812500 24.174351
23.225000 -27.500000 24.174351
22.925000 -26.187500 24.174351
22.650000 -25.000000 24.174351
22.400000 -25.078125 24.174351
22.150000 -22.265625 24.174351
21.900000 -20.687500 24.174351
21.950000 -20.593750 24.174351
25.250000 -34.531250 24.312534
24.825000 -33.046875 24.312534
24.400000 -31.218750 24.312534
24.025000 -29.843750 24.312534
23.675000 -28.140625 24.312534
23.375000 -26.578125 24.312534
23.100000 -26.578125 24.312534
22.800000 -25.093750 24.312534
22.550000 -23.953125 24.312534
22.300000 -21.843750 24.312534
25.650000 -35.390625 24.453897
25.250000 -34.562500 24.453897
24.850000 -31.328125 24.453897
24.450000 -29.687500 24.453897
24.125000 -29.203125 24.453897
23.750000 -27.062500 24.453897
23.450000 -25.750000 24.453897
23.175000 -25.812500 24.453897
22.925000 -24.593750 24.453897
22.700000 -22.890625 24.453897
22.425000 -21.656250 24.453897
25.650000 -34.718750 24.594492
25.225000 -33.265625 24.594492
24.850000 -31.593750 24.594492
24.450000 -29.640625 24.594492
24.100000 -28.671875 24.594492
23.775000 -26.265625 24.594492
23.475000 -26.453125 24.594492
23.225000 -23.640625 24.594492
22.950000 -22.328125 24.594492
22.700000 -21.015625 24.594492
25.775000 -36.515625 24.736430
25.825000 -34.218750 24.736430
25.550000 -34.171875 24.736430
25.125000 -30.812500 24.736430
24.750000 -31.140625 24.736430
24.400000 -28.187500 24.736430
24.050000 -27.781250 24.736430
23.750000 -25.437500 24.736430
23.475000 -25.734375 24.736430
23.225000 -24.125000 24.736430
22.975000 -21.500000 24.736430
22.700000 -20.187500 24.736430
25.725000 -34.171875 24.875128
25.325000 -32.781250 24.875128
24.925000 -31.062500 24.875128
24.550000 -30.234375 24.875128
24.200000 -28.343750 24.875128
23.900000 -25.656250 24.875128
23.600000 -24.343750 24.875128
23.325000 -23.015625 24.875128
23.100000 -21.718750 24.875128
22.850000 -20.406250 24.875128
26.025000 -34.406250 25.015052
25.525000 -33.359375 25.015052
25.100000 -30.156250 25.015052
24.700000 -28.718750 25.015052
24.350000 -29.015625 25.015052
24.025000 -27.406250 25.015052
23.725000 -26.390625 25.015052
23.450000 -23.468750 25.015052
23.200000 -22.156250 25.015052
22.975000 -22.406250 25.015052
25.975000 -34.140625 25.153628
25.650000 -33.281250 25.153628
25.200000 -30.687500 25.153628
24.800000 -30.000000 25.153628
24.475000 -27.812500 25.153628
24.125000 -28.250000 25.153628
23.800000 -25.812500 25.153628
23.525000 -23.875000 25.153628
23.300000 -23.437500 25.153628
23.075000 -21.250000 25.153628
22.825000 -21.578125 25.153628
22.875000 -19.546875 25.153628
25.700000 -33.328125 25.299893
25.275000 -31.093750 25.299893
24.875000 -30.562500 25.299893
24.525000 -28.218750 25.299893
24.200000 -28.656250 25.299893
23.900000 -26.937500 25.299893
23.600000 -24.281250 25.299893
23.325000 -22.968750 25.299893
23.075000 -22.218750 25.299893
22.825000 -21.921875 25.299893
25.650000 -32.750000 25.432713
25.225000 -32.437500 25.432713
24.850000 -31.859375 25.432713
24.475000 -29.546875 25.432713
24.125000 -28.031250 25.432713
23.800000 -25.843750 25.432713
23.525000 -24.531250 25.432713
23.275000 -23.562500 25.432713
23.025000 -22.156250 25.432713
22.800000 -21.437500 25.432713
25.650000 -36.375000 25.576888
25.675000 -34.828125 25.576888
25.225000 -33.234375 25.576888
24.825000 -31.015625 25.576888
24.450000 -28.656250 25.576888
24.100000 -27.609375 25.576888
23.750000 -26.296875 25.576888
23.475000 -24.968750 25.576888
23.200000 -23.671875 25.576888
22.950000 -22.359375 25.576888
22.700000 -21.671875 25.576888
25.550000 -35.078125 25.716021
25.100000 -31.953125 25.716021
24.675000 -31.984375 25.716021
24.325000 -30.984375 25.716021
23.975000 -29.734375 25.716021
23.625000 -26.578125 25.716021
23.300000 -25.265625 25.716021
23.050000 -25.296875 25.716021
22.800000 -24.250000 25.716021
22.550000 -21.328125 25.716021
25.300000 -34.562500 25.862193
24.875000 -33.968750 25.862193
24.450000 -32.562500 25.862193
24.100000 -31.250000 25.862193
23.750000 -28.281250 25.862193
23.400000 -27.406250 25.862193
23.125000 -26.671875 25.862193
22.850000 -25.718750 25.862193
22.600000 -23.031250 25.862193
22.350000 -23.000000 25.862193
25.000000 -33.593750 25.995371
24.550000 -32.281250 25.995371
24.125000 -32.375000 25.995371
23.775000 -29.656250 25.995371
23.425000 -30.125000 25.995371
23.100000 -27.031250 25.995371
22.800000 -25.703125 25.995371
22.525000 -25.421875 25.995371
22.275000 -23.078125 25.995371
22.025000 -21.765625 25.995371
24.900000 -36.796875 26.137723
24.525000 -35.640625 26.137723
24.100000 -33.656250 26.137723
23.700000 -31.000000 26.137723
23.325000 -29.687500 26.137723
22.975000 -28.375000 26.137723
22.675000 -27.046875 26.137723
22.375000 -25.750000 26.137723
22.100000 -25.703125 26.137723
21.850000 -23.109375 26.137723
21.575000 -21.921875 26.137723
24.900000 -36.875000 26.277668
24.850000 -35.203125 26.277668
24.400000 -33.859375 26.277668
24.000000 -31.343750 26.277668
23.625000 -31.187500 26.277668
23.300000 -28.156250 26.277668
23.000000 -28.312500 26.277668
22.700000 -26.218750 26.277668
22.450000 -25.359375 26.277668
22.200000 -24.015625 26.277668
21.950000 -21.593750 26.277668
25.550000 -35.484375 26.421883
25.500000 -33.718750 26.421883
25.050000 -33.437500 26.421883
24.650000 -32.062500 26.421883
24.275000 -28.765625 26.421883
23.925000 -29.015625 26.421883
23.625000 -27.703125 26.421883
23.325000 -24.828125 26.421883
23.050000 -25.187500 26.421883
22.800000 -23.078125 26.421883
22.575000 -20.890625 26.421883
25.925000 -34.140625 26.557287
25.500000 -32.937500 26.557287
25.075000 -31.125000 26.557287
24.700000 -29.062500 26.557287
24.400000 -28.703125 26.557287
24.075000 -26.218750 26.557287
23.775000 -24.218750 26.557287
23.500000 -22.906250 26.557287
23.250000 -21.593750 26.557287
23.000000 -20.281250 26.557287
26.175000 -32.687500 26.700822
25.750000 -32.437500 26.700822
25.375000 -29.734375 26.700822
25.025000 -29.156250 26.700822
24.675000 -26.156250 26.700822
24.350000 -26.375000 26.700822
24.100000 -23.281250 26.700822
23.825000 -23.687500 26.700822
23.575000 -20.906250 26.700822
23.325000 -20.546875 26.700822
26.675000 -33.015625 26.838806
26.150000 -31.031250 26.838806
25.775000 -29.671875 26.838806
25.425000 -28.703125 26.838806
25.075000 -26.937500 26.838806
24.750000 -26.671875 26.838806
24.475000 -24.890625 26.838806
24.200000 -24.125000 26.838806
23.950000 -21.015625 26.838806
23.700000 -19.687500 26.838806
26.725000 -33.218750 26.982783
26.275000 -31.515625 26.982783
25.900000 -30.625000 26.982783
25.525000 -29.140625 26.982783
25.200000 -27.218750 26.982783
24.925000 -26.343750 26.982783
24.600000 -24.015625 26.982783
24.325000 -23.671875 26.982783
24.075000 -20.421875 26.982783
23.775000 -20.078125 26.982783
26.850000 -33.171875 27.118300
26.425000 -31.421875 27.118300
26.025000 -29.562500 27.118300
25.650000 -27.484375 27.118300
25.350000 -27.375000 27.118300
25.050000 -25.015625 27.118300
24.750000 -24.875000 27.118300
24.500000 -23.296875 27.118300
24.200000 -20.171875 27.118300
23.950000 -19.640625 27.118300
26.600000 -31.359375 27.257761
26.225000 -30.187500 27.257761
25.875000 -29.109375 27.257761
25.525000 -26.968750 27.257761
25.225000 -24.515625 27.257761
24.925000 -25.000000 27.257761
