30.950000 -19.843750 15.707468
30.750000 -19.031250 15.707468
30.550000 -17.546875 15.707468
32.475000 -28.140625 15.858720
32.550000 -27.359375 15.858720
32.175000 -25.968750 15.858720
31.875000 -24.921875 15.858720
31.625000 -23.812500 15.858720
31.325000 -22.000000 15.858720
31.075000 -21.328125 15.858720
30.850000 -19.421875 15.858720
30.625000 -18.890625 15.858720
30.400000 -17.234375 15.858720
32.500000 -27.562500 16.017987
32.150000 -25.750000 16.017987
31.825000 -25.015625 16.017987
31.525000 -23.390625 16.017987
31.225000 -22.515625 16.017987
30.975000 -21.312500 16.017987
30.700000 -20.156250 16.017987
30.475000 -18.781250 16.017987
30.275000 -17.359375 16.017987
32.025000 -26.281250 16.170227
31.750000 -24.921875 16.170227
31.400000 -23.953125 16.170227
31.100000 -22.296875 16.170227
30.875000 -21.328125 16.170227
30.625000 -20.562500 16.170227
30.400000 -19.328125 16.170227
30.175000 -18.046875 16.170227
32.025000 -28.921875 16.331562
32.300000 -27.921875 16.331562
31.975000 -27.078125 16.331562
31.650000 -25.484375 16.331562
31.300000 -24.468750 16.331562
31.000000 -23.281250 16.331562
30.750000 -21.968750 16.331562
30.500000 -20.484375 16.331562
30.275000 -19.859375 16.331562
30.025000 -17.953125 16.331562
32.125000 -28.046875 16.493493
31.750000 -27.125000 16.493493
31.400000 -26.156250 16.493493
31.100000 -24.968750 16.493493
30.800000 -23.531250 16.493493
30.525000 -22.328125 16.493493
30.250000 -20.765625 16.493493
30.000000 -19.421875 16.493493
29.750000 -18.453125 16.493493
31.925000 -28.562500 16.644641
31.500000 -27.437500 16.644641
31.150000 -26.593750 16.644641
30.850000 -24.984375 16.644641
30.550000 -23.718750 16.644641
30.275000 -22.421875 16.644641
29.975000 -21.421875 16.644641
29.700000 -20.515625 16.644641
29.475000 -19.265625 16.644641
29.275000 -17.921875 16.644641
31.800000 -28.484375 16.793535
31.475000 -27.046875 16.793535
31.150000 -25.828125 16.793535
30.850000 -25.046875 16.793535
30.575000 -23.671875 16.793535
30.325000 -22.453125 16.793535
30.100000 -21.125000 16.793535
29.900000 -20.281250 16.793535
29.700000 -18.281250 16.793535
29.475000 -17.343750 16.793535
32.275000 -27.406250 16.954839
32.000000 -25.906250 16.954839
31.725000 -24.687500 16.954839
31.400000 -23.359375 16.954839
31.100000 -22.671875 16.954839
30.875000 -21.265625 16.954839
30.625000 -20.500000 16.954839
30.400000 -18.578125 16.954839
30.200000 -17.296875 16.954839
32.700000 -26.578125 17.107265
32.325000 -25.500000 17.107265
32.025000 -24.140625 17.107265
31.775000 -23.328125 17.107265
31.550000 -22.140625 17.107265
31.300000 -20.468750 17.107265
31.075000 -19.484375 17.107265
30.850000 -18.203125 17.107265
30.675000 -16.859375 17.107265
33.125000 -26.640625 17.266700
32.775000 -25.171875 17.266700
32.425000 -24.343750 17.266700
32.150000 -22.828125 17.266700
31.900000 -21.578125 17.266700
31.675000 -20.671875 17.266700
31.450000 -19.109375 17.266700
31.225000 -18.515625 17.266700
31.025000 -17.343750 17.266700
33.300000 -26.375000 17.417705
33.000000 -25.125000 17.417705
32.675000 -23.937500 17.417705
32.350000 -22.828125 17.417705
32.100000 -21.359375 17.417705
31.925000 -20.515625 17.417705
31.725000 -19.125000 17.417705
31.475000 -17.375000 17.417705
31.250000 -16.828125 17.417705
33.325000 -25.015625 17.584727
33.025000 -24.015625 17.584727
32.700000 -23.015625 17.584727
32.425000 -21.484375 17.584727
32.175000 -20.859375 17.584727
31.975000 -19.234375 17.584727
31.750000 -18.312500 17.584727
31.525000 -16.937500 17.584727
34.100000 -27.203125 17.739270
33.600000 -25.640625 17.739270
33.250000 -24.765625 17.739270
32.975000 -23.078125 17.739270
32.675000 -22.187500 17.739270
32.400000 -20.718750 17.739270
32.175000 -19.921875 17.739270
31.975000 -18.640625 17.739270
31.775000 -17.343750 17.739270
33.750000 -25.843750 17.890512
33.400000 -24.265625 17.890512
33.100000 -23.500000 17.890512
32.850000 -22.218750 17.890512
32.575000 -21.031250 17.890512
32.325000 -19.687500 17.890512
32.050000 -18.265625 17.890512
31.850000 -17.625000 17.890512
34.000000 -26.062500 18.062883
33.625000 -24.984375 18.062883
33.300000 -23.734375 18.062883
33.025000 -22.937500 18.062883
32.775000 -21.750000 18.062883
32.500000 -20.296875 18.062883
32.250000 -19.359375 18.062883
32.050000 -18.250000 18.062883
31.850000 -16.984375 18.062883
33.750000 -25.265625 18.201687
33.400000 -24.015625 18.201687
33.100000 -23.250000 18.201687
32.850000 -21.562500 18.201687
32.575000 -20.828125 18.201687
32.300000 -19.390625 18.201687
32.100000 -17.890625 18.201687
31.900000 -17.015625 18.201687
33.750000 -25.500000 18.363012
33.400000 -23.937500 18.363012
33.100000 -22.781250 18.363012
32.825000 -21.734375 18.363012
32.550000 -20.921875 18.363012
32.300000 -19.375000 18.363012
32.100000 -18.406250 18.363012
31.900000 -17.156250 18.363012
33.925000 -26.234375 18.522104
33.575000 -24.562500 18.522104
33.250000 -23.734375 18.522104
32.950000 -22.328125 18.522104
32.675000 -20.859375 18.522104
32.425000 -20.296875 18.522104
32.175000 -18.921875 18.522104
32.000000 -17.875000 18.522104
31.775000 -16.140625 18.522104
31.875000 -15.468750 18.522104
34.000000 -26.656250 18.670737
33.600000 -24.937500 18.670737
33.275000 -23.781250 18.670737
33.000000 -22.984375 18.670737
32.725000 -21.156250 18.670737
32.475000 -20.234375 18.670737
32.225000 -18.953125 18.670737
32.000000 -18.203125 18.670737
31.750000 -16.656250 18.670737
33.750000 -26.046875 18.829390
33.450000 -25.171875 18.829390
33.150000 -23.781250 18.829390
32.775000 -22.125000 18.829390
32.500000 -21.406250 18.829390
32.225000 -20.015625 18.829390
32.000000 -19.203125 18.829390
31.800000 -17.531250 18.829390
31.600000 -16.625000 18.829390
33.600000 -26.187500 18.981915
33.250000 -24.750000 18.981915
32.950000 -23.578125 18.981915
32.625000 -22.125000 18.981915
32.325000 -21.281250 18.981915
32.100000 -20.328125 18.981915
31.875000 -18.765625 18.981915
31.675000 -17.875000 18.981915
33.425000 -26.265625 19.153689
33.100000 -25.328125 19.153689
32.750000 -24.015625 19.153689
32.425000 -22.500000 19.153689
32.175000 -21.421875 19.153689
31.925000 -19.750000 19.153689
31.675000 -18.578125 19.153689
31.450000 -17.625000 19.153689
33.050000 -25.734375 19.294034
32.725000 -24.406250 19.294034
32.400000 -23.703125 19.294034
32.125000 -22.421875 19.294034
31.850000 -21.015625 19.294034
31.600000 -19.921875 19.294034
31.350000 -18.500000 19.294034
31.125000 -17.406250 19.294034
33.025000 -27.015625 19.451289
32.675000 -25.500000 19.451289
32.325000 -24.468750 19.451289
31.975000 -23.000000 19.451289
31.700000 -21.578125 19.451289
31.425000 -20.343750 19.451289
31.175000 -19.078125 19.451289
30.975000 -18.156250 19.451289
30.750000 -16.671875 19.451289
32.650000 -26.656250 19.601208
32.300000 -25.562500 19.601208
31.950000 -24.171875 19.601208
31.650000 -23.593750 19.601208
31.400000 -22.281250 19.601208
31.150000 -21.156250 19.601208
30.875000 -19.421875 19.601208
30.625000 -18.625000 19.601208
30.400000 -17.515625 19.601208
32.050000 -27.093750 19.772427
31.725000 -25.828125 19.772427
31.425000 -24.515625 19.772427
31.125000 -23.296875 19.772427
30.850000 -21.781250 19.772427
30.575000 -20.421875 19.772427
30.325000 -19.640625 19.772427
30.075000 -17.968750 19.772427
32.175000 -29.125000 19.929952
31.825000 -28.406250 19.929952
31.475000 -27.265625 19.929952
31.150000 -25.765625 19.929952
30.800000 -24.421875 19.929952
30.500000 -23.015625 19.929952
30.225000 -21.781250 19.929952
29.950000 -20.859375 19.929952
29.700000 -19.437500 19.929952
29.450000 -18.796875 19.929952
31.575000 -30.093750 20.080597
31.350000 -29.156250 20.080597
30.950000 -27.781250 20.080597
30.600000 -26.312500 20.080597
30.275000 -25.218750 20.080597
29.975000 -24.312500 20.080597
29.650000 -22.671875 20.080597
29.375000 -21.671875 20.080597
29.125000 -20.781250 20.080597
28.900000 -18.843750 20.080597
28.675000 -17.921875 20.080597
31.300000 -28.984375 20.230369
30.950000 -27.187500 20.230369
30.650000 -26.578125 20.230369
30.375000 -25.265625 20.230369
30.075000 -23.921875 20.230369
29.775000 -22.093750 20.230369
29.525000 -21.468750 20.230369
29.300000 -19.890625 20.230369
29.075000 -18.468750 20.230369
31.350000 -27.593750 20.391141
31.025000 -26.453125 20.391141
30.725000 -24.656250 20.391141
30.450000 -23.781250 20.391141
30.125000 -22.765625 20.391141
29.875000 -21.562500 20.391141
29.675000 -20.468750 20.391141
29.475000 -18.546875 20.391141
29.250000 -17.500000 20.391141
31.750000 -29.140625 20.541765
31.675000 -27.906250 20.541765
31.350000 -26.687500 20.541765
31.025000 -24.906250 20.541765
30.700000 -23.656250 20.541765
30.425000 -22.906250 20.541765
30.175000 -21.437500 20.541765
29.900000 -20.593750 20.541765
29.700000 -19.296875 20.541765
29.525000 -18.203125 20.541765
31.825000 -27.781250 20.706764
31.525000 -26.421875 20.706764
31.200000 -25.015625 20.706764
30.900000 -24.171875 20.706764
30.625000 -22.421875 20.706764
30.350000 -21.187500 20.706764
30.100000 -20.046875 20.706764
29.875000 -18.703125 20.706764
29.650000 -17.328125 20.706764
32.375000 -28.234375 20.854370
31.850000 -27.203125 20.854370
31.550000 -26.078125 20.854370
31.225000 -24.437500 20.854370
30.950000 -23.625000 20.854370
30.650000 -22.015625 20.854370
30.400000 -21.343750 20.854370
30.175000 -19.656250 20.854370
29.900000 -18.296875 20.854370
29.700000 -17.062500 20.854370
29.850000 -16.500000 20.854370
32.050000 -27.859375 21.015360
31.725000 -26.593750 21.015360
31.375000 -24.671875 21.015360
31.100000 -24.109375 21.015360
30.850000 -22.671875 21.015360
30.550000 -21.343750 21.015360
30.300000 -20.203125 21.015360
30.075000 -19.296875 21.015360
29.825000 -17.546875 21.015360
32.150000 -27.828125 21.168346
31.800000 -26.796875 21.168346
31.450000 -25.484375 21.168346
31.175000 -24.234375 21.168346
30.900000 -22.453125 21.168346
30.600000 -21.296875 21.168346
30.350000 -20.500000 21.168346
30.125000 -19.312500 21.168346
29.925000 -18.312500 21.168346
32.625000 -29.796875 21.324326
32.550000 -28.703125 21.324326
31.900000 -26.734375 21.324326
31.550000 -26.125000 21.324326
31.225000 -24.671875 21.324326
30.975000 -23.296875 21.324326
30.700000 -22.296875 21.324326
30.425000 -21.218750 21.324326
30.175000 -19.640625 21.324326
30.000000 -18.890625 21.324326
31.750000 -26.875000 21.479628
31.400000 -25.593750 21.479628
31.125000 -24.515625 21.479628
30.875000 -23.187500 21.479628
30.550000 -21.421875 21.479628
30.300000 -20.437500 21.479628
30.050000 -19.140625 21.479628
29.775000 -18.078125 21.479628
31.925000 -28.953125 21.635996
31.825000 -27.546875 21.635996
31.450000 -25.859375 21.635996
31.150000 -24.656250 21.635996
30.850000 -23.781250 21.635996
30.575000 -22.093750 21.635996
30.325000 -21.718750 21.635996
30.075000 -20.437500 21.635996
29.825000 -19.031250 21.635996
29.625000 -18.046875 21.635996
31.850000 -28.265625 21.791290
31.500000 -26.734375 21.791290
31.150000 -25.921875 21.791290
30.825000 -24.640625 21.791290
30.500000 -23.390625 21.791290
30.225000 -21.828125 21.791290
29.975000 -20.703125 21.791290
29.750000 -19.843750 21.791290
29.525000 -17.906250 21.791290
31.700000 -28.828125 21.946280
31.325000 -27.531250 21.946280
30.975000 -26.234375 21.946280
30.650000 -24.484375 21.946280
30.350000 -23.906250 21.946280
30.050000 -22.328125 21.946280
29.775000 -21.015625 21.946280
29.575000 -20.171875 21.946280
29.325000 -18.453125 21.946280
31.400000 -28.359375 22.099595
31.025000 -27.250000 22.099595
30.700000 -26.062500 22.099595
30.375000 -25.187500 22.099595
30.075000 -24.203125 22.099595
29.775000 -22.890625 22.099595
29.525000 -21.562500 22.099595
29.275000 -20.453125 22.099595
29.025000 -18.750000 22.099595
31.100000 -28.765625 22.261404
30.750000 -27.515625 22.261404
30.400000 -26.453125 22.261404
30.050000 -25.578125 22.261404
29.725000 -23.765625 22.261404
29.450000 -22.828125 22.261404
29.175000 -21.343750 22.261404
28.900000 -20.218750 22.261404
28.650000 -19.359375 22.261404
31.200000 -29.218750 22.410040
30.850000 -28.500000 22.410040
30.500000 -27.515625 22.410040
30.175000 -25.609375 22.410040
29.875000 -24.796875 22.410040
29.600000 -23.015625 22.410040
29.350000 -21.812500 22.410040
29.100000 -20.640625 22.410040
28.850000 -19.421875 22.410040
28.650000 -18.015625 22.410040
31.750000 -29.093750 22.571398
31.450000 -27.625000 22.571398
31.100000 -26.359375 22.571398
30.800000 -24.921875 22.571398
30.525000 -24.250000 22.571398
30.275000 -22.578125 22.571398
30.025000 -21.265625 22.571398
29.800000 -20.593750 22.571398
29.575000 -19.093750 22.571398
29.325000 -17.703125 22.571398
32.200000 -28.390625 22.725906
31.850000 -26.578125 22.725906
31.525000 -25.578125 22.725906
31.250000 -24.265625 22.725906
30.975000 -22.890625 22.725906
30.725000 -22.140625 22.725906
30.500000 -20.562500 22.725906
30.250000 -19.265625 22.725906
30.025000 -17.953125 22.725906
32.375000 -26.968750 22.885103
32.050000 -25.796875 22.885103
31.750000 -24.265625 22.885103
31.475000 -23.468750 22.885103
31.225000 -22.343750 22.885103
31.000000 -21.109375 22.885103
30.775000 -20.031250 22.885103
30.550000 -18.609375 22.885103
30.350000 -17.125000 22.885103
32.775000 -27.375000 23.037474
32.575000 -26.281250 23.037474
32.250000 -25.218750 23.037474
32.000000 -24.250000 23.037474
31.775000 -23.015625 23.037474
31.500000 -21.156250 23.037474
31.225000 -20.671875 23.037474
31.000000 -19.312500 23.037474
30.750000 -17.796875 23.037474
33.050000 -27.171875 23.197446
32.700000 -25.953125 23.197446
32.375000 -24.218750 23.197446
32.075000 -23.406250 23.197446
31.825000 -21.578125 23.197446
31.600000 -20.765625 23.197446
31.375000 -19.828125 23.197446
31.150000 -18.234375 23.197446
30.925000 -17.234375 23.197446
33.225000 -27.531250 23.347471
33.050000 -26.078125 23.347471
32.725000 -24.781250 23.347471
32.400000 -23.703125 23.347471
32.125000 -22.078125 23.347471
31.900000 -21.093750 23.347471
31.700000 -20.296875 23.347471
31.450000 -18.515625 23.347471
31.200000 -17.578125 23.347471
32.800000 -28.609375 23.506832
33.300000 -27.171875 23.506832
33.175000 -25.640625 23.506832
32.850000 -25.109375 23.506832
32.550000 -23.656250 23.506832
32.250000 -22.078125 23.506832
32.025000 -21.437500 23.506832
31.825000 -20.093750 23.506832
31.575000 -19.078125 23.506832
31.350000 -17.859375 23.506832
33.600000 -26.406250 23.657929
33.100000 -25.312500 23.657929
32.775000 -24.000000 23.657929
32.450000 -23.046875 23.657929
32.175000 -21.500000 23.657929
31.975000 -20.093750 23.657929
31.775000 -19.296875 23.657929
31.525000 -18.171875 23.657929
31.275000 -16.437500 23.657929
33.650000 -27.125000 23.812716
33.325000 -25.343750 23.812716
32.950000 -24.484375 23.812716
32.675000 -22.984375 23.812716
32.350000 -22.312500 23.812716
32.125000 -21.171875 23.812716
31.900000 -19.281250 23.812716
31.675000 -18.718750 23.812716
31.425000 -17.171875 23.812716
33.200000 -25.281250 23.968274
32.900000 -24.375000 23.968274
32.600000 -22.828125 23.968274
32.250000 -21.953125 23.968274
32.000000 -20.375000 23.968274
31.825000 -19.000000 23.968274
31.625000 -18.312500 23.968274
31.350000 -16.515625 23.968274
33.275000 -26.359375 24.123106
33.025000 -24.781250 24.123106
32.725000 -23.828125 24.123106
32.450000 -22.609375 24.123106
32.200000 -21.109375 24.123106
31.975000 -19.765625 24.123106
31.725000 -18.718750 24.123106
31.425000 -17.250000 24.123106
33.425000 -27.656250 24.277663
33.450000 -26.531250 24.277663
33.175000 -25.546875 24.277663
32.800000 -24.000000 24.277663
32.500000 -23.078125 24.277663
32.225000 -21.796875 24.277663
31.975000 -20.781250 24.277663
31.800000 -19.328125 24.277663
31.550000 -17.718750 24.277663
31.275000 -17.265625 24.277663
33.325000 -27.171875 24.434301
33.125000 -25.640625 24.434301
32.800000 -24.968750 24.434301
32.500000 -23.500000 24.434301
32.200000 -21.859375 24.434301
31.950000 -21.328125 24.434301
31.725000 -20.062500 24.434301
31.500000 -18.953125 24.434301
31.300000 -17.406250 24.434301
33.225000 -27.453125 24.588333
33.000000 -25.953125 24.588333
32.675000 -24.984375 24.588333
32.325000 -23.187500 24.588333
32.050000 -22.218750 24.588333
31.825000 -21.359375 24.588333
31.575000 -19.515625 24.588333
31.325000 -18.734375 24.588333
31.100000 -17.062500 24.588333
33.100000 -27.125000 24.744973
32.700000 -25.484375 24.744973
32.350000 -24.281250 24.744973
32.075000 -22.968750 24.744973
31.825000 -21.812500 24.744973
31.575000 -20.765625 24.744973
31.325000 -19.328125 24.744973
31.075000 -18.656250 24.744973
30.850000 -17.375000 24.744973
32.700000 -27.125000 24.912304
32.375000 -25.859375 24.912304
32.050000 -24.156250 24.912304
31.750000 -22.890625 24.912304
31.475000 -22.093750 24.912304
31.225000 -20.906250 24.912304
31.000000 -19.218750 24.912304
30.775000 -18.062500 24.912304
30.525000 -16.875000 24.912304
32.500000 -27.968750 25.072284
32.250000 -26.843750 25.072284
31.950000 -25.015625 25.072284
31.650000 -23.781250 25.072284
31.350000 -22.875000 25.072284
31.100000 -21.640625 25.072284
30.850000 -20.296875 25.072284
30.600000 -19.390625 25.072284
30.375000 -17.968750 25.072284
32.100000 -28.765625 25.224396
32.050000 -27.062500 25.224396
31.725000 -26.390625 25.224396
31.425000 -24.984375 25.224396
31.100000 -23.250000 25.224396
30.825000 -22.578125 25.224396
30.550000 -20.937500 25.224396
30.300000 -19.484375 25.224396
30.050000 -18.500000 25.224396
29.800000 -17.671875 25.224396
31.825000 -28.421875 25.367330
31.450000 -26.593750 25.367330
31.100000 -25.468750 25.367330
30.775000 -24.734375 25.367330
30.500000 -23.578125 25.367330
30.250000 -22.421875 25.367330
29.950000 -20.406250 25.367330
29.675000 -19.578125 25.367330
29.450000 -18.843750 25.367330
31.425000 -29.093750 25.537196
31.025000 -27.312500 25.537196
30.700000 -26.562500 25.537196
30.400000 -25.390625 25.537196
30.075000 -23.890625 25.537196
29.775000 -22.687500 25.537196
29.550000 -21.687500 25.537196
29.350000 -20.328125 25.537196
29.100000 -18.625000 25.537196
28.900000 -18.031250 25.537196
31.800000 -30.484375 25.680364
31.775000 -28.640625 25.680364
31.375000 -27.296875 25.680364
31.075000 -26.687500 25.680364
30.800000 -25.625000 25.680364
30.525000 -24.078125 25.680364
30.250000 -22.531250 25.680364
29.975000 -21.531250 25.680364
29.750000 -20.390625 25.680364
29.550000 -19.281250 25.680364
29.375000 -18.140625 25.680364
31.825000 -28.937500 25.835624
31.900000 -28.156250 25.835624
31.550000 -26.578125 25.835624
31.225000 -25.250000 25.835624
30.950000 -23.953125 25.835624
30.675000 -22.937500 25.835624
30.425000 -21.640625 25.835624
30.175000 -20.312500 25.835624
29.975000 -19.625000 25.835624
29.775000 -18.484375 25.835624
32.350000 -29.468750 25.992498
32.325000 -28.046875 25.992498
32.025000 -26.984375 25.992498
31.700000 -25.609375 25.992498
31.400000 -24.562500 25.992498
31.125000 -23.546875 25.992498
30.850000 -22.453125 25.992498
30.600000 -20.828125 25.992498
30.375000 -19.968750 25.992498
30.175000 -19.031250 25.992498
29.975000 -17.328125 25.992498
32.300000 -27.656250 26.149828
31.950000 -25.859375 26.149828
31.675000 -24.875000 26.149828
31.375000 -23.390625 26.149828
31.100000 -21.984375 26.149828
30.900000 -21.250000 26.149828
30.675000 -20.234375 26.149828
30.450000 -18.625000 26.149828
30.225000 -17.781250 26.149828
32.600000 -28.296875 26.320742
32.375000 -26.765625 26.320742
32.025000 -25.468750 26.320742
31.750000 -24.593750 26.320742
31.450000 -23.578125 26.320742
31.175000 -21.671875 26.320742
30.950000 -20.703125 26.320742
30.750000 -19.296875 26.320742
30.525000 -18.015625 26.320742
30.325000 -17.140625 26.320742
30.325000 -16.140625 26.320742
32.325000 -26.234375 26.472444
32.050000 -25.062500 26.472444
31.775000 -24.250000 26.472444
31.500000 -23.093750 26.472444
31.225000 -21.890625 26.472444
31.000000 -20.328125 26.472444
30.775000 -18.781250 26.472444
30.550000 -17.593750 26.472444
32.750000 -27.375000 26.627804
32.375000 -25.968750 26.627804
32.025000 -25.156250 26.627804
31.725000 -23.687500 26.627804
31.450000 -22.484375 26.627804
31.175000 -21.359375 26.627804
30.975000 -20.421875 26.627804
30.775000 -18.734375 26.627804
30.575000 -17.859375 26.627804
32.575000 -28.140625 26.784227
32.650000 -27.250000 26.784227
32.275000 -25.984375 26.784227
31.950000 -24.468750 26.784227
31.675000 -23.296875 26.784227
31.400000 -21.953125 26.784227
31.150000 -21.109375 26.784227
30.900000 -19.546875 26.784227
30.700000 -18.718750 26.784227
30.500000 -17.578125 26.784227
33.575000 -29.125000 26.939277
32.425000 -26.593750 26.939277
32.050000 -24.890625 26.939277
31.750000 -23.734375 26.939277
31.475000 -22.640625 26.939277
31.225000 -21.421875 26.939277
30.975000 -20.187500 26.939277
30.775000 -19.046875 26.939277
30.550000 -17.984375 26.939277
32.500000 -27.968750 27.097400
32.450000 -27.000000 27.097400
32.100000 -25.828125 27.097400
31.775000 -24.500000 27.097400
31.500000 -23.640625 27.097400
31.225000 -22.203125 27.097400
30.975000 -20.515625 27.097400
30.775000 -19.671875 27.097400
30.550000 -18.171875 27.097400
30.325000 -17.031250 27.097400
32.150000 -26.406250 27.239699
31.825000 -24.921875 27.239699
31.500000 -23.546875 27.239699
31.225000 -22.687500 27.239699
30.975000 -21.437500 27.239699
30.725000 -20.234375 27.239699
30.500000 -18.531250 27.239699
30.275000 -17.546875 27.239699
32.350000 -29.343750 27.406566
32.425000 -28.203125 27.406566
32.200000 -27.171875 27.406566
31.850000 -25.656250 27.406566
31.500000 -24.171875 27.406566
31.150000 -23.015625 27.406566
30.925000 -22.484375 27.406566
30.675000 -21.156250 27.406566
30.425000 -19.375000 27.406566
30.225000 -18.312500 27.406566
30.000000 -17.468750 27.406566
32.100000 -27.531250 27.563876
31.725000 -26.296875 27.563876
31.350000 -24.578125 27.563876
31.050000 -24.125000 27.563876
30.800000 -22.687500 27.563876
30.550000 -20.921875 27.563876
30.275000 -20.078125 27.563876
30.025000 -18.703125 27.563876
29.775000 -17.484375 27.563876
31.925000 -28.609375 27.709041
31.775000 -27.531250 27.709041
31.425000 -26.296875 27.709041
31.100000 -25.156250 27.709041
30.825000 -23.437500 27.709041
30.525000 -22.562500 27.709041
30.225000 -21.578125 27.709041
29.975000 -20.406250 27.709041
29.750000 -18.687500 27.709041
29.500000 -17.453125 27.709041
31.525000 -30.421875 27.865381
31.600000 -28.796875 27.865381
31.475000 -27.531250 27.865381
31.100000 -26.437500 27.865381
30.775000 -25.187500 27.865381
30.450000 -24.406250 27.865381
30.150000 -23.031250 27.865381
29.875000 -21.265625 27.865381
29.625000 -20.125000 27.865381
29.375000 -18.953125 27.865381
29.150000 -17.703125 27.865381
32.150000 -28.796875 28.020292
31.775000 -27.359375 28.020292
31.450000 -26.234375 28.020292
31.150000 -24.984375 28.020292
30.850000 -23.281250 28.020292
30.625000 -22.078125 28.020292
30.400000 -20.937500 28.020292
30.150000 -20.125000 28.020292
29.950000 -18.734375 28.020292
29.775000 -17.546875 28.020292
32.375000 -27.468750 28.187426
32.050000 -25.968750 28.187426
31.775000 -24.406250 28.187426
31.475000 -23.312500 28.187426
31.225000 -22.609375 28.187426
31.000000 -21.203125 28.187426
30.775000 -20.015625 28.187426
30.575000 -18.937500 28.187426
30.375000 -17.250000 28.187426
32.900000 -27.265625 28.333111
32.550000 -25.875000 28.333111
32.225000 -24.156250 28.333111
31.950000 -23.421875 28.333111
31.700000 -21.921875 28.333111
31.450000 -20.968750 28.333111
31.225000 -19.515625 28.333111
31.000000 -18.078125 28.333111
30.800000 -17.578125 28.333111
33.000000 -25.859375 28.498563
32.700000 -25.031250 28.498563
32.375000 -23.796875 28.498563
32.100000 -22.593750 28.498563
31.900000 -21.000000 28.498563
31.650000 -20.296875 28.498563
31.425000 -19.078125 28.498563
31.200000 -17.593750 28.498563
33.375000 -26.484375 28.652700
33.075000 -25.171875 28.652700
32.750000 -23.437500 28.652700
32.450000 -22.500000 28.652700
32.175000 -21.203125 28.652700
31.975000 -20.359375 28.652700
31.775000 -19.218750 28.652700
31.525000 -17.578125 28.652700
31.300000 -16.390625 28.652700
33.625000 -26.281250 28.807453
33.300000 -25.281250 28.807453
33.000000 -23.828125 28.807453
32.700000 -22.328125 28.807453
32.425000 -21.500000 28.807453
32.175000 -20.437500 28.807453
31.950000 -18.671875 28.807453
31.725000 -17.671875 28.807453
31.550000 -16.515625 28.807453
33.800000 -26.296875 28.957492
33.425000 -24.875000 28.957492
33.100000 -23.796875 28.957492
32.900000 -22.500000 28.957492
32.600000 -21.718750 28.957492
32.275000 -20.156250 28.957492
32.050000 -19.203125 28.957492
31.900000 -17.609375 28.957492
31.650000 -16.640625 28.957492
33.825000 -26.546875 29.119664
33.525000 -25.125000 29.119664
33.200000 -23.468750 29.119664
32.925000 -22.343750 29.119664
32.650000 -21.281250 29.119664
32.375000 -19.859375 29.119664
32.150000 -19.281250 29.119664
31.925000 -17.531250 29.119664
31.750000 -16.187500 29.119664
34.125000 -26.468750 29.268253
33.725000 -25.484375 29.268253
33.375000 -23.812500 29.268253
33.075000 -22.796875 29.268253
32.800000 -21.312500 29.268253
32.525000 -20.453125 29.268253
32.275000 -19.093750 29.268253
32.075000 -17.968750 29.268253
31.875000 -16.828125 29.268253
33.925000 -25.687500 29.430696
33.550000 -24.843750 29.430696
33.225000 -23.171875 29.430696
32.975000 -22.578125 29.430696
32.700000 -21.203125 29.430696
32.425000 -19.734375 29.430696
32.200000 -18.578125 29.430696
32.000000 -17.656250 29.430696
34.075000 -26.375000 29.582425
33.625000 -24.953125 29.582425
33.300000 -23.546875 29.582425
33.000000 -22.687500 29.582425
32.725000 -21.531250 29.582425
32.475000 -20.593750 29.582425
32.225000 -18.687500 29.582425
32.050000 -17.890625 29.582425
31.800000 -16.921875 29.582425
33.725000 -25.562500 29.742186
33.400000 -23.953125 29.742186
33.075000 -22.906250 29.742186
32.800000 -21.906250 29.742186
32.525000 -20.578125 29.742186
32.275000 -19.546875 29.742186
32.075000 -18.406250 29.742186
31.850000 -17.046875 29.742186
33.700000 -25.343750 29.890650
33.350000 -23.796875 29.890650
33.050000 -23.015625 29.890650
32.750000 -21.609375 29.890650
32.475000 -20.625000 29.890650
32.225000 -19.046875 29.890650
32.000000 -18.281250 29.890650
31.800000 -16.859375 29.890650
33.525000 -25.390625 30.055237
33.200000 -24.187500 30.055237
32.900000 -22.687500 30.055237
32.600000 -22.109375 30.055237
32.325000 -20.453125 30.055237
32.075000 -19.390625 30.055237
31.850000 -18.312500 30.055237
31.625000 -16.671875 30.055237
33.625000 -27.421875 30.209485
33.475000 -26.156250 30.209485
33.150000 -24.859375 30.209485
32.825000 -23.468750 30.209485
32.525000 -22.343750 30.209485
32.250000 -21.125000 30.209485
32.025000 -20.078125 30.209485
31.800000 -18.593750 30.209485
31.550000 -17.125000 30.209485
33.325000 -26.218750 30.365465
33.000000 -24.656250 30.365465
32.700000 -23.984375 30.365465
32.375000 -22.531250 30.365465
32.100000 -21.234375 30.365465
31.850000 -19.875000 30.365465
31.600000 -18.718750 30.365465
31.375000 -17.546875 30.365465
32.875000 -25.328125 30.520293
32.500000 -23.906250 30.520293
32.200000 -23.062500 30.520293
31.950000 -21.718750 30.520293
31.700000 -20.609375 30.520293
31.450000 -19.093750 30.520293
31.200000 -18.078125 30.520293
31.000000 -16.921875 30.520293
32.875000 -26.328125 30.676522
32.525000 -25.500000 30.676522
32.175000 -24.015625 30.676522
31.875000 -22.578125 30.676522
31.600000 -21.937500 30.676522
31.325000 -20.406250 30.676522
31.100000 -19.453125 30.676522
30.875000 -17.828125 30.676522
30.675000 -17.187500 30.676522
32.550000 -26.890625 30.828519
32.200000 -25.781250 30.828519
31.900000 -24.734375 30.828519
31.600000 -23.859375 30.828519
31.275000 -21.921875 30.828519
31.025000 -20.796875 30.828519
30.775000 -19.718750 30.828519
30.525000 -18.187500 30.828519
30.325000 -17.781250 30.828519
32.350000 -27.906250 30.989300
31.925000 -26.781250 30.989300
31.600000 -25.750000 30.989300
31.250000 -24.578125 30.989300
30.950000 -23.437500 30.989300
30.700000 -21.890625 30.989300
30.425000 -20.687500 30.989300
30.150000 -19.484375 30.989300
29.900000 -17.765625 30.989300
31.650000 -30.296875 31.139519
31.700000 -28.859375 31.139519
31.500000 -28.140625 31.139519
31.125000 -26.484375 31.139519
30.800000 -25.578125 31.139519
30.475000 -23.609375 31.139519
30.175000 -22.812500 31.139519
29.900000 -21.265625 31.139519
29.625000 -19.828125 31.139519
29.375000 -18.937500 31.139519
29.175000 -18.125000 31.139519
31.100000 -28.390625 31.299820
30.750000 -26.984375 31.299820
30.425000 -26.468750 31.299820
30.100000 -25.109375 31.299820
29.775000 -23.812500 31.299820
29.500000 -22.000000 31.299820
29.250000 -21.203125 31.299820
29.000000 -19.718750 31.299820
28.800000 -18.343750 31.299820
31.225000 -27.687500 31.446681
30.925000 -26.578125 31.446681
30.625000 -25.953125 31.446681
30.325000 -24.234375 31.446681
30.025000 -23.109375 31.446681
29.775000 -22.296875 31.446681
29.550000 -20.703125 31.446681
29.325000 -19.859375 31.446681
29.100000 -18.515625 31.446681
31.650000 -28.046875 31.609000
31.325000 -27.109375 31.609000
31.025000 -25.703125 31.609000
30.700000 -24.468750 31.609000
30.425000 -23.781250 31.609000
30.125000 -22.171875 31.609000
29.850000 -21.015625 31.609000
29.650000 -19.875000 31.609000
29.375000 -18.984375 31.609000
31.950000 -28.796875 31.765954
31.650000 -27.828125 31.765954
31.325000 -25.984375 31.765954
31.050000 -25.359375 31.765954
30.750000 -23.484375 31.765954
30.475000 -22.937500 31.765954
30.225000 -21.687500 31.765954
29.950000 -19.906250 31.765954
29.725000 -18.500000 31.765954
29.550000 -17.843750 31.765954
31.850000 -28.828125 31.919039
31.950000 -28.000000 31.919039
31.650000 -26.859375 31.919039
31.300000 -25.203125 31.919039
31.000000 -24.000000 31.919039
30.725000 -23.015625 31.919039
30.475000 -21.546875 31.919039
30.200000 -20.500000 31.919039
29.950000 -19.187500 31.919039
29.775000 -18.453125 31.919039
31.950000 -29.562500 32.078414
32.175000 -28.265625 32.078414
31.850000 -26.609375 32.078414
31.475000 -25.281250 32.078414
31.175000 -24.515625 32.078414
30.850000 -23.109375 32.078414
30.600000 -21.578125 32.078414
30.375000 -20.781250 32.078414
30.100000 -19.890625 32.078414
29.875000 -17.843750 32.078414
32.200000 -28.015625 32.233319
31.850000 -27.062500 32.233319
31.500000 -25.906250 32.233319
31.200000 -24.625000 32.233319
30.975000 -23.250000 32.233319
30.675000 -22.171875 32.233319
30.375000 -20.718750 32.233319
30.125000 -19.781250 32.233319
29.900000 -18.359375 32.233319
31.850000 -27.203125 32.391939
31.500000 -25.671875 32.391939
31.200000 -24.640625 32.391939
30.975000 -23.000000 32.391939
30.675000 -21.859375 32.391939
30.425000 -21.046875 32.391939
30.200000 -19.921875 32.391939
29.900000 -18.078125 32.391939
31.850000 -27.125000 32.544177
31.550000 -26.140625 32.544177
31.250000 -24.765625 32.544177
30.975000 -23.671875 32.544177
30.650000 -22.062500 32.544177
30.400000 -21.203125 32.544177
30.175000 -19.453125 32.544177
29.900000 -18.515625 32.544177
32.425000 -28.281250 32.701187
31.850000 -27.546875 32.701187
31.525000 -26.265625 32.701187
31.200000 -24.406250 32.701187
30.925000 -23.109375 32.701187
30.650000 -22.437500 32.701187
30.400000 -21.453125 32.701187
30.125000 -19.921875 32.701187
29.875000 -19.078125 32.701187
29.650000 -17.609375 32.701187
29.750000 -16.031250 32.701187
31.975000 -27.812500 32.857829
31.600000 -26.593750 32.857829
31.275000 -25.281250 32.857829
30.975000 -24.078125 32.857829
30.675000 -23.515625 32.857829
30.425000 -22.359375 32.857829
30.150000 -20.687500 32.857829
29.900000 -19.687500 32.857829
29.675000 -18.656250 32.857829
31.725000 -29.359375 33.014832
31.675000 -27.906250 33.014832
31.325000 -26.562500 33.014832
30.975000 -25.015625 33.014832
30.675000 -23.765625 33.014832
30.375000 -23.187500 33.014832
30.100000 -21.265625 33.014832
29.850000 -20.859375 33.014832
29.625000 -19.031250 33.014832
29.400000 -18.468750 33.014832
31.425000 -28.281250 33.168853
31.075000 -26.843750 33.168853
30.725000 -25.156250 33.168853
30.425000 -24.484375 33.168853
30.125000 -23.328125 33.168853
29.850000 -21.687500 33.168853
29.600000 -20.640625 33.168853
29.350000 -19.546875 33.168853
29.150000 -18.500000 33.168853
31.325000 -29.046875 33.328463
30.975000 -27.796875 33.328463
30.600000 -26.328125 33.328463
30.300000 -25.468750 33.328463
29.975000 -23.859375 33.328463
29.675000 -22.968750 33.328463
29.425000 -21.187500 33.328463
29.175000 -20.546875 33.328463
28.925000 -19.171875 33.328463
31.025000 -29.593750 33.482156
30.650000 -28.250000 33.482156
30.325000 -27.109375 33.482156
29.950000 -25.546875 33.482156
29.625000 -23.765625 33.482156
29.350000 -23.125000 33.482156
29.075000 -21.984375 33.482156
28.800000 -20.625000 33.482156
28.575000 -19.453125 33.482156
31.350000 -29.093750 33.639610
31.000000 -27.671875 33.639610
30.675000 -26.500000 33.639610
30.375000 -25.765625 33.639610
30.075000 -23.937500 33.639610
29.825000 -23.531250 33.639610
29.600000 -22.062500 33.639610
29.350000 -20.765625 33.639610
29.100000 -19.890625 33.639610
28.875000 -17.859375 33.639610
31.700000 -27.765625 33.793868
31.375000 -26.796875 33.793868
31.100000 -25.046875 33.793868
30.800000 -24.312500 33.793868
30.550000 -23.140625 33.793868
30.300000 -21.890625 33.793868
30.050000 -20.109375 33.793868
29.825000 -19.234375 33.793868
29.600000 -18.218750 33.793868
32.175000 -27.625000 33.952692
31.875000 -25.828125 33.952692
31.575000 -24.765625 33.952692
31.300000 -23.718750 33.952692
31.025000 -22.703125 33.952692
30.775000 -21.031250 33.952692
30.525000 -20.375000 33.952692
30.325000 -19.265625 33.952692
30.100000 -18.046875 33.952692
32.525000 -27.734375 34.105040
32.400000 -26.750000 34.105040
32.100000 -25.718750 34.105040
31.800000 -24.156250 34.105040
31.525000 -23.250000 34.105040
31.275000 -22.093750 34.105040
31.025000 -20.859375 34.105040
30.800000 -19.453125 34.105040
30.600000 -17.796875 34.105040
33.025000 -27.406250 34.262766
32.625000 -25.562500 34.262766
32.275000 -24.859375 34.262766
32.000000 -23.703125 34.262766
31.725000 -22.062500 34.262766
31.475000 -21.437500 34.262766
31.250000 -20.093750 34.262766
31.050000 -18.609375 34.262766
30.825000 -17.203125 34.262766
33.025000 -27.250000 34.417808
32.975000 -26.562500 34.417808
32.675000 -24.890625 34.417808
32.350000 -24.234375 34.417808
32.075000 -22.453125 34.417808
31.800000 -21.687500 34.417808
31.575000 -20.656250 34.417808
31.350000 -18.828125 34.417808
31.125000 -17.750000 34.417808
33.300000 -26.921875 34.575962
32.925000 -25.296875 34.575962
32.625000 -24.593750 34.575962
32.325000 -22.812500 34.575962
32.050000 -21.640625 34.575962
31.850000 -20.812500 34.575962
31.625000 -19.578125 34.575962
31.350000 -18.453125 34.575962
31.175000 -17.390625 34.575962
33.325000 -25.937500 34.730512
32.950000 -24.765625 34.730512
32.650000 -24.062500 34.730512
32.350000 -22.437500 34.730512
32.100000 -21.140625 34.730512
31.875000 -20.500000 34.730512
31.625000 -18.546875 34.730512
31.400000 -17.953125 34.730512
33.500000 -25.968750 34.893647
33.025000 -24.578125 34.893647
32.725000 -23.640625 34.893647
32.450000 -22.750000 34.893647
32.175000 -20.953125 34.893647
31.900000 -20.140625 34.893647
31.675000 -19.015625 34.893647
31.475000 -17.218750 34.893647
33.200000 -25.750000 35.041433
32.900000 -24.171875 35.041433
32.600000 -23.093750 35.041433
32.325000 -21.609375 35.041433
32.075000 -20.328125 35.041433
31.850000 -19.718750 35.041433
31.600000 -18.390625 35.041433
31.375000 -16.781250 35.041433
33.200000 -25.687500 35.202356
32.900000 -24.562500 35.202356
32.600000 -23.046875 35.202356
32.325000 -21.734375 35.202356
32.075000 -20.843750 35.202356
31.850000 -19.218750 35.202356
31.650000 -17.875000 35.202356
31.400000 -16.562500 35.202356
33.325000 -25.953125 35.351375
33.000000 -24.937500 35.351375
32.700000 -23.687500 35.351375
32.425000 -22.515625 35.351375
32.150000 -21.234375 35.351375
31.925000 -20.265625 35.351375
31.700000 -18.750000 35.351375
31.450000 -17.125000 35.351375
33.175000 -25.296875 35.511351
32.800000 -24.250000 35.511351
32.475000 -23.296875 35.511351
32.200000 -21.578125 35.511351
32.000000 -20.437500 35.511351
31.775000 -19.453125 35.511351
31.525000 -18.312500 35.511351
31.350000 -17.125000 35.511351
33.200000 -26.546875 35.665034
32.850000 -24.906250 35.665034
32.550000 -23.968750 35.665034
32.300000 -22.484375 35.665034
32.050000 -21.250000 35.665034
31.800000 -20.187500 35.665034
31.500000 -19.156250 35.665034
31.275000 -17.421875 35.665034
33.200000 -26.859375 35.822377
32.850000 -25.281250 35.822377
32.500000 -24.437500 35.822377
32.200000 -23.156250 35.822377
31.925000 -21.984375 35.822377
31.675000 -20.390625 35.822377
31.425000 -19.375000 35.822377
31.200000 -18.375000 35.822377
30.975000 -17.140625 35.822377
33.025000 -26.859375 35.976328
32.675000 -25.906250 35.976328
32.350000 -24.843750 35.976328
32.050000 -23.453125 35.976328
31.800000 -22.484375 35.976328
31.500000 -21.328125 35.976328
31.225000 -19.781250 35.976328
31.025000 -18.781250 35.976328
30.800000 -17.390625 35.976328
32.725000 -27.437500 36.134139
32.375000 -26.109375 36.134139
32.025000 -24.687500 36.134139
31.775000 -23.484375 36.134139
31.525000 -22.781250 36.134139
31.250000 -20.953125 36.134139
30.975000 -19.578125 36.134139
30.725000 -19.046875 36.134139
30.500000 -17.796875 36.134139
32.375000 -27.375000 36.282295
32.025000 -25.750000 36.282295
31.700000 -25.015625 36.282295
31.375000 -23.859375 36.282295
31.100000 -22.515625 36.282295
30.850000 -21.250000 36.282295
30.625000 -20.125000 36.282295
30.375000 -18.500000 36.282295
30.125000 -17.250000 36.282295
32.025000 -28.171875 36.439987
31.850000 -27.359375 36.439987
31.525000 -26.031250 36.439987
31.200000 -25.046875 36.439987
30.900000 -23.281250 36.439987
30.650000 -22.562500 36.439987
30.375000 -20.765625 36.439987
30.125000 -20.265625 36.439987
29.875000 -18.781250 36.439987
29.625000 -17.281250 36.439987
31.650000 -28.609375 36.593440
31.275000 -26.953125 36.593440
30.950000 -25.812500 36.593440
30.650000 -24.781250 36.593440
30.375000 -23.296875 36.593440
30.050000 -22.093750 36.593440
29.775000 -20.937500 36.593440
29.500000 -20.171875 36.593440
29.275000 -19.062500 36.593440
31.650000 -30.062500 36.750214
31.475000 -29.015625 36.750214
31.075000 -27.703125 36.750214
30.775000 -26.531250 36.750214
30.475000 -24.890625 36.750214
30.125000 -23.828125 36.750214
29.850000 -22.796875 36.750214
29.650000 -21.765625 36.750214
29.425000 -19.843750 36.750214
29.200000 -19.375000 36.750214
29.000000 -17.734375 36.750214
31.900000 -28.859375 36.904339
31.550000 -27.375000 36.904339
31.175000 -26.437500 36.904339
30.900000 -25.234375 36.904339
30.625000 -23.968750 36.904339
30.350000 -22.515625 36.904339
30.125000 -21.046875 36.904339
29.850000 -20.031250 36.904339
29.650000 -19.000000 36.904339
29.450000 -18.046875 36.904339
32.275000 -29.140625 37.074984
32.125000 -28.468750 37.074984
31.825000 -27.406250 37.074984
31.450000 -25.656250 37.074984
31.150000 -24.640625 37.074984
30.900000 -23.125000 37.074984
30.650000 -22.484375 37.074984
30.375000 -21.109375 37.074984
30.125000 -19.750000 37.074984
29.900000 -18.578125 37.074984
29.725000 -17.609375 37.074984
29.775000 -16.203125 37.074984
32.525000 -28.281250 37.231815
32.050000 -26.828125 37.231815
31.750000 -25.796875 37.231815
31.425000 -24.515625 37.231815
31.150000 -23.187500 37.231815
30.900000 -22.078125 37.231815
30.650000 -20.625000 37.231815
30.425000 -19.359375 37.231815
30.200000 -18.031250 37.231815
29.975000 -17.453125 37.231815
30.025000 -16.109375 37.231815
32.400000 -28.265625 37.386350
32.325000 -27.031250 37.386350
31.950000 -25.937500 37.386350
31.650000 -24.625000 37.386350
31.400000 -23.625000 37.386350
31.125000 -22.406250 37.386350
30.900000 -20.984375 37.386350
30.625000 -19.343750 37.386350
30.425000 -18.734375 37.386350
30.225000 -17.421875 37.386350
30.200000 -16.250000 37.386350
32.550000 -28.062500 37.528290
32.400000 -27.000000 37.528290
32.075000 -25.406250 37.528290
31.775000 -24.406250 37.528290
31.450000 -23.468750 37.528290
31.175000 -22.375000 37.528290
30.975000 -21.031250 37.528290
30.750000 -19.171875 37.528290
30.550000 -18.734375 37.528290
30.325000 -17.156250 37.528290
30.350000 -15.765625 37.528290
32.750000 -28.390625 37.684693
32.475000 -26.703125 37.684693
32.125000 -25.750000 37.684693
31.825000 -24.656250 37.684693
31.525000 -22.687500 37.684693
31.300000 -21.890625 37.684693
31.050000 -20.937500 37.684693
30.850000 -19.703125 37.684693
30.600000 -17.750000 37.684693
30.375000 -17.343750 37.684693
30.575000 -15.531250 37.684693
32.875000 -28.078125 37.839711
32.525000 -26.781250 37.839711
32.175000 -25.703125 37.839711
31.850000 -24.031250 37.839711
31.575000 -23.046875 37.839711
31.300000 -21.703125 37.839711
31.050000 -20.171875 37.839711
30.850000 -19.265625 37.839711
30.625000 -18.046875 37.839711
30.400000 -17.312500 37.839711
30.575000 -15.750000 37.839711
32.350000 -26.328125 37.994455
32.000000 -24.578125 37.994455
31.725000 -24.000000 37.994455
31.425000 -22.015625 37.994455
31.175000 -20.796875 37.994455
30.975000 -20.281250 37.994455
30.750000 -18.500000 37.994455
30.525000 -17.484375 37.994455
32.825000 -27.953125 38.147585
32.400000 -26.343750 38.147585
32.050000 -25.171875 38.147585
31.750000 -23.984375 38.147585
31.450000 -22.843750 38.147585
31.200000 -21.171875 38.147585
30.975000 -20.390625 38.147585
30.750000 -19.468750 38.147585
30.525000 -17.890625 38.147585
32.525000 -27.296875 38.307312
32.175000 -25.906250 38.307312
31.825000 -24.546875 38.307312
31.550000 -23.390625 38.307312
31.325000 -22.468750 38.307312
31.075000 -21.328125 38.307312
30.800000 -19.593750 38.307312
30.575000 -18.625000 38.307312
30.350000 -17.906250 38.307312
32.225000 -26.796875 38.477919
31.875000 -25.656250 38.477919
31.550000 -24.281250 38.477919
31.250000 -22.609375 38.477919
31.000000 -21.328125 38.477919
30.750000 -20.484375 38.477919
30.525000 -19.562500 38.477919
30.300000 -18.437500 38.477919
32.300000 -28.140625 38.620481
32.150000 -27.468750 38.620481
31.800000 -25.750000 38.620481
31.450000 -24.734375 38.620481
31.175000 -23.734375 38.620481
30.925000 -22.390625 38.620481
30.650000 -20.656250 38.620481
30.400000 -19.703125 38.620481
30.175000 -18.640625 38.620481
29.950000 -17.875000 38.620481
32.075000 -28.296875 38.774318
31.925000 -27.609375 38.774318
31.625000 -25.984375 38.774318
31.275000 -24.796875 38.774318
30.975000 -23.531250 38.774318
30.700000 -22.359375 38.774318
30.450000 -21.671875 38.774318
30.200000 -20.515625 38.774318
29.950000 -18.937500 38.774318
29.700000 -17.906250 38.774318
32.175000 -28.328125 38.932846
31.575000 -27.281250 38.932846
31.250000 -26.093750 38.932846
30.950000 -24.718750 38.932846
30.625000 -23.484375 38.932846
30.325000 -22.000000 38.932846
30.050000 -21.515625 38.932846
29.800000 -19.750000 38.932846
29.575000 -18.781250 38.932846
29.350000 -17.359375 38.932846
31.625000 -28.687500 39.100634
31.275000 -27.734375 39.100634
30.950000 -26.484375 39.100634
30.650000 -25.296875 39.100634
30.375000 -23.937500 39.100634
30.075000 -22.171875 39.100634
29.825000 -21.484375 39.100634
29.600000 -19.984375 39.100634
29.425000 -18.921875 39.100634
29.275000 -17.687500 39.100634
32.025000 -27.781250 39.255288
31.725000 -26.359375 39.255288
31.425000 -24.750000 39.255288
31.125000 -23.640625 39.255288
30.875000 -22.828125 39.255288
30.650000 -21.671875 39.255288
30.450000 -20.281250 39.255288
30.225000 -19.031250 39.255288
30.000000 -17.781250 39.255288
32.550000 -27.296875 39.409842
32.200000 -25.531250 39.409842
31.925000 -24.375000 39.409842
31.650000 -23.296875 39.409842
31.375000 -21.687500 39.409842
31.150000 -20.625000 39.409842
30.925000 -19.781250 39.409842
30.700000 -18.218750 39.409842
30.525000 -17.296875 39.409842
33.450000 -27.796875 39.553222
32.800000 -26.015625 39.553222
32.450000 -25.171875 39.553222
32.175000 -23.796875 39.553222
31.950000 -22.312500 39.553222
31.700000 -21.078125 39.553222
31.450000 -20.281250 39.553222
31.225000 -18.843750 39.553222
31.025000 -17.531250 39.553222
32.950000 -25.562500 39.710410
32.625000 -24.187500 39.710410
32.325000 -22.562500 39.710410
32.075000 -21.312500 39.710410
31.875000 -20.484375 39.710410
31.650000 -19.515625 39.710410
31.400000 -18.375000 39.710410
31.175000 -16.468750 39.710410
33.525000 -26.484375 39.864149
33.200000 -25.281250 39.864149
32.850000 -23.671875 39.864149
32.525000 -22.328125 39.864149
32.250000 -21.031250 39.864149
32.050000 -20.109375 39.864149
31.850000 -19.046875 39.864149
31.625000 -17.890625 39.864149
31.400000 -16.734375 39.864149
33.650000 -26.437500 40.033572
33.300000 -24.953125 40.033572
33.025000 -23.515625 40.033572
32.750000 -22.734375 40.033572
32.475000 -21.562500 40.033572
32.200000 -19.781250 40.033572
31.975000 -19.156250 40.033572
31.775000 -17.296875 40.033572
31.575000 -16.359375 40.033572
33.700000 -26.062500 40.196237
33.400000 -24.859375 40.196237
33.125000 -23.437500 40.196237
32.825000 -22.156250 40.196237
32.525000 -20.890625 40.196237
32.275000 -19.875000 40.196237
32.050000 -18.890625 40.196237
31.875000 -17.187500 40.196237
34.000000 -26.234375 40.344595
33.625000 -25.375000 40.344595
33.325000 -24.203125 40.344595
33.025000 -22.734375 40.344595
32.775000 -21.437500 40.344595
32.500000 -20.312500 40.344595
32.225000 -19.312500 40.344595
32.025000 -17.859375 40.344595
31.825000 -16.906250 40.344595
33.750000 -25.578125 40.497993
33.425000 -24.312500 40.497993
33.150000 -22.687500 40.497993
32.850000 -21.921875 40.497993
32.600000 -20.453125 40.497993
32.325000 -19.250000 40.497993
32.075000 -18.187500 40.497993
31.900000 -16.890625 40.497993
33.750000 -25.734375 40.652635
33.425000 -24.140625 40.652635
33.125000 -23.156250 40.652635
32.875000 -21.968750 40.652635
32.625000 -20.515625 40.652635
32.325000 -19.468750 40.652635
32.075000 -18.234375 40.652635
31.925000 -17.078125 40.652635
33.525000 -24.765625 40.810943
33.225000 -23.609375 40.810943
32.950000 -22.218750 40.810943
32.675000 -20.890625 40.810943
32.425000 -19.406250 40.810943
32.125000 -18.765625 40.810943
31.900000 -17.578125 40.810943
34.000000 -26.375000 40.965822
33.625000 -25.328125 40.965822
33.300000 -23.875000 40.965822
33.000000 -22.828125 40.965822
32.750000 -21.453125 40.965822
32.475000 -20.375000 40.965822
32.200000 -19.437500 40.965822
32.000000 -17.500000 40.965822
31.800000 -16.984375 40.965822
33.750000 -26.203125 41.113707
33.425000 -24.640625 41.113707
33.075000 -23.265625 41.113707
32.775000 -22.234375 41.113707
32.500000 -21.312500 41.113707
32.250000 -19.890625 41.113707
32.050000 -18.828125 41.113707
31.850000 -17.203125 41.113707
33.475000 -25.640625 41.280474
33.150000 -24.218750 41.280474
32.850000 -23.234375 41.280474
32.550000 -21.437500 41.280474
32.250000 -20.765625 41.280474
32.050000 -19.703125 41.280474
31.825000 -18.187500 41.280474
31.600000 -17.328125 41.280474
33.525000 -26.390625 41.424645
33.200000 -25.093750 41.424645
32.900000 -23.906250 41.424645
32.550000 -22.953125 41.424645
32.250000 -21.453125 41.424645
32.050000 -19.921875 41.424645
31.800000 -18.796875 41.424645
31.550000 -17.453125 41.424645
31.325000 -16.687500 41.424645
33.075000 -25.421875 41.585349
32.750000 -24.484375 41.585349
32.425000 -23.234375 41.585349
32.125000 -21.796875 41.585349
31.900000 -20.406250 41.585349
31.625000 -19.250000 41.585349
31.375000 -17.812500 41.585349
31.175000 -17.156250 41.585349
33.275000 -27.781250 41.733602
33.050000 -26.828125 41.733602
32.700000 -25.359375 41.733602
32.350000 -24.375000 41.733602
32.050000 -22.406250 41.733602
31.775000 -21.718750 41.733602
31.550000 -20.468750 41.733602
31.300000 -19.156250 41.733602
31.050000 -17.578125 41.733602
30.850000 -16.984375 41.733602
32.800000 -26.984375 41.896520
32.425000 -25.812500 41.896520
32.125000 -24.671875 41.896520
31.825000 -22.937500 41.896520
31.525000 -22.109375 41.896520
31.250000 -20.765625 41.896520
31.025000 -19.562500 41.896520
30.800000 -18.578125 41.896520
30.575000 -16.765625 41.896520
32.475000 -27.625000 42.045561
32.125000 -26.078125 42.045561
31.850000 -24.937500 42.045561
31.525000 -23.437500 42.045561
31.200000 -22.562500 42.045561
30.925000 -21.453125 42.045561
30.675000 -19.921875 42.045561
30.425000 -18.593750 42.045561
30.200000 -17.562500 42.045561
