30.550000 -14.312500 24.507520
30.300000 -15.062500 24.507520
30.525000 -16.187500 24.507520
30.950000 -17.875000 24.507520
31.225000 -18.734375 24.507520
31.175000 -20.140625 24.507520
30.950000 -21.312500 24.507520
30.900000 -22.515625 24.507520
30.700000 -13.796875 24.648638
30.475000 -15.265625 24.648638
30.550000 -16.218750 24.648638
30.925000 -16.859375 24.648638
31.375000 -18.125000 24.648638
31.375000 -20.140625 24.648638
31.025000 -21.203125 24.648638
30.825000 -22.203125 24.648638
30.950000 -23.437500 24.648638
30.825000 -25.281250 24.648638
30.850000 -13.671875 24.801574
30.525000 -14.359375 24.801574
30.575000 -15.421875 24.801574
30.925000 -17.078125 24.801574
31.275000 -18.546875 24.801574
31.350000 -19.328125 24.801574
31.100000 -20.609375 24.801574
30.850000 -22.093750 24.801574
30.850000 -13.578125 24.945264
30.525000 -14.687500 24.945264
30.575000 -15.906250 24.945264
30.950000 -16.687500 24.945264
31.425000 -18.000000 24.945264
31.475000 -19.500000 24.945264
31.050000 -20.984375 24.945264
30.750000 -21.921875 24.945264
30.825000 -23.734375 24.945264
30.900000 -12.875000 25.105381
30.600000 -14.125000 25.105381
30.625000 -16.062500 25.105381
31.025000 -17.203125 25.105381
31.600000 -18.250000 25.105381
31.575000 -19.187500 25.105381
31.125000 -20.687500 25.105381
30.825000 -22.046875 25.105381
30.825000 -23.218750 25.105381
30.975000 -12.765625 25.241174
30.600000 -14.437500 25.241174
31.825000 -19.578125 25.241174
31.225000 -20.625000 25.241174
30.800000 -21.921875 25.241174
30.875000 -22.890625 25.241174
31.250000 -24.265625 25.241174
30.800000 -13.875000 25.395594
31.400000 -20.343750 25.395594
30.900000 -21.953125 25.395594
30.875000 -23.031250 25.395594
31.175000 -23.906250 25.395594
30.900000 -13.890625 25.536732
30.750000 -14.640625 25.536732
31.675000 -19.562500 25.536732
31.075000 -21.062500 25.536732
30.900000 -22.203125 25.536732
31.075000 -23.937500 25.536732
31.175000 -24.515625 25.536732
30.950000 -13.703125 25.690289
30.750000 -15.125000 25.690289
31.825000 -19.890625 25.690289
31.175000 -21.203125 25.690289
30.900000 -22.375000 25.690289
31.075000 -23.468750 25.690289
31.000000 -25.296875 25.690289
31.225000 -13.203125 25.843463
30.925000 -14.750000 25.843463
31.050000 -15.906250 25.843463
32.075000 -19.656250 25.843463
31.375000 -20.937500 25.843463
30.975000 -22.375000 25.843463
30.975000 -14.281250 25.987898
31.050000 -15.296875 25.987898
31.600000 -19.343750 25.987898
31.625000 -20.468750 25.987898
31.100000 -21.875000 25.987898
31.025000 -23.281250 25.987898
31.175000 -13.906250 26.138581
32.550000 -18.250000 26.138581
31.950000 -19.625000 26.138581
31.325000 -21.312500 26.138581
31.050000 -22.296875 26.138581
31.400000 -13.046875 26.281554
31.100000 -14.859375 26.281554
31.350000 -15.656250 26.281554
32.025000 -17.984375 26.281554
32.150000 -19.296875 26.281554
31.550000 -20.765625 26.281554
31.125000 -22.156250 26.281554
31.150000 -23.406250 26.281554
31.225000 -13.656250 26.431467
32.550000 -18.593750 26.431467
31.950000 -20.296875 26.431467
31.350000 -21.156250 26.431467
31.075000 -22.578125 26.431467
31.350000 -13.781250 26.589986
32.550000 -18.609375 26.589986
32.075000 -19.828125 26.589986
31.525000 -20.890625 26.589986
31.150000 -22.484375 26.589986
31.250000 -23.359375 26.589986
31.300000 -24.890625 26.589986
31.500000 -13.640625 26.734937
31.325000 -14.468750 26.734937
31.675000 -15.734375 26.734937
32.300000 -17.890625 26.734937
32.250000 -19.328125 26.734937
31.700000 -21.046875 26.734937
31.300000 -22.296875 26.734937
31.175000 -23.046875 26.734937
31.550000 -13.218750 26.885639
31.425000 -14.406250 26.885639
31.850000 -15.515625 26.885639
32.400000 -18.171875 26.885639
32.250000 -19.546875 26.885639
31.700000 -20.671875 26.885639
31.250000 -22.281250 26.885639
31.150000 -23.718750 26.885639
31.525000 -13.312500 27.026705
32.150000 -19.984375 27.026705
31.625000 -21.031250 27.026705
31.225000 -22.281250 27.026705
31.150000 -23.640625 27.026705
31.700000 -13.343750 27.175071
31.525000 -14.453125 27.175071
31.825000 -15.921875 27.175071
32.375000 -17.765625 27.175071
32.300000 -19.125000 27.175071
31.725000 -20.406250 27.175071
31.275000 -21.875000 27.175071
31.075000 -23.046875 27.175071
31.525000 -13.750000 27.327105
31.700000 -15.125000 27.327105
32.375000 -17.812500 27.327105
32.425000 -18.937500 27.327105
31.775000 -20.109375 27.327105
31.250000 -21.593750 27.327105
31.025000 -23.234375 27.327105
31.575000 -14.000000 27.481633
32.625000 -18.500000 27.481633
31.875000 -19.796875 27.481633
31.350000 -20.968750 27.481633
31.100000 -22.218750 27.481633
31.625000 -13.234375 27.620206
32.800000 -18.531250 27.620206
32.025000 -19.218750 27.620206
31.375000 -20.609375 27.620206
31.050000 -22.265625 27.620206
31.875000 -12.703125 27.781251
31.550000 -14.421875 27.781251
31.850000 -15.234375 27.781251
32.450000 -17.562500 27.781251
31.400000 -20.921875 27.781251
30.975000 -21.937500 27.781251
31.600000 -13.875000 27.924479
31.475000 -19.906250 27.924479
30.925000 -21.093750 27.924479
30.850000 -22.484375 27.924479
31.125000 -24.171875 27.924479
31.650000 -13.578125 28.074509
30.800000 -20.843750 28.074509
30.725000 -22.406250 28.074509
30.900000 -23.421875 28.074509
30.750000 -24.812500 28.074509
31.750000 -13.140625 28.214605
31.625000 -14.328125 28.214605
32.150000 -17.906250 28.214605
30.675000 -20.671875 28.214605
30.550000 -22.359375 28.214605
30.700000 -23.421875 28.214605
31.575000 -14.203125 28.365081
31.775000 -14.906250 28.365081
30.325000 -21.781250 28.365081
30.475000 -22.906250 28.365081
31.650000 -13.687500 28.510504
31.525000 -18.453125 28.510504
30.150000 -21.187500 28.510504
30.325000 -22.250000 28.510504
30.675000 -23.687500 28.510504
31.875000 -12.687500 28.665660
31.550000 -14.468750 28.665660
31.850000 -15.125000 28.665660
32.000000 -16.796875 28.665660
31.875000 -17.453125 28.665660
29.900000 -20.765625 28.665660
30.075000 -21.765625 28.665660
30.425000 -22.687500 28.665660
30.975000 -24.093750 28.665660
32.000000 -12.703125 28.809277
31.575000 -14.296875 28.809277
31.775000 -15.343750 28.809277
31.650000 -16.187500 28.809277
31.375000 -17.906250 28.809277
29.825000 -20.140625 28.809277
30.000000 -21.546875 28.809277
30.325000 -22.843750 28.809277
32.000000 -12.781250 28.961954
31.575000 -14.000000 28.961954
31.750000 -14.875000 28.961954
31.675000 -16.687500 28.961954
31.400000 -17.593750 28.961954
29.800000 -20.234375 28.961954
29.975000 -21.218750 28.961954
31.650000 -13.359375 29.110231
31.700000 -14.750000 29.110231
29.800000 -19.968750 29.110231
29.950000 -21.078125 29.110231
30.250000 -22.937500 29.110231
30.725000 -24.078125 29.110231
31.025000 -24.859375 29.110231
31.700000 -13.375000 29.258221
31.625000 -14.843750 29.258221
31.525000 -18.812500 29.258221
30.025000 -20.859375 29.258221
30.250000 -22.140625 29.258221
31.875000 -12.531250 29.398405
31.550000 -14.453125 29.398405
31.825000 -15.140625 29.398405
31.625000 -19.000000 29.398405
30.225000 -21.656250 29.398405
32.050000 -12.546875 29.552558
31.575000 -13.828125 29.552558
31.675000 -14.828125 29.552558
32.150000 -18.203125 29.552558
30.475000 -21.031250 29.552558
30.500000 -22.765625 29.552558
31.675000 -13.484375 29.696396
31.625000 -14.953125 29.696396
31.950000 -15.468750 29.696396
32.475000 -18.125000 29.696396
31.025000 -20.562500 29.696396
30.675000 -22.500000 29.696396
31.725000 -13.328125 29.854378
31.575000 -13.859375 29.854378
31.825000 -15.171875 29.854378
32.050000 -19.031250 29.854378
30.925000 -22.031250 29.854378
31.900000 -12.984375 30.006562
31.550000 -13.703125 30.006562
31.650000 -15.468750 30.006562
31.900000 -19.968750 30.006562
31.200000 -21.578125 30.006562
30.950000 -22.875000 30.006562
31.150000 -23.734375 30.006562
32.125000 -12.546875 30.148766
31.525000 -13.656250 30.148766
31.550000 -14.296875 30.148766
31.900000 -15.906250 30.148766
32.425000 -17.234375 30.148766
32.675000 -18.234375 30.148766
32.250000 -19.656250 30.148766
31.600000 -20.671875 30.148766
31.125000 -22.531250 30.148766
31.025000 -23.609375 30.148766
30.825000 -24.625000 30.148766
31.900000 -12.828125 30.299910
31.500000 -13.546875 30.299910
31.525000 -15.421875 30.299910
32.050000 -19.937500 30.299910
31.425000 -21.171875 30.299910
31.025000 -22.265625 30.299910
31.150000 -23.562500 30.299910
32.125000 -11.921875 30.444991
31.525000 -13.656250 30.444991
31.450000 -14.843750 30.444991
31.750000 -16.109375 30.444991
32.325000 -16.828125 30.444991
32.650000 -17.906250 30.444991
32.250000 -19.343750 30.444991
31.675000 -21.171875 30.444991
31.200000 -22.515625 30.444991
31.100000 -23.062500 30.444991
31.700000 -12.687500 30.599510
31.375000 -13.906250 30.599510
31.475000 -15.468750 30.599510
32.000000 -20.343750 30.599510
31.475000 -21.343750 30.599510
31.175000 -22.937500 30.599510
31.375000 -23.828125 30.599510
31.925000 -12.203125 30.741233
31.375000 -13.968750 30.741233
31.375000 -14.859375 30.741233
32.200000 -19.718750 30.741233
31.650000 -21.500000 30.741233
31.225000 -22.468750 30.741233
31.250000 -23.593750 30.741233
31.725000 -24.406250 30.741233
31.350000 -13.671875 30.894982
31.275000 -14.781250 30.894982
31.550000 -16.203125 30.894982
31.875000 -19.671875 30.894982
31.700000 -21.234375 30.894982
31.300000 -22.328125 30.894982
31.300000 -23.343750 30.894982
31.025000 -25.171875 30.894982
31.400000 -13.156250 31.036865
31.250000 -14.640625 31.036865
31.475000 -15.640625 31.036865
31.825000 -19.218750 31.036865
31.700000 -20.796875 31.036865
31.300000 -21.828125 31.036865
31.275000 -23.046875 31.036865
31.325000 -13.453125 31.190635
31.225000 -14.375000 31.190635
31.450000 -15.937500 31.190635
31.800000 -19.562500 31.190635
31.675000 -20.484375 31.190635
31.275000 -22.390625 31.190635
31.275000 -23.234375 31.190635
31.025000 -24.625000 31.190635
31.375000 -13.218750 31.332965
31.125000 -14.484375 31.332965
31.250000 -15.453125 31.332965
31.750000 -19.359375 31.332965
31.775000 -20.578125 31.332965
31.300000 -21.718750 31.332965
31.275000 -22.625000 31.332965
31.500000 -12.703125 31.488007
31.075000 -13.734375 31.488007
31.125000 -14.765625 31.488007
31.875000 -19.953125 31.488007
31.325000 -21.640625 31.488007
31.150000 -22.890625 31.488007
31.150000 -13.859375 31.631059
31.000000 -14.640625 31.631059
31.200000 -16.218750 31.631059
31.525000 -19.265625 31.631059
31.450000 -21.046875 31.631059
31.175000 -22.109375 31.631059
31.275000 -23.718750 31.631059
31.000000 -25.062500 31.631059
31.250000 -13.531250 31.775501
30.925000 -14.656250 31.775501
31.050000 -15.453125 31.775501
31.550000 -18.812500 31.775501
31.550000 -20.218750 31.775501
31.175000 -21.484375 31.775501
31.475000 -12.718750 31.929671
30.950000 -13.734375 31.929671
30.900000 -15.218750 31.929671
31.200000 -16.187500 31.929671
31.575000 -17.625000 31.929671
31.950000 -18.890625 31.929671
31.775000 -20.015625 31.929671
31.225000 -21.140625 31.929671
31.075000 -22.640625 31.929671
31.075000 -13.562500 32.082560
30.875000 -14.625000 32.082560
31.000000 -16.031250 32.082560
31.350000 -19.859375 32.082560
31.300000 -20.593750 32.082560
31.100000 -21.781250 32.082560
31.250000 -23.203125 32.082560
31.275000 -12.437500 32.222791
30.875000 -13.921875 32.222791
30.875000 -15.234375 32.222791
31.100000 -16.781250 32.222791
31.225000 -20.218750 32.222791
31.075000 -21.171875 32.222791
31.050000 -22.312500 32.222791
31.000000 -13.328125 32.378096
30.750000 -14.687500 32.378096
30.850000 -15.984375 32.378096
31.150000 -17.140625 32.378096
31.550000 -17.843750 32.378096
31.625000 -19.562500 32.378096
31.300000 -20.609375 32.378096
31.000000 -22.453125 32.378096
31.050000 -23.046875 32.378096
30.850000 -14.140625 32.522069
30.675000 -15.468750 32.522069
30.850000 -16.390625 32.522069
31.150000 -19.671875 32.522069
31.100000 -21.265625 32.522069
30.900000 -22.468750 32.522069
30.975000 -13.046875 32.682426
30.675000 -15.015625 32.682426
30.700000 -16.031250 32.682426
31.025000 -16.828125 32.682426
31.350000 -18.359375 32.682426
31.525000 -19.781250 32.682426
31.250000 -20.843750 32.682426
30.900000 -22.203125 32.682426
31.125000 -12.890625 32.824425
30.750000 -14.203125 32.824425
30.625000 -15.312500 32.824425
30.800000 -16.531250 32.824425
31.050000 -17.625000 32.824425
31.425000 -18.687500 32.824425
31.425000 -19.921875 32.824425
30.900000 -21.484375 32.824425
30.800000 -23.093750 32.824425
31.075000 -23.859375 32.824425
30.825000 -13.593750 32.967453
30.625000 -14.703125 32.967453
30.725000 -15.640625 32.967453
31.075000 -19.281250 32.967453
31.100000 -20.906250 32.967453
30.900000 -22.250000 32.967453
31.000000 -23.750000 32.967453
31.275000 -24.515625 32.967453
30.900000 -12.953125 33.118096
30.575000 -14.343750 33.118096
30.600000 -15.859375 33.118096
31.125000 -18.921875 33.118096
31.250000 -20.796875 33.118096
30.900000 -22.187500 33.118096
30.650000 -13.906250 33.266097
30.350000 -15.031250 33.266097
30.600000 -15.890625 33.266097
30.900000 -17.156250 33.266097
31.300000 -18.437500 33.266097
31.350000 -20.203125 33.266097
31.025000 -20.890625 33.266097
30.900000 -22.531250 33.266097
31.075000 -23.375000 33.266097
31.525000 -24.515625 33.266097
30.875000 -13.437500 33.422098
30.625000 -14.656250 33.422098
30.550000 -15.656250 33.422098
30.900000 -19.375000 33.422098
31.125000 -21.000000 33.422098
30.900000 -21.765625 33.422098
30.900000 -12.750000 33.558094
30.525000 -14.015625 33.558094
30.300000 -15.406250 33.558094
31.175000 -19.843750 33.558094
30.975000 -21.578125 33.558094
30.875000 -22.750000 33.558094
31.175000 -24.125000 33.558094
30.750000 -13.640625 33.719124
30.350000 -14.500000 33.719124
30.300000 -15.625000 33.719124
30.775000 -19.687500 33.719124
31.025000 -20.968750 33.719124
30.900000 -21.906250 33.719124
31.000000 -12.312500 33.864383
30.725000 -13.640625 33.864383
30.200000 -15.109375 33.864383
31.200000 -20.328125 33.864383
31.000000 -21.328125 33.864383
30.900000 -22.890625 33.864383
31.150000 -23.718750 33.864383
30.650000 -12.968750 34.014519
30.425000 -14.125000 34.014519
30.250000 -16.125000 34.014519
31.050000 -20.640625 34.014519
30.900000 -21.906250 34.014519
31.025000 -19.453125 34.158349
31.050000 -20.687500 34.158349
30.900000 -21.937500 34.158349
30.675000 -13.890625 34.310745
30.900000 -18.796875 34.310745
31.175000 -19.625000 34.310745
30.975000 -21.203125 34.310745
30.900000 -22.171875 34.310745
31.075000 -23.640625 34.310745
30.975000 -24.781250 34.310745
30.850000 -12.328125 34.452950
30.775000 -14.296875 34.452950
31.150000 -19.796875 34.452950
30.950000 -21.015625 34.452950
30.925000 -22.703125 34.452950
31.200000 -23.421875 34.452950
30.950000 -20.937500 34.611586
30.900000 -21.828125 34.611586
31.050000 -22.953125 34.611586
30.750000 -13.406250 34.752954
30.775000 -14.390625 34.752954
30.550000 -15.796875 34.752954
30.675000 -18.859375 34.752954
31.050000 -20.031250 34.752954
30.900000 -21.625000 34.752954
30.975000 -23.062500 34.752954
30.975000 -21.156250 34.906890
30.900000 -22.234375 34.906890
31.050000 -23.203125 34.906890
30.875000 -24.562500 34.906890
30.800000 -13.625000 35.052892
30.600000 -14.578125 35.052892
30.325000 -16.015625 35.052892
31.000000 -20.921875 35.052892
30.825000 -22.187500 35.052892
30.950000 -22.843750 35.052892
30.525000 -13.953125 35.195890
30.050000 -15.250000 35.195890
30.225000 -16.484375 35.195890
30.750000 -17.109375 35.195890
31.150000 -18.781250 35.195890
31.200000 -19.765625 35.195890
30.975000 -20.890625 35.195890
30.875000 -22.828125 35.195890
31.050000 -23.531250 35.195890
31.525000 -25.109375 35.195890
30.900000 -12.796875 35.354891
30.525000 -14.093750 35.354891
30.325000 -15.218750 35.354891
30.550000 -16.375000 35.354891
31.200000 -18.265625 35.354891
31.400000 -19.531250 35.354891
31.075000 -20.296875 35.354891
30.825000 -22.000000 35.354891
30.900000 -22.859375 35.354891
30.700000 -13.312500 35.492984
30.425000 -14.671875 35.492984
30.500000 -16.078125 35.492984
30.875000 -17.593750 35.492984
31.325000 -18.140625 35.492984
31.300000 -19.828125 35.492984
30.950000 -21.000000 35.492984
30.875000 -22.156250 35.492984
30.975000 -23.390625 35.492984
30.575000 -14.343750 35.651016
30.500000 -15.609375 35.651016
30.700000 -17.046875 35.651016
31.025000 -17.593750 35.651016
31.325000 -18.906250 35.651016
31.200000 -19.921875 35.651016
30.900000 -21.703125 35.651016
30.900000 -23.218750 35.651016
31.175000 -24.234375 35.651016
30.800000 -13.515625 35.797577
30.500000 -14.687500 35.797577
30.600000 -16.046875 35.797577
31.000000 -16.906250 35.797577
31.475000 -18.156250 35.797577
31.450000 -19.437500 35.797577
31.075000 -21.078125 35.797577
30.825000 -22.421875 35.797577
30.575000 -14.156250 35.938581
30.500000 -15.156250 35.938581
30.775000 -16.781250 35.938581
31.275000 -17.343750 35.938581
31.675000 -18.625000 35.938581
31.375000 -20.171875 35.938581
30.825000 -21.515625 35.938581
30.725000 -22.921875 35.938581
31.050000 -23.640625 35.938581
30.975000 -13.593750 36.094603
30.600000 -14.765625 36.094603
31.725000 -19.218750 36.094603
31.200000 -20.718750 36.094603
30.825000 -22.046875 36.094603
30.875000 -13.718750 36.239616
30.675000 -14.609375 36.239616
31.625000 -20.109375 36.239616
31.075000 -20.875000 36.239616
30.800000 -22.750000 36.239616
30.925000 -23.484375 36.239616
30.875000 -13.750000 36.393780
30.675000 -15.390625 36.393780
31.650000 -19.468750 36.393780
31.075000 -21.296875 36.393780
30.875000 -22.093750 36.393780
31.050000 -23.218750 36.393780
31.025000 -24.640625 36.393780
30.875000 -13.750000 36.541656
31.600000 -20.046875 36.541656
31.050000 -21.734375 36.541656
30.925000 -22.781250 36.541656
31.250000 -13.500000 36.690021
30.900000 -14.500000 36.690021
31.000000 -15.734375 36.690021
32.125000 -19.000000 36.690021
31.450000 -20.687500 36.690021
31.000000 -22.281250 36.690021
31.100000 -13.312500 36.845689
31.900000 -19.687500 36.845689
31.275000 -21.609375 36.845689
31.000000 -22.015625 36.845689
31.125000 -23.843750 36.845689
31.425000 -24.640625 36.845689
31.300000 -13.687500 36.986969
31.025000 -14.281250 36.986969
31.225000 -15.937500 36.986969
32.150000 -19.750000 36.986969
31.450000 -20.968750 36.986969
31.000000 -21.921875 36.986969
31.025000 -23.468750 36.986969
31.075000 -14.406250 37.128197
31.175000 -15.625000 37.128197
32.350000 -19.421875 37.128197
31.650000 -20.156250 37.128197
31.150000 -21.812500 37.128197
31.025000 -22.750000 37.128197
31.200000 -13.890625 37.284235
31.225000 -15.171875 37.284235
31.775000 -19.093750 37.284235
31.925000 -20.015625 37.284235
31.350000 -21.406250 37.284235
31.100000 -22.734375 37.284235
31.325000 -13.687500 37.429255
32.550000 -18.296875 37.429255
32.000000 -20.140625 37.429255
31.450000 -21.343750 37.429255
31.100000 -22.531250 37.429255
31.200000 -23.828125 37.429255
31.775000 -24.953125 37.429255
31.475000 -13.203125 37.577311
31.300000 -14.750000 37.577311
31.675000 -15.828125 37.577311
32.275000 -18.328125 37.577311
32.225000 -19.546875 37.577311
31.675000 -20.546875 37.577311
31.200000 -22.390625 37.577311
31.175000 -23.296875 37.577311
31.400000 -14.593750 37.732731
31.575000 -15.578125 37.732731
32.225000 -17.437500 37.732731
32.350000 -19.125000 37.732731
31.800000 -20.109375 37.732731
31.400000 -21.890625 37.732731
31.125000 -22.625000 37.732731
31.425000 -13.843750 37.872271
31.550000 -15.171875 37.872271
32.525000 -18.968750 37.872271
31.925000 -19.921875 37.872271
31.425000 -21.625000 37.872271
31.100000 -22.953125 37.872271
31.550000 -13.187500 38.029527
32.600000 -18.125000 38.029527
32.125000 -19.765625 38.029527
31.600000 -20.656250 38.029527
31.200000 -22.421875 38.029527
31.125000 -23.406250 38.029527
30.975000 -24.937500 38.029527
31.725000 -13.437500 38.171854
31.500000 -14.546875 38.171854
31.850000 -15.343750 38.171854
32.350000 -18.078125 38.171854
32.225000 -19.218750 38.171854
31.700000 -20.625000 38.171854
31.175000 -22.062500 38.171854
31.500000 -14.109375 38.326740
31.625000 -15.156250 38.326740
32.575000 -18.890625 38.326740
31.900000 -19.828125 38.326740
31.350000 -21.234375 38.326740
31.025000 -22.750000 38.326740
31.150000 -23.828125 38.326740
31.675000 -13.593750 38.481794
32.075000 -19.578125 38.481794
31.400000 -20.593750 38.481794
31.075000 -22.484375 38.481794
31.500000 -14.093750 38.621433
31.775000 -15.515625 38.621433
32.450000 -17.296875 38.621433
32.400000 -18.640625 38.621433
31.575000 -20.140625 38.621433
31.075000 -22.000000 38.621433
30.925000 -22.937500 38.621433
31.175000 -23.921875 38.621433
31.625000 -14.000000 38.776521
32.675000 -18.281250 38.776521
31.000000 -21.140625 38.776521
30.875000 -22.828125 38.776521
31.675000 -13.015625 38.921230
31.600000 -14.875000 38.921230
32.100000 -18.359375 38.921230
30.975000 -20.812500 38.921230
30.775000 -22.125000 38.921230
31.975000 -13.062500 39.069687
31.600000 -14.187500 39.069687
31.075000 -20.546875 39.069687
30.650000 -21.984375 39.069687
30.725000 -22.828125 39.069687
31.100000 -24.218750 39.069687
31.700000 -13.250000 39.211442
31.675000 -15.000000 39.211442
32.125000 -18.390625 39.211442
30.500000 -21.421875 39.211442
30.500000 -22.656250 39.211442
31.575000 -13.984375 39.364554
31.750000 -14.765625 39.364554
30.275000 -21.578125 39.364554
30.425000 -22.937500 39.364554
31.775000 -13.531250 39.511684
31.675000 -14.328125 39.511684
32.025000 -15.437500 39.511684
32.675000 -16.421875 39.511684
32.850000 -17.859375 39.511684
30.050000 -20.859375 39.511684
30.225000 -21.812500 39.511684
31.600000 -13.906250 39.668594
31.775000 -14.828125 39.668594
29.850000 -20.125000 39.668594
29.975000 -21.125000 39.668594
30.250000 -22.421875 39.668594
30.700000 -23.984375 39.668594
31.050000 -25.078125 39.668594
31.825000 -12.828125 39.819972
31.675000 -14.437500 39.819972
32.000000 -15.531250 39.819972
32.500000 -16.453125 39.819972
29.750000 -19.437500 39.819972
29.900000 -20.593750 39.819972
30.150000 -21.796875 39.819972
31.600000 -14.046875 39.962184
31.750000 -15.171875 39.962184
29.800000 -20.078125 39.962184
29.950000 -21.734375 39.962184
30.250000 -22.937500 39.962184
30.700000 -23.640625 39.962184
31.250000 -24.562500 39.962184
31.825000 -12.750000 40.113191
31.650000 -14.515625 40.113191
31.975000 -15.296875 40.113191
32.150000 -16.796875 40.113191
31.675000 -18.515625 40.113191
29.875000 -20.734375 40.113191
30.150000 -21.609375 40.113191
31.625000 -13.671875 40.257498
31.675000 -15.062500 40.257498
31.800000 -18.578125 40.257498
30.050000 -20.937500 40.257498
30.275000 -22.609375 40.257498
31.975000 -12.656250 40.412858
31.575000 -14.062500 40.412858
31.775000 -14.859375 40.412858
30.300000 -21.578125 40.412858
31.675000 -13.375000 40.554196
31.600000 -14.390625 40.554196
31.950000 -15.890625 40.554196
32.375000 -18.218750 40.554196
30.500000 -21.828125 40.554196
31.850000 -12.687500 40.707995
31.575000 -14.484375 40.707995
31.725000 -15.234375 40.707995
32.075000 -18.640625 40.707995
30.850000 -21.843750 40.707995
30.775000 -22.671875 40.707995
31.100000 -23.890625 40.707995
31.600000 -13.375000 40.855762
31.600000 -15.031250 40.855762
32.125000 -18.062500 40.855762
32.100000 -19.718750 40.855762
31.275000 -21.468750 40.855762
30.900000 -22.000000 40.855762
31.025000 -23.453125 40.855762
31.100000 -24.484375 40.855762
31.775000 -13.296875 40.991663
31.550000 -14.078125 40.991663
31.675000 -15.546875 40.991663
32.000000 -18.906250 40.991663
31.800000 -20.078125 40.991663
31.200000 -21.703125 40.991663
31.000000 -22.562500 40.991663
31.275000 -24.203125 40.991663
31.575000 -13.671875 41.148503
31.575000 -14.843750 41.148503
31.900000 -15.968750 41.148503
32.350000 -16.593750 41.148503
32.525000 -18.156250 41.148503
32.250000 -19.218750 41.148503
31.675000 -20.484375 41.148503
31.200000 -22.453125 41.148503
31.925000 -12.390625 41.298092
31.450000 -13.781250 41.298092
31.500000 -14.953125 41.298092
32.125000 -20.156250 41.298092
31.525000 -21.203125 41.298092
31.125000 -22.765625 41.298092
31.600000 -12.968750 41.443710
31.425000 -14.000000 41.443710
31.600000 -15.234375 41.443710
31.975000 -18.828125 41.443710
31.925000 -20.453125 41.443710
31.400000 -21.875000 41.443710
32.000000 -12.312500 41.599465
31.400000 -13.546875 41.599465
31.375000 -14.390625 41.599465
32.250000 -19.390625 41.599465
31.700000 -21.031250 41.599465
31.250000 -22.046875 41.599465
31.225000 -23.343750 41.599465
31.200000 -24.546875 41.599465
31.525000 -13.406250 41.742056
31.325000 -13.953125 41.742056
31.475000 -15.484375 41.742056
31.900000 -19.406250 41.742056
31.900000 -20.562500 41.742056
31.400000 -21.890625 41.742056
31.850000 -12.250000 41.884335
31.325000 -13.984375 41.884335
31.300000 -14.890625 41.884335
32.125000 -20.140625 41.884335
31.600000 -20.890625 41.884335
31.250000 -22.328125 41.884335
31.225000 -23.328125 41.884335
31.575000 -25.000000 41.884335
31.500000 -12.765625 42.036258
31.225000 -14.156250 42.036258
31.325000 -15.781250 42.036258
31.825000 -19.375000 42.036258
31.875000 -20.609375 42.036258
31.375000 -21.625000 42.036258
31.200000 -23.281250 42.036258
31.375000 -13.156250 42.188885
31.225000 -14.703125 42.188885
31.375000 -16.000000 42.188885
31.725000 -19.734375 42.188885
31.650000 -20.671875 42.188885
31.250000 -22.359375 42.188885
31.300000 -23.031250 42.188885
31.525000 -12.687500 42.332772
31.075000 -14.328125 42.332772
31.150000 -14.765625 42.332772
31.725000 -18.937500 42.332772
31.875000 -20.218750 42.332772
31.375000 -21.109375 42.332772
31.225000 -22.531250 42.332772
31.275000 -13.640625 42.487695
31.075000 -14.296875 42.487695
31.175000 -15.515625 42.487695
31.625000 -18.968750 42.487695
31.625000 -20.625000 42.487695
31.250000 -22.187500 42.487695
31.525000 -12.281250 42.639561
31.025000 -13.750000 42.639561
30.975000 -15.156250 42.639561
31.275000 -16.281250 42.639561
31.825000 -17.437500 42.639561
32.150000 -18.500000 42.639561
31.850000 -20.281250 42.639561
31.300000 -21.437500 42.639561
31.150000 -22.421875 42.639561
31.100000 -13.437500 42.783443
30.950000 -14.390625 42.783443
31.125000 -15.937500 42.783443
31.450000 -19.531250 42.783443
31.400000 -20.500000 42.783443
31.150000 -22.343750 42.783443
31.275000 -23.062500 42.783443
31.225000 -13.093750 42.937340
30.875000 -13.968750 42.937340
30.950000 -15.484375 42.937340
31.275000 -16.375000 42.937340
31.800000 -17.906250 42.937340
31.975000 -19.343750 42.937340
31.525000 -20.328125 42.937340
31.100000 -21.531250 42.937340
31.125000 -22.609375 42.937340
31.325000 -12.921875 43.077646
30.875000 -13.875000 43.077646
30.850000 -15.125000 43.077646
31.100000 -16.312500 43.077646
31.300000 -19.937500 43.077646
31.125000 -21.171875 43.077646
31.050000 -22.656250 43.077646
30.975000 -13.531250 43.234803
30.800000 -14.562500 43.234803
30.900000 -16.125000 43.234803
31.150000 -16.906250 43.234803
31.600000 -18.453125 43.234803
31.675000 -19.359375 43.234803
31.225000 -20.843750 43.234803
30.975000 -22.093750 43.234803
31.125000 -23.156250 43.234803
31.200000 -12.578125 43.388098
30.800000 -13.859375 43.388098
30.775000 -15.140625 43.388098
31.025000 -16.218750 43.388098
31.175000 -20.703125 43.388098
31.025000 -21.921875 43.388098
30.975000 -22.531250 43.388098
30.950000 -13.796875 43.529039
30.700000 -15.000000 43.529039
30.800000 -15.781250 43.529039
31.075000 -17.625000 43.529039
31.425000 -18.656250 43.529039
31.525000 -19.796875 43.529039
31.175000 -20.921875 43.529039
30.900000 -22.062500 43.529039
31.125000 -13.312500 43.677837
30.725000 -13.843750 43.677837
30.625000 -15.750000 43.677837
30.850000 -16.312500 43.677837
31.075000 -20.484375 43.677837
30.925000 -21.812500 43.677837
30.850000 -22.734375 43.677837
31.100000 -24.046875 43.677837
30.975000 -13.421875 43.827136
30.650000 -14.281250 43.827136
30.675000 -15.328125 43.827136
30.925000 -16.625000 43.827136
31.300000 -17.765625 43.827136
31.575000 -19.687500 43.827136
31.300000 -20.375000 43.827136
30.875000 -21.937500 43.827136
30.775000 -13.609375 43.968871
30.575000 -14.656250 43.968871
30.675000 -16.312500 43.968871
31.000000 -19.984375 43.968871
31.050000 -21.156250 43.968871
30.875000 -22.484375 43.968871
31.025000 -23.437500 43.968871
31.100000 -24.625000 43.968871
31.075000 -12.500000 44.121947
30.700000 -13.750000 44.121947
30.475000 -15.468750 44.121947
30.650000 -16.265625 44.121947
31.000000 -17.562500 44.121947
31.325000 -18.562500 44.121947
31.275000 -20.109375 44.121947
30.925000 -21.484375 44.121947
30.850000 -22.656250 44.121947
30.850000 -12.656250 44.265939
30.625000 -13.968750 44.265939
30.500000 -15.531250 44.265939
30.875000 -19.062500 44.265939
31.150000 -20.515625 44.265939
30.900000 -22.187500 44.265939
30.900000 -22.625000 44.265939
31.375000 -23.906250 44.265939
30.700000 -13.531250 44.426904
30.300000 -14.875000 44.426904
30.375000 -15.750000 44.426904
30.875000 -19.937500 44.426904
31.025000 -20.734375 44.426904
30.875000 -22.187500 44.426904
31.025000 -23.453125 44.426904
30.925000 -24.421875 44.426904
30.825000 -12.609375 44.575114
30.600000 -14.218750 44.575114
30.350000 -15.765625 44.575114
31.100000 -20.750000 44.575114
30.950000 -21.453125 44.575114
30.975000 -22.515625 44.575114
31.275000 -23.640625 44.575114
30.650000 -13.812500 44.715702
30.075000 -15.359375 44.715702
31.250000 -19.484375 44.715702
31.025000 -20.765625 44.715702
30.875000 -22.750000 44.715702
31.050000 -23.187500 44.715702
31.450000 -24.546875 44.715702
30.675000 -13.031250 44.863773
30.250000 -14.484375 44.863773
30.100000 -15.703125 44.863773
31.050000 -20.718750 44.863773
30.950000 -21.796875 44.863773
30.775000 -14.187500 45.013095
31.000000 -19.000000 45.013095
31.150000 -20.281250 45.013095
30.950000 -21.265625 45.013095
30.925000 -22.437500 45.013095
31.050000 -20.500000 45.155419
30.950000 -22.093750 45.155419
31.050000 -22.875000 45.155419
30.825000 -14.093750 45.322835
31.000000 -18.390625 45.322835
31.200000 -20.250000 45.322835
31.000000 -21.015625 45.322835
30.900000 -22.437500 45.322835
31.125000 -23.421875 45.322835
31.300000 -24.859375 45.322835
30.750000 -13.171875 45.464201
30.150000 -14.062500 45.464201
29.925000 -15.656250 45.464201
31.075000 -20.671875 45.464201
30.875000 -21.812500 45.464201
30.900000 -22.953125 45.464201
31.275000 -24.171875 45.464201
31.000000 -19.187500 45.610841
31.025000 -20.890625 45.610841
30.925000 -21.796875 45.610841
30.975000 -18.734375 45.762115
31.175000 -19.765625 45.762115
30.975000 -21.140625 45.762115
30.875000 -21.906250 45.762115
31.050000 -23.640625 45.762115
31.025000 -24.640625 45.762115
30.325000 -14.203125 45.902200
31.125000 -20.015625 45.902200
30.925000 -21.140625 45.902200
30.900000 -22.609375 45.902200
31.250000 -23.515625 45.902200
30.875000 -13.000000 46.053627
30.575000 -14.250000 46.053627
30.325000 -15.343750 46.053627
31.025000 -20.750000 46.053627
30.875000 -21.765625 46.053627
30.525000 -13.796875 46.199893
30.575000 -17.750000 46.199893
31.175000 -18.343750 46.199893
31.150000 -20.328125 46.199893
30.925000 -21.234375 46.199893
30.900000 -22.468750 46.199893
30.825000 -13.343750 46.359224
30.525000 -14.453125 46.359224
30.500000 -15.562500 46.359224
30.725000 -16.921875 46.359224
31.225000 -18.015625 46.359224
31.375000 -19.031250 46.359224
31.075000 -20.843750 46.359224
30.850000 -21.656250 46.359224
30.575000 -14.109375 46.509626
30.400000 -15.296875 46.509626
30.625000 -16.656250 46.509626
31.050000 -17.640625 46.509626
31.325000 -18.921875 46.509626
31.225000 -20.328125 46.509626
30.900000 -21.171875 46.509626
30.875000 -22.359375 46.509626
31.175000 -23.781250 46.509626
30.700000 -13.796875 46.649648
30.525000 -14.890625 46.649648
30.650000 -16.015625 46.649648
31.000000 -17.593750 46.649648
31.450000 -18.218750 46.649648
31.325000 -20.015625 46.649648
30.925000 -21.218750 46.649648
30.850000 -22.281250 46.649648
31.025000 -23.937500 46.649648
31.175000 -24.609375 46.649648
30.950000 -13.078125 46.801229
30.575000 -14.484375 46.801229
30.550000 -16.078125 46.801229
30.900000 -16.593750 46.801229
31.325000 -18.046875 46.801229
31.475000 -18.968750 46.801229
31.150000 -20.953125 46.801229
30.825000 -22.328125 46.801229
30.850000 -22.859375 46.801229
30.700000 -13.890625 46.945621
30.525000 -15.375000 46.945621
30.675000 -16.625000 46.945621
31.175000 -17.187500 46.945621
31.675000 -18.593750 46.945621
31.525000 -19.625000 46.945621
30.975000 -21.406250 46.945621
30.750000 -22.687500 46.945621
30.900000 -23.328125 46.945621
31.000000 -25.093750 46.945621
30.950000 -13.546875 47.086777
30.575000 -14.687500 47.086777
31.800000 -19.140625 47.086777
31.225000 -20.593750 47.086777
30.825000 -21.750000 47.086777
30.825000 -14.187500 47.254099
30.700000 -14.875000 47.254099
31.525000 -19.843750 47.254099
31.025000 -21.765625 47.254099
30.875000 -22.406250 47.254099
31.150000 -13.156250 47.397070
30.800000 -14.281250 47.397070
31.975000 -19.656250 47.397070
31.300000 -20.609375 47.397070
30.900000 -22.156250 47.397070
30.925000 -14.140625 47.536358
30.850000 -14.781250 47.536358
31.650000 -20.000000 47.536358
31.025000 -21.250000 47.536358
30.875000 -22.203125 47.536358
31.125000 -23.453125 47.536358
31.600000 -24.593750 47.536358
30.950000 -14.671875 47.693668
30.975000 -15.390625 47.693668
31.525000 -19.375000 47.693668
31.575000 -20.343750 47.693668
31.075000 -21.921875 47.693668
30.975000 -23.218750 47.693668
31.350000 -23.734375 47.693668
31.225000 -13.515625 47.832956
30.975000 -14.531250 47.832956
31.175000 -15.828125 47.832956
32.125000 -19.671875 47.832956
31.425000 -20.578125 47.832956
31.050000 -21.890625 47.832956
31.150000 -13.437500 47.988910
32.550000 -18.781250 47.988910
31.925000 -19.765625 47.988910
31.300000 -21.031250 47.988910
31.025000 -22.484375 47.988910
31.450000 -12.796875 48.131098
31.075000 -14.609375 48.131098
31.275000 -15.390625 48.131098
32.300000 -19.250000 48.131098
31.600000 -20.968750 48.131098
31.125000 -21.593750 48.131098
31.250000 -13.921875 48.285729
32.525000 -18.625000 48.285729
32.025000 -19.890625 48.285729
31.475000 -20.859375 48.285729
31.125000 -22.421875 48.285729
31.250000 -23.531250 48.285729
31.450000 -24.468750 48.285729
31.275000 -13.984375 48.429124
31.450000 -15.562500 48.429124
32.375000 -18.906250 48.429124
31.800000 -20.156250 48.429124
31.250000 -21.531250 48.429124
31.100000 -23.140625 48.429124
31.325000 -13.625000 48.583277
31.400000 -15.125000 48.583277
31.900000 -18.406250 48.583277
31.975000 -19.937500 48.583277
31.425000 -21.734375 48.583277
31.075000 -22.796875 48.583277
31.500000 -13.593750 48.723319
32.200000 -19.515625 48.723319
31.675000 -20.718750 48.723319
31.225000 -22.593750 48.723319
31.150000 -23.671875 48.723319
31.450000 -13.671875 48.879518
31.600000 -15.093750 48.879518
32.500000 -19.000000 48.879518
31.875000 -20.140625 48.879518
31.400000 -21.296875 48.879518
31.075000 -23.265625 48.879518
31.550000 -13.843750 49.021872
32.600000 -18.187500 49.021872
32.100000 -19.468750 49.021872
31.550000 -21.171875 49.021872
31.175000 -22.000000 49.021872
31.125000 -23.750000 49.021872
31.275000 -24.859375 49.021872
31.750000 -12.906250 49.175924
31.550000 -14.015625 49.175924
31.875000 -15.656250 49.175924
32.400000 -18.265625 49.175924
32.275000 -19.671875 49.175924
31.675000 -20.390625 49.175924
31.225000 -21.765625 49.175924
31.025000 -23.562500 49.175924
31.550000 -14.125000 49.328066
31.750000 -15.078125 49.328066
32.400000 -17.218750 49.328066
32.475000 -18.625000 49.328066
31.775000 -20.421875 49.328066
31.200000 -22.015625 49.328066
30.950000 -23.046875 49.328066
31.600000 -13.484375 49.468015
32.700000 -18.531250 49.468015
31.875000 -19.843750 49.468015
31.325000 -20.937500 49.468015
31.050000 -22.484375 49.468015
31.825000 -12.875000 49.622835
31.550000 -14.093750 49.622835
31.875000 -15.109375 49.622835
32.400000 -18.171875 49.622835
32.150000 -18.890625 49.622835
31.375000 -20.921875 49.622835
31.000000 -21.484375 49.622835
30.950000 -22.953125 49.622835
31.275000 -24.593750 49.622835
31.675000 -13.281250 49.766281
32.900000 -18.406250 49.766281
31.050000 -20.734375 49.766281
30.875000 -22.515625 49.766281
30.950000 -23.093750 49.766281
31.600000 -13.406250 49.920798
32.700000 -18.875000 49.920798
30.800000 -21.515625 49.920798
30.725000 -22.531250 49.920798
30.950000 -23.671875 49.920798
31.350000 -24.984375 49.920798
31.850000 -12.875000 50.074200
31.600000 -13.875000 50.074200
31.900000 -15.437500 50.074200
32.500000 -16.484375 50.074200
32.800000 -17.828125 50.074200
30.850000 -20.718750 50.074200
30.575000 -22.093750 50.074200
30.675000 -22.656250 50.074200
31.650000 -13.171875 50.217025
30.400000 -21.171875 50.217025
30.475000 -22.156250 50.217025
31.850000 -12.640625 50.366143
31.575000 -14.015625 50.366143
31.875000 -15.171875 50.366143
32.350000 -16.671875 50.366143
32.625000 -18.093750 50.366143
30.175000 -21.140625 50.366143
30.250000 -21.750000 50.366143
32.000000 -12.671875 50.513441
31.550000 -14.343750 50.513441
31.750000 -15.390625 50.513441
29.950000 -20.750000 50.513441
30.125000 -21.343750 50.513441
31.725000 -13.296875 50.668777
29.800000 -19.765625 50.668777
29.925000 -21.484375 50.668777
30.200000 -22.031250 50.668777
31.850000 -13.015625 50.807405
31.600000 -13.968750 50.807405
31.875000 -15.484375 50.807405
31.925000 -16.453125 50.807405
29.800000 -19.171875 50.807405
29.850000 -20.953125 50.807405
30.050000 -22.140625 50.807405
32.075000 -12.109375 50.952891
31.600000 -13.703125 50.952891
31.700000 -14.718750 50.952891
29.800000 -20.156250 50.952891
29.950000 -21.750000 50.952891
30.250000 -22.359375 50.952891
30.700000 -24.156250 50.952891
31.025000 -24.812500 50.952891
31.775000 -13.359375 51.112144
31.650000 -14.421875 51.112144
31.950000 -15.546875 51.112144
32.400000 -16.609375 51.112144
29.900000 -21.281250 51.112144
30.125000 -22.468750 51.112144
32.025000 -12.437500 51.262821
31.575000 -13.484375 51.262821
31.700000 -14.968750 51.262821
31.650000 -16.421875 51.262821
34.050000 -18.109375 51.262821
30.125000 -21.265625 51.262821
30.325000 -22.765625 51.262821
31.750000 -13.125000 51.402673
31.575000 -13.984375 51.402673
31.875000 -15.546875 51.402673
32.550000 -18.046875 51.402673
30.875000 -20.359375 51.402673
30.400000 -22.046875 51.402673
31.650000 -13.328125 51.552018
31.625000 -14.921875 51.552018
32.000000 -16.015625 51.552018
32.400000 -18.578125 51.552018
30.675000 -22.203125 51.552018
31.975000 -12.375000 51.701058
31.550000 -13.875000 51.701058
31.675000 -15.046875 51.701058
31.000000 -21.156250 51.701058
30.850000 -22.468750 51.701058
31.100000 -24.187500 51.701058
31.750000 -12.812500 51.856992
31.575000 -13.796875 51.856992
31.750000 -15.468750 51.856992
32.025000 -18.765625 51.856992
31.700000 -20.343750 51.856992
31.100000 -22.031250 51.856992
32.175000 -12.093750 52.010473
31.550000 -13.859375 52.010473
31.550000 -14.390625 52.010473
32.125000 -18.265625 52.010473
32.200000 -19.921875 52.010473
31.550000 -20.828125 52.010473
31.100000 -22.078125 52.010473
31.000000 -23.312500 52.010473
30.975000 -24.671875 52.010473
31.750000 -12.843750 52.153923
31.500000 -13.812500 52.153923
31.625000 -15.718750 52.153923
31.850000 -20.703125 52.153923
31.250000 -21.875000 52.153923
30.950000 -23.109375 52.153923
31.325000 -24.375000 52.153923
31.875000 -12.718750 52.301341
31.450000 -13.625000 52.301341
31.500000 -15.359375 52.301341
32.075000 -19.796875 52.301341
31.525000 -21.406250 52.301341
31.125000 -22.781250 52.301341
31.875000 -12.390625 52.450837
31.400000 -13.765625 52.450837
31.425000 -14.718750 52.450837
32.000000 -18.796875 52.450837
32.175000 -20.109375 52.450837
31.625000 -21.281250 52.450837
31.250000 -22.312500 52.450837
31.500000 -13.140625 52.591533
31.350000 -14.375000 52.591533
31.550000 -15.562500 52.591533
31.925000 -19.000000 52.591533
31.875000 -20.500000 52.591533
31.425000 -21.625000 52.591533
31.875000 -12.140625 52.740493
31.375000 -13.421875 52.740493
31.400000 -14.687500 52.740493
32.000000 -18.500000 52.740493
32.150000 -20.171875 52.740493
31.600000 -20.812500 52.740493
31.225000 -22.281250 52.740493
31.325000 -23.234375 52.740493
31.925000 -24.515625 52.740493
31.450000 -13.250000 52.890834
31.250000 -14.562500 52.890834
31.400000 -15.234375 52.890834
31.850000 -19.218750 52.890834
31.825000 -20.687500 52.890834
31.375000 -21.921875 52.890834
31.850000 -12.687500 53.046369
31.300000 -13.656250 53.046369
31.225000 -15.015625 53.046369
31.500000 -15.703125 53.046369
32.000000 -17.093750 53.046369
32.400000 -18.390625 53.046369
32.175000 -19.328125 53.046369
31.600000 -20.828125 53.046369
31.250000 -22.390625 53.046369
31.325000 -23.171875 53.046369
31.350000 -24.531250 53.046369
31.450000 -12.609375 53.196734
31.150000 -13.968750 53.196734
31.250000 -15.500000 53.196734
31.750000 -18.890625 53.196734
31.800000 -20.687500 53.196734
31.325000 -21.593750 53.196734
31.250000 -22.796875 53.196734
31.600000 -12.562500 53.338732
31.150000 -13.562500 53.338732
31.175000 -15.078125 53.338732
32.025000 -20.140625 53.338732
31.425000 -21.109375 53.338732
31.175000 -22.125000 53.338732
31.350000 -12.656250 53.489671
31.075000 -14.343750 53.489671
31.125000 -15.375000 53.489671
31.600000 -19.031250 53.489671
31.675000 -20.125000 53.489671
31.225000 -21.546875 53.489671
31.225000 -23.203125 53.489671
31.075000 -13.515625 53.636789
30.950000 -14.984375 53.636789
31.175000 -15.640625 53.636789
31.475000 -20.031250 53.636789
31.400000 -20.625000 53.636789
31.175000 -22.062500 53.636789
31.325000 -23.656250 53.636789
31.250000 -24.781250 53.636789
31.400000 -12.859375 53.789492
30.950000 -13.843750 53.789492
30.925000 -14.921875 53.789492
31.225000 -16.515625 53.789492
31.675000 -17.312500 53.789492
32.050000 -18.890625 53.789492
31.750000 -19.875000 53.789492
31.200000 -21.484375 53.789492
31.125000 -22.281250 53.789492
31.075000 -13.718750 53.929901
30.875000 -14.890625 53.929901
31.000000 -16.156250 53.929901
31.375000 -19.546875 53.929901
31.350000 -20.781250 53.929901
31.050000 -22.281250 53.929901
31.150000 -23.109375 53.929901
31.225000 -13.203125 54.085477
30.850000 -14.250000 54.085477
30.850000 -15.531250 54.085477
31.100000 -16.437500 54.085477
31.300000 -19.859375 54.085477
31.125000 -21.281250 54.085477
31.050000 -22.781250 54.085477
31.000000 -13.593750 54.240875
30.775000 -14.359375 54.240875
30.875000 -15.828125 54.240875
31.175000 -16.687500 54.240875
31.575000 -18.593750 54.240875
31.675000 -19.625000 54.240875
31.250000 -20.687500 54.240875
30.975000 -21.718750 54.240875
31.125000 -23.156250 54.240875
31.225000 -13.078125 54.384978
30.800000 -14.078125 54.384978
30.700000 -15.203125 54.384978
30.900000 -16.531250 54.384978
31.125000 -20.218750 54.384978
31.050000 -21.687500 54.384978
30.925000 -23.000000 54.384978
31.125000 -24.015625 54.384978
31.100000 -12.734375 54.526075
30.700000 -14.046875 54.526075
30.650000 -15.671875 54.526075
30.925000 -16.968750 54.526075
31.075000 -20.750000 54.526075
30.925000 -21.593750 54.526075
30.900000 -23.171875 54.526075
30.925000 -13.484375 54.678878
30.650000 -14.859375 54.678878
30.700000 -16.265625 54.678878
30.875000 -17.031250 54.678878
31.250000 -18.656250 54.678878
31.475000 -19.812500 54.678878
31.175000 -20.703125 54.678878
30.875000 -21.953125 54.678878
31.100000 -12.562500 54.822204
30.700000 -14.203125 54.822204
30.625000 -15.812500 54.822204
30.825000 -16.750000 54.822204
31.075000 -17.750000 54.822204
31.425000 -18.640625 54.822204
31.350000 -20.093750 54.822204
30.925000 -21.171875 54.822204
30.875000 -23.171875 54.822204
31.150000 -23.828125 54.822204
30.850000 -13.718750 54.980441
30.600000 -14.468750 54.980441
30.675000 -16.140625 54.980441
31.050000 -19.203125 54.980441
31.150000 -20.687500 54.980441
30.875000 -22.390625 54.980441
31.050000 -12.968750 55.119513
30.600000 -14.328125 55.119513
30.350000 -15.296875 55.119513
30.600000 -16.437500 55.119513
31.000000 -17.734375 55.119513
31.325000 -18.796875 55.119513
31.325000 -19.828125 55.119513
31.025000 -21.546875 55.119513
30.900000 -23.031250 55.119513
30.825000 -13.359375 55.275346
30.600000 -14.187500 55.275346
30.575000 -15.500000 55.275346
30.900000 -19.828125 55.275346
31.100000 -20.703125 55.275346
30.900000 -21.781250 55.275346
30.525000 -13.781250 55.423680
30.175000 -15.031250 55.423680
30.375000 -16.250000 55.423680
30.850000 -17.718750 55.423680
31.200000 -18.765625 55.423680
31.200000 -20.250000 55.423680
30.975000 -21.500000 55.423680
30.900000 -22.203125 55.423680
30.850000 -12.656250 55.572428
30.700000 -14.484375 55.572428
30.375000 -15.750000 55.572428
31.075000 -20.453125 55.572428
30.875000 -22.062500 55.572428
30.950000 -22.515625 55.572428
31.350000 -23.828125 55.572428
30.675000 -13.187500 55.729203
30.100000 -15.328125 55.729203
30.050000 -16.375000 55.729203
30.675000 -19.312500 55.729203
31.000000 -20.765625 55.729203
30.925000 -21.843750 55.729203
30.675000 -13.812500 55.868600
31.175000 -19.984375 55.868600
30.975000 -21.031250 55.868600
30.900000 -22.546875 55.868600
30.600000 -15.593750 56.011400
30.750000 -19.062500 56.011400
31.050000 -20.828125 56.011400
30.925000 -21.796875 56.011400
31.000000 -22.734375 56.011400
31.425000 -24.234375 56.011400
30.675000 -13.656250 56.170149
30.750000 -19.812500 56.170149
31.000000 -21.078125 56.170149
30.925000 -22.234375 56.170149
31.100000 -23.046875 56.170149
30.625000 -12.828125 56.307754
30.750000 -19.078125 56.307754
31.050000 -20.468750 56.307754
30.900000 -21.515625 56.307754
30.950000 -22.515625 56.307754
30.650000 -13.468750 56.461878
30.600000 -17.593750 56.461878
31.075000 -18.203125 56.461878
31.200000 -19.781250 56.461878
31.000000 -20.718750 56.461878
30.950000 -21.968750 56.461878
31.125000 -23.250000 56.461878
31.200000 -24.500000 56.461878
30.800000 -12.406250 56.614134
30.775000 -13.875000 56.614134
31.050000 -20.453125 56.614134
30.925000 -21.421875 56.614134
30.950000 -22.703125 56.614134
30.725000 -13.296875 56.757314
30.750000 -14.531250 56.757314
30.450000 -15.390625 56.757314
31.050000 -20.968750 56.757314
30.900000 -22.015625 56.757314
30.975000 -23.000000 56.757314
30.800000 -13.031250 56.911826
30.625000 -14.921875 56.911826
30.400000 -16.125000 56.911826
30.625000 -19.140625 56.911826
31.000000 -20.937500 56.911826
30.875000 -21.921875 56.911826
30.950000 -23.281250 56.911826
30.775000 -13.093750 57.055791
30.525000 -14.765625 57.055791
30.400000 -15.921875 57.055791
30.675000 -19.468750 57.055791
30.975000 -20.515625 57.055791
30.875000 -22.453125 57.055791
30.525000 -14.093750 57.212235
30.150000 -14.703125 57.212235
30.350000 -15.921875 57.212235
30.775000 -17.812500 57.212235
31.125000 -18.781250 57.212235
31.175000 -20.281250 57.212235
30.950000 -20.875000 57.212235
30.875000 -22.859375 57.212235
31.050000 -23.437500 57.212235
31.200000 -24.515625 57.212235
30.600000 -13.625000 57.358094
30.350000 -15.609375 57.358094
30.575000 -16.203125 57.358094
30.975000 -17.156250 57.358094
31.225000 -18.515625 57.358094
31.175000 -19.656250 57.358094
30.950000 -21.250000 57.358094
30.875000 -22.656250 57.358094
30.600000 -13.546875 57.508850
30.450000 -14.859375 57.508850
30.650000 -16.765625 57.508850
30.975000 -17.921875 57.508850
31.400000 -18.468750 57.508850
31.325000 -19.906250 57.508850
30.925000 -21.656250 57.508850
30.850000 -22.265625 57.508850
30.625000 -14.187500 57.651973
30.450000 -15.484375 57.651973
30.650000 -16.171875 57.651973
31.050000 -17.703125 57.651973
31.500000 -18.859375 57.651973
31.375000 -20.500000 57.651973
30.900000 -21.562500 57.651973
30.800000 -22.359375 57.651973
30.625000 -14.062500 57.804039
30.475000 -15.328125 57.804039
30.650000 -16.703125 57.804039
31.150000 -17.343750 57.804039
31.650000 -18.828125 57.804039
31.425000 -19.750000 57.804039
30.875000 -21.781250 57.804039
30.775000 -22.906250 57.804039
30.725000 -14.125000 57.950895
30.600000 -15.156250 57.950895
31.350000 -20.453125 57.950895
30.875000 -21.187500 57.950895
30.775000 -22.828125 57.950895
30.725000 -14.000000 58.106567
31.150000 -19.156250 58.106567
31.275000 -20.156250 58.106567
30.875000 -22.015625 58.106567
30.875000 -22.687500 58.106567
31.200000 -23.781250 58.106567
30.975000 -13.406250 58.244192
30.750000 -14.546875 58.244192
30.875000 -15.796875 58.244192
31.800000 -19.765625 58.244192
31.200000 -20.593750 58.244192
30.925000 -22.312500 58.244192
31.025000 -23.078125 58.244192
