30.325000 4.828125 30.332985
30.375000 5.421875 30.332985
30.500000 7.171875 30.332985
30.625000 8.343750 30.332985
30.700000 9.109375 30.332985
30.825000 10.093750 30.332985
30.975000 11.343750 30.332985
30.075000 1.281250 30.478247
30.100000 2.218750 30.478247
30.125000 3.828125 30.478247
30.175000 4.937500 30.478247
30.275000 5.531250 30.478247
30.350000 7.437500 30.478247
30.425000 8.218750 30.478247
30.550000 9.093750 30.478247
30.650000 10.906250 30.478247
30.775000 12.031250 30.478247
48.300000 31.765625 30.478247
29.600000 -1.234375 30.638111
29.825000 0.156250 30.638111
29.850000 0.875000 30.638111
29.850000 2.875000 30.638111
29.900000 3.812500 30.638111
29.950000 4.625000 30.638111
30.050000 5.625000 30.638111
30.125000 7.109375 30.638111
30.200000 8.484375 30.638111
30.300000 10.015625 30.638111
30.400000 11.171875 30.638111
30.550000 12.296875 30.638111
26.550000 -2.625000 30.787515
29.550000 -0.828125 30.787515
29.525000 1.046875 30.787515
29.550000 1.718750 30.787515
29.575000 3.140625 30.787515
29.600000 4.531250 30.787515
29.675000 5.484375 30.787515
29.725000 6.296875 30.787515
29.825000 8.093750 30.787515
29.950000 8.796875 30.787515
30.025000 10.109375 30.787515
29.100000 0.484375 30.941550
29.125000 1.218750 30.941550
29.150000 2.875000 30.941550
29.150000 4.093750 30.941550
29.200000 5.343750 30.941550
29.275000 6.015625 30.941550
29.350000 7.484375 30.941550
29.450000 8.656250 30.941550
29.575000 9.812500 30.941550
29.700000 11.296875 30.941550
29.825000 11.921875 30.941550
28.600000 -0.062500 31.086732
28.600000 1.453125 31.086732
28.600000 2.609375 31.086732
28.625000 4.109375 31.086732
28.675000 4.359375 31.086732
28.750000 6.015625 31.086732
28.825000 7.140625 31.086732
28.900000 8.390625 31.086732
29.000000 9.218750 31.086732
29.100000 10.718750 31.086732
29.225000 11.609375 31.086732
27.950000 -0.281250 31.240867
27.975000 1.046875 31.240867
27.975000 2.484375 31.240867
27.975000 3.515625 31.240867
28.000000 4.906250 31.240867
28.050000 6.156250 31.240867
28.125000 7.453125 31.240867
28.200000 8.781250 31.240867
28.300000 9.250000 31.240867
28.400000 10.312500 31.240867
28.500000 11.734375 31.240867
28.675000 13.515625 31.240867
27.150000 -1.078125 31.393683
27.250000 -0.375000 31.393683
27.250000 1.812500 31.393683
27.250000 2.062500 31.393683
27.275000 3.875000 31.393683
27.300000 4.625000 31.393683
27.350000 6.625000 31.393683
27.425000 6.828125 31.393683
27.550000 7.921875 31.393683
27.625000 10.015625 31.393683
27.700000 10.531250 31.393683
27.850000 11.484375 31.393683
28.000000 12.812500 31.393683
27.175000 -1.062500 31.547095
27.375000 -0.453125 31.547095
27.400000 0.718750 31.547095
27.450000 2.421875 31.547095
27.500000 3.156250 31.547095
27.550000 4.984375 31.547095
27.650000 5.687500 31.547095
27.725000 6.484375 31.547095
27.825000 7.687500 31.547095
27.925000 9.140625 31.547095
28.050000 10.609375 31.547095
28.175000 11.500000 31.547095
28.325000 12.515625 31.547095
27.375000 0.218750 31.702844
27.725000 0.343750 31.702844
27.750000 2.375000 31.702844
27.800000 3.500000 31.702844
27.850000 4.250000 31.702844
27.925000 5.625000 31.702844
27.950000 7.343750 31.702844
28.050000 7.578125 31.702844
28.225000 8.875000 31.702844
28.325000 10.312500 31.702844
28.425000 11.453125 31.702844
28.550000 13.281250 31.702844
27.950000 0.406250 31.857487
28.000000 1.390625 31.857487
28.050000 2.703125 31.857487
28.100000 4.546875 31.857487
28.150000 4.890625 31.857487
28.250000 6.187500 31.857487
28.325000 7.968750 31.857487
28.425000 8.687500 31.857487
28.550000 9.843750 31.857487
28.650000 11.734375 31.857487
28.775000 12.437500 31.857487
28.125000 1.140625 32.014422
28.175000 1.703125 32.014422
28.225000 3.656250 32.014422
28.275000 4.687500 32.014422
28.375000 5.687500 32.014422
28.450000 6.515625 32.014422
28.500000 8.062500 32.014422
28.600000 9.703125 32.014422
28.750000 10.843750 32.014422
28.875000 11.750000 32.014422
29.100000 13.125000 32.014422
28.250000 -0.265625 32.157885
28.275000 1.531250 32.157885
28.300000 1.968750 32.157885
28.375000 3.453125 32.157885
28.450000 4.328125 32.157885
28.525000 5.640625 32.157885
28.600000 6.765625 32.157885
28.675000 8.875000 32.157885
28.775000 9.187500 32.157885
28.900000 10.515625 32.157885
28.325000 1.546875 32.313123
28.425000 2.187500 32.313123
28.450000 3.109375 32.313123
28.475000 4.375000 32.313123
28.550000 6.093750 32.313123
28.625000 6.734375 32.313123
28.700000 8.765625 32.313123
28.800000 9.875000 32.313123
28.925000 10.593750 32.313123
29.050000 11.953125 32.313123
29.400000 12.765625 32.313123
28.400000 0.562500 32.466320
28.400000 2.015625 32.466320
28.425000 2.468750 32.466320
28.475000 4.187500 32.466320
28.550000 4.890625 32.466320
28.625000 6.531250 32.466320
28.675000 7.593750 32.466320
28.775000 8.812500 32.466320
28.900000 9.500000 32.466320
29.025000 10.609375 32.466320
29.150000 12.218750 32.466320
28.400000 0.812500 32.621252
28.425000 2.812500 32.621252
28.475000 3.890625 32.621252
28.500000 4.468750 32.621252
28.550000 5.390625 32.621252
28.625000 7.546875 32.621252
28.700000 8.531250 32.621252
28.800000 9.734375 32.621252
28.925000 10.156250 32.621252
29.050000 11.687500 32.621252
29.400000 13.125000 32.621252
28.325000 0.562500 32.766737
28.375000 2.453125 32.766737
28.425000 3.828125 32.766737
28.475000 5.000000 32.766737
28.475000 5.843750 32.766737
28.550000 6.718750 32.766737
28.675000 8.187500 32.766737
28.775000 8.828125 32.766737
28.825000 10.671875 32.766737
28.950000 11.968750 32.766737
29.175000 12.343750 32.766737
28.175000 0.093750 32.919828
28.200000 1.265625 32.919828
28.225000 2.453125 32.919828
28.275000 3.375000 32.919828
28.350000 4.796875 32.919828
28.425000 6.328125 32.919828
28.500000 7.343750 32.919828
28.575000 8.156250 32.919828
28.700000 9.515625 32.919828
28.800000 11.187500 32.919828
28.925000 12.046875 32.919828
28.025000 0.515625 33.078828
28.025000 1.906250 33.078828
28.050000 2.171875 33.078828
28.100000 3.375000 33.078828
28.150000 5.562500 33.078828
28.200000 6.750000 33.078828
28.300000 7.093750 33.078828
28.400000 8.296875 33.078828
28.500000 9.875000 33.078828
28.600000 10.453125 33.078828
27.800000 1.000000 33.232829
27.825000 1.765625 33.232829
27.825000 3.812500 33.232829
27.850000 4.281250 33.232829
27.925000 6.078125 33.232829
27.975000 7.046875 33.232829
28.050000 8.171875 33.232829
28.175000 9.875000 33.232829
28.300000 10.828125 33.232829
28.400000 12.062500 33.232829
28.525000 13.343750 33.232829
27.275000 -0.437500 33.390299
27.475000 0.734375 33.390299
27.500000 1.906250 33.390299
27.525000 3.125000 33.390299
27.550000 3.906250 33.390299
27.600000 4.828125 33.390299
27.650000 7.015625 33.390299
27.700000 7.781250 33.390299
27.775000 8.500000 33.390299
27.875000 10.453125 33.390299
28.000000 11.609375 33.390299
27.100000 -0.078125 33.529746
27.125000 0.625000 33.529746
27.150000 2.328125 33.529746
27.150000 4.015625 33.529746
27.175000 4.984375 33.529746
27.225000 6.187500 33.529746
27.275000 7.156250 33.529746
27.350000 7.781250 33.529746
27.450000 9.234375 33.529746
27.550000 10.328125 33.529746
27.650000 12.078125 33.529746
27.750000 12.421875 33.529746
26.975000 -0.046875 33.687499
27.000000 0.546875 33.687499
27.025000 1.828125 33.687499
27.025000 3.171875 33.687499
27.075000 3.578125 33.687499
27.175000 5.484375 33.687499
27.250000 6.218750 33.687499
27.325000 7.937500 33.687499
27.425000 8.718750 33.687499
27.550000 9.718750 33.687499
27.675000 11.781250 33.687499
27.500000 -0.843750 33.839186
27.650000 0.703125 33.839186
27.675000 1.125000 33.839186
27.700000 2.671875 33.839186
27.750000 4.109375 33.839186
27.850000 4.828125 33.839186
27.950000 5.875000 33.839186
28.025000 7.312500 33.839186
28.125000 8.859375 33.839186
28.250000 9.109375 33.839186
28.375000 11.343750 33.839186
28.475000 11.984375 33.839186
28.800000 13.312500 33.839186
28.200000 0.718750 33.995214
28.225000 1.000000 33.995214
28.275000 2.796875 33.995214
28.325000 4.031250 33.995214
28.375000 5.437500 33.995214
28.475000 5.640625 33.995214
28.575000 7.625000 33.995214
28.675000 8.484375 33.995214
28.775000 9.140625 33.995214
28.900000 10.687500 33.995214
29.075000 11.781250 33.995214
26.650000 -1.625000 34.148331
28.650000 -0.093750 34.148331
28.675000 0.765625 34.148331
28.700000 1.906250 34.148331
28.750000 3.046875 34.148331
28.825000 4.015625 34.148331
28.900000 5.078125 34.148331
29.000000 7.015625 34.148331
29.125000 7.468750 34.148331
29.225000 9.250000 34.148331
29.350000 10.703125 34.148331
29.475000 11.890625 34.148331
29.725000 12.765625 34.148331
29.050000 1.031250 34.295465
29.125000 2.937500 34.295465
29.175000 4.031250 34.295465
29.225000 5.171875 34.295465
29.300000 6.390625 34.295465
29.400000 7.640625 34.295465
29.525000 8.218750 34.295465
29.650000 9.625000 34.295465
29.775000 11.000000 34.295465
29.900000 12.343750 34.295465
29.325000 1.546875 34.456185
29.375000 2.906250 34.456185
29.475000 3.671875 34.456185
29.550000 4.796875 34.456185
29.625000 5.953125 34.456185
29.700000 7.203125 34.456185
29.825000 8.515625 34.456185
29.950000 9.078125 34.456185
30.050000 10.625000 34.456185
30.175000 11.859375 34.456185
29.525000 -0.890625 34.606513
29.575000 0.875000 34.606513
29.600000 1.718750 34.606513
29.650000 3.140625 34.606513
29.725000 3.937500 34.606513
29.800000 5.843750 34.606513
29.850000 6.234375 34.606513
29.975000 7.921875 34.606513
30.100000 9.281250 34.606513
30.200000 10.500000 34.606513
29.750000 1.625000 34.767822
29.775000 2.500000 34.767822
29.850000 3.390625 34.767822
29.925000 4.625000 34.767822
29.975000 5.781250 34.767822
30.075000 7.000000 34.767822
30.175000 8.625000 34.767822
30.275000 9.187500 34.767822
30.400000 10.343750 34.767822
30.575000 11.484375 34.767822
29.875000 1.359375 34.916327
29.950000 2.390625 34.916327
29.975000 3.640625 34.916327
30.050000 5.031250 34.916327
30.125000 6.328125 34.916327
30.200000 6.703125 34.916327
30.325000 8.328125 34.916327
30.450000 9.765625 34.916327
30.575000 10.859375 34.916327
30.725000 12.000000 34.916327
48.950000 31.640625 34.916327
26.575000 -1.921875 35.074829
30.150000 -0.609375 35.074829
30.050000 0.046875 35.074829
29.975000 1.328125 35.074829
30.000000 3.109375 35.074829
30.075000 3.625000 35.074829
30.150000 4.875000 35.074829
30.250000 6.062500 35.074829
30.300000 7.609375 35.074829
30.425000 8.656250 35.074829
30.600000 9.718750 35.074829
58.300000 35.156250 35.074829
30.200000 -0.625000 35.227383
30.050000 0.875000 35.227383
30.050000 2.109375 35.227383
30.100000 2.984375 35.227383
30.175000 4.156250 35.227383
30.250000 5.562500 35.227383
30.350000 6.828125 35.227383
30.450000 7.921875 35.227383
30.550000 9.109375 35.227383
30.650000 10.375000 35.227383
30.800000 12.015625 35.227383
30.225000 -0.718750 35.367572
30.125000 0.203125 35.367572
30.050000 2.312500 35.367572
30.075000 3.031250 35.367572
30.125000 4.656250 35.367572
30.175000 5.656250 35.367572
30.325000 6.500000 35.367572
30.425000 7.390625 35.367572
30.550000 8.562500 35.367572
30.650000 10.140625 35.367572
30.750000 11.593750 35.367572
29.950000 1.109375 35.523381
29.950000 2.687500 35.523381
30.000000 3.406250 35.523381
30.100000 5.015625 35.523381
30.225000 5.546875 35.523381
30.325000 6.890625 35.523381
30.450000 8.015625 35.523381
30.525000 9.437500 35.523381
30.600000 10.546875 35.523381
30.750000 12.234375 35.523381
29.900000 -0.500000 35.677323
29.925000 1.343750 35.677323
29.950000 1.843750 35.677323
30.025000 3.343750 35.677323
30.100000 4.953125 35.677323
30.125000 5.421875 35.677323
30.275000 6.687500 35.677323
30.425000 8.265625 35.677323
30.525000 9.015625 35.677323
30.575000 10.750000 35.677323
30.650000 12.000000 35.677323
29.875000 -0.375000 35.833385
29.850000 1.171875 35.833385
29.850000 1.828125 35.833385
29.875000 3.046875 35.833385
29.925000 4.812500 35.833385
30.000000 5.640625 35.833385
30.075000 6.812500 35.833385
30.175000 7.875000 35.833385
30.300000 9.390625 35.833385
30.400000 10.671875 35.833385
30.525000 11.781250 35.833385
26.550000 -2.375000 35.977293
29.650000 -0.125000 35.977293
29.650000 0.921875 35.977293
29.650000 2.140625 35.977293
29.700000 3.671875 35.977293
29.750000 4.500000 35.977293
29.850000 5.359375 35.977293
29.925000 7.000000 35.977293
30.000000 7.640625 35.977293
30.125000 8.718750 35.977293
30.225000 10.515625 35.977293
30.325000 11.609375 35.977293
26.550000 -2.718750 36.137139
29.375000 0.046875 36.137139
29.375000 1.156250 36.137139
29.425000 1.781250 36.137139
29.500000 2.718750 36.137139
29.525000 4.468750 36.137139
29.600000 5.421875 36.137139
29.675000 6.546875 36.137139
29.750000 7.640625 36.137139
29.875000 8.578125 36.137139
30.000000 10.515625 36.137139
30.075000 11.093750 36.137139
30.425000 12.109375 36.137139
29.150000 0.656250 36.284293
29.150000 2.343750 36.284293
29.200000 3.203125 36.284293
29.250000 4.921875 36.284293
29.300000 5.593750 36.284293
29.425000 7.234375 36.284293
29.525000 7.828125 36.284293
29.625000 9.546875 36.284293
29.700000 10.671875 36.284293
29.800000 11.843750 36.284293
28.725000 -0.062500 36.439987
28.700000 1.562500 36.439987
28.700000 2.890625 36.439987
28.750000 3.640625 36.439987
28.825000 4.734375 36.439987
28.875000 5.703125 36.439987
28.975000 6.921875 36.439987
29.100000 8.906250 36.439987
29.175000 9.546875 36.439987
29.275000 11.031250 36.439987
29.400000 12.140625 36.439987
28.250000 0.640625 36.594446
28.300000 1.093750 36.594446
28.325000 3.156250 36.594446
28.325000 3.531250 36.594446
28.375000 5.015625 36.594446
28.425000 6.593750 36.594446
28.500000 7.468750 36.594446
28.600000 8.843750 36.594446
28.700000 10.281250 36.594446
28.775000 11.359375 36.594446
27.375000 -0.125000 36.749208
27.675000 0.171875 36.749208
27.675000 1.203125 36.749208
27.700000 2.875000 36.749208
27.725000 4.312500 36.749208
27.775000 5.546875 36.749208
27.825000 5.906250 36.749208
27.900000 7.265625 36.749208
27.975000 8.703125 36.749208
28.075000 9.703125 36.749208
28.175000 11.218750 36.749208
28.250000 12.531250 36.749208
28.475000 13.312500 36.749208
27.450000 -1.046875 36.895309
27.475000 0.156250 36.895309
27.575000 1.359375 36.895309
27.600000 2.734375 36.895309
27.650000 4.500000 36.895309
27.750000 5.812500 36.895309
27.800000 6.437500 36.895309
27.850000 7.625000 36.895309
27.950000 8.265625 36.895309
28.075000 9.890625 36.895309
28.175000 10.890625 36.895309
28.275000 12.203125 36.895309
28.650000 13.656250 36.895309
27.475000 -1.140625 37.058055
27.900000 0.015625 37.058055
27.925000 1.203125 37.058055
27.925000 2.968750 37.058055
27.975000 4.156250 37.058055
28.075000 4.562500 37.058055
28.150000 6.703125 37.058055
28.250000 7.468750 37.058055
28.400000 8.296875 37.058055
28.500000 9.578125 37.058055
28.625000 10.671875 37.058055
28.250000 0.500000 37.205993
28.300000 1.515625 37.205993
28.325000 3.296875 37.205993
28.375000 4.640625 37.205993
28.450000 5.406250 37.205993
28.550000 7.031250 37.205993
28.650000 7.781250 37.205993
28.750000 8.546875 37.205993
28.875000 10.468750 37.205993
29.000000 11.718750 37.205993
29.150000 12.343750 37.205993
28.500000 0.812500 37.357112
28.525000 1.687500 37.357112
28.550000 3.171875 37.357112
28.600000 4.093750 37.357112
28.675000 5.125000 37.357112
28.775000 5.734375 37.357112
28.900000 7.015625 37.357112
28.975000 8.687500 37.357112
29.075000 9.906250 37.357112
29.225000 10.937500 37.357112
29.375000 11.906250 37.357112
26.625000 -2.578125 37.516479
28.700000 -0.187500 37.516479
28.725000 0.687500 37.516479
28.725000 1.781250 37.516479
28.775000 3.203125 37.516479
28.850000 4.093750 37.516479
28.925000 5.437500 37.516479
29.025000 6.515625 37.516479
29.125000 8.265625 37.516479
29.250000 8.812500 37.516479
29.400000 9.953125 37.516479
29.525000 11.750000 37.516479
29.775000 12.390625 37.516479
28.850000 0.875000 37.668059
28.900000 1.500000 37.668059
28.925000 2.500000 37.668059
28.950000 3.750000 37.668059
29.050000 5.343750 37.668059
29.150000 6.484375 37.668059
29.250000 7.468750 37.668059
29.350000 8.250000 37.668059
29.525000 9.468750 37.668059
29.650000 10.937500 37.668059
29.750000 11.687500 37.668059
26.500000 -1.796875 37.811036
28.950000 -0.406250 37.811036
28.950000 0.484375 37.811036
28.975000 2.000000 37.811036
29.025000 3.750000 37.811036
29.125000 4.265625 37.811036
29.200000 6.031250 37.811036
29.275000 7.093750 37.811036
29.400000 7.609375 37.811036
29.525000 9.187500 37.811036
29.650000 10.187500 37.811036
29.000000 0.046875 37.976956
29.025000 1.000000 37.976956
29.025000 2.703125 37.976956
29.100000 3.859375 37.976956
29.200000 4.781250 37.976956
29.275000 6.000000 37.976956
29.400000 7.218750 37.976956
29.500000 8.937500 37.976956
29.600000 9.437500 37.976956
29.750000 10.484375 37.976956
29.825000 12.015625 37.976956
28.975000 -0.781250 38.120425
28.975000 1.218750 38.120425
29.000000 1.796875 38.120425
29.050000 3.500000 38.120425
29.150000 4.875000 38.120425
29.225000 5.968750 38.120425
29.275000 6.812500 38.120425
29.425000 7.609375 38.120425
29.575000 9.578125 38.120425
29.650000 10.468750 38.120425
29.775000 11.531250 38.120425
30.125000 12.281250 38.120425
29.025000 0.125000 38.268999
29.025000 1.640625 38.268999
29.025000 2.078125 38.268999
29.075000 3.718750 38.268999
29.175000 4.421875 38.268999
29.250000 6.515625 38.268999
29.350000 7.406250 38.268999
29.450000 8.781250 38.268999
29.575000 9.953125 38.268999
29.725000 10.734375 38.268999
29.800000 12.000000 38.268999
46.900000 31.453125 38.268999
28.925000 -0.546875 38.430016
28.925000 1.062500 38.430016
28.950000 1.250000 38.430016
28.950000 3.218750 38.430016
29.000000 4.000000 38.430016
29.100000 5.765625 38.430016
29.175000 6.312500 38.430016
29.275000 7.968750 38.430016
29.375000 9.015625 38.430016
29.525000 10.109375 38.430016
29.625000 11.593750 38.430016
29.750000 12.812500 38.430016
28.775000 -0.406250 38.584219
28.800000 0.828125 38.584219
28.800000 2.171875 38.584219
28.825000 3.109375 38.584219
28.900000 4.937500 38.584219
28.950000 5.890625 38.584219
29.025000 6.375000 38.584219
29.150000 8.218750 38.584219
29.225000 9.171875 38.584219
29.350000 10.265625 38.584219
29.500000 11.093750 38.584219
29.725000 12.656250 38.584219
28.600000 0.312500 38.729362
28.600000 1.781250 38.729362
28.625000 3.109375 38.729362
28.675000 3.843750 38.729362
28.725000 5.265625 38.729362
28.775000 6.078125 38.729362
28.875000 6.843750 38.729362
28.950000 8.687500 38.729362
29.075000 9.796875 38.729362
29.225000 10.437500 38.729362
29.325000 12.343750 38.729362
28.375000 1.656250 38.891631
28.400000 2.890625 38.891631
28.450000 3.031250 38.891631
28.525000 4.218750 38.891631
28.550000 6.500000 38.891631
28.600000 7.578125 38.891631
28.700000 8.281250 38.891631
28.800000 9.203125 38.891631
28.900000 10.390625 38.891631
29.025000 11.390625 38.891631
29.325000 12.765625 38.891631
28.100000 0.812500 39.038282
28.125000 2.875000 39.038282
28.125000 3.734375 39.038282
28.175000 4.484375 39.038282
28.250000 5.921875 39.038282
28.325000 6.765625 39.038282
28.400000 8.000000 39.038282
28.475000 9.859375 39.038282
28.575000 10.390625 39.038282
28.700000 11.593750 39.038282
28.850000 12.484375 39.038282
27.325000 -0.062500 39.196490
27.675000 1.156250 39.196490
27.700000 2.609375 39.196490
27.700000 4.015625 39.196490
27.725000 5.093750 39.196490
27.775000 5.843750 39.196490
27.875000 6.484375 39.196490
27.975000 8.484375 39.196490
28.075000 9.828125 39.196490
28.175000 10.843750 39.196490
28.325000 11.468750 39.196490
28.500000 12.640625 39.196490
28.175000 0.437500 39.337705
28.225000 2.343750 39.337705
28.275000 3.328125 39.337705
28.350000 3.750000 39.337705
28.400000 5.578125 39.337705
28.500000 6.781250 39.337705
28.600000 7.468750 39.337705
28.725000 8.687500 39.337705
28.825000 10.171875 39.337705
28.975000 11.078125 39.337705
29.150000 12.250000 39.337705
28.725000 0.625000 39.490686
28.750000 1.437500 39.490686
28.825000 2.421875 39.490686
28.900000 4.218750 39.490686
28.925000 5.171875 39.490686
29.025000 6.687500 39.490686
29.125000 7.093750 39.490686
29.300000 8.468750 39.490686
29.450000 9.468750 39.490686
29.575000 10.984375 39.490686
29.725000 12.328125 39.490686
29.225000 -0.562500 39.646566
29.250000 0.875000 39.646566
29.275000 2.093750 39.646566
29.300000 3.453125 39.646566
29.375000 4.734375 39.646566
29.475000 5.250000 39.646566
29.575000 6.593750 39.646566
29.700000 8.562500 39.646566
29.800000 9.265625 39.646566
29.925000 10.515625 39.646566
30.075000 11.546875 39.646566
29.575000 -0.468750 39.800586
29.600000 0.515625 39.800586
29.650000 1.718750 39.800586
29.700000 3.296875 39.800586
29.725000 4.406250 39.800586
29.775000 5.593750 39.800586
29.875000 6.031250 39.800586
30.000000 7.921875 39.800586
30.125000 8.593750 39.800586
30.225000 10.343750 39.800586
30.350000 10.953125 39.800586
30.675000 11.843750 39.800586
26.875000 -1.546875 39.954779
29.875000 -0.687500 39.954779
29.900000 1.359375 39.954779
29.925000 1.718750 39.954779
29.975000 3.296875 39.954779
30.025000 4.890625 39.954779
30.125000 5.453125 39.954779
30.225000 6.718750 39.954779
30.325000 7.578125 39.954779
30.450000 9.390625 39.954779
30.575000 10.437500 39.954779
30.700000 11.687500 39.954779
26.675000 -1.843750 40.110348
30.075000 -0.828125 40.110348
30.100000 0.687500 40.110348
30.100000 1.781250 40.110348
30.150000 2.578125 40.110348
30.200000 3.906250 40.110348
30.275000 4.718750 40.110348
30.375000 6.328125 40.110348
30.500000 7.468750 40.110348
30.625000 8.703125 40.110348
30.725000 9.468750 40.110348
30.850000 10.687500 40.110348
31.275000 11.828125 40.110348
55.400000 33.968750 40.110348
30.250000 -0.109375 40.266544
30.275000 1.125000 40.266544
30.300000 2.046875 40.266544
30.375000 3.093750 40.266544
30.450000 4.656250 40.266544
30.500000 5.921875 40.266544
30.600000 6.578125 40.266544
30.725000 7.671875 40.266544
30.825000 8.812500 40.266544
30.950000 10.359375 40.266544
31.075000 11.296875 40.266544
30.250000 -1.281250 40.408282
30.400000 0.171875 40.408282
30.425000 1.375000 40.408282
30.475000 2.328125 40.408282
30.525000 3.859375 40.408282
30.600000 4.671875 40.408282
30.650000 6.109375 40.408282
30.750000 7.203125 40.408282
30.850000 8.546875 40.408282
30.975000 9.906250 40.408282
31.150000 10.984375 40.408282
31.525000 12.109375 40.408282
30.475000 -0.187500 40.561546
30.500000 0.343750 40.561546
30.550000 1.718750 40.561546
30.575000 2.921875 40.561546
30.625000 4.343750 40.561546
30.700000 5.281250 40.561546
30.775000 6.718750 40.561546
30.875000 8.000000 40.561546
31.025000 8.937500 40.561546
31.175000 10.328125 40.561546
31.275000 11.750000 40.561546
30.400000 -0.984375 40.717140
30.550000 0.031250 40.717140
30.575000 1.109375 40.717140
30.600000 2.625000 40.717140
30.625000 4.125000 40.717140
30.650000 5.312500 40.717140
30.750000 5.812500 40.717140
30.900000 7.437500 40.717140
31.025000 8.500000 40.717140
31.150000 9.640625 40.717140
30.550000 -0.265625 40.872947
30.500000 0.406250 40.872947
30.550000 1.796875 40.872947
30.600000 3.046875 40.872947
30.675000 4.109375 40.872947
30.725000 5.234375 40.872947
30.775000 7.000000 40.872947
30.925000 7.593750 40.872947
31.050000 9.109375 40.872947
31.175000 9.968750 40.872947
31.300000 11.343750 40.872947
26.650000 -2.281250 41.018818
30.450000 -0.828125 41.018818
30.550000 0.625000 41.018818
30.575000 1.500000 41.018818
30.600000 2.875000 41.018818
30.625000 3.906250 41.018818
30.675000 4.625000 41.018818
30.775000 5.875000 41.018818
30.900000 7.109375 41.018818
31.025000 8.468750 41.018818
31.125000 10.187500 41.018818
31.250000 11.062500 41.018818
30.500000 -0.312500 41.175304
30.500000 0.515625 41.175304
30.525000 2.312500 41.175304
30.575000 3.296875 41.175304
30.625000 4.437500 41.175304
30.675000 5.515625 41.175304
30.750000 6.609375 41.175304
30.850000 8.078125 41.175304
31.000000 8.750000 41.175304
31.125000 10.312500 41.175304
31.250000 11.359375 41.175304
30.425000 -0.875000 41.329862
30.425000 0.328125 41.329862
30.425000 1.875000 41.329862
30.475000 2.703125 41.329862
30.525000 4.281250 41.329862
30.575000 5.171875 41.329862
30.650000 6.859375 41.329862
30.725000 8.109375 41.329862
30.825000 8.640625 41.329862
30.975000 9.906250 41.329862
31.125000 11.296875 41.329862
30.025000 -1.187500 41.483916
30.275000 0.234375 41.483916
30.275000 1.375000 41.483916
30.300000 2.781250 41.483916
30.325000 3.765625 41.483916
30.425000 4.687500 41.483916
30.525000 5.921875 41.483916
30.575000 7.453125 41.483916
30.650000 8.156250 41.483916
30.775000 9.218750 41.483916
30.900000 11.093750 41.483916
31.125000 12.015625 41.483916
51.200000 32.703125 41.483916
26.525000 -2.875000 41.638132
30.100000 -1.109375 41.638132
30.100000 0.859375 41.638132
30.100000 1.468750 41.638132
30.150000 2.937500 41.638132
30.200000 3.765625 41.638132
30.250000 5.625000 41.638132
30.325000 6.109375 41.638132
30.425000 7.281250 41.638132
30.550000 8.468750 41.638132
30.650000 9.796875 41.638132
29.875000 1.453125 41.793901
29.900000 2.125000 41.793901
29.950000 3.578125 41.793901
30.000000 4.812500 41.793901
30.050000 6.062500 41.793901
30.125000 6.906250 41.793901
30.200000 8.656250 41.793901
30.300000 9.453125 41.793901
30.450000 10.640625 41.793901
30.575000 11.796875 41.793901
26.625000 -2.437500 41.950386
29.600000 -0.765625 41.950386
29.550000 0.734375 41.950386
29.550000 1.765625 41.950386
29.600000 3.046875 41.950386
29.650000 4.156250 41.950386
29.725000 5.437500 41.950386
29.775000 6.968750 41.950386
29.875000 8.140625 41.950386
29.975000 8.812500 41.950386
30.075000 9.656250 41.950386
30.175000 11.156250 41.950386
30.500000 12.406250 41.950386
57.000000 35.093750 41.950386
29.075000 -0.765625 42.087774
29.150000 0.031250 42.087774
29.200000 1.515625 42.087774
29.225000 2.984375 42.087774
29.225000 3.468750 42.087774
29.275000 5.484375 42.087774
29.375000 5.781250 42.087774
29.450000 7.171875 42.087774
29.525000 8.671875 42.087774
29.625000 9.968750 42.087774
29.725000 11.312500 42.087774
29.850000 11.765625 42.087774
28.650000 1.312500 42.243598
28.675000 2.343750 42.243598
28.700000 3.671875 42.243598
28.750000 4.281250 42.243598
28.800000 6.281250 42.243598
28.875000 6.859375 42.243598
28.975000 8.484375 42.243598
29.050000 9.375000 42.243598
29.175000 10.671875 42.243598
29.300000 11.796875 42.243598
29.625000 13.078125 42.243598
28.025000 1.046875 42.393801
28.025000 2.562500 42.393801
28.075000 2.859375 42.393801
28.125000 4.328125 42.393801
28.150000 5.687500 42.393801
28.225000 6.875000 42.393801
28.275000 7.703125 42.393801
28.350000 9.312500 42.393801
28.450000 10.515625 42.393801
28.550000 11.359375 42.393801
28.650000 12.968750 42.393801
27.300000 -0.500000 42.554442
27.300000 0.468750 42.554442
27.300000 2.453125 42.554442
27.300000 2.796875 42.554442
27.325000 4.046875 42.554442
27.375000 5.250000 42.554442
27.425000 6.390625 42.554442
27.500000 7.640625 42.554442
27.600000 8.734375 42.554442
27.675000 10.015625 42.554442
27.800000 11.671875 42.554442
27.325000 -1.187500 42.704037
27.325000 0.406250 42.704037
27.350000 1.218750 42.704037
27.400000 3.343750 42.704037
27.475000 4.312500 42.704037
27.575000 4.562500 42.704037
27.650000 6.281250 42.704037
27.725000 7.218750 42.704037
27.825000 9.078125 42.704037
27.950000 9.343750 42.704037
28.075000 11.640625 42.704037
28.200000 11.734375 42.704037
28.525000 13.312500 42.704037
27.550000 -1.437500 42.852629
27.650000 0.265625 42.852629
27.675000 1.562500 42.852629
27.700000 3.078125 42.852629
27.750000 3.984375 42.852629
27.850000 4.375000 42.852629
27.950000 6.343750 42.852629
28.050000 6.703125 42.852629
28.125000 8.187500 42.852629
28.225000 9.546875 42.852629
28.350000 11.109375 42.852629
28.475000 12.156250 42.852629
28.700000 12.953125 42.852629
27.950000 0.703125 43.010177
28.000000 2.406250 43.010177
28.050000 3.031250 43.010177
28.100000 5.171875 43.010177
28.175000 5.562500 43.010177
28.225000 6.609375 43.010177
28.325000 8.109375 43.010177
28.450000 9.937500 43.010177
28.575000 10.437500 43.010177
28.700000 11.734375 43.010177
28.900000 12.968750 43.010177
28.175000 0.671875 43.164311
28.200000 1.968750 43.164311
28.225000 3.468750 43.164311
28.275000 4.593750 43.164311
28.350000 6.312500 43.164311
28.400000 7.468750 43.164311
28.475000 7.812500 43.164311
28.625000 9.250000 43.164311
28.775000 10.890625 43.164311
28.875000 12.218750 43.164311
29.100000 12.500000 43.164311
28.225000 1.359375 43.309355
28.275000 2.031250 43.309355
28.325000 3.828125 43.309355
28.425000 4.140625 43.309355
28.475000 6.031250 43.309355
28.500000 6.859375 43.309355
28.600000 7.828125 43.309355
28.725000 8.828125 43.309355
28.850000 10.359375 43.309355
28.950000 11.250000 43.309355
29.125000 12.781250 43.309355
26.625000 -2.718750 43.463913
28.325000 -0.093750 43.463913
28.300000 0.953125 43.463913
28.300000 1.625000 43.463913
28.400000 3.437500 43.463913
28.475000 4.359375 43.463913
28.525000 5.671875 43.463913
28.550000 7.031250 43.463913
28.625000 7.765625 43.463913
28.775000 9.031250 43.463913
28.875000 10.312500 43.463913
28.975000 11.046875 43.463913
29.175000 12.750000 43.463913
28.450000 0.328125 43.620316
28.425000 2.109375 43.620316
28.450000 3.109375 43.620316
28.500000 3.828125 43.620316
28.575000 4.890625 43.620316
28.625000 6.640625 43.620316
28.700000 7.843750 43.620316
28.800000 8.656250 43.620316
28.925000 10.171875 43.620316
29.050000 10.984375 43.620316
29.200000 12.218750 43.620316
28.375000 0.578125 43.768357
28.400000 1.812500 43.768357
28.425000 2.375000 43.768357
28.475000 3.921875 43.768357
28.525000 5.046875 43.768357
28.625000 6.203125 43.768357
28.700000 7.062500 43.768357
28.775000 8.515625 43.768357
28.875000 9.765625 43.768357
28.950000 10.781250 43.768357
29.100000 12.625000 43.768357
28.325000 1.296875 43.919539
28.325000 2.578125 43.919539
28.350000 2.921875 43.919539
28.425000 4.515625 43.919539
28.475000 5.531250 43.919539
28.550000 6.484375 43.919539
28.675000 7.906250 43.919539
28.750000 9.765625 43.919539
28.825000 10.531250 43.919539
28.950000 11.640625 43.919539
29.225000 12.906250 43.919539
28.200000 0.421875 44.077933
28.225000 1.156250 44.077933
28.250000 2.781250 44.077933
28.275000 3.593750 44.077933
28.350000 5.109375 44.077933
28.450000 6.171875 44.077933
28.500000 7.109375 44.077933
28.575000 8.250000 44.077933
28.675000 9.578125 44.077933
28.775000 11.093750 44.077933
28.050000 0.640625 44.230010
28.075000 1.375000 44.230010
28.100000 3.125000 44.230010
28.150000 4.359375 44.230010
28.200000 4.875000 44.230010
28.300000 6.890625 44.230010
28.375000 7.453125 44.230010
28.475000 8.687500 44.230010
28.550000 9.984375 44.230010
28.650000 11.062500 44.230010
28.775000 12.265625 44.230010
27.450000 -0.343750 44.388394
27.825000 1.390625 44.388394
27.850000 2.031250 44.388394
27.875000 3.140625 44.388394
27.925000 4.562500 44.388394
28.000000 6.046875 44.388394
28.050000 6.859375 44.388394
28.150000 8.765625 44.388394
28.250000 9.640625 44.388394
28.375000 10.203125 44.388394
28.475000 12.046875 44.388394
28.650000 12.546875 44.388394
27.275000 -0.375000 44.537421
27.550000 0.484375 44.537421
27.575000 2.062500 44.537421
27.575000 2.531250 44.537421
27.600000 3.890625 44.537421
27.650000 5.562500 44.537421
27.700000 6.500000 44.537421
27.775000 7.781250 44.537421
27.875000 9.265625 44.537421
27.975000 9.671875 44.537421
28.100000 11.562500 44.537421
28.225000 12.906250 44.537421
27.175000 -0.921875 44.692483
27.200000 0.062500 44.692483
27.200000 1.437500 44.692483
27.200000 2.890625 44.692483
27.225000 4.078125 44.692483
27.275000 5.812500 44.692483
27.325000 6.875000 44.692483
27.375000 8.218750 44.692483
27.475000 9.140625 44.692483
27.575000 9.843750 44.692483
27.700000 10.703125 44.692483
27.800000 11.781250 44.692483
28.025000 13.312500 44.692483
26.850000 -1.515625 44.835464
26.900000 -1.250000 44.835464
26.950000 -0.125000 44.835464
26.975000 1.062500 44.835464
26.975000 2.609375 44.835464
26.950000 4.421875 44.835464
27.000000 5.406250 44.835464
27.075000 6.250000 44.835464
27.125000 6.750000 44.835464
27.200000 7.968750 44.835464
27.325000 9.468750 44.835464
27.425000 11.218750 44.835464
27.550000 12.218750 44.835464
27.700000 13.265625 44.835464
27.500000 0.234375 44.989718
27.550000 0.734375 44.989718
27.600000 2.953125 44.989718
27.625000 3.687500 44.989718
27.700000 4.531250 44.989718
27.775000 6.218750 44.989718
27.875000 6.750000 44.989718
28.000000 8.375000 44.989718
28.125000 9.906250 44.989718
28.225000 10.640625 44.989718
28.325000 11.375000 44.989718
28.450000 13.265625 44.989718
28.175000 1.125000 45.148443
28.200000 2.343750 45.148443
28.250000 3.000000 45.148443
28.300000 4.640625 45.148443
28.350000 5.828125 45.148443
28.450000 6.953125 45.148443
28.575000 8.375000 45.148443
28.675000 8.906250 45.148443
28.800000 10.171875 45.148443
28.950000 11.437500 45.148443
29.175000 12.484375 45.148443
28.600000 0.765625 45.300406
28.625000 1.859375 45.300406
28.675000 3.312500 45.300406
28.725000 3.593750 45.300406
28.800000 4.812500 45.300406
28.900000 6.437500 45.300406
29.025000 8.031250 45.300406
29.125000 8.937500 45.300406
29.225000 9.734375 45.300406
29.375000 10.859375 45.300406
29.525000 12.062500 45.300406
28.975000 1.234375 45.453081
29.050000 1.968750 45.453081
29.075000 3.281250 45.453081
29.150000 4.437500 45.453081
29.250000 6.109375 45.453081
29.350000 6.890625 45.453081
29.475000 8.218750 45.453081
29.600000 9.015625 45.453081
29.700000 10.953125 45.453081
29.825000 11.734375 45.453081
29.300000 0.578125 45.599225
29.325000 1.703125 45.599225
29.375000 2.750000 45.599225
29.425000 4.125000 45.599225
29.500000 5.343750 45.599225
29.600000 6.171875 45.599225
29.725000 7.328125 45.599225
29.850000 8.515625 45.599225
29.950000 9.765625 45.599225
30.050000 11.343750 45.599225
30.225000 12.421875 45.599225
26.600000 -2.156250 45.759844
29.600000 -0.250000 45.759844
29.550000 1.234375 45.759844
29.575000 2.218750 45.759844
29.625000 3.328125 45.759844
29.700000 4.484375 45.759844
29.800000 6.015625 45.759844
29.875000 7.125000 45.759844
29.975000 7.984375 45.759844
30.075000 8.734375 45.759844
30.175000 10.531250 45.759844
30.325000 11.546875 45.759844
29.750000 0.968750 45.910823
29.775000 2.796875 45.910823
29.825000 3.453125 45.910823
29.900000 5.000000 45.910823
29.975000 5.921875 45.910823
30.075000 7.390625 45.910823
30.200000 8.312500 45.910823
30.325000 9.265625 45.910823
30.450000 11.031250 45.910823
30.575000 11.609375 45.910823
29.825000 -0.609375 46.066479
29.850000 0.703125 46.066479
29.875000 1.812500 46.066479
29.950000 2.484375 46.066479
30.025000 4.546875 46.066479
30.075000 5.187500 46.066479
30.125000 6.250000 46.066479
30.225000 7.625000 46.066479
30.375000 8.734375 46.066479
30.525000 9.875000 46.066479
30.625000 11.562500 46.066479
30.050000 -0.046875 46.209034
29.925000 0.859375 46.209034
29.975000 2.328125 46.209034
30.025000 3.015625 46.209034
30.075000 4.953125 46.209034
30.150000 5.781250 46.209034
30.250000 6.687500 46.209034
30.375000 8.437500 46.209034
30.500000 9.531250 46.209034
30.625000 10.375000 46.209034
30.750000 11.421875 46.209034
30.200000 -0.171875 46.363375
30.075000 0.390625 46.363375
30.000000 2.093750 46.363375
30.075000 2.640625 46.363375
30.150000 4.140625 46.363375
30.200000 5.312500 46.363375
30.300000 6.265625 46.363375
30.425000 7.609375 46.363375
30.525000 9.140625 46.363375
30.650000 9.718750 46.363375
30.775000 11.281250 46.363375
26.550000 -2.703125 46.517660
30.225000 -1.156250 46.517660
30.150000 0.031250 46.517660
30.050000 1.593750 46.517660
30.050000 2.750000 46.517660
30.100000 4.250000 46.517660
30.200000 4.921875 46.517660
30.300000 6.515625 46.517660
30.400000 7.796875 46.517660
30.500000 8.718750 46.517660
30.625000 9.468750 46.517660
30.125000 -0.578125 46.671246
30.000000 0.828125 46.671246
30.000000 1.828125 46.671246
30.075000 3.156250 46.671246
30.150000 4.562500 46.671246
30.200000 5.062500 46.671246
30.275000 6.906250 46.671246
30.425000 7.421875 46.671246
30.525000 9.218750 46.671246
30.625000 10.375000 46.671246
30.750000 11.484375 46.671246
29.925000 -0.453125 46.828531
29.925000 1.296875 46.828531
29.975000 2.140625 46.828531
30.025000 3.625000 46.828531
30.075000 4.734375 46.828531
30.175000 5.187500 46.828531
30.225000 7.046875 46.828531
30.300000 7.921875 46.828531
30.400000 9.484375 46.828531
30.525000 10.531250 46.828531
30.650000 11.203125 46.828531
29.850000 -0.312500 46.981485
29.850000 1.265625 46.981485
29.900000 1.703125 46.981485
29.925000 3.062500 46.981485
29.925000 4.625000 46.981485
30.000000 5.859375 46.981485
30.125000 6.484375 46.981485
30.275000 8.171875 46.981485
30.325000 9.125000 46.981485
30.450000 10.234375 46.981485
30.575000 11.312500 46.981485
26.725000 -1.859375 47.138458
29.650000 -0.515625 47.138458
29.675000 0.484375 47.138458
29.700000 1.859375 47.138458
29.775000 3.218750 47.138458
29.825000 4.125000 47.138458
29.850000 5.609375 47.138458
29.950000 6.609375 47.138458
30.075000 7.671875 47.138458
30.175000 9.187500 47.138458
30.250000 10.031250 47.138458
30.350000 11.687500 47.138458
29.325000 -1.031250 47.290495
29.475000 0.609375 47.290495
29.425000 1.843750 47.290495
29.425000 2.500000 47.290495
29.500000 3.953125 47.290495
29.575000 5.406250 47.290495
29.675000 6.687500 47.290495
29.750000 7.109375 47.290495
29.850000 8.453125 47.290495
29.950000 10.000000 47.290495
30.075000 11.250000 47.290495
30.225000 12.234375 47.290495
29.175000 0.953125 47.435357
29.175000 2.421875 47.435357
29.225000 3.687500 47.435357
29.275000 4.328125 47.435357
29.375000 5.421875 47.435357
29.475000 7.093750 47.435357
29.550000 8.468750 47.435357
29.650000 9.218750 47.435357
29.775000 10.484375 47.435357
29.875000 11.781250 47.435357
28.775000 -0.046875 47.584494
28.800000 1.359375 47.584494
28.825000 2.562500 47.584494
28.875000 3.890625 47.584494
28.950000 4.609375 47.584494
29.050000 6.578125 47.584494
29.100000 7.046875 47.584494
29.175000 8.906250 47.584494
29.300000 9.359375 47.584494
29.425000 10.859375 47.584494
29.500000 12.468750 47.584494
48.800000 31.656250 47.584494
28.350000 0.812500 47.744741
28.350000 1.953125 47.744741
28.375000 2.718750 47.744741
28.450000 3.515625 47.744741
28.500000 5.546875 47.744741
28.550000 6.265625 47.744741
28.625000 7.656250 47.744741
28.700000 8.937500 47.744741
28.800000 9.671875 47.744741
28.900000 11.593750 47.744741
29.025000 12.203125 47.744741
27.400000 -0.390625 47.895055
27.725000 0.781250 47.895055
27.750000 1.671875 47.895055
27.775000 3.375000 47.895055
27.800000 4.078125 47.895055
27.875000 5.421875 47.895055
27.925000 7.062500 47.895055
28.000000 7.328125 47.895055
28.100000 9.046875 47.895055
28.175000 10.281250 47.895055
28.250000 11.828125 47.895055
28.350000 13.062500 47.895055
27.275000 -1.140625 48.042898
27.425000 -0.140625 48.042898
27.425000 1.015625 48.042898
27.475000 2.531250 48.042898
27.500000 3.671875 48.042898
27.550000 4.953125 48.042898
27.625000 5.828125 48.042898
27.700000 7.562500 48.042898
27.800000 7.781250 48.042898
27.925000 9.703125 48.042898
28.025000 10.812500 48.042898
28.150000 12.296875 48.042898
28.325000 12.578125 48.042898
27.425000 -0.218750 48.202298
27.800000 0.937500 48.202298
27.850000 1.343750 48.202298
27.900000 3.265625 48.202298
27.950000 4.312500 48.202298
28.000000 5.437500 48.202298
28.100000 6.250000 48.202298
28.200000 8.093750 48.202298
28.300000 8.812500 48.202298
28.450000 10.484375 48.202298
28.575000 11.406250 48.202298
28.700000 12.031250 48.202298
28.150000 0.281250 48.353946
28.175000 1.406250 48.353946
28.225000 2.906250 48.353946
28.275000 3.546875 48.353946
28.350000 4.734375 48.353946
28.450000 6.015625 48.353946
28.525000 6.890625 48.353946
28.625000 8.375000 48.353946
28.725000 9.812500 48.353946
28.875000 10.546875 48.353946
28.475000 0.750000 48.510990
28.475000 2.765625 48.510990
28.525000 2.875000 48.510990
28.625000 4.203125 48.510990
28.700000 5.500000 48.510990
28.775000 6.828125 48.510990
28.875000 8.171875 48.510990
28.975000 9.046875 48.510990
29.125000 10.781250 48.510990
29.275000 11.312500 48.510990
29.550000 12.406250 48.510990
28.625000 -0.656250 48.650554
28.675000 0.796875 48.650554
28.700000 1.812500 48.650554
28.750000 2.640625 48.650554
28.825000 4.421875 48.650554
28.875000 5.531250 48.650554
28.950000 7.093750 48.650554
29.025000 8.171875 48.650554
29.150000 9.046875 48.650554
29.300000 10.234375 48.650554
29.425000 11.703125 48.650554
29.600000 12.437500 48.650554
28.825000 0.890625 48.807494
28.850000 1.390625 48.807494
28.900000 2.953125 48.807494
28.950000 4.234375 48.807494
29.025000 4.781250 48.807494
29.125000 6.578125 48.807494
29.225000 7.812500 48.807494
29.350000 8.343750 48.807494
29.500000 10.093750 48.807494
29.600000 11.156250 48.807494
29.725000 12.546875 48.807494
54.250000 33.828125 48.807494
28.950000 1.000000 48.956743
28.975000 2.250000 48.956743
29.000000 3.421875 48.956743
29.100000 4.218750 48.956743
29.200000 6.203125 48.956743
29.275000 7.140625 48.956743
29.400000 8.625000 48.956743
29.525000 9.625000 48.956743
29.650000 10.265625 48.956743
29.800000 12.031250 48.956743
26.650000 -2.125000 49.116654
28.975000 -0.218750 49.116654
28.975000 1.515625 49.116654
29.025000 1.765625 49.116654
29.050000 3.031250 49.116654
29.175000 4.203125 49.116654
29.275000 5.703125 49.116654
29.400000 7.140625 49.116654
29.500000 8.593750 49.116654
29.550000 9.687500 49.116654
29.700000 10.328125 49.116654
29.000000 -0.343750 49.268515
29.025000 0.921875 49.268515
29.075000 1.453125 49.268515
29.100000 2.484375 49.268515
29.150000 4.375000 49.268515
29.225000 5.500000 49.268515
29.325000 6.828125 49.268515
29.450000 7.296875 49.268515
29.550000 9.140625 49.268515
29.625000 9.671875 49.268515
29.725000 11.296875 49.268515
29.900000 12.031250 49.268515
29.000000 0.437500 49.414897
29.025000 1.156250 49.414897
29.050000 2.828125 49.414897
29.075000 4.312500 49.414897
29.150000 5.203125 49.414897
29.275000 6.406250 49.414897
29.400000 7.687500 49.414897
29.500000 8.218750 49.414897
29.600000 10.000000 49.414897
29.700000 11.000000 49.414897
29.825000 12.312500 49.414897
26.575000 -1.546875 49.576996
28.925000 -0.796875 49.576996
28.950000 0.734375 49.576996
28.950000 2.203125 49.576996
28.975000 2.875000 49.576996
29.075000 4.843750 49.576996
29.175000 5.515625 49.576996
29.225000 6.890625 49.576996
29.300000 7.671875 49.576996
29.425000 9.343750 49.576996
29.550000 10.093750 49.576996
29.650000 11.640625 49.576996
29.925000 12.750000 49.576996
28.825000 -0.015625 49.725790
28.850000 1.437500 49.725790
28.875000 3.109375 49.725790
28.900000 4.062500 49.725790
28.950000 5.171875 49.725790
29.025000 6.203125 49.725790
29.125000 7.796875 49.725790
29.225000 9.031250 49.725790
29.350000 9.531250 49.725790
29.475000 10.750000 49.725790
29.600000 12.062500 49.725790
28.700000 1.156250 49.885192
28.650000 2.281250 49.885192
28.675000 3.531250 49.885192
28.750000 4.218750 49.885192
28.825000 5.406250 49.885192
28.925000 6.828125 49.885192
29.000000 7.859375 49.885192
29.075000 9.671875 49.885192
29.200000 10.875000 49.885192
29.325000 11.312500 49.885192
29.625000 12.453125 49.885192
28.425000 0.671875 50.038864
28.425000 2.265625 50.038864
28.475000 2.984375 50.038864
28.550000 4.828125 50.038864
28.575000 5.484375 50.038864
28.650000 6.718750 50.038864
28.750000 8.656250 50.038864
28.850000 9.218750 50.038864
28.950000 10.343750 50.038864
29.075000 11.625000 50.038864
29.250000 13.140625 50.038864
28.125000 0.421875 50.180856
28.150000 2.062500 50.180856
28.175000 2.890625 50.180856
28.200000 4.375000 50.180856
28.225000 5.734375 50.180856
28.275000 7.000000 50.180856
28.375000 7.890625 50.180856
28.500000 8.375000 50.180856
28.600000 9.875000 50.180856
28.700000 11.187500 50.180856
28.800000 12.156250 50.180856
27.750000 0.718750 50.338015
27.750000 2.046875 50.338015
27.775000 2.843750 50.338015
27.800000 3.671875 50.338015
27.850000 4.640625 50.338015
27.950000 5.921875 50.338015
28.000000 7.750000 50.338015
28.075000 8.375000 50.338015
28.150000 10.296875 50.338015
28.250000 11.468750 50.338015
28.025000 0.296875 50.487427
28.075000 1.796875 50.487427
28.100000 3.296875 50.487427
28.175000 4.312500 50.487427
28.275000 4.984375 50.487427
28.350000 6.078125 50.487427
28.450000 7.015625 50.487427
28.575000 9.140625 50.487427
28.700000 9.546875 50.487427
28.825000 10.609375 50.487427
28.975000 11.765625 50.487427
28.625000 0.093750 50.641783
28.675000 1.046875 50.641783
28.725000 2.828125 50.641783
28.750000 3.718750 50.641783
28.825000 5.359375 50.641783
28.925000 6.812500 50.641783
29.050000 7.328125 50.641783
29.200000 8.625000 50.641783
29.325000 9.421875 50.641783
29.450000 10.984375 50.641783
29.600000 12.281250 50.641783
29.000000 -1.046875 50.798393
29.025000 0.703125 50.798393
29.075000 1.515625 50.798393
29.150000 2.531250 50.798393
29.200000 4.390625 50.798393
29.300000 5.078125 50.798393
29.400000 6.734375 50.798393
29.525000 7.234375 50.798393
29.675000 8.671875 50.798393
29.775000 9.640625 50.798393
29.925000 11.015625 50.798393
30.150000 12.171875 50.798393
29.450000 -0.656250 50.947321
29.525000 0.203125 50.947321
29.550000 2.078125 50.947321
29.575000 2.500000 50.947321
29.650000 3.656250 50.947321
29.725000 5.343750 50.947321
29.825000 6.234375 50.947321
29.925000 7.125000 50.947321
30.025000 8.406250 50.947321
30.150000 10.078125 50.947321
30.250000 10.609375 50.947321
30.425000 12.609375 50.947321
29.725000 -0.921875 51.097617
29.825000 0.218750 51.097617
29.850000 1.625000 51.097617
29.875000 3.062500 51.097617
29.925000 4.296875 51.097617
30.000000 5.312500 51.097617
30.100000 6.593750 51.097617
30.200000 7.796875 51.097617
30.325000 8.671875 51.097617
30.450000 10.015625 51.097617
30.625000 10.531250 51.097617
30.800000 12.312500 51.097617
30.075000 1.671875 51.257424
30.100000 2.328125 51.257424
30.150000 3.968750 51.257424
30.225000 4.500000 51.257424
30.325000 6.078125 51.257424
30.425000 7.609375 51.257424
30.525000 8.515625 51.257424
30.625000 9.546875 51.257424
30.750000 11.046875 51.257424
30.900000 12.171875 51.257424
48.900000 31.484375 51.257424
30.200000 0.796875 51.409353
30.275000 2.609375 51.409353
30.350000 3.156250 51.409353
30.425000 4.921875 51.409353
30.500000 6.015625 51.409353
30.600000 6.953125 51.409353
30.700000 7.968750 51.409353
30.800000 9.859375 51.409353
30.950000 10.500000 51.409353
31.125000 12.171875 51.409353
30.375000 1.531250 51.553849
30.350000 2.218750 51.553849
30.375000 3.187500 51.553849
30.475000 5.109375 51.553849
30.625000 5.421875 51.553849
30.700000 6.671875 51.553849
30.775000 8.328125 51.553849
30.950000 9.625000 51.553849
31.100000 10.437500 51.553849
31.225000 11.890625 51.553849
30.475000 -0.140625 51.710847
30.450000 0.656250 51.710847
30.500000 1.921875 51.710847
30.550000 3.500000 51.710847
30.600000 4.140625 51.710847
30.675000 5.531250 51.710847
30.750000 6.390625 51.710847
30.875000 7.421875 51.710847
31.000000 8.718750 51.710847
31.150000 9.765625 51.710847
31.250000 11.515625 51.710847
30.275000 -0.656250 51.861679
30.525000 -0.218750 51.861679
30.575000 1.015625 51.861679
30.600000 2.484375 51.861679
30.625000 3.984375 51.861679
30.700000 4.703125 51.861679
30.800000 5.765625 51.861679
30.900000 6.968750 51.861679
31.000000 8.171875 51.861679
31.125000 9.546875 51.861679
31.250000 11.000000 51.861679
31.625000 12.296875 51.861679
30.575000 0.109375 52.020408
30.600000 0.500000 52.020408
30.600000 2.265625 52.020408
30.625000 3.171875 52.020408
30.700000 4.640625 52.020408
30.775000 5.453125 52.020408
30.850000 6.468750 52.020408
30.950000 8.062500 52.020408
31.075000 9.468750 52.020408
31.175000 10.656250 52.020408
31.325000 11.359375 52.020408
30.600000 -0.171875 52.173055
30.525000 0.812500 52.173055
30.525000 1.765625 52.173055
30.600000 3.218750 52.173055
30.650000 3.968750 52.173055
30.675000 5.250000 52.173055
30.800000 6.203125 52.173055
30.925000 7.968750 52.173055
31.000000 8.609375 52.173055
31.125000 10.453125 52.173055
31.250000 11.531250 52.173055
30.400000 -0.890625 52.315726
30.500000 0.343750 52.315726
30.525000 1.796875 52.315726
30.550000 2.390625 52.315726
30.600000 4.062500 52.315726
30.675000 5.296875 52.315726
30.750000 6.453125 52.315726
30.850000 7.171875 52.315726
30.925000 8.546875 52.315726
