25.300000 -10.608887 10.583586
25.200000 -11.347656 10.583586
25.200000 -10.211426 10.583586
25.200000 -10.325195 10.583586
25.300000 -9.438965 10.583586
25.300000 -7.302734 10.583586
25.300000 -8.041504 10.583586
25.400000 -7.530273 10.583586
25.400000 -6.144043 10.583586
25.500000 -6.382812 10.583586
25.600000 -4.371582 10.583586
25.600000 -4.610352 10.583586
25.700000 -3.349121 10.583586
25.800000 -3.212891 10.583586
25.800000 -3.326660 10.583586
25.900000 -1.815430 10.583586
25.900000 -1.929199 10.583586
26.000000 -0.542969 10.583586
26.000000 -0.281738 10.583586
26.000000 -0.520508 10.583586
28.300000 -29.290039 10.736887
28.100000 -28.402344 10.736887
27.900000 -28.014648 10.736887
27.800000 -27.501953 10.736887
27.600000 -26.989258 10.736887
27.600000 -25.351562 10.736887
27.500000 -25.463867 10.736887
27.400000 -24.201172 10.736887
27.200000 -24.188477 10.736887
27.000000 -23.300781 10.736887
26.900000 -22.413086 10.736887
26.700000 -22.025391 10.736887
26.600000 -20.262695 10.736887
26.400000 -20.000000 10.736887
26.400000 -19.862305 10.736887
26.200000 -18.349609 10.736887
26.100000 -18.336914 10.736887
25.900000 -17.699219 10.736887
25.800000 -17.436523 10.736887
25.700000 -16.548828 10.736887
25.600000 -15.661133 10.736887
25.500000 -15.398438 10.736887
25.500000 -13.760742 10.736887
25.400000 -12.748047 10.736887
25.300000 -13.485352 10.736887
25.300000 -11.597656 10.736887
25.200000 -12.084961 10.736887
25.200000 -10.697266 10.736887
25.200000 -10.934570 10.736887
25.200000 -10.296875 10.736887
25.200000 -9.790039 10.736887
25.200000 -9.158203 10.736887
25.300000 -7.276367 10.736887
25.400000 -7.894531 10.736887
25.400000 -7.137695 10.736887
25.400000 -6.005859 10.736887
25.500000 -5.624023 10.736887
25.600000 -5.242188 10.736887
25.700000 -4.860352 10.736887
25.700000 -2.603516 10.736887
25.700000 -2.221680 10.736887
25.800000 -1.714844 10.736887
25.900000 -0.958008 10.736887
25.800000 -0.326172 10.736887
25.900000 -1.194336 10.736887
28.500000 -29.828125 10.863543
28.400000 -29.814453 10.863543
28.200000 -29.425781 10.863543
28.000000 -28.537109 10.863543
27.800000 -27.398438 10.863543
27.700000 -27.009766 10.863543
27.600000 -25.871094 10.863543
27.500000 -25.482422 10.863543
27.400000 -24.843750 10.863543
27.300000 -24.707031 10.863543
27.100000 -24.070312 10.863543
26.900000 -22.183594 10.863543
26.700000 -22.171875 10.863543
26.600000 -21.660156 10.863543
26.500000 -20.523438 10.863543
26.400000 -19.636719 10.863543
26.200000 -19.250000 10.863543
26.100000 -19.238281 10.863543
26.000000 -17.601562 10.863543
25.800000 -16.714844 10.863543
25.700000 -16.453125 10.863543
25.700000 -16.691406 10.863543
25.600000 -15.929688 10.863543
25.500000 -15.542969 10.863543
25.400000 -14.656250 10.863543
25.400000 -14.019531 10.863543
25.300000 -12.132812 10.863543
25.200000 -12.746094 10.863543
25.200000 -11.984375 10.863543
25.200000 -11.347656 10.863543
25.200000 -10.085938 10.863543
25.200000 -9.949219 10.863543
25.200000 -9.312500 10.863543
25.200000 -9.175781 10.863543
25.300000 -7.539062 10.863543
25.300000 -7.027344 10.863543
25.400000 -5.890625 10.863543
25.400000 -6.503906 10.863543
25.500000 -4.617188 10.863543
25.600000 -4.355469 10.863543
25.700000 -4.093750 10.863543
25.700000 -2.962402 10.863543
25.800000 -2.456055 10.863543
25.800000 -1.449707 10.863543
25.800000 -1.693359 10.863543
25.800000 -1.562012 10.863543
25.900000 -0.305664 10.863543
28.200000 -29.343750 11.019010
28.100000 -29.082031 11.019010
27.900000 -28.445312 11.019010
27.800000 -27.058594 11.019010
27.600000 -27.046875 11.019010
27.600000 -25.535156 11.019010
27.500000 -25.023438 11.019010
27.300000 -24.761719 11.019010
27.200000 -23.625000 11.019010
27.000000 -23.113281 11.019010
26.900000 -22.851562 11.019010
26.700000 -21.964844 11.019010
26.500000 -20.828125 11.019010
26.400000 -20.191406 11.019010
26.300000 -20.054688 11.019010
26.200000 -18.292969 11.019010
26.000000 -19.031250 11.019010
25.900000 -17.395508 11.019010
25.800000 -17.259766 11.019010
25.700000 -16.999023 11.019010
25.600000 -15.363281 11.019010
25.500000 -14.852539 11.019010
25.400000 -13.716797 11.019010
25.300000 -13.581055 11.019010
25.300000 -13.070312 11.019010
25.200000 -12.809570 11.019010
25.200000 -12.548828 11.019010
25.200000 -10.288086 11.019010
25.200000 -9.902344 11.019010
25.100000 -10.516602 11.019010
25.100000 -8.505859 11.019010
25.200000 -8.495117 11.019010
25.200000 -8.734375 11.019010
25.300000 -8.098633 11.019010
25.300000 -6.462891 11.019010
25.400000 -5.952148 11.019010
25.400000 -5.441406 11.019010
25.500000 -4.555664 11.019010
25.600000 -4.419922 11.019010
25.700000 -3.659180 11.019010
25.700000 -3.648438 11.019010
25.700000 -2.512695 11.019010
25.800000 -2.251953 11.019010
25.800000 -1.866211 11.019010
25.800000 -0.730469 11.019010
28.400000 -29.826172 11.159000
28.200000 -29.065430 11.159000
28.000000 -28.304688 11.159000
27.900000 -27.418945 11.159000
27.700000 -26.658203 11.159000
27.600000 -26.272461 11.159000
25.600000 -15.225586 11.159000
25.500000 -14.589844 11.159000
25.400000 -14.079102 11.159000
25.300000 -13.943359 11.159000
25.200000 -13.307617 11.159000
25.200000 -12.290039 11.159000
25.100000 -11.908203 11.159000
25.100000 -11.151367 11.159000
25.100000 -9.894531 11.159000
25.100000 -9.137695 11.159000
25.200000 -8.505859 11.159000
25.200000 -8.374023 11.159000
25.200000 -5.867188 11.159000
25.300000 -7.235352 11.159000
25.300000 -5.978516 11.159000
25.500000 -5.339844 11.159000
28.200000 -28.664062 11.324120
28.000000 -28.777344 11.324120
27.800000 -27.640625 11.324120
27.700000 -26.631836 11.324120
27.600000 -26.498047 11.324120
27.500000 -25.114258 11.324120
27.400000 -25.230469 11.324120
27.300000 -24.721680 11.324120
27.100000 -23.712891 11.324120
27.000000 -23.329102 11.324120
26.800000 -22.570312 11.324120
26.700000 -21.936523 11.324120
26.500000 -21.677734 11.324120
26.400000 -19.793945 11.324120
26.200000 -19.660156 11.324120
26.100000 -19.276367 11.324120
26.000000 -19.017578 11.324120
25.900000 -18.508789 11.324120
25.800000 -16.375000 11.324120
25.700000 -16.241211 11.324120
25.600000 -15.982422 11.324120
25.500000 -15.223633 11.324120
25.400000 -14.089844 11.324120
25.300000 -14.456055 11.324120
25.200000 -13.447266 11.324120
25.200000 -12.438477 11.324120
25.100000 -12.554688 11.324120
25.100000 -11.920898 11.324120
25.100000 -11.037109 11.324120
25.100000 -8.653320 11.324120
25.100000 -9.394531 11.324120
25.100000 -7.885742 11.324120
25.100000 -8.751953 11.324120
25.200000 -7.243164 11.324120
25.300000 -7.234375 11.324120
25.300000 -6.353516 11.324120
25.400000 -5.347656 11.324120
25.400000 -4.716797 11.324120
25.500000 -3.960938 11.324120
25.600000 -4.330078 11.324120
25.700000 -3.324219 11.324120
25.700000 -2.818359 11.324120
25.700000 -1.187500 11.324120
25.700000 -1.931641 11.324120
25.800000 -0.800781 11.324120
25.800000 -0.544922 11.324120
28.300000 -29.419922 11.457119
28.100000 -28.905762 11.457119
27.900000 -27.891602 11.457119
27.700000 -28.002441 11.457119
27.600000 -26.363281 11.457119
27.600000 -26.224121 11.457119
27.500000 -25.834961 11.457119
27.400000 -25.445801 11.457119
27.200000 -24.806641 11.457119
27.100000 -23.792480 11.457119
26.900000 -23.028320 11.457119
26.700000 -22.389160 11.457119
26.600000 -21.625000 11.457119
26.500000 -21.363770 11.457119
26.300000 -19.852539 11.457119
26.100000 -19.966309 11.457119
26.100000 -19.080078 11.457119
25.900000 -17.568848 11.457119
25.800000 -18.057617 11.457119
25.700000 -16.921387 11.457119
25.600000 -15.410156 11.457119
25.500000 -14.648926 11.457119
25.400000 -15.012695 11.457119
25.300000 -13.876465 11.457119
25.200000 -13.365234 11.457119
25.200000 -13.479004 11.457119
25.100000 -11.717773 11.457119
25.100000 -11.206543 11.457119
25.000000 -10.070312 11.457119
25.000000 -10.059082 11.457119
25.000000 -9.922852 11.457119
25.100000 -7.661621 11.457119
25.100000 -8.150391 11.457119
25.200000 -8.264160 11.457119
25.200000 -7.627930 11.457119
25.300000 -6.741699 11.457119
25.300000 -6.230469 11.457119
25.400000 -4.844238 11.457119
25.400000 -4.083008 11.457119
25.500000 -3.571777 11.457119
25.600000 -3.935547 11.457119
25.600000 -1.799316 11.457119
25.700000 -1.663086 11.457119
25.700000 -1.526855 11.457119
25.800000 -1.390625 11.457119
25.800000 -0.383301 11.457119
25.700000 -0.250977 11.457119
28.200000 -29.326172 11.607119
28.100000 -29.313477 11.607119
27.900000 -28.300781 11.607119
27.800000 -28.038086 11.607119
27.600000 -26.400391 11.607119
27.500000 -25.762695 11.607119
27.500000 -26.125000 11.607119
27.400000 -24.612305 11.607119
27.200000 -24.099609 11.607119
27.000000 -24.086914 11.607119
26.900000 -23.449219 11.607119
26.700000 -21.686523 11.607119
26.600000 -21.798828 11.607119
26.400000 -21.536133 11.607119
26.300000 -19.898438 11.607119
26.200000 -20.135742 11.607119
26.000000 -18.248047 11.607119
25.900000 -18.235352 11.607119
25.800000 -17.847656 11.607119
25.700000 -16.084961 11.607119
25.600000 -16.697266 11.607119
25.500000 -16.184570 11.607119
25.400000 -14.296875 11.607119
25.300000 -13.538086 11.607119
25.200000 -12.279297 11.607119
25.100000 -12.770508 11.607119
25.100000 -13.011719 11.607119
25.100000 -12.127930 11.607119
25.000000 -10.244141 11.607119
25.000000 -10.610352 11.607119
25.000000 -10.476562 11.607119
25.100000 -9.592773 11.607119
25.100000 -8.833984 11.607119
25.100000 -8.325195 11.607119
25.200000 -7.566406 11.607119
25.200000 -7.182617 11.607119
25.300000 -5.048828 11.607119
25.400000 -5.790039 11.607119
25.400000 -5.156250 11.607119
25.500000 -3.522461 11.607119
25.600000 -3.388672 11.607119
25.700000 -3.254883 11.607119
25.600000 -2.746094 11.607119
25.700000 -2.237305 11.607119
25.700000 -1.353516 11.607119
25.700000 -0.844727 11.607119
28.200000 -29.593750 11.743125
28.100000 -28.955566 11.743125
27.900000 -28.692383 11.743125
27.800000 -27.304199 11.743125
27.600000 -27.541016 11.743125
27.500000 -26.652832 11.743125
27.500000 -25.264648 11.743125
27.400000 -24.751465 11.743125
27.200000 -24.113281 11.743125
27.000000 -22.975098 11.743125
26.800000 -23.086914 11.743125
26.700000 -22.823730 11.743125
26.600000 -21.185547 11.743125
26.400000 -21.297363 11.743125
26.300000 -20.034180 11.743125
26.200000 -19.895996 11.743125
26.000000 -18.632812 11.743125
25.900000 -18.744629 11.743125
25.800000 -16.606445 11.743125
25.700000 -16.218262 11.743125
25.500000 -15.205078 11.743125
25.400000 -14.816895 11.743125
25.300000 -15.178711 11.743125
25.300000 -12.790527 11.743125
25.200000 -13.152344 11.743125
25.100000 -12.764160 11.743125
25.100000 -13.000977 11.743125
25.000000 -11.862793 11.743125
25.000000 -11.224609 11.743125
25.000000 -10.961426 11.743125
25.000000 -9.948242 11.743125
25.000000 -7.310059 11.743125
25.100000 -9.046875 11.743125
25.100000 -6.914551 11.743125
25.200000 -7.032227 11.743125
25.200000 -5.649902 11.743125
25.200000 -6.517578 11.743125
25.300000 -4.135254 11.743125
25.400000 -4.502930 11.743125
25.500000 -3.995605 11.743125
25.500000 -3.863281 11.743125
25.600000 -2.980957 11.743125
25.600000 -2.223633 11.743125
25.600000 -1.591309 11.743125
25.700000 -0.583984 11.743125
25.700000 -0.194336 11.743125
28.200000 -29.506836 11.887120
28.100000 -28.743652 11.887120
27.900000 -28.855469 11.887120
27.800000 -27.967285 11.887120
27.600000 -27.329102 11.887120
27.500000 -26.440918 11.887120
27.400000 -25.802734 11.887120
27.400000 -25.039551 11.887120
27.200000 -23.776367 11.887120
27.000000 -23.138184 11.887120
26.800000 -23.500000 11.887120
26.700000 -22.487305 11.887120
26.600000 -22.224609 11.887120
26.400000 -20.461914 11.887120
26.300000 -20.074219 11.887120
26.200000 -18.811523 11.887120
26.000000 -19.673828 11.887120
25.900000 -18.286133 11.887120
25.700000 -18.148438 11.887120
25.600000 -16.885742 11.887120
25.500000 -15.623047 11.887120
25.400000 -15.360352 11.887120
25.300000 -14.347656 11.887120
25.300000 -14.709961 11.887120
25.200000 -13.822266 11.887120
25.100000 -12.559570 11.887120
25.100000 -11.921875 11.887120
25.000000 -11.034180 11.887120
25.000000 -10.521484 11.887120
25.000000 -10.383789 11.887120
25.000000 -10.121094 11.887120
25.000000 -9.733398 11.887120
25.000000 -7.720703 11.887120
25.100000 -7.833008 11.887120
25.100000 -7.945312 11.887120
25.200000 -6.182617 11.887120
25.200000 -6.544922 11.887120
25.400000 -5.532227 11.887120
25.400000 -4.269531 11.887120
25.400000 -4.006836 11.887120
25.500000 -2.994141 11.887120
25.500000 -2.606445 11.887120
25.600000 -2.843750 11.887120
25.600000 -0.962402 11.887120
25.600000 -1.581055 11.887120
25.700000 -1.074707 11.887120
25.700000 -0.443359 11.887120
28.200000 -29.716797 12.028119
28.100000 -29.453613 12.028119
27.900000 -28.315430 12.028119
27.700000 -28.052246 12.028119
27.600000 -26.914062 12.028119
27.500000 -26.775879 12.028119
27.400000 -26.012695 12.028119
27.300000 -24.749512 12.028119
27.100000 -24.361328 12.028119
27.000000 -23.223145 12.028119
26.800000 -23.334961 12.028119
26.700000 -22.821777 12.028119
26.500000 -22.058594 12.028119
26.400000 -21.420410 12.028119
26.300000 -20.407227 12.028119
26.100000 -19.144043 12.028119
25.900000 -18.505859 12.028119
25.800000 -18.367676 12.028119
25.700000 -17.479492 12.028119
25.600000 -15.716309 12.028119
25.500000 -15.328125 12.028119
25.400000 -16.315918 12.028119
25.300000 -14.178711 12.028119
25.200000 -14.666504 12.028119
25.200000 -13.654297 12.028119
25.100000 -13.267090 12.028119
25.100000 -13.004883 12.028119
25.000000 -12.117676 12.028119
25.000000 -10.980469 12.028119
25.000000 -10.843262 12.028119
25.000000 -9.206055 12.028119
25.000000 -9.818848 12.028119
25.000000 -9.056641 12.028119
25.100000 -7.794434 12.028119
25.100000 -7.782227 12.028119
25.200000 -6.520020 12.028119
25.200000 -4.507812 12.028119
25.300000 -4.245605 12.028119
25.400000 -4.108398 12.028119
25.400000 -4.721191 12.028119
25.500000 -2.833984 12.028119
25.500000 -3.446777 12.028119
25.600000 -1.684570 12.028119
25.600000 -1.172363 12.028119
25.600000 -1.285156 12.028119
25.600000 -0.647949 12.028119
28.200000 -29.803711 12.193120
28.000000 -29.291504 12.193120
27.900000 -28.654297 12.193120
27.700000 -27.767090 12.193120
27.600000 -27.379883 12.193120
27.400000 -26.242676 12.193120
27.400000 -26.105469 12.193120
27.300000 -24.968262 12.193120
27.100000 -24.456055 12.193120
27.000000 -23.943848 12.193120
26.800000 -23.431641 12.193120
26.600000 -22.169434 12.193120
26.500000 -22.032227 12.193120
26.400000 -20.520020 12.193120
26.200000 -20.757812 12.193120
26.100000 -19.120605 12.193120
25.900000 -19.483398 12.193120
25.800000 -18.221191 12.193120
25.700000 -17.458984 12.193120
25.600000 -17.446777 12.193120
25.500000 -15.559570 12.193120
25.400000 -15.047363 12.193120
25.300000 -15.285156 12.193120
25.200000 -13.522949 12.193120
25.200000 -14.135742 12.193120
25.100000 -12.998535 12.193120
25.000000 -12.236328 12.193120
25.000000 -10.224121 12.193120
25.000000 -10.961914 12.193120
25.000000 -10.699707 12.193120
25.000000 -9.687500 12.193120
25.000000 -9.805664 12.193120
25.000000 -7.673828 12.193120
25.000000 -7.541992 12.193120
25.100000 -6.535156 12.193120
25.200000 -7.278320 12.193120
25.200000 -5.396484 12.193120
25.300000 -4.014648 12.193120
25.400000 -3.882812 12.193120
25.400000 -4.625977 12.193120
25.500000 -3.744141 12.193120
25.500000 -2.362305 12.193120
25.500000 -2.605469 12.193120
25.600000 -2.098633 12.193120
25.600000 -1.341797 12.193120
25.600000 -0.834961 12.193120
28.100000 -28.847656 12.316120
27.900000 -28.960938 12.316120
27.700000 -28.074219 12.316120
27.600000 -27.437500 12.316120
27.400000 -26.800781 12.316120
27.400000 -26.414062 12.316120
27.300000 -25.777344 12.316120
27.200000 -24.890625 12.316120
27.000000 -24.005859 12.316120
26.800000 -23.121094 12.316120
26.700000 -22.986328 12.316120
26.500000 -22.226562 12.316120
26.400000 -21.841797 12.316120
26.300000 -20.707031 12.316120
26.100000 -19.447266 12.316120
26.000000 -18.437500 12.316120
25.800000 -19.052734 12.316120
25.700000 -16.667969 12.316120
25.600000 -17.408203 12.316120
25.500000 -16.648438 12.316120
25.400000 -16.263672 12.316120
25.300000 -15.253906 12.316120
25.300000 -14.119141 12.316120
25.200000 -14.609375 12.316120
25.100000 -13.724609 12.316120
25.000000 -13.089844 12.316120
25.000000 -12.205078 12.316120
25.000000 -9.570312 12.316120
25.000000 -9.810547 12.316120
25.000000 -10.050781 12.316120
24.900000 -8.041016 12.316120
25.000000 -8.656250 12.316120
25.000000 -8.396484 12.316120
25.100000 -7.386719 12.316120
25.100000 -7.626953 12.316120
25.200000 -4.992188 12.316120
25.200000 -6.357422 12.316120
25.300000 -4.222656 12.316120
25.400000 -4.837891 12.316120
25.400000 -4.078125 12.316120
25.500000 -3.947754 12.316120
25.500000 -3.067383 12.316120
25.600000 -2.687012 12.316120
25.600000 -0.681641 12.316120
25.600000 -1.051270 12.316120
25.600000 -0.420898 12.316120
28.200000 -29.511719 12.471121
28.000000 -29.375000 12.471121
27.800000 -27.738281 12.471121
27.600000 -27.226562 12.471121
27.500000 -27.339844 12.471121
27.400000 -26.328125 12.471121
27.400000 -25.941406 12.471121
27.200000 -24.804688 12.471121
27.000000 -24.167969 12.471121
27.000000 -23.906250 12.471121
26.800000 -22.394531 12.471121
26.600000 -21.507812 12.471121
26.500000 -21.496094 12.471121
26.300000 -19.984375 12.471121
26.200000 -19.222656 12.471121
26.000000 -19.335938 12.471121
25.900000 -18.449219 12.471121
25.800000 -18.437500 12.471121
25.700000 -17.926270 12.471121
25.500000 -16.040039 12.471121
25.400000 -15.903809 12.471121
25.400000 -16.017578 12.471121
25.300000 -14.256348 12.471121
25.200000 -14.870117 12.471121
25.100000 -14.233887 12.471121
25.100000 -13.597656 12.471121
25.000000 -11.336426 12.471121
25.000000 -12.075195 12.471121
24.900000 -10.938965 12.471121
25.000000 -9.802734 12.471121
25.000000 -9.791504 12.471121
25.000000 -7.655273 12.471121
25.000000 -8.394043 12.471121
25.000000 -7.632812 12.471121
25.100000 -6.121582 12.471121
25.200000 -5.735352 12.471121
25.200000 -5.224121 12.471121
25.300000 -5.962891 12.471121
25.400000 -3.451660 12.471121
25.400000 -3.190430 12.471121
25.500000 -3.429199 12.471121
25.500000 -1.792969 12.471121
25.500000 -2.406738 12.471121
25.600000 -1.395508 12.471121
25.600000 -0.384277 12.471121
25.600000 -0.873047 12.471121
28.100000 -29.026855 12.626119
28.000000 -29.016602 12.626119
27.800000 -28.631348 12.626119
27.600000 -27.371094 12.626119
27.500000 -26.485840 12.626119
27.400000 -25.725586 12.626119
27.300000 -25.215332 12.626119
27.100000 -24.330078 12.626119
27.000000 -24.694824 12.626119
26.900000 -23.809570 12.626119
26.700000 -22.799316 12.626119
26.600000 -22.164062 12.626119
26.400000 -21.653809 12.626119
26.300000 -20.893555 12.626119
26.200000 -20.758301 12.626119
26.000000 -20.123047 12.626119
25.900000 -19.112793 12.626119
25.800000 -18.602539 12.626119
25.700000 -17.217285 12.626119
25.500000 -16.707031 12.626119
25.400000 -16.196777 12.626119
25.300000 -15.936523 12.626119
25.300000 -15.301270 12.626119
25.200000 -14.291016 12.626119
25.100000 -12.905762 12.626119
25.100000 -13.520508 12.626119
25.000000 -12.135254 12.626119
25.000000 -12.125000 12.626119
24.900000 -9.617676 12.626119
24.900000 -10.735352 12.626119
24.900000 -8.728027 12.626119
25.000000 -8.345703 12.626119
25.000000 -6.838379 12.626119
25.000000 -7.331055 12.626119
25.100000 -6.823730 12.626119
25.200000 -4.941406 12.626119
25.200000 -5.934082 12.626119
25.300000 -5.551758 12.626119
25.400000 -4.919434 12.626119
25.400000 -4.537109 12.626119
25.500000 -3.779785 12.626119
25.500000 -3.397461 12.626119
25.600000 -2.265137 12.626119
25.600000 -1.632812 12.626119
25.600000 -1.000488 12.626119
25.600000 -0.868164 12.626119
28.200000 -29.468262 12.759121
28.000000 -29.208984 12.759121
27.800000 -28.699707 12.759121
27.600000 -28.065430 12.759121
27.500000 -27.431152 12.759121
27.400000 -26.421875 12.759121
27.400000 -25.161621 12.759121
27.200000 -24.276367 12.759121
27.100000 -24.266113 12.759121
26.900000 -24.130859 12.759121
26.800000 -23.495605 12.759121
26.600000 -22.485352 12.759121
26.500000 -21.600098 12.759121
26.400000 -21.339844 12.759121
26.100000 -20.319336 12.759121
25.900000 -19.309082 12.759121
25.800000 -18.173828 12.759121
25.700000 -17.913574 12.759121
25.500000 -17.403320 12.759121
25.400000 -16.143066 12.759121
25.400000 -16.007812 12.759121
25.300000 -15.622559 12.759121
25.200000 -13.487305 12.759121
25.100000 -13.102051 12.759121
25.100000 -12.341797 12.759121
25.000000 -12.831543 12.759121
25.000000 -11.821289 12.759121
24.900000 -11.311035 12.759121
24.900000 -10.175781 12.759121
24.900000 -9.915527 12.759121
25.000000 -9.655273 12.759121
25.000000 -7.770020 12.759121
25.000000 -7.759766 12.759121
25.100000 -7.249512 12.759121
25.100000 -6.614258 12.759121
25.200000 -5.729004 12.759121
25.300000 -5.968750 12.759121
25.300000 -5.337402 12.759121
25.400000 -3.581055 12.759121
25.500000 -3.824707 12.759121
25.500000 -3.568359 12.759121
25.500000 -1.687012 12.759121
25.600000 -1.805664 12.759121
25.600000 -1.174316 12.759121
25.600000 -1.042969 12.759121
28.100000 -29.660156 12.896119
28.000000 -29.271484 12.896119
27.800000 -28.632812 12.896119
27.600000 -27.244141 12.896119
27.400000 -26.230469 12.896119
27.400000 -26.341797 12.896119
27.300000 -25.578125 12.896119
27.100000 -25.064453 12.896119
27.000000 -24.300781 12.896119
26.800000 -23.787109 12.896119
26.700000 -23.273438 12.896119
26.600000 -22.134766 12.896119
26.400000 -20.621094 12.896119
26.300000 -21.107422 12.896119
26.100000 -19.718750 12.896119
26.000000 -19.707031 12.896119
25.800000 -18.070312 12.896119
25.700000 -18.183594 12.896119
25.600000 -18.046875 12.896119
25.500000 -15.910156 12.896119
25.400000 -16.273438 12.896119
25.300000 -16.011719 12.896119
25.300000 -13.625000 12.896119
25.200000 -14.113281 12.896119
25.100000 -13.476562 12.896119
25.000000 -11.214844 12.896119
25.000000 -11.578125 12.896119
25.000000 -11.441406 12.896119
24.900000 -9.554688 12.896119
24.900000 -10.667969 12.896119
24.900000 -8.781250 12.896119
25.000000 -8.894531 12.896119
25.000000 -6.507812 12.896119
25.000000 -8.246094 12.896119
25.100000 -7.359375 12.896119
25.200000 -6.722656 12.896119
25.200000 -6.585938 12.896119
25.300000 -4.824219 12.896119
25.300000 -3.437500 12.896119
25.400000 -4.300781 12.896119
25.500000 -3.039062 12.896119
25.500000 -3.027344 12.896119
25.600000 -2.265625 12.896119
25.600000 -2.003906 12.896119
25.600000 -0.367188 12.896119
25.600000 -0.105469 12.896119
25.600000 -0.093750 12.896119
28.100000 -29.780762 13.057120
27.900000 -28.643555 13.057120
27.700000 -28.381348 13.057120
27.500000 -26.994141 13.057120
27.400000 -27.231934 13.057120
27.400000 -25.344727 13.057120
27.300000 -25.582520 13.057120
27.100000 -24.195312 13.057120
27.000000 -23.308105 13.057120
26.800000 -22.545898 13.057120
26.600000 -23.033691 13.057120
26.500000 -22.521484 13.057120
26.400000 -21.259277 13.057120
26.200000 -20.997070 13.057120
26.100000 -20.359863 13.057120
25.900000 -18.222656 13.057120
25.800000 -18.210449 13.057120
25.700000 -17.198242 13.057120
25.600000 -16.811035 13.057120
25.500000 -16.298828 13.057120
25.400000 -16.161621 13.057120
25.300000 -15.399414 13.057120
25.200000 -14.512207 13.057120
25.200000 -14.375000 13.057120
25.100000 -12.867188 13.057120
25.000000 -12.984375 13.057120
25.000000 -10.601562 13.057120
24.900000 -10.093750 13.057120
24.900000 -8.960938 13.057120
24.900000 -9.703125 13.057120
24.900000 -8.945312 13.057120
25.000000 -8.062500 13.057120
25.000000 -6.679688 13.057120
25.000000 -7.296875 13.057120
25.100000 -7.039062 13.057120
25.200000 -7.031250 13.057120
25.200000 -4.898438 13.057120
25.300000 -5.390625 13.057120
25.400000 -3.382812 13.057120
25.400000 -4.000000 13.057120
25.500000 -3.617188 13.057120
25.500000 -2.609375 13.057120
25.500000 -1.476562 13.057120
25.600000 -2.093750 13.057120
25.600000 -0.835938 13.057120
25.600000 -0.203125 13.057120
28.100000 -29.125000 13.213119
27.900000 -28.490234 13.213119
27.700000 -27.480469 13.213119
27.500000 -27.595703 13.213119
27.400000 -26.460938 13.213119
27.300000 -25.451172 13.213119
27.300000 -25.691406 13.213119
27.100000 -25.181641 13.213119
27.000000 -23.921875 13.213119
26.800000 -23.037109 13.213119
26.600000 -23.027344 13.213119
26.500000 -22.142578 13.213119
26.400000 -21.757812 13.213119
26.200000 -20.998047 13.213119
26.100000 -19.113281 13.213119
25.900000 -18.978516 13.213119
25.800000 -18.718750 13.213119
25.700000 -18.208984 13.213119
25.600000 -17.074219 13.213119
25.500000 -15.939453 13.213119
25.400000 -16.304688 13.213119
25.300000 -15.919922 13.213119
25.200000 -14.910156 13.213119
25.200000 -12.400391 13.213119
25.100000 -13.390625 13.213119
25.000000 -12.630859 13.213119
25.000000 -11.871094 13.213119
24.900000 -11.861328 13.213119
24.900000 -10.726562 13.213119
24.900000 -10.591797 13.213119
24.900000 -9.457031 13.213119
25.000000 -9.572266 13.213119
25.000000 -8.062500 13.213119
25.000000 -6.931641 13.213119
25.100000 -6.675781 13.213119
25.200000 -6.669922 13.213119
25.200000 -6.289062 13.213119
25.300000 -5.283203 13.213119
25.300000 -5.277344 13.213119
25.400000 -3.646484 13.213119
25.500000 -3.890625 13.213119
25.500000 -3.134766 13.213119
25.500000 -2.628906 13.213119
25.600000 -1.123047 13.213119
25.600000 -0.742188 13.213119
25.600000 -0.736328 13.213119
28.000000 -28.895508 13.342120
27.900000 -28.882812 13.342120
27.700000 -27.870117 13.342120
27.500000 -26.857422 13.342120
27.400000 -26.219727 13.342120
27.300000 -26.082031 13.342120
27.200000 -24.319336 13.342120
27.000000 -24.681641 13.342120
26.900000 -23.168945 13.342120
26.700000 -22.906250 13.342120
26.600000 -22.521973 13.342120
26.400000 -21.762695 13.342120
26.300000 -21.628418 13.342120
26.200000 -20.744141 13.342120
26.000000 -18.734863 13.342120
25.900000 -18.475586 13.342120
25.800000 -18.591309 13.342120
25.700000 -16.957031 13.342120
25.600000 -16.072754 13.342120
25.500000 -15.938477 13.342120
25.400000 -16.054199 13.342120
25.300000 -15.669922 13.342120
25.200000 -15.035645 13.342120
25.200000 -14.276367 13.342120
25.100000 -12.517090 13.342120
25.100000 -12.632812 13.342120
25.000000 -12.498535 13.342120
24.900000 -11.239258 13.342120
24.900000 -10.729980 13.342120
24.900000 -9.095703 13.342120
25.000000 -7.461426 13.342120
25.000000 -8.077148 13.342120
25.000000 -7.567871 13.342120
25.100000 -7.683594 13.342120
25.100000 -6.299316 13.342120
25.200000 -6.540039 13.342120
25.300000 -4.905762 13.342120
25.300000 -5.271484 13.342120
25.400000 -4.637207 13.342120
25.500000 -4.002930 13.342120
25.500000 -3.368652 13.342120
25.500000 -1.859375 13.342120
25.500000 -1.103027 13.342120
25.600000 -0.096680 13.342120
25.600000 -0.840332 13.342120
25.600000 -0.208984 13.342120
27.400000 -26.332031 13.483120
27.400000 -25.695312 13.483120
27.200000 -25.183594 13.483120
27.100000 -24.921875 13.483120
27.000000 -24.660156 13.483120
26.800000 -23.648438 13.483120
26.700000 -22.136719 13.483120
26.500000 -21.500000 13.483120
26.400000 -21.613281 13.483120
26.300000 -21.476562 13.483120
26.100000 -20.339844 13.483120
26.000000 -19.078125 13.483120
25.900000 -17.816406 13.483120
25.700000 -18.304688 13.483120
25.600000 -17.292969 13.483120
25.500000 -16.906250 13.483120
25.400000 -15.270508 13.483120
25.300000 -15.134766 13.483120
25.300000 -15.124023 13.483120
25.200000 -13.238281 13.483120
25.100000 -12.977539 13.483120
25.000000 -12.966797 13.483120
25.000000 -12.706055 13.483120
25.000000 -11.945312 13.483120
24.900000 -9.934570 13.483120
24.900000 -10.798828 13.483120
25.000000 -9.788086 13.483120
25.000000 -9.277344 13.483120
25.000000 -8.641602 13.483120
25.000000 -7.255859 13.483120
25.100000 -7.120117 13.483120
25.200000 -7.234375 13.483120
25.200000 -4.723633 13.483120
25.300000 -5.712891 13.483120
25.400000 -5.452148 13.483120
25.400000 -3.316406 13.483120
25.400000 -2.930664 13.483120
25.500000 -1.919922 13.483120
25.500000 -1.909180 13.483120
25.600000 -2.273438 13.483120
25.600000 -1.637695 13.483120
25.600000 -0.001953 13.483120
27.500000 -27.563965 13.637120
27.400000 -26.925781 13.637120
27.300000 -25.662598 13.637120
27.100000 -25.149414 13.637120
27.000000 -24.761230 13.637120
26.900000 -23.373047 13.637120
26.700000 -22.609863 13.637120
26.600000 -22.596680 13.637120
26.400000 -21.958496 13.637120
26.300000 -20.695312 13.637120
26.200000 -20.432129 13.637120
26.000000 -19.168945 13.637120
25.900000 -19.155762 13.637120
25.800000 -17.517578 13.637120
25.700000 -18.129395 13.637120
25.600000 -16.991211 13.637120
25.500000 -16.728027 13.637120
25.400000 -14.464844 13.637120
25.300000 -15.326660 13.637120
25.200000 -13.938477 13.637120
25.100000 -12.925293 13.637120
25.100000 -13.162109 13.637120
25.100000 -10.773926 13.637120
25.000000 -9.885742 13.637120
24.900000 -10.747559 13.637120
24.900000 -10.609375 13.637120
25.000000 -9.226074 13.637120
25.000000 -9.342773 13.637120
25.000000 -8.709473 13.637120
25.000000 -6.826172 13.637120
25.100000 -5.442871 13.637120
25.100000 -5.684570 13.637120
25.200000 -6.551270 13.637120
25.300000 -6.167969 13.637120
25.400000 -3.659668 13.637120
25.400000 -4.401367 13.637120
25.500000 -3.643066 13.637120
25.500000 -3.259766 13.637120
25.500000 -2.876465 13.637120
25.600000 -0.993164 13.637120
25.600000 -0.984863 13.637120
25.600000 -0.601562 13.637120
27.400000 -25.790039 13.769119
27.300000 -26.027832 13.769119
27.200000 -25.390625 13.769119
27.000000 -23.877441 13.769119
26.900000 -23.989258 13.769119
26.700000 -23.226074 13.769119
26.600000 -22.462891 13.769119
26.400000 -21.699707 13.769119
26.300000 -20.311523 13.769119
26.200000 -19.548340 13.769119
26.000000 -19.910156 13.769119
25.900000 -19.146973 13.769119
25.800000 -17.508789 13.769119
25.700000 -17.745605 13.769119
25.600000 -17.232422 13.769119
25.600000 -16.844238 13.769119
25.500000 -15.956055 13.769119
25.400000 -15.067871 13.769119
25.300000 -14.804688 13.769119
25.200000 -13.541504 13.769119
25.100000 -12.528320 13.769119
25.100000 -13.015137 13.769119
25.100000 -12.376953 13.769119
25.000000 -11.613770 13.769119
24.900000 -9.212402 13.769119
25.000000 -8.574219 13.769119
25.000000 -9.061035 13.769119
25.000000 -8.172852 13.769119
25.100000 -6.909668 13.769119
25.200000 -6.271484 13.769119
25.300000 -4.883301 13.769119
25.300000 -5.995117 13.769119
25.400000 -5.106934 13.769119
25.400000 -4.593750 13.769119
25.500000 -2.460938 13.769119
25.500000 -2.203125 13.769119
25.500000 -2.820312 13.769119
25.600000 -2.062500 13.769119
25.600000 -1.429688 13.769119
25.600000 -0.921875 13.769119
27.400000 -26.583984 13.911119
27.400000 -25.945312 13.911119
27.300000 -25.681641 13.911119
27.200000 -24.417969 13.911119
27.000000 -23.529297 13.911119
26.900000 -23.390625 13.911119
26.700000 -23.376953 13.911119
26.600000 -22.488281 13.911119
26.400000 -21.724609 13.911119
26.300000 -20.335938 13.911119
26.200000 -20.572266 13.911119
26.000000 -19.183594 13.911119
25.900000 -18.419922 13.911119
25.800000 -18.656250 13.911119
25.700000 -17.394043 13.911119
25.600000 -17.256836 13.911119
25.500000 -16.244629 13.911119
25.500000 -15.732422 13.911119
25.300000 -14.720215 13.911119
25.200000 -13.333008 13.911119
25.200000 -13.195801 13.911119
25.200000 -12.308594 13.911119
25.100000 -12.671387 13.911119
25.100000 -11.034180 13.911119
25.000000 -10.896973 13.911119
25.000000 -8.622559 13.911119
25.100000 -8.110352 13.911119
25.100000 -6.848145 13.911119
25.200000 -7.960938 13.911119
25.200000 -7.823730 13.911119
25.300000 -6.811523 13.911119
25.300000 -6.674316 13.911119
25.400000 -5.537109 13.911119
25.500000 -4.774902 13.911119
25.500000 -3.137695 13.911119
25.500000 -3.750488 13.911119
25.500000 -3.113281 13.911119
25.600000 -2.476074 13.911119
25.600000 -1.338867 13.911119
25.700000 -1.576660 13.911119
25.700000 -0.814453 13.911119
27.400000 -26.637695 14.057120
27.300000 -25.751465 14.057120
27.200000 -25.365234 14.057120
27.100000 -24.479004 14.057120
26.900000 -23.342773 14.057120
26.800000 -22.831543 14.057120
26.600000 -22.070312 14.057120
26.500000 -20.934082 14.057120
26.400000 -21.172852 14.057120
26.300000 -20.786621 14.057120
26.100000 -19.150391 14.057120
25.900000 -18.764160 14.057120
25.800000 -18.127930 14.057120
25.800000 -17.866699 14.057120
25.700000 -16.855469 14.057120
25.500000 -16.469238 14.057120
25.500000 -15.208008 14.057120
25.400000 -15.196777 14.057120
25.300000 -14.685547 14.057120
25.200000 -14.049316 14.057120
25.200000 -12.413086 14.057120
25.100000 -10.651855 14.057120
25.100000 -10.890625 14.057120
25.000000 -11.259766 14.057120
25.000000 -10.248047 14.057120
25.100000 -8.867188 14.057120
25.100000 -9.111328 14.057120
25.200000 -7.730469 14.057120
25.200000 -6.974609 14.057120
25.300000 -6.718750 14.057120
25.300000 -6.087891 14.057120
25.400000 -5.582031 14.057120
25.500000 -4.701172 14.057120
25.500000 -3.320312 14.057120
25.500000 -2.439453 14.057120
25.500000 -3.308594 14.057120
25.600000 -2.552734 14.057120
25.600000 -0.921875 14.057120
25.700000 -1.541016 14.057120
25.700000 -1.035156 14.057120
25.700000 -0.029297 14.057120
27.500000 -26.171875 14.206120
27.500000 -26.035645 14.206120
27.400000 -25.274414 14.206120
27.200000 -24.263184 14.206120
27.100000 -24.001953 14.206120
26.900000 -22.490723 14.206120
26.700000 -22.729492 14.206120
26.600000 -21.968262 14.206120
26.500000 -21.332031 14.206120
26.400000 -20.445801 14.206120
26.200000 -19.809570 14.206120
26.100000 -19.423340 14.206120
26.000000 -18.037109 14.206120
25.900000 -18.275879 14.206120
25.800000 -16.389648 14.206120
25.600000 -17.003418 14.206120
25.500000 -15.492188 14.206120
25.400000 -15.480957 14.206120
25.400000 -14.469727 14.206120
25.300000 -13.083496 14.206120
25.300000 -13.447266 14.206120
25.200000 -12.811035 14.206120
25.100000 -11.424805 14.206120
25.100000 -11.788574 14.206120
25.000000 -10.152344 14.206120
25.100000 -9.141113 14.206120
25.200000 -9.129883 14.206120
25.200000 -8.618652 14.206120
25.200000 -7.982422 14.206120
25.200000 -6.596191 14.206120
25.300000 -5.584961 14.206120
25.300000 -5.948730 14.206120
25.400000 -5.437500 14.206120
25.500000 -5.056152 14.206120
25.600000 -4.924805 14.206120
25.600000 -4.293457 14.206120
25.600000 -3.287109 14.206120
25.700000 -2.780762 14.206120
25.700000 -2.524414 14.206120
25.700000 -0.643066 14.206120
27.600000 -26.958008 14.373120
27.500000 -26.193359 14.373120
27.500000 -25.928711 14.373120
27.400000 -25.414062 14.373120
27.300000 -23.899414 14.373120
27.100000 -23.634766 14.373120
26.900000 -22.370117 14.373120
26.800000 -21.980469 14.373120
26.600000 -22.090820 14.373120
26.500000 -20.951172 14.373120
26.300000 -19.561523 14.373120
26.200000 -19.671875 14.373120
26.100000 -17.909180 14.373120
25.900000 -17.771484 14.373120
25.800000 -17.508789 14.373120
25.800000 -16.871094 14.373120
25.700000 -15.483398 14.373120
25.600000 -15.220703 14.373120
25.400000 -15.458008 14.373120
25.300000 -13.570312 14.373120
25.300000 -13.807617 14.373120
25.300000 -13.169922 14.373120
25.200000 -12.157227 14.373120
25.100000 -12.269531 14.373120
25.100000 -11.131836 14.373120
25.100000 -10.244141 14.373120
25.100000 -9.731445 14.373120
25.100000 -8.718750 14.373120
25.200000 -8.956055 14.373120
25.200000 -8.443359 14.373120
25.200000 -6.555664 14.373120
25.300000 -6.792969 14.373120
25.400000 -5.280273 14.373120
25.400000 -5.142578 14.373120
25.500000 -3.504883 14.373120
25.500000 -4.742188 14.373120
25.600000 -3.729492 14.373120
25.700000 -3.091797 14.373120
25.700000 -2.329102 14.373120
25.700000 -1.816406 14.373120
25.800000 -1.053711 14.373120
25.700000 -0.278320 14.373120
25.800000 -16.331543 14.498118
25.700000 -15.818359 14.498118
25.600000 -14.805176 14.498118
25.500000 -13.791992 14.498118
25.400000 -14.028809 14.498118
25.300000 -12.890625 14.498118
25.200000 -12.630859 14.498118
25.200000 -11.496094 14.498118
25.200000 -10.611328 14.498118
25.100000 -10.101562 14.498118
25.100000 -9.716797 14.498118
25.200000 -9.457031 14.498118
25.200000 -9.322266 14.498118
25.200000 -8.437500 14.498118
25.300000 -6.677734 14.498118
25.300000 -7.042969 14.498118
25.400000 -5.408203 14.498118
25.400000 -5.273438 14.498118
25.500000 -5.013672 14.498118
25.600000 -4.503906 14.498118
25.600000 -4.119141 14.498118
25.600000 -3.359375 14.498118
25.700000 -1.599609 14.498118
25.700000 -2.339844 14.498118
25.800000 -0.330078 14.498118
25.800000 -0.195312 14.498118
27.700000 -26.184570 14.640154
27.600000 -25.925293 14.640154
27.500000 -25.041016 14.640154
27.400000 -25.156738 14.640154
27.300000 -24.022461 14.640154
27.000000 -23.388184 14.640154
26.900000 -22.378906 14.640154
26.800000 -22.369629 14.640154
26.700000 -21.860352 14.640154
26.500000 -20.226074 14.640154
26.400000 -18.966797 14.640154
26.200000 -18.832520 14.640154
26.100000 -17.698242 14.640154
26.000000 -18.313965 14.640154
25.900000 -17.429688 14.640154
25.800000 -17.170410 14.640154
25.700000 -15.786133 14.640154
25.600000 -15.401855 14.640154
25.500000 -14.017578 14.640154
25.400000 -14.133301 14.640154
25.400000 -13.499023 14.640154
25.300000 -12.239746 14.640154
25.200000 -12.730469 14.640154
25.200000 -11.721191 14.640154
25.200000 -10.961914 14.640154
25.100000 -9.952637 14.640154
25.200000 -9.943359 14.640154
25.300000 -9.559082 14.640154
25.300000 -8.424805 14.640154
25.300000 -8.165527 14.640154
25.300000 -6.281250 14.640154
25.400000 -5.396484 14.640154
25.500000 -6.136719 14.640154
25.600000 -4.251953 14.640154
25.600000 -4.242188 14.640154
25.700000 -4.107422 14.640154
25.700000 -2.472656 14.640154
25.800000 -2.212891 14.640154
25.800000 -1.328125 14.640154
25.800000 -1.943359 14.640154
25.900000 -0.673828 14.640154
27.700000 -26.367188 14.778798
27.600000 -26.104492 14.778798
27.500000 -24.716797 14.778798
27.400000 -24.329102 14.778798
27.300000 -24.316406 14.778798
27.100000 -23.053711 14.778798
26.900000 -22.666016 14.778798
26.800000 -21.028320 14.778798
26.700000 -20.515625 14.778798
26.500000 -20.876953 14.778798
26.400000 -20.113281 14.778798
26.300000 -18.974609 14.778798
26.100000 -18.460938 14.778798
26.000000 -17.697266 14.778798
25.900000 -16.808594 14.778798
25.800000 -16.419922 14.778798
25.700000 -15.531250 14.778798
25.600000 -15.767578 14.778798
25.500000 -14.003906 14.778798
25.400000 -13.365234 14.778798
25.400000 -13.101562 14.778798
25.300000 -11.712891 14.778798
25.200000 -11.824219 14.778798
25.200000 -11.935547 14.778798
25.100000 -10.921875 14.778798
25.100000 -10.283203 14.778798
25.200000 -9.519531 14.778798
25.300000 -9.130859 14.778798
25.300000 -7.492188 14.778798
25.300000 -7.478516 14.778798
25.400000 -7.339844 14.778798
25.400000 -5.326172 14.778798
25.500000 -5.687500 14.778798
25.500000 -5.423828 14.778798
25.600000 -4.285156 14.778798
25.700000 -3.896484 14.778798
25.700000 -2.757812 14.778798
25.700000 -2.994141 14.778798
25.800000 -1.980469 14.778798
25.800000 -1.716797 14.778798
25.800000 -0.828125 14.778798
27.700000 -26.730469 14.935225
27.600000 -25.591797 14.935225
27.600000 -25.578125 14.935225
27.500000 -24.564453 14.935225
27.300000 -23.925781 14.935225
27.100000 -23.537109 14.935225
27.000000 -22.648438 14.935225
26.800000 -21.759766 14.935225
26.700000 -21.121094 14.935225
26.500000 -20.732422 14.935225
26.400000 -20.343750 14.935225
26.300000 -19.705078 14.935225
26.100000 -18.566406 14.935225
26.000000 -16.927734 14.935225
25.900000 -17.789062 14.935225
25.800000 -17.025391 14.935225
25.800000 -15.761719 14.935225
25.600000 -14.748047 14.935225
25.500000 -14.609375 14.935225
25.400000 -13.976562 14.935225
25.400000 -13.343750 14.935225
25.300000 -11.960938 14.935225
25.200000 -12.453125 14.935225
25.200000 -11.195312 14.935225
25.200000 -10.312500 14.935225
25.300000 -9.054688 14.935225
25.300000 -8.671875 14.935225
25.300000 -9.164062 14.935225
25.300000 -8.656250 14.935225
25.300000 -6.398438 14.935225
25.400000 -7.265625 14.935225
25.400000 -5.507812 14.935225
25.500000 -5.250000 14.935225
25.600000 -4.617188 14.935225
25.600000 -3.359375 14.935225
25.700000 -4.101562 14.935225
25.700000 -3.593750 14.935225
25.700000 -2.210938 14.935225
25.800000 -2.578125 14.935225
25.900000 -1.195312 14.935225
27.800000 -26.771484 15.075593
27.700000 -25.132324 15.075593
27.600000 -25.368164 15.075593
27.500000 -24.729004 15.075593
27.300000 -22.964844 15.075593
27.100000 -23.450684 15.075593
27.000000 -22.561523 15.075593
26.800000 -21.922363 15.075593
26.700000 -20.533203 15.075593
26.600000 -20.519043 15.075593
26.400000 -19.504883 15.075593
26.300000 -19.365723 15.075593
26.200000 -18.226562 15.075593
26.100000 -17.337402 15.075593
26.000000 -17.323242 15.075593
25.800000 -15.309082 15.075593
25.800000 -16.169922 15.075593
25.700000 -15.155762 15.075593
25.600000 -13.516602 15.075593
25.500000 -12.752441 15.075593
25.400000 -13.488281 15.075593
25.400000 -10.724121 15.075593
25.300000 -11.959961 15.075593
25.300000 -11.070801 15.075593
25.200000 -8.931641 15.075593
25.300000 -9.167480 15.075593
25.400000 -8.653320 15.075593
25.400000 -9.014160 15.075593
25.400000 -8.125000 15.075593
25.400000 -7.118164 15.075593
25.500000 -7.111328 15.075593
25.600000 -6.354492 15.075593
25.600000 -4.597656 15.075593
25.700000 -5.090820 15.075593
25.800000 -3.208984 15.075593
25.800000 -3.327148 15.075593
25.800000 -3.445312 15.075593
25.900000 -2.313477 15.075593
25.900000 -1.931641 15.075593
25.900000 -1.549805 15.075593
27.800000 -26.900391 15.216939
27.700000 -25.135742 15.216939
27.600000 -24.871094 15.216939
27.500000 -24.356445 15.216939
27.300000 -24.091797 15.216939
27.100000 -23.202148 15.216939
27.000000 -22.812500 15.216939
26.800000 -21.551758 15.216939
26.700000 -20.416016 15.216939
26.600000 -20.155273 15.216939
26.500000 -20.269531 15.216939
26.400000 -19.383789 15.216939
26.200000 -17.623047 15.216939
26.100000 -18.112305 15.216939
25.900000 -16.101562 15.216939
25.800000 -16.465820 15.216939
25.700000 -16.205078 15.216939
25.700000 -14.944336 15.216939
25.600000 -13.433594 15.216939
25.500000 -13.922852 15.216939
25.500000 -13.162109 15.216939
25.400000 -12.901367 15.216939
25.300000 -11.015625 15.216939
25.300000 -10.129883 15.216939
25.200000 -10.494141 15.216939
25.300000 -10.108398 15.216939
25.400000 -9.722656 15.216939
25.300000 -8.836914 15.216939
25.400000 -7.701172 15.216939
25.500000 -7.815430 15.216939
25.500000 -6.929688 15.216939
25.600000 -5.668945 15.216939
25.600000 -4.908203 15.216939
25.700000 -4.522461 15.216939
25.700000 -3.386719 15.216939
25.800000 -2.625977 15.216939
25.900000 -2.990234 15.216939
25.900000 -1.604492 15.216939
25.900000 -0.718750 15.216939
25.900000 -0.712402 15.216939
25.900000 -0.706055 15.216939
25.900000 -0.324707 15.216939
27.800000 -26.070312 15.359254
27.800000 -26.184082 15.359254
27.800000 -25.172852 15.359254
27.600000 -24.536621 15.359254
27.400000 -24.025391 15.359254
27.200000 -22.389160 15.359254
27.000000 -22.752930 15.359254
26.900000 -21.991699 15.359254
26.800000 -20.730469 15.359254
26.600000 -19.719238 15.359254
26.500000 -19.708008 15.359254
26.400000 -18.696777 15.359254
26.200000 -18.935547 15.359254
26.100000 -17.799316 15.359254
26.000000 -17.288086 15.359254
25.900000 -16.401855 15.359254
25.700000 -16.015625 15.359254
25.700000 -15.008301 15.359254
25.600000 -14.625977 15.359254
25.600000 -13.868652 15.359254
25.500000 -12.361328 15.359254
25.400000 -12.104004 15.359254
25.400000 -11.721680 15.359254
25.300000 -11.464355 15.359254
25.200000 -10.457031 15.359254
25.300000 -8.949707 15.359254
25.400000 -8.692383 15.359254
25.300000 -8.685059 15.359254
25.400000 -8.677734 15.359254
25.500000 -7.795410 15.359254
25.500000 -6.913086 15.359254
25.600000 -6.405762 15.359254
25.700000 -5.773438 15.359254
25.700000 -5.516113 15.359254
25.800000 -4.383789 15.359254
25.800000 -4.251465 15.359254
25.800000 -3.119141 15.359254
25.900000 -2.361816 15.359254
25.900000 -2.104492 15.359254
25.900000 -0.722168 15.359254
25.900000 -0.082520 15.359254
27.900000 -26.382812 15.514212
27.800000 -25.871094 15.514212
27.800000 -25.484375 15.514212
27.700000 -25.097656 15.514212
27.500000 -24.585938 15.514212
27.400000 -22.824219 15.514212
27.200000 -23.187500 15.514212
27.000000 -21.550781 15.514212
26.900000 -21.539062 15.514212
26.800000 -20.152344 15.514212
26.600000 -19.890625 15.514212
26.500000 -19.378906 15.514212
26.400000 -19.117188 15.514212
26.300000 -17.230469 15.514212
26.200000 -17.468750 15.514212
26.000000 -16.957031 15.514212
25.900000 -15.695312 15.514212
25.800000 -15.808594 15.514212
25.700000 -14.671875 15.514212
25.700000 -14.535156 15.514212
25.600000 -13.523438 15.514212
25.500000 -12.761719 15.514212
25.500000 -11.500000 15.514212
25.400000 -11.363281 15.514212
25.400000 -10.351562 15.514212
25.400000 -9.839844 15.514212
25.400000 -8.953125 15.514212
25.400000 -8.946777 15.514212
25.400000 -8.565430 15.514212
25.500000 -7.934082 15.514212
25.600000 -7.552734 15.514212
25.700000 -7.046387 15.514212
25.700000 -6.165039 15.514212
25.800000 -4.158691 15.514212
25.800000 -4.902344 15.514212
25.800000 -4.020996 15.514212
25.900000 -3.639648 15.514212
25.900000 -2.633301 15.514212
26.000000 -2.376953 15.514212
26.000000 -1.620605 15.514212
26.000000 -0.114258 15.514212
26.000000 -0.732910 15.514212
27.900000 -25.888672 15.654212
27.900000 -25.878906 15.654212
27.800000 -24.744141 15.654212
27.600000 -24.734375 15.654212
27.500000 -23.601074 15.654212
27.300000 -22.967773 15.654212
27.200000 -22.209473 15.654212
27.000000 -21.326172 15.654212
26.900000 -20.817871 15.654212
26.800000 -20.934570 15.654212
26.600000 -20.051270 15.654212
26.500000 -19.042969 15.654212
26.400000 -18.034668 15.654212
26.300000 -17.526367 15.654212
26.100000 -17.268066 15.654212
26.000000 -17.134766 15.654212
25.900000 -15.626465 15.654212
25.800000 -15.618164 15.654212
25.700000 -15.109863 15.654212
25.600000 -14.101562 15.654212
25.600000 -13.718262 15.654212
25.500000 -12.709961 15.654212
25.500000 -11.576660 15.654212
25.400000 -11.693359 15.654212
25.300000 -9.935059 15.654212
25.100000 -8.426758 15.654212
25.300000 -8.293457 15.654212
25.500000 -8.785156 15.654212
25.500000 -8.026855 15.654212
25.500000 -7.018555 15.654212
25.600000 -6.135254 15.654212
25.600000 -6.876953 15.654212
25.700000 -6.243652 15.654212
25.800000 -4.735352 15.654212
25.800000 -5.102051 15.654212
25.900000 -3.343750 15.654212
25.900000 -2.336914 15.654212
26.000000 -2.705078 15.654212
26.000000 -0.948242 15.654212
26.000000 -1.691406 15.654212
26.100000 -1.309570 15.654212
26.100000 -0.302734 15.654212
28.000000 -26.755859 15.796355
27.900000 -25.118652 15.796355
27.800000 -24.981445 15.796355
27.700000 -24.844238 15.796355
27.500000 -23.957031 15.796355
27.300000 -23.194824 15.796355
27.200000 -22.807617 15.796355
27.000000 -20.920410 15.796355
26.800000 -20.908203 15.796355
26.700000 -19.645996 15.796355
26.500000 -20.133789 15.796355
26.500000 -18.371582 15.796355
26.400000 -17.484375 15.796355
26.300000 -18.223145 15.796355
26.200000 -17.086914 15.796355
26.000000 -15.325684 15.796355
25.900000 -15.564453 15.796355
25.800000 -15.053223 15.796355
25.800000 -14.041992 15.796355
25.600000 -12.905762 15.796355
25.600000 -13.394531 15.796355
25.500000 -12.758301 15.796355
25.500000 -11.872070 15.796355
25.400000 -11.485840 15.796355
25.400000 -10.849609 15.796355
25.400000 -9.838379 15.796355
25.400000 -8.827148 15.796355
25.500000 -8.690918 15.796355
25.500000 -8.554688 15.796355
25.600000 -7.668457 15.796355
25.600000 -7.282227 15.796355
25.700000 -6.645996 15.796355
25.700000 -4.759766 15.796355
25.800000 -5.498535 15.796355
25.900000 -3.737305 15.796355
25.900000 -3.101074 15.796355
25.900000 -3.339844 15.796355
26.000000 -1.453613 15.796355
26.000000 -1.942383 15.796355
26.100000 -1.681152 15.796355
26.000000 -0.033691 15.796355
28.100000 -26.587891 15.949015
28.000000 -26.198242 15.949015
27.900000 -25.558594 15.949015
27.800000 -24.793945 15.949015
27.700000 -24.404297 15.949015
27.500000 -23.639648 15.949015
27.300000 -22.625000 15.949015
27.200000 -22.360352 15.949015
27.000000 -20.970703 15.949015
26.800000 -21.081055 15.949015
26.700000 -20.066406 15.949015
26.500000 -19.051758 15.949015
