26.700000 13.500000 34.690394
26.800000 12.909180 34.690394
26.900000 13.818359 34.690394
27.000000 15.102539 34.690394
27.000000 14.886719 34.690394
27.100000 15.420898 34.690394
27.200000 16.580078 34.690394
27.300000 16.864258 34.690394
27.400000 18.523438 34.690394
27.500000 18.057617 34.690394
27.700000 19.841797 34.690394
27.800000 20.375977 34.690394
28.100000 19.910156 34.690394
27.100000 0.565430 34.831241
26.600000 1.230469 34.831241
26.600000 0.895508 34.831241
26.400000 1.560547 34.831241
26.300000 2.350586 34.831241
26.400000 3.265625 34.831241
26.500000 3.551270 34.831241
26.400000 3.961914 34.831241
26.400000 5.622559 34.831241
26.500000 6.408203 34.831241
26.500000 5.943848 34.831241
26.500000 7.229492 34.831241
26.500000 7.890137 34.831241
26.600000 8.425781 34.831241
26.600000 8.711426 34.831241
26.600000 10.122070 34.831241
26.800000 10.282715 34.831241
26.900000 10.568359 34.831241
26.900000 11.354004 34.831241
26.700000 13.014648 34.831241
26.800000 12.800293 34.831241
26.800000 13.710938 34.831241
26.900000 14.246582 34.831241
27.000000 15.407227 34.831241
27.100000 15.692871 34.831241
27.100000 16.228516 34.831241
27.300000 16.639160 34.831241
27.400000 18.174805 34.831241
27.500000 18.085449 34.831241
27.500000 19.371094 34.831241
27.700000 18.906738 34.831241
27.900000 19.942383 34.831241
26.600000 0.097656 34.973824
26.700000 0.138672 34.973824
26.400000 1.804688 34.973824
26.300000 2.720703 34.973824
26.400000 3.261719 34.973824
26.300000 3.177734 34.973824
26.400000 4.968750 34.973824
26.400000 5.006348 34.973824
26.500000 5.168945 34.973824
26.500000 5.581543 34.973824
26.500000 6.494141 34.973824
26.500000 7.406738 34.973824
26.500000 8.444336 34.973824
26.600000 8.606934 34.973824
26.600000 9.894531 34.973824
26.700000 9.682129 34.973824
26.900000 10.219727 34.973824
26.900000 10.757324 34.973824
26.700000 12.669922 34.973824
26.700000 12.207520 34.973824
26.700000 13.745117 34.973824
26.800000 13.657715 34.973824
26.900000 14.070312 34.973824
27.000000 14.982910 34.973824
27.100000 16.645508 34.973824
27.200000 16.058105 34.973824
27.300000 17.720703 34.973824
27.400000 17.883301 34.973824
27.500000 18.170898 34.973824
27.700000 19.083496 34.973824
27.800000 19.621094 34.973824
26.900000 0.210938 35.115407
26.800000 -0.000977 35.115407
26.700000 1.037109 35.115407
26.400000 2.450195 35.115407
26.300000 2.738281 35.115407
26.300000 3.151367 35.115407
26.300000 4.189453 35.115407
26.300000 3.727539 35.115407
26.400000 4.890625 35.115407
26.500000 5.301758 35.115407
26.500000 6.462891 35.115407
26.500000 7.499023 35.115407
26.500000 7.535156 35.115407
26.500000 8.946289 35.115407
26.600000 8.732422 35.115407
26.600000 10.018555 35.115407
26.700000 9.804688 35.115407
26.900000 10.965820 35.115407
26.900000 11.001953 35.115407
26.700000 12.163086 35.115407
26.700000 12.574219 35.115407
26.700000 13.610352 35.115407
26.800000 14.271484 35.115407
26.900000 15.307617 35.115407
27.000000 16.093750 35.115407
27.100000 15.629883 35.115407
27.200000 16.291016 35.115407
27.300000 17.452148 35.115407
27.400000 17.863281 35.115407
27.500000 18.524414 35.115407
27.600000 19.060547 35.115407
27.800000 19.596680 35.115407
26.700000 1.052734 35.256407
26.600000 1.089844 35.256407
26.400000 2.126953 35.256407
26.300000 3.039062 35.256407
26.300000 3.201172 35.256407
26.300000 3.363281 35.256407
26.400000 4.025391 35.256407
26.400000 5.312500 35.256407
26.400000 5.472168 35.256407
26.500000 6.131836 35.256407
26.500000 7.791504 35.256407
26.500000 7.951172 35.256407
26.600000 8.485840 35.256407
26.600000 8.645508 35.256407
26.700000 9.680176 35.256407
26.800000 10.839844 35.256407
26.900000 10.874512 35.256407
26.800000 11.409180 35.256407
26.700000 11.943848 35.256407
26.700000 13.478516 35.256407
26.800000 13.138184 35.256407
26.900000 13.797852 35.256407
26.900000 14.707520 35.256407
27.100000 16.117188 35.256407
27.100000 15.651855 35.256407
27.300000 17.311523 35.256407
27.400000 17.596191 35.256407
27.500000 18.755859 35.256407
27.500000 18.415527 35.256407
27.700000 19.700195 35.256407
27.900000 20.109863 35.256407
28.200000 20.769531 35.256407
26.800000 -0.121094 35.391407
26.600000 1.417480 35.391407
26.300000 1.831055 35.391407
26.200000 1.744629 35.391407
26.300000 2.408203 35.391407
26.300000 4.321777 35.391407
26.300000 4.110352 35.391407
26.300000 5.398926 35.391407
26.400000 5.687500 35.391407
26.400000 5.724121 35.391407
26.400000 7.260742 35.391407
26.400000 7.672363 35.391407
26.500000 9.083984 35.391407
26.600000 8.620605 35.391407
26.600000 9.657227 35.391407
26.700000 9.693848 35.391407
26.900000 10.605469 35.391407
26.900000 11.642090 35.391407
26.700000 12.803711 35.391407
26.700000 12.465332 35.391407
26.700000 13.751953 35.391407
26.800000 14.663574 35.391407
26.900000 14.575195 35.391407
27.000000 16.111816 35.391407
27.100000 15.773438 35.391407
27.200000 16.560059 35.391407
27.300000 17.846680 35.391407
27.400000 18.133301 35.391407
27.500000 19.169922 35.391407
27.600000 18.831543 35.391407
28.000000 19.904785 35.391407
26.800000 0.125000 35.537406
26.500000 0.789062 35.537406
26.300000 1.953125 35.537406
26.300000 2.617188 35.537406
26.300000 3.281250 35.537406
26.300000 4.820312 35.537406
26.300000 4.234375 35.537406
26.300000 6.148438 35.537406
26.300000 6.187500 35.537406
26.300000 7.473145 35.537406
26.300000 7.008789 35.537406
26.400000 8.544434 35.537406
26.500000 9.455078 35.537406
26.500000 8.990723 35.537406
26.600000 10.526367 35.537406
26.800000 10.687012 35.537406
26.800000 10.597656 35.537406
26.700000 12.258301 35.537406
26.600000 12.793945 35.537406
26.700000 12.579590 35.537406
26.700000 13.865234 35.537406
26.800000 14.525879 35.537406
26.900000 14.561523 35.537406
27.000000 15.472168 35.537406
27.100000 16.007812 35.537406
27.200000 16.543457 35.537406
27.300000 17.079102 35.537406
27.400000 18.739746 35.537406
27.500000 19.525391 35.537406
27.700000 19.686035 35.537406
27.800000 19.971680 35.537406
28.200000 20.382324 35.537406
26.900000 -0.010254 35.676394
26.700000 1.277344 35.676394
26.300000 1.814941 35.676394
26.200000 1.852539 35.676394
26.300000 3.890137 35.676394
26.300000 3.177734 35.676394
26.300000 5.090332 35.676394
26.300000 5.877930 35.676394
26.300000 5.915527 35.676394
26.300000 5.953125 35.676394
26.300000 7.113281 35.676394
26.300000 7.148438 35.676394
26.300000 8.183594 35.676394
26.500000 9.593750 35.676394
26.600000 9.128906 35.676394
26.600000 11.039062 35.676394
26.900000 10.324219 35.676394
26.800000 11.359375 35.676394
26.600000 12.019531 35.676394
26.600000 12.429688 35.676394
26.700000 13.339844 35.676394
26.700000 14.250000 35.676394
26.800000 14.285156 35.676394
27.000000 15.820312 35.676394
27.100000 15.980469 35.676394
27.200000 16.890625 35.676394
27.300000 17.925781 35.676394
27.400000 18.210938 35.676394
27.500000 18.496094 35.676394
27.600000 18.906250 35.676394
27.800000 19.566406 35.676394
28.000000 20.476562 35.676394
26.900000 -0.083984 35.815670
26.700000 0.704102 35.815670
26.300000 1.117188 35.815670
26.200000 2.155273 35.815670
26.200000 2.818359 35.815670
26.200000 3.606445 35.815670
26.200000 5.144531 35.815670
26.300000 5.057617 35.815670
26.300000 6.595703 35.815670
26.300000 6.258789 35.815670
26.300000 7.046875 35.815670
26.400000 7.331543 35.815670
26.400000 8.366211 35.815670
26.400000 8.400879 35.815670
26.500000 10.310547 35.815670
26.600000 10.845215 35.815670
26.900000 10.254883 35.815670
26.800000 11.414551 35.815670
26.600000 12.324219 35.815670
26.600000 12.608887 35.815670
26.600000 13.768555 35.815670
26.700000 14.053223 35.815670
26.800000 14.712891 35.815670
27.000000 15.372559 35.815670
27.100000 15.532227 35.815670
27.200000 16.691895 35.815670
27.200000 17.726562 35.815670
27.300000 18.011230 35.815670
27.500000 18.170898 35.815670
27.600000 18.705566 35.815670
27.800000 19.615234 35.815670
28.000000 20.399902 35.815670
27.000000 -0.022949 35.955597
26.600000 1.639648 35.955597
26.300000 1.302246 35.955597
26.200000 2.214844 35.955597
26.200000 3.752441 35.955597
26.200000 3.040039 35.955597
26.200000 4.077637 35.955597
26.200000 5.490234 35.955597
26.200000 5.527832 35.955597
26.300000 6.690430 35.955597
26.300000 6.978027 35.955597
26.300000 7.265625 35.955597
26.300000 8.175293 35.955597
26.400000 8.709961 35.955597
26.500000 9.244629 35.955597
26.600000 10.529297 35.955597
26.700000 10.188965 35.955597
26.800000 11.348633 35.955597
26.600000 11.508301 35.955597
26.600000 12.417969 35.955597
26.600000 13.952637 35.955597
26.800000 14.146973 35.955597
26.900000 15.431641 35.955597
27.000000 16.216309 35.955597
27.100000 16.125977 35.955597
27.300000 17.660645 35.955597
27.400000 17.695312 35.955597
27.400000 18.979980 35.955597
27.600000 19.264648 35.955597
27.800000 19.299316 35.955597
26.200000 1.342773 36.083093
26.200000 2.005371 36.083093
26.300000 3.417969 36.083093
26.200000 3.955566 36.083093
26.200000 5.368164 36.083093
26.200000 5.030762 36.083093
26.200000 6.443359 36.083093
26.300000 6.480957 36.083093
26.300000 7.518555 36.083093
26.300000 7.556152 36.083093
26.300000 8.843750 36.083093
26.400000 8.379395 36.083093
26.500000 9.040039 36.083093
26.500000 10.950684 36.083093
26.700000 10.736328 36.083093
26.800000 12.396973 36.083093
26.600000 11.682617 36.083093
26.600000 12.718262 36.083093
26.600000 13.128906 36.083093
26.700000 14.164551 36.083093
26.800000 15.075195 36.083093
26.900000 14.860840 36.083093
27.100000 15.896484 36.083093
27.200000 16.307129 36.083093
27.200000 17.092773 36.083093
27.300000 18.753418 36.083093
27.500000 19.164062 36.083093
27.600000 19.074707 36.083093
27.700000 19.485352 36.083093
28.000000 20.270996 36.083093
26.300000 1.575684 36.223123
26.200000 2.114258 36.223123
26.200000 3.152832 36.223123
26.200000 3.566406 36.223123
26.200000 4.729980 36.223123
26.300000 6.143555 36.223123
26.300000 6.682129 36.223123
26.300000 6.470703 36.223123
26.300000 7.884277 36.223123
26.400000 8.797852 36.223123
26.400000 9.461426 36.223123
26.400000 8.750000 36.223123
26.500000 9.535645 36.223123
26.600000 10.321289 36.223123
26.800000 10.731934 36.223123
26.700000 12.142578 36.223123
26.600000 11.928223 36.223123
26.600000 13.838867 36.223123
26.600000 13.624512 36.223123
26.800000 14.035156 36.223123
26.900000 14.695801 36.223123
27.000000 15.356445 36.223123
27.100000 17.017090 36.223123
27.200000 17.552734 36.223123
27.300000 17.338379 36.223123
27.400000 17.749023 36.223123
27.500000 19.534668 36.223123
27.600000 19.320312 36.223123
28.200000 20.766602 36.223123
26.200000 2.262695 36.365128
26.200000 3.802734 36.365128
26.200000 3.842773 36.365128
26.200000 4.132812 36.365128
26.200000 6.172852 36.365128
26.200000 6.087891 36.365128
26.200000 7.252930 36.365128
26.300000 7.292969 36.365128
26.300000 8.083008 36.365128
26.400000 9.373047 36.365128
26.400000 8.913086 36.365128
26.500000 10.203125 36.365128
26.500000 11.364746 36.365128
26.700000 11.151367 36.365128
26.700000 12.312988 36.365128
26.600000 13.349609 36.365128
26.500000 13.261230 36.365128
26.600000 13.297852 36.365128
26.700000 14.834473 36.365128
26.900000 15.871094 36.365128
27.000000 16.282715 36.365128
27.100000 16.069336 36.365128
27.200000 17.230957 36.365128
27.300000 17.892578 36.365128
27.400000 17.929199 36.365128
27.500000 18.965820 36.365128
27.600000 19.627441 36.365128
28.200000 20.575684 36.365128
26.000000 1.719727 36.492094
26.000000 2.761719 36.492094
26.100000 3.428711 36.492094
26.200000 3.595703 36.492094
26.200000 4.887695 36.492094
26.200000 5.429688 36.492094
26.200000 5.721680 36.492094
26.200000 6.513672 36.492094
26.300000 7.055664 36.492094
26.300000 7.597656 36.492094
26.400000 9.139648 36.492094
26.400000 10.056641 36.492094
26.400000 10.223633 36.492094
26.500000 10.640625 36.492094
26.600000 11.926758 36.492094
26.600000 11.837891 36.492094
26.500000 13.124023 36.492094
26.500000 13.785156 36.492094
26.600000 13.696289 36.492094
26.700000 14.857422 36.492094
26.800000 15.018555 36.492094
27.000000 16.179688 36.492094
27.100000 16.715820 36.492094
27.200000 16.751953 36.492094
27.300000 18.163086 36.492094
27.400000 18.824219 36.492094
27.500000 18.735352 36.492094
27.700000 19.771484 36.492094
26.400000 8.437500 36.634115
26.400000 9.476562 36.634115
26.400000 9.640625 36.634115
26.500000 10.304688 36.634115
26.600000 12.343750 36.634115
26.700000 12.254395 36.634115
26.600000 13.290039 36.634115
26.500000 13.075684 36.634115
26.600000 13.611328 36.634115
26.700000 14.146973 36.634115
26.800000 15.057617 36.634115
27.000000 16.593262 36.634115
27.100000 17.253906 36.634115
27.200000 17.164551 36.634115
27.300000 17.700195 36.634115
27.400000 18.985840 36.634115
27.500000 18.896484 36.634115
27.500000 18.423340 36.771182
27.600000 19.083984 36.771182
27.800000 19.744629 36.771182
28.200000 20.405273 36.771182
26.000000 2.950684 36.910215
26.000000 4.362305 36.910215
26.000000 4.898926 36.910215
26.100000 4.560547 36.910215
26.200000 4.847168 36.910215
26.200000 7.008789 36.910215
26.200000 7.420410 36.910215
26.300000 7.707031 36.910215
26.400000 -0.048828 37.049343
26.100000 3.063965 37.049343
25.900000 3.101562 37.049343
26.000000 4.389160 37.049343
26.000000 4.801758 37.049343
26.100000 5.714355 37.049343
26.200000 5.001953 37.049343
26.200000 5.539551 37.049343
26.200000 6.702148 37.049343
26.200000 8.852539 37.049343
26.200000 10.015137 37.049343
26.400000 12.790527 37.049343
26.700000 12.703125 37.049343
26.800000 14.114258 37.049343
26.700000 14.400391 37.049343
26.800000 15.686523 37.049343
26.900000 15.597656 37.049343
27.100000 16.133789 37.049343
27.200000 16.669922 37.049343
27.300000 17.456055 37.049343
27.400000 18.742188 37.049343
27.500000 18.653320 37.049343
27.700000 19.189453 37.049343
26.100000 1.414062 37.189795
26.000000 1.826172 37.189795
26.100000 2.238281 37.189795
26.000000 3.275391 37.189795
26.000000 3.437500 37.189795
26.000000 3.974609 37.189795
26.100000 4.761719 37.189795
26.200000 6.548828 37.189795
26.200000 5.710938 37.189795
26.300000 7.373047 37.189795
26.200000 8.410156 37.189795
26.300000 8.322266 37.189795
26.400000 9.484375 37.189795
26.100000 9.271484 37.189795
26.500000 13.332031 37.189795
26.800000 12.869141 37.189795
26.800000 14.031250 37.189795
26.800000 14.442383 37.189795
26.900000 14.853516 37.189795
27.000000 15.639648 37.189795
27.100000 16.800781 37.189795
27.200000 17.586914 37.189795
27.300000 17.623047 37.189795
27.400000 18.784180 37.189795
27.500000 19.570312 37.189795
27.700000 19.606445 37.189795
26.200000 1.739258 37.327935
26.000000 2.318359 37.327935
25.900000 2.732910 37.327935
26.000000 2.897461 37.327935
26.000000 5.062012 37.327935
26.100000 4.851562 37.327935
26.200000 5.266113 37.327935
26.200000 6.180664 37.327935
26.300000 7.095215 37.327935
26.200000 7.509766 37.327935
26.300000 8.674316 37.327935
26.400000 8.588867 37.327935
26.100000 9.878418 37.327935
26.400000 12.326172 37.327935
26.600000 12.865723 37.327935
26.900000 14.405273 37.327935
27.000000 15.069824 37.327935
26.900000 15.234375 37.327935
26.900000 15.895508 37.327935
27.100000 16.431641 37.327935
27.200000 17.217773 37.327935
27.300000 18.003906 37.327935
27.400000 18.540039 37.327935
27.500000 18.451172 37.327935
27.700000 19.487305 37.327935
27.900000 20.273438 37.327935
28.200000 20.559570 37.327935
26.000000 1.537109 37.466181
26.000000 2.074219 37.466181
26.100000 2.611328 37.466181
26.000000 3.023438 37.466181
26.000000 4.685547 37.466181
26.000000 4.222656 37.466181
26.100000 4.884766 37.466181
26.200000 5.421875 37.466181
26.200000 6.208984 37.466181
26.300000 6.371094 37.466181
26.300000 8.283203 37.466181
26.600000 8.570312 37.466181
26.400000 12.205078 37.466181
26.700000 14.816406 37.466181
27.000000 14.978516 37.466181
27.100000 15.640625 37.466181
27.100000 16.800781 37.466181
27.200000 17.085938 37.466181
27.300000 17.621094 37.466181
27.400000 18.156250 37.466181
27.600000 18.816406 37.466181
27.700000 20.101562 37.466181
26.300000 -0.021484 37.606108
26.000000 1.140625 37.606108
26.100000 2.589844 37.606108
26.000000 2.876953 37.606108
26.000000 4.289062 37.606108
26.100000 4.326172 37.606108
26.200000 5.863281 37.606108
26.200000 5.775391 37.606108
26.200000 6.437500 37.606108
26.600000 8.673828 37.606108
25.900000 10.572266 37.606108
26.000000 11.109375 37.606108
26.400000 12.308594 37.606108
26.800000 14.419922 37.606108
27.000000 15.707031 37.606108
27.100000 15.619141 37.606108
27.100000 16.906250 37.606108
27.200000 17.564941 37.606108
27.300000 18.598633 37.606108
27.400000 18.382324 37.606108
27.600000 19.416016 37.606108
27.700000 20.324707 37.606108
28.000000 20.358398 37.606108
26.400000 0.241211 37.746321
26.200000 1.278809 37.746321
26.000000 2.479004 37.746321
25.900000 2.516602 37.746321
26.000000 4.179199 37.746321
26.000000 4.341797 37.746321
26.100000 5.379395 37.746321
26.200000 5.916992 37.746321
26.200000 6.704590 37.746321
26.500000 8.567383 37.746321
26.600000 14.118164 37.746321
26.900000 14.280762 37.746321
27.100000 14.693359 37.746321
27.100000 14.980957 37.746321
27.100000 15.393555 37.746321
27.200000 16.056152 37.746321
27.300000 17.218750 37.746321
27.400000 17.626953 37.746321
27.400000 18.910156 37.746321
27.600000 18.943359 37.746321
27.700000 20.101562 37.746321
28.000000 20.134766 37.746321
26.300000 0.359863 37.886382
26.300000 1.272461 37.886382
26.200000 0.935059 37.886382
26.000000 1.722656 37.886382
26.000000 3.922852 37.886382
26.100000 3.835449 37.886382
26.200000 4.373047 37.886382
26.200000 5.410645 37.886382
26.300000 6.073242 37.886382
26.200000 6.110840 37.886382
26.000000 9.098633 37.886382
26.200000 11.661621 37.886382
26.600000 13.486816 37.886382
27.000000 14.849609 37.886382
27.200000 16.012207 37.886382
27.300000 16.174805 37.886382
27.300000 17.462402 37.886382
27.400000 17.000000 37.886382
27.500000 18.536133 37.886382
27.600000 18.947266 37.886382
27.700000 19.233398 37.886382
27.900000 20.269531 37.886382
28.400000 20.555664 37.886382
26.400000 0.919922 38.028920
26.300000 0.707031 38.028920
26.000000 1.869141 38.028920
26.100000 2.156250 38.028920
26.200000 2.443359 38.028920
26.200000 4.355469 38.028920
26.200000 3.767578 38.028920
26.200000 4.679688 38.028920
26.200000 5.841797 38.028920
26.100000 7.378906 38.028920
26.200000 11.550781 38.028920
26.400000 11.837891 38.028920
26.600000 13.375000 38.028920
26.900000 13.037109 38.028920
27.200000 14.324219 38.028920
27.600000 14.611328 38.028920
27.500000 15.523438 38.028920
27.300000 15.685547 38.028920
27.400000 16.347656 38.028920
27.400000 16.759766 38.028920
27.500000 17.921875 38.028920
27.600000 17.959961 38.028920
27.700000 19.748047 38.028920
27.900000 19.411133 38.028920
28.200000 20.574219 38.028920
26.500000 -0.029297 38.170076
26.400000 0.885254 38.170076
26.000000 2.424805 38.170076
26.000000 2.714355 38.170076
26.200000 2.628906 38.170076
26.200000 3.793457 38.170076
26.200000 5.208008 38.170076
26.200000 4.372559 38.170076
26.200000 5.037109 38.170076
26.000000 8.070312 38.170076
25.900000 9.234863 38.170076
26.000000 9.524414 38.170076
26.100000 10.438965 38.170076
26.100000 11.228516 38.170076
26.300000 11.768066 38.170076
26.400000 12.807617 38.170076
26.600000 13.222168 38.170076
26.900000 13.636719 38.170076
27.300000 15.005371 38.170076
27.400000 15.794922 38.170076
27.400000 16.084473 38.170076
27.400000 16.874023 38.170076
27.500000 17.913574 38.170076
27.600000 18.078125 38.170076
27.700000 18.739258 38.170076
27.900000 20.400391 38.170076
28.200000 20.936523 38.170076
26.500000 -0.087402 38.309755
26.400000 0.576172 38.309755
26.100000 2.114746 38.309755
26.100000 1.903320 38.309755
26.100000 3.816895 38.309755
26.200000 3.230469 38.309755
26.200000 3.894043 38.309755
26.200000 4.307617 38.309755
26.200000 6.471191 38.309755
26.100000 5.884766 38.309755
25.900000 8.539062 38.309755
26.000000 9.077637 38.309755
26.100000 10.491211 38.309755
26.200000 11.404785 38.309755
26.300000 11.568359 38.309755
26.600000 11.606934 38.309755
26.700000 12.895508 38.309755
27.000000 13.684082 38.309755
27.500000 14.924805 38.309755
27.700000 15.713379 38.309755
27.500000 16.126953 38.309755
27.500000 16.915527 38.309755
27.600000 18.079102 38.309755
27.600000 18.367676 38.309755
27.700000 19.156250 38.309755
27.900000 19.941895 38.309755
28.200000 20.727539 38.309755
26.200000 1.503418 38.448418
26.100000 2.041016 38.448418
26.100000 2.078613 38.448418
26.200000 2.741211 38.448418
26.200000 3.403809 38.448418
26.200000 3.941406 38.448418
26.200000 4.979004 38.448418
26.300000 5.391602 38.448418
26.200000 8.254395 38.448418
26.000000 9.541992 38.448418
26.100000 9.992188 38.448418
26.500000 11.229980 38.448418
26.800000 12.267578 38.448418
27.000000 12.430176 38.448418
27.200000 13.092773 38.448418
27.500000 13.630371 38.448418
27.900000 15.042969 38.448418
28.000000 15.205566 38.448418
27.800000 15.868164 38.448418
27.600000 17.030762 38.448418
27.600000 17.443359 38.448418
27.700000 18.105957 38.448418
27.800000 19.268555 38.448418
27.800000 19.431152 38.448418
26.500000 2.777344 38.588175
26.200000 3.437500 38.588175
26.200000 3.222656 38.588175
26.200000 4.632812 38.588175
26.200000 5.042969 38.588175
26.200000 6.453125 38.588175
26.200000 6.613281 38.588175
26.100000 8.093750 38.588175
26.000000 9.664062 38.588175
26.200000 10.449219 38.588175
26.600000 11.679688 38.588175
27.000000 12.839844 38.588175
27.100000 12.875000 38.588175
27.600000 15.355469 38.588175
27.900000 15.265625 38.588175
27.800000 16.675781 38.588175
27.700000 17.210938 38.588175
27.600000 17.871094 38.588175
27.700000 18.281250 38.588175
27.800000 18.816406 38.588175
27.900000 19.726562 38.588175
28.100000 20.011719 38.588175
26.300000 1.500000 38.729175
26.100000 1.784668 38.729175
26.200000 2.694336 38.729175
26.200000 3.729004 38.729175
26.200000 3.013672 38.729175
26.200000 5.048340 38.729175
26.200000 5.083008 38.729175
26.300000 4.867676 38.729175
26.200000 7.881348 38.729175
25.900000 9.791016 38.729175
26.000000 9.950684 38.729175
26.300000 9.610352 38.729175
26.700000 12.214355 38.729175
27.000000 12.374023 38.729175
27.200000 13.033691 38.729175
27.700000 14.512695 38.729175
27.900000 15.172363 38.729175
27.800000 16.707031 38.729175
27.700000 16.741699 38.729175
27.700000 18.151367 38.729175
27.700000 18.686035 38.729175
27.800000 18.470703 38.729175
27.900000 19.755371 38.729175
26.400000 0.725586 38.867999
26.200000 2.265625 38.867999
26.200000 2.174316 38.867999
26.200000 2.708008 38.867999
26.200000 3.241699 38.867999
26.200000 3.900391 38.867999
26.300000 5.934082 38.867999
26.400000 6.467773 38.867999
26.300000 8.068848 38.867999
26.000000 8.352539 38.867999
25.900000 9.011230 38.867999
26.100000 9.794922 38.867999
26.200000 11.078613 38.867999
26.400000 11.362305 38.867999
26.800000 11.520996 38.867999
27.000000 12.929688 38.867999
27.100000 12.588379 38.867999
27.700000 14.689453 38.867999
28.000000 15.473145 38.867999
27.900000 16.381836 38.867999
27.800000 16.665527 38.867999
27.800000 17.324219 38.867999
27.800000 18.357910 38.867999
27.800000 18.766602 38.867999
27.900000 19.675293 38.867999
28.000000 19.583984 38.867999
28.400000 20.492676 38.867999
26.200000 0.101562 39.008235
26.200000 0.679688 39.008235
26.000000 2.093750 39.008235
26.200000 1.882812 39.008235
26.200000 2.046875 39.008235
26.200000 2.957031 39.008235
26.300000 3.867188 39.008235
26.400000 5.277344 39.008235
26.400000 4.687500 39.008235
26.500000 5.347656 39.008235
26.300000 7.453125 39.008235
26.000000 8.863281 39.008235
26.000000 9.898438 39.008235
26.300000 9.683594 39.008235
26.600000 11.914062 39.008235
27.000000 12.824219 39.008235
27.300000 12.359375 39.008235
27.700000 14.464844 39.008235
28.000000 15.750000 39.008235
27.800000 16.535156 39.008235
27.800000 17.320312 39.008235
27.800000 17.355469 39.008235
27.900000 17.890625 39.008235
27.900000 19.300781 39.008235
27.900000 19.210938 39.008235
26.200000 0.134766 39.139914
26.500000 -0.075195 39.139914
26.300000 1.339844 39.139914
26.200000 1.879883 39.139914
26.300000 1.919922 39.139914
26.200000 2.084961 39.139914
26.200000 4.000000 39.139914
26.300000 3.786133 39.139914
26.400000 4.697266 39.139914
26.500000 5.483398 39.139914
26.500000 5.644531 39.139914
26.300000 7.502930 39.139914
26.100000 9.164062 39.139914
26.100000 9.825195 39.139914
26.300000 9.736328 39.139914
26.600000 11.344727 39.139914
27.000000 13.005859 39.139914
27.300000 13.041992 39.139914
27.700000 14.275391 39.139914
27.900000 15.436523 39.139914
27.800000 16.472656 39.139914
27.800000 16.383789 39.139914
27.800000 17.544922 39.139914
27.900000 18.331055 39.139914
28.000000 18.742188 39.139914
28.100000 19.278320 39.139914
26.100000 1.297363 39.286810
26.300000 0.837891 39.286810
26.400000 2.128418 39.286810
26.300000 2.293945 39.286810
26.300000 3.084473 39.286810
26.400000 4.375000 39.286810
26.400000 4.413086 39.286810
26.500000 6.076172 39.286810
26.500000 6.364258 39.286810
26.400000 7.853516 39.286810
26.100000 9.016602 39.286810
26.100000 10.054688 39.286810
26.300000 9.592773 39.286810
26.500000 11.255859 39.286810
26.700000 11.793945 39.286810
27.000000 11.457031 39.286810
27.200000 12.995117 39.286810
27.400000 13.408203 39.286810
27.700000 13.446289 39.286810
27.900000 13.734375 39.286810
28.000000 15.272461 39.286810
27.900000 15.560547 39.286810
27.700000 16.848633 39.286810
27.800000 16.761719 39.286810
27.800000 17.924805 39.286810
27.900000 17.962891 39.286810
28.000000 19.500977 39.286810
28.100000 19.289062 39.286810
26.700000 0.410645 39.427626
26.600000 1.450195 39.427626
26.300000 0.864746 39.427626
26.300000 2.404297 39.427626
26.300000 2.193848 39.427626
26.300000 3.483398 39.427626
26.400000 3.772949 39.427626
26.500000 4.937500 39.427626
26.500000 5.349609 39.427626
26.500000 6.761719 39.427626
26.600000 7.423828 39.427626
26.900000 7.960938 39.427626
26.200000 8.160156 39.427626
26.200000 9.072266 39.427626
26.300000 9.484375 39.427626
26.500000 10.646484 39.427626
26.700000 10.808594 39.427626
27.000000 11.345703 39.427626
27.200000 11.882812 39.427626
27.400000 12.669922 39.427626
27.700000 14.207031 39.427626
27.900000 13.869141 39.427626
28.000000 14.781250 39.427626
27.800000 15.068359 39.427626
27.700000 16.480469 39.427626
27.800000 16.892578 39.427626
27.800000 17.179688 39.427626
27.900000 18.591797 39.427626
28.000000 19.503906 39.427626
28.100000 19.291016 39.427626
28.300000 20.078125 39.427626
26.200000 1.092773 39.555471
26.400000 1.755859 39.555471
26.300000 2.293945 39.555471
26.400000 2.957031 39.555471
26.400000 3.245117 39.555471
26.400000 4.033203 39.555471
26.500000 4.571289 39.555471
26.500000 5.234375 39.555471
26.500000 5.645020 39.555471
26.600000 6.930664 39.555471
26.900000 7.091309 39.555471
26.200000 9.662598 39.555471
26.200000 9.573242 39.555471
26.300000 9.983887 39.555471
26.800000 11.965820 39.555471
27.300000 12.626465 39.555471
27.500000 13.412109 39.555471
27.800000 13.447754 39.555471
28.000000 14.358398 39.555471
27.900000 14.519043 39.555471
27.800000 15.679688 39.555471
27.700000 16.965332 39.555471
27.700000 16.625977 39.555471
27.800000 17.411621 39.555471
27.900000 18.822266 39.555471
28.000000 18.857910 39.555471
28.200000 19.143555 39.555471
28.400000 20.304199 39.555471
26.300000 -0.010742 39.700575
26.700000 1.316406 39.700575
26.500000 1.729980 39.700575
26.400000 3.018555 39.700575
26.500000 2.932129 39.700575
26.500000 3.095703 39.700575
26.500000 3.884277 39.700575
26.600000 5.047852 39.700575
26.700000 4.961426 39.700575
26.600000 5.625000 39.700575
26.700000 7.286133 39.700575
26.700000 7.697266 39.700575
26.300000 7.858398 39.700575
26.200000 9.269531 39.700575
26.200000 9.805664 39.700575
26.300000 9.466797 39.700575
26.500000 10.377930 39.700575
26.800000 10.664062 39.700575
27.100000 11.325195 39.700575
27.400000 12.861328 39.700575
27.600000 12.647461 39.700575
27.800000 14.308594 39.700575
28.000000 14.094727 39.700575
27.900000 15.130859 39.700575
27.700000 15.291992 39.700575
27.700000 16.953125 39.700575
27.700000 16.614258 39.700575
27.700000 17.775391 39.700575
27.800000 18.436523 39.700575
28.000000 18.472656 39.700575
28.300000 19.383789 39.700575
28.500000 19.794922 39.700575
26.600000 0.441406 39.834557
26.700000 1.228516 39.834557
26.600000 2.390625 39.834557
26.400000 2.552734 39.834557
26.500000 2.714844 39.834557
26.600000 4.376953 39.834557
26.600000 4.539062 39.834557
26.700000 5.326172 39.834557
26.700000 5.988281 39.834557
26.700000 5.650391 39.834557
26.900000 6.312500 39.834557
26.200000 8.759766 39.834557
26.200000 8.545898 39.834557
26.300000 9.082031 39.834557
26.400000 10.118164 39.834557
26.900000 11.190430 39.834557
27.300000 11.601562 39.834557
27.600000 12.262695 39.834557
27.700000 12.923828 39.834557
27.800000 13.834961 39.834557
27.900000 14.871094 39.834557
27.800000 15.657227 39.834557
27.700000 16.318359 39.834557
27.700000 16.729492 39.834557
27.700000 17.390625 39.834557
27.800000 18.426758 39.834557
27.900000 18.462891 39.834557
28.100000 18.624023 39.834557
28.300000 19.410156 39.834557
28.500000 20.571289 39.834557
26.500000 0.027344 39.978556
26.500000 1.141602 39.978556
26.400000 2.554688 39.978556
26.600000 2.592773 39.978556
26.600000 3.380859 39.978556
26.600000 4.168945 39.978556
26.700000 4.832031 39.978556
26.700000 6.245117 39.978556
26.800000 6.783203 39.978556
26.900000 6.696289 39.978556
26.700000 7.359375 39.978556
26.300000 8.269531 39.978556
26.300000 8.304688 39.978556
26.400000 8.964844 39.978556
26.400000 9.875000 39.978556
26.500000 10.785156 39.978556
26.800000 10.945312 39.978556
27.300000 12.230469 39.978556
27.600000 12.765625 39.978556
27.700000 13.675781 39.978556
27.800000 13.335938 39.978556
27.900000 14.371094 39.978556
27.800000 15.406250 39.978556
27.700000 16.441406 39.978556
27.700000 16.851562 39.978556
27.700000 16.761719 39.978556
27.700000 17.171875 39.978556
27.800000 17.832031 39.978556
28.000000 18.742188 39.978556
28.300000 19.152344 39.978556
28.500000 20.312500 39.978556
26.700000 0.236328 40.120604
26.800000 0.273926 40.120604
26.700000 2.061523 40.120604
26.400000 2.849121 40.120604
26.500000 3.011719 40.120604
26.700000 3.674316 40.120604
26.700000 4.711914 40.120604
26.700000 4.124512 40.120604
26.700000 4.787109 40.120604
26.800000 5.699707 40.120604
26.800000 6.987305 40.120604
26.700000 7.274902 40.120604
26.500000 8.187500 40.120604
26.400000 8.222656 40.120604
26.400000 10.257812 40.120604
26.400000 9.792969 40.120604
26.500000 10.828125 40.120604
26.800000 11.113281 40.120604
27.300000 11.398438 40.120604
27.600000 12.058594 40.120604
27.700000 12.843750 40.120604
27.800000 13.878906 40.120604
27.900000 13.789062 40.120604
27.800000 15.324219 40.120604
27.600000 15.734375 40.120604
27.600000 16.144531 40.120604
27.700000 17.429688 40.120604
27.700000 17.464844 40.120604
27.900000 18.375000 40.120604
28.000000 19.160156 40.120604
28.300000 19.070312 40.120604
28.500000 19.855469 40.120604
26.800000 -0.073242 40.248430
26.900000 0.714844 40.248430
26.800000 1.502930 40.248430
26.600000 1.541016 40.248430
26.600000 3.329102 40.248430
26.700000 3.492188 40.248430
26.800000 3.530273 40.248430
26.800000 5.443359 40.248430
26.800000 5.106445 40.248430
26.800000 5.894531 40.248430
26.800000 6.807617 40.248430
26.800000 7.470703 40.248430
26.600000 8.758789 40.248430
26.400000 8.296875 40.248430
26.500000 9.332031 40.248430
26.500000 10.492188 40.248430
26.700000 10.777344 40.248430
27.100000 11.062500 40.248430
27.400000 11.597656 40.248430
27.600000 12.257812 40.248430
27.800000 12.417969 40.248430
27.800000 13.828125 40.248430
27.900000 14.488281 40.248430
27.800000 14.523438 40.248430
27.600000 15.933594 40.248430
27.600000 16.093750 40.248430
27.700000 16.628906 40.248430
27.800000 17.289062 40.248430
27.900000 17.949219 40.248430
28.000000 18.734375 40.248430
28.200000 19.269531 40.248430
28.500000 20.554688 40.248430
26.800000 0.694336 40.388397
27.000000 0.107910 40.388397
26.900000 1.896484 40.388397
26.600000 1.810059 40.388397
26.700000 2.473633 40.388397
26.700000 3.262207 40.388397
26.700000 3.550781 40.388397
26.700000 4.964355 40.388397
26.800000 5.377930 40.388397
26.800000 5.416504 40.388397
26.900000 7.330078 40.388397
27.000000 6.743652 40.388397
26.900000 7.532227 40.388397
26.700000 9.195801 40.388397
26.700000 9.234375 40.388397
26.700000 10.768066 40.388397
26.900000 10.051758 40.388397
27.200000 10.585449 40.388397
27.500000 11.619141 40.388397
27.700000 12.277832 40.388397
27.700000 13.061523 40.388397
27.800000 13.720215 40.388397
27.900000 13.878906 40.388397
27.800000 14.662598 40.388397
27.600000 15.321289 40.388397
27.600000 15.854980 40.388397
27.700000 17.138672 40.388397
27.800000 18.172363 40.388397
27.900000 18.456055 40.388397
28.000000 18.364746 40.388397
28.200000 19.898438 40.388397
28.500000 20.557129 40.388397
26.800000 1.298340 40.526110
26.700000 1.837891 40.526110
26.800000 2.502441 40.526110
26.800000 4.041992 40.526110
26.700000 4.831543 40.526110
26.800000 4.371094 40.526110
26.900000 6.035645 40.526110
26.800000 6.325195 40.526110
26.900000 6.739746 40.526110
27.000000 7.529297 40.526110
27.000000 7.943848 40.526110
26.900000 8.733398 40.526110
26.800000 9.897949 40.526110
26.900000 9.937500 40.526110
27.100000 10.097168 40.526110
27.400000 10.756836 40.526110
27.600000 11.416504 40.526110
27.700000 11.951172 40.526110
27.700000 12.860840 40.526110
27.900000 13.520508 40.526110
27.900000 14.680176 40.526110
27.600000 14.714844 40.526110
27.600000 15.374512 40.526110
27.700000 16.784180 40.526110
27.700000 16.943848 40.526110
27.800000 18.353516 40.526110
27.900000 18.388184 40.526110
28.100000 19.547852 40.526110
28.400000 19.332520 40.526110
28.600000 19.867188 40.526110
27.000000 0.319336 40.665302
26.900000 -0.015625 40.665302
27.000000 0.274414 40.665302
27.000000 1.564453 40.665302
26.700000 2.604492 40.665302
26.700000 3.519531 40.665302
26.800000 4.059570 40.665302
26.800000 4.724609 40.665302
26.800000 5.139648 40.665302
26.900000 6.304688 40.665302
26.900000 6.844727 40.665302
26.900000 7.509766 40.665302
27.000000 7.049805 40.665302
27.000000 8.589844 40.665302
26.900000 9.004883 40.665302
26.900000 9.544922 40.665302
27.100000 10.334961 40.665302
27.200000 11.375000 40.665302
27.400000 11.785645 40.665302
27.700000 12.071289 40.665302
27.800000 12.356934 40.665302
27.700000 12.892578 40.665302
27.900000 14.053223 40.665302
27.800000 14.588867 40.665302
27.600000 14.999512 40.665302
27.600000 16.535156 40.665302
27.700000 17.070801 40.665302
27.700000 17.606445 40.665302
27.900000 18.392090 40.665302
28.100000 18.677734 40.665302
28.200000 18.713379 40.665302
28.500000 20.374023 40.665302
27.100000 -0.078613 40.808618
27.200000 0.835938 40.808618
27.100000 2.125488 40.808618
26.800000 2.165039 40.808618
26.800000 3.704590 40.808618
26.800000 3.744141 40.808618
26.800000 3.908691 40.808618
26.800000 5.448242 40.808618
26.900000 5.737793 40.808618
26.900000 6.402344 40.808618
27.000000 6.691895 40.808618
27.000000 8.356445 40.808618
27.000000 8.895996 40.808618
26.900000 9.810547 40.808618
27.000000 9.225098 40.808618
27.100000 9.889648 40.808618
27.400000 10.429199 40.808618
27.600000 11.218750 40.808618
27.700000 11.882324 40.808618
27.700000 12.795898 40.808618
27.700000 13.334473 40.808618
27.900000 14.123047 40.808618
27.700000 15.536621 40.808618
27.600000 15.075195 40.808618
27.600000 15.738770 40.808618
27.700000 17.027344 40.808618
27.700000 17.565918 40.808618
27.900000 18.104492 40.808618
28.200000 19.268066 40.808618
28.300000 19.681641 40.808618
27.000000 1.959961 40.951017
26.800000 2.250000 40.951017
26.800000 2.290039 40.951017
26.700000 3.955078 40.951017
26.800000 4.245117 40.951017
26.800000 4.285156 40.951017
26.900000 4.950195 40.951017
26.900000 5.740234 40.951017
26.900000 6.405273 40.951017
27.000000 7.070312 40.951017
27.000000 8.110352 40.951017
27.000000 8.275391 40.951017
27.000000 9.565430 40.951017
27.100000 9.480469 40.951017
27.300000 10.895508 40.951017
27.500000 11.435547 40.951017
27.600000 11.600586 40.951017
27.700000 12.140625 40.951017
27.700000 13.301758 40.951017
27.900000 13.837891 40.951017
27.800000 14.374023 40.951017
27.500000 15.410156 40.951017
27.600000 16.071289 40.951017
27.600000 17.107422 40.951017
27.700000 16.768555 40.951017
27.800000 17.429688 40.951017
28.000000 18.965820 40.951017
28.200000 19.251953 40.951017
28.400000 19.913086 40.951017
28.700000 20.199219 40.951017
27.100000 -0.050781 41.090149
27.100000 1.114258 41.090149
27.200000 1.029297 41.090149
27.000000 1.444336 41.090149
26.800000 2.234375 41.090149
26.800000 3.399414 41.090149
26.800000 4.439453 41.090149
26.800000 4.979492 41.090149
26.900000 5.644531 41.090149
26.900000 5.684570 41.090149
27.000000 5.974609 41.090149
27.100000 7.389648 41.090149
27.000000 8.179688 41.090149
27.000000 9.219727 41.090149
27.100000 8.884766 41.090149
27.200000 9.799805 41.090149
27.300000 10.839844 41.090149
27.500000 10.754883 41.090149
27.700000 12.294922 41.090149
27.800000 12.209961 41.090149
27.800000 12.875000 41.090149
27.900000 13.285156 41.090149
27.800000 14.945312 41.090149
27.500000 14.605469 41.090149
27.600000 16.140625 41.090149
27.600000 16.550781 41.090149
27.700000 16.710938 41.090149
27.800000 17.621094 41.090149
27.900000 18.531250 41.090149
28.200000 18.816406 41.090149
28.400000 19.726562 41.090149
28.700000 20.261719 41.090149
27.100000 1.901367 41.229312
26.800000 2.064453 41.229312
26.800000 2.352539 41.229312
26.800000 3.515625 41.229312
26.800000 4.428711 41.229312
26.800000 4.716797 41.229312
26.900000 5.129883 41.229312
26.900000 6.417969 41.229312
27.000000 6.331055 41.229312
27.100000 7.119141 41.229312
27.100000 7.657227 41.229312
27.100000 9.070312 41.229312
27.000000 10.233398 41.229312
27.100000 9.646484 41.229312
27.400000 10.309570 41.229312
27.700000 11.847656 41.229312
27.700000 12.510742 41.229312
27.800000 12.298828 41.229312
27.900000 12.711914 41.229312
28.000000 13.750000 41.229312
27.800000 14.160156 41.229312
27.600000 15.195312 41.229312
27.600000 16.355469 41.229312
27.700000 16.765625 41.229312
27.700000 16.800781 41.229312
27.900000 17.460938 41.229312
28.100000 18.746094 41.229312
28.300000 18.656250 41.229312
28.500000 20.191406 41.229312
28.900000 20.351562 41.229312
27.300000 -0.177246 41.356283
26.900000 1.310547 41.356283
26.800000 1.973145 41.356283
26.800000 3.260742 41.356283
26.800000 3.923340 41.356283
26.900000 4.585938 41.356283
26.900000 4.998535 41.356283
26.900000 5.536133 41.356283
26.900000 6.073730 41.356283
27.000000 6.611328 41.356283
27.100000 8.398926 41.356283
27.100000 8.061523 41.356283
27.100000 8.849121 41.356283
27.200000 10.011719 41.356283
27.300000 9.799316 41.356283
27.600000 11.211914 41.356283
27.700000 11.249512 41.356283
27.700000 12.662109 41.356283
27.800000 12.949707 41.356283
27.900000 13.362305 41.356283
28.000000 14.024902 41.356283
27.800000 15.562500 41.356283
27.600000 15.846680 41.356283
27.600000 16.130859 41.356283
27.700000 16.540039 41.356283
27.900000 16.949219 41.356283
28.000000 18.733398 41.356283
28.200000 18.767578 41.356283
28.300000 18.926758 41.356283
27.200000 0.203125 41.495196
26.900000 2.439453 41.495196
26.800000 2.851562 41.495196
26.900000 2.888672 41.495196
26.900000 3.550781 41.495196
26.900000 4.212891 41.495196
27.000000 5.375000 41.495196
27.100000 5.662109 41.495196
27.100000 7.199219 41.495196
27.100000 7.361328 41.495196
27.100000 7.398438 41.495196
27.200000 9.060547 41.495196
27.200000 9.347656 41.495196
27.200000 10.009766 41.495196
27.400000 10.046875 41.495196
27.800000 11.496094 41.495196
27.800000 12.658203 41.495196
27.800000 13.195312 41.495196
27.900000 13.232422 41.495196
28.000000 14.019531 41.495196
27.700000 15.431641 41.495196
27.600000 15.593750 41.495196
27.700000 15.753906 41.495196
27.800000 16.414062 41.495196
27.900000 17.074219 41.495196
28.000000 18.484375 41.495196
28.200000 18.394531 41.495196
28.400000 19.054688 41.495196
28.700000 20.589844 41.495196
27.000000 1.195801 41.638706
26.800000 2.981445 41.638706
26.900000 2.517090 41.638706
26.900000 4.302734 41.638706
26.900000 3.963379 41.638706
27.000000 4.374023 41.638706
27.000000 5.409668 41.638706
27.100000 6.195312 41.638706
27.100000 7.105957 41.638706
27.100000 8.016602 41.638706
27.100000 7.677246 41.638706
27.100000 9.087891 41.638706
27.100000 9.373535 41.638706
27.300000 9.659180 41.638706
27.400000 10.694824 41.638706
27.600000 11.355469 41.638706
27.800000 11.391113 41.638706
27.800000 13.176758 41.638706
27.900000 13.587402 41.638706
28.200000 13.748047 41.638706
28.100000 14.908691 41.638706
27.700000 14.944336 41.638706
27.700000 16.104980 41.638706
27.800000 16.265625 41.638706
27.900000 17.801758 41.638706
28.000000 18.212891 41.638706
28.100000 18.624023 41.638706
28.300000 19.285156 41.638706
28.500000 20.196289 41.638706
28.900000 20.107422 41.638706
27.200000 -0.015137 41.777793
26.900000 1.597656 41.777793
26.800000 2.010254 41.777793
26.900000 3.047852 41.777793
26.800000 3.460449 41.777793
26.900000 4.873047 41.777793
26.900000 5.410645 41.777793
27.000000 6.448242 41.777793
27.100000 6.110840 41.777793
27.200000 7.148438 41.777793
27.100000 7.561035 41.777793
27.100000 7.973633 41.777793
27.200000 8.511230 41.777793
27.200000 9.673828 41.777793
27.200000 10.711426 41.777793
27.400000 11.499023 41.777793
27.600000 11.536621 41.777793
27.800000 11.574219 41.777793
27.800000 12.986816 41.777793
27.900000 13.274414 41.777793
28.200000 13.562012 41.777793
28.100000 15.349609 41.777793
27.700000 16.012207 41.777793
27.700000 16.549805 41.777793
27.800000 16.962402 41.777793
27.900000 17.875000 41.777793
28.000000 18.535156 41.777793
28.100000 18.820312 41.777793
28.300000 19.105469 41.777793
28.100000 14.481445 41.917850
27.900000 14.770996 41.917850
27.800000 16.435547 41.917850
27.800000 16.600098 41.917850
27.900000 17.139648 41.917850
28.000000 17.804199 41.917850
28.000000 17.968750 41.917850
28.300000 18.754395 41.917850
28.600000 19.540039 41.917850
28.900000 20.325684 41.917850
27.100000 0.712402 42.058514
27.000000 0.626953 42.058514
27.100000 1.416504 42.058514
26.800000 2.331055 42.058514
27.000000 8.601562 42.058514
27.200000 10.016113 42.058514
27.200000 9.805664 42.058514
27.300000 11.095215 42.058514
27.600000 11.509766 42.058514
27.900000 11.924316 42.058514
28.000000 13.088867 42.058514
28.000000 13.128418 42.058514
27.000000 0.125000 42.198181
27.300000 0.451172 42.198181
27.100000 1.364258 42.198181
26.800000 3.766602 42.198181
26.900000 4.804688 42.198181
26.900000 5.967773 42.198181
27.200000 6.505859 42.198181
27.000000 7.543945 42.198181
26.700000 8.082031 42.198181
26.800000 7.495117 42.198181
27.000000 8.533203 42.198181
27.100000 8.821289 42.198181
27.100000 9.984375 42.198181
27.500000 12.098633 42.198181
27.900000 12.636719 42.198181
28.000000 13.424805 42.198181
28.100000 13.462891 42.198181
28.200000 13.875977 42.198181
28.000000 15.664062 42.198181
27.800000 15.827148 42.198181
27.800000 16.240234 42.198181
27.900000 16.778320 42.198181
28.000000 18.066406 42.198181
28.100000 18.229492 42.198181
28.400000 19.930664 42.198181
28.900000 20.593750 42.198181
27.200000 0.768555 42.338138
27.000000 1.052734 42.338138
26.800000 1.711914 42.338138
26.800000 2.996094 42.338138
26.900000 3.280273 42.338138
26.900000 3.564453 42.338138
26.900000 4.098633 42.338138
27.000000 4.882812 42.338138
27.100000 5.916992 42.338138
26.900000 6.576172 42.338138
26.600000 7.360352 42.338138
26.600000 8.769531 42.338138
26.900000 8.803711 42.338138
27.100000 10.372070 42.338138
27.000000 11.031250 42.338138
27.900000 12.542969 42.338138
28.000000 14.077148 42.338138
28.200000 14.236328 42.338138
28.100000 15.520508 42.338138
27.900000 15.179688 42.338138
27.800000 16.588867 42.338138
27.900000 16.873047 42.338138
28.000000 17.657227 42.338138
28.000000 18.191406 42.338138
28.200000 18.725586 42.338138
28.500000 19.884766 42.338138
28.900000 20.043945 42.338138
27.000000 1.062500 42.478241
27.000000 0.472168 42.478241
27.000000 2.256836 42.478241
26.800000 2.291504 42.478241
26.800000 2.576172 42.478241
26.800000 3.610840 42.478241
26.900000 4.770508 42.478241
26.900000 5.555176 42.478241
27.100000 5.589844 42.478241
26.900000 7.124512 42.478241
26.500000 7.159180 42.478241
26.500000 7.568848 42.478241
26.600000 9.228516 42.478241
26.900000 8.763184 42.478241
27.100000 9.297852 42.478241
26.800000 10.207520 42.478241
27.900000 12.971191 42.478241
28.000000 13.380859 42.478241
28.200000 14.415527 42.478241
28.100000 15.200195 42.478241
27.900000 15.359863 42.478241
27.900000 16.644531 42.478241
27.900000 16.429199 42.478241
28.000000 17.088867 42.478241
28.000000 17.748535 42.478241
28.100000 18.658203 42.478241
28.300000 19.192871 42.478241
27.300000 1.140625 42.618469
27.000000 1.675293 42.618469
26.700000 2.959961 42.618469
26.800000 2.369629 42.618469
26.900000 3.654297 42.618469
26.900000 4.563965 42.618469
26.900000 4.223633 42.618469
27.000000 5.633301 42.618469
26.800000 6.167969 42.618469
26.400000 7.077637 42.618469
26.400000 6.987305 42.618469
26.500000 8.146973 42.618469
26.700000 8.431641 42.618469
26.900000 9.216309 42.618469
27.100000 9.875977 42.618469
27.500000 11.979980 42.618469
27.800000 12.139648 42.618469
28.000000 13.424316 42.618469
28.100000 13.333984 42.618469
28.200000 14.243652 42.618469
28.200000 15.153320 42.618469
27.900000 15.937988 42.618469
27.900000 16.722656 42.618469
27.900000 16.507324 42.618469
28.000000 17.291992 42.618469
28.100000 18.701660 42.618469
28.300000 18.986328 42.618469
28.500000 19.645996 42.618469
28.900000 20.555664 42.618469
27.000000 0.180176 42.748055
27.000000 0.718750 42.748055
27.000000 2.128906 42.748055
26.800000 2.789062 42.748055
26.800000 2.699219 42.748055
26.800000 3.609375 42.748055
26.900000 4.019531 42.748055
27.100000 4.679688 42.748055
26.900000 5.464844 42.748055
26.400000 7.375000 42.748055
26.400000 7.035156 42.748055
26.400000 8.570312 42.748055
26.700000 9.175781 42.748055
26.800000 9.960938 42.748055
27.900000 12.476562 42.748055
28.100000 13.136719 42.748055
28.200000 13.546875 42.748055
28.200000 14.457031 42.748055
27.900000 14.992188 42.748055
27.900000 15.777344 42.748055
27.900000 16.937500 42.748055
28.000000 17.097656 42.748055
28.100000 18.257812 42.748055
28.200000 18.917969 42.748055
28.400000 19.578125 42.748055
28.700000 19.863281 42.748055
26.900000 1.906250 42.891057
26.800000 2.317871 42.891057
26.800000 3.854492 42.891057
26.800000 3.516113 42.891057
26.900000 4.052734 42.891057
27.000000 5.464355 42.891057
26.800000 6.125977 42.891057
26.400000 5.912598 42.891057
26.300000 8.074219 42.891057
26.400000 8.610840 42.891057
26.600000 9.470703 42.891057
26.900000 10.632324 42.891057
27.400000 12.617188 42.891057
27.800000 12.653809 42.891057
28.100000 13.065430 42.891057
28.200000 14.227051 42.891057
28.300000 14.513672 42.891057
28.100000 14.800293 42.891057
28.000000 16.211914 42.891057
28.000000 16.748535 42.891057
28.000000 17.410156 42.891057
28.100000 17.821777 42.891057
28.200000 18.233398 42.891057
28.400000 19.270020 42.891057
28.600000 19.806641 42.891057
26.900000 1.319336 43.030312
26.800000 1.859375 43.030312
26.800000 3.394531 43.030312
26.800000 4.304688 43.030312
26.900000 4.214844 43.030312
27.000000 4.875000 43.030312
26.800000 6.035156 43.030312
26.400000 7.320312 43.030312
26.300000 7.480469 43.030312
26.300000 7.890625 43.030312
26.600000 9.996094 43.030312
27.000000 9.906250 43.030312
27.500000 11.636719 43.030312
27.800000 13.171875 43.030312
28.100000 13.582031 43.030312
28.200000 13.492188 43.030312
28.300000 14.527344 43.030312
28.100000 15.312500 43.030312
28.000000 15.597656 43.030312
28.000000 17.007812 43.030312
28.000000 17.167969 43.030312
28.100000 17.453125 43.030312
28.200000 19.113281 43.030312
28.400000 18.773438 43.030312
28.600000 20.183594 43.030312
27.100000 0.771484 43.170132
27.000000 1.687988 43.170132
26.700000 2.354492 43.170132
26.800000 2.395996 43.170132
26.800000 3.187500 43.170132
26.900000 3.597168 43.170132
26.600000 5.701172 43.170132
