29.300000 3.339355 26.761463
29.400000 3.765625 26.761463
29.500000 4.189453 26.761463
29.500000 4.863281 26.761463
29.600000 6.162109 26.761463
29.600000 6.835938 26.761463
29.700000 7.259766 26.761463
29.700000 7.808594 26.761463
29.700000 8.482422 26.761463
29.600000 9.031250 26.761463
29.700000 9.580078 26.761463
29.900000 10.253906 26.761463
30.100000 11.052734 26.761463
30.300000 11.351562 26.761463
30.500000 12.400391 26.761463
30.700000 13.074219 26.761463
30.800000 13.748047 26.761463
30.500000 14.171875 26.761463
30.200000 14.845703 26.761463
30.300000 16.019531 26.761463
30.300000 16.068359 26.761463
30.500000 17.242188 26.761463
30.600000 18.041016 26.761463
30.800000 17.964844 26.761463
31.100000 18.638672 26.761463
31.400000 19.312500 26.761463
29.700000 0.242188 26.887725
29.500000 2.520996 26.887725
29.400000 3.072266 26.887725
29.500000 4.123535 26.887725
29.500000 4.549805 26.887725
29.600000 5.226074 26.887725
29.600000 6.402344 26.887725
29.600000 7.078613 26.887725
29.700000 7.629883 26.887725
29.700000 8.181152 26.887725
29.700000 9.107422 26.887725
29.700000 9.158691 26.887725
29.900000 9.959961 26.887725
30.000000 11.011230 26.887725
30.200000 11.812500 26.887725
30.500000 11.609863 26.887725
30.600000 12.657227 26.887725
30.600000 13.704590 26.887725
30.500000 14.251953 26.887725
30.300000 14.799316 26.887725
30.200000 15.596680 26.887725
30.200000 15.894043 26.887725
30.300000 17.066406 26.887725
30.600000 16.988770 26.887725
30.800000 17.661133 26.887725
30.900000 18.333496 26.887725
31.200000 19.005859 26.887725
29.500000 2.376465 27.024409
29.400000 3.425781 27.024409
29.400000 3.725098 27.024409
29.500000 4.399414 27.024409
29.600000 4.698730 27.024409
29.600000 5.623047 27.024409
29.600000 6.797363 27.024409
29.700000 7.596680 27.024409
29.700000 8.020996 27.024409
29.700000 8.195312 27.024409
29.700000 8.869629 27.024409
29.800000 9.668945 27.024409
29.900000 10.718262 27.024409
30.100000 10.892578 27.024409
30.400000 12.191895 27.024409
30.500000 12.366211 27.024409
30.600000 12.915527 27.024409
30.600000 13.339844 27.024409
30.400000 14.889160 27.024409
30.200000 15.188477 27.024409
30.200000 15.737793 27.024409
30.200000 16.037109 27.024409
30.300000 17.211426 27.024409
30.500000 17.385742 27.024409
30.800000 17.935059 27.024409
31.100000 19.109375 27.024409
31.400000 19.280762 27.024409
30.500000 13.866699 27.163109
30.300000 14.543945 27.163109
30.200000 15.721191 27.163109
30.200000 16.148438 27.163109
30.300000 16.700684 27.163109
30.500000 17.127930 27.163109
30.700000 17.930176 27.163109
30.900000 18.607422 27.163109
31.100000 18.784668 27.163109
29.600000 2.488281 27.304755
29.500000 3.039062 27.304755
29.400000 4.464844 27.304755
29.600000 9.121094 27.304755
30.500000 11.148438 27.304755
30.600000 11.699219 27.304755
30.500000 12.750000 27.304755
30.500000 13.675781 27.304755
30.600000 18.031250 27.304755
30.900000 18.457031 27.304755
31.200000 19.007812 27.304755
29.700000 7.163086 27.443577
29.700000 7.712891 27.443577
29.700000 9.012695 27.443577
29.700000 9.562500 27.443577
29.800000 10.612305 27.443577
30.100000 10.662109 27.443577
30.400000 11.461914 27.443577
30.400000 12.386719 27.443577
30.500000 12.436523 27.443577
30.600000 13.236328 27.443577
30.400000 13.911133 27.443577
30.200000 14.960938 27.443577
30.200000 15.760742 27.443577
30.300000 15.935547 27.443577
30.400000 16.610352 27.443577
30.500000 17.410156 27.443577
30.700000 18.334961 27.443577
31.000000 18.759766 27.443577
31.200000 19.184570 27.443577
29.800000 0.585938 27.572186
29.600000 3.497070 27.572186
29.400000 3.800781 27.572186
29.500000 3.979492 27.572186
29.500000 4.533203 27.572186
29.600000 5.461914 27.572186
29.600000 6.640625 27.572186
29.600000 6.813965 27.572186
29.700000 7.237305 27.572186
29.700000 8.785645 27.572186
29.700000 8.958984 27.572186
29.700000 9.757324 27.572186
29.900000 9.930664 27.572186
30.200000 10.979004 27.572186
30.300000 11.527344 27.572186
30.400000 12.450684 27.572186
30.500000 13.374023 27.572186
30.600000 13.547363 27.572186
30.400000 14.470703 27.572186
30.200000 14.894043 27.572186
30.200000 15.942383 27.572186
30.300000 16.365723 27.572186
30.300000 16.539062 27.572186
30.500000 17.462402 27.572186
30.700000 18.510742 27.572186
30.900000 19.184082 27.572186
31.300000 19.232422 27.572186
29.600000 2.425293 27.712891
29.400000 2.976562 27.712891
29.500000 4.277832 27.712891
29.500000 4.329102 27.712891
29.600000 5.255371 27.712891
29.600000 6.181641 27.712891
29.700000 6.357910 27.712891
29.700000 7.659180 27.712891
29.700000 7.710449 27.712891
29.700000 9.011719 27.712891
29.700000 9.562988 27.712891
29.800000 10.364258 27.712891
30.000000 10.915527 27.712891
30.200000 11.216797 27.712891
30.400000 11.893066 27.712891
30.500000 12.944336 27.712891
30.500000 13.495605 27.712891
30.700000 13.921875 27.712891
30.500000 14.220703 27.712891
30.200000 15.019531 27.712891
30.200000 16.193359 27.712891
30.300000 16.242188 27.712891
30.400000 17.041016 27.712891
30.600000 17.964844 27.712891
30.800000 18.513672 27.712891
31.100000 19.187500 27.712891
31.600000 20.111328 27.712891
29.800000 1.283203 27.852967
29.800000 2.206055 27.852967
29.600000 2.628906 27.852967
29.400000 3.676758 27.852967
29.400000 3.849609 27.852967
29.500000 5.272461 27.852967
29.600000 5.570312 27.852967
29.600000 6.118164 27.852967
29.700000 7.291016 27.852967
29.800000 7.713867 27.852967
29.700000 8.136719 27.852967
29.700000 8.934570 27.852967
29.700000 9.857422 27.852967
29.800000 10.030273 27.852967
29.900000 10.703125 27.852967
30.200000 11.500977 27.852967
30.400000 12.423828 27.852967
30.400000 12.596680 27.852967
30.600000 13.894531 27.852967
30.500000 14.192383 27.852967
30.200000 14.740234 27.852967
30.200000 15.538086 27.852967
30.300000 16.210938 27.852967
30.300000 17.258789 27.852967
30.500000 17.306641 27.852967
30.700000 17.854492 27.852967
30.900000 18.902344 27.852967
31.300000 19.200195 27.852967
29.300000 2.687988 27.979965
29.400000 3.989258 27.979965
29.500000 4.290527 27.979965
29.500000 4.966797 27.979965
29.500000 5.768066 27.979965
29.700000 6.694336 27.979965
29.600000 7.495605 27.979965
29.400000 7.671875 27.979965
29.400000 8.219727 27.979965
29.600000 9.142578 27.979965
29.600000 10.190430 27.979965
29.600000 10.238281 27.979965
29.900000 10.786133 27.979965
30.200000 11.708984 27.979965
30.400000 12.006836 27.979965
30.500000 13.179688 27.979965
30.700000 13.852539 27.979965
30.500000 14.025391 27.979965
30.200000 14.948242 27.979965
30.300000 15.496094 27.979965
30.400000 16.043945 27.979965
30.400000 17.216797 27.979965
30.400000 17.639648 27.979965
30.700000 18.562500 27.979965
31.000000 19.110352 27.979965
31.400000 19.658203 27.979965
29.500000 0.566406 28.119904
29.500000 1.615234 28.119904
29.500000 2.414062 28.119904
29.500000 2.837891 28.119904
29.300000 3.386719 28.119904
29.400000 3.560547 28.119904
29.400000 4.609375 28.119904
29.400000 5.533203 28.119904
29.500000 6.082031 28.119904
29.600000 6.880859 28.119904
29.300000 7.929688 28.119904
29.100000 8.478516 28.119904
29.400000 8.527344 28.119904
29.600000 9.201172 28.119904
29.600000 10.500000 28.119904
30.000000 11.896484 28.119904
30.500000 13.070312 28.119904
30.500000 13.244141 28.119904
30.600000 14.167969 28.119904
30.600000 14.591797 28.119904
30.300000 15.140625 28.119904
30.300000 16.313965 28.119904
30.400000 16.487305 28.119904
30.400000 17.535645 28.119904
30.600000 17.708984 28.119904
30.800000 19.007324 28.119904
29.400000 1.812012 28.260875
29.500000 2.358398 28.260875
29.400000 3.904785 28.260875
29.400000 4.076172 28.260875
29.400000 4.872559 28.260875
29.400000 5.168945 28.260875
29.600000 5.840332 28.260875
29.400000 6.886719 28.260875
29.000000 8.058105 28.260875
29.000000 7.979492 28.260875
29.300000 9.025879 28.260875
29.900000 12.257812 28.260875
30.400000 12.929199 28.260875
30.500000 12.975586 28.260875
30.700000 14.021973 28.260875
30.600000 14.693359 28.260875
30.300000 15.364746 28.260875
30.300000 16.161133 28.260875
30.400000 16.957520 28.260875
30.500000 17.628906 28.260875
30.600000 17.925293 28.260875
30.800000 18.846680 28.260875
31.100000 19.643066 28.260875
29.500000 1.342773 28.386011
29.300000 1.892578 28.386011
29.300000 2.692383 28.386011
29.300000 3.617188 28.386011
29.400000 3.916992 28.386011
29.400000 4.591797 28.386011
29.500000 5.641602 28.386011
29.500000 6.566406 28.386011
29.100000 6.866211 28.386011
28.900000 7.416016 28.386011
28.900000 8.340820 28.386011
29.100000 9.015625 28.386011
29.500000 9.990234 28.386011
30.100000 12.514648 28.386011
30.400000 12.814453 28.386011
30.500000 12.989258 28.386011
30.700000 14.289062 28.386011
30.600000 14.463867 28.386011
30.300000 15.763672 28.386011
30.300000 16.563477 28.386011
30.300000 16.863281 28.386011
30.500000 17.288086 28.386011
30.600000 18.462891 28.386011
30.800000 18.387695 28.386011
31.200000 19.312500 28.386011
29.600000 1.606445 28.528213
29.200000 2.282715 28.528213
29.100000 2.958984 28.528213
29.300000 3.260254 28.528213
29.300000 4.311523 28.528213
29.200000 4.862793 28.528213
29.400000 5.289062 28.528213
29.300000 6.965332 28.528213
28.900000 6.891602 28.528213
28.800000 8.067871 28.528213
28.900000 8.744141 28.528213
29.100000 9.420410 28.528213
30.400000 12.478027 28.528213
30.400000 14.029297 28.528213
30.700000 13.955566 28.528213
30.600000 14.756836 28.528213
30.300000 15.183105 28.528213
30.300000 16.234375 28.528213
30.400000 17.033203 28.528213
30.500000 17.707031 28.528213
30.700000 18.255859 28.528213
30.900000 19.179688 28.528213
31.300000 19.603516 28.528213
29.200000 2.265625 28.666335
29.100000 3.439941 28.666335
29.300000 3.489258 28.666335
29.300000 4.413574 28.666335
29.200000 4.962891 28.666335
29.400000 6.012207 28.666335
29.300000 6.561523 28.666335
28.800000 7.610840 28.666335
28.800000 7.410156 28.666335
28.800000 8.334473 28.666335
29.100000 8.758789 28.666335
29.300000 9.433105 28.666335
29.500000 10.357422 28.666335
30.100000 11.755371 28.666335
30.400000 12.929688 28.666335
30.500000 13.854004 28.666335
30.700000 14.028320 28.666335
30.600000 15.327637 28.666335
30.400000 15.501953 28.666335
30.400000 15.926270 28.666335
30.400000 17.100586 28.666335
30.500000 17.774902 28.666335
30.700000 17.949219 28.666335
30.900000 18.998535 28.666335
31.200000 19.672852 28.666335
29.200000 0.624512 28.804991
29.300000 0.923828 28.804991
29.400000 2.348145 28.804991
29.400000 2.897461 28.804991
29.100000 2.946777 28.804991
29.200000 3.621094 28.804991
29.300000 4.795410 28.804991
29.000000 7.318359 28.804991
28.700000 7.617676 28.804991
28.800000 8.666992 28.804991
28.900000 9.341309 28.804991
29.300000 9.015625 28.804991
29.500000 9.563477 28.804991
29.300000 10.361328 28.804991
29.400000 11.159180 28.804991
29.800000 11.707031 28.804991
30.300000 12.754883 28.804991
30.600000 12.802734 28.804991
30.700000 13.850586 28.804991
30.700000 14.398438 28.804991
30.600000 15.071289 28.804991
30.400000 16.119141 28.804991
30.500000 16.166992 28.804991
30.500000 17.089844 28.804991
30.600000 17.512695 28.804991
30.800000 18.935547 28.804991
29.200000 1.073242 28.945898
29.200000 2.373047 28.945898
29.300000 2.672852 28.945898
29.100000 3.222656 28.945898
29.200000 4.647461 28.945898
29.200000 5.072266 28.945898
29.000000 6.596680 28.945898
28.700000 7.771484 28.945898
28.800000 8.821289 28.945898
29.000000 8.996094 28.945898
29.300000 9.295898 28.945898
29.400000 10.595703 28.945898
29.300000 11.145508 28.945898
29.500000 11.195312 28.945898
29.900000 12.245117 28.945898
30.300000 12.919922 28.945898
30.600000 13.094727 28.945898
30.700000 14.394531 28.945898
30.800000 15.069336 28.945898
30.600000 15.369141 28.945898
30.400000 16.293945 28.945898
30.500000 16.593750 28.945898
30.500000 17.641602 28.945898
30.600000 17.814453 28.945898
30.700000 19.112305 28.945898
30.900000 19.035156 28.945898
29.400000 1.396484 29.085662
29.100000 2.823242 29.085662
29.000000 2.625000 29.085662
29.100000 3.547363 29.085662
29.100000 4.219727 29.085662
29.100000 5.017090 29.085662
29.200000 5.814453 29.085662
29.500000 6.236816 29.085662
28.800000 8.206543 29.085662
28.700000 8.378906 29.085662
29.000000 8.801270 29.085662
29.300000 9.848633 29.085662
29.500000 10.270996 29.085662
29.600000 11.568359 29.085662
29.600000 12.115723 29.085662
30.000000 12.163086 29.085662
30.200000 13.085449 29.085662
30.500000 13.507812 29.085662
30.800000 14.430176 29.085662
30.800000 15.227539 29.085662
30.600000 15.274902 29.085662
30.500000 16.322266 29.085662
30.500000 16.744629 29.085662
30.600000 17.166992 29.085662
30.600000 17.964355 29.085662
30.700000 18.886719 29.085662
31.100000 19.184082 29.085662
29.000000 3.290527 29.209169
29.100000 3.715820 29.209169
29.100000 4.266113 29.209169
29.100000 5.191406 29.209169
29.200000 5.866699 29.209169
29.500000 5.916992 29.209169
28.700000 8.392578 29.209169
28.700000 8.192871 29.209169
28.900000 9.493164 29.209169
29.200000 9.918457 29.209169
29.200000 10.593750 29.209169
29.300000 10.767090 29.209169
29.600000 11.565430 29.209169
30.000000 12.238770 29.209169
30.200000 12.787109 29.209169
30.500000 13.835449 29.209169
30.800000 14.008789 29.209169
30.800000 14.682129 29.209169
30.600000 15.355469 29.209169
30.600000 16.153809 29.209169
30.600000 16.952148 29.209169
30.600000 17.500488 29.209169
30.600000 18.548828 29.209169
30.800000 18.597168 29.209169
31.100000 19.645508 29.209169
29.300000 0.414062 29.350250
29.300000 1.589844 29.350250
29.400000 1.765625 29.350250
29.300000 2.816406 29.350250
29.100000 3.742188 29.350250
29.100000 4.042969 29.350250
29.100000 4.718750 29.350250
29.100000 5.144531 29.350250
29.200000 5.945312 29.350250
29.300000 6.871094 29.350250
29.000000 7.171875 29.350250
28.600000 7.847656 29.350250
28.700000 8.398438 29.350250
29.000000 9.699219 29.350250
29.200000 9.875000 29.350250
29.300000 10.550781 29.350250
29.400000 11.601562 29.350250
29.800000 11.902344 29.350250
30.100000 12.703125 29.350250
30.600000 14.230469 29.350250
30.900000 15.031250 29.350250
30.600000 15.832031 29.350250
30.500000 16.257812 29.350250
30.500000 17.058594 29.350250
30.500000 17.984375 29.350250
30.700000 18.657227 29.350250
29.200000 2.537109 29.489794
29.100000 3.963867 29.489794
29.100000 4.515625 29.489794
29.200000 4.813965 29.489794
29.200000 5.112305 29.489794
28.800000 7.382324 29.489794
28.700000 8.680664 29.489794
28.800000 8.729004 29.489794
29.000000 9.777344 29.489794
29.400000 11.297363 29.489794
29.900000 11.845703 29.489794
30.100000 13.144043 29.489794
30.600000 14.664062 29.489794
30.800000 15.462402 29.489794
30.600000 16.260742 29.489794
30.500000 17.059082 29.489794
30.500000 17.732422 29.489794
30.600000 18.030762 29.489794
30.700000 18.829102 29.489794
30.900000 19.252441 29.489794
29.200000 0.804688 29.616159
29.100000 1.604980 29.616159
29.100000 1.530273 29.616159
29.300000 2.455566 29.616159
29.100000 3.755859 29.616159
29.100000 3.681152 29.616159
29.200000 4.606445 29.616159
29.200000 5.031738 29.616159
28.900000 7.682617 29.616159
28.700000 8.482910 29.616159
28.800000 8.533203 29.616159
29.000000 9.833496 29.616159
29.300000 11.734375 29.616159
29.700000 12.031250 29.616159
29.900000 12.703125 29.616159
30.900000 15.515625 29.616159
30.600000 15.687500 29.616159
30.500000 16.234375 29.616159
30.500000 17.531250 29.616159
30.600000 17.703125 29.616159
30.700000 18.750000 29.616159
30.900000 19.421875 29.616159
29.400000 0.551758 29.757252
29.300000 1.474609 29.757252
29.200000 2.522461 29.757252
29.200000 2.945312 29.757252
29.100000 3.243164 29.757252
29.100000 4.166016 29.757252
29.100000 4.588867 29.757252
29.100000 6.136719 29.757252
28.900000 8.030273 29.757252
28.700000 8.328125 29.757252
28.700000 9.500977 29.757252
29.000000 9.298828 29.757252
29.000000 10.846680 29.757252
29.100000 10.519531 29.757252
29.500000 11.192383 29.757252
29.700000 12.365234 29.757252
29.900000 13.163086 29.757252
30.500000 14.681641 29.757252
30.900000 15.604492 29.757252
30.600000 16.402344 29.757252
30.500000 16.450195 29.757252
30.600000 17.498047 29.757252
30.600000 18.170898 29.757252
30.700000 18.468750 29.757252
31.100000 19.014648 29.757252
29.300000 1.256836 29.882272
29.200000 2.058594 29.882272
29.300000 3.360352 29.882272
29.100000 3.412109 29.882272
29.100000 4.463867 29.882272
29.100000 4.765625 29.882272
29.100000 5.939941 29.882272
28.900000 7.337891 29.882272
28.700000 8.762207 29.882272
28.700000 8.686523 29.882272
28.900000 9.985840 29.882272
28.900000 10.035156 29.882272
29.000000 10.959473 29.882272
29.300000 12.133789 29.882272
29.500000 12.183105 29.882272
29.900000 12.607422 29.882272
30.500000 14.380371 29.882272
30.800000 15.179688 29.882272
30.600000 15.854004 29.882272
30.500000 16.403320 29.882272
30.500000 17.327637 29.882272
30.600000 18.501953 29.882272
30.700000 19.051270 29.882272
31.100000 19.225586 29.882272
29.400000 1.058594 30.022933
29.400000 2.960938 30.022933
29.100000 3.636719 30.022933
29.100000 3.687500 30.022933
29.200000 4.488281 30.022933
29.200000 5.539062 30.022933
28.900000 7.941406 30.022933
28.700000 7.992188 30.022933
28.700000 9.292969 30.022933
28.800000 9.718750 30.022933
28.800000 10.144531 30.022933
28.900000 11.195312 30.022933
29.200000 11.371094 30.022933
29.400000 12.421875 30.022933
29.800000 12.472168 30.022933
30.800000 15.173340 30.022933
30.600000 15.973633 30.022933
30.500000 16.648926 30.022933
30.500000 17.574219 30.022933
30.600000 17.874512 30.022933
30.700000 19.049805 30.022933
31.100000 19.225098 30.022933
29.500000 0.968750 30.161069
29.400000 0.769531 30.161069
29.300000 2.320312 30.161069
29.200000 3.121094 30.161069
29.100000 3.546875 30.161069
29.200000 3.722656 30.161069
29.200000 4.523438 30.161069
29.200000 5.449219 30.161069
28.900000 7.851562 30.161069
28.700000 7.652344 30.161069
28.700000 8.578125 30.161069
28.800000 9.378906 30.161069
28.800000 10.054688 30.161069
28.900000 10.855469 30.161069
29.100000 11.531250 30.161069
29.400000 11.957031 30.161069
29.700000 12.257812 30.161069
30.300000 14.910156 30.161069
30.600000 14.835938 30.161069
30.500000 15.761719 30.161069
30.500000 16.562500 30.161069
30.500000 17.238281 30.161069
30.600000 18.164062 30.161069
30.700000 18.589844 30.161069
31.000000 19.265625 30.161069
29.400000 1.649902 30.299899
29.200000 2.201172 30.299899
29.100000 3.252441 30.299899
29.200000 4.053711 30.299899
29.300000 4.604980 30.299899
29.300000 5.031250 30.299899
29.100000 6.205078 30.299899
29.100000 6.253906 30.299899
29.300000 6.802734 30.299899
29.000000 8.226562 30.299899
28.700000 9.275391 30.299899
28.700000 9.949219 30.299899
28.800000 9.748047 30.299899
28.900000 11.171875 30.299899
29.100000 11.595703 30.299899
29.400000 11.519531 30.299899
29.700000 13.068359 30.299899
30.100000 14.464844 30.299899
30.400000 14.888672 30.299899
30.400000 16.187500 30.299899
30.500000 16.361328 30.299899
30.500000 16.910156 30.299899
30.600000 17.583984 30.299899
30.800000 18.882812 30.299899
31.000000 18.931641 30.299899
29.400000 0.457520 30.443078
29.500000 1.257812 30.443078
29.400000 1.683105 30.443078
29.200000 2.483398 30.443078
29.200000 3.158691 30.443078
29.200000 3.583984 30.443078
29.200000 4.634277 30.443078
29.300000 5.684570 30.443078
29.200000 5.734863 30.443078
29.300000 6.285156 30.443078
29.600000 7.585449 30.443078
28.700000 8.811035 30.443078
28.800000 9.736328 30.443078
28.800000 10.411621 30.443078
28.900000 10.586914 30.443078
29.100000 11.387207 30.443078
29.400000 12.062500 30.443078
29.700000 12.859863 30.443078
30.200000 13.782227 30.443078
30.300000 13.704590 30.443078
30.200000 14.751953 30.443078
30.300000 15.424316 30.443078
30.300000 16.096680 30.443078
30.400000 17.019043 30.443078
30.500000 17.441406 30.443078
30.600000 17.988770 30.443078
30.900000 18.911133 30.443078
31.200000 19.083496 30.443078
29.500000 1.574219 30.569852
29.200000 2.998047 30.569852
29.100000 2.921875 30.569852
29.200000 4.220703 30.569852
29.300000 4.769531 30.569852
29.300000 5.568359 30.569852
29.400000 5.992188 30.569852
29.200000 7.638672 30.569852
28.800000 8.812500 30.569852
28.800000 9.111328 30.569852
28.900000 10.535156 30.569852
28.900000 10.333984 30.569852
29.100000 11.632812 30.569852
29.400000 11.431641 30.569852
29.600000 12.605469 30.569852
29.900000 13.404297 30.569852
30.100000 14.078125 30.569852
30.200000 14.126953 30.569852
30.300000 15.050781 30.569852
30.400000 15.599609 30.569852
30.500000 16.648438 30.569852
30.500000 16.822266 30.569852
30.600000 17.746094 30.569852
30.800000 18.669922 30.569852
29.300000 1.404785 30.710730
29.100000 2.455078 30.710730
29.200000 2.755371 30.710730
29.200000 3.430664 30.710730
29.200000 4.105957 30.710730
29.300000 4.656250 30.710730
29.400000 6.079102 30.710730
29.300000 6.001953 30.710730
29.200000 6.674805 30.710730
29.500000 7.972656 30.710730
28.800000 9.568359 30.710730
28.900000 9.616211 30.710730
29.000000 10.164062 30.710730
29.200000 11.211914 30.710730
29.400000 11.509766 30.710730
29.600000 12.182617 30.710730
29.800000 13.230469 30.710730
30.100000 13.903320 30.710730
30.200000 13.951172 30.710730
30.200000 14.624023 30.710730
30.300000 15.671875 30.710730
30.400000 16.469727 30.710730
30.500000 16.642578 30.710730
30.600000 17.190430 30.710730
30.800000 18.488281 30.710730
31.000000 18.911133 30.710730
31.400000 19.583984 30.710730
29.500000 2.048828 30.850964
29.200000 2.847656 30.850964
29.100000 3.771484 30.850964
29.200000 3.695312 30.850964
29.300000 4.494141 30.850964
29.300000 5.292969 30.850964
29.400000 6.216797 30.850964
29.300000 6.765625 30.850964
29.400000 7.439453 30.850964
29.600000 7.863281 30.850964
29.300000 8.412109 30.850964
28.900000 9.460938 30.850964
29.000000 10.009766 30.850964
29.100000 10.558594 30.850964
29.300000 10.857422 30.850964
29.500000 11.531250 30.850964
29.700000 12.579102 30.850964
29.900000 13.251953 30.850964
30.100000 13.674805 30.850964
30.200000 14.097656 30.850964
30.300000 15.145508 30.850964
30.400000 15.693359 30.850964
30.500000 16.116211 30.850964
30.500000 16.914062 30.850964
30.700000 18.211914 30.850964
30.900000 18.134766 30.850964
31.100000 19.307617 30.850964
29.500000 1.517578 30.989961
29.100000 2.192383 30.989961
29.100000 2.742188 30.989961
29.200000 3.666992 30.989961
29.300000 4.091797 30.989961
29.300000 5.016602 30.989961
29.400000 6.066406 30.989961
29.400000 6.241211 30.989961
29.400000 7.041016 30.989961
29.500000 8.090820 30.989961
29.400000 8.515625 30.989961
29.100000 8.940430 30.989961
29.100000 9.740234 30.989961
29.200000 10.165039 30.989961
29.300000 11.464844 30.989961
29.500000 12.264648 30.989961
29.800000 12.314453 30.989961
30.000000 12.864258 30.989961
30.100000 13.539062 30.989961
30.200000 14.213867 30.989961
30.300000 14.888672 30.989961
30.300000 15.813477 30.989961
30.400000 15.988281 30.989961
30.500000 16.788086 30.989961
30.700000 17.837891 30.989961
30.800000 18.762695 30.989961
29.400000 1.274902 31.117022
29.300000 1.826172 31.117022
29.300000 2.752441 31.117022
29.200000 4.178711 31.117022
29.300000 4.104980 31.117022
29.300000 4.531250 31.117022
29.400000 5.830566 31.117022
29.400000 6.129883 31.117022
29.400000 7.179199 31.117022
29.400000 7.603516 31.117022
29.500000 8.402832 31.117022
29.500000 8.827148 31.117022
29.200000 9.626465 31.117022
29.200000 10.425781 31.117022
29.300000 10.725098 31.117022
29.500000 11.649414 31.117022
29.800000 12.698730 31.117022
30.000000 12.623047 31.117022
30.000000 13.547363 31.117022
30.100000 13.971680 31.117022
30.200000 14.520996 31.117022
30.300000 15.695312 31.117022
30.400000 16.244629 31.117022
30.500000 17.043945 31.117022
30.600000 17.718262 31.117022
30.800000 18.392578 31.117022
31.000000 18.566895 31.117022
31.400000 19.491211 31.117022
29.600000 0.963867 31.258154
29.500000 1.515625 31.258154
29.400000 1.942383 31.258154
29.300000 2.494141 31.258154
29.200000 3.170898 31.258154
29.300000 4.222656 31.258154
29.300000 4.274414 31.258154
29.400000 5.701172 31.258154
29.400000 6.377930 31.258154
29.500000 6.554688 31.258154
29.500000 6.981445 31.258154
29.500000 8.158203 31.258154
29.600000 8.709961 31.258154
29.500000 9.011719 31.258154
29.400000 9.813477 31.258154
29.400000 10.615234 31.258154
29.600000 11.041992 31.258154
29.900000 11.968750 31.258154
30.000000 12.766602 31.258154
30.000000 13.189453 31.258154
30.100000 13.987305 31.258154
30.200000 15.160156 31.258154
30.300000 15.458008 31.258154
30.400000 16.255859 31.258154
30.400000 16.553711 31.258154
30.600000 16.976562 31.258154
30.800000 18.274414 31.258154
31.000000 18.322266 31.258154
31.300000 19.370117 31.258154
29.500000 2.132812 31.397164
29.100000 2.558594 31.397164
29.100000 3.484375 31.397164
29.200000 3.785156 31.397164
29.300000 4.210938 31.397164
29.300000 4.886719 31.397164
29.400000 6.187500 31.397164
29.400000 6.613281 31.397164
29.500000 6.664062 31.397164
29.500000 8.214844 31.397164
29.500000 8.890625 31.397164
29.600000 9.316406 31.397164
29.600000 9.367188 31.397164
29.600000 10.292969 31.397164
29.600000 11.343750 31.397164
29.900000 11.894531 31.397164
30.000000 12.945312 31.397164
29.900000 12.746094 31.397164
30.000000 13.546875 31.397164
30.200000 14.347656 31.397164
30.300000 15.148438 31.397164
30.300000 15.449219 31.397164
30.400000 16.750000 31.397164
30.600000 16.800781 31.397164
30.700000 17.476562 31.397164
30.900000 17.902344 31.397164
31.200000 18.578125 31.397164
31.700000 19.502930 31.397164
29.700000 0.554688 31.523866
29.600000 1.605469 31.523866
29.400000 2.031250 31.523866
29.300000 3.082031 31.523866
29.200000 3.757812 31.523866
29.300000 4.433594 31.523866
29.300000 4.984375 31.523866
29.400000 5.407715 31.523866
29.400000 5.831055 31.523866
29.500000 6.379395 31.523866
29.500000 7.552734 31.523866
29.500000 7.851074 31.523866
29.600000 8.649414 31.523866
29.600000 9.947754 31.523866
29.600000 10.621094 31.523866
29.700000 11.294434 31.523866
29.900000 11.842773 31.523866
30.000000 12.016113 31.523866
29.900000 12.439453 31.523866
30.000000 13.612793 31.523866
30.000000 14.161133 31.523866
30.100000 14.709473 31.523866
30.300000 15.507812 31.523866
30.400000 16.056152 31.523866
30.400000 16.354492 31.523866
30.600000 17.652832 31.523866
30.800000 17.701172 31.523866
31.000000 18.624512 31.523866
31.300000 19.047852 31.523866
29.500000 1.822754 31.662252
29.200000 2.122070 31.662252
29.200000 2.796387 31.662252
29.300000 4.095703 31.662252
29.300000 4.020020 31.662252
29.300000 5.069336 31.662252
29.400000 5.493652 31.662252
29.500000 6.167969 31.662252
29.500000 7.092285 31.662252
29.500000 7.391602 31.662252
29.500000 8.065918 31.662252
29.600000 9.365234 31.662252
29.600000 10.039551 31.662252
29.700000 10.713867 31.662252
29.900000 11.263184 31.662252
30.000000 11.562500 31.662252
29.900000 12.484863 31.662252
29.900000 13.282227 31.662252
30.000000 13.954590 31.662252
30.100000 14.001953 31.662252
30.200000 15.174316 31.662252
30.300000 15.471680 31.662252
30.400000 16.394043 31.662252
30.500000 17.191406 31.662252
30.600000 17.863770 31.662252
30.900000 18.161133 31.662252
31.100000 18.833496 31.662252
31.600000 19.505859 31.662252
29.700000 0.877441 31.803090
29.600000 1.299805 31.803090
29.400000 2.472168 31.803090
29.500000 2.894531 31.803090
29.400000 3.316895 31.803090
29.400000 4.739258 31.803090
29.400000 5.411621 31.803090
29.500000 5.083984 31.803090
29.600000 5.881348 31.803090
29.600000 6.553711 31.803090
29.600000 7.726074 31.803090
29.600000 8.398438 31.803090
29.600000 9.070801 31.803090
29.600000 9.993164 31.803090
29.600000 10.165527 31.803090
29.900000 10.462891 31.803090
30.000000 11.760254 31.803090
29.900000 12.307617 31.803090
29.900000 13.229980 31.803090
30.000000 13.527344 31.803090
30.100000 13.699707 31.803090
30.200000 14.372070 31.803090
30.300000 15.294434 31.803090
30.400000 15.841797 31.803090
30.500000 17.139160 31.803090
30.700000 17.061523 31.803090
30.800000 18.108887 31.803090
31.100000 18.906250 31.803090
31.500000 18.831055 31.803090
29.700000 0.429688 31.942335
29.500000 1.480469 31.942335
29.400000 2.031250 31.942335
29.500000 2.957031 31.942335
29.400000 3.757812 31.942335
29.500000 3.933594 31.942335
29.400000 5.109375 31.942335
29.500000 5.532715 31.942335
29.500000 6.081055 31.942335
29.600000 7.254395 31.942335
29.600000 7.427734 31.942335
29.600000 7.726074 31.942335
29.600000 8.649414 31.942335
29.600000 9.822754 31.942335
29.700000 10.246094 31.942335
29.900000 11.169434 31.942335
30.000000 11.592773 31.942335
29.900000 12.141113 31.942335
29.900000 12.564453 31.942335
30.000000 13.487793 31.942335
30.100000 14.286133 31.942335
30.200000 14.334473 31.942335
30.300000 15.382812 31.942335
30.400000 16.431152 31.942335
30.600000 16.604492 31.942335
30.700000 17.277832 31.942335
30.800000 18.076172 31.942335
31.000000 18.874512 31.942335
31.400000 19.672852 31.942335
29.700000 1.234375 32.069725
29.500000 1.410156 32.069725
29.400000 2.460938 32.069725
29.500000 3.136719 32.069725
29.500000 4.187500 32.069725
29.500000 4.488281 32.069725
29.500000 5.164062 32.069725
29.600000 6.089844 32.069725
29.600000 6.640625 32.069725
29.600000 7.566406 32.069725
29.700000 7.867188 32.069725
29.700000 9.042969 32.069725
29.700000 9.218750 32.069725
29.700000 9.644531 32.069725
29.900000 10.570312 32.069725
30.000000 10.996094 32.069725
30.000000 11.671875 32.069725
29.900000 12.469238 32.069725
30.000000 13.141602 32.069725
30.100000 14.313965 32.069725
30.200000 14.986328 32.069725
30.300000 15.283691 32.069725
30.400000 15.956055 32.069725
30.500000 16.128418 32.069725
30.600000 16.800781 32.069725
30.700000 17.723145 32.069725
30.900000 18.145508 32.069725
31.200000 18.817871 32.069725
29.700000 0.884766 32.210494
29.500000 2.058594 32.210494
29.400000 2.982422 32.210494
29.500000 3.156250 32.210494
29.500000 3.455078 32.210494
29.500000 4.628906 32.210494
29.500000 5.802734 32.210494
29.600000 5.476562 32.210494
29.600000 6.400391 32.210494
29.600000 7.324219 32.210494
29.700000 7.998047 32.210494
29.600000 8.671875 32.210494
29.700000 9.720703 32.210494
29.700000 10.144531 32.210494
29.900000 10.818359 32.210494
30.000000 11.492188 32.210494
30.000000 12.041016 32.210494
29.900000 12.839844 32.210494
30.000000 13.138672 32.210494
30.100000 14.062500 32.210494
30.200000 14.861328 32.210494
30.300000 15.285156 32.210494
30.400000 15.708984 32.210494
30.500000 16.632812 32.210494
30.600000 17.056641 32.210494
30.700000 17.730469 32.210494
30.900000 18.529297 32.210494
31.200000 19.203125 32.210494
30.000000 1.175781 32.349402
29.800000 1.851562 32.349402
29.500000 1.902344 32.349402
29.500000 2.828125 32.349402
29.500000 3.628906 32.349402
29.500000 4.554688 32.349402
29.500000 4.855469 32.349402
29.600000 5.281250 32.349402
29.600000 5.955078 32.349402
29.600000 6.378906 32.349402
29.600000 7.427734 32.349402
29.700000 8.101562 32.349402
29.700000 8.900391 32.349402
29.800000 9.074219 32.349402
29.800000 9.873047 32.349402
30.100000 10.296875 32.349402
30.000000 11.595703 32.349402
29.900000 11.894531 32.349402
30.000000 12.943359 32.349402
30.000000 13.117188 32.349402
30.100000 13.666016 32.349402
30.200000 14.464844 32.349402
30.300000 15.888672 32.349402
30.400000 15.687500 32.349402
30.600000 16.611328 32.349402
30.700000 17.785156 32.349402
30.800000 17.958984 32.349402
31.000000 18.757812 32.349402
31.400000 18.931641 32.349402
29.600000 5.723145 32.491146
29.600000 7.321777 32.491146
29.600000 7.871094 32.491146
29.700000 8.295410 32.491146
29.700000 9.219727 32.491146
29.800000 9.769043 32.491146
29.800000 10.443359 32.491146
30.100000 10.742676 32.491146
30.100000 11.541992 32.491146
30.000000 11.716309 32.491146
30.000000 13.265625 32.491146
30.000000 13.062500 32.491146
30.100000 14.109375 32.491146
30.300000 14.531250 32.491146
30.400000 15.328125 32.491146
30.500000 15.875000 32.491146
30.500000 16.796875 32.491146
30.700000 17.718750 32.491146
30.900000 18.015625 32.491146
31.100000 18.937500 32.491146
31.500000 19.359375 32.491146
30.600000 16.312500 32.616955
30.700000 17.609375 32.616955
30.800000 17.781250 32.616955
31.000000 18.453125 32.616955
31.400000 19.125000 32.616955
29.500000 2.868652 32.756339
29.600000 2.794922 32.756339
29.700000 3.596191 32.756339
29.700000 4.397461 32.756339
29.700000 5.198730 32.756339
29.600000 6.125000 32.756339
29.600000 6.798828 32.756339
29.500000 2.242188 32.897179
29.600000 2.418457 32.897179
29.700000 3.719727 32.897179
29.800000 9.254883 32.897179
29.900000 9.431152 32.897179
30.100000 10.107422 32.897179
30.200000 11.283691 32.897179
30.100000 11.584961 32.897179
30.000000 12.011230 32.897179
30.100000 12.562500 32.897179
30.200000 13.736816 32.897179
30.300000 13.786133 32.897179
30.400000 14.960449 32.897179
30.500000 15.259766 32.897179
30.500000 16.309082 32.897179
30.600000 16.733398 32.897179
30.700000 17.657715 32.897179
30.900000 17.957031 32.897179
31.100000 18.881348 32.897179
31.500000 19.430664 32.897179
29.600000 2.283203 33.026210
29.600000 2.708008 33.026210
29.700000 4.007812 33.026210
29.700000 4.182617 33.026210
29.700000 5.607422 33.026210
29.700000 5.532227 33.026210
29.800000 6.082031 33.026210
29.800000 7.506836 33.026210
29.800000 8.306641 33.026210
29.800000 8.106445 33.026210
29.900000 9.281250 33.026210
30.000000 9.581055 33.026210
30.200000 10.880859 33.026210
30.100000 10.680664 33.026210
30.000000 11.355469 33.026210
30.100000 12.280273 33.026210
30.100000 12.705078 33.026210
30.200000 13.504883 33.026210
30.300000 14.179688 33.026210
30.400000 14.854492 33.026210
30.500000 15.654297 33.026210
30.600000 16.079102 33.026210
30.700000 16.628906 33.026210
30.900000 17.428711 33.026210
31.000000 18.228516 33.026210
31.300000 18.778320 33.026210
29.600000 3.078125 33.163807
29.700000 3.128906 33.163807
29.700000 4.054688 33.163807
29.700000 4.480469 33.163807
29.700000 5.281250 33.163807
29.700000 6.579590 33.163807
29.800000 6.877930 33.163807
29.800000 7.551270 33.163807
29.900000 7.974609 33.163807
29.900000 8.897949 33.163807
29.900000 9.196289 33.163807
30.100000 10.244629 33.163807
30.200000 10.917969 33.163807
30.100000 11.466309 33.163807
30.000000 12.514648 33.163807
30.100000 12.687988 33.163807
30.200000 13.236328 33.163807
30.300000 14.409668 33.163807
30.400000 15.208008 33.163807
30.500000 15.881348 33.163807
30.500000 16.054688 33.163807
30.700000 17.103027 33.163807
30.800000 17.651367 33.163807
30.900000 17.949707 33.163807
31.200000 18.748047 33.163807
31.600000 19.171387 33.163807
29.700000 2.721680 33.305589
29.700000 3.646484 33.305589
29.700000 3.821289 33.305589
29.700000 5.246094 33.305589
29.700000 5.920898 33.305589
29.700000 6.095703 33.305589
29.800000 6.770508 33.305589
29.800000 7.320312 33.305589
29.900000 7.745117 33.305589
29.900000 8.669922 33.305589
30.000000 9.219727 33.305589
30.100000 10.019531 33.305589
30.200000 11.194336 33.305589
30.100000 11.744141 33.305589
30.100000 12.168945 33.305589
30.200000 12.718750 33.305589
30.200000 13.766113 33.305589
30.200000 14.563477 33.305589
30.400000 14.985840 33.305589
30.500000 15.783203 33.305589
30.500000 15.955566 33.305589
30.700000 17.002930 33.305589
30.800000 17.425293 33.305589
30.900000 18.222656 33.305589
31.200000 18.520020 33.305589
31.500000 19.192383 33.305589
29.700000 2.977539 33.445780
29.600000 3.525879 33.445780
29.700000 4.074219 33.445780
29.700000 4.122559 33.445780
29.700000 4.795898 33.445780
29.700000 5.594238 33.445780
29.800000 6.517578 33.445780
29.800000 6.815918 33.445780
29.800000 7.614258 33.445780
29.900000 8.287598 33.445780
30.000000 9.210938 33.445780
30.000000 9.884277 33.445780
30.300000 10.307617 33.445780
30.200000 11.355957 33.445780
30.000000 11.654297 33.445780
30.100000 12.827637 33.445780
30.100000 12.750977 33.445780
30.200000 14.049316 33.445780
30.300000 14.347656 33.445780
30.400000 14.770996 33.445780
30.500000 15.819336 33.445780
30.600000 16.242676 33.445780
30.800000 16.791016 33.445780
30.900000 17.589355 33.445780
31.000000 18.762695 33.445780
31.300000 19.186035 33.445780
29.700000 2.110352 33.571552
29.600000 3.535156 33.571552
29.700000 3.459961 33.571552
29.700000 4.509766 33.571552
29.700000 5.184570 33.571552
29.700000 5.984375 33.571552
29.800000 6.782227 33.571552
29.800000 7.205078 33.571552
29.800000 7.752930 33.571552
29.900000 8.675781 33.571552
30.000000 9.348633 33.571552
30.000000 9.771484 33.571552
30.200000 10.069336 33.571552
30.200000 10.867188 33.571552
30.100000 11.665039 33.571552
30.100000 12.087891 33.571552
30.200000 12.760742 33.571552
30.300000 13.808594 33.571552
30.400000 14.231445 33.571552
30.500000 14.654297 33.571552
30.600000 15.952148 33.571552
30.700000 16.250000 33.571552
30.800000 16.547852 33.571552
30.900000 17.345703 33.571552
31.000000 18.268555 33.571552
29.600000 3.167480 33.711945
29.700000 3.092773 33.711945
29.700000 4.393066 33.711945
29.700000 5.318359 33.711945
29.700000 5.993652 33.711945
29.700000 6.168945 33.711945
29.800000 6.594238 33.711945
29.900000 7.769531 33.711945
30.000000 8.194824 33.711945
30.000000 8.495117 33.711945
30.100000 9.545410 33.711945
30.200000 9.720703 33.711945
30.300000 10.770996 33.711945
30.100000 11.571289 33.711945
30.100000 12.621582 33.711945
30.200000 12.546875 33.711945
30.200000 13.594727 33.711945
30.300000 14.267578 33.711945
30.400000 15.315430 33.711945
30.500000 15.113281 33.711945
30.600000 15.661133 33.711945
30.700000 16.458984 33.711945
30.800000 17.256836 33.711945
30.900000 18.429688 33.711945
31.200000 18.602539 33.711945
31.600000 19.650391 33.711945
29.700000 2.142578 33.852145
29.700000 3.067383 33.852145
29.700000 3.492188 33.852145
29.700000 4.791992 33.852145
29.800000 4.841797 33.852145
29.800000 6.391602 33.852145
29.800000 6.566406 33.852145
29.900000 7.616211 33.852145
30.000000 7.666016 33.852145
30.000000 8.340820 33.852145
30.000000 9.515625 33.852145
30.200000 9.940430 33.852145
30.400000 10.240234 33.852145
30.300000 11.040039 33.852145
30.100000 11.589844 33.852145
30.200000 12.514648 33.852145
30.200000 13.689453 33.852145
30.200000 14.364258 33.852145
30.300000 14.664062 33.852145
30.500000 15.338867 33.852145
30.600000 16.138672 33.852145
30.700000 16.563477 33.852145
30.800000 17.488281 33.852145
30.900000 17.538086 33.852145
31.100000 18.712891 33.852145
31.400000 18.887695 33.852145
29.700000 2.413086 33.977155
29.700000 3.589844 33.977155
29.700000 4.266602 33.977155
29.700000 4.943359 33.977155
29.800000 4.870117 33.977155
29.800000 5.796875 33.977155
29.800000 6.469238 33.977155
29.900000 7.141602 33.977155
30.000000 7.813965 33.977155
30.000000 8.861328 33.977155
30.000000 9.658691 33.977155
30.200000 9.831055 33.977155
30.400000 10.378418 33.977155
30.300000 11.425781 33.977155
30.200000 12.348145 33.977155
30.200000 12.520508 33.977155
30.200000 12.817871 33.977155
30.300000 13.615234 33.977155
30.400000 14.412598 33.977155
30.500000 14.834961 33.977155
30.600000 16.257324 33.977155
30.700000 16.179688 33.977155
30.800000 17.102051 33.977155
30.900000 17.899414 33.977155
31.100000 18.571777 33.977155
31.400000 19.244141 33.977155
29.700000 3.222656 34.117973
29.800000 3.398438 34.117973
29.700000 4.574219 34.117973
29.800000 5.000000 34.117973
29.800000 5.550781 34.117973
29.800000 6.351562 34.117973
29.900000 7.152344 34.117973
30.000000 7.328125 34.117973
30.000000 8.253906 34.117973
30.000000 9.054688 34.117973
30.100000 9.855469 34.117973
30.400000 9.906250 34.117973
30.400000 10.582031 34.117973
30.200000 11.507812 34.117973
30.100000 12.558594 34.117973
30.200000 13.484375 34.117973
30.300000 13.407227 34.117973
30.400000 14.330078 34.117973
30.500000 14.627930 34.117973
30.600000 15.675781 34.117973
30.700000 16.348633 34.117973
30.800000 16.646484 34.117973
30.900000 17.194336 34.117973
31.000000 17.867188 34.117973
29.700000 2.889648 34.257454
29.600000 3.188965 34.257454
29.700000 4.238281 34.257454
29.700000 4.287598 34.257454
29.800000 4.711914 34.257454
29.900000 5.886230 34.257454
29.900000 6.185547 34.257454
29.900000 6.734863 34.257454
30.000000 8.034180 34.257454
30.000000 8.083496 34.257454
30.000000 9.007812 34.257454
30.100000 10.057129 34.257454
30.400000 10.606445 34.257454
30.400000 11.155762 34.257454
30.100000 11.455078 34.257454
30.100000 12.879395 34.257454
30.100000 13.053711 34.257454
30.300000 14.228027 34.257454
30.400000 14.277344 34.257454
30.500000 15.076660 34.257454
30.500000 16.000977 34.257454
30.700000 16.550293 34.257454
30.800000 16.724609 34.257454
30.900000 18.023926 34.257454
31.000000 18.698242 34.257454
31.400000 19.122559 34.257454
29.700000 3.244141 34.396934
29.700000 3.667969 34.396934
29.700000 4.966797 34.396934
29.800000 5.515625 34.396934
29.800000 6.437988 34.396934
29.900000 6.360352 34.396934
29.900000 7.032715 34.396934
30.000000 7.580078 34.396934
30.000000 8.627441 34.396934
30.000000 9.549805 34.396934
30.200000 10.097168 34.396934
30.400000 10.394531 34.396934
30.300000 11.191895 34.396934
30.200000 12.239258 34.396934
30.200000 12.536621 34.396934
30.200000 13.208984 34.396934
30.300000 14.381348 34.396934
30.400000 14.428711 34.396934
30.500000 15.351074 34.396934
30.600000 16.273438 34.396934
30.700000 16.445801 34.396934
30.800000 17.243164 34.396934
31.000000 17.790527 34.396934
31.200000 18.712891 34.396934
31.600000 19.385254 34.396934
30.700000 0.583496 34.537557
30.200000 1.257812 34.537557
29.700000 2.432129 34.537557
29.700000 3.356445 34.537557
29.800000 3.405762 34.537557
29.700000 4.455078 34.537557
29.800000 5.004395 34.537557
29.800000 5.303711 34.537557
29.900000 6.103027 34.537557
30.000000 7.277344 34.537557
30.000000 7.951660 34.537557
30.000000 8.125977 34.537557
30.100000 8.925293 34.537557
30.200000 9.599609 34.537557
30.400000 10.148926 34.537557
30.400000 11.073242 34.537557
30.200000 11.372559 34.537557
30.100000 12.296875 34.537557
30.200000 12.721191 34.537557
30.300000 13.395508 34.537557
30.400000 14.069824 34.537557
30.500000 14.869141 34.537557
30.600000 16.043457 34.537557
30.700000 16.092773 34.537557
30.800000 17.267090 34.537557
30.900000 17.816406 34.537557
31.100000 18.615723 34.537557
30.200000 1.886719 34.677617
29.800000 2.685547 34.677617
29.800000 3.109375 34.677617
29.800000 3.783203 34.677617
29.700000 4.332031 34.677617
29.800000 5.255859 34.677617
29.900000 6.179688 34.677617
29.900000 6.603516 34.677617
30.000000 7.277344 34.677617
30.000000 7.701172 34.677617
30.000000 8.375000 34.677617
30.100000 9.548828 34.677617
30.300000 9.972656 34.677617
30.300000 10.396484 34.677617
30.200000 11.695312 34.677617
30.100000 12.244141 34.677617
30.200000 13.042969 34.677617
30.200000 13.091797 34.677617
30.300000 14.265625 34.677617
30.400000 14.439453 34.677617
30.500000 15.738281 34.677617
30.700000 15.787109 34.677617
30.800000 17.085938 34.677617
30.800000 16.884766 34.677617
31.000000 17.933594 34.677617
31.200000 18.482422 34.677617
31.600000 19.531250 34.677617
30.300000 2.214844 34.801852
29.800000 2.765625 34.801852
29.700000 2.941406 34.801852
29.700000 4.242188 34.801852
29.800000 4.667969 34.801852
29.800000 5.093750 34.801852
29.900000 5.642578 34.801852
29.900000 6.566406 34.801852
30.000000 7.240234 34.801852
30.000000 7.539062 34.801852
30.000000 8.587891 34.801852
30.000000 9.511719 34.801852
30.200000 9.435547 34.801852
30.400000 10.484375 34.801852
30.300000 11.658203 34.801852
30.200000 12.082031 34.801852
30.200000 12.255859 34.801852
30.200000 13.054688 34.801852
30.300000 13.728516 34.801852
30.400000 14.652344 34.801852
30.500000 15.451172 34.801852
30.700000 15.625000 34.801852
30.800000 16.048828 34.801852
30.900000 16.847656 34.801852
31.000000 17.521484 34.801852
31.200000 18.695312 34.801852
31.400000 18.744141 34.801852
30.500000 1.066895 34.942254
30.300000 1.242188 34.942254
30.000000 2.042480 34.942254
29.700000 3.342773 34.942254
29.700000 3.518066 34.942254
29.700000 3.943359 34.942254
29.800000 4.618652 34.942254
29.800000 5.168945 34.942254
29.900000 5.969238 34.942254
30.000000 6.769531 34.942254
30.000000 7.319824 34.942254
30.000000 8.495117 34.942254
30.000000 8.420410 34.942254
30.100000 9.720703 34.942254
30.400000 9.895996 34.942254
30.400000 10.821289 34.942254
30.100000 11.371582 34.942254
30.100000 12.296875 34.942254
30.100000 12.968750 34.942254
30.300000 13.390625 34.942254
30.400000 13.937500 34.942254
30.500000 15.234375 34.942254
30.600000 15.156250 34.942254
30.700000 16.078125 34.942254
30.800000 16.500000 34.942254
31.000000 17.171875 34.942254
31.100000 18.093750 34.942254
31.200000 19.140625 34.942254
31.700000 19.187500 34.942254
30.100000 1.542969 35.081238
29.800000 2.966797 35.081238
29.700000 2.765625 35.081238
29.700000 3.439453 35.081238
29.800000 4.738281 35.081238
29.800000 4.787109 35.081238
29.900000 5.460938 35.081238
29.900000 6.009766 35.081238
30.000000 6.808594 35.081238
30.000000 7.607422 35.081238
30.000000 8.531250 35.081238
30.000000 9.205078 35.081238
30.200000 10.253906 35.081238
30.400000 10.802734 35.081238
30.300000 11.476562 35.081238
30.100000 11.650391 35.081238
30.100000 12.574219 35.081238
30.200000 12.998047 35.081238
30.300000 13.421875 35.081238
30.400000 14.470703 35.081238
30.600000 15.144531 35.081238
30.700000 15.568359 35.081238
30.800000 16.867188 35.081238
30.900000 16.791016 35.081238
31.000000 17.714844 35.081238
31.200000 18.013672 35.081238
31.400000 18.687500 35.081238
29.700000 2.647461 35.208493
29.800000 3.197266 35.208493
29.800000 4.497070 35.208493
29.800000 5.171875 35.208493
29.800000 5.219727 35.208493
29.900000 6.517578 35.208493
30.000000 7.065430 35.208493
30.000000 7.363281 35.208493
30.000000 7.911133 35.208493
30.000000 9.458984 35.208493
30.100000 9.256836 35.208493
30.400000 10.054688 35.208493
30.400000 10.602539 35.208493
30.200000 11.525391 35.208493
30.100000 12.323242 35.208493
30.100000 12.746094 35.208493
30.300000 13.668945 35.208493
30.400000 13.841797 35.208493
30.500000 14.889648 35.208493
30.600000 15.812500 35.208493
30.700000 15.735352 35.208493
30.800000 16.908203 35.208493
30.900000 17.331055 35.208493
31.100000 18.003906 35.208493
31.300000 19.051758 35.208493
31.800000 19.099609 35.208493
29.700000 3.206055 35.348120
29.800000 3.878906 35.348120
29.800000 4.301758 35.348120
29.800000 4.974609 35.348120
29.800000 5.772461 35.348120
29.900000 6.195312 35.348120
29.900000 7.618164 35.348120
30.000000 8.291016 35.348120
30.000000 8.338867 35.348120
30.000000 9.511719 35.348120
30.200000 9.559570 35.348120
30.400000 10.357422 35.348120
30.300000 11.655273 35.348120
30.100000 12.203125 35.348120
30.100000 13.001465 35.348120
30.200000 12.799805 35.348120
30.300000 14.098145 35.348120
30.400000 14.771484 35.348120
30.500000 14.819824 35.348120
30.700000 15.743164 35.348120
30.800000 16.291504 35.348120
30.900000 16.964844 35.348120
31.000000 17.513184 35.348120
31.200000 18.061523 35.348120
31.500000 18.984863 35.348120
29.700000 3.352539 35.489923
29.800000 4.025391 35.489923
29.800000 4.198242 35.489923
29.800000 5.746094 35.489923
29.800000 6.293945 35.489923
29.900000 6.466797 35.489923
29.900000 7.139648 35.489923
30.000000 8.187500 35.489923
30.000000 8.735352 35.489923
30.000000 9.283203 35.489923
30.200000 9.706055 35.489923
30.400000 10.503906 35.489923
30.300000 11.176758 35.489923
30.100000 11.724609 35.489923
30.100000 12.397461 35.489923
30.200000 13.195312 35.489923
30.300000 13.743164 35.489923
30.400000 14.916016 35.489923
30.500000 15.588867 35.489923
30.700000 16.011719 35.489923
30.800000 16.184570 35.489923
30.900000 17.107422 35.489923
31.000000 17.655273 35.489923
31.200000 18.203125 35.489923
31.500000 19.001465 35.489923
29.700000 3.807617 35.629136
29.700000 3.609375 35.629136
29.800000 4.783691 35.629136
29.800000 5.583008 35.629136
29.800000 5.757324 35.629136
29.900000 6.806641 35.629136
29.900000 7.480957 35.629136
30.000000 8.030273 35.629136
30.000000 8.954590 35.629136
30.100000 9.628906 35.629136
30.200000 9.678223 35.629136
30.400000 10.227539 35.629136
30.300000 11.526855 35.629136
30.100000 11.701172 35.629136
30.100000 13.125488 35.629136
30.200000 13.174805 35.629136
30.300000 13.849121 35.629136
