26.300000 -17.926270 44.528850
26.300000 -17.155273 44.528850
26.200000 -16.259277 44.528850
26.100000 -15.238281 44.528850
26.000000 -14.717285 44.528850
25.900000 -14.446289 44.528850
25.900000 -14.050293 44.528850
25.900000 -11.904297 44.528850
25.900000 -12.008301 44.528850
26.000000 -11.737305 44.528850
26.200000 -10.966309 44.528850
26.500000 -10.195312 44.528850
28.900000 -28.617188 44.683857
28.800000 -28.472656 44.683857
28.600000 -27.453125 44.683857
28.400000 -27.058594 44.683857
28.200000 -26.039062 44.683857
28.100000 -24.644531 44.683857
27.900000 -24.250000 44.683857
27.700000 -23.730469 44.683857
27.400000 -23.066406 44.683857
27.400000 -22.171875 44.683857
27.200000 -20.777344 44.683857
26.800000 -20.382812 44.683857
26.600000 -19.488281 44.683857
26.500000 -18.593750 44.683857
26.400000 -18.324219 44.683857
26.400000 -18.304688 44.683857
26.400000 -16.285156 44.683857
26.300000 -16.640625 44.683857
26.200000 -15.371094 44.683857
26.100000 -15.351562 44.683857
26.000000 -13.832031 44.683857
25.900000 -13.437500 44.683857
25.800000 -12.417969 44.683857
25.900000 -12.773438 44.683857
26.000000 -12.128906 44.683857
26.100000 -10.734375 44.683857
28.900000 -29.248535 44.823701
28.800000 -28.476562 44.823701
28.600000 -27.079590 44.823701
28.400000 -26.932617 44.823701
28.200000 -25.535645 44.823701
28.100000 -25.388672 44.823701
27.900000 -24.741699 44.823701
27.800000 -24.594727 44.823701
27.600000 -23.947754 44.823701
27.400000 -21.903809 44.823701
27.200000 -21.631836 44.823701
26.800000 -21.109863 44.823701
26.600000 -19.587891 44.823701
26.500000 -19.690918 44.823701
26.500000 -18.543945 44.823701
26.400000 -18.021973 44.823701
26.300000 -17.750000 44.823701
26.300000 -16.480469 44.823701
26.200000 -16.335938 44.823701
26.100000 -15.566406 44.823701
26.000000 -13.796875 44.823701
25.900000 -13.777344 44.823701
25.900000 -13.757812 44.823701
25.900000 -11.613281 44.823701
26.000000 -12.468750 44.823701
26.000000 -10.699219 44.823701
26.200000 -10.179688 44.823701
26.500000 -10.910156 44.823701
28.800000 -29.386719 44.951103
28.800000 -27.864258 44.951103
28.600000 -27.591797 44.951103
28.400000 -27.194336 44.951103
28.200000 -25.546875 44.951103
28.100000 -25.528320 44.951103
27.900000 -24.384766 44.951103
27.700000 -24.241211 44.951103
27.600000 -23.347656 44.951103
27.500000 -23.204102 44.951103
27.400000 -21.810547 44.951103
27.200000 -21.541992 44.951103
26.900000 -20.898438 44.951103
26.700000 -19.629883 44.951103
26.600000 -18.486328 44.951103
26.500000 -19.217773 44.951103
26.400000 -18.574219 44.951103
26.300000 -16.805664 44.951103
26.300000 -15.912109 44.951103
26.200000 -16.268555 44.951103
26.100000 -14.750000 44.951103
26.000000 -15.356445 44.951103
25.900000 -13.337891 44.951103
25.900000 -13.944336 44.951103
25.900000 -13.300781 44.951103
25.900000 -12.032227 44.951103
26.000000 -11.763672 44.951103
26.200000 -11.120117 44.951103
26.500000 -10.726562 44.951103
28.800000 -29.634766 45.106112
28.800000 -28.863281 45.106112
28.600000 -28.216797 45.106112
28.500000 -26.570312 45.106112
28.300000 -25.923828 45.106112
28.100000 -25.652344 45.106112
28.000000 -25.255859 45.106112
27.800000 -24.734375 45.106112
27.700000 -23.962891 45.106112
27.500000 -22.441406 45.106112
27.100000 -20.751953 45.106112
26.700000 -20.480469 45.106112
26.500000 -18.958984 45.106112
26.500000 -19.437500 45.106112
26.400000 -18.916016 45.106112
26.400000 -16.894531 45.106112
26.300000 -16.623047 45.106112
26.200000 -15.476562 45.106112
26.100000 -14.955078 45.106112
26.000000 -14.058594 45.106112
26.000000 -13.537109 45.106112
25.900000 -13.765625 45.106112
25.900000 -12.997070 45.106112
25.900000 -12.228516 45.106112
26.000000 -12.209961 45.106112
26.100000 -10.566406 45.106112
28.800000 -29.551758 45.246118
28.700000 -28.777832 45.246118
28.600000 -28.253906 45.246118
28.400000 -26.729980 45.246118
28.200000 -26.206055 45.246118
28.100000 -26.057129 45.246118
28.000000 -25.158203 45.246118
27.800000 -24.259277 45.246118
27.700000 -24.235352 45.246118
27.500000 -23.336426 45.246118
27.300000 -21.666504 45.246118
27.100000 -20.145508 45.246118
26.700000 -20.124512 45.246118
26.500000 -19.978516 45.246118
26.500000 -18.707520 45.246118
26.400000 -18.811523 45.246118
26.400000 -17.040527 45.246118
26.300000 -17.519531 45.246118
26.200000 -15.623535 45.246118
26.100000 -15.602539 45.246118
26.000000 -14.331543 45.246118
26.000000 -14.560547 45.246118
25.900000 -14.039551 45.246118
25.900000 -13.518555 45.246118
25.900000 -11.372559 45.246118
26.000000 -11.476562 45.246118
26.100000 -10.580566 45.246118
28.900000 -29.465332 45.386015
28.700000 -28.193359 45.386015
28.600000 -28.171387 45.386015
28.400000 -27.274414 45.386015
28.300000 -26.627441 45.386015
28.200000 -26.355469 45.386015
28.000000 -25.333496 45.386015
27.800000 -25.061523 45.386015
27.700000 -24.289551 45.386015
27.600000 -22.892578 45.386015
27.200000 -21.348633 45.386015
27.200000 -21.076660 45.386015
27.000000 -20.179688 45.386015
26.600000 -18.907715 45.386015
26.500000 -19.010742 45.386015
26.400000 -18.238770 45.386015
26.400000 -18.091797 45.386015
26.300000 -17.194824 45.386015
26.300000 -16.547852 45.386015
26.200000 -16.150879 45.386015
26.100000 -15.253906 45.386015
26.000000 -14.856934 45.386015
25.900000 -14.334961 45.386015
25.800000 -13.687988 45.386015
25.900000 -12.666016 45.386015
26.000000 -10.894043 45.386015
26.100000 -10.747070 45.386015
28.700000 -29.100586 45.527950
28.600000 -27.826172 45.527950
28.500000 -27.926758 45.527950
28.400000 -27.027344 45.527950
28.200000 -26.252930 45.527950
28.000000 -25.603516 45.527950
27.800000 -24.454102 45.527950
27.700000 -24.179688 45.527950
27.600000 -22.905273 45.527950
27.400000 -22.880859 45.527950
27.200000 -22.606445 45.527950
27.000000 -21.832031 45.527950
27.100000 -21.182617 45.527950
26.900000 -20.158203 45.527950
26.500000 -18.633789 45.527950
26.500000 -18.984375 45.527950
26.400000 -17.587891 45.527950
26.300000 -16.816406 45.527950
26.300000 -16.669922 45.527950
26.200000 -15.148438 45.527950
26.100000 -15.251953 45.527950
26.000000 -14.980469 45.527950
25.900000 -14.458984 45.527950
25.900000 -13.312500 45.527950
26.000000 -12.791016 45.527950
26.000000 -12.144531 45.527950
26.100000 -11.873047 45.527950
26.300000 -10.601562 45.527950
26.600000 -9.705078 45.527950
28.900000 -29.527832 45.668724
28.700000 -29.002930 45.668724
28.600000 -28.353027 45.668724
28.400000 -26.828125 45.668724
28.300000 -26.433105 45.668724
28.200000 -25.788086 45.668724
28.000000 -25.518066 45.668724
27.800000 -24.373047 45.668724
27.700000 -23.603027 45.668724
27.500000 -23.583008 45.668724
27.200000 -22.562988 45.668724
27.000000 -21.792969 45.668724
26.900000 -20.397949 45.668724
27.000000 -20.877930 45.668724
26.900000 -19.982910 45.668724
26.600000 -18.962891 45.668724
26.400000 -18.192871 45.668724
26.400000 -17.672852 45.668724
26.400000 -17.152832 45.668724
26.300000 -16.882812 45.668724
26.200000 -15.862793 45.668724
26.200000 -14.342773 45.668724
26.000000 -14.697754 45.668724
26.000000 -14.427734 45.668724
26.000000 -13.532715 45.668724
26.000000 -12.887695 45.668724
26.000000 -10.992676 45.668724
26.100000 -11.347656 45.668724
29.300000 -29.684082 45.811935
28.900000 -28.661133 45.811935
28.700000 -28.013184 45.811935
28.600000 -27.740234 45.811935
28.400000 -26.842285 45.811935
28.400000 -26.944336 45.811935
28.200000 -25.546387 45.811935
28.000000 -25.273438 45.811935
27.800000 -24.750488 45.811935
27.600000 -24.227539 45.811935
27.200000 -22.454590 45.811935
27.000000 -22.431641 45.811935
26.900000 -21.033691 45.811935
26.800000 -21.510742 45.811935
26.900000 -20.612793 45.811935
26.600000 -17.793945 45.811935
26.500000 -18.145996 45.811935
26.500000 -16.873047 45.811935
26.400000 -15.850098 45.811935
26.300000 -15.577148 45.811935
26.200000 -15.304199 45.811935
26.100000 -13.531250 45.811935
26.100000 -13.514160 45.811935
26.100000 -13.372070 45.811935
26.100000 -12.729980 45.811935
26.100000 -10.837891 45.811935
26.200000 -11.320801 45.811935
26.400000 -16.414062 45.950477
26.200000 -13.710938 45.950477
26.100000 -12.816406 45.950477
26.100000 -11.921875 45.950477
26.200000 -11.027344 45.950477
26.400000 -11.382812 45.950477
26.700000 -10.238281 45.950477
29.300000 -29.442871 46.106030
28.700000 -28.779785 46.106030
28.600000 -27.510742 46.106030
28.400000 -26.991699 46.106030
28.400000 -26.597656 46.106030
28.000000 -24.684570 46.106030
27.900000 -24.290527 46.106030
26.900000 -22.752441 46.106030
26.800000 -22.108398 46.106030
26.800000 -21.589355 46.106030
26.800000 -20.695312 46.106030
26.800000 -19.426270 46.106030
26.900000 -20.032227 46.106030
27.100000 -19.263184 46.106030
27.000000 -18.244141 46.106030
26.600000 -17.975098 46.106030
26.500000 -16.831055 46.106030
26.400000 -16.687012 46.106030
26.300000 -15.292969 46.106030
26.300000 -14.898926 46.106030
26.200000 -14.004883 46.106030
26.100000 -13.860840 46.106030
26.100000 -12.966797 46.106030
26.100000 -12.447754 46.106030
26.200000 -11.678711 46.106030
26.400000 -10.784668 46.106030
26.700000 -10.640625 46.106030
29.400000 -29.734375 46.245125
29.000000 -28.960938 46.245125
28.800000 -28.562500 46.245125
28.700000 -27.914062 46.245125
28.500000 -27.140625 46.245125
28.400000 -26.367188 46.245125
28.300000 -25.718750 46.245125
28.100000 -24.570312 46.245125
27.100000 -22.898438 46.245125
26.900000 -23.250000 46.245125
26.800000 -21.976562 46.245125
26.800000 -21.328125 46.245125
26.800000 -20.429688 46.245125
26.800000 -19.281250 46.245125
26.900000 -19.507812 46.245125
27.000000 -18.859375 46.245125
27.300000 -17.714355 46.245125
27.100000 -17.819336 46.245125
26.600000 -17.174316 46.245125
26.500000 -16.654297 46.245125
26.400000 -15.759277 46.245125
26.300000 -15.239258 46.245125
26.200000 -14.719238 46.245125
26.200000 -12.949219 46.245125
26.200000 -12.054199 46.245125
26.100000 -12.284180 46.245125
26.200000 -10.889160 46.245125
26.400000 -10.869141 46.245125
26.700000 -10.224121 46.245125
29.100000 -28.778320 46.384023
28.900000 -27.881348 46.384023
28.700000 -27.109375 46.384023
28.600000 -27.338867 46.384023
28.500000 -26.443359 46.384023
28.300000 -25.047852 46.384023
28.200000 -25.152344 46.384023
27.000000 -23.611328 46.384023
26.900000 -22.590820 46.384023
26.900000 -22.445312 46.384023
26.800000 -21.299805 46.384023
26.800000 -21.279297 46.384023
26.800000 -20.008789 46.384023
26.900000 -19.363281 46.384023
27.100000 -18.967773 46.384023
27.300000 -18.572266 46.384023
27.200000 -17.301758 46.384023
26.800000 -16.156250 46.384023
26.500000 -16.760742 46.384023
26.400000 -15.740234 46.384023
26.300000 -15.094727 46.384023
26.300000 -13.824219 46.384023
26.200000 -13.803711 46.384023
26.200000 -12.408203 46.384023
26.300000 -12.637695 46.384023
26.400000 -11.992188 46.384023
26.500000 -11.221680 46.384023
26.800000 -10.701172 46.384023
29.300000 -29.138184 46.523037
28.800000 -28.217285 46.523037
28.800000 -27.444336 46.523037
28.600000 -26.796387 46.523037
28.500000 -26.398438 46.523037
28.300000 -24.875488 46.523037
27.000000 -23.306641 46.523037
27.000000 -21.658691 46.523037
27.000000 -22.135742 46.523037
26.900000 -21.237793 46.523037
26.900000 -19.589844 46.523037
27.000000 -20.066895 46.523037
27.200000 -18.418945 46.523037
27.300000 -18.770996 46.523037
27.400000 -17.623047 46.523037
27.200000 -17.475098 46.523037
26.400000 -14.763184 46.523037
26.300000 -14.245117 46.523037
26.300000 -13.477051 46.523037
26.300000 -12.708984 46.523037
26.400000 -11.440918 46.523037
26.500000 -10.547852 46.523037
29.900000 -29.766602 46.664812
29.400000 -29.242188 46.664812
28.900000 -28.717773 46.664812
28.900000 -27.818359 46.664812
28.800000 -26.918945 46.664812
28.500000 -25.120117 46.664812
28.400000 -24.595703 46.664812
27.200000 -23.171875 46.664812
27.100000 -22.900391 46.664812
27.200000 -22.378906 46.664812
27.200000 -21.982422 46.664812
27.000000 -21.460938 46.664812
27.000000 -20.314453 46.664812
27.100000 -19.917969 46.664812
27.300000 -19.521484 46.664812
27.400000 -18.625000 46.664812
27.500000 -18.228516 46.664812
27.800000 -17.082031 46.664812
26.700000 -14.789062 46.664812
26.500000 -14.142578 46.664812
26.400000 -13.621094 46.664812
26.300000 -12.703125 46.664812
26.300000 -12.681641 46.664812
26.400000 -11.535156 46.664812
26.600000 -11.513672 46.664812
29.400000 -28.723145 46.820378
29.000000 -28.202148 46.820378
28.900000 -27.806152 46.820378
28.800000 -27.035156 46.820378
28.700000 -26.389160 46.820378
28.500000 -25.618164 46.820378
28.500000 -25.347168 46.820378
27.200000 -23.055176 46.820378
27.200000 -22.659180 46.820378
27.100000 -20.846191 46.820378
27.200000 -20.575195 46.820378
27.300000 -19.304199 46.820378
27.400000 -18.658203 46.820378
27.400000 -18.512207 46.820378
27.700000 -17.741211 46.820378
28.000000 -17.345215 46.820378
27.600000 -16.324219 46.820378
26.900000 -15.178223 46.820378
26.600000 -15.157227 46.820378
26.500000 -14.386230 46.820378
26.500000 -12.615234 46.820378
26.400000 -11.573242 46.820378
26.500000 -11.156250 46.820378
26.800000 -10.638672 46.820378
29.500000 -29.664062 46.948700
29.100000 -29.015625 46.948700
29.000000 -27.867188 46.948700
28.900000 -26.843750 46.948700
28.800000 -26.695312 46.948700
28.700000 -25.671875 46.948700
28.600000 -24.898438 46.948700
28.500000 -24.375000 46.948700
27.300000 -23.203125 46.948700
27.300000 -22.929688 46.948700
27.400000 -20.609375 46.948700
27.300000 -19.710938 46.948700
27.400000 -19.687500 46.948700
27.500000 -18.792480 46.948700
27.600000 -16.232422 46.948700
27.500000 -16.462402 46.948700
27.100000 -15.567383 46.948700
26.700000 -15.047363 46.948700
26.600000 -14.402344 46.948700
26.500000 -12.757324 46.948700
26.500000 -12.862305 46.948700
26.500000 -11.217285 46.948700
26.500000 -10.572266 46.948700
26.700000 -10.802246 46.948700
27.100000 -10.407227 46.948700
29.200000 -29.115723 47.087555
29.000000 -28.093750 47.087555
28.900000 -27.074707 47.087555
28.800000 -27.055664 47.087555
28.700000 -25.661621 47.087555
28.600000 -25.267578 47.087555
28.600000 -24.248535 47.087555
27.300000 -23.210449 47.087555
27.300000 -22.816406 47.087555
27.500000 -20.634277 47.087555
27.500000 -20.240234 47.087555
27.400000 -18.596191 47.087555
27.600000 -19.077148 47.087555
27.700000 -16.395020 47.087555
27.500000 -16.375977 47.087555
27.100000 -15.606934 47.087555
26.800000 -14.337891 47.087555
26.700000 -14.318848 47.087555
26.500000 -12.924805 47.087555
26.500000 -13.280762 47.087555
26.500000 -12.511719 47.087555
26.600000 -11.117676 47.087555
26.700000 -10.473633 47.087555
27.100000 -10.204590 47.087555
30.100000 -29.786133 47.243034
29.800000 -29.763184 47.243034
29.300000 -28.365234 47.243034
29.200000 -28.217285 47.243034
29.100000 -27.319336 47.243034
28.900000 -27.171387 47.243034
28.800000 -26.148438 47.243034
28.600000 -24.875488 47.243034
28.600000 -24.227539 47.243034
27.400000 -23.556641 47.243034
27.600000 -20.089844 47.243034
27.600000 -20.316895 47.243034
27.600000 -19.293945 47.243034
27.700000 -19.270996 47.243034
27.600000 -18.373047 47.243034
27.800000 -17.725098 47.243034
27.900000 -16.327148 47.243034
27.500000 -16.179199 47.243034
27.100000 -14.906250 47.243034
26.900000 -14.511719 47.243034
26.800000 -13.742188 47.243034
26.600000 -13.597656 47.243034
26.600000 -12.953125 47.243034
26.500000 -11.808594 47.243034
26.700000 -10.519531 47.243034
27.100000 -10.375000 47.243034
29.700000 -29.075684 47.382842
29.200000 -28.553711 47.382842
29.200000 -27.781738 47.382842
29.000000 -26.884766 47.382842
28.900000 -25.612793 47.382842
28.600000 -25.215820 47.382842
28.600000 -24.443848 47.382842
27.500000 -23.024414 47.382842
27.600000 -23.126953 47.382842
27.600000 -21.184570 47.382842
27.600000 -19.912109 47.382842
27.600000 -19.389648 47.382842
27.700000 -18.492188 47.382842
27.900000 -17.822266 47.382842
27.900000 -17.174805 47.382842
27.600000 -16.152344 47.382842
27.200000 -15.879883 47.382842
27.000000 -15.107422 47.382842
26.800000 -13.334961 47.382842
26.700000 -13.812500 47.382842
26.600000 -12.915039 47.382842
26.600000 -12.142578 47.382842
26.700000 -10.097656 47.382842
27.100000 -9.950195 47.382842
29.800000 -29.562500 47.523883
29.400000 -28.289062 47.523883
29.300000 -28.265625 47.523883
29.200000 -26.992188 47.523883
29.000000 -25.968750 47.523883
28.900000 -26.195312 47.523883
28.600000 -25.671875 47.523883
28.500000 -24.898438 47.523883
27.500000 -23.226562 47.523883
27.600000 -22.078125 47.523883
27.600000 -22.054688 47.523883
27.700000 -21.531250 47.523883
27.800000 -19.882812 47.523883
27.700000 -19.734375 47.523883
27.700000 -19.585938 47.523883
27.900000 -18.937500 47.523883
28.000000 -18.039062 47.523883
28.100000 -17.015625 47.523883
27.900000 -16.867188 47.523883
27.400000 -16.093750 47.523883
27.100000 -15.570312 47.523883
27.000000 -14.296875 47.523883
26.900000 -13.773438 47.523883
26.800000 -13.375000 47.523883
26.700000 -12.851562 47.523883
26.600000 -11.078125 47.523883
26.800000 -11.561035 47.523883
29.800000 -29.308594 47.662446
29.400000 -28.534180 47.662446
29.300000 -27.259766 47.662446
29.100000 -26.985352 47.662446
29.000000 -25.835938 47.662446
28.800000 -25.061523 47.662446
28.900000 -25.162109 47.662446
27.800000 -23.363281 47.662446
27.700000 -22.838867 47.662446
27.500000 -21.814453 47.662446
27.700000 -21.915039 47.662446
27.800000 -20.640625 47.662446
27.800000 -19.496582 47.662446
27.700000 -18.977539 47.662446
27.800000 -18.833496 47.662446
28.000000 -17.939453 47.662446
27.900000 -17.920410 47.662446
27.900000 -17.276367 47.662446
27.700000 -16.257324 47.662446
27.200000 -15.113281 47.662446
27.000000 -15.094238 47.662446
26.900000 -13.700195 47.662446
26.900000 -12.806152 47.662446
26.800000 -12.787109 47.662446
26.700000 -12.643066 47.662446
26.700000 -11.249023 47.662446
26.800000 -11.229980 47.662446
27.100000 -10.085938 47.662446
30.000000 -28.980957 47.818879
29.600000 -28.336914 47.818879
29.400000 -27.442871 47.818879
29.300000 -26.548828 47.818879
29.100000 -26.029785 47.818879
28.900000 -25.635742 47.818879
28.900000 -25.116699 47.818879
27.800000 -23.203613 47.818879
27.700000 -21.540527 47.818879
27.700000 -21.021484 47.818879
27.700000 -20.877441 47.818879
27.800000 -20.858398 47.818879
27.800000 -19.589355 47.818879
27.900000 -19.195312 47.818879
28.000000 -18.551270 47.818879
28.000000 -17.532227 47.818879
28.100000 -17.013184 47.818879
27.700000 -16.619141 47.818879
27.200000 -15.350098 47.818879
27.000000 -14.706055 47.818879
26.900000 -14.687012 47.818879
26.900000 -12.917969 47.818879
26.800000 -12.523926 47.818879
26.800000 -11.504883 47.818879
26.800000 -12.235840 47.818879
26.800000 -10.716797 47.818879
27.000000 -10.947754 47.818879
27.500000 -10.178711 47.818879
30.200000 -29.982910 47.959517
30.100000 -28.834961 47.959517
29.700000 -27.937012 47.959517
29.400000 -28.164062 47.959517
29.400000 -27.516113 47.959517
29.200000 -26.368164 47.959517
29.000000 -25.720215 47.959517
28.900000 -24.947266 47.959517
27.800000 -23.026367 47.959517
27.700000 -21.980469 47.959517
27.700000 -21.207520 47.959517
27.800000 -20.684570 47.959517
27.800000 -20.411621 47.959517
27.800000 -20.013672 47.959517
28.000000 -19.365723 47.959517
28.000000 -17.967773 47.959517
28.000000 -17.569824 47.959517
28.000000 -17.171875 47.959517
27.700000 -16.653809 47.959517
27.200000 -16.010742 47.959517
27.000000 -14.617676 47.959517
26.900000 -14.349609 47.959517
26.800000 -12.831543 47.959517
26.800000 -13.438477 47.959517
26.900000 -11.795410 47.959517
26.900000 -11.777344 47.959517
26.800000 -10.759277 47.959517
27.100000 -10.741211 47.959517
30.400000 -29.000488 48.086744
30.000000 -28.603516 48.086744
29.600000 -28.206543 48.086744
29.500000 -26.934570 48.086744
29.300000 -26.287598 48.086744
29.100000 -25.765625 48.086744
29.100000 -24.996582 48.086744
28.700000 -23.977539 48.086744
28.100000 -23.708496 48.086744
27.800000 -23.439453 48.086744
27.700000 -22.295410 48.086744
27.600000 -21.776367 48.086744
27.700000 -20.507324 48.086744
27.900000 -20.363281 48.086744
28.000000 -19.844238 48.086744
28.000000 -19.700195 48.086744
28.100000 -18.056152 48.086744
28.200000 -17.537109 48.086744
28.100000 -16.643066 48.086744
27.700000 -16.249023 48.086744
27.200000 -15.854980 48.086744
27.100000 -15.335938 48.086744
26.900000 -14.941895 48.086744
26.900000 -12.922852 48.086744
26.900000 -13.403809 48.086744
26.900000 -12.509766 48.086744
26.900000 -11.740723 48.086744
26.800000 -10.596680 48.086744
27.000000 -9.827637 48.086744
27.500000 -10.433594 48.086744
30.500000 -29.531250 48.243148
30.000000 -28.632812 48.243148
29.600000 -28.234375 48.243148
29.500000 -27.335938 48.243148
29.400000 -26.187500 48.243148
29.200000 -25.789062 48.243148
29.100000 -25.640625 48.243148
29.000000 -24.992188 48.243148
28.400000 -23.218750 48.243148
27.900000 -23.070312 48.243148
27.800000 -22.796875 48.243148
27.700000 -21.773438 48.243148
27.900000 -19.578125 48.243148
28.100000 -19.679688 48.243148
28.200000 -18.281250 48.243148
28.200000 -18.007812 48.243148
28.100000 -17.609375 48.243148
27.700000 -16.960938 48.243148
27.200000 -15.687500 48.243148
27.000000 -15.289062 48.243148
26.900000 -14.390625 48.243148
26.900000 -14.367188 48.243148
26.800000 -13.218750 48.243148
26.900000 -12.699219 48.243148
26.900000 -11.304688 48.243148
27.000000 -10.660156 48.243148
27.000000 -10.390625 48.243148
30.500000 -29.153809 48.373149
30.100000 -29.004883 48.373149
29.700000 -28.480957 48.373149
29.500000 -27.582031 48.373149
29.500000 -26.558105 48.373149
29.300000 -26.284180 48.373149
29.100000 -25.885254 48.373149
29.000000 -24.611328 48.373149
28.500000 -23.462402 48.373149
28.000000 -23.063477 48.373149
27.900000 -22.539551 48.373149
27.800000 -22.015625 48.373149
27.900000 -20.201172 48.373149
28.100000 -19.804688 48.373149
28.300000 -18.908203 48.373149
28.300000 -18.261719 48.373149
28.100000 -17.865234 48.373149
27.600000 -15.968750 48.373149
27.200000 -16.072266 48.373149
27.100000 -15.300781 48.373149
27.000000 -14.029297 48.373149
26.900000 -13.757812 48.373149
26.800000 -13.611328 48.373149
26.900000 -13.089844 48.373149
26.900000 -12.318359 48.373149
27.000000 -10.546875 48.373149
27.000000 -10.525391 48.373149
30.600000 -29.395508 48.524189
30.400000 -28.624512 48.524189
30.000000 -27.853516 48.524189
29.600000 -27.582520 48.524189
29.500000 -26.561523 48.524189
29.400000 -26.040527 48.524189
29.200000 -25.144531 48.524189
29.100000 -24.623535 48.524189
28.600000 -23.602539 48.524189
28.200000 -23.706543 48.524189
28.100000 -23.185547 48.524189
28.000000 -22.289551 48.524189
27.900000 -21.143555 48.524189
28.100000 -20.372559 48.524189
28.200000 -20.476562 48.524189
28.200000 -19.580566 48.524189
28.300000 -19.184570 48.524189
28.300000 -18.538574 48.524189
28.100000 -17.517578 48.524189
27.700000 -17.246582 48.524189
27.200000 -16.100586 48.524189
27.100000 -15.704590 48.524189
27.000000 -14.683594 48.524189
26.900000 -14.162598 48.524189
26.900000 -12.641602 48.524189
26.900000 -12.495605 48.524189
27.000000 -12.474609 48.524189
27.000000 -10.703613 48.524189
27.000000 -10.932617 48.524189
30.500000 -29.273438 48.667293
30.000000 -27.874512 48.667293
29.700000 -27.725586 48.667293
29.600000 -27.076660 48.667293
29.500000 -26.052734 48.667293
29.300000 -25.528809 48.667293
29.100000 -25.004883 48.667293
29.000000 -24.105957 48.667293
28.600000 -23.582031 48.667293
28.100000 -22.808105 48.667293
28.000000 -21.659180 48.667293
28.100000 -21.635254 48.667293
28.300000 -20.611328 48.667293
28.200000 -19.962402 48.667293
28.200000 -19.563477 48.667293
28.300000 -18.914551 48.667293
28.300000 -18.390625 48.667293
28.100000 -16.993652 48.667293
27.600000 -17.221680 48.667293
27.200000 -15.199707 48.667293
27.100000 -15.302734 48.667293
27.000000 -15.030762 48.667293
26.900000 -13.633789 48.667293
26.900000 -13.111816 48.667293
27.000000 -12.464844 48.667293
27.000000 -12.442871 48.667293
27.000000 -11.795898 48.667293
27.100000 -10.523926 48.667293
30.700000 -29.065918 48.807732
30.200000 -28.668945 48.807732
29.700000 -27.771973 48.807732
29.500000 -26.750000 48.807732
29.500000 -26.730469 48.807732
29.400000 -25.835938 48.807732
29.200000 -25.066406 48.807732
29.000000 -23.921875 48.807732
28.800000 -23.402344 48.807732
28.400000 -22.757812 48.807732
28.200000 -21.988281 48.807732
28.300000 -21.093750 48.807732
28.300000 -21.199219 48.807732
28.300000 -20.429688 48.807732
28.300000 -19.410156 48.807732
28.300000 -19.140625 48.807732
28.300000 -18.621094 48.807732
28.100000 -17.101562 48.807732
27.600000 -16.707031 48.807732
27.300000 -16.562500 48.807732
27.200000 -15.792969 48.807732
27.100000 -15.273438 48.807732
27.000000 -14.753906 48.807732
26.900000 -13.484375 48.807732
27.000000 -13.214844 48.807732
27.000000 -12.570312 48.807732
27.000000 -11.425781 48.807732
27.000000 -10.906250 48.807732
27.300000 -10.511719 48.807732
28.600000 -22.074219 48.947467
28.500000 -22.178711 48.947467
28.400000 -21.283203 48.947467
28.400000 -20.387695 48.947467
28.500000 -20.117188 48.947467
28.500000 -19.096680 48.947467
28.400000 -18.201172 48.947467
28.300000 -18.305664 48.947467
27.800000 -17.035156 48.947467
27.400000 -16.014648 48.947467
27.200000 -15.744141 48.947467
27.100000 -11.605469 48.947467
30.600000 -29.042969 49.089906
30.100000 -27.770020 49.089906
29.700000 -27.622070 49.089906
29.600000 -26.974121 49.089906
29.500000 -25.951172 49.089906
29.400000 -24.803223 49.089906
29.200000 -24.530273 49.089906
29.100000 -24.257324 49.089906
28.900000 -23.234375 49.089906
28.600000 -22.966309 49.089906
28.400000 -21.323242 49.089906
28.400000 -21.180176 49.089906
28.400000 -20.162109 49.089906
28.400000 -20.394043 49.089906
28.400000 -19.125977 49.089906
28.400000 -18.982910 49.089906
28.300000 -17.839844 49.089906
27.800000 -16.446777 49.089906
27.300000 -17.053711 49.089906
27.300000 -16.410645 49.089906
27.100000 -15.267578 49.089906
27.000000 -14.999512 49.089906
27.100000 -14.106445 49.089906
27.000000 -13.213379 49.089906
27.000000 -13.195312 49.089906
27.100000 -11.677246 49.089906
27.100000 -11.034180 49.089906
27.200000 -11.016113 49.089906
30.900000 -29.457031 49.243722
30.600000 -28.934570 49.243722
30.100000 -28.037109 49.243722
29.700000 -27.514648 49.243722
29.600000 -26.492188 49.243722
29.500000 -26.344727 49.243722
29.400000 -25.197266 49.243722
29.200000 -24.674805 49.243722
29.100000 -24.027344 49.243722
28.900000 -23.129883 49.243722
28.600000 -22.857422 49.243722
28.400000 -22.334961 49.243722
28.400000 -21.562500 49.243722
28.400000 -21.040039 49.243722
28.500000 -20.267578 49.243722
28.500000 -19.620117 49.243722
28.300000 -18.597656 49.243722
28.200000 -18.075195 49.243722
27.800000 -16.927734 49.243722
27.400000 -16.905273 49.243722
27.200000 -15.382812 49.243722
27.100000 -15.235352 49.243722
27.000000 -14.087891 49.243722
27.000000 -13.815430 49.243722
27.000000 -13.792969 49.243722
27.000000 -12.895508 49.243722
27.100000 -12.248047 49.243722
27.100000 -11.225586 49.243722
27.200000 -10.828125 49.243722
31.000000 -29.062500 49.371704
29.700000 -27.765625 49.371704
29.600000 -26.867188 49.371704
29.500000 -26.468750 49.371704
29.400000 -25.820312 49.371704
29.200000 -24.671875 49.371704
29.000000 -23.648438 49.371704
28.900000 -23.250000 49.371704
28.700000 -22.101562 49.371704
28.500000 -22.328125 49.371704
28.400000 -21.554688 49.371704
28.400000 -20.656250 49.371704
28.600000 -19.632812 49.371704
28.600000 -19.859375 49.371704
28.400000 -18.588867 49.371704
28.300000 -17.693359 49.371704
27.400000 -16.152344 49.371704
27.300000 -15.506836 49.371704
27.100000 -15.861328 49.371704
26.900000 -14.215820 49.371704
27.100000 -14.195312 49.371704
27.100000 -13.549805 49.371704
27.000000 -12.779297 49.371704
27.000000 -12.008789 49.371704
27.000000 -11.488281 49.371704
27.100000 -10.592773 49.371704
31.100000 -29.101562 49.513626
29.800000 -27.182617 49.513626
29.700000 -26.787109 49.513626
29.600000 -26.516602 49.513626
29.500000 -25.746094 49.513626
29.400000 -24.475586 49.513626
29.100000 -24.455078 49.513626
28.900000 -23.559570 49.513626
28.800000 -22.414062 49.513626
28.600000 -22.393555 49.513626
28.400000 -21.498047 49.513626
28.400000 -20.602539 49.513626
28.600000 -20.332031 49.513626
28.600000 -19.311523 49.513626
28.400000 -19.416016 49.513626
28.300000 -17.770508 49.513626
28.000000 -17.875000 49.513626
27.600000 -16.479492 49.513626
27.300000 -15.708984 49.513626
27.200000 -15.188477 49.513626
27.100000 -14.917969 49.513626
27.100000 -14.522461 49.513626
27.100000 -13.626953 49.513626
27.000000 -12.981445 49.513626
27.100000 -11.460938 49.513626
27.100000 -11.440430 49.513626
27.100000 -11.044922 49.513626
27.300000 -10.399414 49.513626
31.100000 -28.968750 49.670120
30.700000 -28.570312 49.670120
30.100000 -27.296875 49.670120
29.700000 -27.398438 49.670120
29.600000 -26.250000 49.670120
29.500000 -25.351562 49.670120
29.400000 -24.953125 49.670120
29.200000 -24.554688 49.670120
29.000000 -23.656250 49.670120
28.800000 -22.507812 49.670120
28.600000 -22.734375 49.670120
28.400000 -22.085938 49.670120
28.400000 -20.937500 49.670120
28.600000 -20.164062 49.670120
28.600000 -19.390625 49.670120
28.400000 -19.367188 49.670120
28.300000 -18.218750 49.670120
28.100000 -17.320312 49.670120
27.700000 -16.921875 49.670120
27.400000 -16.273438 49.670120
27.200000 -16.125000 49.670120
27.100000 -15.355957 49.670120
27.100000 -13.961914 49.670120
27.100000 -13.567871 49.670120
27.000000 -12.673828 49.670120
27.100000 -12.654785 49.670120
27.100000 -11.760742 49.670120
27.100000 -11.241699 49.670120
30.700000 -28.646484 49.809206
30.100000 -27.872070 49.809206
29.800000 -27.472656 49.809206
29.700000 -26.823242 49.809206
29.600000 -26.173828 49.809206
29.500000 -24.649414 49.809206
29.300000 -24.500000 49.809206
29.100000 -24.106934 49.809206
28.900000 -22.963867 49.809206
28.700000 -22.445801 49.809206
28.500000 -21.177734 49.809206
28.400000 -21.034668 49.809206
28.600000 -20.266602 49.809206
28.600000 -19.373535 49.809206
28.400000 -18.730469 49.809206
28.400000 -17.962402 49.809206
28.200000 -17.194336 49.809206
27.700000 -16.426270 49.809206
27.400000 -16.783203 49.809206
27.200000 -15.265137 49.809206
27.200000 -14.747070 49.809206
27.100000 -13.604004 49.809206
27.000000 -12.960938 49.809206
27.000000 -13.067871 49.809206
27.100000 -12.049805 49.809206
27.100000 -12.156738 49.809206
27.200000 -10.763672 49.809206
27.300000 -10.495605 49.809206
27.700000 -10.102539 49.809206
31.200000 -29.346680 49.950448
30.600000 -28.448730 49.950448
30.000000 -27.300781 49.950448
29.800000 -27.277832 49.950448
29.700000 -26.004883 49.950448
29.600000 -25.356934 49.950448
29.500000 -25.208984 49.950448
29.400000 -24.436035 49.950448
29.100000 -23.288086 49.950448
28.900000 -23.390137 49.950448
28.700000 -22.617188 49.950448
28.500000 -21.594238 49.950448
28.400000 -20.571289 49.950448
28.600000 -20.673340 49.950448
28.500000 -19.525391 49.950448
28.300000 -18.377441 49.950448
28.300000 -17.854492 49.950448
28.200000 -17.706543 49.950448
27.700000 -16.308594 49.950448
27.400000 -16.285645 49.950448
27.200000 -15.762695 49.950448
27.100000 -14.989746 49.950448
27.100000 -14.091797 49.950448
27.000000 -13.068848 49.950448
27.000000 -12.420898 49.950448
27.100000 -12.147949 49.950448
27.100000 -12.000000 49.950448
27.300000 -11.105957 49.950448
27.400000 -10.586914 49.950448
31.100000 -28.816895 50.090089
29.900000 -27.647949 50.090089
29.800000 -27.250977 50.090089
29.700000 -25.979004 50.090089
29.600000 -25.957031 50.090089
29.500000 -25.060059 50.090089
29.300000 -24.538086 50.090089
29.100000 -23.641113 50.090089
28.900000 -22.619141 50.090089
28.600000 -22.472168 50.090089
28.400000 -21.075195 50.090089
28.400000 -20.428223 50.090089
28.500000 -19.656250 50.090089
28.500000 -19.886230 50.090089
28.400000 -18.366211 50.090089
28.300000 -17.971191 50.090089
28.200000 -16.951172 50.090089
27.700000 -16.306152 50.090089
27.300000 -15.786133 50.090089
27.200000 -15.516113 50.090089
27.100000 -13.996094 50.090089
27.000000 -13.851074 50.090089
27.000000 -12.956055 50.090089
27.000000 -12.936035 50.090089
27.100000 -12.666016 50.090089
27.200000 -11.270996 50.090089
27.200000 -11.125977 50.090089
27.400000 -10.355957 50.090089
30.700000 -28.312500 50.231902
30.100000 -28.040527 50.231902
29.800000 -27.393555 50.231902
29.700000 -26.746582 50.231902
29.600000 -25.849609 50.231902
29.500000 -24.952637 50.231902
29.300000 -25.055664 50.231902
29.000000 -24.158691 50.231902
28.900000 -23.136719 50.231902
28.800000 -22.114746 50.231902
28.500000 -21.717773 50.231902
28.300000 -20.695801 50.231902
28.300000 -20.298828 50.231902
28.500000 -20.401855 50.231902
28.500000 -19.504883 50.231902
28.400000 -18.982910 50.231902
28.300000 -17.835938 50.231902
28.000000 -17.438965 50.231902
27.500000 -16.541992 50.231902
27.400000 -15.270020 50.231902
27.200000 -15.623047 50.231902
27.100000 -14.601074 50.231902
27.000000 -13.704102 50.231902
27.000000 -13.432129 50.231902
27.100000 -11.785156 50.231902
27.100000 -11.763184 50.231902
27.200000 -11.616211 50.231902
27.400000 -10.344238 50.231902
27.700000 -9.697266 50.231902
30.900000 -29.181641 50.372943
30.600000 -28.532715 50.372943
30.100000 -28.258789 50.372943
29.800000 -26.984863 50.372943
29.700000 -26.210938 50.372943
29.600000 -26.187012 50.372943
29.500000 -25.163086 50.372943
29.000000 -24.014160 50.372943
28.500000 -23.490234 50.372943
28.600000 -23.091309 50.372943
28.600000 -21.942383 50.372943
28.400000 -21.418457 50.372943
28.100000 -21.144531 50.372943
28.200000 -20.495605 50.372943
28.500000 -19.846680 50.372943
28.500000 -19.072754 50.372943
28.400000 -18.923828 50.372943
28.300000 -18.274902 50.372943
28.000000 -17.375977 50.372943
27.500000 -16.102051 50.372943
27.300000 -15.828125 50.372943
27.200000 -14.684082 50.372943
27.100000 -14.040039 50.372943
27.000000 -13.020996 50.372943
27.000000 -12.501953 50.372943
27.100000 -12.857910 50.372943
27.100000 -11.963867 50.372943
27.200000 -11.569824 50.372943
28.500000 -21.677734 50.513208
28.200000 -21.405762 50.513208
28.200000 -21.133789 50.513208
28.300000 -20.486816 50.513208
28.400000 -19.339844 50.513208
28.400000 -19.067871 50.513208
28.400000 -18.545898 50.513208
28.300000 -17.398926 50.513208
27.900000 -17.126953 50.513208
27.400000 -15.479980 50.513208
27.200000 -15.333008 50.513208
27.100000 -14.811035 50.513208
27.000000 -13.289062 50.513208
27.000000 -12.642090 50.513208
27.000000 -12.370117 50.513208
27.100000 -12.348145 50.513208
27.200000 -11.201172 50.513208
27.300000 -10.304199 50.513208
27.500000 -10.157227 50.513208
30.600000 -29.887695 50.667771
30.800000 -29.365234 50.667771
30.700000 -28.467773 50.667771
30.100000 -28.070312 50.667771
29.900000 -27.172852 50.667771
29.700000 -26.525391 50.667771
29.600000 -26.127930 50.667771
29.300000 -25.855469 50.667771
28.200000 -24.185547 50.667771
28.200000 -23.663086 50.667771
28.200000 -21.618164 50.667771
28.000000 -21.845703 50.667771
27.900000 -20.323242 50.667771
28.200000 -20.050781 50.667771
28.400000 -19.028320 50.667771
28.400000 -18.380859 50.667771
28.300000 -18.483398 50.667771
28.300000 -17.585938 50.667771
27.900000 -16.563477 50.667771
27.500000 -16.416016 50.667771
27.300000 -15.268555 50.667771
27.100000 -14.996094 50.667771
27.000000 -14.348633 50.667771
27.000000 -12.576172 50.667771
27.000000 -12.553711 50.667771
27.100000 -11.781250 50.667771
27.200000 -11.513184 50.667771
27.300000 -10.995117 50.667771
27.500000 -10.727051 50.667771
30.600000 -29.959961 50.808710
30.800000 -29.436035 50.808710
30.600000 -28.787109 50.808710
30.100000 -28.013184 50.808710
29.800000 -27.489258 50.808710
29.700000 -26.340332 50.808710
29.600000 -25.941406 50.808710
28.300000 -24.393555 50.808710
28.200000 -23.994629 50.808710
28.200000 -23.595703 50.808710
28.200000 -21.922852 50.808710
28.000000 -20.773926 50.808710
27.900000 -21.000000 50.808710
28.100000 -20.355957 50.808710
28.400000 -18.961914 50.808710
28.400000 -18.942871 50.808710
28.300000 -18.423828 50.808710
28.300000 -17.654785 50.808710
27.900000 -16.885742 50.808710
27.500000 -15.241699 50.808710
27.300000 -15.097656 50.808710
27.100000 -14.328613 50.808710
27.000000 -14.309570 50.808710
27.000000 -13.665527 50.808710
27.000000 -12.521484 50.808710
27.100000 -11.627441 50.808710
27.200000 -11.608398 50.808710
27.300000 -11.339355 50.808710
27.500000 -10.320312 50.808710
31.000000 -29.187500 50.947899
29.800000 -27.898438 50.947899
29.700000 -27.503906 50.947899
29.600000 -26.734375 50.947899
29.200000 -25.839844 50.947899
28.100000 -24.425781 50.947899
28.100000 -23.656250 50.947899
28.200000 -23.386719 50.947899
28.400000 -22.347656 50.947899
28.100000 -20.828125 50.947899
28.000000 -20.808594 50.947899
28.300000 -19.539062 50.947899
28.300000 -19.519531 50.947899
28.400000 -18.125000 50.947899
28.400000 -17.605469 50.947899
28.400000 -17.460938 50.947899
27.900000 -15.941406 50.947899
27.400000 -15.171875 50.947899
27.200000 -15.277344 50.947899
27.100000 -14.257812 50.947899
27.000000 -14.113281 50.947899
27.000000 -13.093750 50.947899
27.000000 -12.699219 50.947899
27.100000 -11.679688 50.947899
27.300000 -11.535156 50.947899
27.400000 -10.015625 50.947899
27.700000 -10.371094 50.947899
30.500000 -29.798828 51.090109
30.900000 -29.401855 51.090109
29.800000 -28.107910 51.090109
29.700000 -26.835938 51.090109
29.600000 -26.813965 51.090109
29.200000 -25.541992 51.090109
28.100000 -23.873047 51.090109
28.000000 -23.351074 51.090109
28.100000 -22.829102 51.090109
28.300000 -21.410156 51.090109
28.100000 -21.513184 51.090109
27.900000 -20.491211 51.090109
28.200000 -19.594238 51.090109
28.400000 -19.322266 51.090109
28.400000 -18.800293 51.090109
28.400000 -18.278320 51.090109
28.400000 -17.631348 51.090109
27.900000 -16.734375 51.090109
27.400000 -15.214355 51.090109
27.200000 -15.444336 51.090109
27.200000 -14.924316 51.090109
27.100000 -13.529297 51.090109
27.000000 -13.259277 51.090109
27.000000 -12.864258 51.090109
27.100000 -11.344238 51.090109
27.200000 -11.199219 51.090109
27.400000 -10.804199 51.090109
27.700000 -10.159180 51.090109
30.900000 -29.122070 51.230454
29.700000 -27.576172 51.230454
29.600000 -27.678223 51.230454
29.600000 -26.405273 51.230454
29.200000 -26.007324 51.230454
28.100000 -24.463379 51.230454
28.000000 -23.192383 51.230454
28.100000 -22.546387 51.230454
28.000000 -22.775391 51.230454
28.100000 -22.004395 51.230454
28.000000 -21.233398 51.230454
27.900000 -20.462402 51.230454
28.100000 -19.441406 51.230454
28.300000 -19.670410 51.230454
28.400000 -19.024414 51.230454
28.400000 -18.003418 51.230454
28.400000 -17.857422 51.230454
28.000000 -16.586426 51.230454
27.500000 -15.815430 51.230454
27.200000 -14.419434 51.230454
27.100000 -14.898438 51.230454
27.100000 -13.627441 51.230454
27.000000 -13.231445 51.230454
27.000000 -12.960449 51.230454
27.000000 -11.564453 51.230454
27.100000 -11.168457 51.230454
27.400000 -10.897461 51.230454
27.700000 -10.376465 51.230454
29.700000 -28.327148 51.372056
29.600000 -27.177734 51.372056
29.500000 -27.153320 51.372056
29.400000 -26.128906 51.372056
28.100000 -24.455078 51.372056
27.900000 -23.805664 51.372056
28.000000 -23.656250 51.372056
28.200000 -22.107422 51.372056
28.000000 -21.333008 51.372056
27.900000 -21.058594 51.372056
28.000000 -19.909180 51.372056
28.100000 -19.009766 51.372056
28.300000 -19.110352 51.372056
28.300000 -17.585938 51.372056
28.300000 -16.936523 51.372056
28.000000 -16.412109 51.372056
27.700000 -15.637695 51.372056
27.400000 -15.113281 51.372056
27.100000 -14.838867 51.372056
27.000000 -14.439453 51.372056
27.000000 -13.290039 51.372056
27.000000 -13.015625 51.372056
26.900000 -12.122559 51.372056
27.000000 -11.229492 51.372056
27.200000 -10.336426 51.372056
27.600000 -10.443359 51.372056
30.500000 -29.724609 51.511713
29.600000 -28.551758 51.511713
29.600000 -27.402832 51.511713
29.500000 -27.378906 51.511713
29.400000 -26.479980 51.511713
28.100000 -24.307129 51.511713
27.800000 -24.158203 51.511713
27.800000 -23.259277 51.511713
28.100000 -22.360352 51.511713
28.100000 -21.961426 51.511713
27.800000 -21.312500 51.511713
27.700000 -20.792480 51.511713
27.900000 -19.647461 51.511713
28.000000 -19.127441 51.511713
28.200000 -18.607422 51.511713
28.300000 -18.587402 51.511713
28.300000 -18.067383 51.511713
28.300000 -17.297363 51.511713
28.000000 -16.652344 51.511713
27.500000 -15.632324 51.511713
27.300000 -14.612305 51.511713
27.200000 -14.342285 51.511713
27.000000 -13.197266 51.511713
26.900000 -13.302246 51.511713
26.800000 -11.782227 51.511713
26.900000 -10.762207 51.511713
27.100000 -11.242188 51.511713
27.400000 -10.472168 51.511713
30.500000 -29.495605 51.656070
29.600000 -27.955566 51.656070
29.500000 -27.435547 51.656070
29.500000 -27.165527 51.656070
29.300000 -26.270508 51.656070
29.000000 -25.500488 51.656070
27.700000 -24.210449 51.656070
27.700000 -23.940430 51.656070
27.900000 -22.795410 51.656070
27.900000 -22.150391 51.656070
27.800000 -21.880371 51.656070
27.700000 -20.860352 51.656070
27.900000 -19.965332 51.656070
28.000000 -19.445312 51.656070
28.100000 -18.675293 51.656070
28.200000 -18.780273 51.656070
28.300000 -17.385254 51.656070
28.300000 -17.615234 51.656070
28.000000 -16.720215 51.656070
27.500000 -15.075195 51.656070
27.300000 -15.055176 51.656070
27.100000 -14.160156 51.656070
26.900000 -13.640137 51.656070
26.800000 -12.370117 51.656070
26.800000 -12.100098 51.656070
26.800000 -10.830078 51.656070
27.100000 -10.685059 51.656070
27.400000 -10.665039 51.656070
30.400000 -29.839844 51.795145
30.000000 -28.693359 51.795145
29.600000 -28.796875 51.795145
29.500000 -27.525391 51.795145
29.400000 -27.003906 51.795145
29.200000 -25.982422 51.795145
29.100000 -26.085938 51.795145
27.700000 -24.167969 51.795145
27.600000 -23.396484 51.795145
27.700000 -22.875000 51.795145
27.800000 -22.103516 51.795145
27.800000 -21.707031 51.795145
27.800000 -21.435547 51.795145
27.800000 -20.539062 51.795145
27.800000 -19.517578 51.795145
27.900000 -18.746094 51.795145
28.100000 -18.974609 51.795145
28.300000 -17.578125 51.795145
28.300000 -17.433594 51.795145
28.100000 -16.414062 51.795145
27.700000 -15.519531 51.795145
27.300000 -15.250000 51.795145
27.100000 -13.980469 51.795145
26.900000 -13.335938 51.795145
26.800000 -13.316406 51.795145
26.800000 -12.171875 51.795145
26.800000 -11.652344 51.795145
26.900000 -11.382812 51.795145
27.200000 -10.863281 51.795145
29.500000 -28.452148 51.935068
29.500000 -27.931641 51.935068
30.400000 -29.953125 52.089877
29.900000 -29.056641 52.089877
29.500000 -28.160156 52.089877
29.500000 -27.888672 52.089877
29.300000 -27.242188 52.089877
29.100000 -26.720703 52.089877
29.000000 -26.199219 52.089877
27.500000 -23.781250 52.089877
27.400000 -23.134766 52.089877
27.500000 -23.238281 52.089877
27.500000 -22.341797 52.089877
27.600000 -21.320312 52.089877
27.600000 -20.923828 52.089877
27.400000 -20.277344 52.089877
27.500000 -19.255859 52.089877
27.700000 -18.734375 52.089877
27.900000 -18.712891 52.089877
28.200000 -18.316406 52.089877
28.300000 -17.419922 52.089877
28.100000 -15.898438 52.089877
27.700000 -16.126953 52.089877
27.300000 -15.355469 52.089877
27.100000 -14.333984 52.089877
26.900000 -13.187500 52.089877
26.700000 -13.542480 52.089877
26.700000 -12.022461 52.089877
26.800000 -12.127441 52.089877
26.900000 -10.982422 52.089877
27.200000 -10.962402 52.089877
30.500000 -29.763184 52.228200
29.500000 -28.090332 52.228200
29.400000 -27.441406 52.228200
29.200000 -26.917480 52.228200
29.000000 -26.143555 52.228200
28.800000 -25.494629 52.228200
27.400000 -24.446777 52.228200
27.300000 -23.547852 52.228200
27.300000 -23.148926 52.228200
27.200000 -20.479492 52.228200
27.200000 -20.833984 52.228200
27.300000 -19.688477 52.228200
27.500000 -19.792969 52.228200
27.600000 -18.897461 52.228200
27.900000 -18.376953 52.228200
28.100000 -17.106445 52.228200
28.300000 -17.335938 52.228200
28.100000 -15.940430 52.228200
27.500000 -15.419922 52.228200
27.000000 -14.149414 52.228200
26.900000 -14.503906 52.228200
26.800000 -13.483398 52.228200
26.700000 -12.837891 52.228200
26.700000 -12.442383 52.228200
26.800000 -11.296875 52.228200
30.500000 -29.537109 52.381866
29.500000 -28.371094 52.381866
29.400000 -27.100586 52.381866
29.200000 -26.455078 52.381866
29.000000 -26.434570 52.381866
28.800000 -25.539062 52.381866
27.400000 -23.748047 52.381866
27.300000 -23.727539 52.381866
27.200000 -22.582031 52.381866
27.100000 -21.686523 52.381866
27.100000 -21.291016 52.381866
27.100000 -20.520508 52.381866
27.200000 -19.875000 52.381866
27.400000 -19.354492 52.381866
27.500000 -18.833984 52.381866
27.800000 -17.938477 52.381866
28.100000 -17.292969 52.381866
28.300000 -17.522461 52.381866
28.000000 -16.751953 52.381866
27.400000 -15.856445 52.381866
26.900000 -14.710938 52.381866
26.800000 -13.940430 52.381866
26.700000 -12.919922 52.381866
26.700000 -12.899414 52.381866
26.700000 -12.628906 52.381866
26.800000 -10.983398 52.381866
29.400000 -28.749512 52.520912
29.300000 -27.600586 52.520912
29.100000 -26.451660 52.520912
29.000000 -25.927734 52.520912
28.900000 -26.028809 52.520912
27.500000 -24.230957 52.520912
27.300000 -23.832031 52.520912
27.200000 -22.433105 52.520912
27.100000 -21.784180 52.520912
27.100000 -21.385254 52.520912
27.100000 -20.486328 52.520912
27.100000 -19.837402 52.520912
27.300000 -19.688477 52.520912
27.500000 -19.039551 52.520912
27.700000 -18.015625 52.520912
28.000000 -17.869141 52.520912
28.100000 -16.722656 52.520912
28.000000 -16.576172 52.520912
27.500000 -14.929688 52.520912
27.000000 -15.283203 52.520912
26.800000 -14.386719 52.520912
26.600000 -13.990234 52.520912
26.600000 -12.093750 52.520912
26.600000 -12.072266 52.520912
26.800000 -11.425781 52.520912
26.900000 -10.404297 52.520912
27.200000 -10.132812 52.520912
29.300000 -27.721680 52.647015
29.200000 -27.946777 52.647015
29.000000 -26.671875 52.647015
28.900000 -26.277344 52.647015
28.700000 -25.257812 52.647015
27.600000 -24.093750 52.647015
27.300000 -23.074219 52.647015
27.200000 -22.429688 52.647015
27.100000 -22.285156 52.647015
27.100000 -20.890625 52.647015
27.100000 -20.371094 52.647015
27.100000 -20.101562 52.647015
27.200000 -19.457031 52.647015
27.400000 -18.562500 52.647015
27.700000 -18.792969 52.647015
28.000000 -17.398438 52.647015
27.900000 -17.378906 52.647015
27.600000 -16.359375 52.647015
27.200000 -15.464844 52.647015
26.800000 -15.070312 52.647015
26.700000 -13.550781 52.647015
26.600000 -12.656250 52.647015
26.600000 -13.386719 52.647015
26.700000 -12.242188 52.647015
26.800000 -11.597656 52.647015
26.900000 -11.578125 52.647015
27.300000 -10.058594 52.647015
29.200000 -28.471680 52.799881
29.100000 -26.949219 52.799881
29.000000 -27.051758 52.799881
28.900000 -25.654297 52.799881
28.600000 -25.381836 52.799881
28.600000 -24.859375 52.799881
27.300000 -23.439453 52.799881
27.200000 -22.166992 52.799881
27.100000 -21.644531 52.799881
27.100000 -21.622070 52.799881
27.100000 -20.224609 52.799881
27.100000 -19.452148 52.799881
27.200000 -19.429688 52.799881
27.500000 -18.282227 52.799881
27.600000 -17.634766 52.799881
27.600000 -17.112305 52.799881
27.200000 -16.714844 52.799881
26.900000 -16.317383 52.799881
26.800000 -15.544922 52.799881
26.700000 -14.897461 52.799881
26.600000 -14.625000 52.799881
26.600000 -12.607422 52.799881
26.600000 -12.839844 52.799881
26.600000 -12.447266 52.799881
26.700000 -11.929688 52.799881
26.900000 -11.287109 52.799881
27.300000 -9.894531 52.799881
29.100000 -28.535156 52.941253
29.000000 -27.136230 52.941253
29.000000 -27.362305 52.941253
28.900000 -26.338379 52.941253
28.600000 -25.689453 52.941253
28.500000 -25.040527 52.941253
27.300000 -23.117676 52.941253
27.200000 -23.093750 52.941253
27.100000 -22.450684 52.941253
27.100000 -21.807617 52.941253
27.100000 -20.539551 52.941253
27.100000 -20.021484 52.941253
27.200000 -18.878418 52.941253
27.400000 -18.485352 52.941253
27.200000 -17.592285 52.941253
27.000000 -17.324219 52.941253
26.900000 -16.931152 52.941253
26.900000 -16.288086 52.941253
26.700000 -15.395020 52.941253
