25.700000 5.834473 20.180060
25.700000 6.402344 20.180060
25.800000 6.720215 20.180060
25.900000 7.413086 20.180060
26.000000 8.855957 20.180060
26.100000 8.923828 20.180060
26.100000 9.741699 20.180060
26.200000 11.184570 20.180060
26.200000 11.002441 20.180060
26.200000 12.445312 20.180060
26.300000 13.263184 20.180060
26.300000 14.206055 20.180060
26.400000 14.523926 20.180060
26.500000 14.841797 20.180060
26.500000 15.034668 20.180060
26.600000 16.227539 20.180060
26.700000 16.795410 20.180060
26.700000 17.613281 20.180060
26.800000 17.931152 20.180060
26.900000 18.499023 20.180060
27.000000 20.191895 20.180060
27.100000 19.884766 20.180060
27.200000 20.327637 20.180060
27.400000 21.895508 20.180060
27.500000 22.088379 20.180060
27.700000 22.531250 20.180060
27.900000 23.724121 20.180060
28.100000 23.916992 20.180060
28.300000 24.234863 20.180060
28.600000 25.302734 20.180060
28.900000 25.995605 20.180060
29.300000 26.688477 20.180060
29.700000 26.756348 20.180060
30.000000 27.824219 20.180060
30.300000 28.267090 20.180060
30.500000 29.209961 20.180060
30.800000 29.652832 20.180060
31.000000 30.720703 20.180060
31.100000 30.663574 20.180060
31.400000 31.856445 20.180060
31.700000 32.424316 20.180060
31.900000 32.742188 20.180060
32.400000 33.560059 20.180060
25.500000 1.941406 20.327062
25.500000 2.010254 20.327062
25.500000 2.704102 20.327062
25.500000 4.272949 20.327062
25.600000 4.091797 20.327062
25.600000 5.910645 20.327062
25.600000 4.854492 20.327062
25.700000 6.173340 20.327062
25.700000 7.742188 20.327062
25.800000 6.811035 20.327062
25.900000 8.379883 20.327062
26.000000 8.698730 20.327062
26.100000 9.142578 20.327062
26.100000 10.586426 20.327062
26.100000 11.530273 20.327062
26.200000 11.224121 20.327062
26.200000 13.042969 20.327062
26.200000 13.486816 20.327062
26.300000 12.930664 20.327062
26.400000 14.999512 20.327062
26.500000 14.443359 20.327062
26.500000 15.387207 20.327062
26.600000 15.956055 20.327062
26.600000 16.899902 20.327062
26.700000 16.968750 20.327062
26.800000 18.658203 20.327062
26.900000 19.472656 20.327062
27.000000 19.537109 20.327062
27.100000 19.726562 20.327062
27.200000 21.541016 20.327062
27.400000 21.230469 20.327062
27.600000 22.169922 20.327062
27.700000 22.484375 20.327062
27.900000 24.048828 20.327062
28.100000 23.863281 20.327062
28.300000 24.927734 20.327062
28.600000 25.242188 20.327062
29.000000 25.556641 20.327062
29.300000 26.496094 20.327062
29.600000 27.060547 20.327062
30.000000 27.500000 20.327062
30.300000 28.439453 20.327062
30.500000 28.628906 20.327062
30.800000 29.943359 20.327062
31.000000 30.507812 20.327062
31.100000 30.822266 20.327062
31.400000 31.761719 20.327062
31.600000 32.326172 20.327062
31.800000 33.015625 20.327062
32.300000 33.330078 20.327062
25.500000 1.000000 20.451061
25.500000 1.818359 20.451061
25.500000 2.261719 20.451061
25.500000 2.705078 20.451061
25.500000 3.773438 20.451061
25.600000 4.091797 20.451061
25.600000 5.035156 20.451061
25.700000 6.478516 20.451061
25.700000 6.921875 20.451061
25.800000 6.865234 20.451061
25.900000 8.058594 20.451061
25.900000 9.251953 20.451061
26.000000 9.445312 20.451061
26.100000 10.138672 20.451061
26.100000 10.332031 20.451061
26.100000 11.775391 20.451061
26.200000 11.593750 20.451061
26.200000 13.784180 20.451061
26.300000 13.099609 20.451061
26.400000 14.165039 20.451061
26.400000 15.230469 20.451061
26.400000 15.420898 20.451061
26.500000 15.736328 20.451061
26.600000 16.426758 20.451061
26.700000 18.242188 20.451061
26.800000 17.932617 20.451061
26.900000 19.248047 20.451061
27.000000 19.688477 20.451061
27.100000 19.878906 20.451061
27.200000 21.444336 20.451061
27.300000 21.384766 20.451061
27.500000 21.950195 20.451061
27.700000 22.890625 20.451061
27.900000 23.206055 20.451061
28.100000 23.896484 20.451061
28.300000 24.836914 20.451061
28.600000 25.652344 20.451061
29.000000 25.592773 20.451061
29.300000 26.908203 20.451061
29.600000 27.348633 20.451061
30.000000 27.914062 20.451061
30.300000 28.104492 20.451061
30.500000 29.419922 20.451061
30.800000 29.610352 20.451061
31.000000 30.050781 20.451061
31.100000 31.241211 20.451061
31.300000 32.056641 20.451061
31.600000 32.247070 20.451061
31.800000 32.937500 20.451061
32.300000 33.252441 20.451061
25.400000 1.076660 20.584061
25.500000 1.019531 20.584061
25.500000 1.962402 20.584061
25.500000 4.030273 20.584061
25.500000 3.098145 20.584061
25.500000 4.416016 20.584061
25.500000 5.233887 20.584061
25.600000 4.926758 20.584061
25.600000 7.369629 20.584061
25.700000 6.687500 20.584061
25.800000 7.753418 20.584061
25.800000 7.944336 20.584061
25.900000 9.135254 20.584061
26.000000 9.451172 20.584061
26.000000 10.892090 20.584061
26.000000 10.458008 20.584061
26.100000 12.023926 20.584061
26.100000 12.339844 20.584061
26.200000 12.280762 20.584061
26.300000 14.096680 20.584061
26.300000 14.787598 20.584061
26.400000 14.353516 20.584061
26.400000 15.169434 20.584061
26.500000 15.735352 20.584061
26.600000 16.676270 20.584061
26.700000 17.867188 20.584061
26.800000 18.933105 20.584061
26.900000 19.374023 20.584061
27.000000 19.189941 20.584061
27.100000 19.880859 20.584061
27.200000 20.321777 20.584061
27.300000 21.887695 20.584061
27.500000 22.328613 20.584061
27.700000 22.894531 20.584061
27.800000 23.210449 20.584061
28.000000 24.401367 20.584061
28.300000 24.967285 20.584061
28.600000 25.158203 20.584061
28.900000 26.099121 20.584061
29.300000 27.040039 20.584061
29.600000 26.855957 20.584061
29.900000 28.171875 20.584061
30.200000 28.362793 20.584061
30.500000 29.553711 20.584061
30.700000 30.119629 20.584061
31.000000 30.685547 20.584061
31.100000 31.501465 20.584061
31.300000 31.942383 20.584061
31.600000 32.383301 20.584061
31.800000 32.949219 20.584061
32.300000 33.515137 20.584061
25.400000 1.265625 20.724061
25.500000 1.455566 20.724061
25.400000 2.395508 20.724061
25.500000 3.210449 20.724061
25.500000 3.400391 20.724061
25.500000 4.215332 20.724061
25.500000 5.530273 20.724061
25.600000 6.845215 20.724061
25.600000 7.285156 20.724061
25.700000 6.975098 20.724061
25.800000 8.540039 20.724061
25.900000 8.104980 20.724061
25.900000 8.919922 20.724061
26.000000 9.484863 20.724061
26.000000 11.424805 20.724061
26.000000 11.114746 20.724061
26.100000 13.054688 20.724061
26.200000 12.744629 20.724061
26.200000 13.184570 20.724061
26.300000 14.999512 20.724061
26.300000 14.939453 20.724061
26.400000 16.254395 20.724061
26.500000 16.319336 20.724061
26.600000 16.884277 20.724061
26.600000 17.824219 20.724061
26.700000 17.639160 20.724061
26.800000 18.454102 20.724061
26.900000 20.269043 20.724061
27.000000 20.208984 20.724061
27.100000 21.273926 20.724061
27.300000 20.963867 20.724061
27.400000 21.653809 20.724061
27.500000 23.093750 20.724061
27.700000 22.907715 20.724061
27.900000 24.096680 20.724061
28.200000 24.535645 20.724061
28.500000 25.474609 20.724061
28.800000 26.413574 20.724061
29.100000 26.852539 20.724061
29.500000 26.916504 20.724061
29.800000 27.980469 20.724061
30.200000 28.919434 20.724061
30.500000 29.108398 20.724061
30.700000 29.797363 20.724061
31.000000 30.611328 20.724061
31.000000 31.300293 20.724061
31.300000 31.739258 20.724061
31.700000 32.053223 20.724061
31.900000 32.867188 20.724061
32.200000 33.556152 20.724061
25.400000 1.273438 20.852061
25.400000 1.588867 20.852061
25.400000 2.154297 20.852061
25.500000 2.719727 20.852061
25.400000 4.535156 20.852061
25.500000 5.350586 20.852061
25.500000 4.791016 20.852061
25.500000 5.356445 20.852061
25.600000 6.046875 20.852061
25.600000 6.737305 20.852061
25.700000 7.927734 20.852061
25.800000 8.243164 20.852061
25.800000 10.624023 20.852061
25.900000 13.070312 20.852061
29.500000 27.089844 20.852061
29.800000 27.906250 20.852061
30.100000 28.097656 20.852061
30.400000 28.664062 20.852061
30.600000 29.980469 20.852061
30.800000 30.671875 20.852061
30.900000 31.113281 20.852061
31.300000 31.679688 20.852061
31.700000 32.496094 20.852061
31.900000 33.062500 20.852061
32.100000 33.503906 20.852061
25.300000 0.650391 20.997063
25.400000 0.843750 20.997063
25.400000 2.662109 20.997063
25.400000 2.105469 20.997063
25.400000 3.173828 20.997063
25.400000 3.742188 20.997063
25.400000 5.435547 20.997063
25.400000 6.253906 20.997063
25.400000 7.447266 20.997063
25.500000 7.390625 20.997063
25.600000 7.333984 20.997063
25.700000 8.902344 20.997063
25.700000 8.970703 20.997063
25.900000 11.244141 20.997063
26.000000 12.562500 20.997063
26.000000 13.754395 20.997063
26.000000 12.946289 20.997063
26.100000 13.638184 20.997063
26.200000 14.330078 20.997063
26.300000 16.146973 20.997063
26.400000 16.588867 20.997063
26.500000 16.530762 20.997063
26.600000 17.972656 20.997063
26.700000 18.914551 20.997063
26.800000 19.356445 20.997063
26.900000 19.173340 20.997063
27.000000 20.115234 20.997063
27.100000 20.432129 20.997063
27.200000 21.874023 20.997063
27.300000 22.190918 20.997063
27.500000 23.257812 20.997063
27.700000 23.949707 20.997063
27.900000 24.641602 20.997063
28.100000 24.833496 20.997063
28.400000 25.275391 20.997063
28.800000 26.217285 20.997063
29.100000 26.659180 20.997063
29.400000 27.101074 20.997063
29.800000 28.042969 20.997063
30.100000 28.359863 20.997063
30.400000 29.676758 20.997063
30.600000 29.743652 20.997063
30.900000 30.560547 20.997063
30.900000 30.877441 20.997063
31.200000 31.444336 20.997063
31.700000 32.386230 20.997063
31.900000 32.828125 20.997063
32.100000 33.518066 20.997063
25.400000 0.739746 21.119061
25.300000 1.558594 21.119061
25.300000 3.252441 21.119061
25.300000 2.821289 21.119061
25.300000 4.640137 21.119061
25.400000 4.708984 21.119061
25.400000 4.402832 21.119061
25.400000 6.096680 21.119061
25.400000 6.915527 21.119061
25.500000 6.984375 21.119061
25.600000 7.300781 21.119061
25.700000 8.117188 21.119061
25.700000 9.058594 21.119061
25.800000 9.750000 21.119061
25.800000 10.066406 21.119061
25.900000 11.007812 21.119061
25.900000 12.324219 21.119061
26.000000 12.265625 21.119061
26.000000 12.957031 21.119061
26.100000 13.523438 21.119061
26.100000 14.589844 21.119061
26.200000 15.031250 21.119061
26.300000 16.222656 21.119061
26.400000 16.414062 21.119061
26.500000 16.980469 21.119061
26.500000 18.171875 21.119061
26.600000 18.113281 21.119061
26.700000 18.929688 21.119061
26.800000 19.871094 21.119061
27.000000 20.937500 21.119061
27.000000 21.628906 21.119061
27.200000 22.320312 21.119061
27.300000 22.886719 21.119061
27.500000 22.953125 21.119061
27.700000 24.019531 21.119061
27.900000 24.710938 21.119061
28.200000 25.402344 21.119061
28.500000 25.593750 21.119061
28.800000 26.535156 21.119061
29.500000 27.042969 21.119061
29.800000 28.109375 21.119061
30.100000 28.550781 21.119061
30.400000 29.617188 21.119061
30.600000 30.183594 21.119061
30.800000 30.500000 21.119061
31.000000 31.066406 21.119061
31.200000 32.257812 21.119061
31.400000 32.449219 21.119061
31.700000 33.390625 21.119061
32.100000 33.582031 21.119061
25.300000 2.272949 21.245063
25.300000 1.218750 21.245063
25.300000 2.037109 21.245063
25.300000 2.730469 21.245063
25.400000 3.673828 21.245063
25.400000 4.617188 21.245063
25.400000 4.810547 21.245063
25.400000 5.253906 21.245063
25.500000 6.572266 21.245063
25.500000 6.890625 21.245063
25.600000 7.458984 21.245063
25.700000 8.277344 21.245063
25.800000 9.970703 21.245063
25.800000 9.539062 21.245063
25.800000 11.732422 21.245063
25.900000 10.675781 21.245063
25.900000 12.369141 21.245063
26.000000 12.687500 21.245063
26.000000 13.130859 21.245063
26.100000 15.074219 21.245063
26.100000 14.267578 21.245063
26.200000 15.085938 21.245063
26.300000 15.654297 21.245063
26.400000 16.222656 21.245063
26.500000 17.916016 21.245063
26.600000 17.609375 21.245063
26.700000 18.927734 21.245063
26.800000 18.996094 21.245063
26.800000 20.564453 21.245063
26.900000 20.132812 21.245063
27.100000 22.076172 21.245063
27.200000 22.644531 21.245063
27.400000 23.462891 21.245063
27.500000 23.781250 21.245063
27.700000 23.596191 21.245063
28.000000 24.161133 21.245063
28.300000 25.476074 21.245063
28.500000 25.916016 21.245063
28.900000 26.355957 21.245063
29.200000 27.295898 21.245063
29.600000 27.860840 21.245063
29.900000 28.175781 21.245063
30.200000 28.990723 21.245063
30.400000 29.805664 21.245063
30.700000 29.870605 21.245063
30.900000 31.310547 21.245063
31.200000 31.375488 21.245063
31.500000 31.940430 21.245063
31.600000 32.630371 21.245063
31.800000 33.320312 21.245063
25.300000 0.907227 21.387062
25.300000 2.226562 21.387062
25.300000 2.795898 21.387062
25.300000 3.240234 21.387062
25.300000 3.809570 21.387062
25.400000 4.378906 21.387062
25.400000 5.073242 21.387062
25.400000 6.642578 21.387062
25.500000 6.836914 21.387062
25.500000 8.156250 21.387062
25.600000 8.850586 21.387062
25.700000 8.669922 21.387062
25.700000 9.364258 21.387062
25.800000 11.183594 21.387062
25.800000 10.877930 21.387062
25.900000 11.447266 21.387062
25.900000 12.891602 21.387062
26.000000 13.460938 21.387062
26.000000 13.405273 21.387062
26.100000 14.974609 21.387062
26.200000 14.918945 21.387062
26.300000 15.613281 21.387062
26.300000 15.932617 21.387062
26.400000 17.626953 21.387062
26.500000 18.446289 21.387062
26.600000 17.890625 21.387062
26.700000 18.830566 21.387062
26.800000 20.270508 21.387062
26.900000 19.835449 21.387062
27.000000 20.525391 21.387062
27.200000 21.340332 21.387062
27.300000 22.530273 21.387062
27.400000 22.845215 21.387062
27.700000 23.410156 21.387062
27.800000 23.975098 21.387062
28.000000 24.790039 21.387062
28.300000 25.104980 21.387062
28.700000 25.919922 21.387062
29.000000 26.859863 21.387062
29.400000 27.799805 21.387062
29.700000 27.739746 21.387062
30.000000 28.304688 21.387062
30.300000 29.119629 21.387062
30.500000 29.684570 21.387062
30.700000 30.999512 21.387062
30.900000 31.564453 21.387062
31.200000 32.004395 21.387062
31.500000 32.569336 21.387062
31.700000 32.884277 21.387062
32.000000 33.574219 21.387062
25.200000 0.943359 21.533062
25.200000 2.135742 21.533062
25.300000 1.953125 21.533062
25.300000 4.270508 21.533062
25.300000 4.337891 21.533062
25.300000 5.030273 21.533062
25.300000 5.847656 21.533062
25.300000 7.040039 21.533062
25.400000 6.232422 21.533062
25.400000 6.924805 21.533062
25.500000 7.117188 21.533062
25.600000 7.559570 21.533062
25.700000 8.251953 21.533062
25.700000 9.569336 21.533062
25.800000 10.761719 21.533062
25.800000 11.704102 21.533062
25.800000 11.521484 21.533062
25.900000 12.838867 21.533062
26.000000 13.406250 21.533062
26.000000 14.470703 21.533062
26.100000 14.785156 21.533062
26.200000 14.599609 21.533062
26.300000 15.914062 21.533062
26.300000 16.228516 21.533062
26.300000 17.417969 21.533062
26.400000 17.732422 21.533062
26.500000 17.921875 21.533062
26.700000 19.111328 21.533062
26.800000 19.925781 21.533062
26.800000 20.115234 21.533062
26.900000 20.804688 21.533062
27.000000 21.494141 21.533062
27.200000 21.808594 21.533062
27.300000 23.248047 21.533062
27.600000 23.812500 21.533062
27.800000 24.251953 21.533062
28.000000 25.191406 21.533062
28.300000 25.005859 21.533062
28.600000 26.570312 21.533062
28.900000 27.009766 21.533062
29.300000 27.449219 21.533062
29.600000 27.888672 21.533062
29.900000 28.828125 21.533062
30.200000 28.767578 21.533062
30.400000 29.582031 21.533062
30.700000 30.521484 21.533062
30.900000 30.835938 21.533062
31.300000 31.775391 21.533062
31.600000 32.214844 21.533062
31.700000 33.154297 21.533062
31.900000 34.093750 21.533062
25.200000 1.835449 21.654061
25.200000 1.902344 21.654061
25.200000 2.969238 21.654061
25.200000 3.786133 21.654061
25.300000 3.353027 21.654061
25.300000 4.794922 21.654061
25.300000 6.736816 21.654061
25.300000 6.053711 21.654061
25.400000 5.870605 21.654061
25.500000 8.062500 21.654061
25.600000 8.753906 21.654061
25.700000 8.070312 21.654061
25.700000 8.761719 21.654061
25.700000 9.578125 21.654061
25.800000 10.894531 21.654061
25.900000 10.585938 21.654061
25.900000 13.027344 21.654061
25.900000 12.843750 21.654061
26.000000 13.160156 21.654061
26.000000 13.851562 21.654061
26.100000 14.667969 21.654061
26.200000 14.859375 21.654061
26.300000 15.425781 21.654061
26.300000 16.367188 21.654061
26.300000 18.183594 21.654061
26.400000 18.000000 21.654061
26.500000 19.316406 21.654061
26.600000 18.757812 21.654061
26.800000 19.699219 21.654061
26.900000 20.640625 21.654061
27.000000 21.457031 21.654061
27.100000 22.148438 21.654061
27.300000 22.339844 21.654061
27.400000 22.781250 21.654061
27.600000 23.847656 21.654061
27.800000 24.664062 21.654061
28.100000 25.105469 21.654061
28.400000 25.921875 21.654061
28.700000 26.113281 21.654061
29.100000 27.054688 21.654061
29.400000 27.371094 21.654061
29.800000 28.312500 21.654061
30.000000 28.877930 21.654061
30.300000 29.443359 21.654061
30.500000 30.633789 21.654061
30.700000 30.949219 21.654061
30.900000 31.264648 21.654061
31.100000 31.830078 21.654061
31.300000 32.770508 21.654061
25.200000 2.742188 21.783061
25.200000 1.437500 21.783061
25.200000 2.502930 21.783061
25.200000 2.818359 21.783061
25.200000 4.508789 21.783061
25.300000 4.699219 21.783061
25.300000 5.639648 21.783061
25.400000 5.455078 21.783061
25.400000 6.145508 21.783061
25.400000 8.460938 21.783061
25.600000 7.651367 21.783061
25.700000 8.591797 21.783061
25.700000 9.407227 21.783061
25.800000 9.847656 21.783061
25.800000 10.288086 21.783061
25.800000 11.853516 21.783061
25.900000 12.543945 21.783061
25.900000 12.734375 21.783061
26.000000 13.174805 21.783061
26.100000 14.615234 21.783061
26.100000 15.555664 21.783061
26.100000 16.496094 21.783061
26.200000 16.811523 21.783061
26.200000 17.126953 21.783061
26.400000 17.442383 21.783061
26.500000 18.007812 21.783061
26.500000 18.698242 21.783061
26.600000 20.263672 21.783061
26.700000 19.704102 21.783061
26.900000 21.144531 21.783061
27.000000 22.084961 21.783061
27.100000 22.775391 21.783061
27.300000 22.965820 21.783061
27.500000 23.156250 21.783061
27.700000 23.848633 21.783061
27.800000 24.666016 21.783061
28.100000 24.983398 21.783061
28.400000 26.050781 21.783061
28.800000 26.993164 21.783061
29.200000 27.560547 21.783061
29.500000 27.877930 21.783061
29.800000 28.195312 21.783061
30.000000 28.637695 21.783061
30.300000 30.080078 21.783061
30.500000 30.397461 21.783061
30.800000 31.464844 21.783061
31.100000 31.782227 21.783061
31.200000 32.224609 21.783061
31.300000 32.666992 21.783061
31.600000 33.484375 21.783061
25.200000 0.998047 21.924061
25.200000 1.315430 21.924061
25.200000 3.132812 21.924061
25.200000 2.575195 21.924061
25.300000 3.642578 21.924061
25.300000 4.084961 21.924061
25.300000 4.277344 21.924061
25.300000 6.219727 21.924061
25.400000 6.162109 21.924061
25.400000 7.479492 21.924061
25.500000 7.546875 21.924061
25.600000 7.739258 21.924061
25.700000 8.931641 21.924061
25.700000 9.249023 21.924061
25.800000 10.441406 21.924061
25.800000 11.133789 21.924061
25.800000 12.576172 21.924061
25.900000 13.268555 21.924061
25.900000 12.835938 21.924061
26.000000 13.278320 21.924061
26.100000 13.970703 21.924061
26.200000 15.163086 21.924061
26.200000 16.355469 21.924061
26.300000 15.922852 21.924061
26.300000 17.615234 21.924061
26.400000 17.682617 21.924061
26.500000 18.625000 21.924061
26.600000 18.566406 21.924061
26.700000 19.382812 21.924061
26.800000 20.574219 21.924061
26.800000 21.390625 21.924061
27.000000 22.082031 21.924061
27.200000 22.023438 21.924061
27.300000 22.464844 21.924061
27.500000 23.156250 21.924061
27.700000 23.847656 21.924061
27.900000 24.539062 21.924061
28.200000 25.105469 21.924061
28.600000 26.171875 21.924061
28.900000 26.988281 21.924061
29.200000 27.804688 21.924061
29.500000 28.121094 21.924061
29.800000 28.562500 21.924061
30.100000 29.003906 21.924061
30.400000 29.945312 21.924061
30.600000 31.011719 21.924061
30.800000 31.203125 21.924061
31.200000 31.894531 21.924061
31.500000 32.835938 21.924061
31.700000 33.027344 21.924061
31.800000 33.968750 21.924061
25.200000 1.896484 22.049062
25.100000 1.838867 22.049062
25.200000 2.531250 22.049062
25.200000 2.598633 22.049062
25.200000 4.166016 22.049062
25.200000 4.483398 22.049062
25.200000 5.425781 22.049062
25.300000 5.993164 22.049062
25.400000 7.060547 22.049062
25.400000 6.877930 22.049062
25.500000 7.820312 22.049062
25.600000 7.762695 22.049062
25.700000 9.205078 22.049062
25.700000 9.522461 22.049062
25.700000 10.714844 22.049062
25.800000 11.032227 22.049062
25.800000 11.349609 22.049062
25.900000 12.541992 22.049062
25.900000 12.609375 22.049062
26.000000 14.674316 22.049062
26.000000 14.864258 22.049062
26.000000 15.179199 22.049062
26.100000 16.494141 22.049062
26.200000 17.434082 22.049062
26.300000 16.999023 22.049062
26.400000 17.563965 22.049062
26.500000 18.628906 22.049062
26.500000 19.318848 22.049062
26.600000 19.383789 22.049062
26.800000 19.948730 22.049062
26.900000 20.763672 22.049062
27.000000 21.203613 22.049062
27.200000 21.893555 22.049062
27.300000 23.458496 22.049062
27.500000 23.398438 22.049062
27.700000 23.838379 22.049062
28.000000 25.153320 22.049062
28.200000 25.468262 22.049062
28.500000 26.783203 22.049062
28.800000 26.598145 22.049062
29.200000 27.663086 22.049062
29.500000 28.478027 22.049062
29.800000 29.042969 22.049062
30.100000 29.482910 22.049062
30.400000 29.797852 22.049062
30.600000 30.487793 22.049062
30.700000 31.427734 22.049062
31.100000 31.992676 22.049062
31.500000 32.307617 22.049062
31.600000 33.372559 22.049062
31.800000 34.187500 22.049062
25.000000 1.279297 22.188071
25.100000 2.097656 22.188071
25.100000 2.541016 22.188071
25.100000 2.234375 22.188071
25.200000 3.052734 22.188071
25.200000 4.371094 22.188071
25.200000 4.314453 22.188071
25.300000 5.007812 22.188071
25.300000 5.826172 22.188071
25.300000 7.269531 22.188071
25.400000 7.212891 22.188071
25.500000 7.906250 22.188071
25.700000 8.097656 22.188071
25.700000 8.789062 22.188071
25.700000 10.105469 22.188071
25.800000 10.296875 22.188071
25.800000 11.988281 22.188071
25.800000 12.554688 22.188071
25.800000 12.496094 22.188071
25.900000 13.687500 22.188071
26.000000 14.378906 22.188071
26.100000 14.320312 22.188071
26.100000 15.261719 22.188071
26.100000 15.703125 22.188071
26.200000 16.644531 22.188071
26.300000 18.085938 22.188071
26.400000 17.652344 22.188071
26.500000 19.468750 22.188071
26.600000 20.160156 22.188071
26.700000 19.851562 22.188071
26.800000 20.667969 22.188071
26.900000 21.484375 22.188071
27.100000 22.675781 22.188071
27.300000 22.617188 22.188071
27.400000 23.308594 22.188071
27.600000 24.250000 22.188071
27.800000 24.816406 22.188071
28.300000 25.699219 22.188071
28.700000 26.765625 22.188071
29.000000 27.457031 22.188071
29.400000 27.523438 22.188071
29.700000 28.714844 22.188071
29.900000 29.031250 22.188071
30.200000 29.970703 22.188071
30.500000 30.410156 22.188071
30.700000 31.224609 22.188071
30.800000 31.414062 22.188071
31.000000 32.103516 22.188071
31.200000 33.167969 22.188071
25.100000 0.821777 22.314295
25.100000 2.141602 22.314295
25.100000 3.336426 22.314295
25.100000 3.781250 22.314295
25.200000 5.348145 22.314295
25.200000 4.290039 22.314295
25.200000 4.481934 22.314295
25.300000 6.548828 22.314295
25.300000 7.365723 22.314295
25.400000 6.557617 22.314295
25.400000 7.374512 22.314295
25.600000 8.816406 22.314295
25.600000 10.258301 22.314295
25.700000 9.325195 22.314295
25.700000 11.517090 22.314295
25.700000 11.208984 22.314295
25.800000 11.900879 22.314295
25.900000 12.967773 22.314295
25.900000 13.784668 22.314295
25.900000 14.726562 22.314295
26.000000 14.418457 22.314295
26.000000 14.610352 22.314295
26.100000 15.552246 22.314295
26.200000 16.619141 22.314295
26.300000 17.186035 22.314295
26.400000 18.002930 22.314295
26.400000 19.069824 22.314295
26.500000 19.386719 22.314295
26.600000 19.578613 22.314295
26.700000 20.770508 22.314295
26.800000 21.087402 22.314295
26.900000 22.654297 22.314295
27.100000 23.221191 22.314295
27.300000 22.913086 22.314295
27.500000 23.854980 22.314295
27.700000 24.046875 22.314295
27.900000 24.611328 22.314295
28.200000 25.300781 22.314295
28.500000 26.865234 22.314295
28.800000 26.679688 22.314295
29.200000 27.369141 22.314295
29.500000 28.308594 22.314295
29.800000 28.498047 22.314295
30.100000 29.687500 22.314295
30.300000 30.251953 22.314295
30.600000 30.816406 22.314295
30.700000 31.880859 22.314295
31.100000 31.695312 22.314295
31.400000 33.134766 22.314295
31.600000 33.074219 22.314295
31.800000 33.763672 22.314295
25.000000 2.214844 22.452802
25.100000 1.405273 22.452802
25.100000 2.970703 22.452802
25.100000 3.036133 22.452802
25.100000 4.101562 22.452802
25.100000 4.416992 22.452802
25.200000 4.982422 22.452802
25.200000 5.672852 22.452802
25.200000 6.363281 22.452802
25.300000 6.053711 22.452802
25.400000 6.994141 22.452802
25.400000 8.559570 22.452802
25.600000 8.500000 22.452802
25.700000 8.940430 22.452802
25.700000 9.630859 22.452802
25.700000 10.196289 22.452802
25.800000 12.011719 22.452802
25.800000 12.327148 22.452802
25.800000 13.517578 22.452802
25.900000 13.208008 22.452802
26.000000 14.648438 22.452802
26.000000 15.713867 22.452802
26.000000 16.404297 22.452802
26.100000 16.844727 22.452802
26.200000 17.410156 22.452802
26.300000 17.225586 22.452802
26.400000 18.041016 22.452802
26.500000 18.981445 22.452802
26.600000 20.296875 22.452802
26.700000 19.861816 22.452802
26.800000 20.301758 22.452802
26.900000 21.491699 22.452802
27.000000 22.556641 22.452802
27.200000 22.246582 22.452802
27.400000 23.061523 22.452802
27.600000 24.251465 22.452802
27.800000 24.566406 22.452802
28.000000 26.006348 22.452802
28.300000 26.321289 22.452802
28.600000 26.636230 22.452802
29.000000 26.826172 22.452802
29.300000 27.391113 22.452802
29.700000 28.581055 22.452802
29.900000 28.645996 22.452802
30.100000 29.460938 22.452802
30.400000 30.275879 22.452802
30.600000 30.965820 22.452802
30.800000 31.780762 22.452802
31.000000 32.095703 22.452802
31.200000 32.910645 22.452802
31.400000 33.600586 22.452802
25.100000 0.681641 22.591097
25.100000 2.497559 22.591097
25.100000 3.188477 22.591097
25.100000 3.379395 22.591097
25.100000 4.070312 22.591097
25.200000 4.386230 22.591097
25.200000 5.452148 22.591097
25.200000 5.893066 22.591097
25.300000 5.833984 22.591097
25.300000 7.149902 22.591097
25.400000 8.715820 22.591097
25.500000 7.656738 22.591097
25.600000 9.722656 22.591097
25.600000 9.288574 22.591097
25.700000 10.354492 22.591097
25.100000 1.091797 22.716027
25.100000 1.284668 22.716027
25.100000 2.852539 22.716027
25.100000 4.795410 22.716027
25.100000 3.113281 22.716027
25.200000 4.681152 22.716027
25.200000 4.749023 22.716027
25.200000 6.691895 22.716027
25.200000 6.384766 22.716027
25.300000 6.952637 22.716027
25.400000 8.020508 22.716027
25.500000 7.963379 22.716027
25.600000 9.031250 22.716027
25.700000 10.724609 22.716027
25.700000 10.667969 22.716027
25.700000 12.236328 22.716027
25.700000 11.929688 22.716027
25.800000 12.248047 22.716027
25.900000 13.316406 22.716027
25.900000 14.759766 22.716027
26.000000 14.078125 22.716027
26.000000 15.271484 22.716027
26.100000 15.714844 22.716027
26.200000 16.533203 22.716027
26.200000 18.101562 22.716027
26.300000 18.544922 22.716027
26.400000 18.113281 22.716027
26.600000 18.806641 22.716027
26.600000 19.625000 22.716027
26.700000 21.568359 22.716027
26.800000 21.136719 22.716027
27.000000 22.455078 22.716027
27.100000 22.273438 22.716027
27.300000 23.841797 22.716027
27.500000 24.285156 22.716027
27.700000 24.228516 22.716027
27.900000 25.296875 22.716027
28.300000 26.365234 22.716027
28.600000 26.808594 22.716027
28.900000 27.626953 22.716027
29.200000 27.320312 22.716027
29.600000 28.513672 22.716027
29.900000 29.207031 22.716027
30.100000 29.525391 22.716027
30.300000 30.093750 22.716027
30.600000 31.284180 22.716027
30.600000 31.724609 22.716027
30.900000 32.540039 22.716027
31.300000 33.230469 22.716027
31.400000 33.420898 22.716027
31.900000 34.111328 22.716027
25.000000 0.584961 22.845580
25.100000 0.902344 22.845580
25.100000 1.094727 22.845580
25.100000 4.287109 22.845580
25.000000 3.229492 22.845580
25.100000 3.546875 22.845580
25.200000 4.492188 22.845580
25.200000 5.437500 22.845580
25.200000 7.007812 22.845580
25.200000 5.953125 22.845580
25.300000 7.148438 22.845580
25.400000 7.343750 22.845580
25.500000 9.164062 22.845580
25.600000 9.109375 22.845580
25.700000 9.679688 22.845580
25.700000 10.500000 22.845580
25.600000 11.820312 22.845580
25.700000 11.515625 22.845580
25.800000 12.960938 22.845580
25.800000 13.531250 22.845580
25.900000 14.726562 22.845580
26.000000 14.046875 22.845580
26.000000 16.117188 22.845580
26.100000 15.562500 22.845580
26.100000 17.132812 22.845580
26.200000 16.953125 22.845580
26.300000 18.148438 22.845580
26.400000 18.218750 22.845580
26.500000 19.539062 22.845580
26.600000 19.859375 22.845580
26.700000 20.929688 22.845580
26.800000 21.250000 22.845580
26.900000 21.820312 22.845580
27.100000 23.015625 22.845580
27.300000 23.460938 22.845580
27.500000 24.406250 22.845580
27.700000 25.226562 22.845580
27.900000 25.671875 22.845580
28.200000 26.113281 22.845580
28.500000 26.179688 22.845580
28.900000 27.496094 22.845580
29.200000 27.687500 22.845580
29.600000 28.253906 22.845580
29.800000 28.945312 22.845580
30.100000 29.511719 22.845580
30.300000 30.453125 22.845580
30.500000 31.019531 22.845580
30.900000 32.527344 22.845580
31.200000 33.093750 22.845580
31.400000 33.285156 22.845580
31.800000 34.226562 22.845580
25.000000 1.201172 22.986579
25.100000 1.520996 22.986579
25.100000 2.590820 22.986579
25.100000 2.535645 22.986579
25.100000 3.980469 22.986579
25.100000 4.175293 22.986579
25.100000 5.370117 22.986579
25.100000 6.939941 22.986579
25.200000 6.259766 22.986579
25.300000 8.579590 22.986579
25.400000 7.274414 22.986579
25.500000 9.594238 22.986579
25.600000 9.039062 22.986579
25.700000 9.483887 22.986579
25.700000 10.303711 22.986579
25.700000 11.498535 22.986579
25.700000 12.693359 22.986579
25.800000 12.013184 22.986579
25.800000 12.958008 22.986579
25.900000 13.527832 22.986579
25.900000 15.347656 22.986579
26.000000 15.042480 22.986579
26.100000 16.612305 22.986579
26.200000 16.807129 22.986579
26.200000 18.251953 22.986579
26.300000 17.821777 22.986579
26.400000 18.391602 22.986579
26.500000 19.961426 22.986579
26.500000 20.281250 22.986579
26.700000 20.221191 22.986579
26.800000 20.911133 22.986579
26.900000 21.851074 22.986579
27.100000 22.166016 22.986579
27.200000 22.980957 22.986579
27.400000 23.420898 22.986579
27.700000 24.485840 22.986579
27.900000 24.800781 22.986579
28.200000 26.365723 22.986579
28.500000 26.180664 22.986579
28.800000 27.120605 22.986579
29.200000 27.435547 22.986579
29.500000 28.000488 22.986579
29.800000 29.065430 22.986579
30.000000 29.255371 22.986579
30.300000 30.320312 22.986579
30.500000 30.635254 22.986579
31.000000 32.705078 22.986579
31.500000 33.645020 22.986579
31.700000 33.959961 22.986579
25.000000 1.882324 23.111580
25.000000 2.075195 23.111580
25.000000 4.643066 23.111580
25.100000 3.085938 23.111580
25.100000 4.528809 23.111580
25.100000 5.346680 23.111580
25.100000 7.289551 23.111580
25.200000 5.857422 23.111580
25.300000 7.425293 23.111580
25.400000 7.243164 23.111580
25.400000 8.311035 23.111580
25.500000 8.878906 23.111580
25.500000 10.696777 23.111580
25.600000 10.514648 23.111580
25.700000 11.457520 23.111580
25.700000 11.400391 23.111580
25.700000 11.968262 23.111580
25.800000 12.661133 23.111580
25.800000 14.229004 23.111580
25.900000 15.046875 23.111580
26.000000 14.860840 23.111580
26.100000 15.674805 23.111580
26.100000 17.613770 23.111580
26.200000 16.802734 23.111580
26.300000 17.991699 23.111580
26.400000 19.180664 23.111580
26.500000 18.869629 23.111580
26.500000 19.558594 23.111580
26.700000 20.747559 23.111580
26.800000 21.186523 23.111580
26.900000 22.125488 23.111580
27.000000 22.314453 23.111580
27.200000 23.628418 23.111580
27.400000 23.942383 23.111580
27.700000 25.006348 23.111580
27.900000 25.195312 23.111580
28.100000 25.759277 23.111580
28.400000 26.573242 23.111580
28.800000 27.262207 23.111580
29.100000 28.076172 23.111580
29.400000 28.640137 23.111580
29.700000 29.204102 23.111580
29.900000 29.643066 23.111580
30.200000 30.457031 23.111580
30.400000 30.520996 23.111580
31.000000 33.087891 23.111580
31.400000 33.651855 23.111580
31.600000 34.340820 23.111580
25.100000 1.628906 23.254578
25.000000 1.196289 23.254578
25.000000 3.013672 23.254578
25.000000 3.456055 23.254578
25.100000 4.148438 23.254578
25.100000 4.215820 23.254578
25.100000 5.033203 23.254578
25.100000 7.600586 23.254578
25.200000 6.542969 23.254578
25.300000 7.985352 23.254578
25.300000 8.427734 23.254578
25.400000 9.245117 23.254578
25.500000 8.812500 23.254578
25.500000 9.753418 23.254578
25.600000 11.444336 23.254578
25.700000 11.885254 23.254578
25.700000 11.451172 23.254578
25.700000 13.017090 23.254578
25.700000 13.833008 23.254578
25.800000 13.898926 23.254578
25.900000 14.964844 23.254578
26.000000 14.530762 23.254578
26.100000 15.846680 23.254578
26.100000 16.537598 23.254578
26.200000 17.728516 23.254578
26.200000 17.294434 23.254578
26.400000 18.735352 23.254578
26.500000 18.551270 23.254578
26.500000 20.242188 23.254578
26.600000 20.933105 23.254578
26.800000 20.874023 23.254578
26.900000 22.439941 23.254578
27.100000 23.005859 23.254578
27.200000 23.696777 23.254578
27.400000 24.137695 23.254578
27.600000 24.453613 23.254578
27.800000 24.644531 23.254578
28.100000 25.710449 23.254578
28.400000 26.401367 23.254578
28.700000 26.592285 23.254578
29.100000 27.533203 23.254578
29.400000 28.599121 23.254578
29.700000 28.915039 23.254578
29.900000 29.730957 23.254578
30.200000 30.171875 23.254578
30.400000 30.988281 23.254578
30.700000 31.054688 23.254578
31.100000 32.246094 23.254578
31.300000 33.062500 23.254578
31.300000 33.128906 23.254578
31.600000 33.695312 23.254578
25.000000 1.972656 23.379580
25.000000 1.791992 23.379580
25.100000 1.986328 23.379580
25.000000 2.930664 23.379580
25.100000 3.500000 23.379580
25.100000 4.189941 23.379580
25.100000 5.129883 23.379580
25.100000 5.319824 23.379580
25.200000 6.134766 23.379580
25.300000 7.824707 23.379580
25.400000 7.764648 23.379580
25.400000 9.454590 23.379580
25.500000 9.894531 23.379580
25.600000 9.709473 23.379580
25.600000 10.149414 23.379580
25.600000 10.964355 23.379580
25.600000 12.779297 23.379580
25.700000 12.719238 23.379580
25.800000 12.909180 23.379580
25.800000 13.599121 23.379580
25.900000 14.914062 23.379580
26.000000 14.979004 23.379580
26.100000 15.543945 23.379580
26.100000 16.733887 23.379580
26.200000 17.798828 23.379580
26.200000 17.738770 23.379580
26.400000 19.553711 23.379580
26.500000 19.368652 23.379580
26.600000 20.558594 23.379580
26.700000 20.248535 23.379580
26.800000 21.813477 23.379580
26.900000 22.253418 23.379580
27.000000 22.568359 23.379580
27.200000 22.758301 23.379580
27.400000 23.573242 23.379580
27.600000 24.388184 23.379580
27.900000 24.953125 23.379580
28.100000 25.394043 23.379580
28.400000 26.834961 23.379580
28.800000 26.650879 23.379580
29.100000 27.716797 23.379580
29.400000 28.407715 23.379580
29.700000 28.973633 23.379580
30.000000 29.789551 23.379580
30.200000 29.980469 23.379580
30.500000 30.546387 23.379580
31.000000 32.619141 23.379580
31.500000 33.435059 23.379580
31.800000 34.375977 23.379580
24.900000 0.919434 23.524579
25.000000 1.861328 23.524579
25.000000 2.053223 23.524579
25.100000 2.370117 23.524579
25.100000 3.687012 23.524579
25.100000 3.628906 23.524579
25.100000 4.820801 23.524579
25.200000 5.012695 23.524579
25.200000 5.454590 23.524579
25.200000 7.271484 23.524579
25.300000 6.838379 23.524579
25.400000 8.030273 23.524579
25.400000 8.222168 23.524579
25.500000 9.039062 23.524579
25.500000 10.855957 23.524579
25.600000 10.422852 23.524579
25.600000 11.739746 23.524579
25.700000 11.556641 23.524579
25.800000 12.373535 23.524579
25.800000 13.440430 23.524579
25.800000 14.757324 23.524579
25.900000 15.449219 23.524579
26.000000 16.391113 23.524579
26.100000 15.583008 23.524579
26.100000 16.399902 23.524579
26.200000 17.591797 23.524579
26.300000 18.658691 23.524579
26.400000 18.850586 23.524579
26.500000 19.292480 23.524579
26.600000 20.359375 23.524579
26.700000 21.300293 23.524579
26.800000 21.616211 23.524579
26.900000 22.307129 23.524579
27.100000 22.248047 23.524579
27.300000 23.313965 23.524579
27.500000 24.004883 23.524579
27.700000 24.320801 23.524579
27.900000 25.011719 23.524579
28.200000 26.202637 23.524579
28.600000 26.143555 23.524579
28.900000 26.959473 23.524579
29.200000 28.150391 23.524579
29.500000 28.591309 23.524579
29.800000 28.782227 23.524579
30.100000 29.848145 23.524579
30.300000 30.039062 23.524579
30.600000 31.104980 23.524579
30.700000 32.045898 23.524579
30.900000 32.111816 23.524579
31.200000 33.177734 23.524579
31.400000 33.493652 23.524579
31.900000 33.934570 23.524579
24.900000 1.939453 23.648580
25.000000 1.882812 23.648580
25.000000 1.576172 23.648580
25.100000 2.019531 23.648580
25.100000 3.337891 23.648580
25.100000 4.281250 23.648580
25.100000 4.099609 23.648580
25.100000 4.792969 23.648580
25.200000 6.361328 23.648580
25.200000 6.179688 23.648580
25.300000 6.873047 23.648580
25.400000 8.191406 23.648580
25.400000 8.884766 23.648580
25.500000 10.578125 23.648580
25.500000 9.896484 23.648580
25.600000 10.214844 23.648580
25.600000 11.283203 23.648580
25.700000 11.726562 23.648580
25.800000 12.294922 23.648580
25.800000 13.363281 23.648580
25.800000 14.056641 23.648580
25.900000 14.500000 23.648580
26.000000 15.315430 23.648580
26.100000 17.005859 23.648580
26.200000 16.446289 23.648580
26.200000 17.136719 23.648580
26.300000 18.202148 23.648580
26.400000 19.142578 23.648580
26.500000 19.833008 23.648580
26.600000 19.648438 23.648580
26.700000 21.088867 23.648580
26.900000 21.279297 23.648580
26.900000 22.469727 23.648580
27.100000 22.410156 23.648580
27.300000 23.350586 23.648580
27.500000 24.541016 23.648580
27.700000 24.981445 23.648580
28.000000 24.921875 23.648580
28.300000 26.237305 23.648580
28.600000 27.052734 23.648580
28.900000 26.868164 23.648580
29.200000 28.308594 23.648580
29.500000 28.749023 23.648580
29.800000 29.314453 23.648580
30.100000 30.004883 23.648580
30.300000 30.570312 23.648580
30.600000 30.885742 23.648580
30.800000 32.076172 23.648580
31.000000 32.141602 23.648580
31.200000 32.832031 23.648580
31.500000 33.522461 23.648580
31.900000 34.462891 23.648580
25.000000 0.841797 23.775581
25.000000 2.409668 23.775581
25.000000 3.977539 23.775581
25.000000 3.295410 23.775581
25.100000 4.363281 23.775581
25.100000 4.306152 23.775581
25.100000 5.124023 23.775581
25.200000 6.191895 23.775581
25.200000 6.634766 23.775581
25.300000 7.452637 23.775581
25.400000 8.020508 23.775581
25.500000 9.838379 23.775581
25.500000 9.281250 23.775581
25.500000 9.722656 23.775581
25.600000 10.539062 23.775581
25.600000 11.855469 23.775581
25.700000 12.796875 23.775581
25.700000 13.113281 23.775581
25.800000 13.054688 23.775581
25.900000 14.121094 23.775581
25.900000 16.062500 23.775581
26.000000 15.878906 23.775581
26.100000 17.070312 23.775581
26.100000 17.511719 23.775581
26.200000 17.828125 23.775581
26.300000 18.769531 23.775581
26.400000 18.585938 23.775581
26.500000 19.277344 23.775581
26.700000 20.218750 23.775581
26.800000 21.410156 23.775581
26.900000 22.226562 23.775581
27.000000 21.917969 23.775581
27.200000 23.609375 23.775581
27.400000 23.925781 23.775581
27.600000 24.117188 23.775581
27.800000 25.058594 23.775581
28.100000 25.125000 23.775581
28.400000 25.691406 23.775581
28.700000 26.507812 23.775581
29.000000 27.574219 23.775581
29.400000 28.265625 23.775581
29.700000 28.457031 23.775581
29.900000 29.773438 23.775581
30.200000 29.589844 23.775581
30.500000 30.406250 23.775581
30.800000 31.095703 23.775581
31.100000 31.660156 23.775581
31.300000 32.974609 23.775581
31.300000 33.289062 23.775581
31.500000 34.103516 23.775581
25.000000 1.825195 23.915579
25.000000 1.519531 23.915579
25.100000 2.963867 23.915579
25.100000 3.158203 23.915579
25.100000 4.852539 23.915579
25.100000 4.171875 23.915579
25.100000 6.614746 23.915579
25.100000 5.807617 23.915579
25.200000 6.875488 23.915579
25.300000 7.193359 23.915579
25.300000 7.886230 23.915579
25.400000 9.204102 23.915579
25.500000 8.896973 23.915579
25.500000 10.589844 23.915579
25.600000 10.532715 23.915579
25.600000 10.850586 23.915579
25.700000 11.543457 23.915579
25.700000 13.736328 23.915579
25.800000 14.429199 23.915579
25.800000 14.372070 23.915579
25.900000 14.439941 23.915579
26.000000 15.382812 23.915579
26.100000 16.950684 23.915579
26.100000 16.393555 23.915579
26.200000 17.461426 23.915579
26.300000 19.154297 23.915579
26.400000 18.972168 23.915579
26.500000 19.290039 23.915579
26.600000 19.982910 23.915579
26.700000 21.550781 23.915579
26.800000 21.243652 23.915579
26.900000 22.936523 23.915579
27.100000 22.379395 23.915579
27.300000 22.947266 23.915579
27.500000 24.140137 23.915579
27.700000 24.958008 23.915579
27.900000 24.900879 23.915579
28.200000 25.593750 23.915579
28.600000 27.032715 23.915579
28.900000 27.346680 23.915579
29.300000 27.535645 23.915579
29.500000 28.474609 23.915579
29.800000 29.413574 23.915579
30.100000 29.727539 23.915579
30.300000 30.291504 23.915579
30.600000 30.980469 23.915579
30.600000 31.919434 23.915579
30.900000 32.233398 23.915579
31.200000 32.797363 23.915579
31.400000 33.861328 23.915579
31.900000 34.425293 23.915579
24.900000 1.291016 24.045580
25.000000 1.983398 24.045580
25.000000 2.925781 24.045580
25.000000 4.368164 24.045580
25.100000 3.060547 24.045580
25.100000 4.127930 24.045580
25.100000 4.445312 24.045580
25.100000 6.762695 24.045580
25.200000 6.580078 24.045580
25.200000 7.272461 24.045580
25.300000 8.464844 24.045580
25.400000 7.907227 24.045580
25.400000 9.224609 24.045580
25.500000 9.041992 24.045580
25.500000 10.609375 24.045580
25.600000 10.926758 24.045580
25.600000 11.244141 24.045580
25.700000 11.811523 24.045580
25.700000 12.753906 24.045580
25.800000 13.946289 24.045580
25.800000 15.388672 24.045580
25.900000 15.206055 24.045580
26.000000 15.898438 24.045580
26.000000 15.965820 24.045580
26.100000 17.283203 24.045580
26.200000 18.475586 24.045580
26.300000 18.917969 24.045580
26.400000 19.610352 24.045580
26.500000 20.302734 24.045580
26.600000 20.370117 24.045580
26.700000 20.437500 24.045580
26.900000 21.750977 24.045580
27.000000 22.189453 24.045580
27.200000 23.127930 24.045580
27.400000 23.691406 24.045580
27.600000 23.879883 24.045580
27.700000 24.818359 24.045580
28.000000 25.131836 24.045580
28.300000 25.695312 24.045580
28.700000 26.633789 24.045580
29.000000 27.072266 24.045580
29.300000 27.760742 24.045580
29.500000 28.449219 24.045580
29.800000 28.762695 24.045580
30.100000 29.826172 24.045580
30.400000 30.889648 24.045580
30.600000 31.078125 24.045580
30.800000 31.891602 24.045580
31.000000 32.205078 24.045580
31.200000 33.143555 24.045580
25.000000 1.527344 24.186579
25.000000 1.718750 24.186579
25.100000 3.226562 24.186579
25.100000 4.417969 24.186579
25.100000 6.609375 24.186579
25.200000 6.050781 24.186579
26.200000 15.355469 24.186579
28.400000 26.182617 24.186579
29.100000 27.634766 24.186579
25.000000 0.768555 24.313581
25.000000 2.586426 24.313581
25.000000 3.154297 24.313581
25.000000 3.097168 24.313581
25.100000 5.290039 24.313581
25.100000 5.482910 24.313581
25.100000 4.550781 24.313581
25.100000 6.243652 24.313581
25.200000 6.811523 24.313581
25.300000 6.879395 24.313581
25.300000 9.322266 24.313581
25.400000 8.015137 24.313581
25.500000 9.583008 24.313581
25.600000 9.275879 24.313581
25.600000 11.093750 24.313581
25.600000 11.037598 24.313581
25.600000 11.356445 24.313581
25.700000 13.675293 24.313581
25.800000 13.619141 24.313581
25.800000 14.437988 24.313581
25.900000 14.756836 24.313581
26.000000 15.075684 24.313581
26.000000 16.769531 24.313581
26.100000 16.963379 24.313581
26.200000 18.032227 24.313581
26.300000 17.726074 24.313581
26.400000 18.794922 24.313581
26.500000 19.113770 24.313581
26.600000 19.432617 24.313581
26.700000 20.751465 24.313581
26.800000 21.820312 24.313581
26.900000 22.264160 24.313581
27.100000 23.208008 24.313581
27.200000 22.901855 24.313581
27.400000 23.845703 24.313581
27.700000 24.039551 24.313581
28.000000 25.858398 24.313581
28.300000 25.427246 24.313581
28.600000 26.496094 24.313581
28.900000 26.814941 24.313581
29.200000 27.883789 24.313581
29.500000 28.577637 24.313581
29.800000 29.396484 24.313581
30.000000 29.965332 24.313581
30.300000 30.784180 24.313581
30.500000 31.228027 24.313581
30.600000 31.421875 24.313581
30.900000 32.613770 24.313581
31.200000 32.680664 24.313581
31.500000 33.247559 24.313581
32.000000 34.064453 24.313581
25.000000 2.452148 24.446580
25.100000 3.895020 24.446580
25.100000 2.962891 24.446580
25.100000 3.280762 24.446580
25.100000 4.473633 24.446580
25.100000 5.666504 24.446580
25.100000 6.109375 24.446580
25.200000 6.051270 24.446580
25.300000 6.368164 24.446580
25.300000 7.060059 24.446580
25.400000 7.626953 24.446580
25.500000 8.568848 24.446580
25.500000 10.010742 24.446580
25.500000 10.327637 24.446580
25.600000 10.769531 24.446580
25.600000 11.461426 24.446580
25.700000 13.153320 24.446580
25.700000 13.845215 24.446580
25.800000 13.537109 24.446580
25.900000 14.729004 24.446580
25.900000 14.670898 24.446580
26.000000 15.862793 24.446580
26.100000 15.804688 24.446580
26.100000 16.871582 24.446580
26.200000 17.688477 24.446580
26.300000 18.380371 24.446580
26.400000 18.947266 24.446580
26.500000 19.389160 24.446580
26.600000 19.956055 24.446580
26.700000 21.022949 24.446580
26.900000 21.714844 24.446580
27.000000 22.031738 24.446580
27.200000 22.848633 24.446580
27.400000 23.040527 24.446580
27.600000 24.482422 24.446580
27.900000 24.674316 24.446580
28.100000 24.991211 24.446580
28.500000 25.683105 24.446580
28.700000 27.125000 24.446580
29.100000 27.442871 24.446580
29.400000 27.760742 24.446580
29.700000 28.828613 24.446580
30.000000 29.146484 24.446580
30.200000 29.589355 24.446580
30.500000 30.407227 24.446580
30.700000 31.225098 24.446580
31.100000 31.667969 24.446580
31.200000 32.110840 24.446580
31.300000 33.178711 24.446580
31.500000 33.871582 24.446580
24.900000 0.677734 24.583580
25.000000 1.996094 24.583580
25.100000 2.439453 24.583580
25.100000 2.382812 24.583580
25.100000 3.701172 24.583580
25.100000 4.394531 24.583580
25.100000 4.962891 24.583580
25.200000 5.281250 24.583580
25.300000 5.599609 24.583580
25.400000 6.417969 24.583580
25.400000 7.111328 24.583580
25.400000 7.554688 24.583580
25.500000 9.248047 24.583580
25.500000 10.441406 24.583580
25.500000 11.384766 24.583580
25.600000 10.328125 24.583580
25.700000 11.646484 24.583580
25.700000 12.464844 24.583580
25.800000 12.658203 24.583580
25.900000 14.601562 24.583580
25.900000 14.544922 24.583580
26.000000 14.863281 24.583580
26.000000 15.056641 24.583580
26.100000 16.250000 24.583580
26.200000 17.818359 24.583580
26.300000 18.261719 24.583580
26.400000 18.830078 24.583580
26.400000 18.523438 24.583580
26.500000 19.966797 24.583580
26.700000 19.785156 24.583580
26.800000 21.103516 24.583580
26.900000 22.046875 24.583580
27.100000 22.737793 24.583580
27.300000 22.553711 24.583580
27.500000 23.619629 24.583580
27.800000 24.501465 24.583580
28.100000 25.317383 24.583580
28.400000 26.258301 24.583580
28.800000 26.449219 24.583580
29.100000 27.515137 24.583580
29.400000 28.081055 24.583580
29.700000 29.021973 24.583580
30.000000 29.087891 24.583580
30.200000 29.903809 24.583580
30.500000 30.219727 24.583580
30.700000 31.410645 24.583580
31.100000 31.851562 24.583580
31.300000 32.292480 24.583580
31.400000 32.858398 24.583580
31.600000 33.799316 24.583580
25.100000 0.918945 24.715580
25.100000 0.861328 24.715580
25.300000 1.803711 24.715580
25.200000 2.746094 24.715580
25.200000 3.938477 24.715580
25.100000 5.130859 24.715580
25.200000 6.198242 24.715580
25.200000 6.015625 24.715580
25.300000 7.333008 24.715580
25.400000 7.525391 24.715580
25.500000 7.217773 24.715580
25.500000 7.910156 24.715580
25.600000 8.977539 24.715580
25.600000 9.169922 24.715580
25.700000 10.862305 24.715580
25.700000 10.554688 24.715580
