66.900000 0.265625 37.084001
68.400000 1.014648 37.084001
69.800000 1.638672 37.084001
70.100000 2.262695 37.084001
69.900000 2.761719 37.084001
69.700000 3.510742 37.084001
69.400000 4.134766 37.084001
69.300000 4.758789 37.084001
69.300000 5.507812 37.084001
69.300000 6.006836 37.084001
69.300000 6.630859 37.084001
69.300000 7.129883 37.084001
69.000000 7.878906 37.084001
68.500000 8.502930 37.084001
67.200000 9.001953 37.084001
65.900000 9.750977 37.084001
65.500000 10.125000 37.084001
65.200000 10.874023 37.084001
65.000000 11.498047 37.084001
65.000000 11.997070 37.084001
65.200000 12.621094 37.084001
65.300000 13.245117 37.084001
65.400000 13.869141 37.084001
65.500000 14.618164 37.084001
65.500000 15.117188 37.084001
65.800000 15.866211 37.084001
66.100000 16.490234 37.084001
66.300000 17.114258 37.084001
66.500000 18.986328 37.084001
65.800000 19.610352 37.084001
65.500000 20.234375 37.084001
66.100000 20.858887 37.084001
66.700000 21.483398 37.084001
67.200000 22.107910 37.084001
67.700000 22.857422 37.084001
68.000000 23.356934 37.084001
68.800000 24.106445 37.084001
68.900000 24.730957 37.084001
68.200000 25.230469 37.084001
68.300000 25.854980 37.084001
68.900000 27.104004 37.084001
67.900000 -0.601562 37.222000
69.500000 0.777344 37.222000
70.000000 1.529297 37.222000
70.100000 2.156250 37.222000
69.900000 2.905273 37.222000
69.700000 3.279297 37.222000
69.600000 4.028320 37.222000
69.400000 4.527344 37.222000
69.200000 5.276367 37.222000
69.200000 5.775391 37.222000
69.300000 6.524414 37.222000
69.200000 7.148438 37.222000
68.900000 7.772461 37.222000
68.500000 8.396484 37.222000
65.300000 9.519531 37.222000
65.100000 10.143555 37.222000
65.000000 10.767578 37.222000
64.900000 11.391602 37.222000
64.800000 12.015625 37.222000
64.800000 12.514648 37.222000
64.800000 13.263672 37.222000
64.800000 13.887695 37.222000
65.100000 14.511719 37.222000
65.400000 15.010742 37.222000
65.700000 15.634766 37.222000
66.000000 16.258789 37.222000
66.200000 17.007812 37.222000
66.500000 17.756836 37.222000
66.500000 18.255859 37.222000
66.400000 18.879883 37.222000
65.600000 19.378906 37.222000
65.100000 20.127930 37.222000
65.800000 20.751953 37.222000
66.500000 21.375977 37.222000
67.100000 22.000000 37.222000
67.500000 22.623047 37.222000
67.800000 23.246094 37.222000
68.300000 23.994141 37.222000
68.600000 24.492188 37.222000
68.000000 25.240234 37.222000
68.100000 25.738281 37.222000
68.500000 26.984375 37.222000
68.400000 -0.033203 37.371000
69.300000 0.719727 37.371000
69.800000 1.222656 37.371000
69.900000 1.850586 37.371000
69.700000 2.478516 37.371000
69.500000 3.106445 37.371000
69.300000 3.734375 37.371000
69.300000 4.359375 37.371000
69.200000 4.984375 37.371000
69.000000 5.484375 37.371000
69.000000 6.234375 37.371000
68.900000 6.859375 37.371000
68.800000 7.484375 37.371000
68.400000 7.984375 37.371000
65.200000 9.109375 37.371000
64.800000 9.734375 37.371000
64.600000 10.484375 37.371000
64.700000 11.109375 37.371000
64.600000 11.734375 37.371000
64.600000 12.234375 37.371000
64.500000 12.859375 37.371000
64.300000 13.484375 37.371000
64.500000 14.109375 37.371000
64.800000 14.859375 37.371000
65.300000 15.359375 37.371000
65.700000 15.984375 37.371000
65.900000 16.609375 37.371000
66.200000 17.359375 37.371000
66.500000 17.984375 37.371000
66.200000 18.484375 37.371000
65.400000 19.109375 37.371000
64.900000 19.859375 37.371000
65.300000 20.359375 37.371000
65.800000 21.109375 37.371000
66.300000 21.734375 37.371000
66.900000 22.359375 37.371000
67.300000 23.109375 37.371000
67.700000 23.609375 37.371000
68.600000 24.232422 37.371000
68.600000 25.478516 37.371000
68.200000 26.101562 37.371000
68.400000 26.849609 37.371000
69.100000 27.347656 37.371000
68.800000 0.035156 37.518000
69.400000 0.790527 37.518000
69.800000 1.420898 37.518000
69.800000 1.801270 37.518000
69.600000 2.556641 37.518000
69.400000 3.062012 37.518000
69.100000 3.817383 37.518000
69.200000 4.447754 37.518000
69.100000 4.953125 37.518000
69.000000 5.702637 37.518000
69.000000 6.202148 37.518000
68.700000 6.826660 37.518000
68.300000 7.451172 37.518000
68.000000 8.075684 37.518000
64.400000 9.199707 37.518000
64.300000 9.949219 37.518000
64.400000 10.448730 37.518000
64.400000 11.073242 37.518000
64.300000 11.697754 37.518000
64.400000 12.322266 37.518000
64.300000 13.071777 37.518000
64.100000 13.696289 37.518000
64.300000 14.195801 37.518000
64.700000 14.945312 37.518000
65.000000 15.569824 37.518000
65.300000 16.069336 37.518000
65.600000 16.818848 37.518000
66.100000 17.318359 37.518000
66.400000 17.942871 37.518000
66.100000 18.567383 37.518000
65.200000 19.191895 37.518000
64.500000 19.816406 37.518000
65.000000 20.690918 37.518000
65.700000 21.190430 37.518000
66.200000 21.814941 37.518000
66.600000 22.564453 37.518000
67.100000 23.063965 37.518000
67.600000 23.688477 37.518000
68.000000 25.564453 37.518000
68.100000 26.191406 37.518000
68.400000 26.818359 37.518000
69.100000 -0.221680 37.665000
69.200000 0.531738 37.665000
69.600000 1.160156 37.665000
69.600000 1.663574 37.665000
69.400000 2.416992 37.665000
69.200000 3.045410 37.665000
69.100000 3.673828 37.665000
69.100000 4.302246 37.665000
68.900000 4.930664 37.665000
68.900000 5.559082 37.665000
68.900000 6.187500 37.665000
68.500000 6.687988 37.665000
68.200000 7.438477 37.665000
67.800000 7.938965 37.665000
64.200000 8.939941 37.665000
64.000000 9.815430 37.665000
63.900000 10.440918 37.665000
63.900000 11.066406 37.665000
64.100000 11.691895 37.665000
64.300000 12.317383 37.665000
64.100000 12.942871 37.665000
64.100000 13.568359 37.665000
64.100000 14.068848 37.665000
64.200000 14.819336 37.665000
64.800000 15.444824 37.665000
65.200000 16.070312 37.665000
65.300000 16.695801 37.665000
65.600000 17.196289 37.665000
66.200000 17.821777 37.665000
65.900000 18.447266 37.665000
64.900000 19.072754 37.665000
64.400000 19.698242 37.665000
64.700000 20.448730 37.665000
65.300000 21.074219 37.665000
65.800000 21.574707 37.665000
66.300000 22.450195 37.665000
66.700000 22.950684 37.665000
67.100000 23.701172 37.665000
67.900000 24.201660 37.665000
68.200000 25.452637 37.665000
68.300000 26.829102 37.665000
69.400000 -0.376953 37.812000
69.200000 0.374512 37.812000
69.600000 1.000977 37.812000
69.600000 1.502441 37.812000
69.400000 2.253906 37.812000
69.200000 2.880371 37.812000
69.000000 3.381836 37.812000
69.000000 4.133301 37.812000
68.800000 4.759766 37.812000
68.800000 5.261230 37.812000
68.700000 6.012695 37.812000
68.300000 6.514160 37.812000
68.000000 7.265625 37.812000
67.700000 7.767578 37.812000
63.700000 9.021484 37.812000
63.600000 9.523438 37.812000
63.600000 10.150391 37.812000
63.600000 10.777344 37.812000
63.800000 11.529297 37.812000
64.200000 12.156250 37.812000
64.200000 12.783203 37.812000
63.800000 13.285156 37.812000
63.600000 13.912109 37.812000
63.900000 14.664062 37.812000
64.400000 15.166016 37.812000
64.800000 15.792969 37.812000
65.000000 16.544922 37.812000
65.200000 17.171875 37.812000
65.400000 17.798828 37.812000
65.700000 18.425781 37.812000
65.100000 18.927734 37.812000
64.200000 19.679687 37.812000
64.600000 20.181641 37.812000
65.100000 20.933594 37.812000
65.400000 21.560547 37.812000
66.000000 22.312500 37.812000
66.500000 22.814453 37.812000
67.000000 23.441406 37.812000
67.700000 24.068359 37.812000
68.200000 26.074219 37.812000
68.500000 26.576172 37.812000
69.400000 -0.301758 37.961000
69.200000 0.449707 37.961000
69.600000 1.076172 37.961000
69.600000 1.702637 37.961000
69.400000 2.329102 37.961000
69.200000 2.955566 37.961000
69.100000 3.582031 37.961000
69.000000 4.208496 37.961000
68.900000 4.834961 37.961000
68.800000 5.461426 37.961000
68.600000 5.962891 37.961000
68.200000 6.589355 37.961000
68.100000 7.215820 37.961000
67.800000 7.842285 37.961000
63.400000 8.968750 37.961000
63.200000 9.718750 37.961000
63.400000 10.343750 37.961000
63.600000 10.843750 37.961000
63.700000 11.593750 37.961000
64.000000 12.218750 37.961000
64.000000 12.718750 37.961000
63.700000 13.343750 37.961000
63.500000 13.968750 37.961000
63.900000 14.718750 37.961000
64.300000 15.218750 37.961000
64.600000 15.843750 37.961000
65.000000 16.468750 37.961000
65.100000 17.093750 37.961000
65.600000 17.843750 37.961000
65.900000 18.468750 37.961000
65.100000 18.968750 37.961000
64.200000 19.593750 37.961000
64.600000 20.343750 37.961000
65.200000 21.093750 37.961000
65.500000 21.468750 37.961000
66.000000 22.218750 37.961000
66.500000 22.843750 37.961000
67.100000 23.593750 37.961000
67.800000 24.218750 37.961000
68.400000 25.968750 37.961000
69.100000 26.718750 37.961000
69.500000 -0.132813 38.106000
69.300000 0.491699 38.106000
69.600000 1.241211 38.106000
69.600000 1.740723 38.106000
69.400000 2.365234 38.106000
69.200000 2.989746 38.106000
69.100000 3.489258 38.106000
69.100000 4.238770 38.106000
68.900000 4.738281 38.106000
68.900000 5.487793 38.106000
68.700000 6.112305 38.106000
68.300000 6.736816 38.106000
68.000000 7.361328 38.106000
67.700000 7.860840 38.106000
63.300000 9.109863 38.106000
63.200000 9.609375 38.106000
63.400000 10.358887 38.106000
63.500000 10.983398 38.106000
63.700000 11.607910 38.106000
63.700000 12.232422 38.106000
63.500000 12.606934 38.106000
63.600000 13.356445 38.106000
63.700000 14.105957 38.106000
63.900000 14.605469 38.106000
63.800000 15.354980 38.106000
63.300000 15.729492 38.106000
64.000000 16.479004 38.106000
65.000000 17.103516 38.106000
65.400000 17.853027 38.106000
65.700000 18.477539 38.106000
65.200000 18.977051 38.106000
64.600000 19.601562 38.106000
65.000000 20.351074 38.106000
65.500000 20.975586 38.106000
65.700000 21.600098 38.106000
66.200000 22.224609 38.106000
66.600000 22.849121 38.106000
67.200000 23.473633 38.106000
67.300000 24.722656 38.106000
69.800000 26.721191 38.106000
70.200000 27.345703 38.106000
69.600000 -0.468750 38.256001
69.000000 0.156250 38.256001
69.500000 0.781250 38.256001
69.700000 1.281250 38.256001
69.500000 2.031250 38.256001
69.400000 2.656250 38.256001
69.200000 3.281250 38.256001
69.100000 3.906250 38.256001
69.000000 4.531250 38.256001
68.800000 5.156250 38.256001
68.600000 5.656250 38.256001
68.200000 6.406250 38.256001
68.100000 6.906250 38.256001
67.900000 7.531250 38.256001
63.600000 8.781250 38.256001
63.100000 9.156250 38.256001
63.100000 10.031250 38.256001
63.300000 10.531250 38.256001
63.500000 11.156250 38.256001
63.600000 11.780273 38.256001
63.600000 12.529297 38.256001
63.800000 13.153320 38.256001
63.800000 13.652344 38.256001
63.200000 14.151367 38.256001
63.500000 15.025391 38.256001
63.600000 15.524414 38.256001
62.800000 16.273438 38.256001
63.600000 16.897461 38.256001
64.800000 17.396484 38.256001
65.500000 18.145508 38.256001
65.300000 18.769531 38.256001
64.600000 19.268555 38.256001
64.700000 19.892578 38.256001
65.400000 20.766602 38.256001
65.800000 21.390625 38.256001
66.100000 21.764648 38.256001
66.600000 22.513672 38.256001
67.000000 23.137695 38.256001
68.000000 23.761719 38.256001
66.600000 24.884766 38.256001
69.900000 26.881836 38.256001
69.400000 -0.099121 38.402000
69.400000 0.525391 38.402000
69.600000 1.149902 38.402000
69.600000 1.649414 38.402000
69.500000 2.398926 38.402000
69.400000 2.898438 38.402000
69.100000 3.522949 38.402000
69.100000 4.147461 38.402000
69.000000 4.771973 38.402000
68.800000 5.521484 38.402000
68.400000 6.020996 38.402000
68.000000 6.645508 38.402000
67.700000 7.270020 38.402000
67.300000 8.019531 38.402000
63.000000 9.143555 38.402000
62.800000 9.643066 38.402000
63.100000 10.267578 38.402000
63.300000 10.892090 38.402000
63.700000 11.516602 38.402000
63.300000 12.141113 38.402000
63.100000 12.890625 38.402000
63.800000 13.389160 38.402000
63.700000 14.012695 38.402000
63.700000 14.636230 38.402000
62.300000 15.883301 38.402000
62.800000 16.381836 38.402000
63.200000 17.255371 38.402000
64.100000 17.753906 38.402000
64.400000 18.377441 38.402000
64.500000 19.000977 38.402000
64.700000 19.749512 38.402000
65.200000 20.248047 38.402000
65.500000 20.996582 38.402000
65.800000 21.745117 38.402000
66.200000 22.118652 38.402000
66.800000 22.992188 38.402000
67.700000 23.490723 38.402000
67.400000 24.114258 38.402000
66.500000 24.737793 38.402000
67.100000 25.361328 38.402000
68.000000 25.984863 38.402000
68.500000 26.733398 38.402000
69.500000 0.791992 38.548001
69.800000 1.291504 38.548001
69.600000 1.916016 38.548001
69.400000 2.665527 38.548001
69.100000 3.165039 38.548001
69.000000 3.914551 38.548001
68.900000 4.539062 38.548001
68.800000 5.163574 38.548001
68.500000 5.788086 38.548001
68.200000 6.287598 38.548001
67.900000 6.912109 38.548001
67.400000 7.536621 38.548001
63.500000 8.535645 38.548001
62.800000 9.285156 38.548001
62.900000 9.784668 38.548001
63.200000 10.659180 38.548001
63.500000 11.158691 38.548001
63.500000 11.783203 38.548001
63.300000 12.407715 38.548001
63.200000 13.157227 38.548001
63.300000 13.531738 38.548001
63.400000 14.281250 38.548001
62.800000 14.905273 38.548001
62.100000 15.404297 38.548001
62.500000 16.028320 38.548001
63.100000 16.902344 38.548001
63.500000 17.401367 38.548001
64.000000 18.025391 38.548001
64.300000 18.649414 38.548001
64.500000 19.273438 38.548001
64.800000 20.022461 38.548001
65.300000 20.771484 38.548001
65.700000 21.145508 38.548001
66.100000 21.769531 38.548001
66.600000 22.518555 38.548001
67.000000 23.142578 38.548001
67.900000 23.891602 38.548001
66.400000 25.014648 38.548001
67.400000 25.763672 38.548001
68.000000 26.262695 38.548001
71.000000 27.635742 38.548001
69.400000 -0.349609 38.695000
69.200000 0.274414 38.695000
69.500000 1.023438 38.695000
69.700000 1.647461 38.695000
69.500000 2.271484 38.695000
69.200000 2.770508 38.695000
69.100000 3.519531 38.695000
69.000000 4.143555 38.695000
68.700000 4.642578 38.695000
68.400000 5.391602 38.695000
68.200000 6.015625 38.695000
67.800000 6.514648 38.695000
67.500000 7.138672 38.695000
67.200000 7.762695 38.695000
63.200000 8.885742 38.695000
62.800000 9.509766 38.695000
63.000000 10.133789 38.695000
63.200000 10.757812 38.695000
63.600000 11.506836 38.695000
63.200000 12.130859 38.695000
63.200000 12.754883 38.695000
63.900000 13.253906 38.695000
63.600000 13.877930 38.695000
63.300000 14.626953 38.695000
62.500000 15.000977 38.695000
62.200000 15.625000 38.695000
62.700000 16.374512 38.695000
63.100000 16.999023 38.695000
64.000000 17.748535 38.695000
64.300000 18.373047 38.695000
64.400000 18.997559 38.695000
64.800000 19.622070 38.695000
65.000000 20.121582 38.695000
65.300000 20.746094 38.695000
65.700000 21.495605 38.695000
66.100000 22.120117 38.695000
66.700000 22.744629 38.695000
67.300000 23.494141 38.695000
67.700000 24.118652 38.695000
67.900000 25.242676 38.695000
68.300000 25.992188 38.695000
68.500000 26.616699 38.695000
69.600000 -0.333984 38.843001
69.200000 0.293457 38.843001
69.500000 0.920898 38.843001
69.700000 1.548340 38.843001
69.500000 2.175781 38.843001
69.200000 3.053223 38.843001
69.100000 3.430664 38.843001
69.000000 4.058105 38.843001
68.700000 4.810547 38.843001
68.400000 5.437988 38.843001
68.100000 6.065430 38.843001
67.700000 6.567871 38.843001
67.400000 7.195313 38.843001
67.100000 7.822754 38.843001
63.100000 8.827637 38.843001
62.800000 9.455078 38.843001
62.900000 10.082520 38.843001
63.200000 10.709961 38.843001
63.600000 11.462402 38.843001
63.100000 11.964844 38.843001
63.200000 12.717285 38.843001
64.000000 13.344727 38.843001
63.800000 13.847168 38.843001
63.500000 14.599609 38.843001
62.700000 15.102051 38.843001
63.700000 16.606934 38.843001
64.000000 17.109375 38.843001
64.500000 17.732910 38.843001
64.800000 18.481445 38.843001
64.900000 19.104980 38.843001
64.700000 19.603516 38.843001
65.100000 20.352051 38.843001
65.600000 20.850586 38.843001
65.700000 21.599121 38.843001
66.100000 22.347656 38.843001
66.800000 22.846191 38.843001
67.400000 23.469727 38.843001
67.900000 24.093262 38.843001
68.000000 25.963867 38.843001
70.500000 27.335938 38.843001
71.100000 27.959473 38.843001
69.200000 0.244629 38.991001
69.500000 0.873047 38.991001
69.600000 1.376465 38.991001
69.600000 2.129883 38.991001
69.400000 2.758301 38.991001
69.200000 3.261719 38.991001
68.900000 4.015137 38.991001
68.600000 4.643555 38.991001
68.300000 5.146973 38.991001
68.100000 5.775391 38.991001
67.700000 6.528809 38.991001
67.300000 7.032227 38.991001
67.000000 7.785645 38.991001
63.700000 8.792480 38.991001
62.800000 9.545898 38.991001
62.800000 10.049316 38.991001
63.100000 10.802734 38.991001
63.400000 11.306152 38.991001
63.500000 11.809570 38.991001
63.400000 12.687988 38.991001
63.700000 13.191406 38.991001
63.600000 13.819824 38.991001
63.300000 14.573242 38.991001
62.900000 15.076660 38.991001
63.100000 15.705078 38.991001
63.900000 16.458496 38.991001
64.600000 17.086914 38.991001
65.100000 17.590332 38.991001
65.600000 18.218750 38.991001
65.600000 18.969238 38.991001
64.700000 19.469727 38.991001
64.500000 20.095215 38.991001
65.200000 20.720703 38.991001
65.800000 21.346191 38.991001
66.100000 22.221680 38.991001
66.700000 22.722168 38.991001
67.400000 23.347656 38.991001
68.300000 23.973145 38.991001
69.700000 26.475098 38.991001
70.900000 27.225586 38.991001
71.200000 27.851074 38.991001
69.400000 0.047852 39.138000
69.500000 0.798828 39.138000
69.500000 1.424805 39.138000
69.600000 1.925781 39.138000
69.400000 2.801758 39.138000
69.200000 3.302734 39.138000
69.000000 3.928711 39.138000
68.600000 4.429688 39.138000
68.400000 5.055664 39.138000
68.100000 5.681641 39.138000
67.800000 6.432617 39.138000
67.300000 6.933594 39.138000
67.000000 7.434570 39.138000
66.100000 8.060547 39.138000
62.900000 9.437500 39.138000
62.900000 10.063477 39.138000
63.200000 10.564453 39.138000
63.500000 11.190430 39.138000
63.500000 11.941406 39.138000
63.500000 12.317383 39.138000
63.400000 13.193359 39.138000
63.600000 13.694336 39.138000
63.600000 14.320312 39.138000
63.300000 14.946289 39.138000
63.500000 15.572266 39.138000
64.000000 16.198242 39.138000
64.700000 16.949219 39.138000
65.300000 17.575195 39.138000
65.700000 18.201172 39.138000
65.800000 18.827148 39.138000
65.400000 19.453125 39.138000
64.700000 20.078613 39.138000
64.900000 20.829102 39.138000
65.700000 21.204590 39.138000
66.100000 21.955078 39.138000
66.600000 22.705566 39.138000
67.300000 23.331055 39.138000
67.900000 23.831543 39.138000
68.400000 24.582031 39.138000
67.700000 25.082520 39.138000
70.700000 27.083984 39.138000
69.300000 -0.097656 39.286000
69.300000 0.531250 39.286000
69.600000 1.156250 39.286000
69.600000 1.781250 39.286000
69.400000 2.406250 39.286000
69.200000 2.906250 39.286000
69.100000 3.531250 39.286000
68.800000 4.281250 39.286000
68.400000 4.781250 39.286000
68.100000 5.406250 39.286000
67.700000 6.031250 39.286000
67.300000 6.656250 39.286000
67.100000 7.406250 39.286000
67.000000 7.906250 39.286000
63.100000 9.156250 39.286000
62.900000 9.656250 39.286000
63.000000 10.156250 39.286000
63.200000 10.781250 39.286000
63.500000 11.531250 39.286000
63.500000 12.281250 39.286000
63.700000 12.906250 39.286000
63.900000 13.281250 39.286000
63.800000 14.031250 39.286000
63.700000 14.656250 39.286000
64.100000 15.281250 39.286000
64.600000 16.031250 39.286000
64.800000 16.531250 39.286000
65.300000 17.281250 39.286000
65.700000 17.906250 39.286000
66.100000 18.406250 39.286000
66.100000 19.156250 39.286000
64.800000 19.781250 39.286000
64.400000 20.281250 39.286000
65.200000 21.155273 39.286000
65.800000 21.654297 39.286000
66.300000 22.278320 39.286000
66.800000 22.902344 39.286000
67.400000 23.526367 39.286000
67.900000 24.275391 39.286000
68.200000 24.899414 39.286000
67.400000 25.273438 39.286000
71.300000 28.144531 39.286000
69.300000 -0.221680 39.426001
69.100000 0.529297 39.426001
69.600000 1.030273 39.426001
69.500000 1.781250 39.426001
69.400000 2.403809 39.426001
69.200000 3.026367 39.426001
69.000000 3.648926 39.426001
68.700000 4.271484 39.426001
68.400000 4.894043 39.426001
68.100000 5.516602 39.426001
67.700000 6.014160 39.426001
67.300000 6.511719 39.426001
67.100000 7.134277 39.426001
66.900000 7.881836 39.426001
63.600000 9.001953 39.426001
62.900000 9.624512 39.426001
63.000000 10.372070 39.426001
63.200000 10.869629 39.426001
63.400000 11.492188 39.426001
63.600000 12.239746 39.426001
63.800000 12.737305 39.426001
63.900000 13.359863 39.426001
63.800000 13.982422 39.426001
63.800000 14.604980 39.426001
64.000000 15.352539 39.426001
64.400000 15.975098 39.426001
65.000000 16.472656 39.426001
65.500000 17.220215 39.426001
65.900000 17.842773 39.426001
66.500000 18.465332 39.426001
66.300000 19.087891 39.426001
65.200000 19.710449 39.426001
64.600000 20.333008 39.426001
65.000000 20.955566 39.426001
65.900000 21.453125 39.426001
66.300000 22.201660 39.426001
66.800000 22.825195 39.426001
67.400000 23.448730 39.426001
68.200000 24.197266 39.426001
68.700000 24.695801 39.426001
67.700000 25.319336 39.426001
71.200000 28.063477 39.426001
69.300000 -0.263184 39.571001
69.100000 0.361328 39.571001
69.500000 0.985840 39.571001
69.700000 1.610352 39.571001
69.600000 2.234863 39.571001
69.300000 2.859375 39.571001
69.100000 3.482422 39.571001
68.900000 4.105469 39.571001
68.600000 4.603516 39.571001
68.300000 5.226563 39.571001
67.900000 5.974609 39.571001
67.300000 6.597656 39.571001
67.000000 6.970703 39.571001
67.000000 7.718750 39.571001
66.100000 8.466797 39.571001
63.200000 9.462891 39.571001
63.200000 10.210938 39.571001
63.400000 10.708984 39.571001
63.600000 11.457031 39.571001
63.700000 12.080078 39.571001
64.200000 12.578125 39.571001
64.200000 13.201172 39.571001
63.900000 13.824219 39.571001
63.900000 14.447266 39.571001
64.000000 15.070312 39.571001
64.400000 15.693359 39.571001
65.000000 16.441406 39.571001
65.500000 17.064453 39.571001
66.100000 17.562500 39.571001
66.900000 18.310547 39.571001
66.700000 18.933594 39.571001
65.800000 19.431641 39.571001
64.800000 20.054687 39.571001
64.600000 20.677734 39.571001
65.500000 21.300781 39.571001
66.100000 22.173828 39.571001
66.700000 22.671875 39.571001
67.300000 23.295898 39.571001
68.100000 23.919922 39.571001
68.400000 24.543945 39.571001
67.600000 25.292969 39.571001
71.600000 27.914063 39.571001
68.200000 -0.091797 39.720000
69.100000 0.410156 39.720000
69.700000 1.037109 39.720000
69.700000 1.789062 39.720000
69.400000 2.416016 39.720000
69.200000 2.917969 39.720000
69.000000 3.669922 39.720000
68.700000 4.296875 39.720000
68.400000 4.794922 39.720000
68.100000 5.417969 39.720000
67.600000 6.041016 39.720000
67.200000 6.664062 39.720000
67.100000 7.287109 39.720000
66.900000 8.035156 39.720000
64.000000 9.031250 39.720000
63.400000 9.654297 39.720000
63.500000 10.152344 39.720000
63.600000 10.900391 39.720000
63.800000 11.523438 39.720000
64.000000 12.271484 39.720000
64.100000 12.769531 39.720000
63.900000 13.517578 39.720000
64.100000 14.015625 39.720000
64.200000 14.763672 39.720000
64.400000 15.261719 39.720000
65.000000 16.009766 39.720000
65.300000 16.507813 39.720000
65.500000 17.130859 39.720000
66.300000 17.753906 39.720000
66.600000 18.501953 39.720000
65.900000 19.000000 39.720000
65.100000 19.623047 39.720000
64.700000 20.371094 39.720000
65.000000 20.869141 39.720000
65.900000 21.617188 39.720000
66.500000 22.365234 39.720000
67.000000 22.863281 39.720000
67.600000 23.611328 39.720000
68.500000 24.234375 39.720000
68.800000 24.733398 39.720000
72.200000 27.354492 39.720000
68.200000 -0.498047 39.866001
69.100000 0.254883 39.866001
69.500000 0.882812 39.866001
69.600000 1.510742 39.866001
69.500000 2.013672 39.866001
69.400000 2.766602 39.866001
69.100000 3.269531 39.866001
68.900000 4.022461 39.866001
68.500000 4.525391 39.866001
68.300000 5.153320 39.866001
67.900000 5.781250 39.866001
67.200000 6.528320 39.866001
66.900000 7.025391 39.866001
66.900000 7.647461 39.866001
66.700000 8.144531 39.866001
63.600000 9.513672 39.866001
63.500000 10.135742 39.866001
63.700000 10.757812 39.866001
63.800000 11.379883 39.866001
64.000000 12.001953 39.866001
64.100000 12.624023 39.866001
64.000000 13.121094 39.866001
64.100000 13.743164 39.866001
64.000000 14.490234 39.866001
64.300000 14.987305 39.866001
64.800000 15.734375 39.866001
65.300000 16.356445 39.866001
65.400000 17.103516 39.866001
65.900000 17.600586 39.866001
65.800000 18.097656 39.866001
65.000000 18.844727 39.866001
65.400000 19.466797 39.866001
65.100000 19.963867 39.866001
64.900000 20.710938 39.866001
65.500000 21.333008 39.866001
66.100000 21.955078 39.866001
66.800000 22.702148 39.866001
67.400000 23.199219 39.866001
67.900000 23.821289 39.866001
69.000000 24.443359 39.866001
69.100000 25.065430 39.866001
67.400000 -0.294922 40.014000
68.700000 0.332520 40.014000
69.500000 1.209961 40.014000
69.700000 1.587402 40.014000
69.500000 2.214844 40.014000
69.200000 2.967285 40.014000
69.000000 3.594727 40.014000
68.600000 4.222168 40.014000
68.200000 4.724609 40.014000
68.100000 5.352051 40.014000
67.400000 6.104492 40.014000
66.900000 6.606934 40.014000
66.900000 7.234375 40.014000
66.900000 7.857910 40.014000
65.900000 8.356445 40.014000
64.300000 9.104980 40.014000
63.600000 9.728516 40.014000
63.500000 10.352051 40.014000
63.700000 10.850586 40.014000
63.900000 11.474121 40.014000
63.900000 12.222656 40.014000
64.000000 12.846191 40.014000
63.900000 13.469727 40.014000
63.900000 14.093262 40.014000
64.000000 14.716797 40.014000
64.400000 15.340332 40.014000
65.000000 15.963867 40.014000
65.300000 16.587402 40.014000
65.600000 17.335938 40.014000
66.400000 17.959473 40.014000
67.600000 18.583008 40.014000
65.800000 19.705078 40.014000
65.300000 20.203613 40.014000
65.000000 20.952148 40.014000
65.900000 21.575684 40.014000
66.500000 22.074219 40.014000
67.100000 22.947754 40.014000
67.700000 23.571289 40.014000
68.300000 24.194824 40.014000
68.600000 24.818359 40.014000
68.900000 25.940430 40.014000
68.600000 0.699707 40.161000
69.400000 1.326172 40.161000
69.500000 2.077637 40.161000
69.300000 2.454102 40.161000
68.900000 3.080566 40.161000
68.600000 3.707031 40.161000
68.300000 4.333496 40.161000
68.000000 5.084961 40.161000
67.700000 5.711426 40.161000
67.100000 6.337891 40.161000
66.800000 6.964355 40.161000
66.700000 7.465820 40.161000
66.600000 8.092285 40.161000
65.600000 8.718750 40.161000
64.100000 9.093750 40.161000
63.600000 9.968750 40.161000
63.700000 10.468750 40.161000
63.900000 11.218750 40.161000
64.000000 11.843750 40.161000
63.900000 12.468750 40.161000
63.900000 13.093750 40.161000
64.000000 13.718750 40.161000
64.000000 14.218750 40.161000
64.100000 14.843750 40.161000
64.500000 15.468750 40.161000
65.200000 16.218750 40.161000
65.300000 16.718750 40.161000
65.600000 17.468750 40.161000
65.500000 19.343750 40.161000
65.200000 19.968750 40.161000
65.100000 20.593750 40.161000
65.300000 21.218750 40.161000
66.000000 21.968750 40.161000
66.700000 22.468750 40.161000
67.300000 23.093750 40.161000
67.800000 23.718750 40.161000
68.700000 24.468750 40.161000
69.100000 25.093750 40.161000
68.900000 25.593750 40.161000
69.600000 26.343750 40.161000
66.100000 0.054687 40.309000
69.200000 1.309570 40.309000
69.400000 2.062012 40.309000
69.200000 2.564453 40.309000
68.800000 3.316895 40.309000
68.500000 3.819336 40.309000
68.400000 4.571777 40.309000
68.100000 5.199219 40.309000
67.700000 5.701660 40.309000
67.200000 6.329102 40.309000
66.900000 6.956543 40.309000
66.700000 7.583984 40.309000
66.500000 8.211426 40.309000
64.100000 9.341309 40.309000
63.800000 10.093750 40.309000
63.800000 10.595703 40.309000
63.800000 11.347656 40.309000
63.700000 11.849609 40.309000
63.700000 12.476562 40.309000
64.000000 13.228516 40.309000
64.000000 13.855469 40.309000
63.900000 14.357422 40.309000
64.200000 15.109375 40.309000
64.700000 15.611328 40.309000
65.100000 16.363281 40.309000
65.300000 16.865234 40.309000
65.600000 17.617188 40.309000
65.800000 18.244141 40.309000
65.800000 18.746094 40.309000
65.500000 19.373047 40.309000
65.000000 20.000000 40.309000
65.000000 20.751953 40.309000
65.400000 21.378906 40.309000
66.100000 22.005859 40.309000
66.800000 22.632812 40.309000
67.400000 23.259766 40.309000
67.900000 24.011719 40.309000
68.900000 24.513672 40.309000
69.400000 25.140625 40.309000
68.900000 25.767578 40.309000
71.400000 27.146484 40.309000
68.300000 1.058594 40.458001
69.300000 1.687500 40.458001
69.300000 2.316406 40.458001
68.900000 2.820312 40.458001
68.600000 3.574219 40.458001
68.300000 4.203125 40.458001
68.100000 4.707031 40.458001
67.700000 5.460938 40.458001
67.200000 5.964844 40.458001
66.900000 6.593750 40.458001
66.900000 7.222656 40.458001
66.700000 7.851562 40.458001
66.200000 8.355469 40.458001
65.100000 9.109375 40.458001
64.100000 9.613281 40.458001
63.900000 10.367188 40.458001
63.800000 10.871094 40.458001
63.800000 11.625000 40.458001
63.700000 12.127930 40.458001
63.800000 12.880859 40.458001
63.900000 13.383789 40.458001
63.900000 14.136719 40.458001
64.000000 14.764648 40.458001
64.400000 15.267578 40.458001
64.900000 16.020508 40.458001
65.100000 16.648438 40.458001
65.300000 17.276367 40.458001
65.800000 17.779297 40.458001
65.800000 18.532227 40.458001
65.500000 19.160156 40.458001
65.500000 19.788086 40.458001
65.100000 20.291016 40.458001
65.000000 20.918945 40.458001
65.800000 21.546875 40.458001
66.400000 22.174805 40.458001
67.000000 23.052734 40.458001
67.500000 23.680664 40.458001
68.000000 24.308594 40.458001
68.600000 24.936523 40.458001
69.100000 25.564453 40.458001
69.700000 26.192383 40.458001
70.500000 26.820313 40.458001
69.100000 1.565430 40.604001
69.100000 2.192871 40.604001
68.900000 2.945312 40.604001
68.500000 3.447754 40.604001
68.200000 4.075195 40.604001
68.000000 4.827637 40.604001
67.700000 5.330078 40.604001
67.200000 5.957520 40.604001
66.900000 6.584961 40.604001
66.800000 7.087402 40.604001
66.600000 7.714844 40.604001
66.200000 8.592285 40.604001
65.300000 9.094727 40.604001
64.300000 9.722168 40.604001
63.900000 10.349609 40.604001
63.800000 10.852051 40.604001
63.800000 11.479492 40.604001
63.700000 12.106934 40.604001
63.700000 12.734375 40.604001
63.800000 13.360840 40.604001
63.900000 13.987305 40.604001
64.000000 14.613770 40.604001
64.200000 15.240234 40.604001
64.600000 15.991699 40.604001
64.900000 16.493164 40.604001
65.100000 17.244629 40.604001
65.600000 17.871094 40.604001
65.300000 18.497559 40.604001
65.000000 19.124023 40.604001
65.400000 19.750488 40.604001
65.000000 20.251953 40.604001
64.900000 20.878418 40.604001
65.500000 21.504883 40.604001
66.200000 22.256348 40.604001
66.900000 22.882812 40.604001
67.300000 23.509277 40.604001
67.900000 24.260742 40.604001
68.000000 24.887207 40.604001
67.700000 25.388672 40.604001
68.700000 26.140137 40.604001
70.500000 26.766602 40.604001
69.000000 2.168945 40.751000
68.700000 2.669922 40.751000
68.300000 3.420898 40.751000
68.100000 3.921875 40.751000
67.900000 4.672852 40.751000
67.600000 5.298828 40.751000
67.400000 5.799805 40.751000
67.000000 6.425781 40.751000
66.700000 7.176758 40.751000
66.500000 7.677734 40.751000
66.300000 8.428711 40.751000
65.700000 8.804688 40.751000
64.700000 9.430664 40.751000
64.000000 10.056641 40.751000
63.900000 10.682617 40.751000
63.900000 11.308594 40.751000
63.900000 11.934570 40.751000
63.900000 12.560547 40.751000
63.900000 13.186523 40.751000
63.900000 13.812500 40.751000
63.900000 14.438477 40.751000
63.900000 15.064453 40.751000
64.100000 15.815430 40.751000
64.500000 16.441406 40.751000
64.700000 17.067383 40.751000
65.000000 17.693359 40.751000
65.100000 18.319336 40.751000
65.000000 18.945312 40.751000
65.200000 19.571289 40.751000
65.000000 20.197266 40.751000
64.900000 20.698242 40.751000
65.400000 21.449219 40.751000
66.100000 22.075195 40.751000
66.700000 22.701172 40.751000
67.000000 23.327148 40.751000
67.500000 23.953125 40.751000
67.800000 24.579102 40.751000
67.900000 25.205078 40.751000
70.300000 27.208008 40.751000
67.400000 -0.477539 40.898000
67.500000 1.400391 40.898000
68.400000 2.151367 40.898000
68.200000 2.652344 40.898000
68.100000 3.278320 40.898000
67.900000 3.904297 40.898000
67.700000 4.530273 40.898000
67.500000 5.156250 40.898000
67.300000 5.782227 40.898000
67.000000 6.408203 40.898000
66.800000 7.034180 40.898000
66.600000 7.785156 40.898000
66.300000 8.286133 40.898000
65.900000 8.912109 40.898000
65.100000 9.538086 40.898000
64.300000 10.164062 40.898000
64.000000 10.790039 40.898000
63.900000 11.416016 40.898000
63.900000 11.916992 40.898000
63.900000 12.542969 40.898000
63.900000 13.168945 40.898000
63.800000 13.794922 40.898000
63.900000 14.420898 40.898000
63.900000 15.171875 40.898000
64.100000 15.672852 40.898000
64.400000 16.423828 40.898000
64.700000 17.049805 40.898000
64.700000 17.675781 40.898000
64.800000 18.176758 40.898000
64.800000 18.927734 40.898000
65.000000 19.428711 40.898000
64.700000 20.054688 40.898000
64.600000 20.680664 40.898000
65.400000 21.431641 40.898000
65.900000 22.057617 40.898000
66.500000 22.808594 40.898000
67.000000 23.309570 40.898000
67.300000 23.935547 40.898000
67.600000 24.686523 40.898000
67.600000 25.187500 40.898000
68.500000 26.564453 40.898000
69.400000 27.315430 40.898000
67.400000 -0.356934 41.044999
66.100000 0.018555 41.044999
68.000000 2.770508 41.044999
67.800000 3.395996 41.044999
67.700000 4.021484 41.044999
67.600000 4.646973 41.044999
67.500000 5.272461 41.044999
67.300000 5.772949 41.044999
67.000000 6.398438 41.044999
66.800000 7.148926 41.044999
66.600000 7.649414 41.044999
66.300000 8.274902 41.044999
65.900000 8.900391 41.044999
65.100000 9.400879 41.044999
64.400000 10.151367 41.044999
64.100000 10.651855 41.044999
63.900000 11.402344 41.044999
63.900000 12.027832 41.044999
63.900000 12.653320 41.044999
63.900000 13.278809 41.044999
63.800000 13.779297 41.044999
63.800000 14.529785 41.044999
63.900000 15.155273 41.044999
63.900000 15.780762 41.044999
64.200000 16.406250 41.044999
64.600000 17.029297 41.044999
64.700000 17.527344 41.044999
64.800000 18.275391 41.044999
65.100000 18.773438 41.044999
65.300000 19.396484 41.044999
64.900000 20.019531 41.044999
64.900000 20.642578 41.044999
65.600000 21.390625 41.044999
66.000000 22.013672 41.044999
66.400000 22.636719 41.044999
66.900000 23.134766 41.044999
67.300000 24.007812 41.044999
67.600000 24.630859 41.044999
67.200000 25.128906 41.044999
67.700000 26.500000 41.044999
68.900000 27.123047 41.044999
67.400000 -0.562500 41.193000
66.500000 0.187500 41.193000
67.600000 2.687500 41.193000
67.500000 3.312500 41.193000
67.400000 3.937500 41.193000
67.300000 4.687500 41.193000
67.400000 5.187500 41.193000
67.300000 5.812500 41.193000
66.900000 6.437500 41.193000
66.800000 7.062500 41.193000
66.600000 7.687500 41.193000
66.300000 8.312500 41.193000
65.900000 9.062500 41.193000
65.400000 9.562500 41.193000
64.700000 10.187500 41.193000
64.300000 10.812500 41.193000
64.100000 11.312500 41.193000
63.900000 11.937500 41.193000
63.900000 12.687500 41.193000
64.100000 13.187500 41.193000
64.000000 13.812500 41.193000
63.800000 14.437500 41.193000
63.800000 15.187500 41.193000
63.800000 15.812500 41.193000
64.100000 16.437500 41.193000
64.600000 17.062500 41.193000
64.700000 17.687500 41.193000
64.800000 18.185059 41.193000
65.100000 18.932617 41.193000
65.300000 19.555176 41.193000
65.300000 20.052734 41.193000
65.500000 20.800293 41.193000
65.800000 21.297852 41.193000
66.100000 22.045410 41.193000
66.600000 22.667969 41.193000
66.900000 23.290527 41.193000
67.600000 24.038086 41.193000
67.900000 24.535645 41.193000
67.600000 25.158203 41.193000
70.700000 27.275879 41.193000
67.500000 -0.609375 41.340000
66.600000 0.014648 41.340000
66.200000 0.638672 41.340000
67.400000 3.259766 41.340000
67.300000 3.758789 41.340000
67.200000 4.382813 41.340000
67.100000 5.131836 41.340000
67.200000 5.630859 41.340000
67.100000 6.254883 41.340000
66.800000 6.753906 41.340000
66.700000 7.502930 41.340000
66.500000 8.126953 41.340000
66.300000 8.750977 41.340000
65.800000 9.250000 41.340000
65.300000 9.999023 41.340000
64.700000 10.498047 41.340000
64.200000 11.122070 41.340000
63.900000 11.746094 41.340000
64.100000 12.370117 41.340000
64.100000 12.994141 41.340000
64.000000 13.618164 41.340000
64.000000 14.242188 41.340000
63.900000 14.866211 41.340000
63.900000 15.365234 41.340000
64.100000 16.114258 41.340000
64.400000 16.738281 41.340000
64.700000 17.487305 41.340000
64.900000 18.111328 41.340000
65.200000 18.735352 41.340000
65.500000 19.234375 41.340000
65.800000 19.982422 41.340000
66.000000 20.605469 41.340000
65.800000 21.228516 41.340000
65.900000 21.851563 41.340000
66.300000 22.474609 41.340000
66.800000 23.222656 41.340000
67.500000 23.720703 41.340000
67.900000 24.343750 41.340000
67.400000 24.966797 41.340000
67.400000 25.714844 41.340000
68.400000 26.835938 41.340000
70.000000 27.583984 41.340000
66.600000 -0.470703 41.487000
65.800000 0.280273 41.487000
65.700000 0.906250 41.487000
67.300000 4.028809 41.487000
67.100000 4.653320 41.487000
67.000000 5.152832 41.487000
67.000000 5.777344 41.487000
66.900000 6.401855 41.487000
66.800000 7.026367 41.487000
66.700000 7.525879 41.487000
66.500000 8.275391 41.487000
66.300000 8.899902 41.487000
65.900000 9.524414 41.487000
65.300000 10.023926 41.487000
64.800000 10.648438 41.487000
64.400000 11.272949 41.487000
64.200000 12.022461 41.487000
64.200000 12.521973 41.487000
64.400000 13.271484 41.487000
64.300000 13.770996 41.487000
64.200000 14.395508 41.487000
64.000000 15.020020 41.487000
63.900000 15.769531 41.487000
64.200000 16.269043 41.487000
64.600000 17.018555 41.487000
64.800000 17.643066 41.487000
64.900000 18.267578 41.487000
65.300000 18.767090 41.487000
65.700000 19.516602 41.487000
66.000000 20.266113 41.487000
66.300000 20.640625 41.487000
66.100000 21.387695 41.487000
66.100000 22.009766 41.487000
66.600000 22.756836 41.487000
66.900000 23.128906 41.487000
67.500000 24.000977 41.487000
67.800000 24.623047 41.487000
68.200000 26.364258 41.487000
69.000000 26.986328 41.487000
65.900000 -0.208984 41.626000
65.800000 0.417480 41.626000
61.600000 1.420410 41.626000
66.900000 4.286621 41.626000
66.800000 4.783203 41.626000
66.900000 5.404785 41.626000
67.000000 6.151367 41.626000
67.000000 6.647949 41.626000
67.100000 7.269531 41.626000
67.000000 7.891113 41.626000
66.800000 8.512695 41.626000
66.500000 9.134277 41.626000
66.100000 9.880859 41.626000
65.600000 10.377441 41.626000
65.100000 10.999023 41.626000
64.700000 11.495605 41.626000
64.400000 12.117187 41.626000
64.400000 12.863770 41.626000
64.600000 13.360352 41.626000
64.600000 13.981934 41.626000
64.500000 14.603516 41.626000
64.400000 15.225098 41.626000
64.400000 15.971680 41.626000
64.700000 16.468262 41.626000
65.000000 17.214844 41.626000
65.300000 17.836426 41.626000
65.500000 18.333008 41.626000
65.700000 19.079590 41.626000
66.100000 19.701172 41.626000
66.500000 20.197754 41.626000
66.100000 20.944336 41.626000
65.700000 21.565918 41.626000
66.200000 22.187500 41.626000
66.900000 22.812012 41.626000
67.300000 23.561523 41.626000
67.500000 24.061035 41.626000
67.600000 24.685547 41.626000
68.200000 26.059570 41.626000
68.700000 26.684082 41.626000
65.500000 -0.864258 41.775000
65.400000 -0.111328 41.775000
61.600000 1.522461 41.775000
62.200000 2.150391 41.775000
63.000000 2.903320 41.775000
66.400000 4.277832 41.775000
67.000000 4.899414 41.775000
67.100000 5.645996 41.775000
66.900000 6.142578 41.775000
66.900000 6.889160 41.775000
67.100000 7.385742 41.775000
67.000000 8.007324 41.775000
66.800000 8.503906 41.775000
66.800000 9.375488 41.775000
66.500000 9.747070 41.775000
66.000000 10.493652 41.775000
65.400000 11.115234 41.775000
64.900000 11.736816 41.775000
64.700000 12.358398 41.775000
64.800000 12.854980 41.775000
64.800000 13.601563 41.775000
64.900000 14.223145 41.775000
64.900000 14.844727 41.775000
64.900000 15.466309 41.775000
64.800000 15.962891 41.775000
65.000000 16.584473 41.775000
65.400000 17.206055 41.775000
65.700000 17.952637 41.775000
65.800000 18.574219 41.775000
66.200000 19.195801 41.775000
66.600000 19.942383 41.775000
66.000000 20.935547 41.775000
66.100000 21.682129 41.775000
66.600000 22.303711 41.775000
66.700000 23.050293 41.775000
67.100000 23.421875 41.775000
67.200000 24.171875 41.775000
67.300000 24.796875 41.775000
67.700000 25.421875 41.775000
68.000000 26.171875 41.775000
69.100000 26.796875 41.775000
65.300000 -0.918945 41.925001
64.600000 -0.164062 41.925001
61.100000 0.970703 41.925001
61.800000 1.725586 41.925001
62.300000 2.230469 41.925001
62.400000 2.735352 41.925001
66.900000 5.624512 41.925001
66.900000 6.124023 41.925001
66.900000 6.623535 41.925001
67.000000 7.373047 41.925001
67.000000 7.997559 41.925001
66.900000 8.497070 41.925001
66.800000 9.121582 41.925001
66.500000 9.996094 41.925001
66.000000 10.495605 41.925001
65.500000 11.120117 41.925001
65.200000 11.744629 41.925001
65.100000 12.369141 41.925001
64.900000 12.868652 41.925001
64.800000 13.493164 41.925001
64.900000 14.117676 41.925001
65.100000 14.742188 41.925001
65.200000 15.366699 41.925001
65.100000 15.991211 41.925001
65.300000 16.740723 41.925001
65.500000 17.240234 41.925001
65.700000 17.989746 41.925001
66.000000 18.614258 41.925001
66.800000 19.363770 41.925001
66.900000 19.738281 41.925001
66.500000 20.487793 41.925001
66.300000 21.112305 41.925001
66.000000 21.736816 41.925001
67.100000 22.486328 41.925001
67.300000 22.985840 41.925001
67.200000 23.610352 41.925001
67.500000 24.234863 41.925001
67.200000 24.859375 41.925001
67.700000 25.484863 41.925001
68.300000 26.235352 41.925001
69.500000 26.985840 41.925001
71.500000 27.486328 41.925001
64.700000 -0.912598 42.072001
61.500000 0.094238 42.072001
61.100000 0.847656 42.072001
61.900000 1.351074 42.072001
62.300000 2.104492 42.072001
62.300000 2.732910 42.072001
62.700000 3.361328 42.072001
63.400000 4.114746 42.072001
66.400000 5.496582 42.072001
66.700000 6.125000 42.072001
66.700000 6.752930 42.072001
66.600000 7.255859 42.072001
66.600000 7.883789 42.072001
66.700000 8.511719 42.072001
66.800000 9.264648 42.072001
66.500000 9.642578 42.072001
66.200000 10.270508 42.072001
65.700000 11.023438 42.072001
65.200000 11.651367 42.072001
65.100000 12.404297 42.072001
64.900000 12.782227 42.072001
64.800000 13.535156 42.072001
65.100000 14.038086 42.072001
65.100000 14.666016 42.072001
65.100000 15.293945 42.072001
65.000000 16.046875 42.072001
65.000000 16.549805 42.072001
65.200000 17.302734 42.072001
65.500000 17.930664 42.072001
65.800000 18.433594 42.072001
66.100000 19.814453 42.072001
66.700000 20.317383 42.072001
66.800000 20.945312 42.072001
66.400000 21.573242 42.072001
66.000000 22.954102 42.072001
66.600000 23.582031 42.072001
67.200000 24.334961 42.072001
66.900000 24.837891 42.072001
67.400000 26.218750 42.072001
69.100000 26.720215 42.072001
70.600000 27.471680 42.072001
60.700000 0.066895 42.216001
60.700000 0.694336 42.216001
61.100000 1.321777 42.216001
62.100000 2.074219 42.216001
62.700000 2.576660 42.216001
62.400000 3.204102 42.216001
62.600000 3.956543 42.216001
63.200000 4.458984 42.216001
65.900000 5.713867 42.216001
66.200000 6.466309 42.216001
66.300000 7.093750 42.216001
66.300000 7.718750 42.216001
66.400000 8.343750 42.216001
66.300000 8.968750 42.216001
66.300000 9.718750 42.216001
66.300000 10.218750 42.216001
65.800000 10.718750 42.216001
65.400000 11.468750 42.216001
65.200000 12.093750 42.216001
65.100000 12.593750 42.216001
64.800000 13.343750 42.216001
64.900000 13.843750 42.216001
65.100000 14.468750 42.216001
65.100000 15.093750 42.216001
65.200000 15.843750 42.216001
65.200000 16.468750 42.216001
65.500000 17.093750 42.216001
65.600000 17.593750 42.216001
65.800000 18.343750 42.216001
65.800000 19.468750 42.216001
65.800000 20.343750 42.216001
66.100000 20.718750 42.216001
66.100000 21.468750 42.216001
66.400000 22.218750 42.216001
66.400000 22.593750 42.216001
65.900000 23.343750 42.216001
67.100000 24.093750 42.216001
67.400000 25.218750 42.216001
67.800000 25.843750 42.216001
69.300000 26.593750 42.216001
61.800000 -0.645508 42.364001
61.200000 -0.144043 42.364001
60.700000 0.482422 42.364001
61.000000 1.233887 42.364001
61.200000 1.735352 42.364001
62.200000 2.611816 42.364001
63.000000 3.113281 42.364001
62.700000 3.739746 42.364001
62.900000 4.366211 42.364001
63.400000 4.867676 42.364001
64.600000 5.869141 42.364001
65.700000 6.245605 42.364001
65.900000 6.872070 42.364001
66.000000 7.498535 42.364001
66.000000 8.250000 42.364001
66.100000 8.875000 42.364001
66.200000 9.625000 42.364001
66.100000 10.125000 42.364001
65.900000 10.625000 42.364001
65.600000 11.250000 42.364001
65.300000 12.000000 42.364001
65.100000 12.500000 42.364001
65.200000 13.125000 42.364001
65.100000 13.750000 42.364001
65.000000 14.500000 42.364001
65.100000 15.125000 42.364001
65.100000 15.750000 42.364001
65.200000 16.375000 42.364001
65.300000 17.000000 42.364001
65.400000 17.500000 42.364001
65.600000 18.125000 42.364001
65.300000 18.875000 42.364001
65.500000 20.250000 42.364001
66.500000 20.875000 42.364001
66.200000 21.875000 42.364001
66.200000 22.625000 42.364001
66.400000 23.125000 42.364001
66.900000 24.000000 42.364001
67.800000 24.500000 42.364001
67.200000 25.125000 42.364001
67.100000 25.875000 42.364001
70.300000 27.000000 42.364001
61.200000 -1.101074 42.511001
60.800000 -0.476562 42.511001
61.100000 0.147949 42.511001
61.100000 0.647461 42.511001
60.900000 1.396973 42.511001
61.300000 1.896484 42.511001
62.600000 2.645996 42.511001
63.300000 3.395508 42.511001
63.000000 3.895020 42.511001
62.900000 4.394531 42.511001
63.200000 5.144043 42.511001
64.100000 5.768555 42.511001
65.200000 6.643066 42.511001
65.700000 7.267578 42.511001
65.700000 7.642090 42.511001
65.700000 8.266602 42.511001
65.900000 8.891113 42.511001
65.900000 9.515625 42.511001
65.900000 10.139160 42.511001
65.800000 10.762695 42.511001
65.400000 11.511230 42.511001
65.200000 12.134766 42.511001
65.200000 12.633301 42.511001
65.000000 13.381836 42.511001
64.900000 13.880371 42.511001
64.900000 14.628906 42.511001
65.100000 15.252441 42.511001
65.200000 15.875977 42.511001
65.500000 16.499512 42.511001
65.700000 17.123047 42.511001
65.400000 17.746582 42.511001
64.900000 18.370117 42.511001
64.800000 18.993652 42.511001
65.700000 19.742188 42.511001
66.400000 20.240723 42.511001
66.100000 21.362793 42.511001
66.000000 22.111328 42.511001
66.200000 22.734863 42.511001
66.900000 23.483398 42.511001
67.300000 24.106934 42.511001
67.100000 25.104004 42.511001
68.200000 25.977539 42.511001
70.000000 27.224609 42.511001
58.500000 -1.572266 42.658000
59.500000 -0.821777 42.658000
60.100000 -0.196289 42.658000
60.800000 0.304199 42.658000
62.100000 0.929687 42.658000
61.300000 2.305664 42.658000
62.700000 2.806152 42.658000
63.400000 3.681641 42.658000
63.100000 4.182129 42.658000
63.200000 4.932617 42.658000
63.400000 5.558105 42.658000
64.000000 6.058594 42.658000
65.000000 6.684082 42.658000
65.500000 7.309570 42.658000
65.500000 7.935059 42.658000
65.600000 8.685547 42.658000
65.600000 9.186035 42.658000
65.700000 9.936523 42.658000
65.900000 10.562012 42.658000
65.700000 11.187500 42.658000
65.300000 11.811523 42.658000
65.100000 12.310547 42.658000
65.100000 13.059570 42.658000
65.000000 13.683594 42.658000
64.900000 14.182617 42.658000
65.200000 14.931641 42.658000
65.200000 15.555664 42.658000
65.400000 16.179688 42.658000
65.500000 16.803711 42.658000
65.700000 17.427734 42.658000
66.000000 18.176758 42.658000
65.900000 18.675781 42.658000
65.700000 19.299805 42.658000
65.700000 19.798828 42.658000
65.900000 20.547852 42.658000
65.600000 21.046875 42.658000
65.700000 21.920898 42.658000
66.500000 23.043945 42.658000
66.700000 23.667969 42.658000
67.400000 25.665039 42.658000
69.200000 27.038086 42.658000
57.600000 -1.843750 42.806001
60.200000 0.781250 42.806001
61.300000 1.406250 42.806001
61.700000 1.906250 42.806001
61.400000 2.656250 42.806001
63.300000 3.781250 42.806001
62.900000 4.531250 42.806001
63.100000 5.156250 42.806001
63.400000 5.656250 42.806001
63.900000 6.406250 42.806001
64.800000 7.031250 42.806001
65.400000 7.781250 42.806001
65.400000 8.281250 42.806001
65.400000 8.906250 42.806001
