26.600000 1.024414 1.399834
26.600000 12.902344 1.399834
27.100000 17.800781 1.399834
27.300000 18.506836 1.399834
26.300000 1.090332 1.651558
26.200000 5.956543 1.792097
26.600000 11.358887 1.792097
27.100000 19.299316 1.792097
26.100000 2.450195 1.916205
26.200000 5.990234 1.916205
27.100000 19.340820 2.054155
26.600000 11.312500 2.179224
26.100000 2.054688 2.306038
26.300000 2.541016 2.444826
26.200000 14.603516 2.572057
26.400000 14.728027 2.698773
25.800000 2.211914 2.822360
27.100000 18.705078 2.961515
27.000000 18.593262 3.087775
25.900000 1.449219 3.227567
27.100000 18.121582 3.227567
27.200000 19.076172 3.227567
26.200000 13.301758 3.351062
26.100000 11.581055 3.475881
27.100000 17.016602 3.475881
27.500000 19.840820 3.475881
27.700000 21.296875 3.475881
28.000000 21.252930 3.475881
26.100000 2.449219 3.614546
26.200000 6.078125 3.614546
25.800000 11.832031 3.614546
26.100000 13.704590 3.614546
27.700000 21.159668 3.614546
28.100000 21.739258 3.614546
26.100000 1.708984 3.745770
26.100000 10.622070 3.745770
25.900000 12.746094 3.745770
26.000000 12.704102 3.745770
26.100000 13.912109 3.745770
27.100000 16.769531 3.745770
27.200000 18.098633 3.745770
27.300000 18.302734 3.745770
27.100000 17.140625 3.880250
26.100000 13.701172 4.004981
26.100000 2.555664 4.129061
25.900000 9.726562 4.129061
26.800000 13.579102 4.129061
27.200000 16.067871 4.129061
26.200000 1.438965 4.255369
26.100000 2.393555 4.255369
26.200000 6.086914 4.255369
25.900000 10.519043 4.255369
26.700000 13.166992 4.255369
27.200000 16.110352 4.255369
27.400000 16.564941 4.255369
28.200000 21.167480 4.255369
26.100000 11.407715 4.395633
27.800000 16.525391 4.395633
26.100000 2.452637 4.521346
26.400000 5.989258 4.521346
26.100000 9.142090 4.521346
27.000000 13.500488 4.521346
27.200000 14.331055 4.521346
28.000000 20.931152 4.521346
26.400000 6.057617 4.646787
27.100000 12.936523 4.646787
28.000000 19.902832 4.646787
26.400000 5.837402 4.787944
26.500000 5.419922 4.787944
27.100000 13.932129 4.787944
27.300000 13.636719 4.787944
27.800000 16.000488 4.787944
27.400000 13.663574 4.913037
26.600000 5.065430 5.050998
26.700000 8.187988 5.050998
26.400000 2.674316 5.176112
26.600000 4.924805 5.176112
26.900000 8.342285 5.176112
27.800000 13.968750 5.176112
26.600000 4.936523 5.303030
26.900000 12.176758 5.303030
27.300000 12.759277 5.303030
27.700000 13.966797 5.303030
27.900000 14.299316 5.303030
27.400000 13.753906 5.441038
28.900000 21.347656 5.441038
27.800000 13.835938 5.564979
26.900000 12.265625 5.690732
27.100000 7.890625 5.830236
27.500000 12.187500 5.830236
28.800000 21.125000 5.830236
27.000000 7.648438 5.955194
27.100000 8.103516 5.955194
26.900000 8.308594 5.955194
26.600000 9.013672 5.955194
27.600000 12.164062 5.955194
27.100000 8.049316 6.080770
26.900000 8.254883 6.080770
27.000000 2.460449 6.220828
26.800000 9.578125 6.220828
27.300000 11.775391 6.220828
27.900000 13.561523 6.220828
27.300000 7.553711 6.346009
27.000000 9.719727 6.346009
28.800000 20.944336 6.346009
27.300000 0.990234 6.473823
27.000000 6.779297 6.473823
27.200000 8.736328 6.473823
27.100000 10.069336 6.473823
27.100000 10.902344 6.473823
28.000000 13.609375 6.473823
28.800000 20.979492 6.473823
27.300000 10.104492 6.611271
27.400000 11.310547 6.611271
27.200000 2.281738 6.737896
27.100000 4.190918 6.737896
27.200000 8.213867 6.737896
27.300000 8.043457 6.737896
27.300000 10.657227 6.737896
27.400000 11.736816 6.737896
27.900000 17.828125 6.737896
27.600000 12.327148 6.862166
27.900000 12.533203 6.862166
27.200000 5.798340 6.988003
27.200000 5.881836 6.988003
27.600000 12.174805 6.988003
28.900000 20.260254 6.988003
27.900000 12.453125 7.125226
28.900000 20.687500 7.125226
29.300000 21.519531 7.125226
28.000000 16.127930 7.249840
28.900000 20.602539 7.249840
27.700000 2.480469 7.390279
27.100000 4.146484 7.390279
27.700000 11.024414 7.390279
27.900000 12.478516 7.390279
28.900000 19.802734 7.390279
28.900000 20.677734 7.516949
29.300000 20.632812 7.516949
28.100000 11.960938 7.654969
28.100000 12.485840 7.780053
27.500000 6.967285 7.904985
27.500000 8.300781 7.904985
28.700000 19.560059 7.904985
27.500000 6.658691 8.045044
27.500000 7.115234 8.045044
27.300000 9.653320 8.045044
27.700000 1.820312 8.169743
27.700000 2.401367 8.169743
27.400000 3.607422 8.169743
26.900000 8.380859 8.169743
28.400000 15.191406 8.169743
29.300000 20.375977 8.293814
28.500000 13.952637 8.435336
27.000000 7.431641 8.685706
27.700000 12.281738 8.685706
27.600000 1.342773 8.824132
27.100000 5.343750 8.824132
27.200000 5.974121 8.950431
26.400000 7.843750 8.950431
27.300000 12.821289 8.950431
28.400000 15.219238 8.950431
27.700000 12.458984 9.088110
26.800000 10.002441 9.212265
28.600000 15.195312 9.212265
26.800000 3.550781 9.338072
27.000000 6.628906 9.338072
27.000000 6.596680 9.476851
27.600000 13.098145 9.476851
26.900000 1.347656 9.601919
26.700000 2.724609 9.601919
27.000000 6.728516 9.601919
27.100000 11.691406 9.601919
27.600000 13.484375 9.601919
28.000000 13.568359 9.601919
28.400000 16.445312 9.601919
28.300000 16.988281 9.601919
28.800000 21.022949 9.601919
27.100000 1.019531 9.729497
27.100000 12.722656 9.729497
28.300000 17.053711 9.729497
26.700000 4.194824 9.853656
26.100000 9.001953 9.853656
26.700000 4.125000 9.992862
26.100000 11.281250 9.992862
28.600000 15.750000 9.992862
28.300000 17.031250 9.992862
26.500000 3.518066 10.118864
28.600000 15.224121 10.118864
28.500000 16.554688 10.118864
28.300000 17.010254 10.118864
26.700000 4.373047 10.258145
26.100000 10.648438 10.258145
28.400000 16.494141 10.258145
26.500000 3.507812 10.382974
26.600000 7.457031 10.382974
26.500000 5.362305 10.508816
27.600000 17.121094 10.508816
26.400000 5.582031 10.646918
27.300000 15.237305 10.646918
27.400000 14.941895 10.646918
27.400000 16.646484 10.646918
27.600000 17.055664 10.646918
26.700000 13.161621 10.773930
27.000000 14.515625 10.913728
27.200000 15.972656 10.913728
27.400000 16.511719 10.913728
27.700000 18.698730 11.025033
28.400000 21.196289 11.025033
27.300000 17.054199 11.163989
27.700000 19.630371 11.163989
26.100000 1.815918 11.291116
26.700000 13.164062 11.291116
27.000000 15.365234 11.291116
26.100000 1.218262 11.429094
26.100000 2.551758 11.429094
27.300000 18.650391 11.429094
27.400000 18.355469 11.429094
26.100000 1.692383 11.553741
26.200000 5.979980 11.553741
26.200000 6.062500 11.553741
26.900000 16.381348 11.553741
27.400000 18.324707 11.553741
27.500000 19.279297 11.553741
26.100000 2.118652 11.693922
26.000000 1.574219 11.693922
26.900000 16.156250 11.693922
27.100000 16.937500 11.693922
27.400000 18.343750 11.693922
28.100000 21.656250 11.693922
26.100000 2.251953 11.820117
26.300000 1.179688 11.946965
26.200000 6.089844 11.946965
26.700000 12.283691 11.946965
26.600000 14.480957 11.946965
27.800000 20.706055 11.946965
26.100000 2.406250 12.082116
26.800000 17.070312 12.082116
26.300000 2.517090 12.348780
26.800000 17.069336 12.457698
27.200000 19.068359 12.457698
27.300000 18.609375 12.597079
27.700000 21.593750 12.597079
28.100000 21.921875 12.597079
26.700000 1.127441 12.862864
26.600000 15.516113 13.114963
27.100000 19.539062 13.114963
27.400000 20.948242 13.114963
27.400000 21.006348 13.253414
27.900000 21.665527 13.253414
27.700000 21.840820 13.378892
28.000000 21.794922 13.378892
27.100000 18.142578 13.517473
26.000000 1.558594 13.642228
25.800000 2.515625 13.642228
25.900000 1.488281 13.768226
25.700000 2.197754 13.768226
27.100000 18.765625 13.768226
26.200000 1.427734 13.894888
26.100000 11.159180 14.023863
26.800000 14.642578 14.023863
26.700000 15.223145 14.023863
27.500000 19.912109 14.023863
27.700000 21.492676 14.023863
26.200000 1.465332 14.157768
26.100000 13.122070 14.157768
26.200000 13.451172 14.157768
27.200000 18.129883 14.157768
27.300000 18.583984 14.157768
27.500000 19.867188 14.157768
26.300000 1.101562 14.298938
26.100000 1.933594 14.298938
25.800000 12.226562 14.298938
25.900000 12.555664 14.298938
26.200000 13.713867 14.298938
27.100000 16.813477 14.298938
27.800000 20.208984 14.298938
26.100000 2.359375 14.423725
25.800000 12.043457 14.423725
26.200000 13.660156 14.423725
26.300000 0.921875 14.550606
26.200000 5.996094 14.550606
26.600000 9.074219 14.550606
25.800000 11.566406 14.550606
27.300000 18.447266 14.550606
27.500000 19.027344 14.550606
27.900000 20.562500 14.550606
28.200000 21.767578 14.550606
26.300000 1.028809 14.688864
26.200000 5.988281 14.688864
27.300000 15.963379 14.688864
27.300000 17.042969 14.688864
27.900000 20.565918 14.688864
28.200000 21.270508 14.688864
26.100000 10.570312 14.813900
26.200000 13.238281 14.813900
27.400000 14.565430 14.813900
27.600000 16.724609 14.813900
27.700000 19.747559 14.813900
28.200000 21.781738 14.813900
27.400000 16.610840 14.939102
27.600000 16.690430 14.939102
27.700000 19.804199 14.939102
28.400000 21.542969 14.939102
26.100000 2.414062 15.079069
26.100000 10.566406 15.079069
27.200000 14.683594 15.079069
27.600000 16.679688 15.079069
27.800000 16.761719 15.079069
28.400000 21.241699 15.079069
27.000000 12.942383 15.204014
27.300000 14.398438 15.204014
27.800000 16.141602 15.204014
27.100000 12.935547 15.331029
27.900000 17.742676 15.331029
26.400000 1.125000 15.457305
26.200000 2.081055 15.457305
27.500000 14.333984 15.457305
27.800000 14.540039 15.457305
28.100000 20.188477 15.457305
26.600000 5.160156 15.596119
26.600000 5.990234 15.596119
27.900000 14.406250 15.596119
26.900000 12.044434 15.722744
27.200000 13.249023 15.722744
26.500000 2.066406 15.847627
26.500000 3.647949 15.847627
26.700000 4.311035 15.847627
27.300000 12.775879 15.847627
27.600000 14.105469 15.847627
27.800000 14.310059 15.847627
28.000000 14.889648 15.847627
28.700000 21.355957 15.847627
26.700000 1.000977 15.990045
26.700000 4.163574 15.990045
26.600000 8.991211 15.990045
27.300000 13.474609 15.990045
27.000000 12.828125 16.113555
27.800000 13.989258 16.113555
26.800000 0.970703 16.252863
26.800000 3.596191 16.252863
26.600000 10.264648 16.252863
26.800000 0.956543 16.377547
26.900000 8.561035 16.377547
26.600000 11.527832 16.377547
28.100000 13.830078 16.377547
27.000000 7.362793 16.500585
26.600000 10.360352 16.500585
27.200000 2.197266 16.626343
27.000000 6.636230 16.626343
26.900000 8.547363 16.626343
28.000000 13.941895 16.626343
28.700000 21.247559 16.626343
27.000000 6.513672 16.765384
27.200000 7.423828 16.765384
26.800000 9.958984 16.765384
26.800000 11.494141 16.765384
27.900000 13.689453 16.765384
27.200000 2.195312 16.891814
27.000000 6.548828 16.891814
27.300000 7.831055 16.891814
26.800000 9.941895 16.891814
27.500000 12.177734 16.891814
27.300000 1.385742 17.030271
27.100000 1.842285 17.030271
27.000000 6.500000 17.030271
27.300000 7.615234 17.030271
27.100000 9.855469 17.030271
27.300000 11.640625 17.030271
27.900000 12.425781 17.030271
29.000000 21.261719 17.030271
27.200000 1.341797 17.155873
27.200000 6.005859 17.155873
27.400000 11.824707 17.155873
27.900000 12.485840 17.155873
28.100000 13.691406 17.155873
27.300000 9.588379 17.280818
27.200000 2.127930 17.418831
27.200000 5.795410 17.418831
27.300000 9.587891 17.418831
27.600000 12.213379 17.418831
27.300000 7.544922 17.545016
28.100000 13.675781 17.545016
27.400000 1.304688 17.683002
27.600000 2.261719 17.683002
27.900000 17.808594 17.808788
27.700000 11.045898 17.932007
28.700000 19.399414 17.932007
28.900000 19.730957 17.932007
29.300000 20.437500 17.932007
28.100000 11.898438 18.072674
27.500000 8.468750 18.196879
27.400000 3.011719 18.322211
28.900000 20.265137 18.322211
27.400000 3.023438 18.461534
27.500000 7.229492 18.461534
29.000000 20.861328 18.461534
27.600000 7.794922 18.588554
28.500000 14.105469 18.588554
27.500000 6.882812 18.713679
27.400000 11.619141 18.713679
27.700000 12.200195 18.713679
29.200000 20.248047 18.713679
27.300000 7.394043 18.853541
27.000000 7.477539 18.853541
26.900000 8.644531 18.853541
27.200000 9.978027 18.853541
27.300000 9.936523 18.853541
27.300000 11.395020 18.853541
28.500000 19.123047 18.853541
27.200000 2.175781 18.980313
27.100000 5.305664 18.980313
27.200000 5.890625 18.980313
26.600000 8.980469 18.980313
27.200000 5.787109 19.105960
26.900000 8.078125 19.105960
27.200000 10.826172 19.105960
27.400000 12.034180 19.105960
28.900000 20.646484 19.105960
27.400000 1.629883 19.229163
27.100000 4.124512 19.229163
27.200000 5.787598 19.229163
27.400000 11.896484 19.229163
26.600000 7.144531 19.369226
28.500000 15.230469 19.369226
26.700000 7.582031 19.635870
26.900000 10.041016 19.760250
26.800000 7.380859 19.886074
27.100000 1.087891 20.152746
27.000000 6.634766 20.152746
26.600000 11.304688 20.152746
28.400000 16.661133 20.152746
26.900000 1.147461 20.291605
27.100000 1.105469 20.291605
26.700000 2.521484 20.291605
26.700000 4.304688 20.416862
26.100000 10.650391 20.416862
28.300000 16.951172 20.416862
26.700000 2.718750 20.541891
26.000000 8.832031 20.541891
28.300000 17.109375 20.541891
26.700000 2.533203 20.668019
26.700000 2.615723 20.668019
26.500000 3.707520 20.793899
28.600000 15.140137 20.793899
26.600000 5.140625 20.934654
28.400000 16.593750 20.934654
26.500000 3.119141 21.058826
26.400000 4.661133 21.058826
28.100000 19.499512 21.058826
27.500000 15.708984 21.196789
27.500000 16.289062 21.196789
27.600000 16.949219 21.196789
27.700000 18.654297 21.196789
27.000000 14.449219 21.323339
27.200000 14.529297 21.323339
27.700000 18.679688 21.323339
28.100000 20.794922 21.323339
26.400000 6.235352 21.451822
27.100000 13.991699 21.451822
27.100000 15.322266 21.451822
27.400000 16.813965 21.451822
26.900000 14.156250 21.589707
27.400000 16.855469 21.589707
27.900000 19.929688 21.589707
26.800000 13.696777 21.714796
27.500000 18.727539 21.714796
27.800000 20.139648 21.714796
26.100000 2.073242 21.853706
26.800000 14.532227 21.853706
26.900000 16.238281 21.853706
27.500000 19.187500 21.853706
27.900000 20.423340 21.853706
28.200000 21.501953 21.853706
26.100000 2.445312 21.963782
26.200000 6.148438 21.963782
26.200000 5.980469 21.963782
26.800000 14.546875 21.963782
26.900000 16.253906 21.963782
27.100000 16.792969 21.963782
27.300000 18.582031 21.963782
27.800000 20.703125 21.963782
28.100000 21.532227 21.963782
26.100000 1.268555 22.101149
26.600000 12.871582 22.101149
27.100000 16.974121 22.101149
27.500000 19.212891 22.101149
26.200000 6.078125 22.228467
26.900000 16.250000 22.228467
27.000000 16.453125 22.228467
27.100000 17.031250 22.228467
27.800000 20.796875 22.228467
26.100000 2.536133 22.367172
26.700000 15.242188 22.367172
27.100000 17.983887 22.367172
27.300000 18.395020 22.367172
28.100000 21.842285 22.367172
27.300000 18.557617 22.491541
27.500000 20.091797 22.491541
27.300000 18.405273 22.629813
28.100000 21.596680 22.629813
26.700000 0.971680 22.754714
26.200000 6.097656 22.754714
26.200000 6.014648 22.754714
26.600000 15.487305 22.754714
27.100000 17.880371 22.754714
27.700000 21.319824 22.754714
28.000000 21.148438 22.754714
26.400000 1.585938 22.884047
27.900000 21.697266 22.884047
26.100000 1.910645 23.019104
26.700000 15.211914 23.019104
26.400000 1.079590 23.144895
26.400000 1.579590 23.283046
26.800000 17.791504 23.283046
27.200000 19.034180 23.283046
27.500000 20.068359 23.283046
26.100000 2.280762 23.408776
26.600000 12.936035 23.408776
26.700000 17.306152 23.408776
26.800000 17.888672 23.408776
27.300000 20.218750 23.408776
26.700000 17.226562 23.534054
26.800000 17.055664 23.534054
26.600000 16.791016 23.658734
26.700000 17.369629 23.658734
27.200000 20.059082 23.658734
26.800000 17.105957 23.799745
27.700000 21.378906 24.063583
28.000000 21.833984 24.063583
25.700000 3.136719 24.187889
25.900000 1.343750 24.316222
25.700000 3.177734 24.316222
27.100000 18.085938 24.316222
25.900000 1.541504 24.454325
25.700000 2.749023 24.454325
25.900000 1.430664 24.579850
26.100000 9.111328 24.579850
25.900000 10.660156 24.830030
26.200000 13.406250 24.830030
27.300000 18.312500 24.830030
26.100000 2.519531 24.969749
25.900000 10.650391 24.969749
26.200000 14.300781 24.969749
27.100000 16.496094 24.969749
27.100000 16.951172 24.969749
27.400000 18.441406 24.969749
26.200000 5.960449 25.095559
25.900000 10.483398 25.095559
26.100000 13.301758 25.095559
27.100000 14.995117 25.095559
27.200000 16.574707 25.095559
27.100000 16.529297 25.095559
26.200000 2.121094 25.232302
25.900000 12.298828 25.232302
27.000000 16.484375 25.232302
27.300000 16.939453 25.232302
26.100000 2.031738 25.358708
26.000000 11.754883 25.358708
27.900000 20.487305 25.358708
26.100000 2.356445 25.484717
26.100000 11.208984 25.484717
26.700000 13.158203 25.484717
27.000000 13.015625 25.760588
27.200000 14.471680 25.760588
27.800000 15.964844 25.760588
26.400000 5.837891 25.885319
27.100000 13.000977 25.885319
27.800000 16.329590 25.885319
26.700000 12.191406 26.010526
27.200000 13.148438 26.010526
27.400000 13.605469 26.010526
27.900000 17.845703 26.010526
26.500000 3.667969 26.134683
26.600000 5.119141 26.134683
27.200000 13.016113 26.134683
26.500000 3.067383 26.272959
26.900000 12.424805 26.272959
27.600000 13.708008 26.272959
26.600000 1.009277 26.396970
26.700000 2.671875 26.396970
26.500000 3.750000 26.396970
26.500000 3.203125 26.396970
26.600000 4.906250 26.396970
27.300000 12.671875 26.396970
27.600000 13.875000 26.396970
26.600000 8.798340 26.523930
26.800000 11.495605 26.523930
27.100000 12.201172 26.523930
27.000000 12.803223 26.661749
27.700000 14.089355 26.661749
26.900000 1.435547 26.788230
27.100000 12.759766 26.788230
27.400000 13.464844 26.788230
28.000000 13.625000 26.788230
26.900000 1.123047 26.930675
26.900000 7.302734 26.930675
27.100000 7.722656 26.930675
26.600000 10.352539 26.930675
27.400000 13.302734 26.930675
28.900000 20.638672 26.930675
27.000000 7.277344 27.051705
27.100000 7.984863 27.051705
26.900000 12.229980 27.051705
28.000000 13.721680 27.051705
26.900000 8.348633 27.179069
26.600000 9.135742 27.179069
29.000000 21.003906 27.179069
27.100000 7.990234 27.318201
26.700000 9.859863 27.318201
28.000000 13.767578 27.318201
29.100000 21.556641 27.444996
27.000000 6.584961 27.566867
27.200000 9.041992 27.566867
27.100000 10.916016 27.566867
27.400000 11.624023 27.566867
27.600000 12.082031 27.566867
28.000000 13.748047 27.566867
27.300000 7.818359 27.708230
27.300000 9.648438 27.708230
27.100000 10.808594 27.708230
27.300000 10.638672 27.708230
27.200000 8.554688 27.834709
28.900000 20.353516 27.834709
27.400000 1.398438 27.962719
27.300000 10.076172 27.962719
29.000000 21.232422 27.962719
27.200000 2.029297 28.224146
27.100000 4.278320 28.224146
27.100000 4.228516 28.351794
27.100000 4.199219 28.491732
27.500000 8.580566 28.746268
28.700000 19.500000 28.872479
27.900000 11.665527 28.998241
27.500000 7.125000 29.140305
27.500000 8.080078 29.140305
27.700000 12.230469 29.140305
27.900000 12.560547 29.140305
27.800000 1.877441 29.266735
27.300000 8.105469 29.266735
27.200000 8.435547 29.266735
27.300000 9.890625 29.266735
27.800000 1.139648 29.391096
26.900000 8.458984 29.391096
27.100000 9.163574 29.391096
27.300000 9.618164 29.391096
27.300000 10.697754 29.391096
29.300000 20.891602 29.391096
27.800000 2.014160 29.528192
27.000000 9.550781 29.528192
26.600000 9.147461 29.653879
26.800000 9.604980 29.653879
27.200000 6.016113 29.793762
26.800000 7.429199 29.793762
26.600000 9.048828 29.793762
28.500000 13.746094 29.793762
29.300000 20.816406 29.793762
28.500000 13.468750 29.918683
28.900000 20.448242 29.918683
29.400000 20.654297 29.918683
27.700000 1.803711 30.058351
26.800000 9.716797 30.058351
28.500000 15.255859 30.058351
27.400000 1.258301 30.183825
27.400000 11.812988 30.183825
27.900000 12.644531 30.183825
28.600000 15.129883 30.307413
27.300000 1.533203 30.433419
27.000000 6.513672 30.433419
26.900000 7.343750 30.433419
28.100000 13.644531 30.433419
27.000000 2.551758 30.573837
26.900000 12.025391 30.573837
28.600000 15.353516 30.699245
28.300000 17.140625 30.699245
28.300000 17.221680 30.699245
26.900000 0.972168 30.823769
26.700000 4.306152 30.823769
27.100000 1.805176 30.963691
26.600000 11.305664 30.963691
26.900000 12.388184 30.963691
28.600000 15.616699 31.091883
28.300000 16.900879 31.091883
26.500000 3.406250 31.229835
28.600000 15.016602 31.229835
28.500000 16.595215 31.229835
28.300000 16.923828 31.229835
26.500000 3.388184 31.354689
28.500000 16.562500 31.354689
28.300000 17.142578 31.354689
26.600000 2.220703 31.480809
26.600000 4.960938 31.480809
26.500000 5.498047 31.607612
26.100000 11.271484 31.607612
27.800000 17.457031 31.607612
28.100000 20.200195 31.607612
28.700000 21.486816 31.607612
27.100000 14.880859 31.733088
27.500000 14.962402 31.733088
27.700000 15.543945 31.733088
27.600000 15.875488 31.733088
27.600000 16.832031 31.733088
28.100000 19.408203 31.733088
27.400000 16.060547 31.873016
27.600000 16.640137 31.873016
27.100000 13.949219 31.996389
27.200000 14.654297 31.996389
27.400000 16.439453 31.996389
27.200000 16.059570 32.135850
27.400000 16.717773 32.135850
26.800000 13.529297 32.262067
27.400000 18.384766 32.262067
27.500000 18.964844 32.262067
28.400000 20.910156 32.262067
26.600000 11.616211 32.388015
26.900000 12.322754 32.388015
27.300000 17.018555 32.388015
27.500000 19.306641 32.388015
26.800000 0.955566 32.529356
26.800000 15.201172 32.529356
27.100000 16.614258 32.529356
27.400000 18.527344 32.529356
27.500000 18.983887 32.529356
26.100000 2.285645 32.655815
26.700000 12.262207 32.655815
27.800000 20.664062 32.655815
27.100000 17.783203 32.792837
28.000000 21.058594 32.792837
26.100000 1.444824 33.042691
26.600000 11.528320 33.042691
26.700000 13.233887 33.042691
27.100000 17.172852 33.042691
26.000000 1.671387 33.169740
26.200000 6.137207 33.169740
27.100000 17.957031 33.169740
27.200000 19.534668 33.169740
28.000000 21.845215 33.169740
26.600000 11.458984 33.308872
26.600000 15.523438 33.308872
28.000000 20.934570 33.308872
26.600000 15.500488 33.433826
27.100000 17.903320 33.433826
27.700000 21.350586 33.433826
26.200000 2.121094 33.560037
26.800000 17.106934 33.560037
27.100000 18.145020 33.560037
27.900000 21.677734 33.560037
26.200000 5.959961 33.699938
26.600000 11.363770 33.699938
27.000000 18.580078 33.699938
27.100000 18.051270 33.826727
27.600000 21.615723 33.826727
26.600000 0.928711 33.954145
26.000000 4.377930 33.954145
26.600000 17.749023 33.954145
26.400000 2.638672 34.092744
26.000000 4.380371 34.092744
26.400000 12.677734 34.092744
27.100000 19.324219 34.092744
26.900000 1.042969 34.218115
25.900000 2.100586 34.341471
27.100000 19.502930 34.341471
27.500000 20.052246 34.480914
27.200000 20.183594 34.605870
25.700000 2.462891 34.733870
25.900000 6.958008 34.861005
27.000000 18.583496 34.861005
27.100000 18.039062 34.861005
27.500000 20.030762 34.861005
25.800000 2.247070 34.999878
26.600000 12.929688 34.999878
26.700000 17.132812 34.999878
28.000000 22.164062 34.999878
26.100000 1.551758 35.127552
25.900000 1.886230 35.127552
26.200000 1.438965 35.253634
27.700000 21.500488 35.253634
28.000000 21.205078 35.253634
26.000000 11.665527 35.392430
26.800000 14.495605 35.392430
27.300000 18.601074 35.392430
27.700000 21.464844 35.392430
28.000000 21.294434 35.392430
26.100000 2.460938 35.521405
26.600000 9.156250 35.521405
25.800000 11.945312 35.521405
25.800000 11.902344 35.521405
26.000000 12.734375 35.521405
26.100000 13.191406 35.521405
26.800000 14.687500 35.521405
27.000000 15.519531 35.521405
27.400000 18.423828 35.521405
27.900000 20.411133 35.521405
25.800000 12.650391 35.647408
27.100000 16.853027 35.647408
27.100000 16.685547 35.647408
25.900000 12.625977 35.772803
26.000000 11.705078 35.772803
27.000000 14.396484 35.772803
27.300000 16.054688 35.772803
26.200000 5.976074 35.902935
26.000000 11.612793 35.902935
27.400000 15.465332 35.902935
27.600000 15.794922 35.902935
27.500000 18.863281 35.902935
27.400000 16.821289 36.037385
26.700000 13.149414 36.162994
27.100000 14.810547 36.162994
27.400000 16.802246 36.162994
27.600000 17.007812 36.162994
27.800000 20.205078 36.162994
28.200000 21.616211 36.162994
26.200000 6.123047 36.301199
26.400000 6.288086 36.301199
26.900000 14.097656 36.301199
27.800000 16.044922 36.301199
26.100000 10.640625 36.428795
27.300000 14.612305 36.428795
27.800000 15.973145 36.428795
26.400000 4.674805 36.555195
26.900000 12.205078 36.555195
26.500000 2.128418 36.693914
27.400000 13.906250 36.693914
28.600000 21.667480 36.693914
26.500000 3.354004 36.818331
26.500000 3.186523 36.818331
26.500000 5.351562 36.818331
27.600000 13.799316 36.818331
28.400000 21.485840 36.818331
26.500000 3.339844 36.957872
26.700000 12.367188 36.957872
26.600000 2.182617 37.082802
27.300000 13.545410 37.082802
27.600000 14.252930 37.082802
27.900000 14.460449 37.082802
26.700000 0.968750 37.210840
26.700000 2.706055 37.210840
27.000000 13.063477 37.210840
26.900000 1.321777 37.470995
26.700000 4.151855 37.470995
26.600000 10.250000 37.470995
27.900000 13.650391 37.470995
26.900000 8.663086 37.597054
27.400000 12.402344 37.597054
26.800000 11.525879 37.736847
27.400000 13.145508 37.736847
26.800000 3.619141 37.863658
27.100000 8.043945 37.863658
28.100000 13.785156 37.863658
27.600000 12.291992 37.988514
27.300000 2.384766 38.128678
27.300000 7.827148 38.128678
26.900000 9.864258 38.128678
27.700000 12.394531 38.128678
28.900000 20.601562 38.128678
27.300000 0.972656 38.254794
27.300000 1.303223 38.254794
27.300000 8.028320 38.254794
27.600000 12.136719 38.254794
28.000000 13.547852 38.254794
28.900000 20.804199 38.254794
27.100000 4.169922 38.505459
27.200000 5.955078 38.505459
27.200000 8.445312 38.505459
27.400000 11.515625 38.505459
29.300000 20.716797 38.505459
27.200000 5.833008 38.634862
27.300000 9.659180 38.634862
27.300000 9.865723 38.634862
27.900000 12.691895 38.634862
28.100000 12.523438 38.634862
28.500000 19.132324 38.634862
28.900000 20.545410 38.634862
28.200000 12.687988 38.769489
29.000000 20.824219 38.769489
27.200000 5.838379 38.907897
29.000000 21.113770 38.907897
28.100000 15.092773 39.033315
29.000000 21.229492 39.033315
27.900000 11.441406 39.172497
28.200000 12.726562 39.172497
28.400000 18.242188 39.172497
27.100000 4.177246 39.296545
27.100000 4.134766 39.296545
27.900000 11.417480 39.296545
27.300000 3.918457 39.420889
27.200000 5.833496 39.420889
28.100000 12.033691 39.420889
27.300000 4.362793 39.561289
27.500000 8.357910 39.561289
27.900000 11.062988 39.561289
28.700000 19.406250 39.561289
27.500000 2.983887 39.688240
27.500000 7.054688 39.688240
27.600000 7.636230 39.688240
27.500000 8.467773 39.688240
27.600000 9.755859 39.688240
27.200000 8.466797 39.812994
29.000000 19.953125 39.812994
27.500000 7.051270 39.936926
26.900000 8.333496 39.936926
27.100000 9.037109 39.936926
28.400000 15.119629 39.936926
27.200000 7.406250 40.076049
26.900000 9.890625 40.076049
27.700000 12.531250 40.076049
29.300000 20.468750 40.076049
27.500000 2.384766 40.203691
26.800000 9.583008 40.203691
29.300000 20.469238 40.203691
27.800000 1.265625 40.330003
27.100000 4.226562 40.330003
27.200000 6.103516 40.330003
26.600000 8.893555 40.330003
26.600000 9.724609 40.330003
27.100000 10.842773 40.330003
27.300000 1.089844 40.469588
27.800000 1.170898 40.469588
27.000000 6.488281 40.469588
28.400000 18.454102 40.469588
28.500000 15.257324 40.598825
27.200000 5.943359 40.859935
26.600000 9.142578 40.859935
26.900000 9.973633 40.859935
26.900000 9.970703 40.998938
27.600000 13.292969 40.998938
28.100000 13.748535 40.998938
27.600000 13.353027 41.110209
28.500000 15.222656 41.110209
26.600000 7.419922 41.249176
28.600000 15.311523 41.249176
26.700000 11.940430 41.512842
26.700000 12.053223 41.637753
28.300000 16.911621 41.637753
26.700000 2.769531 41.764165
26.600000 3.726074 41.764165
26.700000 4.182617 41.764165
26.800000 13.610840 41.764165
26.900000 1.523438 41.903954
26.000000 8.738281 41.903954
28.100000 19.459961 41.903954
26.400000 6.875000 42.029065
26.700000 7.583984 42.029065
26.100000 9.001953 42.029065
26.500000 3.093750 42.168957
26.600000 6.050781 42.168957
28.100000 20.225586 42.168957
28.700000 21.383789 42.168957
26.500000 3.105469 42.292807
26.600000 7.179688 42.292807
27.800000 16.871094 42.292807
27.600000 17.078125 42.292807
26.600000 7.507812 42.431799
27.300000 14.742188 42.431799
27.400000 16.324219 42.431799
27.400000 16.406250 42.431799
28.700000 21.220215 42.431799
27.100000 14.787109 42.541992
27.300000 16.070312 42.541992
27.400000 16.399414 42.541992
27.700000 19.502930 42.680006
26.600000 12.878906 42.804352
27.200000 15.746094 42.804352
27.700000 18.699219 42.804352
26.900000 16.361328 43.072074
28.000000 21.043457 43.072074
28.400000 21.623047 43.072074
26.100000 1.671875 43.198856
26.100000 2.003906 43.198856
27.200000 18.151367 43.198856
27.500000 19.026855 43.337789
26.600000 11.522461 43.462913
26.200000 6.153320 43.588922
27.900000 20.675781 43.588922
26.700000 15.188477 43.729778
27.100000 17.937500 43.729778
27.200000 18.142090 43.729778
26.600000 11.618164 43.857091
26.700000 15.283203 43.857091
27.100000 17.990234 43.857091
27.300000 18.660156 43.983031
26.400000 0.958984 44.109973
26.700000 15.193359 44.372081
27.000000 18.567383 44.372081
26.200000 5.980957 44.498003
26.700000 17.326172 44.498003
27.200000 19.523438 44.498003
26.100000 2.305176 44.637155
26.600000 15.500000 44.637155
27.100000 19.445312 44.637155
27.700000 21.640625 44.637155
27.700000 21.675293 44.762905
27.200000 19.553711 44.901947
26.500000 16.460938 45.028805
27.100000 19.487305 45.028805
26.800000 17.775391 45.153909
27.100000 17.935547 45.153909
27.100000 19.390625 45.153909
27.300000 20.221191 45.153909
26.100000 9.003906 45.277962
27.400000 20.855469 45.277962
28.000000 21.768066 45.277962
25.700000 3.083984 45.416238
25.800000 4.121094 45.416238
25.800000 2.218750 45.543690
25.900000 6.878906 45.543690
25.900000 2.250000 45.669763
25.800000 2.207031 45.669763
26.100000 2.231445 45.810000
25.900000 2.314453 45.810000
25.800000 4.105469 45.810000
26.100000 11.162109 45.810000
26.200000 13.649414 45.810000
27.100000 17.828125 45.810000
27.800000 20.848633 45.810000
28.200000 21.552734 45.810000
28.300000 12.342773 45.934931
28.300000 12.673340 45.934931
28.600000 13.378906 45.934931
27.500000 19.898438 45.934931
25.900000 1.962891 46.074746
26.100000 10.620605 46.074746
25.900000 12.407715 46.074746
26.100000 13.441895 46.074746
27.100000 17.999023 46.074746
27.400000 18.533203 46.074746
26.100000 2.023438 46.198969
25.900000 1.981934 46.198969
26.100000 13.984375 46.198969
27.100000 16.711914 46.198969
27.300000 18.371094 46.198969
26.100000 1.857422 46.323562
26.300000 14.535156 46.323562
27.000000 15.453125 46.323562
27.100000 15.158203 46.323562
27.100000 16.863281 46.323562
26.200000 1.388672 46.461168
26.100000 1.969727 46.461168
26.100000 13.229492 46.461168
27.400000 14.884766 46.461168
27.500000 16.340820 46.461168
25.900000 10.714844 46.586689
26.100000 11.170898 46.586689
27.400000 16.569336 46.586689
27.700000 19.516113 46.586689
27.900000 20.469727 46.586689
26.100000 1.954590 46.711545
27.400000 16.335449 46.711545
27.600000 18.330078 46.711545
26.100000 1.894531 46.851279
26.400000 5.919922 46.851279
27.700000 17.031250 46.851279
28.200000 21.306641 46.851279
26.600000 12.913086 46.976861
27.000000 12.866699 46.976861
27.200000 14.445312 46.976861
26.100000 2.552734 47.103673
26.400000 5.721191 47.103673
26.500000 6.926758 47.103673
26.800000 12.776855 47.103673
27.200000 13.357422 47.103673
27.800000 15.143555 47.103673
28.400000 21.243652 47.103673
26.400000 3.879395 47.243034
26.900000 12.110840 47.243034
26.900000 11.988281 47.368005
27.400000 13.521484 47.368005
26.500000 3.670410 47.496892
26.700000 11.828125 47.496892
27.400000 13.312500 47.496892
26.700000 4.286621 47.631640
26.600000 9.214844 47.770934
26.600000 10.330078 47.770934
27.000000 13.445312 47.770934
26.700000 4.175781 47.897877
27.800000 14.324219 47.897877
28.700000 21.191406 48.021211
26.900000 1.247559 48.148149
27.700000 13.525391 48.148149
28.800000 20.933105 48.148149
26.800000 3.629395 48.273149
27.000000 7.402344 48.273149
27.100000 8.231934 48.273149
26.600000 9.720703 48.273149
27.000000 6.716309 48.415148
27.000000 7.668945 48.415148
26.800000 9.699219 48.415148
26.800000 9.979492 48.415148
29.000000 21.221680 48.415148
26.800000 9.926758 48.540227
26.900000 11.007812 48.540227
28.000000 13.957031 48.540227
27.300000 7.814941 48.668216
28.100000 13.709473 48.668216
29.300000 20.720703 48.668216
27.200000 2.015625 48.807732
27.100000 5.257812 48.807732
27.200000 8.917969 48.807732
27.500000 11.488770 48.807732
28.900000 20.837891 48.931116
27.300000 1.385254 49.058907
27.200000 2.050293 49.058907
27.200000 8.210449 49.058907
27.200000 8.792969 49.058907
27.500000 11.998047 49.058907
28.400000 18.510254 49.058907
27.300000 9.923828 49.197478
27.700000 12.314453 49.324791
27.600000 2.204590 49.447893
27.200000 5.862305 49.447893
27.300000 7.412598 49.576867
27.900000 17.746094 49.576867
28.200000 12.528320 49.716240
27.400000 3.030762 49.841649
27.500000 11.506348 49.841649
28.100000 11.792480 49.841649
28.900000 20.259277 49.841649
29.400000 21.089844 49.841649
27.700000 2.770508 49.980783
27.300000 3.893066 49.980783
29.300000 20.572266 49.980783
27.300000 4.304688 50.106099
27.400000 3.113281 50.233905
27.300000 4.362305 50.233905
27.500000 9.901367 50.233905
28.000000 16.128906 50.233905
29.000000 20.987305 50.233905
27.300000 4.384766 50.371353
27.500000 11.502441 50.371353
29.000000 20.891602 50.371353
27.300000 7.987793 50.497411
26.900000 8.321289 50.497411
28.200000 12.655762 50.497411
26.900000 8.004883 50.622023
27.000000 9.798828 50.622023
27.300000 9.883301 50.622023
28.500000 15.224609 50.622023
29.300000 20.460449 50.622023
27.400000 1.336914 50.747089
26.900000 10.083008 50.747089
27.900000 1.757324 50.885892
26.600000 8.812988 50.885892
27.200000 11.179688 50.885892
27.300000 1.571289 51.013025
27.700000 2.281250 51.013025
27.200000 6.130859 51.013025
27.000000 6.584961 51.013025
28.900000 20.710938 51.138237
27.100000 1.230469 51.276952
26.900000 10.050781 51.403502
26.900000 12.157227 51.542536
27.300000 1.679688 51.668018
26.800000 3.552246 51.668018
28.500000 14.112305 51.668018
28.500000 15.191406 51.668018
28.400000 18.211914 51.668018
27.100000 0.903809 51.794146
26.700000 2.691895 51.794146
26.800000 3.648438 51.794146
27.000000 6.556152 51.794146
28.500000 15.282227 51.794146
26.700000 7.679688 52.059237
28.600000 15.521484 52.059237
26.900000 13.523926 52.182836
28.600000 15.361816 52.182836
28.300000 16.905762 52.182836
27.200000 2.243164 52.319847
26.100000 9.068359 52.319847
26.100000 9.150879 52.319847
26.700000 13.063477 52.319847
28.400000 16.601074 52.319847
26.700000 4.193359 52.444647
28.500000 15.224609 52.444647
28.300000 16.884766 52.444647
26.900000 1.435547 52.582889
26.700000 2.768066 52.582889
26.600000 4.970215 52.582889
26.100000 11.356934 52.582889
26.500000 3.355469 52.708122
26.500000 3.312500 52.708122
26.100000 10.490234 52.708122
26.500000 3.647949 52.832889
26.600000 5.061035 52.832889
26.700000 13.025879 52.832889
27.800000 16.673828 52.832889
27.700000 17.253418 52.832889
26.500000 3.180664 52.973012
26.600000 7.553711 52.973012
27.200000 14.324219 52.973012
27.500000 14.904297 52.973012
27.500000 15.484375 52.973012
26.400000 5.644531 53.098131
26.700000 13.438965 53.098131
26.900000 14.143555 53.098131
27.100000 14.848145 53.098131
27.400000 16.441895 53.238056
27.200000 16.026855 53.363766
27.200000 16.644531 53.617457
27.500000 18.759766 53.617457
28.200000 21.250000 53.617457
26.700000 13.344727 53.752809
27.100000 17.069336 53.752809
27.300000 18.352539 53.752809
27.100000 17.171387 53.877942
27.100000 17.250977 53.877942
27.300000 18.455566 53.877942
27.800000 20.194336 53.877942
26.700000 12.164062 54.003830
27.100000 17.849609 54.003830
27.300000 18.634766 54.003830
27.500000 19.089844 54.003830
26.700000 15.200195 54.142296
28.100000 21.912109 54.142296
26.100000 1.991699 54.267960
27.100000 17.841797 54.267960
26.100000 2.549805 54.533708
26.200000 5.999023 54.533708
27.500000 19.901855 54.533708
26.800000 17.100586 54.672857
27.100000 18.720215 54.672857
27.500000 20.089844 54.672857
28.000000 21.252930 54.672857
27.100000 18.115234 54.797051
28.100000 22.020508 54.797051
26.100000 1.984375 54.922271
26.600000 11.535156 54.922271
27.300000 20.205078 54.922271
27.400000 20.910156 54.922271
28.000000 21.945312 54.922271
27.300000 20.228516 55.047887
27.400000 20.945312 55.186771
26.800000 17.056641 55.311111
27.400000 21.074707 55.311111
27.900000 21.606934 55.311111
27.500000 20.037109 55.438874
27.500000 20.077637 55.574731
25.800000 2.377930 55.700590
27.000000 19.106445 55.700590
27.400000 20.843750 55.700590
27.000000 18.572266 55.840141
27.000000 18.538086 55.965904
25.900000 7.383301 56.092561
26.900000 16.376953 56.092561
26.100000 1.459473 56.231739
25.900000 2.370605 56.231739
25.900000 7.023438 56.231739
26.000000 1.407715 56.356760
25.900000 2.113281 56.356760
26.100000 10.580078 56.356760
26.100000 11.410645 56.356760
26.100000 1.877441 56.608968
25.900000 2.208008 56.608968
26.600000 9.138672 56.608968
26.000000 12.710938 56.608968
26.900000 16.319336 56.608968
27.300000 18.641602 56.608968
27.900000 20.633301 56.608968
28.300000 21.838867 56.608968
26.100000 2.088379 56.748091
25.900000 9.708008 56.748091
25.800000 10.411621 56.748091
26.200000 13.522461 56.748091
27.100000 17.119141 56.748091
27.500000 19.183594 56.748091
26.200000 5.989258 56.874763
27.100000 14.911621 56.874763
27.100000 17.322754 56.874763
27.500000 19.189453 56.874763
28.400000 21.261719 56.874763
25.900000 9.738281 57.013752
25.800000 10.442383 57.013752
25.900000 12.521484 57.013752
26.000000 12.975586 57.013752
27.300000 17.108398 57.013752
27.500000 18.891602 57.013752
28.400000 21.208008 57.013752
26.200000 13.179199 57.139100
26.800000 13.463379 57.139100
27.200000 16.702148 57.139100
27.400000 16.656738 57.139100
27.700000 19.725098 57.139100
27.800000 20.679688 57.139100
28.000000 21.259277 57.139100
28.400000 21.713867 57.139100
26.100000 11.437500 57.264656
27.600000 18.368164 57.264656
28.400000 21.145996 57.264656
26.300000 1.031250 57.405815
26.400000 1.578125 57.405815
26.100000 2.289062 57.405815
27.000000 13.408691 57.405815
27.700000 16.811523 57.405815
28.100000 20.964355 57.405815
28.400000 21.044922 57.405815
26.400000 5.986328 57.529931
27.400000 14.619141 57.529931
27.700000 14.953125 57.529931
28.400000 21.178223 57.529931
26.100000 2.490723 57.656649
26.500000 6.979980 57.656649
26.800000 13.713867 57.656649
27.900000 17.781738 57.656649
28.000000 19.892578 57.656649
28.400000 21.174805 57.656649
28.400000 21.048340 57.779088
26.500000 3.602539 57.920101
26.500000 3.432129 57.920101
26.600000 4.841309 57.920101
28.100000 19.387695 57.920101
26.500000 3.220215 58.044814
26.600000 5.007324 58.171620
26.600000 8.990723 58.171620
27.100000 12.893555 58.171620
28.400000 20.860352 58.171620
26.600000 3.693359 58.309942
27.000000 12.951172 58.309942
27.700000 14.362305 58.309942
26.700000 4.219727 58.434163
26.600000 10.321289 58.434163
26.800000 7.286133 58.570846
26.900000 8.119629 58.570846
26.600000 9.078125 58.570846
26.600000 11.315430 58.570846
28.900000 20.876953 58.570846
26.600000 9.716797 58.696380
26.900000 12.172852 58.696380
28.100000 13.864258 58.696380
28.900000 21.280273 58.696380
27.100000 1.007812 58.837022
27.000000 7.417969 58.837022
26.600000 9.165527 58.837022
28.000000 13.742188 58.837022
27.100000 1.747559 58.962756
27.000000 7.524902 58.962756
26.600000 10.269531 58.962756
26.600000 10.351074 58.962756
28.000000 13.840332 58.962756
28.900000 20.785156 58.962756
27.000000 6.606934 59.102081
27.100000 8.273926 59.102081
27.000000 8.732422 59.102081
26.800000 9.940918 59.102081
26.800000 9.774414 59.102081
28.900000 20.714844 59.102081
27.200000 8.698730 59.226919
29.000000 20.910645 59.226919
27.300000 8.019043 59.352894
27.200000 8.803223 59.352894
27.600000 12.246582 59.352894
27.800000 12.201172 59.352894
28.000000 13.905762 59.352894
29.300000 21.383301 59.478696
27.200000 6.035156 59.618176
27.300000 8.976562 59.618176
27.300000 9.930664 59.618176
28.900000 20.571289 59.618176
27.200000 5.955078 59.743273
27.300000 7.945312 59.743273
27.300000 9.980469 59.743273
28.100000 13.630859 59.743273
28.100000 15.121094 59.743273
28.900000 20.511719 59.743273
27.300000 9.583984 59.869087
28.500000 18.955078 59.869087
28.900000 20.365234 59.869087
28.500000 19.042969 60.007205
27.100000 4.186523 60.130902
27.900000 12.611816 60.130902
27.100000 4.233398 60.271960
28.500000 18.899414 60.271960
28.800000 19.728516 60.271960
