2.243979 -10.271715 -23.448511
1.551940 -6.840616 -18.998064
-0.878172 -13.566551 -32.891830
5.246475 -12.014325 -30.849693
-6.798096 -11.896704 -33.065323
-4.054418 -7.249464 -20.529173
-1.688761 -11.477404 -26.699402
8.209760 -3.012307 -4.687511
9.501247 -8.647289 -30.563932
-8.419688 -1.822866 -17.455309
-2.751372 -8.591539 0.732782
-0.835209 -5.471726 -17.202471
-6.873073 -5.159217 -18.212135
-0.938439 -10.751482 -6.699349
10.510121 -3.688658 -24.116749
-13.826133 -2.300428 -26.836979
8.112805 -2.163354 -2.604101
4.792014 -9.101423 0.027366
-15.093021 -1.246972 -29.589035
0.454929 -10.299051 -4.734193
-12.609777 -5.908523 -28.448730
-6.532864 -4.562458 -16.266911
0.322482 -10.341925 -2.886875
-7.921506 -8.300808 -22.788164
-3.634962 -7.340190 7.191219
4.736651 -2.388945 -17.119228
12.533819 -4.586758 -31.908001
0.600439 -6.691370 -10.880277
-12.396048 -7.173360 -29.703041
1.856436 -8.653000 2.111735
-5.121945 -8.069486 0.657571
-14.341743 -1.580749 -27.631187
-13.145766 -3.725640 -28.467501
0.316906 -12.553612 -29.217876
-4.621626 -6.160412 -10.866388
-2.945679 -8.547227 -22.008438
-5.287231 -6.471807 6.295437
-11.234906 -4.025138 -23.469753
-5.652416 -6.017250 -8.120750
6.922955 -8.854579 -24.438721
-10.911231 -0.876147 -20.832844
9.843202 -5.374733 -24.355391
-0.651502 -6.984901 -18.975727
-7.314845 -6.637959 -21.334036
-6.647518 -4.480716 -14.743270
-13.381207 -5.156575 -30.355423
13.961442 -1.454902 -33.528839
6.588540 -6.358699 2.922379
-5.146719 -10.148863 -24.498501
5.343352 -7.657622 0.281112
-9.752863 -1.643638 -5.073397
7.854473 -2.501416 1.060397
4.319527 -11.642210 -28.802719
13.048250 -3.039116 -32.115555
8.206635 -8.037425 -25.444763
4.050538 -3.559139 -16.180029
8.238763 -3.173954 -3.259548
-3.172746 -11.021843 -25.379831
-4.335186 -7.434903 3.530191
6.383310 -5.703752 0.942404
-6.903391 -9.258781 -25.753674
-9.051775 -9.398993 -28.682791
-8.081900 -2.856820 4.460539
-4.506072 -8.501608 -2.741579
-0.219831 -9.873562 -1.988220
8.081533 -1.047863 -20.044846
-9.314878 -0.722916 -19.187714
6.269487 -6.452507 5.040199
-8.408873 -3.660200 -0.609006
2.874985 -5.262984 -12.789425
7.914376 -6.847768 -23.468128
7.760218 -3.584985 3.027455
6.352535 -2.312577 7.564035
7.295489 -4.572814 2.416217
-9.525694 -2.017345 -0.043149
-1.466094 -7.088096 9.890312
-8.011363 -1.467715 -11.502672
4.613449 -2.849418 -14.871135
-5.447636 -7.433968 2.506160
-8.870084 -2.316905 -18.583944
-8.688643 -3.200386 -19.548967
7.660559 -4.281445 -1.400137
-9.383212 -1.251481 0.912572
-4.692112 -8.376446 -4.819198
6.203536 -2.745005 8.581146
-4.482504 -8.581909 -1.517256
-7.730165 -4.330973 -18.256544
1.994907 -10.096530 -2.922039
-2.629349 -9.240063 4.131704
-1.021924 -8.942958 0.445467
-8.876407 -8.886225 -26.672146
-6.412786 -5.423186 -8.940026
-3.531241 -13.217267 -32.710239
7.002459 -1.241789 -19.439066
0.319450 -11.806218 -27.241505
-7.578239 -3.320862 -17.705938
8.206229 -2.788316 -21.320267
7.921132 -5.156193 -3.654867
-1.248662 -10.321737 -5.567093
6.996763 -9.068394 -26.733212
2.251572 -4.887589 -15.965183
11.714516 -0.338629 -24.424440
-9.889507 -9.503004 -29.783165
-6.354804 -7.420171 0.461332
12.547956 -2.943027 -30.228199
7.610631 -6.179673 -5.598923
0.911987 -5.174137 -16.222057
6.548977 -1.147394 -8.727215
7.488789 -0.017519 -2.094951
-14.518285 -2.082480 -28.598154
-2.280487 -12.351496 -29.253626
-10.852551 -5.846454 -24.718388
4.249973 -7.621148 5.412628
-7.200381 -3.971654 -10.510766
6.069825 -7.591577 -22.832062
0.526139 -11.414494 -26.031368
-8.755361 -7.516685 -22.833054
6.916963 -1.462137 2.830474
2.610928 -11.453465 -26.996471
-6.204857 -9.199806 -23.855846
-7.461516 -5.873241 -20.053167
-6.890105 -4.595428 -12.507071
-8.676193 -0.707493 4.871004
6.347489 -0.556865 6.333302
-0.680595 -9.379097 4.715076
5.409308 -2.082752 -13.836623
8.934584 -10.002010 -32.120552
5.072248 -7.044634 1.663575
8.840407 -7.156608 -25.387995
7.964763 -1.165119 -3.378105
8.105597 -2.419183 -1.125602
-8.558638 -0.748392 -17.405842
7.362118 -5.787803 -22.509739
5.847389 -0.651804 -15.345564
-2.732624 -9.864521 -23.213318
-5.934062 -4.956940 -14.019179
3.447839 -10.441370 -7.831918
8.629827 -7.988344 -27.416430
5.067981 -9.030308 -4.596771
4.995442 -5.779742 -19.966238
-2.613479 -10.041210 -7.219160
-1.032647 -11.886209 -27.454826
8.200897 -3.789963 -5.473804
0.363733 -5.519919 -15.220602
0.523818 -13.131512 -31.085764
5.343882 -5.597167 7.858908
-1.708514 -7.724536 7.927729
0.823377 -10.780485 -6.417599
6.435857 -4.793946 6.227489
8.928273 -6.542863 -24.023638
-11.333399 -9.042559 -30.928684
5.831184 -9.326701 -23.913933
7.287629 -7.828260 -23.678581
1.244841 -9.196936 4.513577
6.206473 -0.544613 -13.159670
-1.743431 -10.116056 -3.666598
7.840178 -5.007465 -7.520458
5.611330 -0.722549 -17.176350
-8.046603 -9.910805 -29.085789
5.058649 -8.405371 -22.870010
7.955453 -11.288430 -33.319710
6.223501 -1.116297 -12.098971
-12.720910 -8.894339 -33.695866
-8.212719 -0.806665 -15.173718
-6.257713 -6.250289 7.233040
8.926671 -9.504772 -30.873493
2.070536 -10.471466 -4.541672
-5.702347 -10.476063 -27.264063
5.620480 -10.174788 -25.848785
-2.357428 -12.874552 -30.722351
-7.426557 -3.532063 -12.729443
-3.843690 -6.543890 7.984276
6.309268 -5.518375 -20.990608
-7.296500 -3.452555 -16.546932
-8.073693 -4.706682 1.793978
-2.748306 -11.326806 -26.767643
5.154792 -3.974147 -11.211040
-3.055780 -9.533388 -4.720251
-8.010161 -1.667943 -10.213961
8.969684 -4.084951 -22.973911
3.027359 -7.025773 -19.953854
-0.879571 -6.698769 -10.963985
-10.840688 -9.532625 -31.761593
-7.316584 -3.966846 -7.898208
7.834465 -9.551035 -29.042089
13.305339 -1.343404 -31.702772
10.357447 -5.542900 -27.361504
-11.553652 -7.353187 -27.662964
-7.455582 -2.803968 -15.505228
-13.637033 -1.759921 -25.805912
-3.874705 -6.409912 -19.814304
-3.744467 -8.559464 4.207296
6.085454 -2.467668 -10.320801
-12.462936 -3.191992 -25.415768
-6.002943 -9.905480 -25.987406
1.130486 -7.938754 -20.272564
-7.369465 -5.598320 5.535208
-0.723400 -12.491064 -29.194899
0.152054 -5.619582 -17.992065
-2.599458 -9.158859 -1.271579
2.921997 -8.782780 4.568827
6.230554 -4.419175 8.064236
5.786213 -2.370126 -11.764549
4.339353 -3.899052 -13.544272
-11.816310 -4.923903 -25.367363
6.658988 -3.022889 -19.300056
-5.209905 -7.087477 -20.796736
2.701735 -6.309909 -10.487040
13.583397 -3.608453 -33.867455
2.483963 -10.681096 -7.540715
-0.368884 -8.172065 7.668522
-7.639090 -5.476981 3.398767
-15.214284 -3.568207 -32.887524
-10.072807 -0.696625 -2.973731
6.385159 -10.066023 -27.662058
2.836908 -7.001233 7.854576
6.816710 -0.309798 -6.824670
5.644819 -9.110981 -6.556131
7.512634 -4.211613 -21.485893
-9.039420 -1.203711 2.945662
-6.077385 -6.495159 4.180735
3.936932 -12.502690 -31.120708
3.873104 -10.802227 -25.384205
-10.187029 -7.446344 -25.527184
6.901826 -3.079562 6.504841
7.919813 -8.343947 -26.466637
-1.661469 -13.321699 -32.207069
-8.798240 -5.061460 -4.609749
-1.010694 -11.501263 -25.615040
10.138259 -5.197701 -26.106510
-4.873973 -5.498872 -14.880556
-5.369215 -6.246833 -19.049381
-12.085569 -2.579224 -23.822271
-11.029066 -8.537627 -28.813545
2.268854 -10.721642 -6.467623
-8.348067 -4.303989 -19.070738
9.378996 -8.276994 -29.294760
-9.155209 -3.151794 -1.707937
-12.068092 -9.189661 -32.868958
-2.986144 -6.693477 -10.401537
-5.964848 -8.125247 -22.783474
-6.187478 -7.724034 -1.680016
-9.542856 -10.836588 -33.547165
6.594690 -4.013987 6.898170
-4.467813 -10.604431 -25.611320
1.667472 -6.223157 -11.368954
-9.781180 -10.065910 -31.572042
5.473651 -6.212586 6.580090
6.678183 -4.597263 -20.518055
4.539475 -7.308863 -21.452553
6.653749 -1.329409 5.551100
7.191871 -3.017073 5.468788
2.275863 -12.031397 -28.173580
13.486452 -2.823738 -33.058071
3.659519 -10.607130 -0.842000
6.297717 -0.168569 -8.659188
1.931346 -13.830963 -33.488293
-10.378164 -4.739356 -21.771040
6.220983 -1.173780 -10.167172
-4.881069 -7.105597 4.320055
12.441806 -6.328206 -33.429222
-6.978618 -3.182458 6.207808
7.527119 -5.557769 3.761998
3.959033 -9.053852 -22.954607
1.943920 -5.122962 -18.015451
3.167858 -10.198351 1.366886
6.881098 -6.645762 -2.470629
5.982830 -1.210075 -13.882818
8.918314 -1.138391 -21.456463
-6.816866 -5.364413 6.858063
4.491542 -12.963871 -32.866463
-8.157131 -2.073624 -7.732142
-12.573195 -7.430744 -30.740389
-9.157211 -5.596527 -21.359344
9.793039 -10.124681 -33.741726
7.670642 -2.882252 -20.471783
-6.790318 -11.550493 -31.822447
7.126764 -4.916956 5.532495
-4.542441 -11.597366 -28.755934
11.049374 -5.561979 -28.721241
-9.386504 -9.989861 -30.616249
-4.009609 -11.151063 -27.327423
1.395704 -10.213783 -1.336986
1.867076 -5.380587 -14.237943
-3.971359 -12.719691 -31.596018
-7.281711 -7.258550 -3.252009
6.442665 -9.457899 -25.792995
-3.569630 -9.081474 -3.108579
-0.861557 -8.229362 -20.664310
-4.681646 -7.769149 1.521305
8.079633 -3.413254 -0.929258
11.844995 -4.952878 -30.302225
-2.561732 -8.896939 2.873225
-7.734462 -2.511692 -9.810173
6.311389 -7.841354 -4.195598
-2.104770 -7.772798 7.038218
-6.203983 -7.769676 -2.689140
8.683355 -2.809324 -22.211330
5.134561 -9.697447 -7.147859
6.908192 -7.698254 -7.132237
-0.016735 -10.320786 -3.811870
12.851555 -4.760439 -32.811531
-9.529169 -1.038912 -1.045831
2.855724 -10.243860 -5.856682
-6.552182 -7.616719 -4.598128
-2.113100 -7.146568 -19.515017
6.076039 -10.542777 -28.449503
-1.453648 -9.198672 -0.857523
2.660734 -12.545337 -30.268070
7.086042 -0.658503 1.955685
11.885983 -6.353276 -32.390236
-3.463336 -7.885472 5.640539
7.856562 -0.578734 -5.121819
7.693512 -0.277436 -3.107527
7.288459 -6.832761 -3.848578
-5.135024 -5.461299 -15.969481
1.018452 -13.334604 -31.912292
7.363584 -5.193042 -1.591466
-0.878245 -5.507098 -15.402440
13.969072 -0.553721 -33.079807
13.072721 -0.226577 -30.127800
-5.325616 -11.811003 -30.560762
7.113300 -9.438666 -27.654442
2.130471 -9.148656 4.143505
8.026852 -1.241208 -4.411836
5.136258 -10.055971 -24.269699
10.001977 -5.639433 -25.267757
-5.121466 -12.326643 -31.804186
12.314003 -1.618075 -28.776197
6.951478 -6.392020 4.202341
0.927897 -5.815072 -13.144976
4.430686 -7.691951 1.947734
-7.259341 -3.314749 -14.700042
1.908952 -6.015045 -12.410858
2.705250 -13.240656 -32.185165
-4.055058 -8.395274 -22.438475
-12.272849 -8.262148 -31.477865
-11.809781 -6.199738 -26.456657
-3.884423 -8.762690 -6.338277
10.917168 -0.224400 -23.716103
1.510135 -11.270569 -24.642254
-4.778287 -5.613357 -12.920002
-9.712766 -1.543098 -2.535581
6.373608 -8.469711 -7.555127
3.251230 -10.627064 -23.935837
9.288259 -6.519298 -25.919172
6.603136 -7.562849 -5.580412
-7.816025 -3.771988 2.419087
-12.500977 -5.552111 -27.527401
6.148624 -12.771338 -34.026665
2.590164 -7.786333 6.437666
4.447180 -9.511876 -2.989108
-9.072751 -3.307337 -4.715150
5.667773 -7.949261 -1.568035
-6.365311 -11.150612 -30.052231
-3.832743 -8.128345 1.696041
-11.449287 -8.152997 -29.558142
9.269408 -5.296727 -23.540733
8.328754 -0.145056 -20.073675
-4.486829 -6.062230 -9.242494
-3.039767 -12.046928 -28.623652
5.378219 -2.621336 -12.936095
-7.589835 -2.844235 -11.804785
-7.496074 -2.205638 -13.638680
0.309709 -9.292843 5.169958
1.089440 -9.204715 0.290655
1.239753 -7.572962 8.241045
3.557407 -4.382003 -13.979003
-5.863945 -6.404860 -19.875029
7.625679 -4.034224 0.802956
3.580276 -11.109968 -26.797451
5.384295 -7.658476 4.901443
-13.165261 -7.588754 -32.636261
-0.393828 -7.684367 9.150826
9.509666 -1.107687 -22.594700
-0.187272 -8.598133 6.593193
5.924975 -6.046538 2.214550
-9.277518 -8.258546 -26.018711
-8.944832 -3.079369 1.338492
4.344745 -6.936839 -20.585211
-12.384249 -6.827242 -28.848629
-7.963387 -1.463405 -14.513418
-8.109761 -6.833009 -5.317497
7.485447 -0.588229 -1.358085
-8.079224 -6.452345 0.847695
7.039933 -11.757461 -32.914734
8.266432 -10.626144 -32.213573
-4.806838 -7.569097 -21.846184
-2.733211 -6.239325 -11.479857
-5.352299 -6.106608 7.290941
0.187496 -14.070284 -33.680004
11.662812 -3.959634 -28.889763
4.088566 -3.056710 -17.163807
-6.070955 -4.962337 -17.793312
-0.105257 -8.747386 1.143193
-4.034976 -8.296049 3.381342
-11.741903 -3.982084 -25.063749
-4.134526 -8.844949 -5.444761
-5.670129 -7.976170 -0.075645
8.093290 -5.019260 -6.342487
-9.868224 -2.681176 -3.940691
5.991687 -11.758429 -31.303139
1.028278 -10.466856 -5.546404
7.225628 -2.315877 3.827379
-7.264463 -6.957270 0.098300
-1.848978 -9.800985 -2.822561
9.966185 -7.080592 -28.479782
11.282483 -7.964077 -33.305637
-8.179472 -6.558909 -21.591721
-5.349215 -10.252720 -25.468607
-7.739948 -2.759014 5.963182
3.455588 -11.935490 -29.064672
-8.055668 -1.637190 -16.635118
6.374417 -6.688418 -1.322843
4.328944 -9.380572 -5.046212
-9.420294 -1.778315 1.680902
-15.691442 -1.850201 -31.255320
4.744199 -7.644939 3.160393
-0.336564 -8.576735 -21.349304
-2.699121 -9.367224 -2.343487
-4.524666 -8.914834 -23.132303
-8.140929 -5.307264 -20.222933
0.100265 -5.482970 -17.104076
-0.868646 -11.077164 -7.816483
6.652139 -0.969072 4.727560
2.858033 -10.322040 -4.947597
7.451305 -10.740778 -31.095488
-7.570316 -6.561722 1.787249
8.187434 -3.932850 3.797771
-14.142397 -5.806809 -32.660522
-2.137578 -7.258216 8.614597
5.620768 -3.175656 -11.116984
-1.131442 -9.351804 2.483741
7.606085 -8.264926 -24.467636
7.960578 -4.930135 -4.518405
-6.230353 -10.815714 -29.228577
-3.026314 -9.541307 -6.554828
7.807190 -9.238120 -28.179939
-4.966901 -5.553469 -17.993916
11.327147 -1.985048 -24.436384
5.264445 -5.075716 -19.479982
-5.407881 -12.449427 -32.680443
-8.176143 -2.531442 -18.068308
-8.668947 -11.239204 -33.986343
3.981234 -6.916468 7.231117
5.036316 -3.495197 -13.061541
-8.587274 -1.356220 5.473080
-4.162952 -8.603831 -0.290462
-3.307589 -7.658394 -20.784832
-14.271525 -4.066135 -32.634285
3.735535 -13.436780 -33.236847
-7.996521 -1.665112 -12.430298
-6.494286 -5.218233 -10.659918
-4.799716 -6.441695 9.356342
2.587433 -5.208155 -13.648781
-4.809772 -10.798647 -27.066692
5.588439 -6.873461 -21.890669
3.627563 -8.385674 2.068122
-8.907372 -1.396979 4.115171
-12.433430 -4.452642 -26.655056
-7.976551 -1.029111 -9.536853
-10.064113 -3.771073 -21.413300
3.882319 -6.508591 9.431946
-2.590860 -13.896463 -33.892670
-4.192699 -5.481223 -13.773187
-1.152262 -9.831717 -2.289983
7.552889 -2.530425 1.883027
11.009892 -6.372351 -29.795992
-1.983841 -11.172943 -24.640827
-6.496187 -6.917000 -21.198383
-8.826494 -4.923232 -20.826506
-4.236778 -5.969615 -12.106913
-7.405897 -3.213312 -10.891167
-0.840180 -6.285704 -12.814443
5.090787 -11.359734 -29.161625
-6.076910 -6.386980 5.471117
-2.990674 -5.859095 -13.091255
-11.052919 -7.557467 -26.792915
-7.791054 -10.329750 -29.870667
-6.076208 -5.632812 -9.816071
2.410180 -8.761277 2.811651
-0.118106 -7.601954 -19.940371
-7.760004 -6.678148 -1.794367
2.179949 -6.994072 -19.651440
2.306934 -5.023625 -15.041892
2.226181 -8.778382 -22.018852
12.818786 -5.358313 -33.454391
3.266243 -4.400802 -15.116558
4.906572 -9.083402 -3.673264
8.094655 -10.003864 -30.499712
-6.555418 -7.078399 1.453373
4.034838 -4.324586 -18.122749
3.399580 -5.542019 -11.235666
6.811805 -5.259561 0.191215
-8.442026 -10.288444 -30.463703
10.109592 -8.764539 -32.172485
-7.719731 -11.114487 -32.978065
-12.824393 -3.323248 -26.186565
-5.464171 -8.142780 -1.257889
1.345833 -7.263777 -19.767498
6.522104 -10.895796 -30.170265
-2.671024 -12.519226 -30.004160
0.388255 -11.126366 -24.147179
-8.503764 -6.488175 -3.309126
-3.228765 -6.746451 8.844984
-9.991535 -2.403688 -5.601422
3.693798 -8.437528 3.483677
4.509911 -5.153041 -10.279400
-1.835576 -6.431682 -11.800942
2.488399 -8.336367 5.591490
-3.579157 -8.475895 2.677920
0.847902 -7.154118 9.517183
-7.404798 -6.178365 2.918993
2.153283 -11.337543 -26.281757
4.692580 -6.043565 8.189075
3.674285 -10.061007 -6.076941
10.201305 -4.600085 -24.394556
8.017697 -3.833881 -2.566060
-3.223886 -8.640820 0.025533
-7.021499 -11.048834 -31.065836
5.826081 -8.625487 -5.791614
-5.963174 -5.659304 -11.623590
2.883845 -13.438018 -33.072083
7.974152 -1.907042 -1.806644
11.478523 -4.725282 -29.308418
-1.694512 -8.246222 -20.827244
-9.545340 -7.230375 -24.619064
-5.665549 -8.753838 -23.376301
1.629346 -5.118205 -16.670025
-2.619213 -5.349070 -14.665895
2.408406 -11.310823 -25.377008
-0.338509 -10.088877 -23.194948
4.122835 -3.340910 -15.366139
-10.432001 -8.615718 -28.154232
-2.097259 -8.510916 -21.565968
2.876912 -7.823099 -20.827900
-14.733085 -3.194909 -29.860283
8.051040 -3.384691 -6.554590
-10.758153 -6.551314 -25.324308
-4.146060 -5.398339 -18.107018
-4.561171 -7.086052 5.341217
6.138379 -8.280921 -3.174002
9.511359 -2.181534 -22.890257
-8.079417 -0.678508 -13.276417
3.584529 -7.903614 -21.578518
3.604695 -7.404871 6.067059
-10.337521 -10.346069 -33.062614
-7.067083 -4.185794 -9.706898
2.982069 -4.359687 -17.523609
-0.049516 -9.559284 -0.391312
-4.303566 -8.662840 -3.552444
12.339650 -0.861894 -28.327538
-7.687849 -4.557819 3.877493
10.889058 -5.133961 -27.873898
-4.000341 -12.300163 -30.282263
-5.021655 -5.899256 -9.986615
-7.652612 -2.958611 7.744072
1.418117 -10.237395 -23.313541
-12.803786 -1.503841 -24.427849
1.174036 -10.152542 -2.769214
1.217645 -7.881870 7.232925
5.389432 -13.104076 -33.920334
-2.314951 -8.250630 5.539190
-7.048547 -4.457144 -11.172805
-9.008535 -2.719372 -20.211988
-0.680221 -7.860789 8.377110
-2.378453 -9.884136 -5.483531
-1.512485 -13.991602 -33.877869
6.052403 -4.317051 -18.972294
-4.467591 -10.134592 -24.015106
-1.856345 -6.666247 -10.057945
8.147844 -2.182441 -4.703673
-6.794759 -7.174589 -1.366040
2.933142 -10.300301 -2.843172
1.638277 -12.353291 -29.163546
3.459815 -12.321140 -30.307838
-13.349775 -6.875162 -31.672506
-7.341332 -7.316330 -4.451865
7.802639 -3.495884 -21.159565
3.025553 -8.614526 -22.223879
0.490542 -8.606775 -21.379864
0.736760 -10.965364 -7.225016
2.263725 -7.130978 8.572598
-7.970679 -1.498399 -8.297455
-5.849775 -6.581546 2.879020
10.956695 -7.771309 -32.163414
-9.922763 -2.716221 -21.055130
-13.276299 -2.064575 -25.100410
-9.794866 -0.866124 -4.799589
6.861722 -11.464067 -31.874130
-9.506852 -1.381773 -19.708426
6.209133 -3.745988 8.592117
-13.536285 -3.500395 -27.778934
-1.247430 -5.639882 -14.105719
11.121057 -4.356688 -27.603088
0.903262 -6.911367 -10.127816
11.399638 -5.845624 -30.400885
-7.535595 -2.719636 -8.984261
-5.429000 -8.190990 -2.933460
-1.139373 -9.078523 5.528624
11.885093 -1.640037 -27.404013
7.427152 -5.370405 -2.387610
7.156460 -10.257313 -29.268429
-7.290009 -9.590689 -27.435314
9.899150 -3.682621 -23.529961
-8.458693 -2.648783 3.615649
-3.372972 -5.847084 -12.236010
-15.179372 -3.009651 -30.701206
-3.641051 -5.015750 -17.338644
5.354530 -7.871196 -0.605829
-7.634150 -3.801322 3.243405
6.227598 -6.900247 -22.394699
-1.956057 -8.757160 2.348753
-8.173604 -4.086319 0.083999
3.656253 -10.052947 -3.535792
-8.755415 -10.653451 -32.113651
-0.282432 -13.202501 -31.022520
5.364654 -7.218804 3.461860
-1.451768 -7.088083 -18.928978
-9.534044 -2.007675 -0.850843
9.981074 -7.512558 -29.418348
8.015396 -3.043319 0.483427
0.365174 -9.673940 -1.346880
-12.150169 -6.895732 -28.079058
7.299242 -0.196711 0.312130
1.291435 -10.261448 -4.556108
7.077493 -3.262988 -19.946625
11.450428 -6.560682 -31.288404
-9.815502 -1.721574 -4.274387
-9.139579 -4.019674 -20.730141
-15.411444 -3.077053 -31.727814
0.930939 -9.484621 3.654211
5.350452 -8.638266 -1.847858
5.586268 -5.797687 0.935652
3.115067 -11.042328 -25.046576
1.981473 -9.685796 -22.967596
-1.808351 -8.854731 0.574955
5.379009 -7.117617 0.926592
0.271125 -5.989963 -13.817225
-12.308202 -2.927336 -24.675373
-2.128184 -5.317362 -15.467966
-8.349248 -6.639687 -4.539121
5.468319 -12.337950 -32.445488
10.919257 -8.698122 -33.605854
8.592296 -2.021984 -21.592167
-7.288731 -5.821030 4.116310
7.105534 -5.590093 -0.890830
-3.210757 -9.362478 -3.792273
-8.641607 -4.450445 -2.468954
7.333784 -4.593820 0.240987
-3.791263 -11.817717 -28.964020
-7.409266 -3.010380 -7.415267
-6.725983 -9.355257 -24.503872
8.754614 -4.877893 -23.062534
4.561094 -9.014524 1.175486
-2.482512 -7.604802 -20.207962
-1.270960 -9.093618 -22.233704
-7.241791 -3.458269 -8.798567
-2.468869 -8.763430 1.550328
5.732234 -5.798141 -20.503721
4.419423 -8.171626 3.654832
-0.916387 -8.633966 6.282732
5.056201 -1.659184 -17.102371
9.331842 -6.718700 -26.723862
13.783740 -1.233310 -32.721962
2.003882 -10.854248 -23.999565
-1.675785 -10.880775 -23.976185
-0.870664 -8.906430 1.247420
-8.528077 -3.634217 -1.475143
-11.626184 -6.887505 -26.980526
6.249447 -6.616224 -0.437985
6.247365 -7.561088 -2.746762
-10.294456 -8.358155 -27.054371
-0.961128 -5.364529 -16.310167
-8.397125 -2.679160 5.162111
-15.729812 -2.227137 -31.943630
-8.588966 -8.234711 -25.229954
10.188187 -2.962967 -23.651573
6.868865 -2.082422 -19.174503
-8.385756 -4.882739 0.562977
-2.655293 -11.282891 -25.991407
-6.785034 -10.276600 -28.737158
-2.488342 -13.391033 -32.652596
-5.673361 -8.260012 -4.210650
6.683961 -0.860668 3.485644
8.110307 -4.154313 -4.783478
-8.268542 -6.283761 -0.774963
-8.723753 -3.991565 -4.241151
-12.849526 -3.806026 -27.533489
7.923591 -1.817361 -20.214052
6.641598 -9.215069 -25.070044
4.448191 -7.969248 4.656364
-7.334610 -8.730878 -23.737614
-5.462153 -11.095439 -28.483727
-2.185377 -5.785466 -13.194942
2.524601 -7.431173 7.138657
6.402084 -12.254427 -33.115723
7.330688 -4.399603 1.617492
-12.365233 -1.831583 -23.754200
10.857788 -7.338096 -31.016724
8.075230 -4.240016 -3.238747
-0.174012 -6.691891 -11.283154
12.680498 -3.630240 -31.655376
10.187147 -9.141884 -33.025780
-5.628233 -11.970501 -31.254971
-3.679067 -6.118643 -10.715725
5.886913 -4.309257 9.018272
-1.693941 -10.448202 -6.803420
-12.976886 -6.774035 -30.021002
-10.427103 -10.018833 -32.197823
4.985371 -11.818794 -29.869547
-2.581136 -5.152972 -16.138239
2.716507 -4.533000 -16.543468
-14.849187 -2.071655 -29.400618
4.534451 -9.944641 -23.798979
5.385874 -8.844878 -2.834823
6.347952 -0.817401 -11.364919
9.064986 -8.825059 -29.760778
12.932260 -1.016256 -30.007891
-1.297955 -5.504384 -17.922905
-1.149763 -9.702272 -1.529478
8.047613 -4.163819 -6.129654
4.148107 -10.032009 0.407239
0.691995 -12.831841 -30.327177
4.795154 -5.172369 -18.557104
6.050992 -11.333755 -30.592293
11.855372 -7.784131 -33.786278
12.222695 -4.826154 -30.959570
-10.742143 -2.486653 -21.167006
7.565506 -0.974181 -0.403116
-3.346673 -10.850990 -24.647560
7.639820 -6.153434 -3.780580
-8.113976 -0.715768 -11.125484
-11.436699 -4.081035 -24.319172
-7.163798 -7.199279 -21.837870
-6.707111 -9.976153 -27.751472
-13.636092 -6.182495 -31.834774
-10.220422 -10.919518 -34.376175
5.622912 -6.246779 5.799950
1.808495 -8.133471 -20.798111
7.663716 -4.088540 -0.658463
-1.020719 -12.898020 -30.621782
4.588538 -8.076985 -22.362225
-9.587564 -8.497873 -26.687195
-3.289503 -8.452806 1.259809
4.954304 -8.324024 0.391954
-6.626915 -4.460260 -15.514433
-3.143409 -8.156118 -21.377129
5.713665 -8.776011 -23.396536
2.317920 -13.047354 -31.502239
5.754304 -0.740959 -18.046370
8.995296 -6.947318 -24.669395
-5.330194 -5.870723 -11.251472
-6.986839 -3.985689 -14.270467
1.250051 -11.400251 -26.272549
-6.285722 -4.794933 -17.026360
7.583999 -6.358273 -22.988102
0.103171 -7.024654 -18.887253
1.649711 -9.862222 -1.962130
-7.384708 -3.169264 4.528795
5.294082 -10.302515 -26.542168
-11.000763 -3.512893 -21.979347
7.698151 -1.770734 0.921681
-2.260073 -5.147267 -16.874281
5.128562 -2.464464 -14.467348
0.930471 -12.016613 -27.783401
0.939906 -8.915210 -21.973448
-4.074701 -13.395195 -33.314392
0.595630 -8.699434 0.858340
7.826056 -5.558247 -5.208609
-5.865317 -4.874797 -16.090424
9.383732 -5.959441 -24.209526
-2.809973 -5.144371 -17.668736
7.984447 -2.052563 -5.907400
-8.644295 -5.996219 -2.751009
7.811236 -3.064593 3.574768
14.185721 -1.813381 -34.156239
-6.273158 -7.623613 -5.339278
1.075015 -8.481485 6.415319
13.229828 -0.292570 -31.101933
-2.825613 -7.642112 7.219545
5.650187 -8.551287 -4.569753
10.664030 -1.647940 -23.623669
-8.439933 -5.603932 -0.469316
6.761857 -5.245355 1.441868
-0.767356 -9.369224 -0.264158
-0.099848 -11.617817 -25.561596
-7.003504 -5.677345 -18.805088
-10.482189 -9.276043 -30.187456
-13.224576 -5.243174 -29.462606
5.026248 -2.183898 -15.174616
-4.771061 -5.955353 7.833223
3.528792 -8.194090 4.992254
6.256673 -0.970948 -9.396829
-9.625918 -2.568376 -1.580087
4.950068 -6.592774 6.138866
10.613070 -7.029562 -30.089554
0.517374 -7.848783 7.625883
-4.172664 -9.512922 -23.450790
-10.659548 -1.568001 -20.624062
-8.851527 -5.134831 -3.290391
1.180179 -13.691154 -33.007603
-6.541829 -5.224529 -12.284459
4.043230 -11.488849 -28.109688
-0.617947 -7.414415 10.144596
0.369520 -10.580126 -23.565935
-12.880594 -5.137516 -28.022144
5.900743 -5.117725 8.029594
-0.723475 -5.980418 -13.579123
-3.399958 -5.446662 -13.562894
4.853815 -2.219867 -17.838608
-9.148827 -1.730230 -18.954706
-7.342962 -6.136858 -20.742884
-13.085934 -8.275608 -33.391872
-2.007214 -8.079701 6.343567
-4.863148 -5.428244 -16.701096
-15.318569 -1.817267 -30.393406
13.016293 -1.676058 -30.918371
-9.356709 -2.722785 0.360527
-11.419015 -10.308921 -34.080002
5.146089 -5.536478 8.781347
10.048770 -8.393759 -31.154787
-11.700215 -9.778516 -33.156742
-2.015079 -5.496770 -14.183179
-8.166624 -9.824463 -28.289938
-8.353040 -7.978336 -23.528959
-8.124699 -10.653164 -31.319530
-2.890760 -13.584682 -33.248192
2.922602 -9.927004 -23.376633
-14.244379 -0.844005 -27.670221
-3.840391 -5.173820 -16.639307
6.595851 -5.464564 5.507339
-13.633983 -3.053281 -26.457115
-11.662255 -3.388357 -23.660990
-2.830326 -9.024988 -22.601612
6.199801 -1.747230 7.087402
-8.063056 -6.086795 1.492369
5.822022 -4.568302 -19.643845
-0.176810 -13.807505 -33.091454
-11.322198 -7.867620 -28.147619
7.168996 -6.818122 -5.490169
-4.684400 -6.900643 6.314686
6.565272 -3.012768 -18.311544
-7.841898 -2.290732 -8.363208
4.639054 -6.389601 -20.177219
-4.937753 -7.405019 3.037354
5.804052 -11.060036 -29.261385
-8.949373 -1.895809 2.687208
-0.743522 -12.695440 -29.931625
-7.990686 -4.811699 5.666489
11.485744 -1.223063 -24.554119
-2.650621 -9.708263 -4.131277
-5.866565 -6.747143 -20.526039
-13.810339 -4.727234 -31.750483
-6.324496 -5.740555 -8.282608
-9.757445 -8.907489 -28.166265
1.565130 -10.721809 -6.256143
-4.048009 -6.244131 -19.120125
5.831933 -5.638132 6.917389
-0.889781 -10.335850 -3.769386
-1.788160 -6.956223 9.185270
-9.040954 -9.137136 -27.341606
3.836948 -10.300467 -7.226359
-3.600780 -7.521722 6.431774
4.371178 -2.896077 -16.473167
4.486036 -9.566435 -5.891779
-3.590532 -8.289989 4.905069
7.422946 -0.923001 1.030787
-7.223433 -8.129307 -22.649681
-5.860013 -9.658686 -24.356619
5.769057 -7.112010 4.603348
-5.181893 -8.183521 -5.404505
-7.143031 -11.521399 -32.462730
4.650102 -12.322526 -31.140440
-8.270877 -9.308475 -27.020916
-5.565759 -7.781585 -22.277473
-5.054989 -12.804010 -33.211174
10.035597 -6.409664 -27.520147
-13.657214 -3.994373 -30.559494
10.724212 -6.198451 -28.863619
7.545501 -6.156865 -7.327017
8.872888 -3.438878 -22.654465
7.279166 -1.939997 2.419257
7.407764 -3.854702 2.408708
-9.422368 -1.404083 -0.419387
0.966706 -11.308561 -25.217777
2.105730 -12.837191 -30.729017
8.244977 -4.652581 4.011837
3.283387 -8.497705 2.890645
-4.189288 -6.385573 8.825287
8.840555 -8.326231 -28.076740
-7.909322 -6.850554 -3.112902
-0.283509 -11.351112 -24.524120
-1.441963 -10.195616 -4.855554
0.639211 -7.307742 8.842905
-1.443932 -12.518625 -29.152096
8.448912 -0.689439 -20.648354
11.812345 -3.315987 -28.599073
13.259464 -2.378325 -31.917948
-5.084389 -5.932744 -8.556826
6.403747 -1.231330 6.580276
-1.518248 -6.171531 -12.599771
1.765502 -9.693026 0.711879
1.266603 -9.664936 -22.842617
6.763477 -6.193422 -22.234270
3.771441 -3.960096 -15.467241
4.114069 -4.796198 -12.470877
0.906254 -8.274275 -20.897636
-8.560464 -5.146744 -1.428333
-9.514124 -6.238822 -21.802521
10.430329 -0.847008 -23.366856
-3.830110 -6.808071 6.690723
-8.855126 -3.758040 -19.968304
-9.887097 -2.533976 -3.170805
10.025286 -2.324069 -23.369600
6.099412 -8.932728 -7.079234
-13.630727 -7.116231 -32.960663
3.882829 -3.686301 -17.838142
12.976497 -6.600163 -34.295090
-7.885620 -5.032910 2.500653
1.571624 -8.888545 5.789928
-11.829586 -8.517673 -30.980490
-2.323635 -10.468493 -23.605869
2.685905 -4.895750 -18.128723
8.089004 -2.885659 -0.335185
5.616689 -1.279053 -15.593630
8.071454 -5.508563 -22.852802
7.808554 -1.005477 -5.727368
-6.964474 -9.388849 -26.451359
12.180190 -5.184030 -31.754276
7.831205 -3.228815 1.144122
-3.678760 -9.248125 -5.078241
11.316430 -7.487772 -32.779884
-4.546823 -7.274861 -21.039845
-3.633176 -5.273434 -15.387186
-7.475267 -3.072821 -10.197664
-4.610760 -8.441088 0.234911
6.335934 -0.492171 -10.325420
-14.259336 -2.253021 -27.422058
-5.431279 -6.672302 4.428898
-2.269705 -8.859949 5.137402
1.390888 -8.518739 1.595271
-8.149636 -1.227972 -15.802211
-2.079479 -13.151159 -31.535618
0.961721 -5.493825 -18.063339
0.394225 -8.646120 6.179062
3.199734 -12.885759 -31.825596
4.111778 -6.297824 8.684359
-1.401239 -9.075832 -0.158352
-0.755991 -10.608772 -6.032382
-2.671599 -6.770700 -18.863682
5.894462 -5.760908 1.570021
-12.232073 -4.744212 -25.983507
5.109720 -1.895301 -15.812866
7.673654 -4.663694 -22.002911
-7.906196 -2.132695 -11.712268
-12.020416 -7.737761 -29.510031
-8.527187 -6.122199 -2.051435
-12.249366 -5.850760 -26.893448
-4.721175 -6.518144 -19.105282
7.468691 -0.759939 -19.849648
-13.336120 -4.638866 -29.831926
-5.593477 -5.206797 -14.582283
3.791086 -10.916592 -26.154297
-5.863772 -8.122485 -3.547206
-0.955275 -10.353352 -23.405724
9.095820 -7.462201 -27.352654
-13.504300 -5.733652 -30.871962
7.322865 -3.384471 4.883602
5.674736 -10.613105 -27.872036
5.019998 -6.457363 2.170829
7.974607 -9.797323 -29.684425
-8.369367 -4.480529 -0.793201
-3.809532 -10.819469 -25.725803
3.002956 -5.539850 -12.157589
-12.450280 -3.753267 -26.603252
-4.376658 -10.903566 -26.525795
-2.768084 -8.997202 -0.597844
1.964643 -7.830185 6.944170
7.683549 -3.011085 2.442509
7.020569 -7.350121 -23.242140
-3.665785 -8.877855 -1.461111
-14.815310 -2.790010 -29.295361
-8.304822 -3.524166 1.117376
8.241246 -3.295464 -4.048660
11.527932 -3.937572 -28.156111
0.458909 -12.286114 -28.399317
7.462094 -6.481698 -6.552447
-0.316117 -10.468487 -5.038141
6.716989 -2.146519 5.792906
9.664799 -5.861340 -25.837473
-8.260546 -5.385245 1.751008
0.301835 -13.291115 -31.928495
-3.451577 -7.110633 7.875172
-9.387616 -2.724631 5.980719
-5.817353 -7.789843 0.708257
7.214537 -5.112638 1.983558
5.604132 -0.807356 -16.427204
6.054885 -0.136633 -14.895687
7.243545 -6.039421 -2.340187
-5.451068 -5.499954 -13.237198
-1.566658 -5.180244 -16.899601
-1.893857 -11.748716 -27.422075
3.513917 -3.915369 -16.453522
-7.050923 -4.544293 -8.177955
5.830996 -6.139435 -21.156853
-1.032348 -7.523852 9.502056
-3.124572 -8.750183 4.498489
-3.185143 -5.335635 -14.235920
0.138701 -8.653330 1.857221
-13.908751 -3.104059 -27.280146
-5.314654 -7.779461 1.921543
5.094316 -9.677982 -7.838080
-7.116461 -4.109799 -12.948477
6.028644 -1.133004 -12.762010
-0.106564 -10.831622 -6.407493
-7.811252 -2.178925 -17.569275
-14.801164 -1.449323 -28.996691
-3.149431 -10.417950 -23.841656
-7.508481 -2.266268 -16.352978
2.201844 -6.097938 -10.951700
12.247614 -6.978687 -33.652763
4.645567 -12.082088 -30.494480
0.615100 -6.072839 -12.587511
8.170207 -2.861196 -2.649361
0.605064 -9.291942 -22.442142
5.710246 -8.135726 -23.051727
-9.174690 -0.593413 2.658212
-0.288553 -5.552219 -15.006077
6.795118 -3.048498 7.189697
4.830770 -4.302187 -10.701816
-7.012679 -4.057709 -16.813557
-4.102783 -7.879831 4.073353
1.538465 -10.509288 -3.228482
-5.701155 -11.484776 -30.088209
-10.075905 -1.528519 -20.148859
-12.846011 -4.338546 -28.404875
3.896504 -5.132634 -10.944158
-6.866058 -4.922742 -9.199168
0.877199 -6.970021 -18.969439
-6.092153 -12.240410 -32.873055
-4.611632 -5.918224 -11.506281
-9.306859 -3.198329 -2.916237
-10.953474 -10.143204 -33.423592
5.865513 -0.863698 -14.469677
-14.174080 -3.725382 -31.599199
-8.073642 -0.706290 -7.984840
-8.804351 -2.325595 4.295740
-8.757625 -3.979932 -3.130552
6.616111 -9.564295 -27.136934
0.764584 -11.681751 -26.739323
7.809067 -5.672886 -6.010617
-11.326049 -5.443922 -24.999866
-2.619436 -9.294608 3.451751
-11.235711 -6.475882 -25.874624
-3.276968 -12.756368 -31.397085
7.382308 -5.045527 4.702478
-5.911929 -7.892838 -0.726207
-2.919530 -9.789482 -5.887018
-4.103661 -8.716225 -2.101688
-5.784131 -5.461019 -12.345974
-7.512102 -7.097286 -2.617153
-3.044418 -11.551940 -27.338482
3.193407 -11.439205 -27.349567
7.171946 -6.770931 -3.180992
-13.743134 -3.499888 -28.702332
-8.557730 -7.153178 -22.285191
4.224717 -12.600233 -31.729286
-14.079490 -3.558389 -29.629793
6.617465 -5.731003 -21.643227
6.959528 -8.427700 -23.910772
2.138219 -12.520824 -29.834003
5.641123 -12.073137 -31.793081
4.573501 -10.763893 -27.045046
4.341430 -6.073791 -19.533508
-1.487503 -9.829121 -22.941391
0.549140 -7.734576 -19.987610
-8.054694 -4.069558 1.542527
12.091498 -4.345850 -30.499224
7.075668 -1.951926 3.271281
4.263353 -9.364579 0.418669
9.591870 -8.262036 -30.015265
-6.705191 -6.046206 5.537790
-7.557211 -2.175964 -15.261581
5.975698 -1.707831 -11.884234
5.670275 -7.113634 0.047638
11.675392 -2.699713 -27.782322
7.715924 -8.391960 -25.139626
2.863360 -11.963244 -28.740278
-13.735037 -1.094340 -25.750059
-8.618689 -2.882859 -18.928614
-3.918959 -7.471220 5.365904
6.916416 -2.006101 4.379633
-9.747308 -7.948658 -25.619122
7.683189 -1.159741 -1.655315
4.059223 -9.758522 -4.558019
-9.586238 -2.306185 -20.199747
1.678937 -11.934612 -27.877581
-1.008358 -10.967794 -23.981800
-0.594200 -9.011531 -22.057369
1.118518 -5.557539 -14.785119
-0.909169 -5.737995 -14.695006
8.513306 -7.076575 -24.062645
7.829579 -1.563921 -0.142959
-5.435341 -5.159459 -17.702969
-9.455525 -9.497967 -29.270832
7.045694 -4.698069 -21.200653
3.700086 -13.552183 -33.897137
-6.941975 -4.658216 -10.541487
-7.729837 -5.169489 5.140787
-7.028014 -12.024441 -33.682663
-8.278846 -8.948075 -26.373957
-8.811214 -3.179980 -0.275565
-7.306480 -5.609036 -19.453625
-6.510828 -4.758616 -13.039145
10.566479 -8.293645 -32.012619
-7.548240 -9.000162 -25.860300
4.276678 -4.691902 -11.725692
-1.963744 -9.432548 -1.220848
5.922056 -10.202346 -27.146784
-2.574996 -11.213957 -25.098719
2.187854 -11.713679 -27.442631
7.715818 -5.442455 -3.087869
-1.399652 -6.750402 -10.537271
-8.413804 -5.561122 0.406576
-7.493437 -2.998655 -13.124668
6.146372 -1.519642 7.712311
7.365267 -6.492244 -4.417075
0.954002 -12.479881 -29.035713
12.444131 -2.510043 -29.731997
9.245720 -10.486729 -33.624256
9.169807 -0.909585 -22.029865
5.772256 -7.224580 -1.496944
-8.617552 -2.118957 5.681189
-8.712932 -9.689943 -29.177393
-2.050794 -9.857091 -7.524821
6.743690 -7.346339 -4.086533
9.092378 -10.169895 -32.745598
-8.042187 -4.728293 -19.482986
-1.536996 -13.482008 -32.843620
-6.839905 -10.870865 -30.426373
0.433432 -6.566628 -11.522915
-8.108455 -1.750270 -10.866302
-8.656919 -2.723126 2.680610
5.785679 -2.230295 8.625280
-0.109331 -9.663091 -22.739609
-13.256775 -5.680893 -29.960814
-14.399059 -4.946033 -33.579239
-8.650139 -7.900217 -24.569416
1.681021 -13.357004 -31.912073
4.242157 -7.769699 -21.824631
-4.279383 -11.332556 -27.918163
-4.529229 -8.515415 -4.157471
6.467170 -7.694242 -4.920616
3.317480 -8.671096 4.049992
4.987171 -10.994335 -27.736132
2.364409 -6.996324 9.212109
0.407174 -5.455309 -15.877192
5.840937 -2.526480 -10.932188
4.523925 -3.872563 -12.882463
-10.317896 -9.085331 -29.456408
-8.784579 -5.431636 -5.156474
-6.405527 -5.529461 -18.525927
9.134122 -9.640961 -31.546274
-11.372239 -9.502928 -32.151012
-7.292126 -5.699618 4.888067
2.962673 -8.564226 5.196434
1.246625 -6.577501 -10.927891
3.710105 -10.910013 -24.756161
-14.398873 -2.754364 -28.629406
-13.911046 -1.611522 -26.793713
-6.193183 -11.741880 -31.523691
5.504717 -2.738443 -12.257982
5.108502 -9.480843 -6.472817
3.589571 -7.159963 -20.283710
-1.201603 -11.442148 -26.240210
8.035650 -3.785529 -1.783574
3.239908 -6.403338 -19.972631
11.815455 -6.100492 -31.684950
10.199680 -5.187806 -26.758171
5.865792 -0.135581 -16.965084
2.098589 -6.537905 -18.804396
3.135386 -4.917814 -13.856812
-0.533404 -5.669691 -17.747684
2.737868 -4.653785 -15.406778
0.405313 -10.893093 -7.790996
6.374922 -3.649291 -19.070589
-7.518736 -5.109666 -18.468359
-4.483803 -6.451797 8.146055
1.248586 -12.922508 -30.660244
-7.862171 -6.661380 0.268501
4.391467 -7.517408 2.575339
-6.767825 -6.386086 2.800781
12.351000 -2.242804 -28.961025
-7.389719 -10.140698 -28.940655
-4.574461 -8.179077 0.994807
-10.584912 -7.593561 -26.054436
8.365406 -8.021334 -26.816383
-6.145408 -6.448470 3.444193
5.297959 -6.488662 1.074910
-7.199383 -4.336153 -11.996773
-9.677659 -5.108047 -21.525408
8.165311 -2.472571 -3.173959
4.454875 -3.350713 -14.488876
-8.792830 -5.103961 -3.936514
13.270124 -4.165496 -33.505260
-7.987361 -4.725310 -18.733629
-8.277315 -11.143917 -33.401932
8.432536 -4.288994 -22.595345
-4.399048 -6.264330 -10.266912
-5.884033 -6.384211 4.791307
7.845222 -0.830795 -3.932057
-3.573773 -8.312490 -22.013910
-7.978607 -1.446352 -15.159985
-8.770628 -1.338708 -17.702276
-5.122147 -5.898020 -18.564255
-5.977033 -7.096525 2.189184
5.057114 -7.658340 1.288315
4.452502 -10.077134 -7.229214
7.435336 -4.946886 2.924088
4.920260 -2.073446 -16.586250
-1.346618 -7.974693 -20.322023
7.346588 -8.652040 -26.384903
1.029876 -9.384977 -1.250907
-12.867802 -2.769550 -25.143892
-1.354916 -10.455019 -6.254797
-5.707852 -10.205870 -26.678467
1.201820 -8.995587 5.174677
0.149643 -11.552725 -26.535774
7.165834 -2.735134 4.757055
-3.336323 -9.657201 -23.298248
-6.717025 -7.483464 -3.040805
5.929531 -2.902480 -9.873265
5.698049 -7.295452 -22.398783
-4.693742 -5.455379 -15.496095
-3.360012 -5.127772 -15.950241
6.495158 -8.871447 -23.927406
8.056080 -2.314738 -20.647305
2.256078 -12.199790 -28.808842
-7.122764 -3.202580 6.832466
6.274190 -6.116512 0.316111
-6.138916 -10.271536 -27.779222
-9.086705 -1.916154 -18.133165
-6.687323 -7.200579 -0.040343
-12.911025 -5.546408 -28.993593
-7.896906 -3.722711 -18.146729
4.948314 -3.907744 -11.878764
-7.448714 -2.946595 -16.128931
-2.053466 -11.413078 -26.165096
5.073030 -12.700498 -32.825188
8.032113 -1.755322 -3.140985
3.358614 -8.943684 -22.659443
2.970563 -5.700091 -10.788609
12.618038 -3.279929 -31.084999
4.708382 -7.127504 5.886311
-0.910805 -12.063497 -28.074427
2.978705 -9.589310 1.343597
-9.944443 -2.153469 -4.740821
-2.907531 -8.202292 5.770449
5.580576 -8.648678 -5.196218
-7.384439 -7.655687 -22.253223
-2.487959 -6.710468 -9.985338
8.082764 -2.533518 -1.768348
-6.926589 -5.091372 -8.587974
-12.506431 -5.086685 -26.980019
5.263628 -5.919029 7.236069
-8.549137 -3.701617 -19.027800
6.827475 -1.565956 -18.805372
9.035041 -9.102799 -30.392788
-6.710064 -6.332576 4.107790
4.307636 -8.552618 -22.676250
12.107292 -3.380590 -29.526583
-1.083652 -13.760621 -33.469936
5.395170 -3.895321 -10.628753
-1.530986 -11.400366 -25.136448
8.108356 -2.703529 -5.268533
-6.946854 -3.933537 -16.166502
11.896412 -1.124238 -27.007483
-7.890671 -1.696918 -13.898446
-12.169689 -8.629383 -32.496346
-9.923615 -1.123032 -3.418794
3.316728 -12.235161 -29.696043
8.468241 -6.495029 -23.590389
-7.799697 -6.956847 -4.779400
9.363129 -3.625351 -23.160854
-4.196140 -8.841857 -4.815465
-9.851225 -0.880235 -2.410862
6.863646 -0.744027 2.550653
-6.919700 -3.916271 -14.972195
-4.023341 -12.502119 -30.969749
-9.881049 -2.303323 -2.149539
-7.181767 -3.639388 -17.322765
-13.679027 -2.444764 -26.237514
-4.958457 -11.529481 -29.248598
9.028702 -8.305058 -28.678379
-6.614432 -6.089840 -19.892719
-7.881998 -9.688711 -27.629126
-1.146543 -8.054299 7.721512
-10.614543 -4.155474 -21.793804
-0.730637 -11.590355 -25.038616
-7.136588 -5.673933 6.115843
6.637989 -7.737972 -6.184647
6.267892 -5.450959 6.498306
-0.117477 -6.863350 -10.680023
-6.304893 -5.833807 6.749058
-5.155633 -11.712809 -29.874063
9.126824 -2.611957 -22.641701
-4.703090 -8.409314 -2.079802
6.216102 -8.133333 -5.813157
-1.885439 -7.566790 -19.922443
-4.155937 -7.271867 4.218962
10.363287 -7.861316 -30.807701
9.714667 -7.358150 -27.977255
12.868772 -1.737406 -30.312431
-7.252778 -6.418228 2.360950
-0.232639 -10.336143 -3.224362
-5.759319 -7.041733 -21.129086
-13.480797 -4.709960 -30.781435
6.301896 -0.110257 -11.580779
7.765657 -8.310047 -25.793835
-11.179230 -3.728561 -22.922546
1.535325 -5.025374 -16.059401
4.777252 -6.889688 -21.033569
-11.370601 -8.807634 -30.350986
-8.800762 -2.573991 -19.475761
-8.565914 -5.508810 -1.941619
0.889374 -11.241138 -24.582363
12.389356 -0.341952 -28.669508
-14.466461 -1.452915 -28.229219
-7.260135 -8.985466 -25.226616
9.407954 -9.018114 -31.061777
-6.163278 -4.849730 -14.610518
-0.249902 -12.323627 -28.826248
0.960083 -5.538192 -15.493760
-8.177902 -10.849751 -32.237946
7.181686 -10.680995 -30.518562
7.585007 -4.334226 2.912622
-9.381763 -1.555202 0.347484
-0.431167 -13.571966 -32.459793
7.968462 -4.770924 -6.911612
12.164581 -1.566386 -28.138071
-11.878171 -3.380731 -24.987564
6.272645 -9.308408 -24.350292
-5.884922 -6.300716 6.280294
-8.177757 -1.131580 -17.100206
-1.323491 -8.894714 2.110847
-0.438628 -11.028592 -6.991178
-7.383471 -3.989092 -17.860901
0.443601 -9.981226 -2.289740
5.806171 -4.011161 -18.415379
-8.784893 -1.401462 4.722580
-1.978896 -12.056396 -28.265818
-7.774814 -5.300467 -19.716431
-0.529408 -10.008226 -2.507292
-8.519613 -6.357288 -3.983946
-7.902069 -2.629951 -7.824981
5.182405 -8.770841 -0.377130
-7.488731 -10.912107 -31.447969
1.458695 -5.658141 -13.687434
-7.064499 -7.078893 -0.700470
4.356349 -10.563541 -25.081099
4.605368 -9.287349 -4.277090
-0.964973 -13.324148 -31.978203
4.396773 -3.034481 -15.829796
7.155124 -1.283401 2.289013
-5.103298 -6.747727 5.737068
9.173372 -0.117869 -21.629822
2.307240 -5.576396 -12.584637
4.513328 -2.733349 -17.580450
-6.951337 -6.681963 1.712102
2.158188 -8.964659 3.366359
-7.093994 -3.856322 -13.554891
-0.084060 -12.692953 -29.677971
-3.219271 -11.795327 -27.876629
-5.805151 -5.869057 -8.698730
-8.679421 -5.501840 -20.977684
6.117692 -1.856114 -10.255842
6.512209 -6.733701 -1.985474
-8.831823 -3.359430 -1.015408
-8.832294 -6.118413 -21.393183
-8.722448 -5.669173 -4.549323
3.733887 -10.136214 1.044846
-9.702817 -0.846090 0.532535
8.264317 -10.848574 -32.917721
-3.276120 -6.585259 -19.526276
-9.204469 -2.556153 6.581272
0.708397 -9.419214 4.713465
1.614089 -5.172153 -17.499847
-1.245693 -9.588298 4.597048
6.246873 -1.157301 -10.779910
-8.609009 -4.829716 -1.988545
-8.578449 -4.045117 -1.957730
-3.081011 -6.394553 -10.999819
-1.996814 -8.802546 -22.095421
1.321361 -6.031631 -12.728717
-4.013450 -7.868295 2.941042
7.951359 -4.877405 -3.092362
-14.256256 -5.315120 -33.013885
4.674077 -6.680868 6.752308
-6.870971 -7.064741 0.582983
6.414583 -0.032558 -8.014162
-9.252832 -10.387675 -31.775898
4.298238 -6.549575 7.633942
4.855012 -7.560216 5.465290
-7.145784 -7.330464 -3.873849
3.240987 -5.002359 -13.261867
9.725084 -0.335543 -22.728786
7.616437 -1.439124 -19.849319
-11.863163 -5.657444 -26.042210
8.369085 -8.588243 -27.795401
11.021886 -5.877679 -29.324894
6.355425 -6.494962 4.400616
1.217465 -9.332095 -0.335319
-7.741225 -2.039998 -13.107265
2.021679 -8.424080 -21.399662
-8.699306 -8.405883 -25.901390
5.706690 -6.727932 5.277960
3.918749 -10.263565 -23.857107
-9.683729 -1.162456 -1.845890
-4.443160 -5.452697 -14.329573
1.534669 -8.803061 -21.899359
4.362636 -11.724401 -29.402145
-7.886680 -4.373381 2.390266
-4.775103 -10.446804 -25.113274
3.344688 -6.666271 7.786655
6.758039 -7.878548 -23.376352
10.603078 -5.687363 -27.933529
13.052161 -4.744856 -33.409172
0.540152 -5.726893 -14.555450
7.552654 -4.879036 -1.110515
-7.975060 -1.237270 -8.873205
3.493611 -4.258635 -14.574924
-8.085320 -6.642943 -0.318799
7.546160 -5.186755 -22.276974
-5.968900 -6.199115 -19.104002
10.038677 -5.105916 -24.932205
6.621970 -6.067207 5.343542
-11.168082 -1.489537 -20.939583
-4.217668 -6.825196 -20.132549
-8.085354 -0.868178 -11.714916
-6.616932 -4.710096 -17.747765
5.164522 -12.920504 -33.379250
-2.132853 -9.927926 -23.211563
-0.726275 -8.528027 6.853859
-6.159076 -7.913366 -4.126500
0.618211 -12.610059 -29.736710
-3.155735 -9.116695 -2.672526
10.452929 -4.689503 -26.033081
9.125389 -7.853336 -27.836140
-7.442285 -3.031146 -12.395635
2.308663 -10.174308 -5.144911
6.408605 -4.596542 6.795687
-2.668463 -6.888948 8.677118
3.816761 -7.214545 6.646362
-8.358091 -3.516011 0.033333
6.517295 -2.923857 8.061878
-0.069695 -7.200486 -19.437553
6.579371 -9.359829 -26.413246
-8.616285 -1.212337 6.056150
-7.425868 -3.157195 -17.059660
-0.724248 -7.229215 -19.520016
2.477017 -10.122114 -2.494936
-5.222694 -7.708664 1.268187
9.729454 -7.644580 -28.888319
7.893099 -4.341061 -1.959185
-6.526299 -11.806920 -32.538216
-8.252780 -7.757914 -22.611746
0.321768 -7.015258 -10.231873
-0.709215 -7.689190 -19.983963
5.756786 -7.668372 -2.138644
3.471622 -4.021463 -18.115124
-2.367461 -5.344837 -18.095926
-8.393806 -3.032124 2.240981
6.598201 -2.349294 6.928574
6.193884 -2.103641 8.116373
7.356457 -9.095043 -27.210249
-4.437216 -8.700207 -0.812799
5.008756 -3.647571 -12.423439
5.370771 -11.741013 -30.318016
0.483034 -10.377897 -3.460075
-7.694246 -6.788237 -21.851627
4.056879 -4.024315 -14.111251
4.692385 -4.270759 -11.481156
7.627510 -0.497429 -2.442098
-6.864229 -8.996748 -23.988819
6.685115 -4.268750 6.358181
-5.422601 -10.780788 -27.692709
-9.294574 -2.347012 1.556005
-7.297489 -2.924836 -14.234400
2.131606 -11.159256 -24.769821
-8.314086 -6.454045 -1.343740
6.612173 -0.851424 4.076572
3.815648 -10.287975 -6.614577
-4.291610 -5.418026 -15.031608
5.094897 -7.080378 -21.631855
-13.323394 -6.230310 -30.410814
0.298781 -7.414527 9.329271
4.253514 -9.537148 -23.406059
13.353073 -0.481847 -31.651281
7.212512 -7.101903 -6.779685
-7.815011 -2.187765 -10.424579
-1.300078 -5.414950 -15.809530
-2.393676 -12.125967 -28.716770
-6.175735 -7.769728 -22.358158
5.205357 -6.146649 -20.382236
2.307956 -7.242222 7.972080
-3.904051 -8.169870 2.287860
-0.583394 -9.250417 5.285385
7.517842 -2.145150 1.392765
-4.838212 -8.309086 -1.119534
-3.934132 -12.014709 -29.561758
-6.153214 -5.488331 -11.061507
2.731526 -10.624575 -7.005929
5.807272 -2.182360 -12.405855
-8.044148 -1.040656 -13.751803
-0.441272 -11.901689 -27.444466
4.853789 -5.512494 -19.457989
5.853406 -1.436368 -13.351931
-7.993024 -1.922901 -9.680624
8.467779 -8.989494 -29.346249
12.706879 -2.531873 -30.641167
8.668000 -10.008883 -31.593987
-3.964581 -6.875911 7.346027
-9.662348 -2.422519 -0.449705
-8.066199 -1.170603 -10.752897
7.786457 -7.516859 -23.635983
-3.291126 -6.624856 -9.901881
-9.371133 -1.839779 0.879538
-4.445556 -7.087150 4.716402
2.519959 -13.703214 -33.451439
1.751796 -12.763552 -30.219929
6.558500 -0.648320 5.791588
-7.396785 -8.533911 -23.177059
1.579027 -9.305747 4.011404
2.359838 -5.125579 -14.433498
-7.336310 -10.652247 -30.199024
-6.226117 -8.605134 -23.250034
-0.108489 -9.483393 4.801928
-14.373815 -6.056886 -33.189133
-6.505530 -9.623686 -26.103367
10.064903 -9.689905 -33.454483
1.769006 -7.269797 8.287392
-2.516955 -8.783195 0.194772
8.082766 -1.496037 -3.848850
8.970777 -7.091910 -26.166378
2.766381 -10.400229 -23.685738
-5.078640 -7.312335 -21.322170
-7.513883 -2.768301 -14.922823
6.651106 -6.313149 -0.739080
5.890158 -9.728859 -25.580498
5.130979 -9.590620 -23.820030
-1.705804 -8.868803 5.295893
10.806083 -3.068260 -24.239679
-6.476139 -12.290154 -33.355743
0.633139 -10.205692 -4.033351
-12.672603 -6.128548 -28.986744
-7.803905 -2.822102 5.385698
11.339087 -5.065351 -28.841604
-6.138822 -7.596169 -0.189520
3.200426 -4.234778 -16.947346
-4.629287 -12.616125 -31.927437
-1.660799 -8.005733 7.389606
-11.055255 -6.011837 -25.240530
6.957364 -1.595747 4.959839
-9.028548 -0.547706 3.252943
-3.530382 -7.369102 -20.302065
8.982005 -5.807718 -23.607424
13.874081 -2.066411 -33.615273
-6.252447 -7.345146 1.030790
-1.014330 -10.839035 -7.304364
-9.295138 -1.219448 1.488160
11.766076 -4.577456 -29.863615
1.830254 -8.814632 2.792456
0.709548 -13.885328 -33.499008
-3.795713 -10.650283 -24.172375
7.827332 -5.450335 -4.207433
7.161247 -3.829287 5.370726
-9.805997 -3.310903 -21.166618
-6.532700 -4.577456 -14.052825
-12.343222 -6.347900 -28.039101
3.158014 -7.759724 6.182802
-6.487267 -5.559400 7.313793
9.468819 -9.616095 -32.322701
-2.290995 -13.236799 -32.071095
6.623375 -0.372803 4.606880
-9.073371 -10.740829 -32.651794
10.272449 -6.600916 -28.600685
