-1.080560 -1.648080 4.520864
1.938495 0.544195 4.977078
0.545005 -1.425185 8.341879
-1.339256 0.096637 8.571279
-0.229440 -1.511130 8.724850
1.880180 0.281394 3.509808
-1.118354 -1.369127 4.424508
-0.595686 1.683923 5.417515
0.126926 1.982578 2.600052
2.017386 0.303460 9.333173
-1.043645 0.584652 7.368484
0.615679 1.484808 3.453614
1.563263 -0.681413 9.309129
-0.799228 1.404540 1.382402
-0.485618 1.808628 5.817478
1.564138 -0.878914 9.807249
-1.242421 0.313591 10.115394
0.191479 -1.657537 2.159414
1.909820 0.098863 4.762478
1.756744 -0.740961 9.164155
1.406007 -1.118347 8.940943
-1.221408 0.398704 3.573682
0.555713 1.285231 10.663807
0.176796 -1.555808 2.586710
1.916630 0.807130 8.446191
-1.277181 0.737824 4.176553
-0.973469 1.127041 0.840324
1.512988 1.300054 8.917326
-1.220868 1.169439 9.470176
-1.273819 -0.191477 6.600976
1.446880 -0.597700 6.500560
0.115692 -1.407990 5.286780
-0.037860 -1.421568 9.017854
1.985288 0.791075 8.101492
-0.858192 1.530374 3.377592
-1.717524 0.202910 5.363768
1.192666 0.812812 1.502649
0.687515 -1.368446 6.808447
-0.702669 1.494375 5.972853
1.592700 -0.516258 3.886375
-1.441655 -0.731271 1.523908
-0.348648 0.503866 1.299550
-0.026678 -1.263660 1.208641
1.043531 -1.158175 5.990964
-0.350083 -1.303459 9.878624
-0.030719 2.067039 5.898680
-0.090004 2.620609 5.015689
1.993745 -0.171359 8.158817
1.051859 1.735657 3.477825
1.866592 0.656069 5.367890
-0.380081 -0.038124 7.661480
1.530820 0.168652 5.578841
1.503023 1.255391 7.266949
1.867176 0.892801 6.247305
-0.025120 -1.531154 9.374711
1.610062 1.353458 6.326056
-1.050358 2.045746 4.264084
-0.479459 1.664673 1.842580
1.738950 0.458801 10.561263
0.490696 -1.535893 7.209405
0.008695 1.637886 1.710768
-0.698295 -0.556562 10.944624
-1.437895 0.778285 7.877811
-0.387117 2.138902 5.270147
-0.983745 -1.465413 4.771259
-1.053890 -1.866382 5.476222
1.221398 1.480417 9.839123
1.484862 1.768433 4.633217
-0.690347 -1.325321 9.179136
-1.057178 -0.789617 8.710705
-0.881920 0.293493 7.565510
1.171569 1.664531 3.025405
-1.111549 1.108740 4.912796
-0.310808 -1.491332 1.476297
0.436739 -1.727964 7.650100
1.650947 -0.367715 5.590992
-1.645574 -0.240604 6.043744
-0.745940 1.180628 10.376217
-0.987737 -1.392981 6.164927
1.778176 0.959780 5.633096
-1.535639 -1.241051 4.939445
-1.085753 1.139926 5.429662
-0.530364 1.060492 0.949183
-0.635306 1.103762 6.099142
-0.368758 -1.378374 3.885880
0.560014 1.717154 2.038337
-0.531816 -1.198835 1.775738
0.279762 -1.576265 7.103751
-1.039177 -0.829063 10.164898
-1.001284 1.712395 4.377483
-0.552734 1.272090 7.015075
-0.463928 1.187509 1.342158
-0.923214 -1.265324 6.391817
-1.014583 1.402212 4.146969
-0.690922 1.579968 3.946328
-1.604188 0.076440 4.366024
0.202762 -1.603753 8.746671
0.490818 -0.911546 10.919552
-1.201653 -0.060536 8.136268
1.625498 0.705109 3.157813
0.075184 -1.451865 1.832185
-0.573433 1.649495 3.641116
-1.373694 0.258735 8.303043
-0.311437 2.171710 4.908008
1.424827 0.773452 0.831029
2.084530 0.174286 8.394136
1.618558 1.530231 6.736099
1.642218 -0.528068 4.226350
1.474120 1.451100 3.927110
-1.482476 0.127478 4.688719
-1.201561 0.137096 9.617138
1.204242 -0.817127 3.641763
-0.668497 1.047056 3.627952
1.856863 1.021786 8.485735
-0.634018 -1.910322 5.939557
0.698568 -1.607684 7.918513
0.023799 -1.302907 4.121657
-0.251962 2.151500 4.122084
-1.682535 -0.787986 5.237562
-1.527052 -0.954377 4.078731
1.276247 -1.071455 6.433095
-0.834590 -1.368402 3.897962
1.390929 1.029086 1.596421
1.056747 2.233696 4.471909
-0.994620 1.656551 5.969916
-0.734486 1.017140 3.840573
-0.439266 -1.591051 6.660060
0.818548 1.767257 3.096026
-0.335516 -0.257715 7.624031
-1.469002 -0.807973 6.029641
1.477604 -0.759205 8.329280
0.558088 1.537318 1.209793
1.391482 1.305530 5.690226
1.896575 1.776741 5.128108
2.015839 0.826384 7.175269
-0.188317 1.694829 2.906759
0.595424 1.973507 3.428441
0.997304 1.638715 7.615196
-0.857245 0.886903 3.306152
-1.460045 -0.487378 3.272455
-1.436651 0.626839 6.172397
1.825595 0.212473 5.795832
0.845863 -1.303990 5.381314
0.212858 1.952526 6.395926
0.136213 -1.481149 8.180179
0.848617 2.156799 3.537983
-0.339571 2.353417 4.603805
-0.475657 -1.497147 8.865777
-0.734979 0.909433 6.485042
1.742025 0.795764 10.318237
-0.131272 2.245020 5.604386
-0.641446 -0.933199 1.941882
-0.695976 1.171829 6.591068
-1.179382 -0.442967 9.978482
-0.019865 -1.398985 9.695627
0.977735 -1.004884 2.212978
-0.469284 -1.342930 8.286511
-1.396566 -0.541961 3.557656
-1.479817 -0.949990 6.356447
1.515115 -0.777993 5.064780
-0.291076 1.990323 6.131924
0.057877 -1.470961 2.967364
-0.629727 2.250062 5.196643
-0.739730 0.551005 7.017548
-1.045155 0.417807 8.323395
1.498153 1.071730 3.467711
-0.605761 -1.351398 2.863887
1.929683 1.312711 5.866506
-1.077515 -0.240112 6.710070
-1.133725 -0.084490 1.560328
-1.393481 -1.352273 4.191848
-0.726741 1.145081 8.296972
-0.830698 -1.196942 9.457226
-1.081226 1.026981 4.211019
0.344324 -1.312569 2.399910
0.326386 1.561722 8.241024
1.124303 1.777770 6.814644
-0.988711 -1.263705 7.107136
-1.841767 -0.074092 5.092374
-0.297870 -1.308713 9.627916
-1.096468 0.175065 2.133054
1.938678 0.115396 8.636723
0.877273 -1.601739 6.922128
-1.466699 -1.395194 4.506473
1.157831 1.461354 4.314368
1.758142 1.089808 6.366512
0.425866 1.342124 8.298154
0.879416 -1.428220 6.689551
1.145946 -0.812689 6.069500
1.360718 0.027580 10.597732
1.792843 -0.279488 7.063294
-0.117708 -1.512375 3.762468
0.264332 2.213682 3.626474
1.515021 -0.415797 2.242728
-0.345090 1.637706 5.898464
1.324448 -0.721743 5.941165
-1.361961 0.908457 8.218686
1.356699 -0.134370 10.785748
-1.279004 0.100706 2.774318
-0.813917 -1.230808 2.983935
-0.156786 -1.366700 1.549373
-0.207324 -1.353389 4.320163
-0.847706 1.487473 9.916216
-0.925408 -1.289550 5.626143
-0.862635 1.104604 5.807539
-0.661001 1.967276 6.107875
0.524826 1.660520 1.716238
1.295586 -0.876004 4.810689
1.785245 1.113444 5.265965
0.914851 1.690717 3.886725
1.117631 2.061476 3.503795
0.504809 -0.857961 10.693504
-1.380218 0.703460 5.054245
-1.388620 0.354717 4.254088
0.261735 2.206969 5.926608
-1.759390 0.233474 4.981667
-0.661583 -0.290909 8.257709
1.613794 0.941993 4.409690
-1.189952 0.212454 1.274811
-0.384528 0.481176 1.064744
-1.381048 0.906372 9.696370
1.998703 0.105603 7.171865
1.606638 -0.823217 10.386409
-0.920777 1.466283 5.616798
-0.694524 -1.184075 9.918324
0.378291 -1.460148 3.242100
-1.043069 0.637326 2.781796
1.832015 0.823710 8.909004
-1.471602 0.038001 2.200587
0.184745 1.797163 2.225981
-0.755219 1.575512 1.694249
0.255852 -1.483796 6.904250
1.824341 0.628882 3.882534
-1.076096 0.326465 1.532881
0.673677 -1.280201 4.369125
0.016942 2.052555 3.018381
1.630564 0.343602 5.444914
-0.695442 1.698614 3.036228
-0.264621 1.527939 8.609791
1.065788 1.562201 3.961124
1.908746 0.086154 3.408669
-0.781524 -0.907105 1.253989
-1.484870 -0.908798 4.557246
-0.854171 -1.247177 7.298913
-0.558979 -1.746596 5.330091
1.650527 -0.932349 7.132149
-1.335341 -0.692810 2.001723
-0.756935 1.815862 4.694159
1.055483 -1.246590 4.105467
-1.046427 -0.288318 9.073170
-1.334313 -0.597062 7.185842
-1.658305 0.062861 5.910691
-1.186461 0.896837 10.234451
-0.889309 -0.446157 8.861956
-1.358295 -1.595774 5.621162
0.235937 1.742615 9.301736
-1.396032 -0.524094 2.459021
-0.239430 -1.443429 3.282506
-1.175800 0.518274 2.339011
0.644463 -1.563178 9.333858
-0.471267 -1.474395 4.040718
1.607646 -0.595362 8.154754
1.364109 2.520443 5.086052
0.583237 -1.534565 4.151890
0.857034 1.754324 2.826057
-1.006494 -1.087338 2.706929
0.956610 -1.348473 2.389808
-1.027926 1.188523 10.450345
1.797673 2.063565 5.386723
-0.474144 -1.433191 7.915908
1.501756 -0.622473 10.384010
0.106847 -1.410162 1.307505
1.923763 0.738310 9.561975
0.228897 -1.411955 6.540106
-0.319528 -1.203363 1.851737
1.474271 -0.868098 7.002175
-1.316795 -0.897137 2.302566
-0.468462 1.759976 8.975577
-0.118094 2.380820 5.905109
-1.203549 -0.649801 1.050228
-0.574513 1.395880 3.199820
1.792479 1.310152 7.457238
1.893412 0.437513 6.694278
-0.220155 1.256676 7.873408
1.904581 -0.481694 7.559051
-1.638921 -0.471436 4.386293
-0.898878 1.055404 2.943438
-0.427679 1.640112 1.470359
-0.649652 0.309720 7.723340
-0.304377 1.425490 6.815029
-1.074941 0.955156 4.488170
1.404486 1.216470 9.853270
0.581073 -1.706272 1.784294
-0.498122 0.906693 1.214379
0.651096 1.639097 7.556078
1.685470 -0.993791 9.529945
-0.675645 0.602534 7.221355
1.569847 -1.123043 7.855258
1.699887 -0.684411 6.776693
-0.843137 0.809036 0.812714
-1.031257 0.856125 5.212861
1.441651 0.855749 10.421494
1.375386 -0.559791 3.125779
0.095345 -0.741360 11.004736
-1.068123 -0.335249 8.620003
-1.008385 -0.517541 2.326225
0.580526 -1.280586 1.567468
-0.425065 -1.747567 4.510958
-0.636973 0.575721 0.961355
-0.306103 1.577799 2.098768
0.600669 -1.339540 10.173878
-0.781239 -0.286582 10.948231
-1.318438 -1.155941 5.613854
-0.567933 2.190702 4.870356
-0.897392 -0.979784 6.824381
1.847368 0.667053 2.002352
-0.960146 -0.674123 0.982525
-0.885469 -1.409335 7.434724
1.843724 -0.166036 8.638433
0.086482 1.193334 7.583635
-0.820032 1.371351 5.331084
0.971149 -1.457587 9.646380
1.470447 1.191355 9.527370
-1.445659 0.494362 5.500293
-0.142114 1.511776 7.227670
-0.192014 1.687023 10.546039
-1.298573 0.530077 9.852633
2.024000 0.470884 8.801456
-0.738271 -1.023371 3.059935
-1.440395 -1.389623 5.082772
1.244279 0.230272 10.777058
0.229411 -1.483155 10.469597
1.719341 0.963246 8.141117
0.888928 1.444987 10.626554
1.433753 1.459882 6.224727
-0.430239 1.601724 9.679045
1.319364 -1.322944 8.582423
-1.517655 -0.257491 1.928339
0.454388 2.381418 6.195978
1.278515 0.996532 10.682454
1.264284 -1.054043 8.186256
-1.179416 0.339834 6.131069
1.419834 -0.617666 2.788160
0.159425 1.665035 9.084925
0.963379 -0.839742 2.009629
-0.209042 -1.382430 9.151369
-1.237758 0.016023 3.066650
-0.594505 1.417713 1.539288
1.314339 0.442833 10.676249
0.991849 -1.194138 3.584582
-1.725352 -0.408664 3.991637
-0.823388 -1.109253 3.803989
1.835768 -0.582338 8.567232
-1.225894 -0.044002 10.028189
1.725976 1.759438 4.603613
1.595172 -0.687899 2.209047
0.054118 -1.563773 10.132602
-1.690913 -0.546178 4.698995
-0.251721 0.887762 7.324120
0.029766 -0.993554 10.516983
-0.343854 -1.400427 2.641879
-0.401051 -0.669487 7.603588
-0.776848 -1.098475 8.716070
0.551708 1.688339 6.914031
-1.909752 -0.047421 5.315407
2.113064 0.064764 7.604926
1.042148 -1.096864 1.873420
0.005459 -1.739215 6.124009
-0.288972 -1.191624 7.721500
-0.464430 1.011449 1.849940
1.613342 -0.514242 6.134142
-1.318647 0.768004 5.795469
-1.189868 0.959245 5.480104
-0.688427 -0.615501 8.544820
-1.216272 0.181879 2.596161
-0.537944 1.830683 2.301325
1.666178 2.096895 6.236970
1.208032 -0.500080 10.869505
1.034932 -1.189412 2.513242
0.323687 -1.648869 9.091705
-0.974197 0.943422 6.196916
-0.341699 2.060981 5.857442
-0.227833 -1.900430 5.882030
0.512095 1.959463 6.127573
-1.492885 -0.444505 5.842519
-0.761227 -0.082374 10.880318
-1.240994 0.705924 8.201963
1.771901 -0.024274 4.046720
1.270835 -0.961984 1.917009
-1.281569 -0.560508 5.803134
0.315203 1.946244 3.238673
0.819368 -1.199644 10.271421
1.162580 1.656341 9.931111
0.079900 -1.413053 8.408905
1.508531 2.159234 5.134023
1.730195 0.920136 3.746603
1.230954 -1.172476 9.311335
-0.424437 1.324713 6.600749
0.090861 1.262606 8.084921
0.920370 1.032084 10.887085
1.875507 0.687246 9.849791
-1.156405 0.650027 2.062801
-1.055350 0.463614 3.674362
0.206477 -1.501125 3.597934
-0.971168 -0.469784 10.325274
1.351465 -0.200914 1.419116
0.329333 2.379827 5.658658
0.815426 -1.207941 6.119625
1.614892 0.249380 3.039463
-1.223177 0.031245 10.625599
0.711018 1.625847 1.825603
-0.303465 2.375395 3.881021
-1.612249 0.484462 5.306114
-0.202016 -1.516390 9.887415
-0.074699 -1.473140 8.046476
-0.233863 -1.625475 7.712747
1.935309 0.640946 4.720316
-1.167166 0.370021 7.311691
1.313992 2.247698 5.908792
0.863716 1.609046 9.992509
2.039425 0.142604 6.709273
-0.248441 1.260640 1.068118
0.560796 -1.134168 2.247031
-1.418405 0.895725 8.548842
0.929827 -0.910480 5.440649
1.880220 -0.382928 8.977300
1.389650 -1.014748 9.493988
1.628846 -0.076078 6.088487
1.230233 -0.897073 2.409517
0.899476 -1.163204 4.004199
-1.328539 0.703290 9.661978
-0.140896 -1.615675 2.335563
1.192784 1.623172 8.160012
-0.542702 -1.830655 6.267387
1.550224 1.198203 3.303241
1.539404 -0.256256 6.417368
-0.671983 1.382513 2.033089
-0.979964 -0.018469 10.619342
-0.188594 -1.547079 6.702835
1.099136 -0.862225 2.641159
1.639777 -0.438865 1.944178
0.088073 -1.992279 5.491979
-0.874801 -1.018677 10.485134
0.846722 2.378348 5.931555
-0.671998 0.872321 7.104053
-1.195030 -1.485006 5.336133
-1.422925 -0.806878 3.706775
-1.652860 -0.592865 5.773675
1.517235 0.022091 2.978047
-0.523063 -1.016917 7.670751
2.079995 0.276340 7.527658
1.775221 0.186833 1.973185
0.409654 -1.175869 10.421587
0.862070 1.254338 1.311105
-1.553124 -0.077915 3.948683
0.198788 1.848053 6.762225
0.672376 -1.422226 4.517950
-1.069326 0.610795 1.791779
0.271994 -1.450662 2.965552
0.470213 -1.390806 10.474096
-0.997661 0.799307 4.234233
-0.315275 -0.882747 7.228732
1.267023 1.572708 8.988587
1.574214 -0.328709 2.510089
0.452344 1.676002 3.224020
0.135631 1.447610 10.797297
-0.451014 -1.327885 8.501832
1.457884 0.579345 0.891445
0.032837 -1.377280 3.197570
-1.450508 -1.044477 5.970950
-0.138692 -1.267918 0.979560
-1.411570 0.321075 1.626154
0.674243 -1.422865 3.904009
0.671258 1.612822 7.356081
1.736499 -0.568311 9.740115
-0.226890 -1.605806 1.636007
1.843803 0.847276 5.292869
1.376579 -0.898749 2.947157
1.626796 1.097793 10.238325
1.644122 1.110201 4.073461
-0.733904 1.312056 6.145571
-0.822842 0.413993 7.974268
-1.374498 -0.184606 8.874372
-0.034424 -2.038825 5.728483
-1.198592 -0.932137 7.959746
-1.549425 0.457197 8.444029
-0.857733 0.277248 7.130149
0.423315 2.084227 3.043505
-0.196327 1.506854 0.809812
1.669553 -0.600297 7.335194
1.507314 -0.622220 3.556618
-0.803251 -0.376060 3.886620
0.213833 -1.625830 9.652377
1.652838 -0.897542 10.004938
1.616642 0.945483 1.695824
0.848316 2.183370 6.437165
2.019014 0.081883 9.314665
1.642069 -0.492882 8.884830
-1.484812 -0.710564 4.143501
-1.059106 -0.701639 8.105748
0.052376 1.816476 9.930511
1.963811 0.457599 8.415005
1.884196 0.513549 9.071759
0.961626 -1.470501 7.625982
-0.873564 1.267697 8.190108
-0.685169 1.566587 4.156256
-0.706633 1.546544 8.878649
-1.443749 0.350510 9.813086
1.582055 0.023533 3.307497
1.598187 -0.007132 2.269430
1.335620 -0.999777 4.410359
1.580177 0.860931 10.185038
0.274785 -1.521682 7.635411
-1.070476 -0.720339 7.189161
-0.807561 -0.846013 10.708988
-1.210423 -0.313709 10.513800
-0.644002 1.237777 4.739758
1.714392 1.866111 5.740673
1.628020 1.493757 5.944106
0.905561 1.458379 1.172362
1.525192 -0.984713 7.461538
-0.762895 -1.158274 8.336018
0.360651 1.888410 10.395873
0.630049 -1.483406 6.647573
-0.596966 -1.387586 7.282033
0.653717 -1.429699 4.951788
-0.769247 1.135186 3.117432
-0.795467 -1.680865 6.028510
1.444433 1.534226 6.569484
0.287228 -1.489208 3.860873
1.700471 -0.449824 7.827679
1.920730 -0.181943 6.662798
1.769366 0.454384 4.328972
-0.810857 -0.371179 10.701542
1.741388 -0.166659 4.425267
1.803658 0.434641 5.491747
-1.195821 -1.340225 6.142361
1.621912 -0.080274 1.768876
-0.947911 1.643042 5.123982
1.385019 1.267836 4.119798
1.665638 1.037208 9.169043
-1.132602 0.176828 8.310866
1.792472 -0.258544 8.031823
-0.844778 -1.239197 6.122290
-0.505061 -1.415573 9.299175
-0.593892 1.228032 3.985900
1.917313 0.013320 9.128022
1.183298 -1.456742 7.161353
0.619784 1.823111 9.222642
-0.590800 -0.997523 3.445592
1.089443 2.667784 5.043778
1.436171 -0.860652 4.088385
1.855952 0.240571 3.289205
-0.549748 1.003227 6.795192
-0.328068 -1.357068 6.867795
-0.956083 0.130421 7.031400
-1.389830 0.931374 5.931478
0.718300 1.759931 0.968517
1.199956 1.432753 7.939130
0.839496 1.826404 10.257648
1.167168 -1.181081 10.430340
0.202354 1.358320 10.601720
-0.417917 -1.046103 0.906714
0.385373 1.770998 3.617591
1.488441 -0.068504 5.371408
-1.152920 -0.895285 7.327308
-0.478047 -0.981391 1.487465
1.150576 2.060628 6.296810
-0.185309 -1.342809 10.381819
1.809690 0.068710 6.269072
1.608597 -0.662112 8.585012
-1.269496 -1.255168 3.741863
1.166672 1.483953 9.572112
-1.228885 -0.499039 2.584262
-0.832853 -0.748454 7.509092
0.625081 1.930383 3.073251
-0.049133 1.726475 8.694492
1.595015 1.177135 2.702650
-1.463307 0.317083 4.571131
1.511889 -0.306730 10.587120
0.492974 -1.171227 10.674268
0.419908 2.396925 5.995732
-0.563979 1.149608 5.901154
-0.987288 -0.731619 5.628925
1.624843 -0.433644 10.380906
1.108100 1.824849 8.411409
1.547883 -0.404181 4.568627
-0.596363 -0.036390 7.596168
-0.947589 -0.545572 6.408305
-0.082246 1.370649 7.702056
1.468616 1.253211 10.075790
1.597006 1.039860 8.723365
1.715099 0.225935 2.538200
-0.722384 -0.960641 1.062214
0.174268 1.557475 8.858101
-1.244505 -0.015624 1.165002
0.920461 1.637295 8.802459
1.239887 2.050024 4.362328
1.816077 0.608523 5.851602
1.007863 -1.228191 9.479654
1.893943 0.336561 8.122001
-0.544798 -1.270291 3.548652
-0.709775 0.855850 10.891670
-0.896140 0.882526 10.592543
0.352076 2.332864 5.343135
0.089278 1.933951 1.452944
-1.386049 0.016094 1.859861
-0.722062 -0.768310 3.644187
-0.439884 -1.439890 7.569907
-0.722726 -1.548500 4.872221
0.972976 -1.018858 10.603064
-0.113775 -1.466700 1.159769
0.041850 2.364343 4.090204
-0.719063 -1.262924 3.645734
0.519213 1.469037 7.949110
-1.337478 -0.454517 10.167068
-1.410049 0.215955 6.198310
-0.232402 -1.635316 5.830595
1.592334 1.410855 7.477006
1.358547 -1.002669 8.702549
0.247755 -1.376553 1.066566
-1.524591 -0.359972 4.705341
-0.755447 0.702515 7.541895
-1.234893 -0.872945 1.911335
0.811876 1.891629 1.727866
-1.632159 0.314031 5.628932
0.733176 1.610809 9.115729
0.104062 -1.374708 10.354708
-0.854941 0.806740 6.709280
1.320035 -0.554883 5.503252
-0.072028 2.531776 4.485233
1.621311 -0.939592 8.297389
0.526362 1.878320 2.660306
-0.254902 1.359748 1.696812
0.108397 2.508403 4.625797
-0.287794 -2.088405 5.567163
1.380388 -0.872658 9.694210
-1.061762 1.159649 5.098126
-1.039686 -0.290239 1.565220
-0.212353 -1.755271 6.335132
-0.992204 1.190470 4.419249
-0.306622 -1.204315 3.968994
1.638335 0.700123 4.130421
-1.237143 -0.297583 2.609805
-1.412623 0.538627 2.145002
0.403219 1.809393 9.576576
-1.055672 0.537862 4.147002
1.723527 -0.191697 3.233890
0.537373 -1.530048 5.211417
1.858599 0.312031 10.245776
-0.371284 1.613497 2.708413
0.824627 1.947111 8.418278
1.765024 2.048132 5.800771
1.449765 1.371710 8.701836
-1.170176 0.234452 1.706796
-0.781337 -0.486772 7.131948
-0.886960 -1.412172 4.555533
-1.307506 0.691757 7.749307
0.336855 -1.234631 4.576085
-0.859881 1.333475 4.378909
-0.281924 1.873099 9.892790
0.591330 -1.361734 3.078457
-0.606689 1.262388 10.779654
0.777586 2.696212 5.439199
0.211586 -1.712022 8.275703
-0.376674 -1.810338 6.487749
-1.318298 0.976816 7.972286
1.784214 1.010150 7.226592
0.667713 -1.488372 7.547855
1.321084 -0.699034 5.647051
-1.322690 0.572386 8.081347
-1.036623 1.909077 4.407362
0.210670 2.310603 5.074121
0.441647 -1.499747 9.245218
-1.517386 -0.072719 6.036494
-0.181443 1.621596 1.019861
-1.255775 0.273457 2.195842
1.691841 1.014334 7.018489
-0.684064 1.116891 7.940701
1.909541 0.324863 7.424039
-0.540438 -1.064537 4.093926
1.062397 1.639024 1.878083
-1.067966 0.504244 6.176461
1.328692 0.755912 10.732466
-0.474409 -1.263559 9.080120
-0.064354 -1.428410 8.794313
0.581035 -1.698962 7.473664
1.380644 1.873299 6.380889
-0.230351 -1.482634 4.006074
-1.482177 -1.082947 4.371643
-0.204031 -1.589725 5.578689
-1.150848 0.723039 3.334508
0.512698 2.454563 5.431437
-0.626510 0.872705 6.660525
-0.771624 -1.609779 6.944069
-0.462030 -1.167770 10.101805
0.756105 -1.189028 4.196403
-0.131844 2.431098 4.169670
-0.801771 1.768522 5.215719
1.708663 -0.757136 10.200056
-1.137725 1.391132 8.399759
-1.191977 -0.714801 1.642982
1.109043 1.385338 10.164415
-1.092204 -0.934994 6.312487
0.628882 -1.722352 7.246007
1.740212 0.234981 1.664798
-0.854428 -1.513600 6.770552
1.713108 -0.788655 7.298121
1.837539 0.222948 9.765880
-1.026013 -0.260475 3.823011
-0.114416 -2.006190 5.358342
1.273866 1.551786 7.376988
-0.137912 -1.644346 1.847842
0.409887 -1.263443 1.971956
1.978827 0.850281 6.863203
1.691005 0.131203 6.498263
-0.402178 1.310322 8.078943
-0.734821 -1.167695 6.384715
1.854652 0.612586 2.411576
-0.977428 1.287940 2.704774
1.523591 0.152136 2.688176
-1.371972 0.337376 5.869738
1.559286 0.889863 3.519765
-0.808894 2.098386 4.105970
0.170692 2.677924 4.723271
-1.254871 -0.172306 1.330273
1.754839 1.204434 4.794675
-0.978895 -0.890304 2.837575
-0.609346 0.871601 6.279931
1.507859 1.866995 5.894222
1.990528 -0.245166 9.490554
-1.272895 -0.269127 8.644241
-1.067484 -0.570042 9.857902
1.444545 1.200901 2.253323
1.145045 -1.332186 8.078680
-0.818870 1.725776 9.455122
1.777913 -0.260517 10.437256
-0.996067 1.267708 10.140573
-0.039674 -1.179616 1.756846
-0.710598 0.814426 10.692459
1.295283 -0.907902 10.409063
1.785352 0.388736 2.130145
-1.277110 -0.247527 9.511232
-0.641860 -1.026269 10.220595
0.075143 1.704528 7.123324
1.751220 0.120158 10.144470
1.575328 -0.065530 6.380594
1.400977 1.043364 0.998488
1.529750 0.827019 1.111988
-0.133944 1.448826 1.827265
-0.934199 -0.610315 3.676855
-0.582234 2.185556 5.702871
-0.374219 -1.363117 3.675667
-0.997223 1.978560 4.713289
-0.665444 -1.407535 2.478833
1.827703 0.050378 4.299061
1.859169 -0.443694 8.009395
-0.558813 -0.862094 0.942102
1.917988 1.564195 5.548785
-1.235993 -0.573255 1.812802
-0.432169 1.211141 3.185297
-0.706740 -0.772815 8.721292
-1.027987 1.046335 2.626186
0.941223 -1.280956 10.065618
1.864821 0.771973 7.442008
-1.828850 -0.292800 5.828354
-1.274298 0.680350 2.643352
1.767163 0.610274 3.480867
1.816157 0.463042 4.013676
0.059211 1.469568 7.435185
1.672016 0.857482 9.818701
-0.801032 0.955923 4.164603
1.838273 0.093060 4.944238
-0.629872 2.093088 3.467068
-1.576464 0.784247 8.374415
1.767782 0.330466 4.899924
0.573014 2.280456 5.367691
-0.641680 -1.191108 9.530839
1.596906 1.333910 9.195522
0.829808 2.340820 6.173224
0.552646 -1.567405 2.434416
-0.122166 1.477074 1.426103
0.804644 1.798141 7.388532
0.846973 2.060599 6.592656
-0.898450 -0.965134 1.824275
0.912618 -1.064085 5.236701
0.239800 -1.611285 6.005612
-1.110605 1.331545 8.762714
-1.363861 -0.618107 3.140396
-0.802841 -1.068375 1.394535
1.163738 -0.203127 10.799026
0.830609 -1.396022 2.127921
-0.101395 1.965960 10.216902
-1.293541 1.034733 8.376902
-1.178630 0.365410 3.021626
-0.881085 0.850025 7.461808
1.733203 -0.767306 8.927511
-0.890967 -0.690897 8.819236
-0.029147 1.535385 1.175474
1.478881 -0.501944 4.770860
-0.742397 -0.448805 7.325901
1.336265 1.322216 1.821917
0.766810 -0.865865 10.649765
-1.015192 0.940674 3.585480
0.013174 -1.487554 3.618590
-0.206133 0.654527 1.301644
-1.122298 0.950888 2.845605
1.707957 -0.442635 9.415112
-1.405770 -0.990451 4.959880
0.304291 1.919870 6.940661
1.845650 0.307362 3.712963
-1.095400 0.157795 0.982571
-1.457589 0.301922 9.228641
-1.802552 0.617025 5.066177
1.539622 1.204004 2.061143
-0.543253 0.559968 1.284547
1.600790 0.498868 10.425652
1.351797 -0.947964 3.683793
-1.027682 -0.847123 6.570177
0.642287 -1.445814 7.129024
0.098349 -0.764586 10.812368
0.037548 1.401359 8.455213
0.748631 1.526717 10.375977
0.711650 -1.270515 3.334764
1.200177 -1.359395 9.940002
1.507445 0.373628 1.201391
0.598638 1.839155 2.904495
-1.103127 -0.261051 1.947481
0.230428 -1.366185 9.903245
-0.941890 -1.401261 5.939915
1.168929 -1.089841 4.833839
0.908499 -1.236577 8.992516
1.624905 0.845202 1.862291
-1.324719 -0.080056 2.244518
0.762464 2.572239 5.695953
1.660189 0.007767 4.683886
-0.932604 0.048335 10.864317
-1.640584 -1.588190 5.382306
0.887080 1.828039 2.280988
1.694070 0.129619 3.568242
1.162738 1.737793 2.228930
-1.208989 -0.812962 6.107004
-1.524565 0.715571 9.355642
-0.231134 -2.070334 5.780987
-0.368723 -1.710744 4.743187
1.506718 -0.732254 6.187299
0.118159 -1.422562 9.286089
-1.124541 -0.702209 2.597246
-0.782528 -0.238355 7.341797
-1.509193 -0.016312 4.541084
1.736143 0.420231 1.371635
0.956885 2.584286 5.205156
1.986853 -0.309491 7.765332
0.464989 2.594629 5.048117
-0.372948 1.275101 3.496583
-0.841925 -1.070772 10.143196
-1.211752 -1.170878 7.940443
-0.433488 -1.223798 10.619987
0.686324 1.951379 6.891356
-1.314917 -0.888504 4.087051
1.768690 1.501226 4.928900
-0.566730 0.750438 1.843682
-0.280059 0.704166 1.021318
1.674670 0.398093 3.287414
-0.368507 1.669656 1.685103
1.871389 -0.023438 7.986645
0.051000 -0.912487 4.009765
1.317274 1.360881 9.067983
-1.156763 0.781033 4.668782
-0.104708 2.582208 4.703952
0.181925 -1.448411 4.923235
1.341339 -0.742354 5.373290
-0.571843 -1.773298 5.138672
1.830670 -0.003426 5.946290
0.050469 2.190992 5.571527
0.361191 2.107264 6.353023
-0.484591 -0.478970 7.275526
-1.808629 -1.271615 5.526479
1.420670 1.595783 5.491869
1.596491 -0.109099 2.562055
0.134046 2.493844 5.496603
1.714055 1.125199 7.366653
1.918028 1.647128 5.797163
-0.949306 -0.779665 3.307122
-0.805066 -1.271090 3.375042
-0.909092 -0.186481 4.142381
1.114709 2.442599 5.907495
-1.480484 -0.652514 3.368484
0.142688 1.603951 3.288077
0.212035 1.517412 8.582150
0.860255 -1.499754 7.250217
-1.087423 -0.509082 3.077715
0.174670 -1.337665 6.359309
-1.731798 0.067222 4.136340
1.389331 2.364235 5.653308
-0.784332 2.266987 5.077085
1.577607 1.264393 7.782452
-1.352141 -0.500437 1.631614
0.532482 -1.475829 2.722333
0.215750 1.510934 0.868035
-1.220528 -0.064822 2.855469
1.587096 1.178071 8.073832
1.708464 0.800812 4.823641
1.877038 0.633079 4.333239
1.548813 1.302448 3.011705
-1.410234 0.730326 8.962397
0.266065 -1.287837 1.702153
-0.075104 -1.488154 1.957288
1.907927 -0.323235 6.824653
1.705029 -0.070646 5.681378
-1.072114 -1.416377 4.935156
1.075675 1.587910 7.426228
-1.098951 1.074647 8.288586
-0.845721 -0.953289 8.105402
0.429986 1.785593 1.430364
1.155240 1.344085 0.972278
0.561700 2.399057 6.375451
1.788024 0.984689 8.813222
-0.474725 1.365597 2.551004
1.034206 2.323194 6.261661
0.247250 1.834887 1.697443
0.938284 -1.427606 8.783291
-1.919939 -0.307002 4.967332
-0.089548 -1.085838 1.278589
1.053858 1.581224 10.197617
-0.294957 2.007888 3.136673
2.050031 0.081316 8.796057
1.277104 -1.117818 9.670620
1.669988 1.287068 7.026712
1.250502 1.410755 3.288092
-1.176685 0.918932 2.355834
1.726617 -0.433690 4.905191
-0.910553 -1.311965 6.829054
1.287002 -1.286018 8.976940
0.328337 -1.432936 8.982019
-0.334492 -1.495002 4.333561
1.738339 1.237643 6.599030
1.237466 -1.108428 5.658938
-1.219164 -0.528471 1.227861
0.792704 -0.669052 1.351808
-1.184672 0.700676 7.423303
0.506937 2.640395 5.754253
0.536605 -1.485169 6.835408
1.705048 1.298879 5.449090
0.350668 1.581187 8.052958
-1.355710 0.709823 8.577858
0.780411 2.495042 4.527590
1.641959 -0.555173 5.226585
-0.510384 1.491319 8.143108
-0.960379 0.848707 6.402451
0.028249 1.500261 10.624823
-0.582924 2.473941 4.308439
1.774305 -0.248062 7.379051
-0.434313 1.743510 9.805815
-1.495021 0.049102 8.473027
1.177372 1.490532 4.105157
1.386873 1.325004 9.287867
-1.372913 0.199575 9.027294
1.820860 0.753222 2.184848
-0.868990 1.896215 5.633545
-1.227330 -1.297264 5.702506
-0.718327 -0.905858 10.406147
-1.802510 -0.541523 4.298568
-0.858221 0.520058 10.714102
-1.154974 -0.254346 8.796413
-0.019436 -1.446327 7.112408
1.599595 1.160148 5.540349
-1.059739 -0.678514 10.517764
-0.009919 1.559596 8.974843
-1.157787 1.338821 9.801161
1.756472 0.786684 3.963257
-0.448598 -1.274009 7.463308
-0.207529 -1.522700 2.692119
-0.550003 0.767092 7.290266
0.316252 1.980066 2.859934
1.724155 -0.754802 9.468534
1.032424 -1.460342 8.985164
1.494989 -0.211298 5.648877
1.196783 1.120055 10.549840
-1.816595 0.076655 5.734879
-0.461530 1.711871 8.441593
-1.403320 -0.586691 5.650253
0.565697 -1.315915 4.034138
-0.652783 -1.122990 1.196278
1.533273 1.215706 8.374388
-0.849594 -0.698274 6.801457
0.056615 1.894468 9.542562
0.534510 2.654893 4.321085
-0.936285 1.108192 1.177975
-0.324416 1.138467 6.724370
-0.104140 -1.628198 8.992246
0.169995 -0.955835 10.720636
0.373636 1.795584 9.927242
-0.725015 1.184237 2.426577
-0.882463 -0.649612 4.016486
1.474220 1.335943 2.476284
0.689509 1.642793 10.112995
-0.112066 1.245107 7.339056
-1.866028 -0.254819 4.666374
-1.122503 1.262731 1.561512
-1.250538 -0.011026 9.082714
1.460448 1.366225 4.325383
0.795862 -1.221266 2.605373
-1.054621 -1.094024 3.475001
-0.974606 -0.967237 8.502396
-1.682803 0.567922 4.802107
-0.001698 1.836216 2.871458
-0.187870 -1.071806 7.839454
-1.049510 1.551710 9.627781
-0.232104 1.847432 8.809906
1.726225 0.247603 3.865701
0.515136 2.756709 4.845844
1.330672 -0.958942 3.369582
-1.361172 -0.236643 10.265486
1.752305 0.612488 1.747466
0.041368 -1.424254 9.516937
-1.230258 -0.876745 3.244026
1.810843 0.764914 8.296035
-0.987065 0.298334 6.818252
1.829470 0.454149 6.368970
0.850126 2.006923 6.801465
1.025455 1.493976 9.816699
-0.370641 1.304305 7.101529
-1.112931 1.746451 5.049488
-0.992897 -1.406652 6.984682
-0.453729 -1.314278 9.452176
1.710753 0.871140 5.000234
-1.457491 0.208496 6.556929
-1.608602 -0.203381 4.601382
0.667918 -1.414227 6.127590
-0.699760 1.109490 7.075775
0.391639 -1.701644 7.888981
-1.017734 -1.059830 7.655288
-1.125577 -0.814864 2.933753
-0.215008 -1.321972 4.688693
1.003816 0.860740 10.873898
1.132254 -1.094571 2.729751
1.654160 0.447157 3.721259
-0.886836 1.069378 2.272878
-0.818995 -1.968181 5.255580
0.120012 -1.439937 8.591450
-1.225941 -0.392345 6.318363
-0.182547 2.327931 4.761273
-1.205652 0.124715 6.593107
-0.964810 -1.835738 5.854212
-0.879312 -0.391745 8.312040
1.144928 1.542813 8.830772
0.493739 1.528254 10.390804
-1.528472 -0.282022 2.117254
1.906705 0.585534 9.426477
-0.561511 1.009262 7.330220
-0.347570 1.590213 10.216995
-1.836406 0.368352 4.765253
-0.270683 1.858579 9.525507
0.049071 -1.672381 1.735008
-0.470180 2.365009 4.466656
-1.392499 -0.200061 3.946231
0.614008 -1.286874 5.232065
0.340630 -1.549855 5.540853
-1.350063 -1.358807 6.005300
-1.242088 0.179002 3.411760
1.458423 -0.842504 6.345685
-0.691433 1.555796 10.222102
-1.714476 0.756185 5.486510
0.690198 -1.056383 1.247031
-1.203917 0.054221 9.785492
-1.055429 -0.793265 6.002336
-0.650778 1.967029 5.921326
0.571321 1.107683 10.744738
0.260416 1.693467 1.961616
1.762564 0.934078 5.933179
1.649400 -0.196980 4.796624
1.431781 -0.599781 2.346278
-0.504698 -1.617111 6.946032
1.666014 0.300860 2.350296
1.305696 1.686232 4.997519
-0.249868 1.628739 8.968635
-0.004816 -1.527498 6.676936
-1.144043 -1.181430 4.194374
0.974865 -1.093113 5.780641
1.788664 0.746607 1.451505
-0.818329 1.531849 8.319578
-1.344743 0.202700 3.591112
1.900532 0.650846 7.014182
0.001053 -1.341493 4.430699
-1.179531 -0.405135 6.730908
-0.870205 1.371186 5.769084
1.615303 -0.652859 2.014072
0.027720 1.741012 1.078964
1.687243 1.084516 7.668894
1.569589 0.314620 10.427860
0.367465 1.806696 0.921011
-0.340102 -1.912728 4.825922
1.811354 -0.261687 9.195975
-0.686644 1.424532 6.370842
-1.007398 -0.607308 10.141693
0.981997 1.776560 7.168036
-0.226499 -1.487702 10.569939
-0.028768 1.979099 2.470661
1.154388 2.270099 3.752860
-0.625541 -1.049946 1.676986
1.335499 1.581656 9.342346
1.131330 -1.280756 7.249462
1.368480 -1.046982 9.310698
-0.387022 1.188209 7.823891
-0.956527 0.960413 7.998930
1.672881 -0.560974 7.079454
0.390211 -1.702039 7.444024
1.635461 -0.491373 2.816547
1.522028 -0.654265 9.978477
-0.824615 1.462302 2.103381
-1.451764 0.202736 1.989211
-1.273964 0.560850 3.251494
-0.964575 -0.130490 8.086097
0.047991 -1.522098 5.609072
-0.683580 1.400033 8.206432
0.943182 2.045093 3.368317
-0.408090 1.420453 7.718843
0.380052 -1.477624 9.683403
1.650231 1.947731 6.102644
-0.764837 1.180489 4.148287
0.291549 2.529882 5.029864
-1.123245 -0.522687 6.572808
-1.830500 -1.020109 4.393967
0.350254 2.661090 5.402009
-0.717518 0.979880 5.635718
0.713421 -1.361786 8.685003
-0.554919 -1.429622 2.641886
0.112301 1.822544 0.930622
0.448720 1.406102 7.114487
1.312644 1.822573 6.562615
-0.616779 1.793191 5.101970
1.345599 -0.616572 5.124826
-0.505978 1.557697 1.993540
1.576859 -0.321409 2.093266
-1.048519 0.494345 3.477045
0.622446 1.826246 10.292404
-0.586023 1.916354 5.501283
-1.551475 0.034397 5.702366
-0.036798 -1.537272 5.005338
-1.308718 0.758306 10.190434
-1.246722 -1.205572 4.820893
-0.131964 -1.327765 7.303429
-1.234231 -1.460415 5.868587
0.734597 1.722895 6.792539
-0.530054 -0.872231 8.292189
1.672318 1.046026 2.837248
0.137370 -1.875365 6.130922
-0.818563 1.458472 1.826931
0.948292 -1.146916 3.820425
-0.813933 1.595788 2.299116
-0.312994 2.240269 3.424196
1.502380 -0.444848 5.438058
1.122879 -1.160237 8.650240
-1.417762 0.047424 3.916411
-0.049999 -1.662453 5.860002
1.879842 0.282649 6.217026
0.982066 -1.540128 7.061985
-0.960926 -0.701173 1.648835
-1.127922 -0.639801 6.122693
1.164171 0.680748 10.838669
-0.190382 -1.431190 9.329063
-1.575253 0.656582 9.096196
1.470302 1.198590 2.880028
1.922256 -0.133022 7.717773
-0.049197 -1.553861 8.491644
1.102997 -0.825604 3.949650
1.825240 2.143231 5.199522
0.831785 2.146720 5.063280
1.077604 -1.306871 7.621201
1.945167 -0.555747 9.187840
-1.220829 0.302757 2.014976
-1.564517 -1.640590 5.608260
0.561793 -1.628781 5.593049
-0.895008 1.538233 9.304882
-0.826579 1.148992 1.364397
1.233633 1.855519 4.533856
0.712285 -1.327707 10.736730
-1.187564 0.262257 10.540834
-1.392815 0.117420 9.855981
-1.150987 -0.183732 6.437807
-1.046619 -0.855551 3.525361
-0.357660 1.574508 3.363004
1.401093 -0.645890 4.656804
-1.295287 0.777310 2.216721
-0.989279 1.250887 1.689167
-0.514453 -0.663986 7.340556
-1.559935 0.470785 5.766509
-1.075119 0.843447 7.570470
-0.231107 -1.336212 2.112427
-0.561953 1.647443 5.737520
0.338586 1.301104 7.430562
-0.078864 -1.447817 10.006598
0.034272 1.968062 1.988197
-1.189350 0.372629 3.387583
1.897378 -0.443678 8.340075
0.165913 -1.128905 1.864907
0.722279 -1.291852 10.549379
-0.954287 -0.274183 7.718219
1.130714 -1.336526 8.441072
-0.929604 -0.678753 1.320435
0.239170 1.811182 10.280642
0.303326 -1.629723 6.202663
2.043759 -0.029610 8.284025
-0.625234 1.266559 8.403187
-1.001254 0.738135 1.645372
-1.461426 -0.622590 1.715846
0.713664 1.741232 8.576598
1.508089 1.163122 4.422825
1.434450 -1.171075 6.935597
0.922065 1.755252 2.448439
-0.852566 -1.317893 7.637039
-0.770424 1.194171 5.336525
-0.174038 1.019960 7.632841
1.538630 -0.445235 3.408943
-0.293342 -1.461842 3.019529
1.686879 1.089332 4.312732
0.211527 -1.681902 7.245551
-0.960326 0.406109 8.584152
1.407811 -0.472187 1.597085
1.246912 1.368193 3.471110
1.519300 1.008085 1.988473
1.845719 -0.133399 8.874525
0.256448 2.138790 5.384260
-0.468029 1.947466 5.285614
-0.253240 -0.898725 3.928051
-0.364884 -1.207256 1.582123
-0.910458 -0.861640 10.038057
-1.069156 1.298848 2.364524
1.148736 -1.342496 7.875589
1.556829 -0.368963 6.266768
-0.651748 -1.327959 7.021218
0.941687 1.109735 1.221029
-1.481661 -0.666380 6.261162
1.885384 0.706962 7.223869
1.569182 1.759013 6.301369
-0.650429 -0.739323 1.361296
-0.541920 1.676224 9.271126
1.845538 1.923742 5.613031
-0.971341 -1.457524 7.968356
-0.462361 1.650339 8.828806
-1.084129 0.794916 7.929678
-1.209216 0.690510 4.366411
1.909679 0.384184 7.244952
1.760115 -0.263463 3.960236
-1.786191 -0.679078 4.981225
0.546356 1.805502 8.526209
0.298475 2.753270 4.516245
-1.924739 -0.920432 5.581395
-0.268561 -1.430087 8.562782
1.860657 0.559308 8.691923
0.102368 -1.511143 9.923876
1.595042 1.398951 6.864064
-1.496279 -0.610678 3.971792
-0.805954 1.134121 8.075788
-0.599503 0.976301 0.802439
1.049278 1.537216 2.757985
-0.774423 -0.954374 6.474011
1.899586 0.280386 6.787201
1.623013 -0.614672 4.793043
-1.037770 -0.103881 8.956086
-0.657005 -1.244219 9.750028
-0.831581 0.931667 1.885767
-0.318984 1.135092 7.203636
1.155552 -0.790310 3.089184
1.535786 0.608491 1.546879
-0.327091 1.305570 1.226542
-1.286165 0.884716 4.957400
1.006328 1.630683 8.209051
1.565572 1.193238 8.561909
-0.474337 -2.060158 5.364015
-1.764350 -0.408845 5.241776
-0.590808 -1.336499 8.619626
-1.218033 0.519718 7.403169
-0.990841 0.241439 6.440067
0.516845 2.659746 4.510072
1.734853 0.173203 10.525452
1.337987 -1.300699 9.450636
1.452482 -0.793007 2.149442
-1.724147 -0.051805 5.544686
-1.117998 -1.048759 5.805582
-0.218410 2.073393 5.552547
-1.159573 0.758720 6.298313
0.787227 -1.413334 8.457275
-0.422511 -1.234056 7.855760
1.123051 -1.133735 2.969407
-0.928789 0.208957 3.646562
0.939487 -1.125963 4.838523
-1.792908 0.116355 4.428425
1.222808 -0.064394 0.988465
1.626005 1.604990 5.122222
-1.382355 -0.038264 2.053803
-0.928626 -0.167674 8.656595
1.549458 1.303455 5.798495
-0.285799 -0.799806 10.640213
-0.649261 -1.980766 5.531711
0.203675 -1.315813 7.300743
-1.535826 -0.223456 5.758205
0.133387 -1.355883 1.983714
1.533528 -0.520186 10.530979
1.648063 1.142555 8.247045
-1.085567 0.941857 7.791330
1.725103 0.907194 6.684441
-1.057860 -0.903142 2.123649
-0.725259 1.567638 9.577845
0.842987 1.327624 1.009601
0.711791 1.621811 10.564308
1.676991 -0.094345 6.739395
1.471161 -0.846881 7.917931
-0.550584 -1.315068 4.005059
1.765239 -0.232959 4.592546
1.668834 1.295446 3.749350
-0.788598 -0.770399 7.163324
-1.171207 0.585522 10.314313
2.093889 0.521291 7.409574
-0.529957 -1.373437 9.812603
-1.219493 0.482282 2.554195
-0.947822 -0.717416 1.886929
-0.530542 -1.759530 4.677222
-1.153236 -0.215153 9.256737
-1.678491 0.352713 4.224101
-0.142421 1.691097 7.345060
-0.595317 -1.213436 8.271793
-0.990516 -1.636224 5.174573
0.946418 -1.099861 4.378320
-1.401612 -0.218085 2.686817
0.113558 1.648351 1.254643
1.731547 -0.179486 10.050577
-1.166152 -0.426183 1.566504
-1.077413 1.075530 1.786338
0.678637 1.707742 9.417241
0.658489 -1.639535 7.003996
-0.104518 2.299429 4.497850
1.727118 0.957527 9.671185
-0.633567 -1.410927 7.667640
0.903715 -1.294346 4.679391
-1.045033 -1.480897 5.563167
-1.126644 -0.468612 7.214208
-0.765684 -0.615440 3.838655
0.052028 1.819166 6.660291
0.571308 1.370757 1.356286
1.013073 -0.715604 10.598839
1.664902 -0.274637 6.088083
1.219412 -1.183347 10.135529
1.847133 -0.228952 4.937685
-1.460440 0.179250 3.326158
-0.119751 -1.662301 6.835892
1.287688 -1.021459 6.155983
-0.253241 1.686909 6.964822
1.425774 0.066313 1.025237
1.694932 1.339360 4.961073
-0.320440 1.154705 10.919479
1.531945 1.089601 9.826530
1.391729 1.395616 8.162523
-0.197675 -1.355316 3.454011
0.091828 2.566374 5.334490
-1.411670 0.404117 8.734118
1.547498 -0.549129 3.072187
0.829330 -1.382312 6.368048
1.757060 -0.377749 7.557234
-1.330711 -0.687551 2.200708
-0.472935 1.405239 6.297208
1.567714 0.962838 5.751403
1.846060 -0.397644 9.803370
0.970896 -1.162243 6.486892
1.320022 1.551532 4.629872
0.694737 -1.446247 4.262790
-0.541625 -0.603122 10.779269
-0.949262 1.409004 8.272732
-1.832977 0.328901 5.283719
0.164022 -1.300854 10.200637
-1.048579 0.367090 1.294853
-1.005312 1.034096 5.224407
-0.187874 -1.615406 5.210793
1.830205 0.972696 5.146053
1.121431 -1.293278 6.811419
-1.008732 1.509023 3.474245
1.466573 0.837204 1.645027
0.167539 -1.380919 4.605735
-0.840051 0.704252 7.700877
0.221295 -1.605433 2.398302
1.661313 1.021160 8.522242
-1.154688 -1.102590 3.681275
-1.010000 -0.860191 1.026602
-1.530462 -0.340530 6.422601
1.703078 0.727985 2.969793
-0.755103 2.062911 5.350800
0.779824 -1.141674 2.831623
1.772510 0.748885 5.631762
1.113022 -1.173648 5.140835
-0.996823 -0.132573 10.480152
1.161704 -0.775003 1.870352
2.011539 0.410438 2.200228
0.952689 1.746424 9.125223
1.406449 -1.163414 8.583948
1.720946 -0.124304 5.510463
-0.702521 1.390042 0.957191
-0.506071 -1.610602 5.016492
1.547027 1.266850 1.728450
0.494616 -1.423309 10.298931
1.454063 -0.500158 5.887026
-1.369786 -1.414888 6.217698
1.634711 0.639225 3.653983
1.552046 0.289261 1.704255
-1.384048 1.005034 9.121645
1.704855 -0.088131 2.992730
-1.085065 -0.115591 0.959344
-0.211251 1.411173 3.094696
-0.778353 1.841405 6.040163
-0.588641 -1.477594 6.755906
1.429020 1.448078 9.753277
1.559034 1.055434 3.194643
1.238700 2.450477 5.302551
-1.303299 -0.441612 3.880008
1.697946 0.079593 10.318909
1.779139 0.430359 10.136669
0.387080 1.608063 6.762733
1.856741 0.044671 3.796918
0.847539 1.438664 8.796310
-0.456485 -1.330852 2.277008
0.203217 2.303576 5.556374
0.265676 -1.711006 5.047229
-1.142522 -0.798266 9.705392
1.044782 1.559170 3.265077
1.838767 0.281357 5.315540
-0.850457 0.384544 11.046390
1.897084 0.193213 8.792803
1.810299 0.079147 2.577159
1.479315 -0.968890 10.300345
-1.240925 -0.185397 3.404914
-1.043218 1.030786 3.848259
-0.624796 1.429891 1.348501
-1.450895 0.354048 9.590249
1.655724 -0.667971 6.436377
-0.328503 1.907208 6.661174
1.492017 2.043267 5.597010
0.580804 -1.626056 7.680197
-0.683835 0.306534 7.337129
-0.063335 2.410878 5.081877
-0.866938 1.656735 5.670929
1.514678 -0.096323 1.448208
-1.425276 -0.415379 6.018576
1.038583 1.557630 2.190838
1.840580 0.042120 9.841998
1.302091 -0.987617 4.096694
1.028740 1.565229 3.552927
1.373729 0.859425 1.001232
-1.188498 0.167258 10.228800
1.084901 -1.128318 2.097379
1.614774 -0.843370 9.128116
0.207178 -1.673762 1.833417
1.397738 -0.659317 4.201101
-0.371959 -1.755744 5.069663
1.737909 -0.011437 1.988777
1.446350 -0.724042 3.215136
-1.039617 -1.823134 5.157755
1.333389 -1.271715 7.342753
-0.343250 1.764453 6.389734
0.005356 1.931516 3.151531
1.815013 0.465695 3.174132
1.744964 1.116581 9.474772
0.938100 2.612853 4.476336
-1.280918 -0.171157 3.760444
1.573052 2.248102 4.928796
-0.235132 2.212505 5.326932
-0.582752 1.240740 10.578870
-0.788424 1.284658 1.537509
-1.201435 -0.371302 3.048001
1.744943 0.173811 4.636200
-1.265738 -0.429742 9.502903
-1.240716 -0.048424 10.444570
-0.783449 -1.118918 2.782809
-0.490932 1.840443 3.553074
-0.425202 -1.503846 7.258759
-0.499698 1.481866 6.636777
-1.180094 -0.951052 1.699271
-0.104577 -1.710556 6.469408
-1.309333 0.801238 7.999037
-0.990884 -1.459743 4.251891
-0.620708 -1.110196 7.082988
-0.374254 1.164267 7.549737
-0.613743 -1.486965 2.237364
1.165925 -0.764013 5.577993
0.176118 2.041182 3.295363
1.822665 0.107716 2.310712
-1.569344 0.789974 5.338686
-1.337426 0.561498 3.005268
1.806201 -0.623675 7.831035
-0.952283 0.803279 2.369323
-1.313117 1.264186 9.606245
1.532076 0.350020 10.709364
-0.077388 -1.166521 10.465145
1.181933 2.349094 5.591883
0.876691 -1.203908 2.973974
-1.525330 0.581139 9.486414
-0.596372 -1.793538 6.604385
-1.572576 -0.979183 4.899117
0.372977 1.367397 8.467490
1.341849 1.170424 1.408207
1.319131 -1.004362 9.066334
0.252207 1.869704 9.674351
0.250215 1.699964 3.425485
1.961721 -0.436066 7.397406
0.337399 -1.127754 1.011965
1.909153 0.392714 4.604674
1.172390 -1.125326 9.848487
1.778511 0.230436 2.933608
-1.551945 -0.338538 4.465221
0.585733 -1.604334 6.453050
-0.300836 1.942176 3.774345
-1.481021 -0.217985 3.112613
1.795831 0.470689 6.549953
-0.818097 -1.642824 4.749194
-1.685786 -0.288551 5.496434
1.657093 0.071894 1.616125
-1.320516 0.050760 10.145311
-0.202768 1.599230 10.331739
-0.311216 -1.195664 4.228832
1.760682 -0.042023 3.617224
-0.338428 1.673464 9.947475
0.167509 2.307540 5.245919
1.333492 -1.148469 7.756497
-0.929262 0.771561 3.431056
-1.084232 -0.291075 7.092412
-0.311181 -1.323422 8.209254
1.809355 -0.155437 8.340059
-0.253252 -1.193389 1.174523
-0.974416 -1.155891 9.696390
1.439577 -0.844838 4.908751
1.750318 0.290389 5.970239
1.228784 2.149516 4.719752
1.794111 -0.308571 8.530903
0.868368 -1.155154 1.911624
1.981057 -0.305229 9.315549
0.467054 2.219356 6.483634
-0.870242 -0.784689 8.152672
1.300723 1.619230 1.481187
0.417416 1.849114 9.397033
-1.061938 -1.146035 6.769960
-1.807477 0.193491 5.147006
-0.813112 0.641127 8.053969
0.915299 2.254173 4.099753
1.309956 -0.943953 9.952036
-0.441166 -1.847743 5.245738
-1.492185 -1.466850 5.297143
-0.692207 -0.307402 7.686508
1.657381 0.326442 2.025508
-0.892166 1.187085 3.350550
-0.079228 1.809554 9.786482
-0.707907 1.278024 5.005648
-0.888600 0.985919 7.745144
1.539650 1.880211 4.948517
1.591716 -0.156384 3.500014
-1.107395 -0.118942 8.356667
-1.294892 -0.279845 9.166947
1.795876 0.784442 4.231022
-0.971317 -0.775733 9.109307
-0.953572 -0.759295 9.449381
0.794218 -1.474599 7.415842
-0.716019 -1.646685 6.359320
2.112164 0.510256 6.827936
1.754183 0.215862 2.146447
-0.235906 1.817769 2.553372
-0.943303 -0.697503 6.318843
-0.386566 1.420954 10.765546
-1.157493 -0.019469 2.408455
1.459373 1.464281 1.884905
-0.416281 2.554098 4.189408
-1.180401 0.189601 3.926943
-1.287130 0.320874 10.406831
0.230597 -1.132929 10.612877
1.260729 1.416600 3.855914
1.900476 0.267784 7.779635
-0.772954 -1.847201 6.082087
0.418462 -1.007603 10.754496
-0.813347 0.995075 7.541315
0.103634 2.213331 3.822850
1.133218 -0.897230 2.261396
1.588072 -0.744243 9.655256
-1.287688 0.364789 1.230497
0.133381 -1.056102 1.445334
-1.463856 0.930728 8.904089
-0.925110 -0.122466 7.876802
-1.411739 0.159686 2.933999
-0.514412 1.152705 1.733723
0.510789 1.757921 9.823624
1.224570 2.508485 5.467999
-0.887885 -0.613131 7.897765
1.584533 0.772284 2.649630
-1.820193 -0.470708 4.793130
0.574844 -1.288038 3.847794
1.712622 0.423008 2.752438
1.977718 0.278317 4.756984
0.948538 1.683501 7.804514
1.582207 -1.067507 7.221364
0.803453 1.797847 3.269059
1.889493 0.101339 4.457131
-1.442637 0.939888 9.453055
-0.348143 -1.203504 7.221437
-0.815665 1.140928 1.907879
1.038958 -1.197985 8.836517
1.595876 0.580803 1.326581
-1.148110 -0.659400 6.857663
-0.153670 -1.452153 8.310840
-0.808863 -1.579131 5.167799
-0.990086 0.629751 8.024864
-1.771648 0.714304 5.208937
0.280556 -1.475829 9.339402
2.001785 0.855682 7.512905
-0.803379 -0.575458 3.501202
0.051662 1.206740 7.849706
-0.559185 0.841956 6.932975
1.348251 2.094668 4.601470
-0.468023 -1.305717 3.302055
-1.136173 -0.196215 1.695528
-0.264841 -1.554961 9.132132
-0.500290 -1.247586 2.957991
-0.835624 0.534852 1.493607
-1.539700 0.118394 9.020477
0.006377 -0.909773 10.763647
-1.091381 0.579470 3.809598
0.731588 1.785641 9.894095
-0.754715 -0.542812 8.946029
0.348590 1.597557 10.508118
-0.071623 -1.635114 7.647144
1.792145 1.609653 6.068055
1.357236 1.663803 6.482669
0.903841 -1.319599 9.185414
-0.633692 0.737285 2.005064
-0.415254 0.944850 6.891119
-1.729242 0.153426 4.732842
0.104562 2.257239 6.120687
1.717250 0.888548 4.547562
-1.242993 0.703537 9.915786
-1.461084 0.075198 4.201291
0.074453 2.643880 5.947267
-0.346811 -0.321243 7.461260
0.509369 -1.561622 7.898150
-1.572505 0.436078 4.691968
-1.084895 0.724710 10.616422
0.640372 2.401438 3.864164
-0.833935 -0.987832 9.295701
-0.710953 -1.055787 9.800435
-0.088338 -1.522140 4.435940
-0.963010 -1.106969 5.543957
-0.590412 0.137264 7.616426
-0.893405 0.618938 6.380529
-0.704403 1.622365 6.216613
2.090062 -0.261004 6.832710
-0.810585 1.123592 10.675972
0.615973 2.130950 6.742662
1.587808 1.394525 7.140701
1.157630 1.700500 9.480212
0.528552 2.323694 4.336699
-1.115960 -0.973666 2.536487
-0.403599 -1.487409 8.448559
0.954368 -0.718036 10.913189
0.103287 1.837824 9.363956
-1.274151 -0.442268 2.182523
1.676269 1.040551 2.120665
-0.274581 -1.505197 2.314594
-0.299645 -2.010284 6.002662
1.892846 0.286881 4.045746
0.903410 1.685734 10.491354
-0.645332 -0.939914 7.932019
-0.679030 1.155455 2.750174
-0.968866 -0.682335 6.935461
1.523731 -0.293020 3.093222
-0.920381 1.124861 5.644112
0.812935 1.701682 1.669950
0.564395 -1.557629 8.893833
-1.115635 1.053959 2.453954
-1.464343 0.600910 7.960235
1.472606 1.607293 4.757852
-1.274244 -1.609465 5.429111
-1.199766 0.927892 5.127180
-0.971311 -0.131747 7.023963
-1.453463 0.725942 8.265452
0.001236 -1.380227 3.931407
-1.645949 -0.965994 6.031506
0.107285 1.847730 2.709029
-0.873924 1.054807 5.351877
1.980165 0.368439 9.860286
-0.785006 1.147665 6.419975
1.222758 -1.020009 3.814995
-1.582961 0.246807 4.465923
1.051243 -1.216230 10.713696
0.460779 1.824782 9.028753
1.093635 -0.811974 5.363417
0.338713 -0.789476 10.863277
1.111957 0.885789 10.642227
1.684558 1.088741 5.974208
1.844802 1.007824 7.614467
1.696674 -0.392210 10.056628
1.706357 -0.374631 8.199744
-0.281528 -0.998395 3.707272
1.223016 -0.862618 4.504428
-0.832817 -0.188890 10.762960
0.931985 -1.343847 8.326540
0.574782 2.221545 5.551530
-0.663428 -1.153147 8.873873
0.843044 -0.999304 10.382339
-0.148669 -1.212007 4.531609
-0.160446 -1.448953 4.161640
1.666574 0.023509 4.859926
0.144977 -1.477031 4.448668
2.062511 0.283932 8.546288
0.219950 1.718318 8.738579
1.369339 1.465311 2.317879
0.369301 1.348871 7.927855
