-3.575819 -7.714937 -16.188000
3.994113 -6.983732 -13.082067
-0.199600 0.292892 -10.325711
2.054068 -0.191701 -10.932180
-4.003716 -26.568443 -15.182586
-0.414235 0.144630 -9.931573
21.478842 -16.289761 -15.376517
3.260182 7.519469 -13.057167
-8.972373 0.051928 -15.818789
1.504234 -0.108336 -11.158313
-8.163607 0.204980 -15.811234
-10.962880 -24.536013 -15.546904
3.412137 -7.131220 -12.826792
-6.046804 -4.469050 -12.814445
2.102766 27.296783 -15.294009
-2.194778 -7.393233 -13.986458
16.312092 -21.606031 -15.377099
3.322275 0.881999 -7.889972
-0.969996 -0.096168 -10.762920
-2.802550 -7.157589 -12.750254
-24.942749 -9.546805 -15.321372
2.184628 1.822146 -9.866411
6.829962 -25.729315 -15.099333
-0.977397 -26.510855 -15.266802
-5.128027 6.589070 -15.965068
18.256447 -19.800131 -15.331858
-8.512148 25.182886 -14.685423
3.509657 7.022454 -12.756888
3.140451 -7.254492 -12.659252
21.013157 -16.778034 -15.309624
7.022260 3.535220 -13.365009
-7.815952 -0.436544 -15.721807
-6.749295 -5.024014 -15.742985
8.383933 -1.708415 -12.493118
0.315147 8.061245 -12.510250
-8.513380 0.490022 -15.908394
2.015385 0.320445 -10.738870
1.110820 -1.332469 -8.276161
-8.183050 0.906188 -14.192796
1.567022 1.192902 -10.014585
5.302646 -26.541149 -15.470378
-8.164914 -0.394416 -15.500799
-17.962643 -18.898691 -15.211549
-5.106632 -6.711572 -15.907730
-1.488351 7.752533 -12.692241
-7.480092 -2.536934 -13.633561
-0.123830 1.345174 -8.847342
-3.642835 -7.369216 -16.135090
4.473033 27.205395 -15.305587
-15.523725 22.023209 -14.831484
-0.905630 -0.520712 -10.843582
-0.699437 -8.728101 -15.636554
-24.642559 10.127092 -15.086027
0.200672 0.941950 -9.113096
2.015853 8.197381 -13.563170
2.414909 1.224249 -7.236948
-1.140373 -0.317327 -11.182997
7.055391 -4.685647 -15.428877
-14.732514 22.511539 -15.022076
2.737515 -7.692299 -13.969284
-2.011124 -7.563800 -12.308438
8.159766 -2.664211 -12.817270
1.595652 -1.256170 -10.149895
1.816167 1.113755 -7.649022
-24.491749 -11.324138 -15.240643
-22.316523 -15.150761 -15.250461
7.363915 -3.384093 -12.619230
1.282810 1.350311 -8.926386
-7.383042 4.019913 -15.447829
-1.144483 -7.914738 -13.650515
0.327020 -0.612390 -10.326246
7.852105 1.436428 -12.866657
-0.647289 -7.721155 -12.627983
2.669991 0.679628 -7.270488
4.758294 26.074221 -14.637911
13.117764 22.958208 -15.234388
2.740685 -0.260226 -8.024031
-2.953820 -7.752672 -15.854458
22.904970 -14.135104 -15.694634
-7.874720 0.247771 -14.962864
-7.833389 0.727725 -15.461523
5.451410 -26.437569 -15.226626
6.990425 4.942077 -16.134151
6.814795 -4.363888 -13.717294
4.974024 26.669876 -15.043726
-4.232938 6.681151 -12.212322
-0.004164 -1.506000 -9.751707
-25.851635 -6.715860 -15.066456
-1.342168 26.934036 -14.942055
6.562559 5.576580 -15.872774
-4.092424 6.875247 -12.744366
-7.079823 -3.594225 -12.409668
1.103710 0.970022 -10.863569
2.096335 0.515432 -7.190963
-2.457731 -7.462237 -12.494076
4.033923 -7.587914 -15.102242
-5.926422 -5.325371 -13.345768
-5.395929 -6.599217 -15.280528
8.602239 -1.207443 -15.665846
-6.947001 -4.015429 -15.173291
-5.124275 6.405801 -15.575596
-6.342855 -5.066458 -13.126205
1.706262 -0.294537 -9.298297
4.110068 -7.116216 -15.131948
-9.998075 24.623678 -14.975464
3.844411 -7.846154 -15.954792
2.191235 -7.520805 -12.322212
-2.566220 -7.645304 -15.876502
-7.972202 1.609541 -14.725226
2.828309 0.446598 -8.437976
2.393408 -7.366422 -13.721352
1.229660 1.488283 -8.457631
8.034386 2.173539 -15.461998
0.413402 0.874233 -11.427229
1.185869 1.419591 -9.440457
2.424563 -0.461754 -10.534489
0.767766 -0.081053 -10.688889
0.394854 0.720659 -2.446490
0.028450 0.288268 -10.684744
0.313530 -1.639870 -9.235021
2.885455 7.403588 -15.209219
1.259805 7.889565 -13.783985
-6.471904 5.198088 -15.663196
1.300755 8.522841 -15.701962
-8.964112 25.044056 -15.289158
2.943331 8.261391 -15.627443
2.815826 -26.555586 -15.092999
-2.216722 7.428885 -12.048159
5.268892 6.140361 -15.619211
0.977690 -7.787432 -13.288292
-10.728836 -25.403236 -14.930935
5.419821 25.780907 -14.968783
6.746692 4.044446 -12.969978
-23.275156 13.416009 -15.544048
11.485611 -24.374838 -14.982647
-8.539139 -1.906515 -15.909126
12.653210 -24.037554 -15.240891
-13.507761 -23.838701 -15.312944
-1.109612 -1.394333 -10.963003
-5.915344 5.426601 -14.606760
25.951153 6.392407 -14.755921
-7.309023 -2.504537 -12.089498
2.856131 -7.636571 -15.755747
-7.182928 1.707408 -12.249496
22.773546 13.851709 -13.966084
7.845560 -1.059978 -13.472874
3.248772 2.064494 -6.857304
-3.293318 7.353573 -15.492844
-7.780217 -1.421350 -13.151542
11.737546 24.491207 -15.470508
-0.027186 -7.895732 -13.504445
2.938764 -0.005724 -8.351460
6.453872 -4.474222 -14.098230
-0.694303 -0.332897 -2.594928
-2.606053 -8.407673 -16.009588
2.910424 0.204115 -7.765891
19.707571 -17.641224 -15.011360
-12.048141 23.792864 -14.951957
-16.146759 -21.222309 -15.283117
-0.316510 0.431343 -10.621925
8.252557 -1.099074 -16.094997
-8.048365 -2.323857 -15.532116
1.042979 0.989231 -10.474302
-0.669744 7.833884 -13.356209
-5.685576 5.545066 -12.762956
-0.683241 -0.269495 -9.364804
5.487364 6.055446 -13.643313
-8.074243 -0.058341 -15.461319
0.985946 0.649083 -10.022995
1.108771 0.987418 -9.106363
5.160797 -6.042649 -13.498772
2.642792 -7.639280 -14.657183
1.456704 1.585534 -7.702229
1.560724 0.410753 -8.434598
17.012238 -20.948185 -15.411362
-0.443443 26.862623 -14.938248
0.119085 0.989802 -10.279641
-19.497395 -18.320705 -14.730087
-6.462539 4.590820 -13.989151
-0.996048 0.277457 -7.791358
-7.803101 -0.604219 -15.277018
-4.236863 6.709737 -13.819828
-24.171839 13.024599 -15.064386
2.234304 8.022339 -13.001333
0.518751 0.581615 -10.759955
1.061168 -1.025243 -11.135999
4.860621 -6.729727 -14.436866
0.889948 -0.540665 -9.194113
-8.734704 -1.465233 -15.557743
1.587245 2.052550 -8.089199
2.723233 0.506394 -7.815124
5.346201 6.366189 -15.986034
-6.550081 -6.086486 -15.879007
2.662619 -0.663576 -8.967269
-0.041880 1.454363 -7.476943
18.393871 19.437866 -15.019082
3.421824 -6.966895 -13.446819
-3.555301 7.101985 -12.133842
-7.890223 -3.100605 -15.749834
1.756491 -0.839646 -9.813196
8.330585 -0.406486 -12.975161
1.711721 -0.634037 -8.902935
9.197156 -0.785460 -15.924160
-0.488011 -8.399192 -15.605669
0.633291 -1.217548 -1.982815
-26.779600 -4.920282 -15.091715
-4.153791 -6.741515 -11.915976
1.275738 -8.830460 -15.653574
-7.177840 -2.929039 -12.351516
-7.550744 4.975294 -15.628529
2.800045 1.141013 -7.279136
8.484519 0.076024 -13.125778
7.617012 -3.264504 -14.885291
-2.240415 -7.825616 -15.302159
1.121202 0.903852 -9.530879
-5.995384 -26.667242 -15.044271
-0.761470 -1.279231 -8.904441
-0.478892 -1.173854 -10.187364
1.632509 -0.263178 -8.434340
2.284664 2.517594 -7.212037
-22.015671 -14.890849 -15.159029
5.448384 -5.884744 -12.317822
7.235276 -3.669862 -13.986288
4.819260 -7.221208 -16.055069
0.745279 -1.407558 -8.345924
-0.238026 -1.279961 -2.643779
7.270864 3.345972 -12.915801
-4.422693 -5.484796 -11.992817
8.113600 -3.487025 -15.657402
2.559875 1.852567 -8.496243
-4.547275 7.766225 -15.868848
3.190944 7.410783 -12.687333
12.897463 -23.731026 -15.708139
1.395115 1.019240 -10.867460
0.758610 1.178428 -11.165749
-14.266079 -23.155146 -14.963865
-3.208302 7.799747 -15.716353
2.256039 1.604696 -7.990149
-8.304834 -2.542911 -15.627476
7.883642 -1.867662 -15.498259
-7.088117 -4.768867 -15.994070
5.559684 -5.603988 -13.141254
-26.871370 0.463907 -15.346498
-0.002939 0.012222 -7.564925
-7.262762 3.288782 -15.567984
0.678754 1.048403 -10.869043
4.332478 -6.553854 -13.494556
1.690549 1.399289 -10.308848
6.783560 -3.825001 -13.144361
-15.907920 -21.577333 -15.427717
-5.226541 -7.060357 -15.868265
24.484808 11.241074 -15.486330
-0.315844 1.084087 -7.157131
2.364891 -0.638053 -8.536366
1.456699 -1.221071 -9.464079
6.762783 -4.540555 -15.839386
5.190790 5.849354 -12.046702
3.024168 0.942124 -10.091501
2.493469 -7.665350 -14.937635
3.821749 -7.306109 -15.922173
2.387326 -0.369301 -9.366231
-27.534859 0.778123 -14.606632
1.144820 -0.988145 -10.714967
-1.074380 -7.590836 -12.546801
3.229347 0.068998 -8.284140
24.893522 10.000094 -15.178352
19.274097 -18.182762 -15.213068
2.630507 0.078906 -8.299841
2.739355 0.360485 -10.622154
-8.115152 0.668055 -12.488717
26.494469 -4.441762 -15.357914
-2.663296 -26.312767 -15.300072
0.369628 -1.185343 -10.983534
2.498699 2.148400 -10.148545
3.302484 0.810228 -7.175709
3.165824 1.342586 -6.831389
4.594844 7.158230 -16.049503
3.276581 -7.431293 -14.193235
-6.975636 26.102591 -15.236969
-24.372030 11.166636 -15.261978
-8.343757 -25.679111 -15.359590
-8.201258 1.622214 -15.302998
-1.196181 -0.764266 -8.831048
-9.445393 -25.320061 -15.403555
-21.828079 15.162365 -15.217554
4.349568 6.577575 -13.011765
-5.560629 -6.329335 -16.044407
4.170929 -6.866344 -12.647646
-1.822564 26.968929 -14.840986
0.878504 0.601079 -2.466105
1.709253 -0.607678 -10.885096
3.269903 0.578754 -7.881199
0.508362 -7.915509 -11.754646
-7.113105 1.902008 -13.417803
8.203095 -0.587968 -13.911928
0.009868 0.117243 -7.290916
1.493539 1.365976 -6.665004
-0.070704 8.424565 -15.744363
20.872314 -17.053444 -15.143399
1.566857 7.676264 -12.960009
-7.993438 1.935447 -15.413897
7.089023 4.360160 -13.488400
3.714431 -7.056661 -13.197254
2.076637 1.077871 -8.932442
-12.257849 24.043835 -15.428091
0.023774 1.139266 -8.996887
2.439135 8.052544 -13.534367
3.290371 0.177245 -7.834720
-0.311170 0.241945 -9.252727
7.074413 -3.777668 -13.005302
0.877966 -0.604185 -11.123743
1.786292 26.846495 -15.159244
-24.795622 -8.300323 -15.494403
-25.784306 -5.724381 -14.652531
-8.169236 -3.260960 -16.147551
-3.225266 -7.308275 -15.329918
-19.195864 18.632593 -15.014082
-1.719848 -7.458411 -14.259318
25.758081 3.619663 -15.304829
8.707738 0.439652 -12.111508
0.289442 1.071592 -10.827505
7.580359 3.513599 -15.371077
2.504969 -0.495097 -8.148785
8.511262 -0.869799 -12.463394
0.997079 -7.892428 -12.467178
-5.897726 -4.143561 -12.610360
-7.314971 0.841403 -12.168481
8.425771 -3.437662 -15.742971
-4.683151 26.150255 -15.287576
2.363209 -0.120138 -10.477671
6.967196 26.284559 -15.441929
2.185308 -0.283290 -9.727112
7.222934 -4.072110 -15.310122
3.306217 7.708653 -16.096844
-14.098056 -23.206001 -15.453955
26.322845 -6.633224 -15.381454
6.624680 -5.444538 -15.181372
-7.965388 -4.185673 -16.023098
-7.153998 -2.755378 -13.644152
0.179779 -0.067168 -9.655402
-26.334484 1.221226 -15.023024
-7.564401 -2.335061 -12.541723
5.217435 -5.997567 -12.452703
-4.113364 6.600733 -12.559275
3.013454 0.210886 -7.282135
25.936201 1.131293 -15.585388
0.297590 0.482128 -1.506341
2.312330 1.748281 -10.436276
-7.068942 -3.959166 -15.551554
-17.509972 -20.274811 -15.374125
0.046424 -0.816803 -11.101371
0.656393 0.430540 -10.045413
6.574364 -4.436642 -12.222992
-7.878938 -0.802980 -12.945850
-20.939196 -15.914482 -15.212629
-8.019196 -0.925128 -15.529167
7.896926 -3.335036 -15.785858
3.107296 7.267749 -15.851173
-6.339605 -3.711665 -11.839870
3.807408 -6.860044 -12.233714
3.900203 -7.346628 -14.052181
7.613936 2.144692 -13.411165
1.506181 -7.935442 -14.795195
-4.337666 -6.257433 -12.250468
-7.322560 -2.900158 -13.994748
-14.405490 23.583466 -15.362906
1.262406 -1.030683 -10.058758
-23.249985 14.336607 -15.090496
6.467111 4.833570 -15.256889
-22.178186 15.651513 -15.610237
-2.897276 8.370394 -15.852052
-25.992533 -5.248279 -14.798227
8.046173 0.745769 -12.230461
-6.983346 -3.458199 -13.218616
1.285147 -7.847912 -12.570410
-10.394123 -25.360542 -15.004101
2.710392 1.879277 -7.979347
1.646869 1.592387 -8.480675
1.112633 -0.354672 -11.358120
22.331221 -14.478933 -15.460146
3.327208 -7.750468 -15.758177
8.196696 -3.169814 -15.583931
-7.763493 1.359600 -13.943544
27.390985 -0.029260 -15.241045
-7.322038 -2.384521 -13.184326
0.259199 -1.474626 -2.563572
-1.612385 8.061638 -15.758578
7.609518 -2.909051 -15.518744
2.334764 -0.817255 -8.772507
3.162081 0.302224 -10.748358
-6.647715 -4.504585 -15.962036
-2.359067 -8.289822 -15.624212
-24.305288 -11.625848 -15.219309
4.710986 6.528738 -15.299006
0.843685 -1.094663 -10.137412
15.225448 -22.434525 -15.463897
-13.498194 -22.894741 -15.581368
-2.489274 -7.534078 -14.308474
-8.285026 -0.238673 -14.235415
-16.024462 21.966026 -15.034164
0.832657 -8.654323 -15.908305
-2.626937 8.576040 -15.848406
2.158393 0.806704 -6.720246
-13.482036 -23.382391 -15.555131
7.815089 2.688850 -13.115469
-7.334419 2.664462 -12.778756
0.680799 27.152719 -15.128094
0.271179 0.689016 -9.830304
16.784849 21.792105 -15.773844
1.876202 1.240091 -8.776412
-1.172779 7.956134 -13.084246
-14.872779 -22.197435 -15.479746
-1.025768 0.516712 -11.122675
0.059147 -1.173918 -1.666355
-8.630530 -2.988217 -16.045820
-0.779652 -7.501369 -12.787548
-4.388906 -7.594899 -15.737812
-4.437318 26.546432 -15.264427
2.019957 -7.656576 -13.197287
0.470761 -1.500030 -9.863164
1.262232 -0.423486 -11.056314
3.095368 1.096854 -8.510585
2.582058 0.933214 -10.079225
-7.891707 0.548325 -13.539648
-8.228821 0.452921 -15.956030
3.237719 -7.097169 -14.769805
2.801643 0.666691 -8.134818
1.885907 -0.416426 -8.719319
2.863819 0.748616 -6.555787
-4.362786 6.530522 -14.773951
-7.022995 3.591601 -12.241124
2.312148 0.375170 -8.510860
7.293926 4.728948 -15.916719
-0.410299 -1.354327 -9.125356
0.624999 -1.098971 -8.931818
7.359787 -3.352522 -14.075048
8.585335 1.236806 -15.030592
-0.845062 -0.246368 -10.967830
-25.297356 -8.837336 -15.456976
4.536208 -6.454468 -12.496038
2.107215 -7.576818 -13.863234
-25.387526 -6.758914 -15.037962
-17.584139 20.545727 -15.372833
7.584328 3.884165 -15.562634
-6.106895 -26.239412 -14.920354
-7.855031 -0.939822 -12.057784
0.006851 0.693002 -2.072436
-2.135784 8.122279 -14.215660
-5.674880 -5.732260 -13.265678
26.177773 4.898817 -15.235201
1.344128 1.779691 -7.879962
-7.818137 -25.527372 -15.595415
4.588965 -6.682497 -13.501377
1.369643 1.041053 -9.732834
7.969674 -2.923331 -15.845612
6.458909 4.884036 -13.311007
4.851259 6.242298 -11.978469
-16.958559 -19.431343 -15.103144
8.189560 -2.709410 -16.052658
6.990819 4.476008 -14.820747
0.342623 8.229939 -12.860060
8.338183 2.394836 -15.784147
-1.654456 -8.508399 -15.765001
6.759803 -4.211490 -12.860986
4.030868 -7.141906 -15.723150
-4.887171 6.562593 -14.449247
-5.842222 4.817565 -13.303572
6.689419 -5.338502 -15.705965
0.007588 -8.003223 -14.574181
1.300694 -0.542814 -2.212862
-0.425061 -8.831317 -16.144207
-5.316877 -6.258757 -15.150922
-26.489851 -5.859798 -15.309916
-2.916147 -6.701863 -12.014455
3.133088 7.315681 -14.005258
7.038842 -6.197488 -14.884050
-1.805436 -8.104426 -15.528267
7.727718 25.181080 -15.001837
7.608252 4.191167 -15.938612
-8.268705 -0.679233 -15.605793
6.948832 -3.596956 -12.172885
0.051900 -1.426574 -10.217541
2.010249 8.691763 -15.736819
2.321884 0.045774 -9.699240
-1.019752 -8.342632 -15.611887
-2.130635 -7.284907 -13.345623
0.918071 0.915048 -8.774770
-7.655282 -1.181042 -11.993077
-0.942447 -0.168692 -9.401767
1.449492 -0.365592 -9.924632
0.318561 -0.662345 -9.155428
26.441404 5.709674 -15.299273
-5.951671 25.915783 -15.077038
-15.600949 21.988005 -15.146291
6.751324 4.398101 -13.264553
0.613030 -0.463424 -8.867055
-25.597847 -7.752307 -14.963770
4.897626 -6.740637 -15.838913
-3.053221 -7.401501 -13.997126
-7.035257 -5.302353 -15.806014
-8.259953 4.036894 -15.908712
-8.916997 0.475647 -16.134436
3.164172 2.146983 -9.714927
-25.948912 -4.270919 -14.919685
5.127319 26.312778 -15.133794
-1.102596 -1.067227 -8.304235
7.789138 2.749055 -15.116047
7.308097 -4.632905 -14.759514
-2.232193 8.160470 -15.133606
0.475180 -1.313204 -9.205961
-6.906073 5.352932 -15.676857
2.673396 0.297473 -9.867726
2.551423 0.068195 -9.104759
26.753309 -3.186693 -15.233091
-0.795602 -0.019655 -10.026183
2.428869 2.133836 -6.811968
7.069818 -4.448810 -16.173487
1.639795 0.095324 -10.150012
1.027290 7.829816 -12.492767
7.674744 -2.174474 -12.024856
25.408037 -9.685296 -15.108065
0.974273 -1.485089 -10.837814
1.904490 -8.187848 -16.073914
0.031171 -8.087543 -15.638432
-7.506016 -0.355245 -12.245365
-22.243004 -14.591025 -15.163977
8.497746 -25.566198 -15.407442
7.776163 1.708047 -12.383730
0.701364 1.583621 -7.656458
-7.576496 -2.837750 -14.585742
-0.430575 0.606854 -6.917326
7.868909 -1.055414 -15.294043
2.672961 1.982931 -7.279770
3.402551 0.460359 -9.302900
-1.663590 -0.709365 -7.276598
-0.415535 8.479121 -15.574239
-5.091902 -5.902794 -12.688156
2.626023 1.196294 -6.974054
2.462644 2.670070 -6.639811
-27.054356 2.777609 -15.497442
0.111377 8.690347 -15.709656
-0.216151 -1.265415 -10.982186
0.925453 0.018939 -9.817595
-4.849608 6.393267 -13.512031
-7.792922 -0.132368 -15.263895
-0.852622 -0.632465 -9.840117
-4.535854 -26.783398 -15.315918
5.722317 -6.582349 -15.402847
-7.998910 0.509419 -15.611221
4.104877 6.701208 -12.683863
-22.131115 -15.336668 -15.403786
-21.560257 -16.622683 -15.065090
13.309651 -23.747364 -15.234585
7.580796 -2.656095 -14.022902
-8.560556 -0.973622 -15.813618
23.546579 12.372927 -15.050835
8.844416 1.440634 -15.974475
-3.317675 8.194408 -15.504057
-7.757452 -1.196593 -12.454389
0.309982 -1.626803 -10.661443
-7.772671 -5.010898 -16.093321
7.313179 3.657224 -14.559132
6.907206 4.250530 -12.812292
8.094811 -1.887191 -12.773286
-3.890336 -7.709685 -15.758785
-5.836336 6.235972 -15.634743
-7.943308 3.786926 -15.815466
7.458707 2.940583 -12.846766
10.876944 -25.031370 -15.374357
1.048468 0.467310 -10.417850
5.888325 -5.894178 -13.902203
5.769028 5.271496 -13.330759
-8.491280 -2.178074 -15.932613
-6.760242 -3.433627 -12.150095
-8.634410 0.068007 -15.962717
2.635366 -7.495653 -14.162060
-6.875490 3.889458 -12.482460
7.375077 4.391307 -16.041801
5.790184 -5.899749 -13.461172
0.628903 1.297803 -8.490210
21.819897 -15.125735 -15.536436
8.015515 -0.975282 -12.532484
6.501990 5.004343 -15.616648
-3.860105 6.988705 -12.989494
5.833411 -5.575346 -12.613437
-5.550304 -6.175660 -15.276218
-25.154972 9.138348 -15.338237
1.423330 7.563087 -12.475748
-1.677015 7.805902 -14.146880
-6.901314 3.152090 -12.558332
2.411685 0.214510 -9.923244
-0.829447 7.819943 -12.436792
-1.552413 7.693725 -12.219916
-0.084227 -7.873796 -12.499837
4.933528 -6.199109 -13.492947
2.213603 1.030499 -8.112725
8.688570 -1.038626 -15.088743
-2.098360 -27.299042 -15.069853
10.610235 -24.487347 -15.508738
0.443156 0.235254 -10.732354
-20.443180 17.362209 -15.405844
7.016850 -3.997683 -12.180689
4.335033 -6.629636 -12.873979
25.349083 -8.964572 -15.429592
6.709968 -3.888040 -13.823002
7.488705 3.274496 -15.043783
0.866363 26.937279 -15.254581
1.243468 -7.718056 -12.022595
3.445097 7.483081 -15.614765
3.519940 2.382318 -8.343716
-26.112383 -7.484642 -14.869249
-7.716508 1.551269 -12.707484
4.501398 6.651104 -14.207581
4.762590 6.290940 -12.854308
-0.913533 -7.957829 -13.942505
8.238186 -1.474178 -12.895699
6.369670 5.104651 -13.570619
-5.309944 -5.733416 -14.400585
1.619303 -0.668096 -7.863019
-4.829919 6.620897 -15.468686
-4.685462 6.431149 -13.846201
24.988400 -0.791058 -15.312572
1.993308 8.366298 -15.498590
-0.138111 1.369780 -9.246250
26.277880 3.555928 -15.372206
-1.091067 -0.225739 -7.686234
-21.899469 -15.708494 -15.370427
3.016357 7.544287 -12.400944
-8.590811 1.750982 -16.087816
3.004720 7.606265 -15.436466
-2.612242 -26.669792 -15.234095
2.391084 1.852433 -8.071891
-1.917567 7.612160 -12.564516
2.991492 7.244496 -12.549397
6.867859 -3.930217 -13.435938
-5.512188 -6.047019 -13.794825
-2.106266 8.403520 -15.939651
2.202768 1.987913 -7.191972
-26.140383 6.613779 -15.520382
2.785783 1.598632 -9.938224
0.365521 0.907804 -10.366841
7.857860 1.677959 -13.276655
6.835887 3.933532 -13.240482
12.152071 -24.012516 -15.360054
-0.214184 -8.017313 -13.963579
-4.223972 -6.731972 -12.855721
1.795234 -0.233985 -8.902410
4.584173 -6.474213 -13.140823
9.404382 0.255512 -15.899721
-1.739918 -8.604678 -15.488886
-0.534487 -8.015374 -13.960302
1.630540 8.880623 -15.891556
0.522708 0.790315 -2.848701
-7.305263 -2.848618 -12.033696
6.893729 3.911167 -13.550804
0.583777 -0.803690 -10.852031
-0.234887 0.332417 -10.925774
0.137860 -8.907789 -15.699263
-0.717637 9.105156 -16.072216
-8.905094 -25.634886 -15.404245
-8.564678 3.115993 -15.890839
1.858552 -7.612774 -13.613539
8.029989 -0.251104 -13.415873
8.319121 -2.011719 -15.602932
1.219378 -8.385548 -16.058084
-3.837491 -6.705064 -12.815295
3.286861 1.332919 -7.805539
7.371760 -4.253098 -16.000298
1.409705 8.567484 -15.366337
0.278694 -7.832770 -13.322567
-4.134286 6.837912 -14.038250
17.670893 -20.206251 -15.486792
-15.745982 22.194834 -15.295354
23.500046 -13.085262 -15.339060
-7.250355 -0.644716 -12.428226
-8.917204 -0.263721 -15.996778
-6.333339 4.804250 -14.207914
-26.472578 -5.353670 -15.232182
5.577507 5.809192 -13.203686
-0.684451 0.311414 -9.420917
1.115371 0.402949 -10.161570
7.975669 -0.531909 -13.069633
-5.396653 5.913541 -12.273171
8.089104 3.592654 -15.881767
5.043541 6.048468 -11.933125
-25.868254 -6.829974 -15.334163
8.231113 -0.806872 -14.377413
-9.133615 24.967649 -15.045555
-0.032815 -9.196325 -15.753622
8.070811 -2.562070 -12.274777
-26.086956 -3.841128 -15.120801
-1.145199 -1.313480 -8.454359
-1.842958 -7.849927 -14.978461
-1.702273 -7.552540 -13.354486
6.169201 -6.833484 -15.858274
7.774324 -2.086667 -13.172110
-1.335599 8.595892 -16.274258
26.589502 -1.513693 -15.442175
7.952325 0.307444 -13.076073
13.082745 -23.433317 -15.566923
3.164012 1.801898 -5.921813
3.172448 -26.527292 -15.209750
25.162148 -8.361901 -15.520088
6.197891 -4.779700 -12.431171
0.336133 1.383792 -8.313790
1.909166 -1.329570 -8.609673
-23.462051 13.624030 -14.859305
6.993482 -25.962038 -15.562128
3.435056 7.238183 -13.754129
-4.430274 6.801507 -15.360994
-11.247139 -24.713631 -15.126878
-0.241474 -8.570008 -16.027061
17.182911 20.458786 -15.066790
-1.493287 -7.782411 -12.273909
-0.139813 8.095537 -13.609963
-1.082344 -1.020423 -8.903876
1.167954 0.704017 -9.016888
1.195668 1.414346 -10.178101
2.949061 26.745129 -14.850861
-3.320664 7.494577 -15.165157
-0.898890 -0.935404 -9.530420
0.828436 0.890217 -10.215828
-7.284368 -5.806872 -15.808948
-7.929505 -0.296932 -12.946829
-7.029427 2.694803 -12.254086
18.607250 19.433949 -14.824772
-0.737683 -0.845026 -9.089072
3.433157 7.488896 -14.846262
8.571577 -0.459772 -13.216210
2.743063 0.416204 -7.405489
-6.733558 26.003113 -15.358290
2.240145 8.035225 -15.647831
16.931101 -21.186596 -15.264814
-7.401314 2.028301 -12.270746
-7.838603 1.357276 -12.321673
-26.109056 5.919114 -15.014998
-7.385947 1.462858 -12.292254
4.583068 -6.489462 -11.966908
0.837834 0.104741 -10.919077
4.328174 6.745496 -14.701071
1.622026 -0.192534 -7.849737
3.187874 -7.403454 -14.912371
7.690149 1.860531 -13.959651
-5.758876 -4.916426 -12.490267
7.621221 -1.938537 -12.147353
-6.998938 -3.942795 -13.144600
0.867874 -7.927764 -12.186302
-7.351576 -2.031672 -12.839669
0.083433 -1.161507 -10.895449
-19.422804 -17.771324 -15.104750
-0.102905 0.843809 -10.391852
7.176239 4.295439 -14.679022
24.283100 -11.075946 -15.541329
-5.329848 -7.397223 -16.043150
-7.520433 3.590423 -15.551649
-5.738102 -5.348527 -12.901982
-5.249138 -5.405970 -12.819915
3.033862 -7.299908 -13.259789
2.696814 8.230270 -15.731724
0.165090 0.465375 -9.582538
-7.792841 1.181636 -15.851023
-5.231659 6.289689 -15.163839
4.716027 6.334417 -14.343520
20.224035 -17.273428 -15.384195
-8.179000 3.133901 -15.884320
-5.609330 5.487033 -12.196259
-3.567543 -7.667591 -15.837803
-8.197165 0.248603 -15.301041
-20.978994 -15.486955 -15.308020
-7.778375 -0.212923 -12.024918
-13.717658 23.112459 -15.311102
-7.863286 0.218329 -12.623463
9.888919 24.761158 -15.398945
26.217117 -4.606404 -15.177050
-8.311584 1.008116 -16.100044
-2.250820 8.419262 -15.672476
6.795687 -4.016619 -14.359132
-6.360107 4.994700 -13.566448
8.061314 1.489886 -11.727226
13.464691 -23.552929 -15.532343
7.904256 -1.553004 -13.046643
1.113735 -1.172236 -10.521691
7.290258 -5.880487 -15.689480
0.466903 -1.314761 -2.170027
8.221142 -2.063887 -13.482431
-6.440369 -4.702348 -13.523438
-25.377077 10.360625 -15.311216
-8.176675 -0.430138 -15.903385
-3.852858 6.733790 -12.223538
-6.889190 -5.556974 -16.054884
-8.696954 -3.656224 -15.990657
0.882686 8.461187 -15.631244
-0.628752 -0.836552 -10.138979
7.837919 -0.839259 -12.360073
7.508802 -3.641132 -15.611354
-0.435325 -0.825787 -10.932119
-16.064610 22.177750 -15.193577
-7.966930 1.799671 -15.003153
-0.041353 1.312966 -8.295574
-0.044778 0.806943 -9.211051
-24.993439 -8.404191 -15.258012
-8.006289 4.625753 -15.967199
1.224504 -8.230955 -14.287230
8.634020 -2.283088 -15.992316
2.309936 0.199820 -9.140244
7.809978 -0.970580 -14.620697
3.284471 1.281342 -9.817070
-7.766932 -0.827281 -14.820999
1.346469 26.945210 -15.102501
6.245447 4.986642 -12.539661
2.901127 1.427269 -7.565812
4.218858 -6.621379 -13.163153
0.753740 -7.508461 -12.270237
0.828392 1.423110 -9.294220
6.655185 4.954612 -12.874676
2.070767 1.814008 -9.505823
-15.430799 22.416679 -15.231442
-7.614964 2.098057 -15.956934
-24.548010 -12.190267 -15.065939
-5.792216 5.217438 -13.509064
-0.618119 -1.146119 -10.821806
-5.632693 -5.311025 -11.989863
7.881042 -2.298523 -15.688585
-0.925896 0.028784 -8.622554
7.040467 -3.640065 -13.548124
8.060423 -0.852382 -12.786058
-8.448425 -3.120280 -15.901807
7.904904 1.995499 -14.647092
1.641865 1.466793 -8.740262
5.477782 -6.774292 -15.834547
-7.249068 5.044003 -15.331289
-0.355287 0.780298 -9.015664
-0.420462 -0.047387 -11.132906
-4.820435 -7.023168 -15.988895
-23.765223 -12.739865 -15.292669
-6.532964 4.565582 -15.512647
23.926153 -12.501932 -15.223785
2.656117 0.540880 -10.062694
-26.597525 8.012395 -15.602518
-0.556953 -0.111133 -10.881715
-0.283459 -0.950168 -1.857665
0.704271 -1.295725 -10.962691
-12.047410 24.192638 -15.176702
1.072838 -1.151949 -2.850599
-16.561979 -19.201027 -15.478872
2.956812 2.143714 -6.563843
-6.259613 4.840312 -12.704672
-2.388048 8.131932 -14.406929
1.019281 1.264559 -7.784730
2.105263 -0.707114 -9.087457
2.647515 1.732487 -9.498112
6.090244 5.780523 -15.990679
-5.129697 -6.430333 -15.791686
6.405106 -5.337835 -13.936589
5.703739 6.686616 -15.983204
-3.972610 26.659576 -14.903780
1.190015 -0.471584 -10.804787
0.826807 0.968470 -11.401663
2.855846 0.582566 -10.802048
4.274978 7.599911 -16.018673
4.359143 6.590859 -12.166914
-26.436045 -6.543583 -15.316184
3.278553 1.072842 -9.123295
-7.101928 25.807283 -15.156871
-4.753444 -26.663380 -15.153744
8.134357 -2.169549 -12.340729
2.486240 -7.568557 -13.335880
-0.382263 -7.999468 -14.988369
8.336109 -0.415868 -13.546359
-7.742383 0.445917 -12.559146
7.115498 -3.978857 -14.410105
6.941740 4.204936 -13.925971
2.429886 -0.365216 -9.050713
26.701492 1.685653 -15.223660
-1.174099 0.293533 -11.077240
-0.507574 -25.623730 -15.259863
-26.812017 -5.516785 -15.180141
-1.846715 8.629753 -15.975389
-4.082419 -6.481275 -12.757235
1.715297 1.142107 -9.505598
1.489556 26.470194 -15.100030
-0.901175 -7.799018 -12.457769
8.031960 0.311836 -12.709209
-13.954713 -22.692713 -15.426977
6.289422 -5.023472 -12.330427
7.795959 1.191289 -12.467806
26.054518 -3.276383 -15.265171
4.170732 7.241850 -15.849751
5.927833 -5.356644 -12.801283
1.907765 2.104752 -8.709580
0.387333 -0.462695 -11.405002
-5.104576 -6.166673 -15.781096
4.410473 -7.373995 -15.422754
3.587338 -7.286186 -13.834570
6.849926 -3.934936 -12.889978
-0.375313 8.232780 -15.485706
-26.399057 8.156977 -15.418631
-3.475897 -7.436652 -15.240486
25.618475 8.771059 -15.371330
-0.813675 -0.385642 -10.249962
-0.493322 0.500865 -8.618163
-0.305597 -1.123646 -11.191014
-3.397089 6.886081 -12.093661
7.338177 3.121595 -13.894841
7.327231 3.033576 -12.235902
-2.602839 -27.251829 -15.247660
4.218425 -6.678059 -14.022881
8.302933 -0.765239 -15.502251
-5.936660 -5.011374 -12.838737
1.708327 1.480918 -10.559547
7.744070 -1.364025 -12.431037
-0.997393 -1.128876 -10.742183
-5.205115 6.423609 -14.670462
7.960368 1.915359 -13.754223
-0.363924 0.415341 -1.949379
8.065259 3.210118 -15.455219
6.648730 -5.772643 -15.722099
6.563766 5.488972 -16.145075
-7.486431 -2.280043 -12.807883
1.345156 1.342155 -11.129626
-3.264220 -6.956629 -11.794862
-7.083771 -3.552473 -15.159733
7.878455 -25.602182 -15.279802
1.822285 -8.033354 -15.177012
0.449401 -0.057290 -10.642884
6.140790 5.710430 -15.212938
2.765902 7.500569 -12.885322
2.240141 1.763982 -6.714383
2.594977 -7.815944 -15.354548
7.428129 -4.022901 -15.834947
0.069141 -8.515218 -16.090788
-7.026189 -3.543039 -12.736298
-1.106908 -0.934144 -8.008829
-1.235295 -7.795778 -12.584369
1.689646 -0.709761 -10.134743
6.923435 -3.710157 -12.490932
0.486396 0.338875 -11.675519
5.791968 -5.582942 -12.042441
1.464270 8.754767 -15.698989
-25.310425 8.881474 -15.412792
1.086966 0.957568 -10.200853
-0.892091 -0.420363 -9.312350
7.577731 2.097671 -12.132793
1.568756 -8.338270 -15.497636
0.845734 -1.519935 -11.301230
0.706023 -0.578773 -10.911460
2.472447 1.858458 -6.313508
7.025326 4.615611 -15.662186
-7.403800 -1.784062 -12.622171
-1.955798 -7.452239 -14.412136
3.414755 -7.313525 -13.611129
0.212024 -1.377159 -2.961167
-5.822196 -6.631942 -16.031494
7.485772 2.772406 -12.646040
-11.655947 23.958862 -14.771244
-0.338090 0.689960 -10.963022
-0.993964 -0.930492 -11.173672
4.977498 -6.177325 -12.280170
-15.727695 -20.732443 -15.275595
-7.395435 -1.874174 -14.506337
0.166255 0.045205 -11.427748
6.737674 -4.459298 -14.565601
0.804111 -1.227827 -2.234551
-13.895148 -23.034538 -15.280634
2.988604 1.636894 -6.875200
1.079676 0.156721 -2.051410
3.090067 1.355722 -8.550749
2.702013 0.300684 -8.670579
2.415882 -7.697898 -12.346650
2.533621 -0.117772 -8.578742
7.495860 -2.450813 -12.436096
6.611590 -4.329893 -12.627054
-7.430662 0.363019 -12.262532
1.973580 -0.677734 -9.359134
9.196464 0.692388 -15.445131
7.667273 -1.588863 -13.201969
0.411035 0.846725 -9.236385
-22.369713 -15.626085 -15.372559
1.623033 0.404144 -9.032983
26.307821 5.733230 -15.544834
23.764051 -12.729820 -15.378904
26.075275 -6.361747 -14.927481
0.334183 -1.060234 -1.522182
-7.449236 2.508938 -15.809342
-1.878336 7.904576 -14.593805
8.474327 -0.003816 -15.923092
22.851452 -15.018465 -15.196124
-4.007059 -27.139475 -15.123135
1.263706 -1.330340 -9.690104
8.776136 0.288290 -15.301962
0.961143 1.284949 -10.411591
1.377571 1.753440 -8.782166
4.536021 6.395268 -13.785279
7.610939 -2.502217 -13.790480
-11.014160 24.108646 -15.134590
-2.919254 8.217266 -15.478118
6.411524 -5.403712 -13.000721
1.103038 27.068945 -14.893200
1.307706 -0.177172 -10.310347
-1.770743 8.434225 -16.159435
6.332992 -4.674489 -12.676976
-8.036559 -0.149094 -15.107141
-17.793634 20.440805 -15.197954
5.944033 5.980420 -15.760979
-0.359488 -1.468367 -9.799047
2.059227 7.515738 -12.170547
3.655987 7.040112 -13.575001
1.781190 0.809998 -10.104591
-6.063966 5.370759 -13.640847
1.095874 -0.845326 -1.932263
0.147972 1.276541 -8.804667
3.005404 7.351139 -12.860312
2.578760 0.886818 -9.313854
7.185905 -4.609069 -15.100357
1.629739 -0.252061 -9.749191
6.418758 -5.065380 -14.915432
0.408697 -7.916505 -12.771482
-6.367865 4.861990 -13.907225
-6.542245 -4.044556 -13.669794
2.049179 -8.088339 -15.718420
3.863396 6.860604 -12.970539
3.260971 1.487165 -9.049271
0.085091 -0.685654 -9.505043
-8.093587 1.179950 -14.468434
-4.571157 6.469943 -14.283220
-18.003126 20.581539 -15.127649
-21.497353 -14.888310 -15.277144
-0.136004 8.950442 -16.002432
-9.904552 24.862375 -14.931754
-0.005859 -2.070981 -10.804624
-0.611565 7.894634 -12.314020
-6.986217 -3.087622 -12.273035
-0.117315 -1.785246 -9.018274
-0.351575 7.766517 -12.669454
0.762166 8.132681 -13.407238
1.035291 1.018210 -8.532406
26.449329 -3.522516 -15.291113
1.743203 -8.097139 -14.369640
7.824093 -1.087730 -12.988642
1.835639 7.775735 -13.339088
-4.267003 7.358931 -15.665367
-0.439895 -8.285178 -15.362501
1.357536 0.564737 -10.553883
5.386769 -6.554363 -15.705249
-17.104082 20.427919 -15.074684
2.746108 0.482026 -9.372820
2.014905 8.231056 -15.719032
8.554775 0.687683 -15.629776
15.885571 -21.680006 -15.668358
8.125905 0.299667 -15.635126
1.404073 -0.107331 -2.690869
-0.733562 0.067958 -9.114984
3.118245 0.541396 -10.158463
-0.759336 -1.329475 -8.327603
25.366108 -8.723928 -15.524361
-0.017442 -2.345232 -10.798280
-2.784632 7.407516 -12.501884
2.262504 1.814312 -8.998980
3.047492 0.000623 -7.849087
-0.208846 -8.216037 -15.264387
0.213781 -0.436267 -10.716146
-9.681218 -25.195873 -15.418541
-4.765933 -5.122840 -11.852102
-0.264795 0.851869 -8.256025
-5.805684 -7.467419 -16.109005
5.087961 -6.425903 -13.318949
0.007608 -7.993881 -13.769295
-1.262793 -26.916122 -15.030508
3.910265 -27.000374 -15.052137
2.665578 -0.312756 -8.685896
0.038836 0.443391 -9.978265
-0.208387 0.653897 -10.025065
-3.913264 -8.230989 -15.830078
7.869601 -4.041403 -15.793478
1.025711 -0.252781 -10.750310
4.221598 6.801332 -15.054143
7.978078 -0.354789 -12.284439
6.769198 -25.929842 -15.369656
2.548726 1.332101 -9.442610
6.444291 -4.731217 -12.989337
1.770887 -8.014168 -15.682261
0.301129 0.083562 -9.302286
-0.434747 -9.298097 -15.962075
7.581897 -1.747354 -12.721334
7.775776 -0.867014 -13.271214
1.127981 1.254266 -9.910294
-0.971291 -0.068832 -11.110381
1.927579 1.820243 -8.091166
-0.582414 -1.158174 -11.325476
-0.519733 0.510617 -9.056818
-1.828363 8.267398 -15.045800
-5.048996 -6.006660 -12.229684
1.319441 0.065436 -10.099339
0.020850 0.368823 -11.032555
-5.383597 -5.478743 -14.066404
17.437706 -20.448471 -15.420542
8.443817 -1.998616 -15.132882
3.483809 -7.936992 -15.920896
-6.769361 -2.766582 -12.901628
-3.227097 8.431343 -15.623319
5.292491 6.096929 -14.082335
-0.084430 8.030042 -13.000429
2.923850 -7.377693 -12.774329
8.243391 -1.889389 -15.261745
-8.572814 -2.546316 -15.988503
-3.607790 -7.295653 -15.866468
-7.486423 1.762331 -12.782064
0.170117 -7.847495 -14.093213
1.821504 0.230297 -8.895532
-22.998943 -12.912736 -15.443900
1.929203 -0.895323 -10.183749
-5.853874 26.302002 -14.946302
-0.504962 0.064980 -10.689600
1.992878 -7.941814 -14.664696
-4.666323 26.406923 -15.278431
-26.063982 -6.344413 -15.421276
4.758034 6.659007 -15.698690
2.748203 -7.401311 -12.243336
1.199147 1.158583 -10.588809
-6.803174 4.842443 -15.931941
-20.045321 17.609137 -14.839370
6.661056 -4.866473 -14.503789
24.781828 -10.552106 -15.358217
0.006494 -0.043434 -11.042047
2.518668 0.156588 -7.734801
-7.669658 3.352482 -15.953716
-1.357078 7.735732 -11.736426
6.946660 -4.366429 -12.429592
-2.984781 -7.948880 -16.017542
3.280091 1.845935 -6.324253
-3.171221 -6.765912 -12.040716
-8.072857 1.846638 -15.713923
-17.414200 -21.343155 -15.168888
-6.980793 4.372658 -15.453104
-14.206408 -22.714506 -15.381701
4.584490 6.347645 -12.406965
-8.121508 2.308450 -15.623075
8.282839 -0.745425 -15.879969
-7.809135 1.074422 -12.112720
4.402062 -25.845449 -15.490480
-22.634449 -15.561810 -15.419557
-6.591754 4.385533 -12.998356
-18.412439 -19.740229 -15.161278
-2.568245 -7.351898 -13.105036
1.499020 -0.741508 -8.713266
3.910613 6.992336 -14.784043
3.655616 7.351582 -14.517092
3.977076 -6.939129 -12.798252
-0.083151 0.452685 -10.518774
-23.136553 -14.938500 -15.478358
-0.697204 0.504377 -10.871274
-3.319383 -26.860252 -15.075638
-3.748129 -7.011882 -12.905924
6.218672 -6.670997 -15.666830
-7.256996 -3.482882 -15.384329
26.702230 -5.061268 -15.062328
-0.667019 -7.808037 -13.104930
-0.463654 -1.303879 -9.519431
-7.467538 -3.051467 -12.777150
5.071408 -6.077939 -12.646753
0.897017 1.914483 -7.977392
-2.232657 7.664009 -13.300301
8.607818 25.348577 -15.191286
-6.794116 4.232626 -13.296524
4.323364 -7.011219 -15.983467
3.525748 7.540357 -15.991673
2.418537 1.492731 -9.268090
-2.669429 -7.843535 -15.743399
-8.107218 -1.000471 -14.992124
-8.921266 -2.958009 -15.962336
-1.856642 -8.930189 -15.788795
-4.114412 8.240134 -15.718340
6.257075 -5.027036 -13.054208
-5.501694 -5.867792 -12.934656
3.134324 0.160926 -8.587786
-1.468578 -0.931273 -11.297058
2.916551 1.804193 -9.636035
-25.366980 -6.912497 -15.289305
7.477747 -4.056199 -15.515883
-4.518320 -7.520659 -15.975880
-7.282927 5.418911 -15.937458
15.150856 -22.704742 -15.498619
0.816966 1.246248 -8.325663
1.546201 -0.428662 -10.388696
-25.535091 7.602661 -15.091152
-24.927816 9.555209 -15.238295
-4.836946 6.388043 -12.400400
-1.577767 8.130246 -16.154114
-14.980527 -21.821688 -15.382935
6.935844 4.643394 -15.421841
7.079678 3.937002 -13.166063
4.567934 6.845198 -15.581755
0.183480 -1.448398 -3.359406
-24.413330 8.610408 -14.918426
1.271316 -8.612232 -15.914608
-6.231462 -4.442696 -13.659165
-7.414124 -3.114552 -15.526171
-1.434166 -7.495983 -13.521782
4.618847 -6.766072 -15.914097
-8.468937 -1.384997 -15.611556
-7.819068 3.012221 -15.890526
-0.472223 -0.455280 -1.609772
-5.851089 5.564814 -12.959929
7.869589 3.200436 -15.721928
5.747061 -7.015246 -15.942141
-23.042927 -13.526912 -15.372533
4.444135 7.476825 -16.205303
1.566599 1.621272 -10.319387
27.285990 -3.473317 -15.361383
-2.480802 -7.400794 -14.660866
-7.764146 1.532676 -15.919260
8.164437 -0.989445 -14.563795
-23.099957 -12.532996 -15.189445
1.611930 0.697787 -9.253238
2.800633 0.146917 -9.373273
3.083882 1.401047 -7.346164
-8.124298 -0.358730 -14.707931
-0.654500 -1.309777 -9.179638
-7.218288 1.915673 -12.911259
-20.636234 17.430428 -14.580946
-19.298401 -18.401432 -14.938086
-2.474967 7.903231 -14.594618
20.223063 -17.948704 -15.354668
19.286745 -18.811426 -15.604160
-0.246607 -0.775757 -10.099216
8.840327 -1.120624 -15.679053
1.060766 -0.364486 -10.010155
-1.565037 8.203831 -14.879318
-26.788946 -2.149189 -15.237801
0.490434 0.226897 -9.126622
-7.075312 2.308153 -12.300514
13.706345 -22.989779 -15.200409
5.269284 -6.394132 -15.263250
-0.596854 -1.189875 -3.161683
-16.487633 21.522787 -15.053890
27.222363 2.958349 -15.317648
25.563498 7.608679 -15.048983
-3.051848 -7.534019 -15.565331
-7.458406 -4.197041 -15.961806
4.353231 -6.949009 -15.595119
-7.520334 -2.721352 -12.558009
1.570057 -1.362029 -9.855721
-7.552577 -0.613987 -12.793530
3.639477 7.385183 -13.706427
1.801624 -0.165358 -11.015244
3.045448 7.256976 -13.397045
3.343626 7.004958 -13.989658
-3.635825 26.848671 -15.251500
-0.497932 -1.253905 -10.621359
-7.635654 0.473197 -13.037515
7.697483 3.282741 -13.099926
23.040321 -13.704954 -15.369941
7.613249 -2.855171 -12.950043
2.226408 7.477272 -12.401814
0.057983 -7.835951 -13.048866
9.189486 -1.649589 -15.795673
-6.785537 3.036316 -12.184095
-8.374222 -1.274279 -15.824583
-4.149512 7.650464 -15.539663
-16.194036 21.778301 -14.836765
6.258076 6.055788 -16.035141
1.419316 -0.303375 -3.140332
8.405816 -0.009273 -11.790614
3.513608 -25.725508 -15.583122
5.931500 -5.490685 -13.748455
1.761980 7.582609 -12.258425
13.255898 23.252354 -15.492016
-21.170424 -16.716722 -15.082887
1.067691 -1.324154 -9.187696
7.200234 -3.601183 -13.199182
-6.890889 -26.250078 -15.172610
-5.516197 5.727661 -13.038355
-26.647728 2.532948 -15.130474
1.094885 1.559700 -8.884511
1.651343 -0.932472 -9.603665
5.677207 -5.874744 -12.787213
3.163319 8.535697 -15.887617
1.357851 -0.697939 -10.167519
-1.402747 -0.649417 -9.028237
3.171273 -7.294129 -12.381786
1.570698 -0.126263 -10.679039
8.215917 -0.216660 -12.315472
-8.296475 1.550861 -15.949682
-7.808722 -1.172806 -15.523256
-0.563200 0.015761 -10.116310
4.154608 -6.615166 -12.652266
0.305769 1.582893 -7.482201
0.670307 -0.708055 -9.099742
-8.460002 3.671546 -15.814819
8.191118 -0.368436 -11.917097
-8.629450 -25.673788 -15.330938
26.228218 -5.760584 -15.035729
25.604679 -7.618865 -15.215364
4.582282 -6.974088 -15.740747
-1.246675 -8.650035 -15.482550
0.513919 1.037303 -11.069629
16.821985 -20.983871 -15.715393
1.179149 7.692424 -12.972338
-7.323005 4.469912 -15.761150
-0.930809 -7.777848 -13.221693
-22.834415 -14.701015 -14.999639
1.938259 -0.297736 -8.334953
-7.799425 1.452370 -13.406143
6.625184 5.318718 -15.970800
-6.224065 5.167659 -13.330054
1.618452 -7.669769 -13.352495
7.167286 -4.225020 -12.250400
-26.423428 4.705988 -15.272710
-26.604168 -3.429061 -14.807520
0.457346 8.225572 -13.118087
1.493470 -0.732345 -9.528924
0.699271 -1.449465 -3.432731
3.270554 0.480257 -7.585972
-12.033632 -24.081553 -15.284604
-6.193843 4.648556 -13.542168
-7.408222 3.213979 -15.758286
-6.063065 -5.015183 -12.079435
2.522391 0.078148 -10.500475
-0.158293 -1.234179 -10.163786
-0.717684 8.218939 -15.549812
8.361687 25.392691 -15.206154
-7.064971 -1.424908 -12.207083
1.475882 1.614648 -6.879306
2.849877 1.619434 -9.140306
2.104209 2.198489 -7.285077
1.475039 -0.293201 -2.868387
3.091239 -8.072515 -15.861973
-0.592758 -0.675248 -2.009634
14.727592 -22.702909 -15.130465
1.531425 -0.374168 -10.697389
6.685170 -4.866546 -12.631006
2.091794 1.061587 -9.929377
0.368016 1.117788 -9.700253
3.684484 7.201014 -14.054304
-1.051924 7.868265 -12.333479
2.732001 1.766286 -8.304913
2.091598 -7.788591 -15.402646
-1.021284 -0.495930 -9.716082
1.664609 1.623652 -9.188074
-8.566264 -2.366769 -15.786957
2.660318 1.284952 -9.872532
-7.044325 5.559227 -15.608385
-2.835702 -7.407688 -12.243944
3.594479 -7.357798 -15.362616
-6.823873 5.108947 -15.562879
0.764347 1.115429 -10.510528
-27.071642 -1.030812 -15.009151
1.615134 1.242296 -9.205503
-4.798455 6.586869 -15.828928
8.394549 -3.140077 -15.787124
2.241504 1.460898 -9.831911
3.266784 0.943463 -6.872128
3.914701 6.948149 -13.396203
2.774549 1.186411 -6.441462
-20.706604 17.352152 -15.274363
-3.637770 7.357151 -15.118232
-5.650339 6.072354 -14.434227
8.280905 -2.253196 -13.691004
7.907181 -0.593027 -12.302368
7.700568 -1.266892 -14.260128
-26.093607 -6.395362 -15.161743
2.610799 0.570348 -9.745811
-5.189083 6.084695 -12.441733
0.077683 0.735980 -9.558052
-7.573956 2.063843 -12.769314
-3.270194 -7.125184 -12.625114
8.203140 -1.375162 -15.771193
7.555272 -4.906202 -15.245947
-6.545724 -3.903174 -15.148045
-1.137769 -0.534869 -11.402439
0.150625 0.018274 -11.702171
0.593989 1.572552 -7.171974
2.192246 -7.723989 -14.809055
-0.838020 -8.867904 -15.876131
-7.609927 2.197285 -15.729004
14.321620 -22.965261 -15.362420
7.906282 -1.276229 -12.741810
-17.936098 -20.504749 -15.182059
-12.940825 -23.239876 -15.641929
0.523649 -1.247437 -11.245354
1.000748 0.656287 -10.699129
-0.658315 -0.832208 -2.908328
8.445774 1.923201 -15.677776
-6.797644 25.677481 -15.317034
-0.370155 -0.335504 -11.232883
-6.373832 -26.375345 -15.047352
9.149596 25.301130 -15.495311
2.471422 0.157567 -10.857059
1.142699 1.151108 -9.532089
22.071957 -15.575918 -15.251635
1.789091 0.415717 -9.216999
-7.540547 2.015522 -11.908939
5.063197 -6.235186 -13.098179
2.955938 7.476616 -13.324424
1.148139 -0.549378 -9.680838
0.933143 -0.764606 -10.479374
2.603892 8.721974 -15.805367
-6.775606 -3.148309 -13.099407
5.185543 -26.676132 -14.962997
-27.074619 1.284320 -14.835765
1.675643 -0.225908 -7.540517
5.971310 -5.424573 -11.618750
-6.365699 -4.806461 -15.684498
24.937710 10.450979 -15.622923
-1.065837 7.689201 -13.186391
-5.280929 -6.172132 -14.065495
-0.800971 -0.165299 -9.797542
1.448274 1.722259 -8.410341
4.290953 26.448542 -15.010277
8.109785 -3.009279 -16.119926
1.014747 0.836328 -9.762115
1.643864 0.796984 -10.627894
6.958009 -4.330388 -14.666666
1.960421 -8.103790 -13.902834
0.670574 -1.561098 -8.858403
2.506051 7.363767 -12.096490
-15.508153 22.162031 -15.354771
3.128397 -7.483481 -14.002234
9.243657 -0.034097 -15.409263
1.268602 -0.966071 -9.526048
-6.858582 -4.809527 -15.798922
4.029254 6.802397 -14.453770
-4.729399 7.051133 -15.805197
6.188247 4.851982 -13.497557
-6.364125 5.642661 -15.478548
0.981980 -1.269805 -11.197139
-5.458538 -5.242082 -12.903326
6.000190 -5.012600 -12.612931
1.922965 -0.894946 -9.175729
5.526338 -5.806711 -13.004400
8.612279 -0.902680 -13.040163
-0.728873 0.129812 -2.337012
2.422395 1.853349 -9.496376
8.036503 -0.422533 -14.161993
23.275408 -13.774577 -15.400509
-0.231685 -1.392206 -9.332111
2.119636 1.862071 -7.941998
8.371234 -3.669847 -15.484753
3.130834 1.895039 -6.638733
-0.278111 -8.675378 -15.682426
-15.695349 21.551069 -14.918977
-6.850365 -3.056369 -12.850212
-0.386886 -7.816810 -13.173894
-8.240017 -2.069121 -15.451488
2.343960 -7.718637 -14.314476
3.448117 0.926895 -10.330171
-7.016800 2.098726 -13.232753
0.226589 -1.385604 -10.552576
0.106972 8.060443 -13.525099
-6.131836 -4.825737 -13.198687
7.707814 -1.692891 -12.287375
-14.078637 23.094946 -15.008400
7.669528 -2.899765 -14.169763
-0.688193 -0.110398 -11.220118
-7.224390 2.993689 -12.705654
-7.883134 -0.650098 -12.528955
0.968495 1.154253 -11.577423
8.102241 -0.861976 -13.292332
2.839462 -7.972195 -15.816217
0.215017 -7.721037 -12.412583
0.552420 -7.952197 -13.964296
0.475757 -7.894669 -13.179688
4.842225 -6.589925 -13.585510
1.049081 -8.844900 -16.036797
5.221390 6.103256 -13.847326
0.866139 -1.420914 -8.707791
-18.633884 -18.785252 -15.036436
2.599124 0.185546 -10.095980
-5.831212 5.756364 -14.894506
8.973415 -0.441542 -15.373137
0.715638 1.254189 -9.140247
3.182335 7.415757 -15.598342
4.063904 -7.129615 -13.321461
6.779435 5.192798 -15.804395
8.090812 2.773305 -15.595706
-7.023580 -2.301147 -12.022722
2.522021 1.841454 -7.826940
-7.539515 -5.404940 -15.961142
3.237738 0.611442 -7.374838
-1.356452 -0.762163 -8.029393
3.093133 -7.599731 -15.806516
-18.333965 20.220449 -15.184412
-5.513804 -4.773894 -12.741831
-0.079691 0.970701 -10.739982
-1.905929 -7.827768 -14.462336
-2.618884 -7.325262 -14.190153
-26.420626 6.109522 -15.241289
13.938523 -23.253321 -15.266375
8.438296 -2.419254 -15.740042
-3.212712 26.157934 -14.851571
7.700295 -1.430255 -13.544533
4.164895 -6.749171 -13.401013
0.602178 -8.457373 -15.985532
-1.082359 -1.358615 -11.429848
4.878499 -6.458847 -12.227510
1.087900 -0.981618 -2.421052
0.834508 1.128515 -10.270162
25.195833 -0.676805 -15.373003
-6.220989 -4.330983 -12.594435
-2.874158 -7.384898 -15.488562
5.230448 -7.088937 -15.363237
4.747602 -6.994681 -14.932365
-9.385237 24.836422 -15.086208
-6.747267 3.522529 -12.340815
-6.400380 4.613822 -12.304555
-26.927738 2.519975 -15.048452
2.599048 1.335712 -7.731808
1.496172 -1.615800 -10.176384
8.532993 -0.942717 -15.414963
24.347639 -10.044600 -15.336876
7.696415 2.925497 -12.696046
-20.113289 -17.649189 -15.366020
0.811545 7.761089 -13.244420
-26.976479 -4.433733 -15.182550
-7.384331 -1.982867 -12.179370
26.137993 -5.940126 -15.277592
-25.123915 -7.525765 -15.195158
4.499512 -7.515570 -15.929605
-1.752521 -7.741066 -12.448207
24.368338 -12.192986 -15.259737
3.746425 -7.065989 -12.627913
6.628169 -5.159750 -15.971806
-5.323917 6.198596 -14.166487
2.468303 27.015591 -15.244343
-2.301680 -8.022209 -15.573360
-8.151188 0.262875 -13.757792
-5.820248 -5.541048 -13.307505
2.598617 2.298884 -8.838378
8.125908 -1.581689 -12.467380
-7.026132 -3.615779 -14.149759
-1.460092 -0.535650 -8.079576
-24.259710 -10.952918 -15.361053
0.660076 8.706940 -15.643444
2.151596 8.004118 -13.621117
2.230853 -8.226519 -16.009056
-16.284496 22.075983 -15.453581
0.716424 -7.674827 -12.745199
2.888591 0.683815 -7.801460
-1.409678 -8.752901 -15.834776
3.926447 6.715651 -12.274673
-3.359636 -7.678502 -14.973246
-0.015239 -25.793169 -15.361834
1.305365 0.253887 -10.252872
3.983044 6.979822 -15.773077
6.171968 5.512034 -12.480709
-7.244725 3.105982 -13.049606
-0.034191 -1.301733 -2.903413
-8.119795 0.230478 -14.385137
6.265870 -5.561172 -13.293460
-1.848278 -7.736258 -13.292345
-6.573439 -26.373594 -15.185454
-19.820766 19.416130 -15.094452
6.217178 -5.046053 -14.022963
4.527512 -7.063183 -15.449692
-1.399393 7.849947 -11.946323
-0.431979 0.283833 -10.449752
1.017362 7.786352 -13.790215
1.693800 -8.308449 -16.121660
22.307720 -14.894280 -15.279099
-0.387835 0.461061 -7.423010
8.005160 -2.963275 -13.479177
0.810055 -1.385594 -9.284544
4.273599 -6.742259 -13.707823
-7.832664 0.065922 -15.407155
-0.094771 -0.804591 -9.629057
-0.161447 -1.375787 -3.337358
0.594503 -0.567144 -11.335142
-8.129064 1.414981 -14.421492
1.608399 -0.331992 -9.521482
7.983971 25.616695 -15.044777
2.394608 2.382715 -6.742336
0.723819 -0.177598 -10.946928
-2.906450 8.002253 -15.367479
0.508000 1.490181 -8.055926
-3.568820 -6.850154 -11.935648
3.717287 7.075028 -15.719883
6.024240 5.173491 -12.770873
-6.370798 4.866042 -14.843255
-3.155325 7.168319 -12.515572
-0.202523 -0.708881 -10.873016
-25.783724 -8.501987 -15.284563
6.980803 4.182731 -15.270928
-8.658020 -0.363707 -15.731707
3.191692 7.646770 -15.878654
-5.987566 -6.069011 -15.917877
-27.157156 2.459147 -14.734265
7.188230 -3.808097 -13.731021
-24.741039 -10.565263 -15.413823
-23.974113 -11.586998 -15.638681
-7.543958 4.594301 -15.667633
-5.877386 5.307256 -15.316593
3.262991 26.301989 -15.103245
6.922317 -5.820125 -16.017115
-1.886824 -8.325776 -15.781842
-0.490341 -0.607706 -10.791801
