-1.061097 -0.579266 5.535494
-2.098512 0.815632 5.535494
2.074511 -0.399138 5.535494
-1.068937 -0.567725 5.535494
1.014131 -1.213291 5.535494
0.137812 -1.556073 5.535494
1.521169 0.994555 5.535494
-1.153321 -0.565304 5.535494
-1.245544 1.857699 5.535494
-0.507754 -0.961822 5.535494
-1.706664 0.135983 5.535494
1.043944 -1.121067 5.535494
2.079953 -0.383277 5.535494
0.289940 1.922317 5.535494
0.230036 -1.533713 5.535494
-1.061097 1.789450 5.535494
-0.514990 -0.936620 5.535494
1.060049 -1.095821 5.535494
-1.337769 -0.469683 5.535494
-1.114433 1.830093 5.535494
0.322259 -1.557256 5.535494
-1.735376 0.170065 5.535494
-1.400366 -0.383277 5.535494
1.152273 -1.058897 5.535494
2.123198 -0.291053 5.535494
-1.153321 1.851223 5.535494
0.414483 -1.556240 5.535494
-0.575120 -0.844396 5.535494
1.517123 1.000079 5.535494
-1.670535 0.077842 5.535494
-1.614440 -0.109063 5.535494
1.244497 -1.072235 5.535494
1.435549 1.092303 5.535494
-1.615560 -0.106606 5.535494
2.112448 -0.198830 5.535494
0.598930 -1.601916 5.535494
-0.968874 1.767221 5.535494
0.691154 1.697342 5.535494
0.575037 -1.582186 5.535494
-1.793251 0.262289 5.535494
-0.876650 1.796391 5.535494
-1.522216 -0.280693 5.535494
2.099175 -0.106606 5.535494
1.428945 1.120244 5.535494
-1.798887 0.266963 5.535494
0.691154 -1.637870 5.535494
1.336720 -1.059063 5.535494
1.405460 1.184527 5.535494
-0.415531 -0.998453 5.535494
-0.784426 1.796291 5.535494
0.742639 -1.582186 5.535494
-1.579215 -0.198830 5.535494
2.074511 0.013712 5.535494
-0.692202 1.798776 5.535494
1.428945 -1.116087 5.535494
0.506707 -1.550892 5.535494
1.568336 0.815632 5.535494
2.005459 0.077842 5.535494
-1.642302 -0.014382 5.535494
1.558462 0.907856 5.535494
-0.599978 1.821544 5.535494
-0.388167 -1.028843 5.535494
-2.167782 0.896824 5.535494
0.783378 -1.516298 5.535494
1.521169 -1.117752 5.535494
-0.566760 1.830093 5.535494
2.088690 -0.014382 5.535494
1.336720 1.223769 5.535494
0.814969 -1.489962 5.535494
-0.507754 1.872835 5.535494
-0.599978 -0.798018 5.535494
1.613392 -1.072617 5.535494
-0.323307 -1.293133 5.535494
0.875602 -1.438600 5.535494
1.273168 1.276751 5.535494
1.674602 -1.028843 5.535494
-0.361905 -1.213291 5.535494
-0.449773 1.922317 5.535494
1.244497 1.296462 5.535494
-0.386503 -1.121067 5.535494
-2.174377 0.907856 5.535494
1.890063 0.230090 5.535494
-0.415531 1.932136 5.535494
-2.222711 1.000079 5.535494
1.856224 0.262289 5.535494
1.705616 -1.008725 5.535494
-0.315258 -1.305515 5.535494
1.982287 0.097383 5.535494
-2.169203 1.092303 5.535494
-0.323307 1.970832 5.535494
1.934976 0.170065 5.535494
-2.167782 1.094204 5.535494
1.705616 0.401660 5.535494
1.797839 -0.964462 5.535494
1.658201 0.446737 5.535494
-2.121923 1.184527 5.535494
1.841949 -0.936620 5.535494
-1.841477 1.553422 5.535494
-1.045426 -0.567725 5.535494
0.414483 1.826369 5.535494
-1.798887 1.603078 5.535494
1.797839 0.313431 5.535494
-2.099650 1.276751 5.535494
1.890063 -0.892859 5.535494
0.361597 1.830093 5.535494
-0.876650 -0.580583 5.535494
-2.075559 1.293724 5.535494
1.755493 0.354513 5.535494
-1.762050 1.645646 5.535494
-0.895612 -0.567725 5.535494
-2.012331 1.368975 5.535494
-1.706664 1.673194 5.535494
0.322259 1.852366 5.535494
-1.614440 1.691529 5.535494
-1.983335 1.398608 5.535494
-0.968874 -0.541960 5.535494
0.607824 1.737869 5.535494
1.657911 0.538960 5.535494
-1.532588 1.737869 5.535494
-1.923405 1.461198 5.535494
-0.231083 1.924777 5.535494
-1.891111 1.508432 5.535494
0.783378 1.680122 5.535494
-1.522216 1.739782 5.535494
1.636996 0.631185 5.535494
-0.138860 1.982769 5.535494
0.506707 1.804459 5.535494
1.613392 0.661865 5.535494
-1.865747 0.354513 5.535494
-0.046636 1.981231 5.535494
1.584424 0.723408 5.535494
0.598930 1.742538 5.535494
-1.891111 0.393299 5.535494
0.875602 1.638229 5.535494
0.858757 1.645646 5.535494
0.967826 1.616064 5.535494
-0.323307 -1.397738 5.490998
1.982287 -0.752172 5.500624
-1.614440 -0.659948 5.455953
0.967826 -1.397738 5.465317
-0.876650 -0.659948 5.459273
-1.983335 0.538960 5.503433
-1.614440 -0.475501 5.453566
0.967826 -1.305515 5.521466
-0.046636 -1.582186 5.494002
-0.692202 -0.752172 5.521405
-1.522216 -0.659948 5.458756
2.074511 -0.475501 5.497013
-1.522216 -0.567725 5.454425
0.045588 -1.582186 5.522259
0.783378 1.553422 5.443301
-0.599978 -0.844396 5.445019
-1.429992 -0.567725 5.443400
1.060049 -1.305515 5.447895
-1.706664 0.077842 5.447615
0.045588 1.922317 5.531841
-1.522216 -0.475501 5.447840
-1.061097 1.830093 5.478395
-0.415531 -1.028843 5.497787
-0.138860 -1.489962 5.494183
1.060049 1.368975 5.461225
-1.429992 -0.475501 5.472035
0.137812 1.922317 5.502167
1.060049 -1.213291 5.469253
0.875602 1.553422 5.469234
-2.260006 1.000079 5.481371
-1.522216 -0.383277 5.449782
1.890063 0.262289 5.510465
-0.323307 -1.305515 5.531356
0.967826 1.553422 5.502283
0.230036 1.922317 5.508768
1.152273 -1.213291 5.449974
-1.429992 -0.383277 5.499182
1.797839 0.354513 5.479446
-0.507754 1.830093 5.472087
0.137812 -1.582186 5.471700
-2.167782 1.184527 5.450639
-1.522216 -0.291053 5.495253
1.060049 -1.121067 5.519875
1.521169 0.907856 5.451563
-0.415531 1.922317 5.525063
0.230036 -1.582186 5.489900
1.613392 0.631185 5.496503
-0.323307 1.922317 5.498713
1.152273 -1.121067 5.470617
0.414483 1.737869 5.473350
0.322259 -1.582186 5.497162
-1.245544 -0.567725 5.519154
-0.138860 1.922317 5.444721
1.336720 1.184527 5.468277
-1.337769 -0.475501 5.529449
-1.983335 1.461198 5.450342
0.506707 1.737869 5.498339
-0.046636 1.922317 5.471887
-1.153321 -0.567725 5.531081
1.336720 -1.121067 5.472214
1.428945 1.092303 5.520244
0.598930 1.737869 5.532598
0.506707 -1.582186 5.447729
1.428945 -1.121067 5.525116
0.322259 1.830093 5.530327
0.783378 1.645646 5.493600
1.521169 -1.121067 5.498254
1.244497 1.276751 5.497902
-0.415531 -1.213291 5.458744
0.875602 -1.489962 5.458934
1.705616 -1.028843 5.497311
-0.415531 -1.121067 5.447469
1.797839 -1.028843 5.445298
-1.798887 1.645646 5.449977
-1.983335 0.449256 5.627718
1.904775 -0.844396 5.627718
-0.692202 -0.710261 5.627718
-2.026433 0.538960 5.627718
-1.429992 -0.310381 5.627718
-0.138860 -1.431159 5.627718
-0.765608 -0.659948 5.627718
0.650190 -1.397738 5.627718
-2.027885 0.631185 5.627718
1.941177 -0.752172 5.627718
-0.214285 -1.397738 5.627718
-1.449038 -0.291053 5.627718
0.674341 -1.305515 5.627718
1.152273 1.429986 5.627718
-0.507754 -0.907986 5.627718
-0.046636 -1.433105 5.627718
-1.980002 0.446737 5.627718
1.958265 -0.659948 5.627718
-0.526421 -0.844396 5.627718
1.104719 1.461198 5.627718
-1.153321 -0.512011 5.627718
0.045588 -1.481826 5.627718
0.783378 -1.348717 5.627718
0.045588 2.079862 5.627718
-1.429992 1.747951 5.627718
0.695792 -1.305515 5.627718
0.137812 2.071397 5.627718
-2.036165 0.723408 5.627718
1.060049 1.551304 5.627718
-1.234207 -0.475501 5.627718
0.230036 2.057666 5.627718
1.059652 1.553422 5.627718
1.982287 -0.623292 5.627718
0.691154 -1.295259 5.627718
-1.061097 -0.493131 5.627718
0.230036 -1.494113 5.627718
-2.075559 0.775126 5.627718
-1.337769 1.762292 5.627718
0.188216 -1.489962 5.627718
0.414483 1.949411 5.627718
-1.245544 -0.442257 5.627718
1.996094 -0.567725 5.627718
-2.097207 0.815632 5.627718
0.327627 2.014541 5.627718
0.137812 -1.486386 5.627718
0.875602 -1.362696 5.627718
-1.245544 1.788161 5.627718
0.322259 2.021912 5.627718
-1.297760 -0.383277 5.627718
1.428945 1.180364 5.627718
-0.323307 -1.015347 5.627718
0.322259 -1.520131 5.627718
2.007823 -0.475501 5.627718
1.425991 1.184527 5.627718
-0.414718 -0.936620 5.627718
-1.337769 -0.369220 5.627718
-1.153321 1.796153 5.627718
0.967826 -1.309479 5.627718
0.506707 1.891187 5.627718
1.521169 1.112656 5.627718
-1.706664 0.163153 5.627718
-0.415531 -0.936067 5.627718
0.967826 -1.276638 5.627718
1.996209 -0.383277 5.627718
-1.061097 1.752525 5.627718
-1.723665 0.170065 5.627718
-1.522216 -0.199669 5.627718
-0.586527 -0.752172 5.627718
0.463698 1.922317 5.627718
0.961204 -1.213291 5.627718
1.613392 0.828087 5.627718
-1.523090 -0.198830 5.627718
2.049935 -0.291053 5.627718
-0.599978 -0.734275 5.627718
0.598930 1.840455 5.627718
0.971601 -1.305515 5.627718
0.414483 -1.509411 5.627718
1.585408 0.907856 5.627718
-1.606013 -0.106606 5.627718
0.691154 1.816056 5.627718
-1.644212 0.077842 5.627718
0.967826 -1.199824 5.627718
0.643468 1.830093 5.627718
-1.614440 -0.056814 5.627718
1.614933 0.815632 5.627718
-0.968874 1.723679 5.627718
0.444115 -1.489962 5.627718
2.038569 -0.198830 5.627718
0.783378 1.777215 5.627718
1.575382 1.000079 5.627718
-1.618650 -0.014382 5.627718
-1.798887 0.199040 5.627718
0.506707 -1.456474 5.627718
-0.191793 -1.305515 5.627718
1.544249 1.092303 5.627718
2.022990 -0.106606 5.627718
0.598930 -1.449448 5.627718
0.875602 1.712152 5.627718
-0.215195 -1.213291 5.627718
1.244497 1.352569 5.627718
0.841717 1.737869 5.627718
-0.231083 -1.177646 5.627718
1.219262 1.368975 5.627718
2.057833 -0.014382 5.627718
-1.046126 1.737869 5.627718
-2.136576 0.907856 5.627718
1.336720 1.297887 5.627718
-0.270439 -1.121067 5.627718
0.967826 1.681788 5.627718
1.024457 -1.121067 5.627718
1.982287 0.019864 5.627718
1.349982 1.276751 5.627718
-0.921881 1.737869 5.627718
-0.306757 -1.028843 5.627718
1.921578 0.077842 5.627718
1.007871 1.645646 5.627718
1.060049 -1.094940 5.627718
1.890063 0.140390 5.627718
-0.876650 1.762469 5.627718
1.152273 -1.048071 5.627718
-1.038386 -0.475501 5.627718
-0.876650 -0.515242 5.627718
-0.784426 1.798741 5.627718
-0.931577 -0.475501 5.627718
1.797839 0.134392 5.627718
-1.816685 1.553422 5.627718
1.244497 -1.068496 5.627718
-0.692202 1.815011 5.627718
1.761023 0.170065 5.627718
-1.798887 1.579294 5.627718
1.336720 -1.070457 5.627718
-0.784426 -0.626656 5.627718
-0.815259 -0.567725 5.627718
-0.656085 1.830093 5.627718
-1.706664 1.616891 5.627718
1.745005 0.262289 5.627718
-2.151703 1.000079 5.627718
-1.636753 1.645646 5.627718
-0.968874 -0.468047 5.627718
-0.599978 1.879554 5.627718
1.428945 -1.091890 5.627718
-1.614440 1.652923 5.627718
-2.133739 1.092303 5.627718
1.705616 0.396694 5.627718
1.521169 -1.103433 5.627718
-1.522216 1.691822 5.627718
-0.507754 1.874239 5.627718
-1.891111 0.214033 5.627718
1.676397 0.446737 5.627718
-2.093252 1.184527 5.627718
-1.455407 1.737869 5.627718
-1.906488 0.262289 5.627718
-0.482696 1.922317 5.627718
1.613392 -1.086914 5.627718
1.712818 0.354513 5.627718
-1.891111 0.340273 5.627718
-2.075559 1.221766 5.627718
1.693823 -1.028843 5.627718
-1.886810 0.354513 5.627718
-2.017654 1.276751 5.627718
-0.415531 2.008105 5.627718
1.669713 0.538960 5.627718
1.705616 -1.018985 5.627718
-1.983335 1.303576 5.627718
-0.403966 2.014541 5.627718
-1.891111 0.363238 5.627718
1.647790 0.631185 5.627718
-0.323307 2.058800 5.627718
-1.891111 1.350732 5.627718
1.616882 0.723408 5.627718
1.766464 -0.936620 5.627718
-1.872704 1.368975 5.627718
1.797839 -0.890981 5.627718
-0.231083 2.047946 5.627718
-1.858790 1.461198 5.627718
1.890063 -0.856730 5.627718
-0.147485 2.106765 5.627718
-0.046636 2.103306 5.627718
-0.121090 2.106765 5.627718
-0.138860 2.113609 5.627718
-0.231083 -1.397738 5.599014
1.982287 -0.659948 5.592120
1.152273 1.368975 5.540691
-1.245544 -0.475501 5.617773
0.691154 -1.397738 5.611006
-0.046636 -1.489962 5.550014
-0.692202 -0.752172 5.537765
0.691154 -1.305515 5.620588
-1.061097 -0.567725 5.546079
-1.798887 0.262289 5.541534
0.045588 -1.489962 5.620300
-0.784426 -0.659948 5.600378
0.783378 -1.397738 5.612146
-1.337769 1.830093 5.567607
1.060049 1.461198 5.580081
0.045588 2.014541 5.569397
-1.337769 -0.383277 5.614212
-0.507754 -0.936620 5.583322
-1.245544 1.830093 5.588074
0.875602 -1.397738 5.576396
0.137812 2.014541 5.567920
-2.167782 0.907856 5.550269
2.074511 -0.383277 5.544111
0.137812 -1.489962 5.624818
0.967826 -1.305515 5.593455
0.230036 2.014541 5.560585
-2.167782 1.000079 5.598270
-1.614440 -0.106606 5.548071
-0.415531 -0.936620 5.626048
2.074511 -0.291053 5.598232
-1.153321 1.830093 5.581126
-2.167782 1.092303 5.537424
0.322259 1.922317 5.561019
1.521169 1.000079 5.541887
0.967826 -1.213291 5.616333
-0.323307 -1.028843 5.608051
0.322259 2.014541 5.621052
-0.968874 1.737869 5.584445
0.414483 1.922317 5.586475
1.521169 1.092303 5.606940
-0.599978 -0.752172 5.560559
-2.075559 1.276751 5.566873
2.074511 -0.198830 5.603769
0.598930 -1.582186 5.549094
-0.323307 -1.213291 5.572121
-1.983335 1.368975 5.568157
2.074511 -0.106606 5.585813
-0.323307 -1.121067 5.604868
-0.231083 -1.305515 5.591763
-1.891111 1.368975 5.594933
1.613392 0.815632 5.624933
0.691154 -1.582186 5.588017
0.691154 1.737869 5.562296
-0.231083 -1.213291 5.602044
1.797839 -0.936620 5.578663
-1.891111 1.461198 5.590417
2.074511 -0.014382 5.603621
0.783378 1.737869 5.595823
0.506707 -1.489962 5.586504
1.982287 0.077842 5.560095
1.336720 1.276751 5.611753
0.598930 -1.489962 5.596642
0.414483 1.830093 5.538591
-0.876650 -0.567725 5.554852
-0.599978 1.830093 5.569592
0.506707 1.830093 5.546628
0.691154 -1.489962 5.595474
-0.968874 -0.475501 5.614244
0.598930 1.830093 5.603725
1.797839 0.170065 5.597140
0.783378 -1.489962 5.568715
1.890063 0.170065 5.611588
-0.323307 2.014541 5.588818
1.797839 0.262289 5.610346
0.875602 1.645646 5.546866
-1.891111 0.262289 5.600822
0.967826 1.645646 5.559546
-0.231083 2.014541 5.593287
-1.706664 1.645646 5.589586
-0.138860 2.014541 5.580533
1.613392 0.723408 5.611046
-0.138860 2.106765 5.621190
-1.522216 1.737869 5.542044
-0.046636 2.014541 5.566179
0.978833 -1.213291 5.719942
0.322259 -1.422380 5.719942
-2.082802 0.815632 5.719942
-1.245544 -0.427186 5.719942
-0.274859 -1.028843 5.719942
0.282242 -1.397738 5.719942
1.060049 -1.168119 5.719942
-1.265619 -0.383277 5.719942
-0.323307 -0.977371 5.719942
1.943556 -0.659948 5.719942
1.152273 -1.142211 5.719942
0.414483 -1.448670 5.719942
-2.107822 0.907856 5.719942
1.937388 -0.567725 5.719942
-1.337769 -0.314333 5.719942
-2.099043 1.000079 5.719942
1.937137 -0.475501 5.719942
-0.876650 -0.483967 5.719942
1.521169 1.167434 5.719942
-1.379419 -0.291053 5.719942
-0.883942 -0.475501 5.719942
-2.075559 1.080891 5.719942
1.503019 1.184527 5.719942
1.970791 -0.383277 5.719942
1.211857 -1.121067 5.719942
0.414483 1.916851 5.719942
-2.069461 1.092303 5.719942
0.506707 -1.401134 5.719942
1.982287 -0.343708 5.719942
0.506707 1.914195 5.719942
1.653645 0.815632 5.719942
-2.019889 1.184527 5.719942
-1.153321 -0.435761 5.719942
-1.061097 1.663991 5.719942
1.634859 0.907856 5.719942
1.244497 -1.108407 5.719942
0.598930 1.901713 5.719942
-0.784426 -0.627184 5.719942
-0.968874 1.727945 5.719942
0.517107 -1.397738 5.719942
1.635025 1.000079 5.719942
-1.061097 -0.421708 5.719942
-0.915798 1.737869 5.719942
1.336720 -1.058883 5.719942
1.996357 -0.291053 5.719942
1.613392 1.067775 5.719942
0.783378 1.817999 5.719942
-0.813576 -0.567725 5.719942
-0.876650 1.754326 5.719942
-1.983335 1.229236 5.719942
1.596727 1.092303 5.719942
0.697724 1.830093 5.719942
-0.715993 -0.659948 5.719942
2.009617 -0.198830 5.719942
-1.429992 -0.227757 5.719942
1.428945 -1.067807 5.719942
0.691154 1.830738 5.719942
-1.910370 1.276751 5.719942
-0.784426 1.822871 5.719942
1.435573 1.276751 5.719942
-0.968874 -0.420295 5.719942
-1.891111 1.324286 5.719942
-1.451523 -0.198830 5.719942
1.428945 1.285636 5.719942
0.875602 1.731936 5.719942
-1.877948 1.368975 5.719942
1.347547 1.368975 5.719942
0.864806 1.737869 5.719942
1.999639 -0.106606 5.719942
1.521169 -1.061880 5.719942
-0.705769 1.830093 5.719942
-1.891111 0.241702 5.719942
-1.798887 1.449789 5.719942
0.967826 1.693920 5.719942
1.982287 -0.032402 5.719942
-1.522216 -0.150836 5.719942
-0.692202 1.832284 5.719942
-1.895946 0.262289 5.719942
1.969591 -0.014382 5.719942
1.060049 1.629815 5.719942
1.613392 -1.034413 5.719942
-1.798887 0.227879 5.719942
-1.791929 1.461198 5.719942
1.336720 1.380602 5.719942
-1.561932 -0.106606 5.719942
-1.935120 0.354513 5.719942
1.270840 1.461198 5.719942
-0.599978 1.897932 5.719942
-1.706664 1.552017 5.719942
-1.975846 0.446737 5.719942
1.244497 1.488396 5.719942
1.619705 -1.028843 5.719942
-0.569068 1.922317 5.719942
-1.704492 1.553422 5.719942
1.164515 1.553422 5.719942
-1.983335 0.464754 5.719942
-1.613449 -0.014382 5.719942
-2.002517 0.538960 5.719942
-0.507754 1.970651 5.719942
1.890063 0.037645 5.719942
-2.022939 0.631185 5.719942
0.540136 -1.305515 5.719942
-0.476673 2.014541 5.719942
-1.603483 0.077842 5.719942
1.705616 -0.951779 5.719942
1.042937 1.645646 5.719942
-1.619720 1.645646 5.719942
-0.415531 2.066459 5.719942
-2.065123 0.723408 5.719942
1.797839 0.153249 5.719942
0.598930 -1.282779 5.719942
1.152273 1.563945 5.719942
-0.340684 2.106765 5.719942
1.784665 0.170065 5.719942
-2.075559 0.763972 5.719942
-1.614440 1.654399 5.719942
1.719242 -0.936620 5.719942
-0.323307 2.112738 5.719942
0.691154 -1.244423 5.719942
-1.522216 1.695097 5.719942
-1.706664 0.167934 5.719942
0.783378 -1.252261 5.719942
-1.708981 0.170065 5.719942
1.797839 -0.857594 5.719942
-1.429992 1.730642 5.719942
-1.614440 0.131766 5.719942
0.875602 -1.280737 5.719942
-0.692202 -0.667632 5.719942
0.408989 1.922317 5.719942
1.813036 -0.844396 5.719942
1.852272 0.077842 5.719942
0.967826 -1.223000 5.719942
-0.231083 2.121838 5.719942
-1.337769 1.731134 5.719942
-0.507754 -0.876479 5.719942
1.721331 0.262289 5.719942
1.890063 -0.766159 5.719942
-1.245544 1.705400 5.719942
-0.576969 -0.844396 5.719942
1.705616 0.292427 5.719942
-1.153321 1.706296 5.719942
1.695946 0.354513 5.719942
-0.377969 -0.936620 5.719942
1.705616 0.419423 5.719942
1.903104 -0.752172 5.719942
-0.415531 -0.874733 5.719942
-0.138860 2.132823 5.719942
1.717213 0.446737 5.719942
-0.599978 -0.833147 5.719942
-0.046636 2.141023 5.719942
-0.656875 -0.752172 5.719942
0.045588 2.129519 5.719942
1.705616 0.589273 5.719942
1.647336 0.631185 5.719942
0.137812 2.096726 5.719942
0.045588 -1.329016 5.719942
1.738273 0.538960 5.719942
0.120557 2.106765 5.719942
0.025129 -1.305515 5.719942
0.230036 2.067834 5.719942
1.618693 0.723408 5.719942
-0.046636 -1.221397 5.719942
0.322259 2.005947 5.719942
-0.079705 -1.213291 5.719942
0.304342 2.014541 5.719942
-0.231083 -1.124467 5.719942
-0.233133 -1.121067 5.719942
-0.138860 -1.197596 5.719942
0.137812 -1.335140 5.719942
0.230036 -1.362179 5.719942
-1.153321 -0.475501 5.672831
-0.138860 -1.397738 5.657008
-1.061097 -0.475501 5.652180
-2.075559 1.092303 5.714888
0.967826 -1.213291 5.687085
1.982287 -0.567725 5.650166
-0.046636 -1.397738 5.663366
-2.075559 1.184527 5.657176
1.060049 -1.121067 5.683850
-1.429992 -0.291053 5.663000
0.045588 -1.397738 5.681649
1.152273 -1.121067 5.703652
1.982287 -0.475501 5.674263
1.428945 1.184527 5.632559
-1.061097 1.737869 5.673088
-1.983335 1.276751 5.660326
0.230036 -1.489962 5.632418
1.982287 -0.383277 5.653268
-1.891111 0.354513 5.632815
1.613392 0.907856 5.659878
0.137812 -1.397738 5.683049
0.230036 -1.397738 5.696010
0.322259 -1.489962 5.662446
-1.522216 -0.198830 5.628466
0.414483 -1.489962 5.663056
1.613392 1.000079 5.676422
-0.692202 1.830093 5.714772
-1.798887 1.461198 5.694691
-1.614440 -0.014382 5.708475
1.244497 1.368975 5.641678
0.598930 -1.397738 5.666086
0.414483 1.922317 5.698804
-1.614440 0.077842 5.694893
1.982287 -0.014382 5.697646
1.890063 -0.844396 5.654099
1.336720 1.368975 5.686859
-1.798887 1.553422 5.652978
-0.507754 1.922317 5.673460
1.428945 1.276751 5.712951
0.691154 1.830093 5.715230
-1.706664 1.553422 5.716453
1.890063 0.077842 5.659850
1.152273 1.461198 5.677686
-0.599978 -0.752172 5.650402
1.244497 1.461198 5.688189
0.598930 -1.305515 5.693886
1.152273 1.553422 5.707453
1.060049 1.553422 5.628523
-0.415531 2.014541 5.635701
-0.138860 -1.305515 5.705354
0.783378 -1.305515 5.657523
-0.138860 -1.213291 5.705824
1.705616 0.354513 5.649220
-0.046636 -1.305515 5.686192
0.875602 -1.305515 5.696250
-0.323307 2.106765 5.695726
1.705616 0.446737 5.669800
0.967826 -1.305515 5.638044
1.705616 0.538960 5.671639
-0.231083 2.106765 5.689556
-1.429992 1.737869 5.677620
-0.046636 2.106765 5.631252
-1.337769 1.737869 5.688460
0.045588 2.106765 5.663700
-1.245544 1.737869 5.699775
-1.153321 1.737869 5.683545
0.322259 2.014541 5.643755
-2.049209 0.815632 5.812166
-0.231083 -1.027162 5.812166
-1.061097 1.655172 5.812166
-2.030497 0.907856 5.812166
1.890063 -0.518501 5.812166
-0.283807 -0.936620 5.812166
-0.968874 1.711442 5.812166
-1.245544 -0.392150 5.812166
-0.230343 -1.028843 5.812166
-0.909587 1.737869 5.812166
-1.986077 1.000079 5.812166
1.899719 -0.475501 5.812166
-1.254347 -0.383277 5.812166
-0.323307 -0.911685 5.812166
1.060049 -1.149705 5.812166
0.783378 1.813497 5.812166
-1.983335 1.012693 5.812166
-0.876650 1.771955 5.812166
1.962125 -0.383277 5.812166
0.742845 1.830093 5.812166
1.055861 -1.121067 5.812166
-0.876650 -0.504915 5.812166
1.948421 -0.291053 5.812166
-0.829169 1.830093 5.812166
0.691154 1.890517 5.812166
-1.973382 1.092303 5.812166
-1.274421 -0.291053 5.812166
-0.900254 -0.475501 5.812166
-0.784426 1.854521 5.812166
-1.947168 1.184527 5.812166
1.152273 -1.146710 5.812166
0.630686 1.922317 5.812166
-0.692202 1.915526 5.812166
-0.784426 -0.627914 5.812166
1.960412 -0.198830 5.812166
-1.153321 -0.387293 5.812166
-0.841640 -0.567725 5.812166
-1.921810 1.276751 5.812166
0.967826 -1.074977 5.812166
1.698860 0.815632 5.812166
-0.755713 -0.659948 5.812166
1.930825 -0.106606 5.812166
-0.685379 1.922317 5.812166
-1.153112 -0.383277 5.812166
-1.891111 1.365066 5.812166
1.684661 0.907856 5.812166
0.967826 1.727431 5.812166
-1.887034 1.368975 5.812166
1.890063 -0.028076 5.812166
-0.602237 2.014541 5.812166
-1.061097 -0.329407 5.812166
1.646000 1.000079 5.812166
-0.968874 -0.421409 5.812166
0.933900 1.737869 5.812166
-1.804490 1.461198 5.812166
-0.599978 2.016386 5.812166
1.244497 -1.152036 5.812166
-1.006410 -0.383277 5.812166
1.620834 1.092303 5.812166
-0.507754 2.075669 5.812166
1.060049 1.631542 5.812166
1.797839 0.126274 5.812166
1.613392 1.106528 5.812166
1.297492 -1.121067 5.812166
-1.798887 1.467068 5.812166
1.563189 1.184527 5.812166
-0.446864 2.106765 5.812166
1.769334 0.170065 5.812166
-1.429992 -0.228827 5.812166
1.051373 1.645646 5.812166
-1.798887 0.300275 5.812166
1.336720 -1.095293 5.812166
1.825287 0.077842 5.812166
-1.725772 1.553422 5.812166
-1.880886 0.354513 5.812166
-1.502079 -0.198830 5.812166
1.152273 1.561560 5.812166
1.709129 0.262289 5.812166
-0.415531 2.114802 5.812166
-1.891111 0.368977 5.812166
1.705616 0.269732 5.812166
-1.933687 0.446737 5.812166
-0.323307 2.138617 5.812166
-1.522216 -0.172019 5.812166
1.704925 0.354513 5.812166
0.414483 -1.276618 5.812166
0.875602 1.758595 5.812166
0.506707 -1.257872 5.812166
1.428945 -1.031952 5.812166
-1.543128 -0.106606 5.812166
-0.231083 2.144299 5.812166
1.705616 0.359049 5.812166
-1.983335 0.585341 5.812166
0.414483 1.988163 5.812166
-0.138860 2.147667 5.812166
0.598930 -1.244477 5.812166
-2.003060 0.631185 5.812166
0.506707 1.953507 5.812166
1.433553 -1.028843 5.812166
1.336720 1.356400 5.812166
-0.046636 2.140340 5.812166
-1.964993 0.538960 5.812166
0.598930 1.926372 5.812166
-1.574147 -0.014382 5.812166
0.691154 -1.235613 5.812166
1.728197 0.446737 5.812166
1.293637 1.368975 5.812166
-2.046486 0.723408 5.812166
0.774917 -1.213291 5.812166
-1.551035 0.077842 5.812166
1.166098 1.553422 5.812166
1.750421 0.538960 5.812166
1.521169 1.263803 5.812166
-1.614440 0.160653 5.812166
1.738521 0.631185 5.812166
1.509346 1.276751 5.812166
-1.621428 0.170065 5.812166
0.783378 -1.208148 5.812166
1.521169 -0.982939 5.812166
-1.337769 -0.238976 5.812166
-1.677610 0.262289 5.812166
1.705616 0.784200 5.812166
0.045588 2.145161 5.812166
0.875602 -1.142826 5.812166
1.421762 1.368975 5.812166
1.729977 0.723408 5.812166
-1.706664 0.287220 5.812166
0.887999 -1.121067 5.812166
1.433494 1.368975 5.812166
1.613392 -0.952971 5.812166
0.230036 2.046107 5.812166
1.312109 1.461198 5.812166
0.142019 2.106765 5.812166
1.626961 -0.936620 5.812166
-0.692202 -0.733096 5.812166
1.244497 1.506013 5.812166
1.705616 -0.845001 5.812166
0.341483 2.014541 5.812166
-0.507754 -0.873432 5.812166
1.428945 1.374074 5.812166
-0.590393 -0.844396 5.812166
1.706116 -0.844396 5.812166
0.322259 2.020000 5.812166
-0.415531 -0.945293 5.812166
1.770924 -0.752172 5.812166
0.137812 2.109419 5.812166
-0.435906 -0.936620 5.812166
1.797839 -0.680489 5.812166
-0.389916 -0.936620 5.812166
1.810940 -0.659948 5.812166
-1.706664 1.570020 5.812166
-0.599978 -0.837396 5.812166
-1.614440 1.589271 5.812166
1.884365 -0.567725 5.812166
-0.671212 -0.752172 5.812166
-1.551064 1.645646 5.812166
-1.522216 1.659643 5.812166
1.882637 -0.014382 5.812166
-0.231083 -1.123055 5.812166
-1.429992 1.683795 5.812166
-0.233372 -1.121067 5.812166
-0.138860 -1.125969 5.812166
-1.337769 1.688789 5.812166
-0.231083 -1.066811 5.812166
-1.245544 1.672874 5.812166
-0.046636 -1.171934 5.812166
-1.153321 1.648107 5.812166
0.045588 -1.175931 5.812166
0.230036 -1.231491 5.812166
0.147314 -1.213291 5.812166
0.322259 -1.316709 5.812166
0.301957 -1.305515 5.812166
0.406975 -1.305515 5.812166
0.137812 -1.211835 5.812166
1.521169 1.184527 5.740511
-0.231083 -1.028843 5.810590
0.967826 -1.213291 5.728083
1.890063 -0.659948 5.781011
0.322259 -1.397738 5.748467
-1.337769 -0.291053 5.746288
-0.323307 -0.936620 5.770525
0.967826 -1.121067 5.750904
1.890063 -0.567725 5.804539
-0.784426 1.830093 5.744516
0.414483 -1.397738 5.789798
-2.075559 0.815632 5.748643
1.613392 1.092303 5.778783
-2.075559 0.907856 5.763670
1.982287 -0.291053 5.751431
-1.061097 -0.383277 5.762516
1.244497 -1.121067 5.728591
0.506707 -1.397738 5.723885
-2.075559 1.000079 5.751413
0.414483 1.922317 5.735195
1.336720 1.368975 5.765181
1.982287 -0.198830 5.783467
0.506707 1.922317 5.739273
-0.599978 1.922317 5.749628
1.982287 -0.106606 5.756998
1.428945 1.368975 5.808999
0.598930 1.922317 5.781798
-1.983335 1.092303 5.804322
1.521169 -1.028843 5.756336
1.890063 -0.014382 5.800430
-1.983335 1.184527 5.785569
1.613392 -1.028843 5.728348
-1.891111 0.262289 5.727342
0.875602 1.737869 5.756476
-0.599978 2.014541 5.809779
-1.798887 0.262289 5.767727
-0.507754 2.014541 5.760986
1.705616 -0.936620 5.736439
-1.706664 1.553422 5.725945
-1.891111 0.354513 5.804635
1.797839 -0.844396 5.735349
-1.614440 1.645646 5.740515
1.705616 0.631185 5.763958
-0.415531 -0.936620 5.797657
-0.415531 2.106765 5.798530
-1.798887 1.461198 5.769030
1.705616 0.723408 5.784552
1.797839 -0.752172 5.790834
-1.983335 0.538960 5.762999
1.890063 -0.752172 5.730057
0.045588 -1.305515 5.730315
0.414483 -1.305515 5.805182
-0.046636 -1.213291 5.724411
-1.706664 0.170065 5.722375
0.137812 2.106765 5.781172
0.506707 -1.305515 5.743625
0.045588 -1.213291 5.754228
-1.706664 0.262289 5.758629
0.322259 2.014541 5.788604
0.783378 -1.213291 5.804186
0.137812 -1.305515 5.735895
0.875602 -1.213291 5.780551
0.230036 -1.305515 5.765526
0.137812 -1.213291 5.810759
-1.798887 0.375127 5.904389
-1.061097 -0.302582 5.904389
-1.844767 0.446737 5.904389
-1.798887 1.432228 5.904389
-1.121197 -0.291053 5.904389
1.725883 0.446737 5.904389
-0.692202 -0.661113 5.904389
-1.597976 1.553422 5.904389
-1.755907 1.461198 5.904389
1.780605 0.538960 5.904389
-1.891111 0.520816 5.904389
-0.695675 -0.659948 5.904389
-1.522216 1.618772 5.904389
1.521169 -0.927199 5.904389
-1.706664 1.502619 5.904389
1.797839 0.553141 5.904389
-1.909823 0.538960 5.904389
1.613392 -0.876018 5.904389
-1.487926 1.645646 5.904389
-1.429992 -0.166349 5.904389
1.832659 0.631185 5.904389
-0.415531 -0.862052 5.904389
-1.496130 -0.106606 5.904389
1.657793 -0.844396 5.904389
-1.429992 1.654836 5.904389
-0.478950 -0.844396 5.904389
-1.913750 0.631185 5.904389
-1.614440 1.544244 5.904389
1.705616 -0.796740 5.904389
-0.323307 -0.892761 5.904389
1.815649 0.723408 5.904389
-1.337769 1.634085 5.904389
-1.482976 -0.014382 5.904389
-1.354957 1.645646 5.904389
1.732020 -0.752172 5.904389
-0.507754 -0.835079 5.904389
-1.983335 0.686059 5.904389
1.797839 0.803083 5.904389
-1.522216 0.059576 5.904389
-1.245544 1.599009 5.904389
-0.584303 -0.752172 5.904389
-0.138860 2.156040 5.904389
-1.536404 0.077842 5.904389
1.764521 -0.659948 5.904389
-0.599978 -0.728487 5.904389
0.414483 -1.194554 5.904389
1.781750 0.815632 5.904389
-1.153321 1.620185 5.904389
-0.046636 2.160889 5.904389
0.506707 -1.193214 5.904389
-1.337769 -0.225255 5.904389
-2.005927 0.723408 5.904389
-1.104585 1.645646 5.904389
-1.370820 -0.198830 5.904389
0.598930 -1.165295 5.904389
1.797839 -0.590304 5.904389
0.045588 2.157740 5.904389
1.808048 -0.567725 5.904389
-2.032158 0.815632 5.904389
-1.061097 1.669716 5.904389
-0.138860 -1.121204 5.904389
1.890063 -0.475867 5.904389
-0.139063 -1.121067 5.904389
-1.245544 -0.246496 5.904389
1.890063 -0.474867 5.904389
0.691154 -1.172883 5.904389
-0.144593 -1.028843 5.904389
0.230036 2.062729 5.904389
-1.153321 -0.286879 5.904389
-0.968874 1.713633 5.904389
1.874532 -0.383277 5.904389
-0.138701 -1.121067 5.904389
-1.614440 0.171190 5.904389
0.153653 2.106765 5.904389
0.780288 -1.121067 5.904389
-0.939587 1.737869 5.904389
-0.046636 -1.087245 5.904389
1.882921 -0.291053 5.904389
-1.649670 0.262289 5.904389
0.045588 -1.112853 5.904389
1.705616 0.983302 5.904389
0.783378 -1.118667 5.904389
1.694594 1.000079 5.904389
0.322259 2.040523 5.904389
0.137812 -1.135403 5.904389
-1.614038 0.170065 5.904389
1.890063 -0.264699 5.904389
1.739551 0.907856 5.904389
0.082535 -1.121067 5.904389
-0.876650 1.809390 5.904389
0.414483 2.021020 5.904389
0.230036 -1.141322 5.904389
0.875602 -1.080730 5.904389
1.890063 -0.096497 5.904389
1.640335 1.092303 5.904389
-0.855248 1.830093 5.904389
-1.706664 0.314448 5.904389
1.822650 -0.014382 5.904389
0.322259 -1.136497 5.904389
1.613392 1.128622 5.904389
-0.784426 1.907776 5.904389
0.967826 -1.036520 5.904389
1.797839 0.015329 5.904389
-1.779628 0.354513 5.904389
1.768065 0.077842 5.904389
0.137812 2.116080 5.904389
-0.211357 -0.936620 5.904389
-0.759743 1.922317 5.904389
1.060049 -1.050912 5.904389
-0.231083 -0.925885 5.904389
1.587691 1.184527 5.904389
1.890314 -0.475501 5.904389
-0.692202 1.980607 5.904389
1.152273 -1.066087 5.904389
1.521169 1.288226 5.904389
-1.985187 0.907856 5.904389
1.909257 -0.198830 5.904389
-0.658864 2.014541 5.904389
-0.784426 -0.606585 5.904389
1.471531 1.368975 5.904389
0.598930 1.917723 5.904389
1.900673 -0.106606 5.904389
-0.599978 2.074579 5.904389
-1.983335 0.912939 5.904389
1.244497 1.535583 5.904389
-0.509521 2.106765 5.904389
1.244497 -1.110645 5.904389
1.202137 1.553422 5.904389
0.590147 1.922317 5.904389
-0.507754 2.107801 5.904389
1.754448 0.170065 5.904389
-1.940783 1.000079 5.904389
1.336720 1.526023 5.904389
-0.793912 -0.567725 5.904389
1.336720 -1.038700 5.904389
1.738745 0.262289 5.904389
-0.415531 2.164436 5.904389
1.429998 1.461198 5.904389
0.691154 1.890441 5.904389
1.727657 0.354513 5.904389
-0.323307 2.161893 5.904389
1.337909 -1.028843 5.904389
-0.842356 -0.475501 5.904389
-1.922020 1.092303 5.904389
0.783378 1.847627 5.904389
1.428945 1.462179 5.904389
-0.231083 2.157638 5.904389
-0.968874 -0.410698 5.904389
-1.891512 1.184527 5.904389
-0.985980 -0.383277 5.904389
1.060049 1.643317 5.904389
-0.876650 -0.450952 5.904389
-1.900110 1.276751 5.904389
1.428945 -1.000244 5.904389
1.057510 1.645646 5.904389
-1.891111 1.357985 5.904389
1.543244 1.276751 5.904389
1.508841 -0.936620 5.904389
1.152273 1.584220 5.904389
-1.887825 1.368975 5.904389
0.988310 1.737869 5.904389
0.875602 1.821215 5.904389
0.834607 1.830093 5.904389
0.967826 1.786229 5.904389
0.506707 1.968367 5.904389
0.434192 2.014541 5.904389
-1.798887 1.461198 5.833984
-1.798887 0.354513 5.884167
-1.245544 -0.383277 5.822015
-0.507754 -0.844396 5.885186
1.797839 0.631185 5.869126
1.521169 -0.936620 5.885238
-1.891111 0.446737 5.861489
-1.245544 -0.291053 5.839514
-1.706664 1.553422 5.861143
1.613392 -0.936620 5.821510
-0.415531 -0.936620 5.824740
1.705616 0.815632 5.828994
-1.153321 -0.383277 5.817750
-1.614440 1.553422 5.882367
-1.983335 0.631185 5.851070
1.705616 -0.844396 5.812826
1.797839 0.723408 5.862280
-1.153321 -0.291053 5.899636
-1.522216 1.645646 5.856240
0.414483 2.014541 5.872190
-0.599978 -0.752172 5.877292
1.797839 -0.659948 5.826321
0.414483 -1.213291 5.857569
1.705616 0.907856 5.839442
-1.614440 0.170065 5.899872
0.506707 -1.213291 5.870425
-1.429992 -0.198830 5.860008
-1.337769 1.645646 5.891277
0.598930 -1.213291 5.859632
0.598930 1.922317 5.847143
-1.245544 1.645646 5.859318
1.890063 -0.383277 5.883033
-1.522216 -0.106606 5.854895
0.691154 -1.213291 5.846338
0.783378 1.830093 5.871930
-0.231083 -1.121067 5.814098
1.336720 1.368975 5.839586
1.890063 -0.291053 5.892146
1.521169 1.276751 5.854845
0.967826 1.737869 5.834730
-1.522216 -0.014382 5.862196
-1.153321 1.645646 5.817436
0.783378 -1.121067 5.898360
-1.983335 1.000079 5.816117
-0.046636 -1.121067 5.870631
1.336720 1.461198 5.831141
0.875602 -1.121067 5.831204
1.797839 0.077842 5.850707
0.045588 -1.121067 5.891422
1.428945 1.461198 5.899317
1.060049 -1.121067 5.824133
-0.692202 1.922317 5.827424
1.152273 -1.121067 5.838220
0.230036 -1.213291 5.828359
0.322259 -1.305515 5.821027
1.244497 -1.121067 5.889991
-0.507754 2.106765 5.902570
1.705616 0.354513 5.815749
0.322259 -1.213291 5.864722
1.428945 -1.028843 5.820601
-0.231083 -0.936620 5.877638
-0.876650 -0.475501 5.856288
-1.798887 1.405287 5.996613
-0.323307 -0.883941 5.996613
1.521169 -0.892382 5.996613
1.766120 0.446737 5.996613
-1.429992 -0.105770 5.996613
-0.352096 -0.844396 5.996613
-1.798887 0.503264 5.996613
-1.706664 1.400395 5.996613
1.613392 -0.847852 5.996613
1.797839 0.524387 5.996613
-1.880041 0.538960 5.996613
-1.488190 -0.014382 5.996613
-0.507754 -0.807549 5.996613
1.616863 -0.844396 5.996613
1.803891 0.538960 5.996613
-0.575666 -0.752172 5.996613
-1.891111 0.556208 5.996613
-1.522216 0.074344 5.996613
-1.614440 1.434313 5.996613
-0.138860 2.151049 5.996613
1.842740 0.631185 5.996613
-1.523342 0.077842 5.996613
-0.599978 -0.721280 5.996613
1.697234 -0.752172 5.996613
-1.927247 0.631185 5.996613
-0.674156 -0.659948 5.996613
-0.046636 2.158578 5.996613
1.834364 0.723408 5.996613
-1.547917 1.553422 5.996613
-1.582055 1.461198 5.996613
0.045588 2.158678 5.996613
-0.415531 -0.828478 5.996613
1.812659 0.815632 5.996613
1.705616 -0.745650 5.996613
-1.522216 1.582055 5.996613
-1.974869 0.723408 5.996613
0.230036 2.063498 5.996613
1.799925 0.907856 5.996613
0.045588 -1.050071 5.996613
1.750504 -0.659948 5.996613
-1.429992 1.574986 5.996613
-1.957324 0.815632 5.996613
-1.337769 1.529785 5.996613
-1.245544 -0.229791 5.996613
0.148623 2.106765 5.996613
1.797839 0.912307 5.996613
0.005869 -1.028843 5.996613
-1.312788 -0.198830 5.996613
-1.384125 1.553422 5.996613
0.322259 2.048056 5.996613
1.728476 1.000079 5.996613
-1.337769 -0.169147 5.996613
-1.614440 0.212811 5.996613
-1.245544 1.536989 5.996613
-1.429344 -0.106606 5.996613
1.705616 1.024775 5.996613
0.137812 -1.104203 5.996613
-1.634340 0.262289 5.996613
1.770298 -0.567725 5.996613
0.230036 -1.104147 5.996613
-1.198967 -0.198830 5.996613
-1.220038 1.553422 5.996613
0.414483 2.015029 5.996613
-1.061097 -0.241692 5.996613
0.322259 -1.137181 5.996613
1.779646 -0.475501 5.996613
1.672081 1.092303 5.996613
-1.595818 0.170065 5.996613
0.137812 2.112321 5.996613
1.613392 1.160183 5.996613
-1.153321 1.610563 5.996613
1.797839 -0.388188 5.996613
1.582758 1.184527 5.996613
0.295807 -1.121067 5.996613
-1.706664 0.350790 5.996613
-1.108428 1.645646 5.996613
0.691154 1.918383 5.996613
0.414483 -1.167801 5.996613
1.799890 -0.383277 5.996613
1.521169 1.307216 5.996613
0.643824 1.922317 5.996613
-1.713407 0.354513 5.996613
1.480133 1.368975 5.996613
-1.061097 1.675024 5.996613
0.783378 1.914211 5.996613
-0.138860 -0.974762 5.996613
1.835361 -0.291053 5.996613
1.244497 1.544332 5.996613
-1.770052 0.446737 5.996613
-0.213675 -0.936620 5.996613
0.506707 -1.128481 5.996613
1.225648 1.553422 5.996613
1.152273 1.594235 5.996613
-0.231083 -0.923820 5.996613
1.336720 1.505011 5.996613
1.098180 1.645646 5.996613
1.849133 -0.198830 5.996613
0.513815 -1.121067 5.996613
1.442400 1.461198 5.996613
-0.046636 -1.018038 5.996613
1.060049 1.716624 5.996613
1.428945 1.476812 5.996613
-0.968874 1.731844 5.996613
1.797839 -0.126501 5.996613
0.598930 -1.062917 5.996613
1.004761 1.737869 5.996613
-1.903340 0.907856 5.996613
1.537776 1.276751 5.996613
-0.692202 -0.628873 5.996613
1.784006 -0.106606 5.996613
-0.961935 1.737869 5.996613
0.967826 1.770895 5.996613
-0.735787 -0.567725 5.996613
0.691154 -1.077977 5.996613
-1.891111 0.946218 5.996613
0.929391 1.830093 5.996613
-0.783405 -0.475501 5.996613
0.875602 1.853628 5.996613
1.775672 -0.014382 5.996613
-1.866539 1.000079 5.996613
-0.968874 -0.406483 5.996613
0.783378 -1.081362 5.996613
-0.986876 -0.383277 5.996613
1.762778 0.077842 5.996613
0.506707 1.976295 5.996613
-0.876650 -0.469681 5.996613
-1.830803 1.092303 5.996613
0.415700 2.014541 5.996613
-1.016042 -0.291053 5.996613
0.875602 -1.042569 5.996613
-1.131804 -0.198830 5.996613
0.598930 1.936099 5.996613
-1.820284 1.184527 5.996613
-0.784426 -0.474343 5.996613
0.880926 -1.028843 5.996613
1.751446 0.170065 5.996613
-1.153321 -0.198023 5.996613
-0.912657 1.830093 5.996613
-1.824923 1.276751 5.996613
1.750404 0.262289 5.996613
-0.876650 1.908627 5.996613
0.967826 -1.002642 5.996613
-1.827467 1.368975 5.996613
1.746351 0.354513 5.996613
-0.862853 1.922317 5.996613
1.060049 -1.004750 5.996613
1.152273 -0.991209 5.996613
-0.784426 1.999466 5.996613
-0.778283 2.014541 5.996613
1.244497 -1.026941 5.996613
-0.692202 2.063361 5.996613
1.336720 -0.991152 5.996613
-0.623755 2.106765 5.996613
1.428945 -0.962267 5.996613
-0.599978 2.128244 5.996613
1.468480 -0.936620 5.996613
-0.509197 2.198988 5.996613
-0.507754 2.199261 5.996613
-0.415531 2.165105 5.996613
-0.479432 2.198988 5.996613
-0.323307 2.150649 5.996613
-0.231083 2.145259 5.996613
-1.798887 0.446737 5.957213
1.797839 0.538960 5.948117
-1.706664 1.461198 5.931844
-1.429992 1.645646 5.918267
1.705616 -0.752172 5.985392
-0.692202 -0.659948 5.906551
-1.061097 -0.291053 5.933012
-1.891111 0.538960 5.967840
-1.614440 1.461198 5.967080
-1.337769 1.553422 5.968091
1.797839 0.815632 5.918260
-0.415531 -0.844396 5.942606
-1.245544 1.553422 5.957351
-1.429992 -0.106606 5.996260
1.797839 -0.567725 5.921621
-1.983335 0.723408 5.984067
1.797839 -0.475501 5.967617
-1.983335 0.815632 5.974886
-1.337769 -0.198830 5.951084
1.890063 -0.475501 5.904687
1.705616 1.000079 5.944178
0.598930 -1.121067 5.937621
-1.153321 -0.198830 5.995446
0.598930 1.922317 5.954926
1.797839 0.907856 5.994008
1.890063 -0.198830 5.924177
0.691154 -1.121067 5.964341
-0.138860 -1.121067 5.904709
-0.876650 1.830093 5.946661
1.797839 -0.106606 5.984078
1.890063 -0.106606 5.915067
-0.138860 -1.028843 5.910535
1.060049 1.645646 5.906823
0.967826 -1.028843 5.918490
1.797839 -0.014382 5.938221
-0.784426 1.922317 5.924586
1.060049 -1.028843 5.941840
-0.046636 -1.028843 5.981350
1.152273 -1.028843 5.948780
0.875602 1.830093 5.924142
-1.983335 0.907856 5.908532
-0.692202 2.014541 5.921690
0.137812 -1.121067 5.920448
1.244497 -1.028843 5.994275
-1.891111 1.000079 5.978444
0.230036 -1.121067 5.938379
1.336720 -1.028843 5.905790
-0.599978 2.106765 5.940075
-1.891111 1.092303 5.939439
-1.891111 1.184527 5.905252
-0.507754 2.198988 5.993099
-1.891111 1.276751 5.931422
-0.784426 -0.567725 5.912892
-0.784426 -0.475501 5.970345
0.414483 -1.141984 6.088837
-1.724277 0.446737 6.088837
-1.429992 1.512888 6.088837
0.382749 -1.121067 6.088837
-1.429992 -0.055026 6.088837
-1.771838 0.538960 6.088837
1.697427 -0.659948 6.088837
0.230036 -1.084525 6.088837
-1.337769 1.536605 6.088837
-1.489072 -0.014382 6.088837
1.705616 -0.609964 6.088837
-1.798887 0.597058 6.088837
-1.291477 1.553422 6.088837
0.322259 -1.096845 6.088837
-1.522216 0.070777 6.088837
1.709539 -0.567725 6.088837
-1.527188 0.077842 6.088837
1.809958 0.815632 6.088837
-1.881288 0.815632 6.088837
1.714695 -0.475501 6.088837
1.857593 0.907856 6.088837
-1.040079 1.737869 6.088837
-1.245544 -0.269493 6.088837
-1.806244 0.907856 6.088837
1.737573 -0.383277 6.088837
-0.138860 -0.968306 6.088837
0.783378 1.917702 6.088837
-0.999792 1.830093 6.088837
0.470591 -1.121067 6.088837
-1.798887 0.923716 6.088837
-0.170307 -0.936620 6.088837
1.775414 -0.291053 6.088837
0.777175 1.922317 6.088837
1.797839 0.980558 6.088837
-0.968874 1.884275 6.088837
1.774623 1.000079 6.088837
-1.779536 1.000079 6.088837
0.506707 -1.107437 6.088837
1.746932 -0.198830 6.088837
-0.323307 -0.851937 6.088837
-0.896226 1.922317 6.088837
1.152273 1.620271 6.088837
-1.732768 1.092303 6.088837
0.598930 -1.036260 6.088837
1.730508 -0.106606 6.088837
-0.231083 -0.881776 6.088837
1.613392 1.173162 6.088837
1.095632 1.645646 6.088837
1.736956 -0.014382 6.088837
1.596142 1.184527 6.088837
0.691154 -1.038106 6.088837
-1.733496 1.184527 6.088837
1.733922 0.077842 6.088837
1.705616 1.099992 6.088837
1.060049 1.708043 6.088837
-0.876650 1.942137 6.088837
-0.046636 -0.973213 6.088837
1.709788 1.092303 6.088837
-1.735358 1.276751 6.088837
1.050185 1.737869 6.088837
1.770949 0.170065 6.088837
0.045588 -1.009079 6.088837
-0.839241 2.014541 6.088837
1.521169 1.315176 6.088837
1.500391 1.368975 6.088837
0.967826 1.791488 6.088837
0.733241 -1.028843 6.088837
1.336720 1.514882 6.088837
0.902386 1.830093 6.088837
0.067886 -1.028843 6.088837
-1.734023 1.368975 6.088837
-0.784426 2.079613 6.088837
1.253831 1.553422 6.088837
1.750707 0.262289 6.088837
-1.706664 1.385894 6.088837
0.875602 1.846308 6.088837
0.783378 -1.017715 6.088837
1.770654 0.354513 6.088837
-1.614440 1.427648 6.088837
1.428945 1.455201 6.088837
-0.692202 2.103782 6.088837
1.797839 0.445636 6.088837
1.420979 1.461198 6.088837
-0.784426 -0.571002 6.088837
-1.522216 1.453004 6.088837
1.798187 0.446737 6.088837
0.875602 -0.985768 6.088837
-0.795905 -0.567725 6.088837
-1.497059 1.461198 6.088837
1.820309 0.538960 6.088837
1.537457 1.276751 6.088837
-0.672994 2.106765 6.088837
0.598930 1.939757 6.088837
1.837381 0.631185 6.088837
0.967826 -0.971891 6.088837
-0.692202 -0.628269 6.088837
1.815189 0.723408 6.088837
-0.599978 2.138953 6.088837
1.060049 -0.970136 6.088837
-0.858262 -0.475501 6.088837
-0.507754 2.184161 6.088837
0.525736 2.014541 6.088837
1.152273 -0.960333 6.088837
-0.876650 -0.447560 6.088837
-1.245544 1.575175 6.088837
-0.415531 2.195592 6.088837
0.414483 2.019260 6.088837
-0.936963 -0.383277 6.088837
0.506707 2.019301 6.088837
-0.323307 2.146239 6.088837
-1.153321 1.628378 6.088837
1.219633 -0.936620 6.088837
-0.968874 -0.306146 6.088837
-1.140179 1.645646 6.088837
1.244497 -0.929614 6.088837
0.691154 1.956984 6.088837
-1.267562 -0.198830 6.088837
-0.975116 -0.291053 6.088837
-1.061097 1.706493 6.088837
-1.337769 -0.129547 6.088837
1.336720 -0.920930 6.088837
-0.138860 2.131187 6.088837
-1.357841 -0.106606 6.088837
1.244497 1.558337 6.088837
-0.671531 -0.659948 6.088837
1.428945 -0.900697 6.088837
-0.046636 2.158744 6.088837
-1.153321 -0.218732 6.088837
1.521169 -0.881663 6.088837
0.045588 2.142726 6.088837
-1.061097 -0.207806 6.088837
1.597052 -0.844396 6.088837
0.230036 2.058058 6.088837
0.158344 2.106765 6.088837
1.613392 -0.817294 6.088837
-1.818853 0.631185 6.088837
-0.507754 -0.846039 6.088837
1.639594 -0.752172 6.088837
0.322259 2.026134 6.088837
-0.515742 -0.844396 6.088837
-1.873317 0.723408 6.088837
0.137812 2.117854 6.088837
-0.499323 -0.844396 6.088837
-0.339851 -0.844396 6.088837
-1.559771 0.170065 6.088837
-0.599978 -0.767945 6.088837
-1.579783 0.262289 6.088837
-0.616064 -0.752172 6.088837
-1.706664 0.434331 6.088837
-1.614440 0.401594 6.088837
-0.415531 -0.822228 6.088837
-1.603518 0.354513 6.088837
0.137812 -1.083961 6.088837
0.322259 -1.121067 6.037817
-1.429992 1.553422 6.029591
-1.798887 0.538960 6.032775
1.705616 -0.659948 6.079023
-1.245544 1.553422 6.085475
1.705616 1.092303 6.066510
-1.891111 0.815632 6.075874
-1.153321 -0.198830 5.998939
0.045588 -1.028843 6.029098
-1.891111 0.907856 6.008474
1.797839 -0.383277 5.999568
0.506707 -1.121067 6.015756
-0.968874 1.737869 6.008288
0.691154 1.922317 6.001654
1.797839 -0.291053 6.065568
-0.784426 -0.567725 6.083721
-0.968874 1.830093 6.052961
-1.798887 1.000079 6.048932
1.244497 1.553422 6.060926
-0.507754 -0.844396 6.085472
-0.784426 -0.475501 6.002765
0.783378 -1.028843 6.061133
1.797839 -0.198830 6.059532
-0.876650 1.922317 6.027480
-1.798887 1.092303 6.025405
0.875602 -1.028843 6.012645
1.428945 1.461198 6.062567
0.506707 2.014541 6.047611
-1.522216 1.553422 6.032023
-0.968874 -0.383277 6.051859
-0.599978 -0.752172 6.059886
-0.784426 2.014541 6.004307
-1.798887 1.184527 6.012259
-1.891111 0.631185 6.013467
-1.891111 0.723408 6.064698
-0.507754 2.198988 5.997299
1.797839 0.446737 6.087786
-1.614440 0.262289 6.022322
-1.798887 1.276751 6.017688
1.244497 -0.936620 6.078743
-1.706664 0.354513 5.999907
-1.798887 1.368975 6.030189
-1.614440 0.354513 6.074624
1.336720 -0.936620 6.064845
1.428945 -0.936620 6.049663
-1.522216 1.461198 6.075993
1.613392 -0.844396 6.018271
1.797839 0.903776 6.181060
0.230036 -1.080844 6.181060
-1.061097 1.772532 6.181060
1.598071 -0.659948 6.181060
0.241115 -1.028843 6.181060
-1.429992 -0.020661 6.181060
-1.631244 0.446737 6.181060
-1.429992 1.401357 6.181060
-1.438150 -0.014382 6.181060
0.414483 -1.102051 6.181060
1.613392 -0.615496 6.181060
-1.045059 1.830093 6.181060
0.356956 -1.028843 6.181060
-1.696444 0.538960 6.181060
-1.491280 0.077842 6.181060
1.622903 -0.567725 6.181060
-1.379301 1.461198 6.181060
1.795915 0.907856 6.181060
-1.004544 1.922317 6.181060
1.624977 -0.475501 6.181060
-0.323307 -0.850356 6.181060
-1.245544 -0.140266 6.181060
-1.706664 0.558115 6.181060
-1.337769 1.497584 6.181060
-0.231083 -0.864024 6.181060
1.829075 0.815632 6.181060
-1.275977 -0.106606 6.181060
-0.968874 1.927515 6.181060
-1.740760 0.631185 6.181060
0.783378 1.889491 6.181060
-1.259461 1.553422 6.181060
-1.061097 -0.203350 6.181060
-0.138860 -0.863809 6.181060
1.758102 1.000079 6.181060
1.651222 -0.383277 6.181060
0.703863 1.922317 6.181060
0.045588 -0.981180 6.181060
-1.087534 -0.198830 6.181060
-1.798207 0.723408 6.181060
1.705616 1.067065 6.181060
-0.898234 2.014541 6.181060
1.641074 -0.291053 6.181060
0.506707 -1.090181 6.181060
-0.005745 -0.936620 6.181060
-1.153321 -0.184653 6.181060
1.681709 1.092303 6.181060
-0.876650 2.029416 6.181060
-0.046636 -0.906872 6.181060
-1.798887 0.724312 6.181060
1.152273 1.640658 6.181060
1.684767 -0.198830 6.181060
0.598930 -1.029663 6.181060
-0.784426 2.069281 6.181060
1.613392 1.170384 6.181060
-1.337769 -0.035774 6.181060
1.691424 -0.106606 6.181060
1.145720 1.645646 6.181060
-0.698354 2.106765 6.181060
0.097684 -1.028843 6.181060
1.602296 1.184527 6.181060
0.601296 -1.028843 6.181060
1.704698 -0.014382 6.181060
-0.692202 2.110091 6.181060
1.060049 1.717894 6.181060
0.322259 -1.014130 6.181060
-0.692202 -0.725013 6.181060
1.705616 -0.009847 6.181060
-1.819456 0.815632 6.181060
1.019911 1.737869 6.181060
-0.599978 2.173085 6.181060
0.691154 -1.010437 6.181060
1.745613 0.077842 6.181060
-0.784426 -0.610987 6.181060
1.521169 1.309306 6.181060
-0.814674 -0.567725 6.181060
-0.507754 2.194254 6.181060
-0.753529 -0.659948 6.181060
0.783378 -1.009860 6.181060
0.875602 1.829152 6.181060
-0.415531 2.184354 6.181060
1.794272 0.170065 6.181060
1.488643 1.368975 6.181060
-0.368942 -0.844396 6.181060
-0.323307 2.163024 6.181060
1.796046 0.262289 6.181060
0.873717 1.830093 6.181060
-0.867310 -0.475501 6.181060
0.875602 -0.958321 6.181060
-0.599978 -0.755547 6.181060
1.336720 1.526472 6.181060
1.797839 0.339194 6.181060
-0.611781 -0.752172 6.181060
-0.231083 2.132193 6.181060
0.967826 1.772145 6.181060
0.957068 -0.936620 6.181060
1.798478 0.354513 6.181060
-0.507754 -0.830993 6.181060
1.292989 1.553422 6.181060
1.817627 0.446737 6.181060
-0.138860 2.141030 6.181060
-0.415531 -0.839559 6.181060
-0.876650 -0.452237 6.181060
-1.798887 0.851600 6.181060
-0.901371 -0.383277 6.181060
1.431907 1.461198 6.181060
-0.046636 2.141756 6.181060
1.818023 0.538960 6.181060
0.414483 1.999045 6.181060
0.045588 2.125262 6.181060
0.137812 -1.063234 6.181060
-0.928660 -0.291053 6.181060
1.809832 0.631185 6.181060
1.428945 1.464271 6.181060
0.230036 2.007882 6.181060
0.967826 -0.934459 6.181060
0.214510 2.014541 6.181060
-1.748768 0.907856 6.181060
1.821107 0.723408 6.181060
0.137812 2.105784 6.181060
1.538876 1.276751 6.181060
-0.968874 -0.219723 6.181060
0.132674 2.106765 6.181060
1.152273 -0.940483 6.181060
0.506707 1.961036 6.181060
-1.706664 0.999806 6.181060
