1.190515 0.181274 1.392465
0.224499 0.522221 1.441365
0.054025 0.579046 1.414443
0.849568 -1.125689 1.435454
0.110850 0.579046 1.392156
0.110850 0.635870 1.399138
0.963217 -1.125689 1.390078
0.167674 0.635870 1.432560
1.076866 -1.068865 1.393762
1.190515 -1.125689 1.441317
1.247340 -1.125689 1.420692
1.417813 -1.012040 1.437579
-0.002799 -1.183922 1.499793
1.460226 -0.841567 1.499793
0.565446 0.509513 1.499793
-0.005473 -1.182514 1.499793
0.394972 -1.182726 1.499793
1.463595 -0.784742 1.499793
0.622270 0.492399 1.499793
-0.155504 0.294923 1.499793
-0.002378 -1.182514 1.499793
0.373460 -1.182514 1.499793
0.679095 0.491168 1.499793
1.474638 -0.746830 1.499793
-0.116448 0.340234 1.499793
0.445980 -1.182514 1.499793
1.484773 -0.727918 1.499793
0.508621 0.536364 1.499793
-0.230097 -0.856480 1.499793
-0.103172 0.351748 1.499793
-0.268182 -0.841567 1.499793
0.462292 0.579046 1.499793
0.508621 -1.194560 1.499793
1.531462 -0.686251 1.499793
0.531333 0.522221 1.499793
0.486282 -1.182514 1.499793
-0.284351 -0.784742 1.499793
-0.059624 0.407273 1.499793
1.542648 -0.671093 1.499793
0.451797 0.586887 1.499793
-0.286922 -0.766144 1.499793
1.572066 -0.614269 1.499793
-0.059343 0.408572 1.499793
-0.299132 -0.727918 1.499793
0.565446 -1.205808 1.499793
1.588287 -0.594988 1.499793
0.849568 0.372947 1.499793
-0.039547 -1.125689 1.499793
1.531462 -0.504537 1.499793
0.092071 0.181274 1.499793
1.517239 -0.500620 1.499793
0.798513 0.408572 1.499793
-0.059624 -1.111545 1.499793
0.083188 0.238098 1.499793
0.906393 0.379420 1.499793
1.588287 -0.540658 1.499793
-0.078747 -1.068865 1.499793
0.622270 -1.213229 1.499793
0.054025 0.285354 1.499793
0.963217 0.280970 1.499793
1.474638 -0.477291 1.499793
-0.173273 -0.960637 1.499793
0.949495 0.294923 1.499793
0.679095 -1.207281 1.499793
0.046520 0.294923 1.499793
-0.179150 -0.955216 1.499793
1.020042 0.254949 1.499793
1.455790 -0.443795 1.499793
-0.116448 -1.011989 1.499793
0.110850 0.249577 1.499793
1.434349 -0.386971 1.499793
1.133691 0.212269 1.499793
1.117140 0.238098 1.499793
1.076866 0.266101 1.499793
-0.116323 -1.012040 1.499793
0.932025 0.351748 1.499793
0.091862 0.294923 1.499793
0.792744 0.412858 1.499793
1.424471 -0.330146 1.499793
0.745494 0.465396 1.499793
0.054025 -1.171957 1.499793
0.735919 0.474515 1.499793
0.735919 -1.189105 1.499793
0.110850 -1.137712 1.499793
1.417813 -0.309620 1.499793
1.401773 -0.273322 1.499793
0.121343 -1.125689 1.499793
0.116049 0.294923 1.499793
1.360989 -0.198748 1.499793
0.167674 -1.085937 1.499793
1.331229 -0.159673 1.499793
0.749818 -1.182514 1.499793
0.054025 0.334145 1.499793
1.592284 -0.557444 1.499793
0.183108 -1.068865 1.499793
1.304164 -0.117567 1.499793
1.297737 -0.102849 1.499793
0.110850 0.296791 1.499793
0.224499 -1.066896 1.499793
1.253746 -0.046024 1.499793
0.065123 0.351748 1.499793
-0.301883 -0.046024 1.499793
-0.208104 -0.898391 1.499793
0.338148 -1.173670 1.499793
1.371602 -0.216498 1.499793
0.106887 0.408572 1.499793
0.307440 -1.125689 1.499793
-0.291807 0.010801 1.499793
1.247340 0.056921 1.499793
-0.337083 -0.671093 1.499793
0.281323 -1.107821 1.499793
1.244785 0.067625 1.499793
-0.286922 0.028646 1.499793
-0.309184 -0.614269 1.499793
0.232655 -1.068865 1.499793
-0.230097 0.445615 1.499793
1.254100 0.010801 1.499793
-0.230097 0.055562 1.499793
-0.326647 -0.557444 1.499793
-0.200374 0.465396 1.499793
1.226217 0.124449 1.499793
-0.316139 -0.500620 1.499793
0.451797 -1.171979 1.499793
1.203550 0.181274 1.499793
-0.173273 0.063938 1.499793
-0.176269 0.522221 1.499793
-0.299629 -0.443795 1.499793
-0.162781 0.067625 1.499793
1.190515 0.191873 1.499793
-0.116448 0.516243 1.499793
-0.286922 -0.433407 1.499793
-0.116448 0.107100 1.499793
-0.163049 0.522221 1.499793
0.792744 -1.160444 1.499793
-0.281411 -0.386971 1.499793
-0.107794 0.124449 1.499793
-0.059624 0.408923 1.499793
0.342242 0.635870 1.499793
0.849568 -1.154217 1.499793
-0.059624 0.163323 1.499793
-0.065541 0.465396 1.499793
-0.002799 0.151086 1.499793
0.394972 0.648124 1.499793
0.906393 -1.137686 1.499793
0.054025 0.151678 1.499793
0.408840 0.635870 1.499793
-0.173273 0.525183 1.499793
-0.230097 0.256601 1.499793
0.963217 -1.131094 1.499793
0.110850 0.415660 1.499793
-0.283912 0.294923 1.499793
1.020042 -1.138190 1.499793
-0.286922 0.300409 1.499793
0.167674 0.459964 1.499793
-0.290106 0.351748 1.499793
1.076866 -1.127504 1.499793
-0.286922 0.373185 1.499793
0.224499 0.456327 1.499793
1.133691 -1.159622 1.499793
-0.268335 0.408572 1.499793
1.190515 -1.165967 1.499793
-0.173273 0.284749 1.499793
1.247340 -1.138251 1.499793
0.247979 0.465396 1.499793
0.281323 0.495019 1.499793
1.267438 -1.125689 1.499793
0.328183 0.522221 1.499793
1.304164 -1.101021 1.499793
0.394972 0.511638 1.499793
1.349031 -1.068865 1.499793
0.344466 0.522221 1.499793
1.360989 -1.043583 1.499793
0.437635 0.522221 1.499793
0.298399 0.579046 1.499793
1.370607 -1.012040 1.499793
1.417813 -0.968607 1.499793
0.338148 0.601272 1.499793
1.456966 -0.955216 1.499793
0.348948 0.579046 1.499793
0.444315 0.579046 1.499793
1.460088 -0.898391 1.499793
0.394972 0.630405 1.499793
0.451797 -0.988736 1.499793
0.424494 -0.955216 1.499793
-0.286922 -0.369156 1.499793
0.451797 -0.916444 1.499793
-0.314409 -0.330146 1.499793
-0.313991 -0.273322 1.499793
-0.002799 -1.182514 1.498307
1.474638 -0.784742 1.445251
0.451797 -1.182514 1.455064
-0.173273 0.294923 1.465456
0.451797 0.522221 1.491251
-0.286922 -0.727918 1.443404
0.508621 0.522221 1.479589
-0.116448 0.351748 1.461308
1.588287 -0.614269 1.461594
0.451797 0.579046 1.495879
0.735919 -1.182514 1.478076
-0.002799 -1.125689 1.459750
-0.059624 0.408572 1.459979
1.531462 -0.500620 1.495537
0.963217 0.294923 1.451459
-0.116448 -1.012040 1.499696
0.224499 -1.068865 1.497407
0.110850 0.238098 1.496067
-0.173273 -0.955216 1.477112
0.054025 0.294923 1.494303
0.963217 0.351748 1.445652
1.474638 -0.443795 1.454216
0.110850 0.294923 1.450053
0.735919 0.465396 1.466810
0.963217 -1.125689 1.478451
0.110850 0.408572 1.470218
1.020042 -1.125689 1.478948
1.417813 -0.273322 1.459037
0.963217 0.465396 1.442987
1.076866 -1.125689 1.493413
1.133691 -1.125689 1.448553
-0.230097 0.522221 1.447540
-0.286922 -0.671093 1.461610
1.360989 -0.159673 1.449370
-0.173273 0.522221 1.497802
-0.116448 0.522221 1.488585
1.304164 -0.102849 1.481976
-0.059624 0.465396 1.490156
-0.286922 0.010801 1.463593
-0.286922 -0.386971 1.475074
-0.059624 0.522221 1.480940
1.417813 -1.012040 1.478675
1.247340 0.067625 1.493128
-0.002799 0.522221 1.448008
-0.230097 0.124449 1.445989
-0.173273 0.067625 1.458211
0.394972 0.635870 1.485735
0.224499 0.465396 1.468260
0.224499 0.522221 1.443540
-0.116448 0.124449 1.485756
0.167674 0.635870 1.462257
-0.286922 0.351748 1.454604
0.338148 0.522221 1.496625
0.338148 0.579046 1.482830
0.517041 -0.955216 1.499793
-0.307930 -0.159673 1.499793
0.451797 -0.955216 1.486880
1.360989 -0.338607 1.556618
0.026901 0.294923 1.556618
-0.002799 -1.188065 1.556618
1.133691 -1.189914 1.556618
1.354527 -0.330146 1.556618
0.054025 0.329562 1.556618
0.341423 0.522221 1.556618
0.072315 0.351748 1.556618
1.360989 -0.313212 1.556618
-0.037256 -1.182514 1.556618
1.115299 -1.182514 1.556618
0.394972 0.575469 1.556618
0.110850 0.399860 1.556618
0.451797 0.559806 1.556618
0.117600 0.408572 1.556618
1.430637 -0.500620 1.556618
0.049950 -1.182514 1.556618
0.622270 0.515818 1.556618
-0.230097 0.437845 1.556618
1.189141 -1.182514 1.556618
-0.183983 0.465396 1.556618
1.432236 -0.443795 1.556618
0.600364 0.522221 1.556618
-0.195776 0.522221 1.556618
-0.230097 -0.901646 1.556618
0.664380 0.522221 1.556618
1.417813 -0.389285 1.556618
-0.233977 -0.898391 1.556618
-0.116448 0.487711 1.556618
0.338148 -1.126306 1.556618
1.416816 -0.386971 1.556618
-0.269850 -0.841567 1.556618
0.508621 0.537238 1.556618
-0.152490 0.522221 1.556618
0.565446 0.533411 1.556618
0.337419 -1.125689 1.556618
-0.286922 -0.792047 1.556618
-0.093280 0.408572 1.556618
-0.294243 -0.784742 1.556618
1.370639 -0.273322 1.556618
0.679095 0.527427 1.556618
-0.088885 0.465396 1.556618
0.281323 -1.074838 1.556618
-0.309393 -0.727918 1.556618
0.275948 -1.068865 1.556618
-0.173273 0.529691 1.556618
0.792744 0.406840 1.556618
-0.059624 -1.163371 1.556618
0.394972 -1.152051 1.556618
0.787629 0.408572 1.556618
-0.081015 -1.125689 1.556618
0.451797 -1.151643 1.556618
0.167674 0.451048 1.556618
-0.305248 -0.046024 1.556618
0.906393 0.342739 1.556618
-0.105016 -1.068865 1.556618
0.883825 0.351748 1.556618
0.224499 -1.053556 1.556618
0.203455 0.465396 1.556618
-0.291681 0.010801 1.556618
-0.173273 -0.965319 1.556618
0.849568 0.399248 1.556618
0.224499 0.497185 1.556618
-0.182862 -0.955216 1.556618
0.451797 -1.014764 1.556618
-0.292237 0.067625 1.556618
0.963217 0.237189 1.556618
-0.116448 -0.994811 1.556618
0.420156 -1.012040 1.556618
0.961932 0.238098 1.556618
1.133691 0.178969 1.556618
-0.101629 -1.012040 1.556618
0.966405 0.238098 1.556618
0.398088 -0.955216 1.556618
1.125869 0.181274 1.556618
-0.286922 0.075586 1.556618
0.955946 0.294923 1.556618
0.054025 -1.180926 1.556618
1.020042 0.253055 1.556618
-0.230097 0.068550 1.556618
0.281323 0.496121 1.556618
0.110850 -1.159394 1.556618
0.508621 -1.142006 1.556618
1.076866 0.210070 1.556618
0.338148 0.519738 1.556618
1.056521 0.238098 1.556618
0.140782 -1.125689 1.556618
0.565446 -1.127767 1.556618
0.167674 -1.078058 1.556618
-0.173273 0.084606 1.556618
0.176181 -1.068865 1.556618
-0.116448 0.110846 1.556618
0.735919 0.453171 1.556618
0.618240 -1.125689 1.556618
0.724634 0.465396 1.556618
-0.095858 0.124449 1.556618
0.679095 -1.175746 1.556618
-0.324332 -0.671093 1.556618
0.683129 0.522221 1.556618
-0.059624 0.141717 1.556618
-0.312993 -0.614269 1.556618
0.645650 -1.125689 1.556618
-0.002799 0.145640 1.556618
-0.343572 -0.557444 1.556618
0.622270 -1.110818 1.556618
-0.329316 -0.500620 1.556618
0.054025 0.172420 1.556618
0.451797 -0.909725 1.556618
1.360989 -0.242104 1.556618
0.059988 0.181274 1.556618
-0.315165 -0.443795 1.556618
1.338930 -0.216498 1.556618
-0.313701 -0.386971 1.556618
0.906393 -1.155328 1.556618
-0.286922 0.235051 1.556618
1.304164 -0.183548 1.556618
-0.311226 -0.330146 1.556618
0.963217 -1.154859 1.556618
-0.290309 0.238098 1.556618
1.289107 -0.159673 1.556618
-0.314224 -0.273322 1.556618
-0.284462 0.238098 1.556618
1.020042 -1.161553 1.556618
1.266939 -0.102849 1.556618
-0.286922 0.294849 1.556618
1.076866 -1.163736 1.556618
1.251960 -0.046024 1.556618
-0.230097 0.341190 1.556618
-0.231762 0.351748 1.556618
1.247340 0.032416 1.556618
1.190515 -1.181900 1.556618
-0.264088 0.408572 1.556618
1.211023 0.067625 1.556618
1.247340 -1.139094 1.556618
1.304164 -0.019202 1.556618
1.270116 -1.125689 1.556618
-0.173273 0.348934 1.556618
1.307228 0.010801 1.556618
1.304164 -1.104482 1.556618
-0.168507 0.351748 1.556618
1.304164 0.024832 1.556618
-0.116448 0.377608 1.556618
1.360989 -1.069496 1.556618
1.191454 0.124449 1.556618
0.054025 0.192001 1.556618
1.190515 0.126353 1.556618
1.360989 -0.637271 1.556618
0.047176 0.238098 1.556618
1.355535 -0.614269 1.556618
1.360989 -0.586372 1.556618
1.454654 -0.727918 1.556618
1.451176 -0.671093 1.556618
1.417813 -0.659613 1.556618
1.391992 -0.557444 1.556618
1.417813 -0.518200 1.556618
0.394972 -1.182514 1.500164
0.110850 0.294923 1.501244
0.394972 0.635870 1.533167
1.360989 -0.330146 1.540868
0.338148 0.522221 1.501842
0.508621 -1.182514 1.534719
1.474638 -0.500620 1.508501
0.394972 0.522221 1.507320
0.110850 0.408572 1.537971
1.417813 -0.386971 1.553609
-0.230097 -0.898391 1.550806
0.565446 -1.182514 1.515674
0.338148 0.579046 1.546897
1.417813 -0.330146 1.514381
-0.059624 0.408572 1.500659
-0.286922 -0.784742 1.530912
0.451797 0.579046 1.499878
0.622270 -1.182514 1.520971
1.588287 -0.557444 1.506730
0.679095 -1.182514 1.549491
0.224499 0.465396 1.519875
0.565446 0.522221 1.529745
-0.059624 -1.125689 1.518562
-0.286922 0.067625 1.524486
0.679095 0.522221 1.551203
1.133691 -1.182514 1.523261
-0.230097 0.067625 1.554538
1.133691 0.181274 1.552764
-0.173273 0.067625 1.512464
0.792744 0.408572 1.523670
-0.286922 -0.386971 1.534135
0.906393 0.351748 1.544827
0.451797 -1.012040 1.550725
-0.286922 0.238098 1.514187
0.963217 0.238098 1.541247
0.622270 -1.125689 1.546142
-0.230097 0.294923 1.553399
1.076866 0.238098 1.536351
-0.286922 0.351748 1.508750
0.735919 0.465396 1.536431
-0.173273 0.294923 1.537982
1.360989 -1.068865 1.528078
-0.116448 0.351748 1.532687
1.360989 -0.216498 1.514657
1.304164 -0.159673 1.532981
0.054025 0.238098 1.548746
1.360989 -0.614269 1.533938
1.304164 0.010801 1.537368
1.474638 -0.727918 1.519798
1.474638 -0.671093 1.548914
1.190515 0.181274 1.516576
1.417813 -0.614269 1.528840
1.474638 -0.614269 1.537230
1.531462 -0.671093 1.520562
1.531462 -0.614269 1.546808
1.417813 -0.557444 1.528677
1.474638 -0.557444 1.517927
1.531462 -0.557444 1.533457
1.360989 -0.301686 1.613442
0.035881 0.294923 1.613442
0.054025 -1.183164 1.613442
1.345326 -0.273322 1.613442
0.365714 0.522221 1.613442
0.015399 -1.182514 1.613442
0.054025 0.327147 1.613442
0.394972 0.545367 1.613442
1.076866 -1.198829 1.613442
0.110850 -1.184097 1.613442
1.407685 -0.500620 1.613442
1.029038 -1.182514 1.613442
0.451797 0.547592 1.613442
0.067561 0.351748 1.613442
1.416811 -0.443795 1.613442
0.122869 -1.182514 1.613442
1.114074 -1.182514 1.613442
0.110850 0.380959 1.613442
0.508621 0.543116 1.613442
1.399055 -0.386971 1.613442
-0.230097 -0.919797 1.613442
0.338148 -1.129200 1.613442
-0.273064 -0.898391 1.613442
0.167674 0.407829 1.613442
1.391817 -0.330146 1.613442
0.565446 0.530249 1.613442
-0.286922 -0.877265 1.613442
0.286505 -1.125689 1.613442
-0.296949 -0.841567 1.613442
0.168027 0.408572 1.613442
0.224499 -1.084963 1.613442
0.622270 0.552338 1.613442
0.245536 -1.068865 1.613442
-0.297002 -0.784742 1.613442
0.310912 -1.068865 1.613442
0.679095 0.527554 1.613442
-0.296525 -0.727918 1.613442
0.224499 0.456649 1.613442
-0.301190 -0.046024 1.613442
0.355363 -1.125689 1.613442
-0.116448 -1.120036 1.613442
0.365354 -1.068865 1.613442
-0.120251 -1.068865 1.613442
-0.288048 0.010801 1.613442
0.906393 0.330187 1.613442
0.281323 -1.060904 1.613442
-0.059624 -1.170203 1.613442
0.856285 0.351748 1.613442
-0.286922 0.013966 1.613442
-0.115869 -1.125689 1.613442
0.362314 -1.012040 1.613442
0.849568 0.382513 1.613442
1.133691 0.135582 1.613442
-0.002799 -1.181889 1.613442
0.831870 0.408572 1.613442
-0.263040 0.067625 1.613442
0.366714 -0.955216 1.613442
1.089262 0.181274 1.613442
-0.129881 -1.012040 1.613442
-0.173273 -0.966974 1.613442
1.020042 0.257766 1.613442
0.679095 -1.139049 1.613442
-0.182780 -0.955216 1.613442
-0.230097 0.094778 1.613442
0.966275 0.294923 1.613442
0.664526 -1.125689 1.613442
0.233904 0.465396 1.613442
0.167674 -1.167298 1.613442
0.622270 -1.070399 1.613442
1.076866 0.188826 1.613442
0.281323 0.499625 1.613442
-0.173273 0.104107 1.613442
1.027601 0.238098 1.613442
0.204883 -1.125689 1.613442
0.338148 0.502138 1.613442
0.621604 -1.068865 1.613442
-0.116448 0.119560 1.613442
0.963217 0.318468 1.613442
0.394972 -0.921415 1.613442
-0.094795 0.124449 1.613442
-0.303862 -0.671093 1.613442
0.735919 0.496202 1.613442
-0.300705 -0.614269 1.613442
-0.059624 0.130522 1.613442
0.692697 0.522221 1.613442
-0.322109 -0.557444 1.613442
0.451797 -0.903837 1.613442
-0.002799 0.153748 1.613442
0.792744 0.467318 1.613442
-0.329773 -0.500620 1.613442
0.906393 -1.148736 1.613442
0.795106 0.465396 1.613442
0.054025 0.164475 1.613442
-0.343746 -0.427258 1.613442
0.963217 -1.160664 1.613442
-0.351299 -0.386971 1.613442
0.068636 0.181274 1.613442
1.020042 -1.173152 1.613442
-0.324673 -0.443795 1.613442
1.304164 -0.229296 1.613442
1.133691 -1.162379 1.613442
-0.343746 -0.367547 1.613442
1.288758 -0.216498 1.613442
0.054025 0.236158 1.613442
1.190515 -1.150751 1.613442
-0.319499 -0.330146 1.613442
1.360989 -0.224513 1.613442
0.038512 0.238098 1.613442
1.247340 -1.131727 1.613442
-0.316399 -0.273322 1.613442
1.347972 -0.216498 1.613442
1.258930 -1.125689 1.613442
1.304164 -1.098952 1.613442
1.247962 -0.159673 1.613442
1.348058 -1.068865 1.613442
1.360989 -0.212680 1.613442
1.360989 -1.051714 1.613442
1.247340 -0.159080 1.613442
1.360989 -0.692586 1.613442
1.226920 -0.102849 1.613442
1.347814 -0.671093 1.613442
1.351786 -0.614269 1.613442
1.231286 -0.046024 1.613442
1.304164 -0.570324 1.613442
1.300116 -0.557444 1.613442
1.365620 -0.216498 1.613442
1.360989 -0.574483 1.613442
1.324178 -0.557444 1.613442
1.304164 -0.535651 1.613442
1.190515 -0.003016 1.613442
1.180884 0.010801 1.613442
1.417813 -0.714490 1.613442
1.169971 0.067625 1.613442
1.432527 -0.727918 1.613442
1.190515 0.120116 1.613442
1.377189 -0.557444 1.613442
1.206998 0.124449 1.613442
1.190515 0.137613 1.613442
-0.315393 -0.216498 1.613442
-0.303027 -0.159673 1.613442
1.387908 -1.012040 1.613442
1.417130 -0.955216 1.613442
1.458615 -0.841567 1.613442
1.452061 -0.784742 1.613442
-0.002799 -1.182514 1.612748
1.360989 -0.330146 1.561595
1.076866 -1.182514 1.572691
0.167674 0.408572 1.612999
0.054025 -1.182514 1.602580
1.133691 -1.182514 1.582739
1.360989 -0.273322 1.574768
0.110850 -1.182514 1.609403
0.622270 0.522221 1.563823
-0.230097 0.408572 1.591282
1.417813 -0.500620 1.586171
-0.173273 0.408572 1.601525
1.417813 -0.443795 1.606013
0.224499 -1.068865 1.608563
-0.173273 0.465396 1.571858
-0.286922 -0.841567 1.591891
0.281323 -1.068865 1.577060
-0.116448 0.408572 1.578844
-0.116448 0.465396 1.586236
0.394972 -1.125689 1.593717
-0.173273 0.522221 1.563496
-0.116448 -1.068865 1.604757
0.451797 -1.125689 1.570419
-0.286922 0.067625 1.578822
0.792744 0.408572 1.578951
0.394972 -1.068865 1.605954
-0.116448 -1.012040 1.593969
0.224499 0.465396 1.597661
0.451797 -1.068865 1.589333
0.167674 -1.125689 1.588052
0.394972 -1.012040 1.576488
0.963217 0.238098 1.561678
-0.286922 0.238098 1.565802
0.394972 -0.955216 1.567742
0.963217 0.294923 1.612416
-0.230097 0.351748 1.557668
0.508621 -1.125689 1.560687
0.565446 -1.125689 1.557564
-0.343746 -0.386971 1.601491
0.508621 -1.068865 1.579282
-0.173273 0.351748 1.558216
0.565446 -1.068865 1.568093
0.735919 0.465396 1.578880
0.792744 0.465396 1.610144
1.304164 -0.216498 1.593277
1.360989 -1.068865 1.560032
1.360989 -0.216498 1.606443
1.360989 -0.671093 1.591632
1.247340 -0.102849 1.581659
1.304164 -0.557444 1.608064
1.247340 -0.046024 1.578485
1.417813 -0.671093 1.565037
1.190515 0.010801 1.599885
1.247340 0.010801 1.570175
1.190515 0.067625 1.572754
1.304164 0.010801 1.573401
0.578564 -0.955216 1.613442
0.565446 -0.923067 1.613442
0.792744 -1.138701 1.613442
0.565446 -0.955216 1.588928
-0.002799 -1.198507 1.670267
0.054025 0.200976 1.670267
0.224499 -1.186380 1.670267
0.281898 0.408572 1.670267
-0.050315 -1.182514 1.670267
1.360989 -0.545846 1.670267
0.231004 -1.182514 1.670267
0.314349 0.465396 1.670267
0.036835 0.238098 1.670267
0.054025 -1.208440 1.670267
0.063194 0.181274 1.670267
0.338148 0.482415 1.670267
1.398379 -0.500620 1.670267
0.110850 -1.215393 1.670267
0.054025 0.284417 1.670267
0.362330 0.522221 1.670267
0.281323 -1.130435 1.670267
0.066574 0.294923 1.670267
0.167674 -1.207872 1.670267
0.451797 0.517318 1.670267
0.063684 0.351748 1.670267
1.360989 -0.328145 1.670267
0.409240 0.522221 1.670267
0.284270 -1.125689 1.670267
0.110850 0.354580 1.670267
-0.230097 -0.930765 1.670267
-0.252624 -0.898391 1.670267
1.325028 -0.273322 1.670267
0.320980 -1.068865 1.670267
0.167674 0.318779 1.670267
0.394972 0.545213 1.670267
0.158259 0.351748 1.670267
1.417813 -0.486813 1.670267
0.338148 -1.053159 1.670267
-0.286892 -0.841567 1.670267
0.208527 0.351748 1.670267
0.490101 0.522221 1.670267
1.434132 -0.443795 1.670267
-0.286922 -0.841030 1.670267
0.347198 -1.012040 1.670267
0.224499 0.392885 1.670267
-0.288029 -0.784742 1.670267
0.508621 0.527842 1.670267
1.417813 -0.405483 1.670267
-0.300933 -0.727918 1.670267
0.378029 -0.955216 1.670267
0.565446 0.538449 1.670267
1.396631 -0.386971 1.670267
0.622270 0.537344 1.670267
-0.116448 -1.135669 1.670267
0.224499 0.019837 1.670267
0.394972 -0.935587 1.670267
1.362114 -0.330146 1.670267
-0.172216 -1.125689 1.670267
0.240031 0.067625 1.670267
0.451797 -0.914112 1.670267
-0.173003 -1.068865 1.670267
0.224499 0.072454 1.670267
0.679095 0.549444 1.670267
-0.059624 -1.170806 1.670267
1.020042 -1.164546 1.670267
-0.319084 -0.273322 1.670267
-0.173273 -1.062289 1.670267
1.133691 0.067249 1.670267
1.076866 -1.170543 1.670267
-0.179156 -1.012040 1.670267
0.849568 0.351092 1.670267
1.133505 0.067625 1.670267
-0.295836 -0.216498 1.670267
1.133691 -1.139035 1.670267
-0.210527 -0.955216 1.670267
0.848919 0.351748 1.670267
1.092745 0.124449 1.670267
-0.292318 -0.159673 1.670267
1.076866 0.169850 1.670267
0.906393 0.310759 1.670267
1.070916 0.181274 1.670267
-0.299317 -0.671093 1.670267
1.190515 -1.137065 1.670267
0.819464 0.408572 1.670267
-0.298630 -0.614269 1.670267
-0.286008 -0.046024 1.670267
0.281323 0.407920 1.670267
-0.299366 -0.557444 1.670267
1.247340 -1.129672 1.670267
-0.275671 0.010801 1.670267
-0.298696 -0.500620 1.670267
1.256045 -1.125689 1.670267
1.020042 0.215700 1.670267
-0.254666 0.067625 1.670267
1.304164 -1.091830 1.670267
0.994858 0.238098 1.670267
-0.322029 -0.443795 1.670267
-0.230097 0.094372 1.670267
1.346167 -1.068865 1.670267
0.963217 0.266155 1.670267
-0.312125 -0.386971 1.670267
1.360989 -1.052967 1.670267
0.927440 0.294923 1.670267
-0.173273 0.119350 1.670267
-0.339963 -0.330146 1.670267
1.384590 -1.012040 1.670267
-0.130034 0.124449 1.670267
1.406530 -0.955216 1.670267
-0.116448 0.124928 1.670267
0.792744 0.458352 1.670267
1.453770 -0.841567 1.670267
-0.059624 0.132392 1.670267
0.786346 0.465396 1.670267
1.453214 -0.784742 1.670267
-0.002799 0.143295 1.670267
1.417813 -0.732436 1.670267
0.743931 0.522221 1.670267
1.411101 -0.727918 1.670267
0.186225 0.067625 1.670267
0.735919 0.531334 1.670267
1.360989 -0.664121 1.670267
0.054025 0.124362 1.670267
1.355947 -0.614269 1.670267
-0.001871 0.124449 1.670267
1.344474 -0.557444 1.670267
1.247340 -0.193441 1.670267
0.054611 0.124449 1.670267
1.227535 -0.159673 1.670267
1.363741 -0.671093 1.670267
1.304164 -0.250102 1.670267
1.269603 -0.216498 1.670267
1.211629 -0.102849 1.670267
1.190515 -0.047251 1.670267
1.189748 -0.046024 1.670267
1.153733 0.010801 1.670267
-0.002799 -1.182514 1.621731
1.360989 -0.557444 1.639359
0.224499 0.408572 1.663154
0.224499 -1.182514 1.666125
0.054025 0.294923 1.645569
0.281323 0.408572 1.666560
0.167674 -1.182514 1.635305
0.281323 0.465396 1.654052
1.076866 -1.182514 1.654239
0.167674 0.351748 1.638000
1.417813 -0.443795 1.619263
0.451797 0.522221 1.665096
-0.286922 -0.841567 1.670217
0.224499 -1.125689 1.628752
0.281323 -1.125689 1.634797
0.338148 -1.125689 1.621526
-0.116448 -1.125689 1.614496
0.281323 -1.068865 1.647126
0.224499 0.067625 1.639072
0.338148 -1.068865 1.626683
0.849568 0.351748 1.664648
-0.286922 -0.046024 1.667167
-0.173273 -1.012040 1.659478
-0.286922 0.010801 1.619219
1.133691 0.067625 1.670112
1.020042 0.238098 1.632423
0.963217 0.294923 1.617386
1.133691 0.124449 1.624889
1.076866 0.181274 1.653592
-0.116448 0.124449 1.664293
-0.343746 -0.386971 1.666411
0.792744 0.465396 1.668304
0.054025 0.124449 1.669947
1.417813 -0.727918 1.638088
0.735919 0.522221 1.637006
1.360989 -0.671093 1.668767
1.304164 -0.557444 1.613787
1.247340 -0.159673 1.614488
1.360989 -0.216498 1.618368
1.190515 -0.046024 1.668929
1.190515 0.124449 1.622312
-0.002799 -1.218458 1.727091
1.367537 -0.614269 1.727091
0.054025 0.207778 1.727091
-0.052939 -1.182514 1.727091
0.451797 0.393267 1.727091
1.368477 -0.557444 1.727091
0.250614 0.635870 1.727091
0.224499 -1.219913 1.727091
0.054025 -1.248912 1.727091
0.473178 0.408572 1.727091
1.370100 -0.500620 1.727091
0.281323 0.643293 1.727091
0.267176 -1.182514 1.727091
0.047061 -1.239338 1.727091
-0.001622 0.238098 1.727091
0.301070 0.635870 1.727091
0.110850 -1.256871 1.727091
0.077363 0.181274 1.727091
0.273958 0.408572 1.727091
1.360989 -0.350626 1.727091
0.270482 -1.125689 1.727091
0.054025 0.279254 1.727091
0.281323 0.410961 1.727091
0.167674 -1.242495 1.727091
0.281323 -1.104674 1.727091
1.323390 -0.330146 1.727091
0.080885 0.294923 1.727091
0.316504 -1.068865 1.727091
0.327647 0.408572 1.727091
1.304164 -0.321427 1.727091
0.178086 -1.239338 1.727091
1.267289 -0.273322 1.727091
0.338148 -1.040732 1.727091
0.224499 0.526875 1.727091
0.110850 0.333033 1.727091
1.384999 -0.443795 1.727091
0.357113 -1.012040 1.727091
0.246130 0.579046 1.727091
1.396435 -0.386971 1.727091
0.152280 0.351748 1.727091
-0.230097 -0.936369 1.727091
0.394972 -0.969270 1.727091
0.167674 0.354048 1.727091
0.224499 0.584535 1.727091
-0.247824 -0.898391 1.727091
0.224499 0.390018 1.727091
0.401223 -0.955216 1.727091
0.281323 0.619710 1.727091
-0.263957 -0.841567 1.727091
-0.277816 -0.273322 1.727091
0.200682 0.579046 1.727091
0.451797 -0.925934 1.727091
-0.275926 -0.216498 1.727091
0.481438 0.465396 1.727091
-0.265940 -0.784742 1.727091
-0.281734 -0.159673 1.727091
0.508621 0.518480 1.727091
-0.275321 -0.727918 1.727091
0.281323 0.010697 1.727091
1.020042 -1.149857 1.727091
0.267972 0.010801 1.727091
-0.268861 -0.046024 1.727091
0.512046 0.522221 1.727091
0.287981 0.010801 1.727091
-0.258656 0.010801 1.727091
1.076866 -1.151022 1.727091
0.281323 0.010851 1.727091
-0.234263 0.067625 1.727091
0.679095 0.513058 1.727091
-0.116448 -1.131466 1.727091
1.133691 -1.134950 1.727091
-0.230097 0.074908 1.727091
0.649331 0.522221 1.727091
-0.124530 -1.125689 1.727091
1.133691 -0.118433 1.727091
1.190515 -1.139242 1.727091
1.131531 -0.102849 1.727091
-0.202285 0.124449 1.727091
-0.162655 -1.068865 1.727091
0.508621 0.563028 1.727091
1.232422 -1.125689 1.727091
-0.173273 0.166306 1.727091
1.115179 -0.046024 1.727091
-0.116448 0.162488 1.727091
0.507509 0.579046 1.727091
1.247340 -1.115635 1.727091
-0.059624 -1.177622 1.727091
1.090483 0.010801 1.727091
-0.059624 0.143718 1.727091
1.304164 -1.076379 1.727091
1.076866 0.062396 1.727091
0.565446 0.549193 1.727091
-0.002799 0.144108 1.727091
-0.173273 -1.045251 1.727091
1.071949 0.067625 1.727091
1.325418 -1.068865 1.727091
0.547897 0.579046 1.727091
-0.188859 -1.012040 1.727091
0.054025 0.111963 1.727091
1.020042 0.171944 1.727091
1.360989 -1.040252 1.727091
0.001591 0.124449 1.727091
1.013126 0.181274 1.727091
0.508621 0.579688 1.727091
-0.215326 -0.955216 1.727091
0.075202 0.124449 1.727091
1.379797 -1.012040 1.727091
1.036880 0.124449 1.727091
1.394515 -0.955216 1.727091
0.622270 0.529642 1.727091
0.338148 0.401526 1.727091
1.450989 -0.841567 1.727091
-0.286922 -0.686234 1.727091
1.458350 -0.784742 1.727091
0.906393 0.281718 1.727091
-0.294700 -0.671093 1.727091
0.394972 0.379323 1.727091
1.447347 -0.727918 1.727091
0.881783 0.294923 1.727091
-0.305948 -0.614269 1.727091
1.417813 -0.689693 1.727091
0.849568 0.333736 1.727091
1.411584 -0.671093 1.727091
-0.296582 -0.557444 1.727091
0.839923 0.351748 1.727091
-0.286922 -0.510820 1.727091
0.811790 0.408572 1.727091
-0.281023 -0.500620 1.727091
0.963217 0.225017 1.727091
-0.233325 -0.443795 1.727091
0.954365 0.238098 1.727091
-0.286922 -0.396303 1.727091
-0.296471 -0.386971 1.727091
0.792744 0.425439 1.727091
0.745611 0.465396 1.727091
-0.291234 -0.330146 1.727091
0.735919 0.491850 1.727091
-0.286922 -0.308577 1.727091
1.190515 -0.226906 1.727091
1.178438 -0.216498 1.727091
1.247340 -0.257589 1.727091
1.144644 -0.159673 1.727091
0.679095 -1.144739 1.727091
0.735919 -1.141184 1.727091
0.792744 -1.134600 1.727091
0.849568 -1.126233 1.727091
0.850926 -1.125689 1.727091
0.906393 -1.116861 1.727091
0.963217 -1.135820 1.727091
0.927437 -1.125689 1.727091
0.451797 0.408572 1.679139
0.054025 -1.239338 1.720521
1.360989 -0.614269 1.703848
0.281323 0.635870 1.672751
0.110850 0.351748 1.690808
0.110850 -1.239338 1.699895
1.360989 -0.557444 1.715092
0.281323 0.408572 1.679357
0.167674 0.351748 1.672092
0.338148 0.408572 1.722577
0.167674 -1.239338 1.718846
0.338148 0.465396 1.681103
1.360989 -0.330146 1.673669
0.281323 -1.125689 1.708175
0.394972 0.408572 1.678879
1.304164 -0.273322 1.694061
0.394972 0.465396 1.679516
-0.286922 -0.784742 1.675993
0.224499 0.579046 1.718504
0.451797 0.465396 1.684605
1.417813 -0.443795 1.703771
-0.286922 -0.727918 1.686016
0.394972 0.522221 1.685815
0.394972 -0.955216 1.714280
0.281323 0.010801 1.702678
0.508621 0.522221 1.692014
-0.286922 -0.273322 1.708681
-0.286922 -0.216498 1.695263
0.224499 0.067625 1.689240
0.679095 0.522221 1.716962
-0.286922 -0.159673 1.696532
-0.286922 -0.500620 1.712618
1.247340 -1.125689 1.701915
0.508621 0.579046 1.706625
-0.286922 -0.443795 1.694014
-0.173273 0.124449 1.673147
1.133691 -0.102849 1.724168
0.906393 0.294923 1.697900
1.133691 -0.046024 1.718259
1.417813 -0.727918 1.695216
0.963217 0.238098 1.710406
1.133691 0.010801 1.694092
1.020042 0.181274 1.722156
1.076866 0.067625 1.724756
0.735919 0.522221 1.704836
1.076866 0.124449 1.686346
1.190515 -0.216498 1.723596
1.247340 -0.216498 1.688475
1.190515 -0.159673 1.714443
1.190515 -0.102849 1.699240
0.565446 -1.146333 1.727091
0.521047 -1.068865 1.727091
0.558219 -0.955216 1.727091
0.565446 -1.068865 1.710257
0.565446 -0.955216 1.725052
-0.084284 0.181274 1.783916
-0.226741 -0.727918 1.783916
-0.059624 0.205425 1.783916
-0.002799 -1.201610 1.783916
-0.230097 -0.716678 1.783916
1.033022 0.067625 1.783916
1.133691 -1.113932 1.783916
-0.010727 0.181274 1.783916
1.020042 0.088776 1.783916
-0.029895 -1.182514 1.783916
1.190515 -1.095490 1.783916
1.247340 -1.079194 1.783916
0.064196 0.181274 1.783916
0.054025 -1.306353 1.783916
0.338148 0.406077 1.783916
0.066422 0.238098 1.783916
0.281323 -1.240239 1.783916
0.323388 0.408572 1.783916
0.036658 -1.296163 1.783916
0.110850 0.280627 1.783916
0.276873 -1.239338 1.783916
1.280723 -1.068865 1.783916
0.394972 0.400497 1.783916
0.104344 -1.296163 1.783916
0.124589 0.294923 1.783916
0.281848 -1.239338 1.783916
0.437520 0.408572 1.783916
1.304164 -1.055722 1.783916
0.050025 -1.239338 1.783916
0.224499 -1.228974 1.783916
0.160520 0.351748 1.783916
0.110850 -1.265995 1.783916
1.360989 -1.023219 1.783916
0.281323 -1.238011 1.783916
0.224499 0.420166 1.783916
0.167674 -1.255316 1.783916
0.167674 0.359257 1.783916
0.250884 -1.182514 1.783916
0.281323 0.427522 1.783916
1.371497 -1.012040 1.783916
0.207093 0.408572 1.783916
0.451797 0.442690 1.783916
1.392901 -0.955216 1.783916
0.281323 -1.139145 1.783916
0.205512 -1.239338 1.783916
0.458285 0.465396 1.783916
0.308386 -1.125689 1.783916
1.441552 -0.841567 1.783916
0.283988 -1.068865 1.783916
0.492746 0.522221 1.783916
-0.230097 -0.872492 1.783916
1.448705 -0.784742 1.783916
1.076866 -0.233728 1.783916
0.338148 -1.054732 1.783916
-0.240803 -0.841567 1.783916
1.067153 -0.216498 1.783916
1.446183 -0.727918 1.783916
0.394972 -1.012831 1.783916
-0.230097 -0.784878 1.783916
0.679095 0.453555 1.783916
1.133691 -0.267618 1.783916
0.451797 -1.059935 1.783916
0.658917 0.465396 1.783916
1.419400 -0.671093 1.783916
1.066773 -0.159673 1.783916
-0.116448 -1.099210 1.783916
0.679095 -1.149154 1.783916
0.622270 0.500235 1.783916
-0.144259 -1.068865 1.783916
1.417813 -0.668906 1.783916
0.735919 -1.144603 1.783916
1.052779 -0.102849 1.783916
0.601917 0.522221 1.783916
-0.059624 -1.161159 1.783916
1.377079 -0.614269 1.783916
0.792744 -1.144074 1.783916
-0.098660 -1.125689 1.783916
1.042420 -0.046024 1.783916
0.849568 -1.128057 1.783916
0.508621 0.530714 1.783916
-0.149299 -1.012040 1.783916
0.858561 -1.125689 1.783916
1.190515 -0.285982 1.783916
0.565446 0.556566 1.783916
-0.136228 -0.955216 1.783916
0.906393 -1.117321 1.783916
1.148857 -0.273322 1.783916
1.037266 0.010801 1.783916
1.020042 -1.131862 1.783916
-0.173273 -0.924778 1.783916
1.247340 -0.311218 1.783916
0.981294 0.124449 1.783916
-0.199407 -0.898391 1.783916
0.906393 0.254588 1.783916
0.980277 -1.125689 1.783916
0.978189 0.181274 1.783916
-0.229815 -0.784742 1.783916
0.891092 0.294923 1.783916
0.963217 -1.123156 1.783916
-0.255396 -0.273322 1.783916
0.735919 0.407963 1.783916
1.076866 -1.133322 1.783916
-0.242118 -0.216498 1.783916
-0.270817 -0.671093 1.783916
0.734230 0.408572 1.783916
1.104073 -1.125689 1.783916
-0.280970 -0.614269 1.783916
-0.275201 -0.159673 1.783916
0.739305 0.408572 1.783916
-0.274819 -0.557444 1.783916
0.860221 0.351748 1.783916
-0.246930 -0.046024 1.783916
-0.253432 -0.500620 1.783916
0.849568 0.382272 1.783916
-0.230097 0.009629 1.783916
0.831080 0.408572 1.783916
-0.253874 -0.443795 1.783916
0.963217 0.191355 1.783916
-0.279789 -0.386971 1.783916
-0.229705 0.010801 1.783916
0.911334 0.238098 1.783916
-0.286922 -0.371439 1.783916
-0.204781 0.067625 1.783916
-0.296320 -0.330146 1.783916
0.792744 0.421831 1.783916
-0.173273 0.120183 1.783916
-0.286922 -0.303252 1.783916
-0.171376 0.124449 1.783916
-0.116448 0.158729 1.783916
-0.002799 0.163878 1.783916
0.054025 0.167983 1.783916
1.133691 -1.125689 1.756246
1.190515 -1.125689 1.744605
-0.230097 -0.727918 1.765502
0.281323 0.635870 1.741564
1.020042 0.124449 1.746885
-0.059624 0.181274 1.758595
1.304164 -1.068865 1.757703
0.054025 -1.296163 1.729990
0.224499 0.408572 1.772313
0.281323 -1.239338 1.774165
0.054025 0.238098 1.767473
0.451797 0.408572 1.763698
0.110850 0.294923 1.754498
1.417813 -0.671093 1.739067
-0.230097 -0.898391 1.756273
0.281323 -1.125689 1.780189
0.224499 0.579046 1.749412
-0.230097 -0.784742 1.782277
1.190515 -0.273322 1.767778
0.394972 -1.012040 1.783288
0.508621 0.522221 1.734813
1.247340 -0.273322 1.744549
-0.116448 -1.125689 1.742861
0.451797 -1.012040 1.774155
0.679095 0.465396 1.772039
0.281323 0.010801 1.728630
0.622270 0.522221 1.745981
0.451797 -0.955216 1.767642
-0.230097 0.010801 1.783246
-0.173273 -1.012040 1.758595
0.508621 0.579046 1.731152
-0.230097 0.067625 1.736487
1.076866 -0.216498 1.756753
-0.173273 -0.955216 1.767954
1.133691 -0.216498 1.741494
0.735919 0.408572 1.783078
0.963217 -1.125689 1.770919
1.076866 -0.159673 1.767078
-0.173273 0.124449 1.780285
0.849568 0.351748 1.755692
1.133691 -0.159673 1.730428
-0.286922 -0.671093 1.735420
1.076866 -0.102849 1.759335
0.054025 0.124449 1.747939
0.735919 0.465396 1.744587
-0.286922 -0.614269 1.763874
1.076866 -0.046024 1.757722
-0.286922 -0.557444 1.753512
1.076866 0.010801 1.746950
-0.286922 -0.386971 1.749169
0.110850 -1.259462 1.840740
-0.116448 -0.603892 1.840740
1.133691 -0.305317 1.840740
0.077488 -1.239338 1.840740
0.106989 0.181274 1.840740
1.109169 -0.273322 1.840740
0.054025 -1.217472 1.840740
0.109723 0.238098 1.840740
0.679095 0.396313 1.840740
0.110850 0.240645 1.840740
-0.160785 -0.557444 1.840740
0.016788 -1.182514 1.840740
1.133691 -1.097767 1.840740
0.163125 0.294923 1.840740
0.657930 0.408572 1.840740
1.190515 -1.070840 1.840740
-0.119181 -0.500620 1.840740
0.167674 0.302017 1.840740
1.195174 -1.068865 1.840740
0.167674 -1.254102 1.840740
0.187898 0.351748 1.840740
0.224499 0.413841 1.840740
0.198583 -1.239338 1.840740
-0.091981 -0.557444 1.840740
1.247340 -1.047969 1.840740
0.220529 0.408572 1.840740
0.278519 0.465396 1.840740
0.223882 -1.182514 1.840740
1.304164 -1.027792 1.840740
-0.100585 -0.500620 1.840740
0.281323 0.468016 1.840740
1.341165 -1.012040 1.840740
0.338148 0.495684 1.840740
1.354502 -0.955216 1.840740
-0.116448 -0.497629 1.840740
1.076866 -0.225331 1.840740
-0.230097 -0.817469 1.840740
1.070917 -0.216498 1.840740
0.394972 0.474616 1.840740
1.417813 -0.964879 1.840740
-0.249945 -0.784742 1.840740
1.041146 -0.159673 1.840740
1.371115 -0.955216 1.840740
0.451797 0.497063 1.840740
-0.244324 -0.727918 1.840740
1.474638 -0.980733 1.840740
1.020042 -0.126927 1.840740
0.498288 0.522221 1.840740
1.008964 -0.102849 1.840740
1.423215 -0.841567 1.840740
1.008762 -0.046024 1.840740
-0.059624 -1.154468 1.840740
0.224499 -1.181692 1.840740
0.565446 0.508465 1.840740
1.425887 -0.784742 1.840740
-0.080264 -1.125689 1.840740
0.529764 0.522221 1.840740
1.008536 0.010801 1.840740
1.427593 -0.727918 1.840740
0.256635 -1.125689 1.840740
0.980753 0.067625 1.840740
-0.002799 -1.168193 1.840740
0.622270 0.460107 1.840740
1.417813 -0.693834 1.840740
0.281323 -1.083368 1.840740
0.963217 0.101310 1.840740
0.617713 0.465396 1.840740
-0.095712 -1.068865 1.840740
1.406555 -0.671093 1.840740
0.956428 0.124449 1.840740
0.295638 -1.068865 1.840740
1.382314 -0.614269 1.840740
0.508621 0.523368 1.840740
0.920344 0.181274 1.840740
-0.094168 -1.012040 1.840740
-0.089676 -0.955216 1.840740
0.394972 -1.070234 1.840740
0.906393 0.211497 1.840740
1.247340 -0.363850 1.840740
0.896203 0.238098 1.840740
0.393320 -1.068865 1.840740
-0.116448 -0.913653 1.840740
0.858059 0.294923 1.840740
-0.136945 -0.898391 1.840740
0.451797 -1.085685 1.840740
0.735919 0.386920 1.840740
1.204528 -0.330146 1.840740
-0.173273 -0.877849 1.840740
0.792744 0.384354 1.840740
-0.203551 -0.841567 1.840740
0.338148 -1.042235 1.840740
1.190515 -0.323484 1.840740
-0.116448 -0.845615 1.840740
0.862751 0.351748 1.840740
-0.118653 -0.841567 1.840740
0.849568 0.367350 1.840740
0.679095 -1.151891 1.840740
-0.290040 -0.273322 1.840740
-0.114912 -0.841567 1.840740
0.735919 -1.161820 1.840740
-0.287638 -0.216498 1.840740
-0.116448 -0.840636 1.840740
0.792744 -1.154181 1.840740
-0.286922 -0.214317 1.840740
0.849568 -1.132167 1.840740
-0.256840 -0.671093 1.840740
-0.264035 -0.159673 1.840740
-0.282865 -0.614269 1.840740
0.877038 -1.125689 1.840740
-0.275482 -0.557444 1.840740
0.906393 -1.115890 1.840740
-0.226193 -0.046024 1.840740
-0.254505 -0.500620 1.840740
-0.200307 0.010801 1.840740
0.963217 -1.110014 1.840740
-0.249619 -0.443795 1.840740
-0.286291 -0.386971 1.840740
-0.173273 0.061867 1.840740
1.020042 -1.107457 1.840740
-0.243671 -0.330146 1.840740
1.056182 -1.068865 1.840740
-0.168998 0.067625 1.840740
-0.286922 -0.280067 1.840740
1.118806 -1.068865 1.840740
-0.118746 0.124449 1.840740
1.076866 -1.062674 1.840740
-0.116448 0.126003 1.840740
-0.059624 0.142501 1.840740
-0.002799 0.167425 1.840740
0.054025 0.145179 1.840740
0.167674 0.124329 1.840740
0.166676 0.124449 1.840740
0.170377 0.124449 1.840740
0.167674 0.127031 1.840740
0.565446 -1.139736 1.840740
-0.230097 -0.054156 1.840740
0.622270 -1.150044 1.840740
-0.059624 0.181274 1.818936
1.133691 -0.273322 1.792952
1.020042 0.067625 1.801303
-0.230097 -0.727918 1.794385
-0.002799 -1.182514 1.817408
1.247340 -1.068865 1.807410
0.338148 0.408572 1.786230
0.167674 0.351748 1.792040
-0.116448 -0.557444 1.807109
0.054025 -1.296163 1.797023
0.394972 0.408572 1.798694
-0.116448 -0.500620 1.824102
0.054025 -1.239338 1.793429
1.360989 -1.012040 1.809651
0.679095 0.408572 1.821501
0.224499 -1.182514 1.839626
1.360989 -0.955216 1.832349
0.281323 0.465396 1.785561
-0.230097 -0.841567 1.804711
0.338148 0.465396 1.801038
1.020042 -0.102849 1.822512
-0.230097 -0.784742 1.785204
1.417813 -0.955216 1.840562
0.281323 -1.239338 1.789684
1.020042 -0.046024 1.809457
0.394972 0.465396 1.820618
1.474638 -0.955216 1.805244
-0.116448 -1.068865 1.807043
0.451797 0.465396 1.788581
1.020042 0.010801 1.810614
0.281323 -1.125689 1.812783
-0.116448 -1.012040 1.815126
-0.116448 -0.955216 1.798203
1.417813 -0.671093 1.798678
0.565446 0.522221 1.828013
0.394972 -1.068865 1.836617
0.963217 0.124449 1.808041
0.622270 0.465396 1.830956
-0.173273 -0.898391 1.822581
0.451797 -1.068865 1.788475
0.963217 0.181274 1.792851
1.247340 -0.330146 1.812282
-0.116448 -0.841567 1.840138
0.906393 0.238098 1.801481
-0.286922 -0.273322 1.837665
-0.286922 -0.216498 1.823186
1.020042 -1.125689 1.801753
0.792744 0.408572 1.808177
-0.286922 -0.330146 1.798788
1.076866 -1.125689 1.807744
-0.230097 -0.046024 1.830246
1.076866 -1.068865 1.834069
-0.173273 0.067625 1.835300
0.167674 0.124449 1.840138
1.479400 -0.955216 1.840740
1.360989 -0.950777 1.840740
1.474638 -0.913954 1.840740
1.360989 -0.548952 1.840740
1.340135 -0.500620 1.840740
1.299633 -0.386971 1.840740
1.360989 -0.500620 1.758978
1.360989 -0.386971 1.808248
0.110850 -1.229630 1.897565
0.224499 0.395438 1.897565
1.190515 -1.042229 1.897565
0.243737 0.408572 1.897565
0.224499 -1.100478 1.897565
0.067673 -1.182514 1.897565
1.134641 -1.012040 1.897565
0.281323 -1.069821 1.897565
1.247340 -1.025530 1.897565
0.167674 -1.184215 1.897565
0.622270 0.399529 1.897565
0.283183 -1.068865 1.897565
1.133691 -0.999363 1.897565
1.076866 -0.245875 1.897565
0.590132 0.408572 1.897565
0.168437 -1.182514 1.897565
0.338148 -1.040302 1.897565
1.285842 -1.012040 1.897565
1.057009 -0.216498 1.897565
0.679095 0.375606 1.897565
0.622270 -1.139863 1.897565
1.304164 -1.000379 1.897565
1.091586 -0.273322 1.897565
0.579531 -1.125689 1.897565
-0.002799 -1.131502 1.897565
1.338450 -0.955216 1.897565
0.281323 0.434000 1.897565
0.679095 -1.170901 1.897565
1.023418 -0.159673 1.897565
-0.017762 -1.125689 1.897565
0.565446 -1.121796 1.897565
0.301709 0.465396 1.897565
1.020042 -0.155865 1.897565
-0.059084 -1.068865 1.897565
0.735919 -1.151286 1.897565
1.002716 -0.102849 1.897565
0.338148 0.478258 1.897565
-0.264248 -0.273322 1.897565
0.792744 -1.156261 1.897565
1.016287 -0.046024 1.897565
-0.052926 -1.012040 1.897565
-0.271852 -0.216498 1.897565
0.394972 0.449661 1.897565
0.849568 -1.140297 1.897565
0.385699 0.465396 1.897565
-0.254600 -0.159673 1.897565
-0.041942 -0.955216 1.897565
0.888355 -1.125689 1.897565
0.906393 0.120410 1.897565
0.451797 0.457244 1.897565
0.906393 -1.098756 1.897565
0.904580 0.124449 1.897565
0.054025 -1.167352 1.897565
-0.230097 -0.094272 1.897565
0.963217 -1.092824 1.897565
0.459588 0.465396 1.897565
0.902109 0.181274 1.897565
-0.206579 -0.046024 1.897565
1.020042 -1.074371 1.897565
0.209789 -1.125689 1.897565
0.565446 0.421557 1.897565
1.041166 -1.068865 1.897565
0.971349 0.010801 1.897565
0.518034 0.465396 1.897565
-0.174510 0.010801 1.897565
1.076866 -1.060189 1.897565
0.987420 0.067625 1.897565
0.508621 0.467240 1.897565
1.120450 -1.012040 1.897565
-0.059624 -0.909026 1.897565
-0.173273 0.012961 1.897565
0.963217 0.115067 1.897565
-0.064865 -0.898391 1.897565
-0.119867 0.067625 1.897565
1.133691 -0.338923 1.897565
-0.112321 -0.841567 1.897565
-0.116448 0.071982 1.897565
0.878078 0.238098 1.897565
1.121499 -0.330146 1.897565
-0.098949 0.124449 1.897565
-0.173273 -0.795712 1.897565
0.852179 0.294923 1.897565
-0.059624 0.173635 1.897565
-0.190766 -0.784742 1.897565
-0.002799 0.170281 1.897565
0.735919 0.370714 1.897565
-0.116448 -0.837966 1.897565
0.054025 0.114477 1.897565
0.792744 0.377001 1.897565
-0.211910 -0.727918 1.897565
0.036471 0.124449 1.897565
0.110850 0.075399 1.897565
0.849568 0.306889 1.897565
0.110850 0.176100 1.897565
0.827059 0.351748 1.897565
0.108027 0.181274 1.897565
-0.230097 -0.544152 1.897565
0.167674 0.067824 1.897565
-0.268153 -0.500620 1.897565
0.191084 0.124449 1.897565
0.167674 0.154007 1.897565
-0.275572 -0.443795 1.897565
-0.274228 -0.386971 1.897565
0.089639 0.238098 1.897565
0.110850 0.244720 1.897565
-0.255710 -0.330146 1.897565
0.160088 0.294923 1.897565
0.167674 0.311581 1.897565
-0.214476 -0.671093 1.897565
0.198333 0.351748 1.897565
-0.190250 -0.614269 1.897565
-0.211759 -0.557444 1.897565
0.110850 -1.239338 1.885821
1.133691 -1.068865 1.884104
-0.116448 -0.500620 1.863222
0.224499 0.408572 1.863667
0.054025 -1.182514 1.880730
1.190515 -1.068865 1.845022
1.133691 -1.012040 1.890683
0.167674 -1.239338 1.874123
0.224499 -1.125689 1.876398
0.622270 0.408572 1.889645
1.304164 -1.012040 1.884282
-0.230097 -0.784742 1.874479
-0.230097 -0.727918 1.886234
0.281323 0.465396 1.847162
0.906393 0.124449 1.895622
-0.059624 -1.125689 1.878127
0.565446 -1.125689 1.888226
-0.286922 -0.273322 1.852402
0.906393 0.181274 1.886716
-0.286922 -0.216498 1.852338
-0.059624 -1.068865 1.895913
0.394972 0.465396 1.887022
-0.059624 -1.012040 1.892592
0.451797 0.465396 1.887294
-0.059624 -0.955216 1.877217
-0.116448 0.124449 1.843738
0.565446 0.465396 1.878876
-0.116448 -0.898391 1.850145
0.508621 0.522221 1.842064
1.133691 -0.330146 1.883249
-0.173273 -0.841567 1.858615
0.054025 0.124449 1.860269
0.110850 0.124449 1.853534
0.849568 0.351748 1.863280
-0.230097 -0.671093 1.881750
-0.230097 -0.614269 1.869472
-0.230097 -0.557444 1.877187
-0.116448 -0.557444 1.874550
0.110850 -1.195493 1.954389
1.133691 -0.991082 1.954389
0.090731 -1.182514 1.954389
0.679095 0.123936 1.954389
1.190515 -0.978815 1.954389
0.224499 0.349086 1.954389
0.224499 -1.089180 1.954389
0.638276 0.124449 1.954389
1.247340 -1.008918 1.954389
0.152765 -1.182514 1.954389
0.229840 0.351748 1.954389
0.244656 -1.068865 1.954389
0.679095 0.126398 1.954389
0.281323 0.381436 1.954389
1.304164 -0.972627 1.954389
0.281323 -1.034783 1.954389
0.311663 0.408572 1.954389
0.313790 -1.012040 1.954389
-0.059624 -1.074880 1.954389
1.329717 -0.955216 1.954389
1.020042 -0.216644 1.954389
0.337889 -0.955216 1.954389
0.451797 0.406154 1.954389
-0.071884 -1.068865 1.954389
1.019909 -0.216498 1.954389
0.449046 0.408572 1.954389
0.679095 -1.130928 1.954389
0.984908 -0.159673 1.954389
0.654343 -1.125689 1.954389
-0.002799 -1.096766 1.954389
-0.235057 -0.273322 1.954389
0.622270 0.199389 1.954389
1.058330 -0.273322 1.954389
-0.243775 -0.216498 1.954389
0.602965 0.238098 1.954389
0.565446 -1.080827 1.954389
-0.059624 -1.068583 1.954389
0.973905 -0.102849 1.954389
0.679095 0.218115 1.954389
-0.286922 -0.202756 1.954389
-0.023651 -1.012040 1.954389
0.622270 -1.112779 1.954389
0.963217 -0.086788 1.954389
0.596761 0.294923 1.954389
-0.287211 -0.159673 1.954389
0.958440 -0.046024 1.954389
-0.006041 -0.955216 1.954389
0.735919 -1.136205 1.954389
0.679095 0.243021 1.954389
-0.230097 -0.164206 1.954389
0.792744 -1.167147 1.954389
0.677496 0.294923 1.954389
0.680106 0.124449 1.954389
0.054025 -1.130808 1.954389
-0.278121 -0.159673 1.954389
0.849568 -1.138238 1.954389
0.041356 -1.125689 1.954389
0.565446 0.350816 1.954389
0.906393 0.080667 1.954389
0.890079 -1.125689 1.954389
0.563897 0.351748 1.954389
0.881104 0.124449 1.954389
0.906393 -1.119122 1.954389
-0.226956 -0.159673 1.954389
0.508621 0.389319 1.954389
0.167674 -1.145346 1.954389
0.858702 0.181274 1.954389
0.963217 -1.083147 1.954389
0.622270 0.351033 1.954389
0.184563 -1.125689 1.954389
0.984245 -1.068865 1.954389
-0.210092 -0.102849 1.954389
0.963217 -0.012993 1.954389
0.586676 0.351748 1.954389
1.020042 -1.042399 1.954389
0.976907 0.010801 1.954389
0.679095 0.343478 1.954389
-0.176891 -0.046024 1.954389
1.066535 -1.012040 1.954389
0.963217 0.035290 1.954389
0.649896 0.351748 1.954389
-0.002799 -0.950348 1.954389
1.076866 -1.006757 1.954389
0.622270 0.352525 1.954389
0.915399 0.067625 1.954389
-0.059624 -0.826016 1.954389
-0.173273 -0.039899 1.954389
0.324118 0.465396 1.954389
1.133691 -0.364747 1.954389
-0.088414 -0.784742 1.954389
1.104683 -0.330146 1.954389
-0.140985 0.010801 1.954389
0.338148 0.479361 1.954389
-0.058716 -0.784742 1.954389
1.076866 -0.306246 1.954389
0.394972 0.457167 1.954389
-0.116448 0.052250 1.954389
-0.059624 -0.756510 1.954389
0.394068 0.465396 1.954389
-0.002799 -0.772975 1.954389
-0.107956 0.067625 1.954389
-0.027923 -0.727918 1.954389
0.708018 0.238098 1.954389
-0.066344 0.124449 1.954389
0.028587 -0.898391 1.954389
-0.059624 0.134550 1.954389
0.849568 0.206252 1.954389
0.021629 -0.841567 1.954389
0.836946 0.238098 1.954389
-0.002799 0.150126 1.954389
0.805094 0.294923 1.954389
0.054025 -0.795289 1.954389
0.735919 0.341908 1.954389
0.167674 0.062237 1.954389
0.055645 -0.784742 1.954389
0.138747 0.067625 1.954389
0.784413 0.351748 1.954389
0.054025 -0.763111 1.954389
0.792744 0.356147 1.954389
0.180012 0.067625 1.954389
0.796318 0.351748 1.954389
0.110850 0.099496 1.954389
-0.230097 -0.519071 1.954389
0.087277 0.124449 1.954389
-0.242898 -0.500620 1.954389
0.054025 0.139481 1.954389
-0.270360 -0.443795 1.954389
0.177425 0.124449 1.954389
-0.250935 -0.386971 1.954389
0.167674 0.139305 1.954389
0.124202 0.181274 1.954389
-0.259128 -0.330146 1.954389
0.114210 0.238098 1.954389
-0.116448 -0.628532 1.954389
0.154468 0.294923 1.954389
-0.168385 -0.614269 1.954389
0.167674 0.305205 1.954389
-0.002799 -0.674134 1.954389
-0.059624 -0.645320 1.954389
-0.002799 -0.666032 1.954389
-0.173273 -0.610817 1.954389
-0.201502 -0.557444 1.954389
-0.001388 -0.671093 1.954389
1.357725 -0.898391 1.954389
1.360989 -0.896958 1.954389
1.360989 -0.815155 1.954389
1.344518 -0.784742 1.954389
1.318850 -0.727918 1.954389
-0.286922 -0.159045 1.954389
1.190515 -1.012040 1.940438
0.224499 0.351748 1.949285
0.167674 -1.182514 1.898619
0.281323 -1.068865 1.900301
