1.165327 0.219612 7.461145
1.160275 0.266233 7.461145
1.159355 0.312854 7.461145
1.140232 0.359475 7.461145
1.134462 0.406096 7.461145
1.127510 0.428110 7.461145
1.117260 0.452717 7.461145
1.096411 0.499339 7.461145
1.192611 -0.013494 7.461145
1.195400 0.033128 7.461145
1.195458 0.079749 7.461145
1.193324 0.126370 7.461145
1.193448 0.172991 7.461145
-1.063683 2.367106 7.461145
-1.017061 2.381077 7.461145
-0.970440 2.393167 7.461145
-1.156925 2.338476 7.461145
-1.110303 2.354930 7.461145
-1.076067 2.364183 7.461145
0.785649 -0.712810 7.461145
0.801162 -0.703106 7.461145
0.847783 -0.673370 7.461145
0.859825 -0.666189 7.461145
0.894404 -0.627424 7.461145
0.288330 -0.619568 7.456340
-2.415694 0.033128 7.422780
-2.369073 0.033128 7.436723
0.474814 -0.759431 7.431906
0.754540 0.639202 7.415704
-2.369073 0.219612 7.422298
0.428193 -0.712810 7.441828
0.801162 0.639202 7.422875
0.474814 -0.712810 7.417534
-2.369073 0.266233 7.455803
0.521435 -0.712810 7.436426
0.754540 0.685823 7.429188
0.801162 0.685823 7.427251
0.614677 -0.712810 7.457134
0.428193 -0.666189 7.422844
0.661298 0.872307 7.433027
-0.177881 -0.666189 7.459678
-0.131260 -0.666189 7.436583
0.754540 0.872307 7.433520
0.894404 -0.619568 7.457307
-0.177881 -0.619568 7.416908
0.801162 0.872307 7.436632
0.894404 -0.572947 7.416989
0.941025 -0.526326 7.442638
0.847783 0.639202 7.425742
0.008603 -0.666189 7.429783
0.055224 -0.666189 7.426364
0.847783 0.685823 7.438982
0.894404 0.685823 7.436740
0.148466 -0.712810 7.437594
0.847783 0.732444 7.440945
0.195087 -0.759431 7.415823
1.080888 -0.293220 7.456984
0.847783 0.779065 7.443617
0.101845 -0.666189 7.417807
0.568056 0.965549 7.434621
1.127510 -0.106736 7.459477
0.474814 1.012171 7.436471
0.521435 1.012171 7.453186
0.381572 -0.666189 7.428874
1.174130 0.126370 7.416773
1.174130 0.172991 7.427874
-0.317745 -0.526326 7.423311
0.661298 0.918929 7.430602
0.707920 0.918929 7.432801
1.127510 0.406096 7.434187
0.707920 0.965549 7.440234
1.112629 -0.246599 7.461145
-0.317745 -0.735439 7.461145
-2.348760 -0.060114 7.461145
-0.255372 -0.712810 7.461145
-2.388223 0.499339 7.461145
-2.375282 0.592581 7.461145
-2.179022 -0.246599 7.461145
-1.809620 1.870515 7.461145
0.428193 2.047678 7.461145
-2.182589 -0.230392 7.461145
0.707920 -0.730306 7.461145
0.443975 2.084456 7.461145
0.428193 2.170040 7.461145
-1.780996 1.897972 7.461145
-1.716378 1.950129 7.461145
-1.820770 -0.806052 7.461145
-1.658833 1.991214 7.461145
-2.369073 0.609849 7.461145
-1.623136 2.068854 7.461145
0.346474 1.152034 7.461145
-2.182589 -0.417055 7.461145
-2.198672 -0.339841 7.461145
0.334951 1.165062 7.461145
-2.182589 -0.260258 7.461145
-1.529893 2.074947 7.461145
0.275127 1.245276 7.461145
-1.507341 2.084456 7.461145
-2.174018 -0.433084 7.461145
-1.455944 2.177698 7.461145
0.987646 0.642179 7.461145
0.055224 2.270817 7.461145
0.919293 0.685823 7.461145
0.055126 2.270940 7.461145
-1.436651 2.207758 7.461145
-2.243590 -0.153357 7.461145
-2.275831 -0.122822 7.461145
-0.038018 2.346221 7.461145
-1.347010 2.270940 7.461145
1.080888 0.524244 7.461145
-0.095185 2.364183 7.461145
1.038803 0.592581 7.461145
-1.343409 2.271900 7.461145
-0.783956 -0.723524 7.461145
-1.250167 2.298105 7.461145
0.418784 2.177698 7.461145
0.839670 0.872307 7.461145
-0.773091 -0.712810 7.461145
0.148466 2.224084 7.461145
-0.690713 -0.651844 7.461145
0.663244 1.058792 7.461145
0.241708 2.205260 7.461145
0.801162 1.031488 7.461145
-0.597471 -0.629240 7.461145
-0.877198 2.387323 7.461145
0.334951 2.190129 7.461145
0.774056 1.058792 7.461145
-0.504229 -0.674121 7.461145
-0.410987 -0.734962 7.461145
0.707920 1.077199 7.461145
-0.446830 -0.712810 7.461145
-0.131260 2.378706 7.461145
0.828983 0.965549 7.461145
0.241708 1.296590 7.461145
0.428193 1.991214 7.388324
-2.182589 -0.246599 7.375737
-2.369073 0.499339 7.418638
-0.317745 -0.712810 7.429772
-2.369073 0.592581 7.454483
0.428193 2.177698 7.459494
-1.529893 2.084456 7.376340
-1.809620 -0.806052 7.435825
-2.369073 1.058792 7.382102
-1.343409 2.270940 7.426409
0.707920 -0.712810 7.392546
0.241708 1.245276 7.397213
0.055224 2.270940 7.460680
0.707920 -0.619568 7.404627
0.334951 1.152034 7.445989
-0.038018 2.364183 7.383425
-0.783956 -0.712810 7.380188
0.614677 -0.526326 7.398721
-0.597471 -0.619568 7.441903
0.707920 -0.526326 7.385383
-0.504229 -0.619568 7.414571
0.801162 0.965549 7.438965
-0.410987 -0.712810 7.437536
0.707920 1.058792 7.435893
-0.410987 -0.619568 7.375270
-0.504229 -0.526326 7.411999
-0.410987 -0.526326 7.400825
-2.349132 0.033128 7.507766
-1.063683 2.351119 7.507766
-2.342710 0.079749 7.507766
-1.017061 2.356645 7.507766
-1.003710 2.364183 7.507766
-2.335689 0.126370 7.507766
0.848697 -0.619568 7.507766
-0.970440 2.391476 7.507766
0.894404 -0.584010 7.507766
-2.331587 0.172991 7.507766
-2.335944 0.219612 7.507766
0.972044 -0.526326 7.507766
-2.326189 0.266233 7.507766
0.987646 -0.503592 7.507766
0.754540 0.595952 7.507766
-2.348908 0.312854 7.507766
0.746752 0.639202 7.507766
1.000474 -0.479704 7.507766
0.756760 0.639202 7.507766
-2.369073 0.393559 7.507766
1.020346 -0.433084 7.507766
0.754540 0.647374 7.507766
-2.371077 0.406096 7.507766
1.031455 -0.386462 7.507766
-2.322452 0.313278 7.507766
1.034267 -0.353383 7.507766
-2.315937 0.359475 7.507766
1.041195 -0.339841 7.507766
-2.322452 0.375504 7.507766
1.080888 -0.315398 7.507766
1.125649 -0.153357 7.507766
-0.131260 -0.728342 7.507766
1.116265 -0.106736 7.507766
-0.084639 -0.728109 7.507766
1.127510 -0.062254 7.507766
-0.038018 -0.739700 7.507766
1.133570 -0.060114 7.507766
0.008603 -0.775474 7.507766
-0.021012 -0.759431 7.507766
1.174130 -0.043459 7.507766
0.055224 -0.767523 7.507766
1.127510 0.031579 7.507766
1.121330 0.033128 7.507766
1.130214 0.033128 7.507766
0.101845 -0.794016 7.507766
0.148466 -0.768487 7.507766
1.127510 0.037808 7.507766
0.195087 -0.762959 7.507766
0.201614 -0.759431 7.507766
1.174130 0.298670 7.507766
1.169650 0.312854 7.507766
0.241708 -0.734258 7.507766
1.163170 0.359475 7.507766
0.428193 -0.768325 7.507766
1.163499 0.406096 7.507766
0.406073 -0.759431 7.507766
0.381572 -0.740365 7.507766
1.127510 0.449549 7.507766
0.346906 -0.712810 7.507766
1.125078 0.452717 7.507766
1.174130 0.412529 7.507766
0.282858 -0.712810 7.507766
1.134783 0.452717 7.507766
0.288330 -0.710742 7.507766
1.127510 0.463397 7.507766
0.334951 -0.709631 7.507766
1.174130 0.472331 7.507766
0.334951 -0.624970 7.507766
1.135640 0.499339 7.507766
0.321579 -0.619568 7.507766
0.364662 -0.619568 7.507766
1.190639 -0.013494 7.507766
1.217917 0.033128 7.507766
0.334951 -0.616045 7.507766
1.213528 0.079749 7.507766
1.206218 0.126370 7.507766
0.474814 -0.771833 7.507766
1.199860 0.172991 7.507766
0.506863 -0.759431 7.507766
0.521435 -0.748136 7.507766
1.192285 0.219612 7.507766
0.539198 -0.712810 7.507766
1.186237 0.266233 7.507766
0.614677 -0.745284 7.507766
0.595003 -0.712810 7.507766
1.194088 0.452717 7.507766
0.568056 -0.700685 7.507766
0.758976 -0.712810 7.507766
-1.104574 2.364183 7.507766
0.801162 -0.679512 7.507766
-1.156925 2.373204 7.507766
0.814482 -0.666189 7.507766
-1.110303 2.365524 7.507766
0.847783 -0.621533 7.507766
-1.063683 2.364183 7.472066
0.894404 -0.619568 7.464966
-1.017061 2.364183 7.485601
0.987646 -0.479704 7.470459
-2.415694 0.312854 7.481104
-2.369073 0.312854 7.472427
0.754540 0.639202 7.501494
1.127510 -0.106736 7.492696
-2.369073 0.359475 7.494053
0.894404 0.732444 7.463267
1.127510 0.033128 7.501880
-2.322452 0.359475 7.489330
0.894404 0.779065 7.476887
1.174130 0.219612 7.477067
1.174130 0.266233 7.487357
-0.131260 -0.712810 7.496801
-0.084639 -0.712810 7.494023
-0.038018 -0.712810 7.489563
1.174130 0.452717 7.498718
0.008603 -0.759431 7.472624
1.127510 0.499339 7.499446
0.055224 -0.759431 7.493893
0.008603 -0.712810 7.497715
0.055224 -0.712810 7.502775
0.101845 -0.759431 7.495654
0.148466 -0.759431 7.500186
0.101845 -0.712810 7.465803
-1.156925 2.364183 7.495597
0.195087 -0.759431 7.506509
-1.110303 2.364183 7.502336
0.241708 -0.712810 7.478902
0.428193 -0.759431 7.486198
0.381572 -0.712810 7.479968
0.334951 -0.666189 7.471531
0.288330 -0.619568 7.493495
0.334951 -0.619568 7.479161
0.847783 -0.666189 7.472592
-2.344012 0.033128 7.554387
-1.063683 2.357008 7.554387
0.816617 -0.619568 7.554387
-2.337106 0.079749 7.554387
-1.035387 2.364183 7.554387
0.847783 -0.578361 7.554387
-2.332504 0.126370 7.554387
0.864116 -0.572947 7.554387
-1.017061 2.374410 7.554387
-2.325810 0.172991 7.554387
-0.970440 2.388085 7.554387
0.894404 -0.562939 7.554387
-2.323741 0.219612 7.554387
-2.330283 0.266233 7.554387
0.989399 -0.526326 7.554387
-2.322452 0.268794 7.554387
1.017364 -0.479704 7.554387
-2.306766 0.312854 7.554387
1.034070 -0.433084 7.554387
-2.322452 0.342818 7.554387
1.034267 -0.432634 7.554387
-2.345896 0.359475 7.554387
1.058537 -0.386462 7.554387
1.080888 -0.352121 7.554387
-2.359383 0.406096 7.554387
1.087137 -0.339841 7.554387
-0.131260 -0.814592 7.554387
1.127162 -0.153357 7.554387
-0.084639 -0.811353 7.554387
1.127510 -0.152565 7.554387
-0.067663 -0.806052 7.554387
1.150925 -0.106736 7.554387
0.055224 -0.808463 7.554387
0.046648 -0.806052 7.554387
1.173591 -0.060114 7.554387
-0.038018 -0.796459 7.554387
1.174130 -0.059089 7.554387
0.008603 -0.787137 7.554387
1.220752 -0.015822 7.554387
0.101643 -0.806052 7.554387
1.223660 -0.013494 7.554387
0.381572 -0.806580 7.554387
1.240152 0.033128 7.554387
0.367599 -0.806052 7.554387
1.267373 0.041216 7.554387
0.413810 -0.806052 7.554387
1.220752 0.106357 7.554387
0.101845 -0.800351 7.554387
1.216889 0.126370 7.554387
0.148466 -0.801272 7.554387
1.267373 0.089677 7.554387
0.195087 -0.797358 7.554387
1.271802 0.079749 7.554387
0.241708 -0.786138 7.554387
1.213087 0.172991 7.554387
0.334951 -0.801417 7.554387
1.215514 0.219612 7.554387
0.428193 -0.804648 7.554387
1.214289 0.266233 7.554387
1.205751 0.312854 7.554387
0.474814 -0.801528 7.554387
0.521435 -0.794807 7.554387
1.197249 0.359475 7.554387
1.198134 0.406096 7.554387
0.568056 -0.782259 7.554387
0.614677 -0.773228 7.554387
1.187380 0.452717 7.554387
1.176578 0.499339 7.554387
0.737215 -0.712810 7.554387
0.754540 -0.699047 7.554387
0.781877 -0.666189 7.554387
-1.087624 2.364183 7.554387
0.801162 -0.640493 7.554387
-1.156925 2.378989 7.554387
-1.110303 2.372636 7.554387
0.941025 -0.562040 7.554387
0.987646 -0.530578 7.554387
-0.504229 -0.719108 7.554387
-0.457608 -0.730090 7.554387
-0.410987 -0.747316 7.554387
1.097396 -0.293220 7.554387
-0.364366 -0.766469 7.554387
1.102884 -0.246599 7.554387
-0.380723 -0.759431 7.554387
-0.317745 -0.777402 7.554387
-0.143821 -0.806052 7.554387
-0.271123 -0.787917 7.554387
-0.224503 -0.781968 7.554387
-1.716378 1.946476 7.554387
-0.177881 -0.785663 7.554387
-1.675683 1.991214 7.554387
-1.669757 1.998514 7.554387
-1.635993 2.037835 7.554387
-1.623136 2.055700 7.554387
-1.576515 2.080181 7.554387
-1.557735 2.084456 7.554387
0.707920 -0.732404 7.554387
-1.436651 2.187650 7.554387
-1.390030 2.217472 7.554387
-1.380760 2.224319 7.554387
-1.343409 2.240254 7.554387
-1.296788 2.234895 7.554387
-1.259071 2.270940 7.554387
-1.250167 2.276962 7.554387
-1.017061 2.364183 7.545978
-2.322452 0.312854 7.525774
0.847783 -0.619568 7.508802
-2.369073 0.406096 7.513414
0.894404 -0.572947 7.541991
-2.322452 0.359475 7.541000
0.754540 0.639202 7.516073
0.987646 -0.526326 7.548614
-0.131260 -0.806052 7.548250
1.034267 -0.386462 7.512382
-0.084639 -0.806052 7.547215
1.080888 -0.339841 7.525706
0.055224 -0.806052 7.550499
-0.131260 -0.759431 7.531083
-0.084639 -0.759431 7.527469
1.127510 -0.106736 7.528170
-0.038018 -0.759431 7.521844
1.127510 0.033128 7.527546
0.381572 -0.806052 7.553895
1.174130 0.312854 7.517421
1.174130 0.359475 7.527417
0.241708 -0.759431 7.530364
1.174130 0.406096 7.523426
0.334951 -0.759431 7.534837
1.127510 0.452717 7.510208
0.381572 -0.759431 7.520360
1.174130 0.499339 7.550021
0.334951 -0.712810 7.511623
0.288330 -0.712810 7.509354
1.220752 -0.013494 7.551539
0.334951 -0.619568 7.522705
1.220752 0.033128 7.517284
1.220752 0.079749 7.531174
1.267373 0.079749 7.549397
0.521435 -0.759431 7.517471
0.568056 -0.759431 7.526380
0.614677 -0.759431 7.524986
0.568056 -0.712810 7.518867
0.754540 -0.712810 7.513344
0.801162 -0.666189 7.519213
-2.307118 -0.060114 7.554387
-2.389956 0.499339 7.554387
-2.369073 0.584808 7.554387
-1.809620 1.894931 7.554387
-2.369073 0.420879 7.554387
-2.361867 0.592581 7.554387
-0.317745 2.437541 7.554387
-1.805098 1.897972 7.554387
-1.716378 -0.909719 7.554387
-1.729004 -0.899294 7.554387
0.334951 1.203888 7.554387
-1.529893 2.100979 7.554387
-1.809620 -0.808921 7.554387
0.428193 1.200895 7.554387
-1.812158 -0.806052 7.554387
-1.456177 2.177698 7.554387
1.174130 0.507926 7.554387
1.109194 0.592581 7.554387
1.080888 0.626964 7.554387
-1.172121 2.364183 7.554387
1.009711 0.685823 7.554387
-2.182589 -0.444535 7.554387
0.987646 0.692436 7.554387
-2.186633 -0.433084 7.554387
0.929208 0.779065 7.554387
-0.877198 2.385927 7.554387
-0.851799 -0.806052 7.554387
0.938308 0.872307 7.554387
-2.184688 -0.339841 7.554387
-0.785304 -0.712810 7.554387
-2.208630 -0.246599 7.554387
-0.131260 2.360870 7.554387
-0.783956 -0.711942 7.554387
0.801162 1.021595 7.554387
-0.137518 2.364183 7.554387
0.730561 1.058792 7.554387
-0.690713 -0.697206 7.554387
-0.038018 2.326250 7.554387
0.521435 1.113225 7.554387
-0.535542 -0.712810 7.554387
0.471830 1.152034 7.554387
0.055224 2.274073 7.554387
-0.597471 -0.696965 7.554387
0.583570 1.152034 7.554387
0.334951 2.022320 7.554387
0.310544 2.084456 7.554387
0.614677 1.166306 7.554387
0.281266 2.177698 7.554387
0.707920 1.076450 7.554387
0.648854 1.152034 7.554387
0.148466 2.267541 7.554387
0.090486 2.270940 7.554387
0.241708 2.214648 7.554387
0.905549 0.965549 7.554387
0.894404 0.980379 7.554387
-0.224503 2.415010 7.554387
-2.182589 -0.246599 7.480265
-0.224503 -0.712810 7.478832
-2.369073 0.592581 7.497727
-1.529893 2.084456 7.528039
-2.182589 -0.433084 7.546164
0.428193 2.084456 7.473394
-1.343409 2.270940 7.466861
-0.783956 -0.712810 7.550066
0.428193 1.058792 7.478920
-0.504229 -0.712810 7.525104
0.428193 1.152034 7.521122
-0.131260 2.364183 7.524494
0.987646 0.685823 7.537190
0.055224 2.270940 7.537033
1.080888 0.592581 7.523996
0.334951 2.084456 7.521630
0.894404 0.872307 7.524553
0.334951 2.177698 7.476056
0.614677 0.965549 7.502455
0.521435 1.058792 7.495104
0.614677 1.058792 7.534367
0.614677 1.152034 7.531380
0.894404 0.965549 7.528139
0.801162 -0.644688 7.601008
-1.156925 2.338074 7.601008
0.824401 -0.619568 7.601008
-1.110303 2.359497 7.601008
0.847783 -0.594376 7.601008
-1.106843 2.364183 7.601008
0.871860 -0.572947 7.601008
-2.317684 0.219612 7.601008
-2.320781 0.266233 7.601008
-1.110303 2.392333 7.601008
0.894404 -0.557562 7.601008
-1.112332 2.410804 7.601008
-2.322452 0.272817 7.601008
0.941025 -0.563633 7.601008
-2.344315 0.312854 7.601008
-1.063683 2.395421 7.601008
-1.108089 2.410804 7.601008
0.987646 -0.543602 7.601008
-1.110303 2.412395 7.601008
-2.349980 0.359475 7.601008
1.002284 -0.526326 7.601008
-2.360645 0.406096 7.601008
1.033825 -0.479704 7.601008
-1.017061 2.392728 7.601008
1.034267 -0.478686 7.601008
-0.970440 2.385120 7.601008
-0.504229 -0.729120 7.601008
1.061083 -0.433084 7.601008
-0.457608 -0.737560 7.601008
1.126908 -0.526326 7.601008
-0.410987 -0.729223 7.601008
1.127510 -0.491429 7.601008
-0.364366 -0.769647 7.601008
1.133080 -0.526326 7.601008
-0.387105 -0.759431 7.601008
-0.317745 -0.790205 7.601008
1.080047 -0.386462 7.601008
1.080888 -0.368415 7.601008
1.084656 -0.339841 7.601008
-0.177881 -0.815944 7.601008
1.114901 -0.293220 7.601008
-0.203403 -0.806052 7.601008
1.124896 -0.246599 7.601008
-0.131260 -0.844197 7.601008
-0.038018 -0.835731 7.601008
1.174130 0.109185 7.601008
0.008603 -0.825774 7.601008
1.168144 0.126370 7.601008
0.055224 -0.821175 7.601008
1.174130 0.132907 7.601008
-0.271123 -0.785942 7.601008
-0.224503 -0.799909 7.601008
1.259748 0.033128 7.601008
1.254168 0.079749 7.601008
0.101845 -0.820563 7.601008
1.180121 0.126370 7.601008
0.148466 -0.819168 7.601008
1.247641 0.126370 7.601008
0.195087 -0.825372 7.601008
0.241708 -0.835865 7.601008
1.231205 0.172991 7.601008
1.233774 0.219612 7.601008
0.288330 -0.873273 7.601008
0.262513 -0.852674 7.601008
1.223077 0.266233 7.601008
0.334951 -0.859681 7.601008
1.223993 0.312854 7.601008
0.365556 -0.852674 7.601008
1.313994 0.282459 7.601008
1.305526 0.312854 7.601008
0.381572 -0.846815 7.601008
0.428193 -0.824149 7.601008
1.332152 0.312854 7.601008
1.222211 0.359475 7.601008
0.474814 -0.818673 7.601008
1.220752 0.367050 7.601008
0.514585 -0.806052 7.601008
1.211804 0.406096 7.601008
0.521435 -0.803287 7.601008
1.313994 0.350467 7.601008
0.707920 -0.735409 7.601008
0.743844 -0.712810 7.601008
-1.716378 1.944147 7.601008
0.754540 -0.702782 7.601008
-1.715533 1.944593 7.601008
0.781971 -0.666189 7.601008
-1.677476 1.991214 7.601008
-1.669757 2.002017 7.601008
-1.638104 2.037835 7.601008
-1.623136 2.050753 7.601008
-1.576515 2.080604 7.601008
-1.569271 2.084456 7.601008
-1.436651 2.183973 7.601008
-1.390030 2.210131 7.601008
-1.359009 2.224319 7.601008
-1.343409 2.230797 7.601008
-1.296788 2.247847 7.601008
-1.259154 2.270940 7.601008
-1.250167 2.277113 7.601008
-1.156925 2.364183 7.573657
-2.322452 0.219612 7.563394
-1.110303 2.364183 7.594347
-2.322452 0.266233 7.594954
-1.063683 2.364183 7.559796
1.034267 -0.433084 7.554877
-2.322452 0.312854 7.596488
-1.110303 2.410804 7.580730
1.127510 -0.526326 7.596665
1.174130 0.126370 7.588758
-0.177881 -0.806052 7.583792
-0.038018 -0.806052 7.564787
0.008603 -0.806052 7.577574
1.267373 0.079749 7.562341
1.220752 0.126370 7.562573
1.220752 0.172991 7.575574
0.101845 -0.806052 7.567903
1.220752 0.219612 7.567024
0.148466 -0.806052 7.565040
1.220752 0.266233 7.582997
0.195087 -0.806052 7.567343
0.241708 -0.806052 7.570057
1.220752 0.312854 7.579959
0.288330 -0.852674 7.584138
1.313994 0.312854 7.574208
0.334951 -0.852674 7.588972
1.220752 0.359475 7.591957
0.288330 -0.806052 7.568165
0.334951 -0.806052 7.557164
0.428193 -0.806052 7.557195
-1.716378 1.944593 7.599035
0.474814 -0.806052 7.565198
0.801162 -0.669681 7.647629
0.804050 -0.666189 7.647629
0.842882 -0.619568 7.647629
0.741312 -0.619568 7.647629
-2.313429 0.219612 7.647629
0.707920 -0.616609 7.647629
-1.156925 2.328900 7.647629
-2.322085 0.266233 7.647629
0.847783 -0.609968 7.647629
-1.110303 2.353784 7.647629
-2.322452 0.268901 7.647629
0.888960 -0.572947 7.647629
-1.094746 2.364183 7.647629
0.894404 -0.571639 7.647629
-2.329014 0.312854 7.647629
0.941025 -0.567852 7.647629
-1.063683 2.386174 7.647629
-2.343884 0.359475 7.647629
0.987646 -0.554162 7.647629
-2.361979 0.406096 7.647629
-1.017061 2.388052 7.647629
1.016562 -0.526326 7.647629
-0.970440 2.382792 7.647629
1.034267 -0.497066 7.647629
-0.504229 -0.733857 7.647629
1.045841 -0.479704 7.647629
-0.457608 -0.726880 7.647629
1.070698 -0.433084 7.647629
-0.410987 -0.750865 7.647629
1.080888 -0.397361 7.647629
-0.317745 -0.778587 7.647629
-0.336457 -0.759431 7.647629
1.083315 -0.386462 7.647629
-0.364366 -0.754632 7.647629
1.097537 -0.339841 7.647629
1.112675 -0.293220 7.647629
1.120893 -0.246599 7.647629
-0.224503 -0.815085 7.647629
-0.264451 -0.806052 7.647629
-0.177881 -0.830317 7.647629
1.267373 0.065339 7.647629
-0.131260 -0.849213 7.647629
1.257513 0.079749 7.647629
1.238467 0.126370 7.647629
-0.038018 -0.860101 7.647629
-0.002503 -0.852674 7.647629
1.269578 0.033128 7.647629
0.008603 -0.850697 7.647629
1.237904 0.172991 7.647629
0.055224 -0.836570 7.647629
-0.271123 -0.804750 7.647629
1.243058 0.219612 7.647629
1.222011 0.266233 7.647629
1.225882 0.312854 7.647629
0.101845 -0.825138 7.647629
0.148466 -0.835096 7.647629
1.220752 0.324905 7.647629
1.202695 0.359475 7.647629
0.241708 -0.874704 7.647629
0.222984 -0.852674 7.647629
1.209818 0.406096 7.647629
0.195087 -0.846808 7.647629
0.288330 -0.862873 7.647629
-1.716378 1.953228 7.647629
0.334951 -0.861553 7.647629
-1.675068 1.991214 7.647629
0.381572 -0.855369 7.647629
0.392771 -0.852674 7.647629
-1.669757 1.996571 7.647629
0.428193 -0.842876 7.647629
-1.631920 2.037835 7.647629
-1.623136 2.043788 7.647629
0.474814 -0.827158 7.647629
-1.576515 2.080718 7.647629
0.514829 -0.806052 7.647629
-1.572454 2.084456 7.647629
0.521435 -0.803000 7.647629
-1.436651 2.181778 7.647629
0.707920 -0.741591 7.647629
-1.390030 2.207958 7.647629
0.753583 -0.712810 7.647629
-1.360282 2.224319 7.647629
0.754540 -0.712013 7.647629
-1.343409 2.231825 7.647629
0.707920 -0.619649 7.647629
-1.296788 2.261344 7.647629
-1.271635 2.270940 7.647629
-1.250167 2.277253 7.647629
0.565992 -0.759431 7.647629
0.568056 -0.757420 7.647629
0.614677 -0.744467 7.647629
-0.084639 -0.862313 7.647629
-0.120233 -0.852674 7.647629
-0.224503 2.406550 7.647629
0.661298 -0.755219 7.647629
1.207763 0.452717 7.647629
-0.238348 2.410804 7.647629
1.174130 0.487720 7.647629
-0.317745 2.435445 7.647629
-0.271123 2.421051 7.647629
-0.177881 2.390055 7.647629
-0.131260 2.364461 7.647629
1.127510 -0.226594 7.647629
1.140287 -0.199978 7.647629
1.166026 -0.153357 7.647629
1.174130 -0.137823 7.647629
1.160513 0.499339 7.647629
1.171261 0.545960 7.647629
1.147831 0.592581 7.647629
1.193081 -0.106736 7.647629
1.080888 0.673532 7.647629
1.220752 -0.074212 7.647629
1.067529 0.685823 7.647629
1.232835 -0.060114 7.647629
1.127510 0.621882 7.647629
1.111932 0.639202 7.647629
0.987646 0.767520 7.647629
0.979349 0.779065 7.647629
0.952143 0.825686 7.647629
0.941025 0.835634 7.647629
0.898960 0.872307 7.647629
1.034267 0.709303 7.647629
1.014033 0.732444 7.647629
0.801162 -0.666189 7.641612
-1.110303 2.410804 7.606644
0.707920 -0.619568 7.604593
1.034267 -0.479704 7.602430
-0.364366 -0.759431 7.606912
1.127510 -0.526326 7.642118
-0.224503 -0.806052 7.617211
1.080888 -0.386462 7.612442
-0.038018 -0.852674 7.630063
1.174130 0.126370 7.624362
0.241708 -0.852674 7.637352
1.267373 0.033128 7.618367
0.381572 -0.852674 7.628100
1.313994 0.312854 7.644132
1.220752 0.359475 7.602664
-1.716378 1.944593 7.604306
0.705947 -0.619568 7.647629
1.267373 0.022446 7.647629
-0.877198 2.353731 7.647629
0.801162 1.040033 7.647629
-0.936816 2.364183 7.647629
-0.038018 2.305060 7.647629
0.765281 1.058792 7.647629
-0.131028 2.364183 7.647629
-2.384595 0.499339 7.647629
-2.321330 0.033128 7.647629
0.521435 1.234986 7.647629
-0.827083 2.364183 7.647629
0.475703 1.245276 7.647629
-2.382705 0.592581 7.647629
0.614677 1.162694 7.647629
-2.330148 0.126370 7.647629
-2.369073 0.626331 7.647629
0.707920 1.105467 7.647629
0.633427 1.152034 7.647629
-0.783956 2.392540 7.647629
-1.809620 -0.822182 7.647629
0.894404 0.906255 7.647629
0.887501 0.965549 7.647629
-2.369073 0.426799 7.647629
-1.818871 -0.806052 7.647629
-1.809620 1.881442 7.647629
0.273401 2.177698 7.647629
0.334951 1.316377 7.647629
-1.781808 1.897972 7.647629
0.241708 2.221117 7.647629
-1.716378 -0.858350 7.647629
0.428193 1.258299 7.647629
-1.529893 2.121699 7.647629
-1.443244 2.177698 7.647629
-1.623136 -0.897290 7.647629
-0.410987 2.448547 7.647629
-2.182589 -0.319968 7.647629
-1.616730 -0.899294 7.647629
-2.089346 -0.487885 7.647629
-2.132401 -0.433084 7.647629
-2.167675 -0.339841 7.647629
-0.877198 -0.838688 7.647629
-0.841486 -0.806052 7.647629
-0.783956 -0.774792 7.647629
-0.690713 -0.756639 7.647629
-0.597471 -0.739085 7.647629
1.174130 -0.060114 7.555330
1.174130 0.499339 7.562671
-0.877198 2.364183 7.590014
-2.182589 -0.433084 7.563910
-2.369073 0.592581 7.598745
-0.131260 2.364183 7.646966
-2.182589 -0.339841 7.563389
0.521435 1.152034 7.578954
-1.716378 -0.899294 7.568811
0.428193 1.245276 7.627616
-1.623136 -0.899294 7.631651
0.894404 0.965549 7.611899
0.148466 2.270940 7.561719
0.334951 1.245276 7.589472
-0.783956 -0.712810 7.556046
-0.690713 -0.712810 7.577576
-0.597471 -0.712810 7.585960
1.211962 0.312854 7.694251
-0.317745 -0.815844 7.694251
0.508353 -0.806052 7.694251
1.219520 0.359475 7.694251
-0.343461 -0.806052 7.694251
-0.271123 2.409091 7.694251
1.208802 0.406096 7.694251
0.521435 -0.799476 7.694251
-0.274309 2.410804 7.694251
-0.457608 -0.762708 7.694251
0.568056 -0.781813 7.694251
-0.224503 2.396134 7.694251
-0.464894 -0.759431 7.694251
1.202633 0.452717 7.694251
0.614677 -0.763794 7.694251
-0.410987 -0.776813 7.694251
-0.317745 2.430457 7.694251
-0.504229 -0.748659 7.694251
1.188004 0.499339 7.694251
0.661298 -0.763344 7.694251
-0.364366 -0.789540 7.694251
0.687601 -0.759431 7.694251
-0.177881 2.388987 7.694251
0.707920 -0.753736 7.694251
-0.274564 -0.806052 7.694251
-0.131260 2.381314 7.694251
0.754540 -0.729933 7.694251
-0.224503 -0.820848 7.694251
-1.716378 1.955873 7.694251
-0.268197 -0.806052 7.694251
0.775004 -0.712810 7.694251
-1.669757 1.983580 7.694251
-0.131260 -0.854581 7.694251
0.801162 -0.687375 7.694251
-0.137080 -0.852674 7.694251
-1.656581 1.991214 7.694251
-0.177881 -0.836664 7.694251
0.819346 -0.666189 7.694251
0.836132 -0.619568 7.694251
-0.084639 -0.871231 7.694251
-0.038018 -0.874977 7.694251
-1.633101 2.037835 7.694251
0.847783 -0.597464 7.694251
0.008603 -0.865657 7.694251
0.894404 -0.599452 7.694251
0.055224 -0.853282 7.694251
-1.623136 2.046794 7.694251
0.941025 -0.576446 7.694251
-0.271123 -0.805618 7.694251
0.946721 -0.572947 7.694251
-1.576515 2.066755 7.694251
0.987646 -0.543581 7.694251
0.241708 -0.921271 7.694251
0.213520 -0.899294 7.694251
-1.566564 2.084456 7.694251
1.004909 -0.526326 7.694251
0.056544 -0.852674 7.694251
0.148466 -0.857202 7.694251
1.034267 -0.491736 7.694251
0.135106 -0.852674 7.694251
0.101845 -0.841606 7.694251
1.043491 -0.479704 7.694251
-1.436651 2.181052 7.694251
0.195087 -0.862577 7.694251
1.076750 -0.433084 7.694251
-1.390030 2.199467 7.694251
0.273670 -0.899294 7.694251
1.080888 -0.423252 7.694251
-1.343409 2.218624 7.694251
0.288330 -0.872520 7.694251
1.107789 -0.386462 7.694251
0.334951 -0.858878 7.694251
-1.338348 2.224319 7.694251
1.097042 -0.339841 7.694251
0.381572 -0.865644 7.694251
0.428193 -0.853403 7.694251
-1.296788 2.256081 7.694251
1.102637 -0.293220 7.694251
1.111609 -0.246599 7.694251
0.430103 -0.852674 7.694251
-1.264974 2.270940 7.694251
0.474814 -0.828942 7.694251
1.127510 -0.219261 7.694251
-1.250167 2.283285 7.694251
1.140210 -0.199978 7.694251
1.173926 -0.153357 7.694251
-1.156925 2.324243 7.694251
-1.110303 2.342566 7.694251
1.174130 -0.153099 7.694251
-1.063683 2.363470 7.694251
1.174130 0.109448 7.694251
-1.062254 2.364183 7.694251
1.161186 0.126370 7.694251
-1.017061 2.374938 7.694251
1.174130 0.147758 7.694251
-0.970440 2.379144 7.694251
1.212793 -0.106736 7.694251
1.220752 -0.096619 7.694251
1.127510 0.584242 7.694251
1.120610 0.592581 7.694251
1.245564 -0.060114 7.694251
1.174130 0.553646 7.694251
1.245121 0.033128 7.694251
1.125352 0.639202 7.694251
1.234658 0.079749 7.694251
1.089680 0.685823 7.694251
1.192768 0.126370 7.694251
1.239377 0.126370 7.694251
0.987646 0.794775 7.694251
0.959801 0.825686 7.694251
1.242184 0.172991 7.694251
0.941025 0.848890 7.694251
1.244184 0.219612 7.694251
0.911858 0.872307 7.694251
1.238574 0.266233 7.694251
1.080888 0.696846 7.694251
1.050610 0.732444 7.694251
1.220752 0.300939 7.694251
1.034267 0.752690 7.694251
1.008647 0.779065 7.694251
1.179163 0.545960 7.694251
1.220752 0.312854 7.689287
0.568056 -0.759431 7.658125
-0.271123 2.410804 7.682518
1.174130 0.499339 7.682727
-0.317745 -0.806052 7.678239
0.614677 -0.759431 7.685917
-0.457608 -0.759431 7.688345
0.661298 -0.759431 7.665759
-1.669757 1.991214 7.657134
-0.410987 -0.759431 7.663868
0.754540 -0.712810 7.650170
-0.364366 -0.759431 7.668288
0.707920 -0.619568 7.649227
-1.343409 2.224319 7.680909
-0.131260 -0.852674 7.677266
0.894404 -0.572947 7.650369
-1.063683 2.364183 7.692859
0.941025 -0.572947 7.679724
0.008603 -0.852674 7.653952
0.055224 -0.852674 7.692672
0.241708 -0.899294 7.652908
1.174130 0.545960 7.666953
0.148466 -0.852674 7.680129
1.127510 0.592581 7.693788
0.195087 -0.852674 7.658718
1.080888 0.685823 7.673062
1.174130 0.126370 7.690152
0.987646 0.779065 7.665890
0.428193 -0.852674 7.690771
1.034267 0.732444 7.677639
1.267373 0.033128 7.654151
0.536290 -0.806052 7.740872
1.239980 0.312854 7.740872
-0.364366 -0.821397 7.740872
1.234517 0.359475 7.740872
-0.224503 2.406744 7.740872
-0.405564 -0.806052 7.740872
0.568056 -0.788234 7.740872
1.267373 0.383302 7.740872
-0.250233 2.410804 7.740872
-0.317745 -0.843668 7.740872
0.614677 -0.772667 7.740872
-0.317745 2.427447 7.740872
0.661298 -0.762800 7.740872
-0.504229 -0.767068 7.740872
-0.271123 2.415592 7.740872
1.269262 0.406096 7.740872
0.688089 -0.759431 7.740872
-0.457608 -0.781548 7.740872
0.707920 -0.757221 7.740872
1.220752 0.427796 7.740872
-0.177881 2.400898 7.740872
-0.410987 -0.803822 7.740872
1.209980 0.452717 7.740872
0.754540 -0.746683 7.740872
-0.131260 2.401121 7.740872
1.267373 0.413949 7.740872
0.798459 -0.712810 7.740872
1.197411 0.499339 7.740872
0.801162 -0.710083 7.740872
-0.271123 -0.862830 7.740872
-0.311485 -0.852674 7.740872
-0.253466 -0.852674 7.740872
0.839211 -0.666189 7.740872
-1.716378 1.960796 7.740872
0.847783 -0.654027 7.740872
-0.224503 -0.836677 7.740872
-1.672772 1.991214 7.740872
0.874246 -0.619568 7.740872
-0.131260 -0.858909 7.740872
-0.168817 -0.852674 7.740872
-1.576515 1.988763 7.740872
0.894404 -0.605676 7.740872
-0.177881 -0.846422 7.740872
-1.578018 1.991214 7.740872
0.941025 -0.606197 7.740872
-1.573659 1.991214 7.740872
-0.038018 -0.957596 7.740872
0.960192 -0.572947 7.740872
-0.068053 -0.945916 7.740872
-1.669757 1.993497 7.740872
0.955662 -0.526326 7.740872
-0.038018 -0.938795 7.740872
-1.633529 2.037835 7.740872
0.987646 -0.507919 7.740872
-0.025905 -0.945916 7.740872
-1.623136 2.046059 7.740872
-0.084639 -0.880630 7.740872
1.025067 -0.479704 7.740872
-1.576515 1.994040 7.740872
-0.038018 -0.864195 7.740872
1.034267 -0.472046 7.740872
-1.576515 2.073250 7.740872
0.008603 -0.876802 7.740872
1.061609 -0.433084 7.740872
-1.559293 2.084456 7.740872
0.055224 -0.884562 7.740872
1.070204 -0.386462 7.740872
0.195087 -0.900962 7.740872
1.078648 -0.339841 7.740872
-1.296788 2.128166 7.740872
0.178057 -0.899294 7.740872
-1.317498 2.131077 7.740872
1.080888 -0.330668 7.740872
0.241708 -0.923552 7.740872
-1.288692 2.131077 7.740872
1.090636 -0.293220 7.740872
0.101845 -0.896304 7.740872
-1.296788 2.134312 7.740872
1.125526 -0.246599 7.740872
0.148466 -0.882920 7.740872
-1.436651 2.178337 7.740872
0.195087 -0.871345 7.740872
1.127510 -0.242949 7.740872
-1.390030 2.193880 7.740872
0.175757 -0.852674 7.740872
1.149895 -0.199978 7.740872
0.241708 -0.864519 7.740872
1.171148 -0.153357 7.740872
-1.343409 2.220874 7.740872
0.195087 -0.851796 7.740872
1.174130 -0.134195 7.740872
0.241708 -0.843227 7.740872
-1.340249 2.224319 7.740872
1.174130 0.166607 7.740872
0.288330 -0.919110 7.740872
-1.296788 2.256200 7.740872
1.170710 0.172991 7.740872
0.305851 -0.899294 7.740872
1.170455 0.219612 7.740872
-1.277839 2.270940 7.740872
0.281814 -0.852674 7.740872
1.174130 0.223090 7.740872
0.334951 -0.881103 7.740872
-1.250167 2.290110 7.740872
0.381572 -0.878027 7.740872
1.220752 -0.120444 7.740872
-1.156925 2.325354 7.740872
1.240803 -0.106736 7.740872
0.428193 -0.869277 7.740872
-1.110303 2.334486 7.740872
1.263067 -0.060114 7.740872
-1.063683 2.350947 7.740872
0.465830 -0.852674 7.740872
1.220752 0.073218 7.740872
0.474814 -0.847128 7.740872
1.187132 0.079749 7.740872
0.521435 -0.816577 7.740872
-1.017061 2.364004 7.740872
1.228323 0.033128 7.740872
-1.016582 2.364183 7.740872
1.195404 0.126370 7.740872
-0.970440 2.375554 7.740872
1.220752 0.170310 7.740872
1.201972 0.172991 7.740872
1.227259 0.172991 7.740872
1.178503 0.219612 7.740872
1.174130 0.584415 7.740872
1.256588 0.219612 7.740872
1.165055 0.592581 7.740872
1.245170 0.266233 7.740872
1.127510 0.617941 7.740872
1.115609 0.639202 7.740872
1.103865 0.685823 7.740872
0.941025 0.870903 7.740872
0.937280 0.872307 7.740872
0.987646 0.830829 7.740872
1.080888 0.732904 7.740872
1.052560 0.779065 7.740872
1.081186 0.732444 7.740872
1.034267 0.799132 7.740872
0.990744 0.825686 7.740872
1.192580 0.545960 7.740872
-0.364366 -0.806052 7.713849
1.220752 0.312854 7.706649
0.521435 -0.806052 7.716746
-0.271123 2.410804 7.723805
1.220752 0.359475 7.696760
-0.504229 -0.759431 7.725606
1.220752 0.406096 7.719269
1.267373 0.406096 7.730700
0.847783 -0.619568 7.715088
-0.271123 -0.852674 7.718895
-0.271123 -0.806052 7.695268
0.987646 -0.526326 7.717424
-1.669757 1.991214 7.736831
-0.038018 -0.945916 7.733785
1.034267 -0.479704 7.720683
-1.576515 1.991214 7.739123
1.080888 -0.386462 7.724220
1.080888 -0.339841 7.738519
0.195087 -0.899294 7.739514
0.101845 -0.852674 7.700410
-1.296788 2.131077 7.702017
0.195087 -0.852674 7.738454
0.241708 -0.852674 7.736256
1.174130 0.126370 7.701590
0.288330 -0.899294 7.729512
1.174130 0.172991 7.733779
1.174130 0.219612 7.738280
-1.017061 2.364183 7.740257
1.220752 -0.106736 7.706970
1.127510 0.592581 7.712782
1.220752 0.079749 7.732620
1.220752 0.126370 7.715651
0.987646 0.825686 7.738633
1.080888 0.732444 7.740216
1.034267 0.779065 7.714563
-2.373764 0.499339 7.740872
-2.380187 0.592581 7.740872
-0.877198 2.368149 7.740872
-0.783956 2.379469 7.740872
-0.038018 2.321448 7.740872
0.707920 1.137076 7.740872
0.681544 1.152034 7.740872
-0.094131 2.364183 7.740872
0.801162 1.137309 7.740872
-1.063683 -1.006116 7.740872
0.617275 1.245276 7.740872
-1.040830 -0.992537 7.740872
0.931149 0.965549 7.740872
-0.504229 2.466885 7.740872
-2.335225 0.219612 7.740872
0.901949 1.058792 7.740872
-1.809620 -0.787474 7.740872
-0.410987 2.451282 7.740872
0.894404 1.071675 7.740872
-2.324907 0.312854 7.740872
-2.182589 -0.343493 7.740872
-0.448385 2.457425 7.740872
0.332087 2.084456 7.740872
0.428193 1.333635 7.740872
-1.809620 1.875197 7.740872
0.419647 1.338519 7.740872
-2.089346 -0.455325 7.740872
-2.369073 0.480144 7.740872
-2.099894 -0.433084 7.740872
0.322556 2.177698 7.740872
-1.777326 1.897972 7.740872
0.241708 2.245403 7.740872
-2.353522 0.406096 7.740872
0.229866 2.270940 7.740872
-1.529893 2.152328 7.740872
-1.445731 2.177698 7.740872
-1.623136 -0.925112 7.740872
-1.667688 -0.899294 7.740872
-1.716378 -0.827258 7.740872
-1.755463 -0.806052 7.740872
0.521435 1.294857 7.740872
0.614677 1.247886 7.740872
-0.970440 -0.958676 7.740872
-0.892664 -0.899294 7.740872
-0.877198 -0.888769 7.740872
-0.783956 -0.841681 7.740872
-0.695836 -0.806052 7.740872
-0.690713 -0.801223 7.740872
-0.597471 -0.775525 7.740872
-0.877198 2.364183 7.680215
0.801162 1.058792 7.670895
-1.063683 -0.992537 7.713726
0.521435 1.245276 7.661691
-1.623136 -0.899294 7.677286
0.614677 1.245276 7.736980
-1.809620 -0.806052 7.688698
0.894404 0.965549 7.674353
0.894404 1.058792 7.734792
-0.783956 -0.806052 7.705144
1.176680 0.126370 7.787492
0.554467 -0.806052 7.787492
-0.317745 2.432310 7.787492
1.205670 0.172991 7.787492
0.568056 -0.796610 7.787492
0.614677 -0.768499 7.787492
-0.271123 2.432180 7.787492
1.261901 0.126370 7.787492
-0.410987 -0.835536 7.787492
0.629879 -0.759431 7.787492
-0.224503 2.426018 7.787492
0.661298 -0.750602 7.787492
-0.364366 -0.847064 7.787492
0.707920 -0.753840 7.787492
1.267373 0.132295 7.787492
0.754540 -0.771119 7.787492
-0.317745 -0.836512 7.787492
0.709165 -0.759431 7.787492
-0.131260 2.367230 7.787492
0.775069 -0.759431 7.787492
-0.154941 2.410804 7.787492
0.801162 -0.737469 7.787492
-0.224503 -0.865093 7.787492
-0.260821 -0.852674 7.787492
-0.177881 2.429955 7.787492
0.834982 -0.712810 7.787492
-0.271123 -0.846128 7.787492
1.215327 0.219612 7.787492
0.847783 -0.699276 7.787492
-0.177881 -0.857574 7.787492
0.867408 -0.666189 7.787492
-0.131260 -0.874774 7.787492
1.267373 0.219474 7.787492
0.894404 -0.633577 7.787492
1.260946 0.219612 7.787492
0.055224 -0.967998 7.787492
0.904982 -0.619568 7.787492
0.030529 -0.945916 7.787492
0.008603 -0.910256 7.787492
0.935724 -0.572947 7.787492
0.003142 -0.899294 7.787492
1.273748 0.126370 7.787492
0.941025 -0.545234 7.787492
-0.084639 -0.890062 7.787492
0.945903 -0.526326 7.787492
-0.038018 -0.875158 7.787492
1.267600 0.219612 7.787492
0.975838 -0.479704 7.787492
0.987646 -0.471475 7.787492
0.067473 -0.945916 7.787492
1.174130 0.266075 7.787492
1.034267 -0.460839 7.787492
0.148466 -0.952390 7.787492
1.220752 0.222233 7.787492
0.115336 -0.945916 7.787492
1.056252 -0.433084 7.787492
1.174697 0.266233 7.787492
0.101845 -0.944763 7.787492
1.069764 -0.386462 7.787492
1.267373 0.263970 7.787492
1.059510 -0.339841 7.787492
0.170991 -0.945916 7.787492
1.255670 0.266233 7.787492
0.195087 -0.942523 7.787492
1.059410 -0.293220 7.787492
0.241708 -0.941061 7.787492
1.080888 -0.282147 7.787492
1.174130 0.266538 7.787492
1.127510 -0.282763 7.787492
0.288330 -0.938417 7.787492
1.163428 -0.246599 7.787492
0.334951 -0.913706 7.787492
1.239084 0.312854 7.787492
0.378340 -0.899294 7.787492
1.171417 -0.199978 7.787492
1.174130 -0.192130 7.787492
0.381572 -0.898446 7.787492
0.428193 -0.888582 7.787492
1.239536 0.359475 7.787492
1.173669 0.266233 7.787492
1.236692 0.406096 7.787492
0.474814 -0.877512 7.787492
0.491143 -0.852674 7.787492
0.521435 -0.830314 7.787492
1.195562 -0.153357 7.787492
1.220752 0.443495 7.787492
1.214743 0.452717 7.787492
1.220752 -0.114348 7.787492
1.230843 -0.106736 7.787492
1.198659 0.499339 7.787492
1.262311 -0.060114 7.787492
1.220752 0.049454 7.787492
-1.716378 1.973632 7.787492
1.202162 0.079749 7.787492
-1.685112 1.991214 7.787492
1.226742 0.033128 7.787492
1.267373 0.101959 7.787492
-1.669757 1.999806 7.787492
-1.623136 2.021898 7.787492
-1.599643 2.037835 7.787492
-1.576515 2.059626 7.787492
-1.541888 2.084456 7.787492
-1.436651 2.169521 7.787492
-1.418035 2.177698 7.787492
-1.390030 2.190605 7.787492
-1.343409 2.217311 7.787492
-1.334492 2.224319 7.787492
-1.296788 2.262534 7.787492
-1.288265 2.270940 7.787492
1.174130 0.572945 7.787492
1.156298 0.592581 7.787492
1.127510 0.624892 7.787492
1.119844 0.639202 7.787492
1.098738 0.685823 7.787492
1.034267 0.778819 7.787492
1.034123 0.779065 7.787492
1.034694 0.779065 7.787492
1.090231 0.732444 7.787492
1.104341 0.779065 7.787492
1.034267 0.779225 7.787492
1.080888 0.816746 7.787492
1.075518 0.825686 7.787492
1.080888 0.844753 7.787492
1.085512 0.872307 7.787492
1.034267 0.874800 7.787492
0.989107 0.918929 7.787492
1.080888 0.893845 7.787492
0.987646 0.921302 7.787492
1.193812 0.545960 7.787492
1.174130 0.172991 7.740920
0.661298 -0.759431 7.755006
-0.410987 -0.806052 7.743353
1.220752 0.172991 7.744335
-0.224503 2.410804 7.752562
1.267373 0.126370 7.747496
-0.177881 2.410804 7.746279
1.174130 0.219612 7.741905
-0.271123 -0.852674 7.776310
0.754540 -0.759431 7.764776
1.220752 0.219612 7.784011
-0.224503 -0.852674 7.767099
1.267373 0.219612 7.766586
0.801162 -0.712810 7.745986
-0.177881 -0.852674 7.760658
1.174130 0.266233 7.786901
0.847783 -0.666189 7.754821
-0.038018 -0.945916 7.740992
0.894404 -0.619568 7.767635
0.055224 -0.945916 7.779433
1.267373 0.406096 7.754720
0.008603 -0.899294 7.777986
0.055224 -0.899294 7.749844
0.941025 -0.572947 7.778274
0.987646 -0.479704 7.767691
0.148466 -0.945916 7.785729
-1.576515 1.991214 7.741606
0.101845 -0.899294 7.744267
0.148466 -0.899294 7.742157
1.080888 -0.293220 7.741953
-1.623136 2.037835 7.759584
1.127510 -0.246599 7.744545
0.195087 -0.852674 7.741484
0.241708 -0.852674 7.748868
1.174130 -0.153357 7.749717
-1.436651 2.177698 7.745743
0.334951 -0.899294 7.767012
-1.296788 2.131077 7.743934
0.474814 -0.852674 7.752241
0.941025 0.872307 7.742562
0.987646 0.872307 7.756471
1.034267 0.779065 7.787067
1.080888 0.779065 7.767361
1.034267 0.825686 7.758306
1.034267 0.872307 7.785771
1.080888 0.872307 7.783955
0.987646 0.918929 7.785833
-0.317745 2.437716 7.834114
1.216618 0.126370 7.834114
0.578618 -0.806052 7.834114
1.200086 0.172991 7.834114
0.614677 -0.779630 7.834114
-0.364366 -0.923731 7.834114
1.207054 0.219612 7.834114
-0.271123 2.440522 7.834114
0.629185 -0.759431 7.834114
-0.402483 -0.899294 7.834114
1.220752 0.250057 7.834114
0.707920 -0.762607 7.834114
-0.224503 2.439499 7.834114
1.235817 0.266233 7.834114
0.707095 -0.759431 7.834114
-0.317745 -0.923098 7.834114
0.661298 -0.739753 7.834114
1.236083 0.312854 7.834114
-0.410987 -0.892858 7.834114
-0.177881 2.374404 7.834114
0.754540 -0.768785 7.834114
1.239676 0.359475 7.834114
0.795991 -0.759431 7.834114
-0.206951 2.410804 7.834114
1.239323 0.406096 7.834114
0.801162 -0.756892 7.834114
1.224725 0.452717 7.834114
-0.166551 2.364183 7.834114
0.841488 -0.712810 7.834114
1.220752 0.460130 7.834114
-0.224503 -0.954747 7.834114
1.205805 0.499339 7.834114
0.847783 -0.704643 7.834114
-0.269374 -0.945916 7.834114
0.882482 -0.666189 7.834114
-0.271123 -0.920144 7.834114
0.894404 -0.651089 7.834114
-1.716378 1.989253 7.834114
0.915020 -0.619568 7.834114
-1.711220 1.991214 7.834114
-0.212898 -0.945916 7.834114
-0.177881 -0.899549 7.834114
0.938730 -0.572947 7.834114
-1.669757 2.005230 7.834114
0.941025 -0.567564 7.834114
-0.176802 -0.899294 7.834114
-1.623136 2.029006 7.834114
0.960258 -0.526326 7.834114
-0.131260 -0.884335 7.834114
-1.608930 2.037835 7.834114
0.987646 -0.481843 7.834114
-1.576515 2.052411 7.834114
0.991387 -0.479704 7.834114
-0.038018 -0.912031 7.834114
-1.529893 2.069473 7.834114
1.034267 -0.460221 7.834114
-0.049911 -0.899294 7.834114
1.070487 -0.433084 7.834114
-1.436651 2.144620 7.834114
0.055224 -0.965606 7.834114
-1.400175 2.177698 7.834114
1.080888 -0.413416 7.834114
0.008716 -0.945916 7.834114
1.088818 -0.386462 7.834114
-1.390030 2.185089 7.834114
0.008603 -0.945842 7.834114
1.104455 -0.339841 7.834114
-1.343821 2.224319 7.834114
1.127510 -0.309224 7.834114
-0.084639 -0.881613 7.834114
-1.343409 2.224724 7.834114
1.139455 -0.293220 7.834114
1.158644 -0.246599 7.834114
-1.296788 2.264700 7.834114
0.101845 -0.970132 7.834114
-1.290535 2.270940 7.834114
1.174130 -0.201601 7.834114
0.148466 -0.978198 7.834114
0.195087 -0.967514 7.834114
1.174130 0.566552 7.834114
1.174859 -0.199978 7.834114
0.241708 -0.977874 7.834114
1.158122 0.592581 7.834114
1.204589 -0.153357 7.834114
1.152756 0.639202 7.834114
1.220752 -0.121284 7.834114
0.288330 -0.961010 7.834114
1.127510 0.671412 7.834114
1.236769 -0.106736 7.834114
1.111832 0.685823 7.834114
0.316777 -0.945916 7.834114
1.261583 -0.060114 7.834114
0.334951 -0.938500 7.834114
1.108561 0.732444 7.834114
1.238544 0.033128 7.834114
0.381572 -0.919053 7.834114
1.120713 0.779065 7.834114
1.230817 0.079749 7.834114
0.421658 -0.899294 7.834114
1.127510 0.824048 7.834114
1.220752 0.111919 7.834114
1.135960 0.825686 7.834114
0.428193 -0.896321 7.834114
1.127510 0.842342 7.834114
1.089136 0.872307 7.834114
0.474814 -0.871828 7.834114
0.509599 -0.852674 7.834114
0.521435 -0.846335 7.834114
0.568056 -0.813720 7.834114
1.080888 0.883665 7.834114
1.041809 0.918929 7.834114
1.034267 0.925929 7.834114
1.001769 0.965549 7.834114
1.194647 0.545960 7.834114
-0.131260 2.341687 7.834114
-0.597471 -0.862030 7.834114
-0.576338 -0.852674 7.834114
0.654587 1.245276 7.834114
-0.550850 -0.845613 7.834114
0.614677 1.276295 7.834114
-0.504229 -0.843898 7.834114
-0.457608 -0.857792 7.834114
-0.470981 -0.852674 7.834114
-1.250167 2.302301 7.834114
-0.410987 2.422381 7.834114
-0.364366 2.430659 7.834114
0.661298 1.241521 7.834114
0.707920 1.210598 7.834114
0.754540 1.182554 7.834114
0.725926 1.198655 7.834114
0.801162 1.161505 7.834114
0.894404 1.100679 7.834114
0.888952 1.105413 7.834114
0.847783 1.137112 7.834114
0.820797 1.152034 7.834114
1.267373 0.126370 7.794144
0.568056 -0.806052 7.812401
-0.177881 2.410804 7.817450
1.267373 0.219612 7.789742
-0.364366 -0.899294 7.820159
-0.131260 2.364183 7.792758
0.707920 -0.759431 7.809190
1.174130 0.266233 7.788198
-0.317745 -0.899294 7.819387
-0.410987 -0.852674 7.807291
-0.364366 -0.852674 7.809923
-0.317745 -0.852674 7.832072
1.220752 0.452717 7.816928
-0.224503 -0.945916 7.823374
-0.271123 -0.899294 7.827105
0.987646 -0.479704 7.833646
-0.224503 -0.899294 7.827392
-0.177881 -0.899294 7.833894
-1.529893 2.084456 7.801576
-0.271123 -0.852674 7.794024
1.080888 -0.386462 7.821558
1.080888 -0.339841 7.814570
-0.038018 -0.899294 7.822271
-1.343409 2.224319 7.832021
1.080888 -0.293220 7.791409
1.127510 -0.293220 7.812141
0.101845 -0.945916 7.789074
1.127510 0.639202 7.802108
1.174130 -0.199978 7.814288
0.195087 -0.945916 7.792163
0.241708 -0.945916 7.794948
1.034267 0.779065 7.787643
0.288330 -0.945916 7.813628
1.080888 0.825686 7.793567
0.381572 -0.899294 7.789316
1.127510 0.825686 7.804116
1.220752 0.079749 7.813927
1.034267 0.918929 7.825429
0.987646 0.965549 7.815713
-0.690713 2.395861 7.834114
-0.597471 2.441164 7.834114
-0.504229 2.408454 7.834114
-1.836855 1.897972 7.834114
0.987646 0.982971 7.834114
-2.275831 0.960678 7.834114
0.363937 2.084456 7.834114
0.926448 1.058792 7.834114
-1.809620 1.929568 7.834114
-2.274137 0.965549 7.834114
0.344034 2.177698 7.834114
0.428193 1.361480 7.834114
-2.275831 0.982631 7.834114
0.521435 1.333622 7.834114
-1.055583 -1.085779 7.834114
-2.281596 1.058792 7.834114
0.493849 1.338519 7.834114
-1.507714 2.084456 7.834114
-0.970440 -1.008070 7.834114
-1.698462 -0.899294 7.834114
-2.275831 1.102557 7.834114
0.241708 2.275943 7.834114
-0.944816 -0.992537 7.834114
-2.263651 1.152034 7.834114
0.334951 2.199761 7.834114
-1.716378 -0.875535 7.834114
-1.156925 2.317666 7.834114
0.261868 2.270940 7.834114
-1.765640 -0.806052 7.834114
-0.038018 2.309496 7.834114
-1.063683 2.336864 7.834114
-0.970440 2.353631 7.834114
-0.877198 -0.959367 7.834114
-0.877198 2.356790 7.834114
-0.783956 -0.925267 7.834114
-0.783956 2.346353 7.834114
-2.182589 -0.389272 7.834114
-0.690713 -0.907285 7.834114
-0.661719 -0.899294 7.834114
-2.089346 -0.448585 7.834114
-2.109645 -0.433084 7.834114
-0.970440 2.364183 7.786808
-0.877198 2.364183 7.798490
-1.809620 1.897972 7.788323
-0.783956 2.364183 7.749496
0.334951 2.084456 7.750007
0.334951 2.177698 7.755614
-0.970440 -0.992537 7.806425
0.241708 2.270940 7.743817
-0.877198 -0.899294 7.756497
-0.504229 2.457425 7.759494
0.428193 1.338519 7.762855
-0.783956 -0.899294 7.799713
-0.690713 -0.899294 7.815352
-2.275831 0.965549 7.820110
-0.690713 -0.806052 7.742596
-0.597471 -0.806052 7.782007
-0.504229 -0.806052 7.787708
0.707920 1.152034 7.765952
0.801162 1.152034 7.784454
0.458202 -0.899294 7.880735
0.661298 1.268769 7.880735
0.474814 -0.890250 7.880735
0.631444 1.291897 7.880735
0.521435 -0.858234 7.880735
-0.597471 -0.899664 7.880735
1.174130 -0.307409 7.880735
0.692179 1.245276 7.880735
0.533431 -0.852674 7.880735
-0.596529 -0.899294 7.880735
1.177776 -0.293220 7.880735
0.568056 -0.825179 7.880735
-0.550850 -0.885021 7.880735
1.183745 -0.246599 7.880735
0.614677 1.304453 7.880735
0.584925 -0.806052 7.880735
-0.504229 -0.882953 7.880735
1.174130 -0.202275 7.880735
0.614677 -0.784855 7.880735
1.220752 0.504752 7.880735
1.174130 -0.185774 7.880735
-0.410987 -0.910993 7.880735
1.202612 0.545960 7.880735
0.661298 -0.764660 7.880735
1.211860 -0.153357 7.880735
-0.443882 -0.899294 7.880735
1.223400 0.499339 7.880735
0.707920 -0.775892 7.880735
1.220752 -0.137024 7.880735
1.188734 0.592581 7.880735
-0.364366 -0.925703 7.880735
0.754540 -0.781465 7.880735
1.231499 -0.106736 7.880735
-0.317745 -0.937741 7.880735
1.174130 0.622916 7.880735
0.801162 -0.765918 7.880735
1.237586 -0.060114 7.880735
-0.457608 -0.894434 7.880735
0.811056 -0.759431 7.880735
-0.317745 2.425014 7.880735
1.235656 0.126370 7.880735
-0.271123 2.429848 7.880735
0.847783 -0.718743 7.880735
1.232808 0.172991 7.880735
-0.131260 -0.993573 7.880735
-0.224503 2.413358 7.880735
0.852539 -0.712810 7.880735
1.225078 0.219612 7.880735
-0.141038 -0.992537 7.880735
0.894404 -0.669494 7.880735
1.174130 0.262150 7.880735
-0.110777 -0.992537 7.880735
1.182121 0.266233 7.880735
0.897140 -0.666189 7.880735
1.227871 0.266233 7.880735
0.055224 -0.996714 7.880735
0.930068 -0.619568 7.880735
0.037115 -0.992537 7.880735
1.174130 0.269128 7.880735
0.941025 -0.591295 7.880735
1.240531 0.312854 7.880735
0.148466 -0.996889 7.880735
0.947900 -0.572947 7.880735
0.195087 -0.995752 7.880735
1.244381 0.359475 7.880735
0.983109 -0.526326 7.880735
0.241708 -1.002973 7.880735
1.241905 0.406096 7.880735
0.987646 -0.517866 7.880735
0.288330 -1.040721 7.880735
1.234944 0.452717 7.880735
0.277777 -1.039158 7.880735
1.080888 -0.526613 7.880735
1.080759 -0.526326 7.880735
0.301311 -1.039158 7.880735
-1.388728 2.177698 7.880735
