0.476688 -1.539992 0.611838
-0.997699 1.075580 0.585259
0.732765 1.316919 0.686640
-1.652350 -0.678426 0.690618
1.024006 -0.253572 0.603437
-1.116776 -1.415849 0.723982
-1.133097 -1.403972 0.725747
-0.911362 1.155884 0.602457
-1.212084 -1.335553 0.713130
-1.668996 -0.598858 0.731332
1.057167 -0.254280 0.622413
-0.847972 1.201464 0.598821
-1.666702 -0.477125 0.765480
-0.803865 1.237981 0.602669
-1.458201 -1.045953 0.662802
-1.649747 -0.345933 0.789281
1.070745 1.199820 0.743886
-0.735822 1.274333 0.585017
-1.621575 -0.237581 0.815492
0.488169 -1.533597 0.608550
-0.670637 1.316433 0.587070
0.981807 1.233035 0.725718
-1.583312 -0.127385 0.848602
-0.612187 1.357807 0.595483
1.061373 -0.253365 0.624350
0.829301 1.291599 0.708592
-1.490073 -1.002649 0.671160
0.891529 1.267773 0.715241
-0.609984 1.358472 0.594453
-1.578161 -0.117378 0.847846
1.081563 -0.252168 0.634611
0.971725 1.236793 0.724265
0.584385 -1.496386 0.639374
-0.529496 1.428290 0.614863
-1.576549 -0.114365 0.847532
-1.234109 -1.317614 0.718219
-0.515256 1.441986 0.619155
1.131872 -0.916288 0.620572
0.639585 -1.466738 0.647462
1.142931 -0.888330 0.628917
-0.423702 1.521854 0.640508
-0.335574 1.565792 0.637315
-1.533387 -0.005115 0.866079
-0.410720 1.530555 0.641578
-1.324171 -1.215967 0.676432
-0.258713 1.581881 0.625474
-1.531208 -0.000205 0.865822
0.705794 -1.410298 0.611493
-0.162468 1.573013 0.592402
-1.377677 -1.156585 0.685689
1.171014 -0.695434 0.664987
-1.409725 -1.118713 0.695216
0.789602 -1.339606 0.588149
-0.033679 1.561153 0.587217
0.094285 1.539579 0.606116
0.801316 -1.331507 0.590546
1.093588 -0.256508 0.641814
0.267668 1.490072 0.642242
-0.959560 -1.499069 0.685805
0.863876 -1.268947 0.589123
0.234825 1.497766 0.630534
-0.969611 -1.496070 0.690491
-1.509643 0.075371 0.885173
0.898273 -1.237985 0.598944
-0.901937 -1.506612 0.645821
0.049594 -1.653291 0.577531
0.334393 1.464137 0.652269
-1.507982 0.080301 0.885492
-1.489477 0.146430 0.899540
0.326835 1.465659 0.648905
-0.795017 -1.524870 0.616521
0.104777 -1.642127 0.579835
-1.485656 0.155582 0.898743
-0.741036 -1.534863 0.612604
0.186968 1.505717 0.609847
0.135199 -1.635126 0.580660
-1.446331 0.249962 0.889281
-0.707250 -1.532822 0.595131
-1.446328 0.249970 0.889281
0.216894 -1.616960 0.586506
1.069889 -0.997895 0.573218
1.074132 -0.991824 0.575474
-0.567594 -1.554048 0.578003
-0.603520 -1.547563 0.581588
0.929829 -0.298095 0.561023
-1.306730 0.581628 0.775266
-1.294124 0.617349 0.761453
-1.234022 0.749437 0.675494
-1.206588 0.810585 0.646713
1.142921 1.172130 0.776693
0.316631 1.422368 0.578088
-0.427076 -1.593192 0.570964
-1.004294 1.055840 0.551176
0.953041 -0.248466 0.552309
0.778620 1.270335 0.643766
-0.936939 1.115174 0.565658
-1.049005 -1.454010 0.697511
0.789501 -1.335827 0.580767
0.729843 1.303851 0.666506
1.022091 -0.250740 0.599222
0.876292 -1.237350 0.567694
-1.125030 -1.406224 0.714112
0.827195 1.263225 0.660046
-0.610220 1.355653 0.590749
-1.649849 -0.347426 0.786380
1.064338 -0.996583 0.566357
1.099037 -0.888298 0.587260
0.878136 1.245518 0.663782
-1.577364 -0.117222 0.845959
-0.508463 1.414597 0.577297
-1.421197 -1.106816 0.701760
1.095565 -0.804944 0.594407
0.972260 1.235665 0.722294
-0.880262 -1.495253 0.603164
-0.801085 -1.508687 0.586476
-1.486273 0.146104 0.890647
-1.303089 0.579101 0.763716
-1.290683 0.622247 0.754103
-1.310426 0.589988 0.791273
1.145386 -0.391611 0.676309
-1.292556 0.633404 0.770104
0.314990 -1.631417 0.688672
1.101326 -0.347728 0.652938
-0.687058 1.356416 0.660766
-0.780364 -1.562733 0.686712
0.390552 -1.608248 0.698613
1.076238 -0.288579 0.640097
-1.265451 0.690798 0.732267
-0.618168 1.399210 0.659331
-0.591762 -1.598008 0.669533
-1.663413 -0.669788 0.735080
1.059009 -0.278114 0.630640
-0.513684 -1.615744 0.661964
0.499637 -1.573152 0.724720
-1.665554 -0.667960 0.742536
-1.243030 0.751060 0.710029
1.180795 -0.390558 0.698157
-1.679718 -0.583747 0.782969
0.511611 -1.568389 0.727122
-0.438047 -1.627580 0.634906
-0.547864 1.447830 0.658384
0.602939 -1.535847 0.766963
1.313330 1.058738 0.841314
1.201781 -0.375107 0.712152
0.675358 -1.496749 0.778737
-0.529749 1.464647 0.662722
-1.143720 0.913173 0.617848
-0.457646 -1.624672 0.643220
0.711990 -1.476851 0.787002
1.063636 -0.278915 0.633037
-0.361120 -1.643782 0.610452
-0.434684 1.550597 0.689938
0.787171 -1.407359 0.739073
1.305295 1.063753 0.824507
1.106591 -0.275950 0.654731
-1.671988 -0.463568 0.795652
-1.076595 1.008143 0.619797
1.205279 1.148368 0.850465
1.110474 -0.263413 0.654689
0.853363 -1.355974 0.726341
-0.433818 1.550414 0.688933
1.063882 1.230273 0.825504
1.157049 -0.268300 0.681984
-1.669906 -0.453895 0.792519
-1.061347 -1.463027 0.744620
1.116754 -0.262930 0.658037
1.192419 1.155361 0.840181
0.857413 -1.353657 0.727739
-1.102305 -1.438012 0.756996
-1.657884 -0.360587 0.807562
-0.364079 1.593996 0.700376
-1.046412 1.048669 0.632664
0.938978 -1.253444 0.678587
1.111934 -0.263949 0.655525
-1.182409 -1.381777 0.779057
-1.629460 -0.245843 0.830546
-1.199145 -1.368690 0.782568
-0.341331 1.605291 0.704000
-1.010575 1.081689 0.624850
-1.584445 -0.125508 0.855263
1.020503 -1.152451 0.663856
-1.249480 -1.316881 0.761612
1.156269 -0.986865 0.699739
-1.537001 -0.001699 0.878501
-0.948843 1.165964 0.671230
1.060641 -1.103009 0.660681
-0.267593 1.625620 0.705824
-1.112059 -1.432609 0.762786
1.204132 -0.865493 0.702149
-0.164848 1.632958 0.705162
1.101309 -1.054301 0.670611
1.219183 -0.822135 0.712153
-1.468451 -1.043629 0.712000
-0.884230 1.229048 0.684517
-0.037054 1.625437 0.706968
-1.492820 -1.010625 0.719744
-0.075660 1.625452 0.698572
-0.029603 -1.689882 0.621439
0.099241 1.595223 0.701273
-0.825141 1.275804 0.683788
0.656388 1.377527 0.730670
-1.340669 -1.217380 0.741725
0.077157 -1.689833 0.654594
1.231156 -0.692708 0.719005
-1.400878 -1.139806 0.731546
0.647337 1.383579 0.734143
0.434968 1.467955 0.725627
-0.796211 1.297013 0.682676
-1.419580 -1.123641 0.758450
0.147468 -1.682802 0.678332
1.239121 -0.605252 0.729861
0.432406 1.466054 0.721312
0.161702 -1.679093 0.679602
-0.723650 1.338587 0.669075
1.243156 -0.503482 0.737217
0.347253 1.509494 0.728083
0.230858 -1.653967 0.673579
-0.915355 -1.523147 0.696405
0.736278 1.358291 0.752253
0.341128 1.512323 0.728097
-0.981182 -1.501936 0.720241
1.223157 -0.416771 0.725340
0.307382 -1.631599 0.682621
-0.989865 -1.498616 0.723598
0.785689 1.339142 0.757488
0.201326 1.566007 0.713581
1.223145 -0.416744 0.725338
0.275024 1.540138 0.724196
-0.796260 -1.559165 0.687744
1.161703 -0.261353 0.683827
1.052481 1.233455 0.816264
1.172665 -0.256741 0.689707
0.560475 1.410267 0.721543
1.188048 -0.249611 0.698314
0.846715 1.316446 0.769519
0.894441 1.300453 0.785103
-1.529591 0.018794 0.881070
0.982275 1.263264 0.800232
-1.513446 0.076853 0.895419
0.939576 1.284762 0.800900
-1.508890 0.089040 0.895874
-1.492756 0.145345 0.906158
1.195204 -0.252175 0.702995
-1.487966 0.149834 0.900259
1.193080 -0.248638 0.700722
-1.452618 0.236391 0.893547
-1.451941 0.238150 0.893451
-1.265245 0.685227 0.727081
-0.695335 -1.574852 0.671649
0.989474 -0.312437 0.596603
-0.584771 -1.584959 0.641795
-1.238562 0.751665 0.695075
-0.345447 1.593158 0.686535
0.304884 -1.629183 0.674654
1.085751 -0.352101 0.644514
-0.710650 -1.539305 0.608912
-1.186695 0.840717 0.621185
-0.607194 -1.554873 0.596397
-1.156741 0.887541 0.601731
-0.509949 -1.583202 0.602053
0.445754 1.423382 0.671004
0.852956 -1.349031 0.710173
-0.963414 1.112505 0.601398
0.559371 1.399101 0.705703
1.039066 -1.109776 0.632773
-1.674034 -0.594358 0.754745
0.986410 -0.266720 0.589100
0.784574 1.311216 0.709473
-0.845884 1.226258 0.633149
1.176646 1.162121 0.821418
-1.185061 -1.376691 0.770067
1.146188 -0.960849 0.657248
-1.669442 -0.462497 0.785839
-0.725295 1.307709 0.623939
-1.224347 -1.330460 0.731139
0.833360 1.306377 0.738229
-0.258634 1.598080 0.652975
0.894230 1.294219 0.771607
-1.580340 -0.120861 0.849192
-0.171962 1.616546 0.672735
-1.532755 0.000235 0.869978
1.127799 -0.253893 0.660961
1.117806 -0.262005 0.657587
-0.976981 -1.500064 0.709874
0.268147 1.494975 0.650054
1.182221 -0.245956 0.692968
0.343963 1.486250 0.691784
0.140567 -1.665134 0.639244
1.193343 -0.693782 0.683439
1.223142 -0.416773 0.725333
-1.507521 0.083527 0.887366
-1.448642 0.245418 0.891008
0.407715 -1.644298 0.805114
-1.607775 -0.836269 0.768630
0.438388 -1.635702 0.813252
1.190045 -0.995388 0.791725
1.201360 -0.970339 0.785354
-1.640858 -0.761204 0.758246
-1.328167 0.575192 0.827691
0.508177 -1.610531 0.826245
1.236909 -0.886881 0.778464
-0.903289 -1.548827 0.745004
-1.571894 -0.897586 0.767241
-0.678446 1.429380 0.761127
-1.308924 0.632100 0.811589
1.436331 0.800861 0.837444
0.594121 -1.577994 0.855489
1.254347 -0.801928 0.761979
-0.602311 1.458062 0.725957
-1.685689 -0.657960 0.825747
-1.276731 0.717333 0.781197
1.436263 0.801195 0.835720
-0.603064 1.460324 0.729837
0.630954 -1.562356 0.868841
1.277194 -0.703324 0.776258
1.409770 0.895054 0.874589
-0.524656 1.512044 0.720701
1.280733 -0.644371 0.775477
-1.260342 0.746257 0.758258
0.716834 -1.518598 0.891283
-0.454320 -1.664786 0.710805
-0.501458 1.529610 0.721712
1.336279 1.043451 0.898199
1.284544 -0.611407 0.778464
-1.207600 0.841599 0.704788
-0.451642 1.569074 0.732851
0.758893 -1.495877 0.903004
-0.466845 -1.660115 0.711548
1.286385 -0.518215 0.777712
-0.397310 1.604045 0.742962
-1.685687 -0.652460 0.822733
-1.154557 0.920893 0.674539
-0.376096 -1.680642 0.683542
1.301490 1.080071 0.891615
0.770827 -1.487095 0.901114
-0.335035 1.631120 0.746552
-1.693462 -0.574273 0.847008
1.240840 1.130912 0.902998
-1.112892 0.994750 0.696790
-1.074761 -1.467485 0.784010
1.146526 1.201859 0.919925
-1.683180 -0.477160 0.835692
1.146489 1.201888 0.919944
0.861672 -1.410451 0.867099
1.286331 -0.518152 0.777684
0.913701 1.321407 0.857153
-1.034918 1.099433 0.710549
0.859761 1.339646 0.832046
0.891570 -1.384597 0.856579
1.285118 -0.431646 0.775772
1.073612 1.245590 0.898331
-1.675972 -0.414266 0.839040
-0.990081 1.177034 0.760688
1.010857 1.277725 0.882553
0.968908 -1.307554 0.820950
1.278888 -0.363382 0.770693
-1.127297 -1.436018 0.808317
0.979788 1.290657 0.870207
-0.253027 1.647881 0.746086
-0.970712 1.204572 0.773443
1.252981 -0.310286 0.750219
-1.192774 -1.385868 0.819642
1.021217 -1.251666 0.814185
-1.219687 -1.361647 0.817990
1.247275 -0.274260 0.743428
1.257987 -0.259490 0.748536
-0.929470 1.250118 0.785005
-0.035951 1.650808 0.758047
-1.667120 -0.364948 0.838769
1.277071 -0.254889 0.761251
-1.307970 -1.282828 0.841904
1.254017 -0.272105 0.747696
0.095891 1.635063 0.770860
1.293997 -0.270397 0.776405
-0.892100 1.283080 0.785497
1.107517 -1.123606 0.793055
-1.643838 -0.257114 0.862217
0.211076 1.600142 0.775244
1.303773 -0.272010 0.784585
0.140174 1.621670 0.768676
-0.869199 1.310895 0.799674
1.121897 -1.108128 0.801459
0.286710 1.566308 0.772537
-1.548480 -0.013649 0.893754
-1.127310 -1.436006 0.808311
-1.525677 0.058562 0.907519
0.355088 1.540336 0.778900
-1.606490 -0.156487 0.875352
-0.848085 1.338939 0.817534
-1.493538 -1.026876 0.779528
-1.599102 -0.136226 0.880477
0.443976 1.501955 0.779785
-1.521637 0.067235 0.906225
-1.502344 -1.014777 0.782452
-1.583554 -0.099750 0.884491
-1.513651 0.093559 0.910808
0.566831 1.445578 0.776265
-1.347366 -1.245453 0.859474
-1.494340 0.138781 0.906614
0.525841 1.464467 0.777964
-1.382854 -1.196027 0.836633
-1.492038 0.148973 0.909565
0.686099 1.405410 0.794179
-1.469494 0.202172 0.904251
0.451671 1.500837 0.783281
-1.438134 -1.116717 0.816969
-1.456981 0.230144 0.899616
0.754382 1.375926 0.797440
0.793235 1.365703 0.814466
-0.905167 -1.547240 0.743148
0.852926 1.343331 0.832286
-0.988001 -1.513675 0.760351
0.091118 -1.726744 0.742841
-1.004383 -1.507930 0.769753
0.106946 -1.725951 0.750147
0.165337 -1.705435 0.740558
0.165384 -1.705397 0.740519
0.234333 -1.685043 0.748773
0.319017 -1.664933 0.775897
-0.795392 -1.560450 0.689957
1.146704 -0.364709 0.678009
-1.292651 0.657721 0.785254
0.404065 -1.640628 0.792843
0.711420 -1.504259 0.849735
0.971094 -1.258532 0.737137
1.070884 -0.283759 0.637100
-0.673712 1.414225 0.733804
-1.263400 0.733920 0.756984
1.109859 -1.103608 0.765579
1.063819 1.230427 0.825875
-1.374004 -1.202700 0.822875
-0.721750 1.342058 0.672422
1.114827 -0.290492 0.660018
-1.597485 -0.140655 0.870852
-0.709480 1.385168 0.726343
-0.935847 1.228296 0.756827
-0.036473 1.628813 0.713753
-0.622248 1.426826 0.702235
1.180836 -0.366044 0.698945
0.100015 1.629816 0.763125
-0.816888 1.292782 0.700517
-0.509653 1.518856 0.714856
1.203070 -0.360425 0.713509
-0.796757 1.321891 0.722442
-0.435011 1.550827 0.690549
0.434880 1.468128 0.725781
1.173572 -0.300809 0.695099
-0.018663 -1.701467 0.646237
1.212181 -0.314629 0.721029
0.345151 1.510413 0.727981
-0.787187 1.344648 0.747440
-0.410248 1.584130 0.720218
0.081182 -1.711683 0.702075
0.440464 1.501520 0.776869
1.116040 -0.263282 0.657802
0.653604 1.383363 0.737535
0.744872 1.361123 0.763321
1.281311 -0.610010 0.774364
0.789173 1.358920 0.797080
0.851703 1.342637 0.829299
1.240772 -0.358895 0.740675
0.980422 1.281808 0.846544
1.243470 -0.306153 0.743286
1.205930 -0.265882 0.713674
1.228787 -0.255470 0.727330
-1.493892 0.138088 0.904516
-0.911512 -1.569240 0.804003
1.208346 -1.021334 0.887889
0.564978 -1.621114 0.924173
-1.693777 -0.684266 0.883867
0.645732 -1.583339 0.945608
-0.957808 -1.549791 0.813234
-1.699784 -0.662171 0.893710
1.264180 -0.880645 0.848929
0.681092 -1.564595 0.952561
-0.821312 -1.599160 0.790311
-1.618213 -0.849671 0.842122
0.723646 -1.543435 0.969437
-1.666562 -0.766085 0.870230
1.283340 -0.829317 0.851377
0.766605 -1.521085 0.990593
-1.594180 -0.892928 0.850193
-0.686520 1.462304 0.821161
-1.374682 0.531707 0.913902
0.809231 -1.492790 0.997119
-1.700802 -0.581804 0.881581
-1.370771 0.539894 0.909415
1.312938 -0.721723 0.853776
-0.577370 1.516552 0.785547
0.840824 -1.470049 0.997311
-1.327098 0.652374 0.870357
0.448265 1.540211 0.847423
0.937485 -1.389128 0.965788
1.316194 -0.712850 0.857963
-0.548280 1.539332 0.789584
-1.318737 0.673300 0.862766
-0.528849 -1.683710 0.797776
0.942334 -1.385174 0.965383
-0.473404 1.587731 0.790225
0.459575 1.538361 0.853517
1.434208 0.799684 0.912012
-0.460720 -1.712507 0.806978
-1.277369 0.776943 0.834779
1.090480 -1.242679 0.955752
1.332879 -0.604810 0.857788
-0.413465 1.614872 0.780413
-0.495559 -1.701437 0.809554
-1.248908 0.823893 0.806135
-0.389919 -1.735138 0.808449
0.542264 1.505661 0.861347
-1.654610 -0.262295 0.890569
-1.188580 0.938716 0.809495
1.338674 -0.499989 0.848380
1.432902 0.805294 0.906187
1.096871 -1.235643 0.957302
-1.610737 -0.143399 0.903022
-0.331360 1.652620 0.796000
1.411938 0.914229 0.937274
-1.110760 1.075533 0.844845
1.170873 -1.108484 0.923639
0.635357 1.462541 0.857844
1.346925 -0.430385 0.853244
-1.135454 -1.442778 0.848494
-1.586852 -0.087581 0.907687
1.333447 1.056398 0.966803
-1.057478 1.175170 0.898574
-1.150514 -1.435345 0.863099
-1.561132 -0.019158 0.918497
-1.087028 -1.475509 0.834070
1.172093 -1.105917 0.922924
-1.011752 1.227138 0.893843
1.256399 1.129574 0.997008
0.718597 1.423671 0.858104
1.350272 -0.389775 0.853720
1.337988 -0.339806 0.829749
1.086542 1.255479 0.978881
1.319762 -0.291235 0.802878
-1.195908 -1.397342 0.864335
1.342836 -0.273800 0.824108
1.055016 1.274444 0.968172
0.995435 1.304382 0.941948
1.345572 -0.269829 0.826410
1.169038 1.197027 0.993547
0.932088 1.336231 0.927657
-1.251135 -1.352636 0.884344
-1.000142 1.244642 0.902458
-1.533047 0.055093 0.922055
-1.303755 -1.307792 0.911224
-1.527367 0.063092 0.916760
-1.343829 -1.270553 0.929736
0.647788 1.457037 0.858094
1.353726 -0.265005 0.835538
-1.505900 0.130122 0.924218
1.272982 1.115239 0.985036
-0.385942 -1.735808 0.807502
-1.429460 -1.177270 0.961652
-1.503248 0.142283 0.927911
-1.432188 -1.175234 0.966210
-1.490200 0.180420 0.929636
1.163449 1.199972 0.984047
-1.433015 -1.172056 0.960224
-1.479039 0.204589 0.925202
-1.511124 -1.029906 0.867236
0.795932 1.388235 0.866715
-1.517167 -1.015478 0.852442
-1.447252 0.269541 0.908350
0.091081 -1.764110 0.846493
0.855845 1.367131 0.894331
-1.461839 -1.115634 0.910362
0.362816 1.567054 0.829046
-1.439426 0.298385 0.911971
0.927469 1.339158 0.928720
0.281342 1.599627 0.826306
-1.428818 0.333147 0.912644
0.161602 -1.742274 0.833970
-1.003743 -1.526373 0.819775
-1.417902 0.377867 0.918015
-1.037909 -1.509779 0.833585
0.290601 1.606189 0.847407
-0.933862 1.305289 0.891490
0.170773 -1.730964 0.810365
-1.409259 0.408429 0.917824
-1.408761 0.418126 0.922778
0.175217 -1.728860 0.808395
-0.259760 1.664646 0.791727
-0.907989 1.332699 0.898171
0.245158 -1.718054 0.842017
-0.904627 1.333128 0.893365
0.323179 -1.703774 0.875146
0.106779 1.655664 0.816283
-0.856666 1.371777 0.888224
0.408805 -1.684572 0.901794
0.198023 1.636756 0.835167
0.529879 -1.637264 0.918222
0.284072 1.609904 0.849770
0.591336 1.470071 0.835664
0.569867 1.479991 0.836458
0.564445 1.488166 0.846897
0.657328 1.452384 0.858386
0.750254 1.404963 0.851791
0.509699 -1.626968 0.867082
-0.909007 -1.547881 0.748608
-0.599374 1.461764 0.728119
0.556682 1.476690 0.819214
0.641332 -1.576118 0.918454
0.540477 1.491586 0.832553
-0.484918 1.556966 0.746244
-1.356299 0.526314 0.867012
1.319538 -0.522400 0.819653
0.767945 -1.492344 0.909288
1.270986 1.115899 0.974770
0.648460 1.445162 0.835332
-1.690405 -0.660926 0.849869
1.315398 -0.423855 0.807459
-0.395918 1.609048 0.750947
0.628618 1.459429 0.845310
1.146492 1.201914 0.920104
-1.382127 0.486923 0.903836
-0.331291 1.634573 0.751195
-1.340732 0.591808 0.867265
1.323381 -0.381039 0.814847
-1.128292 -1.435908 0.810355
1.312272 -0.327883 0.799602
0.937854 -1.386369 0.957570
-1.255933 0.798594 0.796193
0.918252 1.334012 0.897667
-1.325471 -1.273620 0.873304
-0.252116 1.648397 0.746977
1.279747 -0.275288 0.767030
-1.670992 -0.370704 0.848847
-1.096090 1.079347 0.815289
1.330996 -0.266751 0.809166
-1.430379 -1.172441 0.951063
-1.036590 1.181738 0.864012
1.318487 -0.256607 0.794753
1.170679 -1.107737 0.921885
-0.024599 1.661929 0.786041
-1.644421 -0.251215 0.870890
1.300848 -0.271380 0.782111
-1.499195 0.132121 0.911988
-0.976600 1.200135 0.776042
-1.007270 -1.513387 0.789311
0.110640 1.647942 0.801933
-0.960705 1.247415 0.831834
-1.478043 0.195590 0.916122
-1.466637 0.212946 0.906552
-0.902058 1.282605 0.799574
0.210223 1.605224 0.783253
-0.928481 1.302241 0.876539
0.281333 1.599626 0.826297
-0.874406 1.310649 0.806816
-1.425042 0.341588 0.910504
0.196606 1.634581 0.829260
-0.904502 1.333812 0.894469
-1.403409 0.424554 0.914775
0.279976 1.605766 0.837310
-0.854477 1.340819 0.829987
0.173599 -1.723888 0.793671
-0.864346 1.395770 0.945668
-1.436981 0.417412 0.986658
-0.811657 1.428002 0.923539
-0.917469 -1.590446 0.867634
-1.701896 -0.743324 0.990511
1.229638 -1.048913 1.012535
-0.994175 -1.555560 0.888523
-1.718782 -0.653578 0.979288
0.601518 -1.642246 1.082292
1.252771 -0.970488 0.951701
-1.401651 0.536156 0.985878
-0.708272 1.489650 0.898029
-1.629496 -0.877616 0.953978
1.259335 -0.952100 0.945396
-1.695914 -0.756251 0.982450
0.667132 -1.597134 1.042698
1.292747 -0.851940 0.925424
-1.384992 0.583675 0.976321
-0.664480 1.518626 0.900711
0.467757 1.571193 0.938365
1.341422 -0.701019 0.951093
-0.454928 -1.759042 0.910294
0.723050 -1.563697 1.048909
-1.367474 0.629732 0.962416
-0.478729 -1.749546 0.902150
0.545139 1.532723 0.927483
0.760416 -1.542426 1.070716
0.786409 -1.526637 1.087624
-1.354708 0.670356 0.957706
0.632024 1.493250 0.927773
1.354441 -0.657001 0.965808
-0.597202 -1.703134 0.880643
0.829747 -1.497882 1.109713
-0.659461 -1.678372 0.864711
0.853627 -1.482091 1.127401
-1.313717 0.774144 0.935269
0.723136 1.445804 0.918118
-0.515485 -1.732766 0.888898
1.385361 -0.479623 0.965883
0.895302 -1.447945 1.102461
-1.626030 -0.155610 0.929827
0.632078 1.493212 0.927749
-1.269788 0.887636 0.955484
-1.580398 -0.048184 0.935729
0.975932 -1.378791 1.059476
1.396845 -0.420966 0.980221
1.418267 0.905668 0.992299
1.052866 -1.308888 1.059771
-1.079796 -1.504890 0.907299
1.404619 -0.379252 0.989143
1.136058 -1.216386 1.062611
0.889489 1.370185 0.961030
-1.181930 1.050505 0.981755
-1.088043 -1.502298 0.918210
1.406013 -0.353010 0.981921
1.160551 -1.185501 1.067795
1.345372 1.047195 1.045992
0.848632 1.386938 0.940767
-1.137248 -1.465412 0.922293
-1.117766 1.165711 1.022589
1.405828 -0.311806 0.962249
1.287879 1.108347 1.069530
0.945843 1.345754 0.990753
-1.176961 -1.434872 0.930037
1.199087 -1.129109 1.071153
1.274187 1.120887 1.081042
1.405092 -0.306559 0.957510
-1.099567 1.182348 1.009483
0.815080 1.399851 0.924081
1.407980 -0.291078 0.958540
-1.199015 -1.417767 0.936840
1.191459 1.186589 1.058655
0.165187 -1.773789 0.930272
-1.055826 1.237082 1.010546
-1.288322 -1.342370 0.971975
1.172288 1.201447 1.054148
0.169292 -1.773487 0.932518
-1.563686 -0.010643 0.934146
-1.324343 -1.310186 0.990668
-0.997288 1.298209 1.000210
0.255183 -1.761533 0.967367
-1.375289 -1.262801 1.019385
-1.542292 0.047263 0.937297
1.111191 1.247192 1.039878
0.320454 -1.755637 1.007079
-1.530426 0.079945 0.938035
0.416470 -1.727171 1.028709
-1.447765 -1.185933 1.058217
-1.516181 0.124094 0.941851
-0.982037 1.313311 0.998506
-1.494330 -1.105105 1.009070
0.456646 -1.715269 1.055244
-1.502324 0.175025 0.951332
-1.543794 -1.015316 0.965771
0.287982 1.634553 0.916190
0.498923 -1.697210 1.073541
-0.574057 1.558993 0.864358
-1.490829 0.224207 0.964026
-1.610203 -0.906330 0.950037
-0.929899 1.354657 0.979446
0.239140 1.647702 0.901640
-0.468773 1.614456 0.851171
-1.443503 -1.190472 1.055046
-0.923467 1.357965 0.974180
-1.475295 0.279042 0.971910
0.368649 1.604655 0.918526
-0.399282 1.644319 0.845508
-0.871591 1.387549 0.941809
-1.460655 0.328462 0.976679
-1.008922 -1.546503 0.888247
-0.375313 1.650724 0.835723
-1.447380 0.374404 0.980129
-0.256166 1.679152 0.847613
0.953714 1.341716 0.993091
1.048411 1.290109 1.027749
0.205176 1.654563 0.886388
1.027067 1.303629 1.024797
0.735708 1.437347 0.912285
0.635359 -1.600391 0.980430
-1.616332 -0.886513 0.923416
-0.571574 1.528975 0.799915
-0.458907 -1.747220 0.883474
0.723433 -1.545852 0.976799
-1.375295 0.532530 0.915905
-0.391783 -1.738200 0.817109
-0.394297 1.635972 0.811963
-1.336433 0.653595 0.896512
0.452853 1.552617 0.877154
-1.568457 -0.026530 0.928904
-0.611142 -1.686717 0.854973
1.433838 0.799497 0.926748
0.831222 -1.490538 1.065530
-0.521627 -1.698175 0.821241
-1.226379 0.915918 0.878450
0.801625 1.388233 0.873923
-1.172058 1.054629 0.963752
1.274824 1.114479 0.993419
0.950694 1.340287 0.979931
-1.532834 0.056457 0.923669
-1.111008 1.167610 1.009845
1.163312 1.201519 0.994310
-1.075901 -1.503951 0.895600
1.093448 -1.240494 0.959316
0.174670 -1.736459 0.828815
0.246417 -1.718829 0.845175
-1.006043 1.243303 0.912074
-1.492399 0.182587 0.936063
-1.435708 -1.182753 1.002213
0.284188 1.610114 0.850371
0.320906 -1.719717 0.912573
-1.483060 0.229094 0.950778
-1.470157 -1.114832 0.940652
0.414136 -1.712118 0.978485
0.368695 1.594987 0.893844
-1.464553 0.253646 0.931407
-1.465158 0.290148 0.958540
0.596739 1.483167 0.866825
-1.453697 0.334114 0.965722
0.693637 1.449412 0.891206
-1.432531 0.386509 0.955185
-1.445069 0.314401 0.933753
0.752286 1.405162 0.854464
-1.428450 0.366164 0.933337
-1.521254 -1.104189 1.117212
-1.557402 0.041051 0.967857
-1.038722 1.291716 1.083992
-1.574468 -1.010226 1.083645
-1.534301 0.112085 0.973033
1.146459 -1.214666 1.165749
-0.998321 1.327752 1.065959
-1.658138 -0.870803 1.056513
1.158867 -1.200204 1.174905
-1.527774 0.126699 0.969755
1.051712 1.296930 1.097523
-1.511790 0.183253 0.978794
-0.950897 1.364578 1.042843
1.019430 1.317173 1.082378
-1.412421 -1.249715 1.115436
-1.502707 0.229891 0.995384
1.222713 -1.118683 1.180231
-0.942434 1.369299 1.035626
0.188511 -1.807970 1.054704
1.110581 1.254356 1.106632
-1.436943 -1.225903 1.135228
0.263001 -1.799056 1.088693
0.990319 1.334789 1.073730
-1.494026 0.268122 1.005301
1.243292 -1.084719 1.163429
0.327462 -1.793595 1.153591
-1.491398 0.274454 1.004188
0.362391 -1.784103 1.181927
-1.482222 0.308128 1.009627
1.455001 -0.315321 1.148719
1.249794 -1.068565 1.145701
0.416467 -1.761954 1.208270
-1.053193 -1.548322 0.986796
-1.468827 0.350794 1.012387
1.270081 -1.006642 1.095084
-1.083071 -1.527001 0.985691
-1.463392 0.365761 1.011942
0.476841 -1.734695 1.255638
0.555000 -1.691718 1.272613
1.311386 -0.864236 1.048324
-0.899262 1.400177 1.018314
-1.670869 -0.848146 1.054244
-0.851700 1.433226 1.002049
0.705607 -1.593640 1.193645
-1.462922 0.369792 1.013767
-1.723600 -0.745043 1.098500
-1.453641 0.410733 1.022890
-0.822698 1.457336 1.004407
1.356010 -0.715057 1.064207
-1.723909 -0.743767 1.098063
0.728451 -1.576084 1.165332
-1.437056 0.473297 1.029899
0.786587 -1.538439 1.198980
-1.739899 -0.650134 1.086889
-1.436697 0.481263 1.034599
0.801531 -1.529529 1.227855
-1.414786 0.575892 1.045208
1.446291 0.737364 1.156446
0.826052 -1.512637 1.252636
1.438362 0.766304 1.154628
-1.724328 -0.567453 0.995047
1.431474 -0.433021 1.141527
-1.413076 0.591973 1.051506
0.875642 -1.476269 1.298940
-1.710308 -0.473383 0.953462
1.443600 -0.395295 1.164303
0.879592 -1.473103 1.297658
1.414436 0.890390 1.150699
-1.401465 0.642819 1.057662
1.361019 1.014654 1.212599
0.996018 -1.373478 1.193765
1.445396 -0.390970 1.168728
-1.694010 -0.368795 0.937577
1.037424 -1.334364 1.177525
1.355215 1.025409 1.205372
0.840949 1.407367 0.996680
-1.355721 0.785926 1.059115
1.279251 1.118183 1.181307
0.745689 1.459650 0.997846
1.450216 -0.370968 1.173229
1.276774 1.120442 1.176894
-1.324120 0.874720 1.078837
1.198511 1.185460 1.129699
1.447665 -0.371690 1.162624
0.938580 1.361545 1.044797
-1.332477 0.861704 1.083382
1.195565 1.188136 1.134562
0.653165 1.504544 0.993199
-1.278370 0.985367 1.117581
1.440797 -0.352491 1.119032
-1.601484 -0.069299 0.965892
1.353833 1.028761 1.193945
0.594977 1.533354 0.997470
-1.212297 1.090654 1.122297
-1.167818 1.147182 1.111987
1.446327 -0.335888 1.129461
0.545651 1.562273 1.018855
-1.092573 1.235637 1.099107
1.451611 -0.332401 1.148356
-1.077336 1.250255 1.091139
0.733549 1.465997 0.997930
0.928480 1.367586 1.044992
-1.573600 0.000689 0.969179
0.869410 1.393573 1.006025
-0.923240 -1.617664 0.956397
-1.562691 0.028640 0.969466
-0.969713 -1.597838 0.976316
-0.997830 -1.580407 0.974461
-0.835531 -1.644745 0.915980
-0.709881 -1.696444 0.937084
-0.584597 -1.737811 0.947282
-0.655555 -1.715866 0.944592
-0.511700 -1.763348 0.957747
-0.422310 -1.805164 1.022596
-0.505142 -1.766972 0.962527
-0.507855 -1.765900 0.961592
-1.195910 -1.445329 1.014476
-1.238949 -1.415458 1.046273
-1.131429 -1.492195 0.991878
-1.162110 -1.469068 0.997629
-1.298592 -1.366939 1.084531
-1.360160 -1.307387 1.107621
-1.465189 -1.185844 1.125665
-1.512206 -1.118799 1.120576
-1.559099 0.032560 0.964346
-0.995650 1.308159 1.016982
-0.915862 -1.604222 0.904287
1.039718 1.299149 1.048748
-1.523833 0.123969 0.958234
-1.516726 -1.110791 1.116920
0.169327 -1.774956 0.937020
-1.005211 -1.554054 0.904444
-1.557860 -1.015797 1.027677
-0.941133 1.365270 1.023796
0.252264 -1.778400 1.013521
-0.832221 -1.644083 0.910562
-1.481265 0.309354 1.008478
0.325018 -1.785325 1.111758
-1.447909 -1.189054 1.067884
-0.723702 -1.670076 0.884687
-1.444506 0.411556 1.000998
1.358209 1.023696 1.172519
-0.338361 1.668891 0.863977
1.145576 -1.212990 1.126403
-0.590035 -1.726341 0.925497
-1.412844 0.573309 1.039074
-1.700956 -0.761137 1.013394
1.245123 -1.063011 1.108380
-1.722985 -0.655519 1.001565
0.501783 -1.698607 1.088871
-1.395403 0.603433 1.016577
1.256226 -0.978875 0.981616
-1.720721 -0.575819 0.976891
0.594185 -1.650478 1.107116
-1.205751 -1.426376 0.982663
-1.238952 1.029763 1.089175
-1.139696 -1.476955 0.964460
1.348884 -0.689131 0.977532
-1.087949 1.235177 1.085787
0.731138 1.456327 0.961041
-1.318196 -1.325038 1.017313
1.431870 -0.403012 1.117762
0.632035 1.493258 0.927825
0.786713 -1.536784 1.180074
-1.637268 -0.165712 0.949005
1.441650 -0.375798 1.139774
-1.593049 -0.061917 0.952392
1.421555 -0.319390 1.020134
1.462702 -0.372826 1.238632
1.465559 -0.364044 1.245176
1.466136 -0.355225 1.236600
1.467840 -0.348952 1.239076
1.468257 -0.342393 1.233352
-0.174300 -1.888828 1.239194
-1.068593 -1.570895 1.102752
-1.679310 -0.869652 1.155179
1.166927 -1.192860 1.271212
-0.034978 -1.864101 1.158372
1.056431 1.299129 1.171196
-1.551423 0.088809 0.996617
-1.705322 -0.827525 1.177032
1.229520 -1.116974 1.275991
-1.095306 -1.544360 1.074931
1.025993 1.319747 1.154553
-1.547642 0.104887 1.000588
-1.629823 -0.945110 1.139880
-1.045117 1.307056 1.143574
1.260037 -1.075045 1.258667
-1.545202 0.107433 0.997104
-0.681142 -1.747501 1.055695
1.121452 1.250452 1.201006
1.266042 -1.067417 1.273976
-0.716383 -1.734183 1.051386
0.999469 1.336686 1.141144
-1.016746 1.332719 1.129225
-1.566129 0.069966 1.014767
1.287507 -1.026242 1.245198
-0.949993 -1.646740 1.110055
0.207799 -1.835481 1.171974
-1.552708 0.112794 1.017468
1.334765 -0.886894 1.222878
-1.535485 -1.108379 1.189082
1.468862 -0.317691 1.210636
0.289516 -1.823389 1.249469
-1.550265 0.105330 1.006231
1.478217 -0.296523 1.238344
-0.995318 -1.623936 1.125434
1.341236 -0.863694 1.220547
0.349216 -1.804595 1.317024
-0.970999 1.371267 1.107996
-1.001145 -1.620249 1.124930
-1.523550 0.183706 1.007004
-1.592276 -1.002182 1.136741
-1.511869 0.231494 1.018287
-0.967497 1.373906 1.106070
0.405402 -1.781368 1.372863
-0.840464 -1.687575 1.055808
1.445475 -0.447118 1.232852
-1.510573 0.238841 1.020958
-1.439122 -1.247876 1.213081
-0.917003 1.411076 1.082890
-0.578266 -1.776496 1.042147
0.433964 -1.767057 1.378879
-1.456184 -1.225515 1.210132
-0.482164 -1.807409 1.063148
-1.506961 0.259354 1.028025
0.468404 -1.748692 1.383971
-0.871591 1.450270 1.088093
-0.383458 -1.843213 1.130493
0.546160 -1.703825 1.385697
-1.492905 0.312374 1.041442
1.548357 0.489808 1.295031
1.457507 -0.398263 1.241287
-1.741487 -0.743986 1.211499
1.519086 0.559216 1.283690
-1.474540 0.374648 1.048228
-0.826658 1.482843 1.085769
-1.469201 0.420342 1.071147
-1.750051 -0.653591 1.164845
-1.749426 -0.659931 1.165164
0.642073 -1.644732 1.394120
1.469102 -0.330354 1.224545
-1.741150 -0.583622 1.093682
-1.456748 0.486071 1.087673
0.677408 -1.621776 1.388664
1.469104 -0.330344 1.224547
1.578721 0.377402 1.297261
-1.722839 -0.490390 1.011419
-1.454746 0.504186 1.095592
0.732155 -1.585299 1.393825
-1.720132 -0.480993 1.001472
1.561796 0.462801 1.281883
-1.434610 0.595483 1.107020
-1.303886 -1.381728 1.150698
-1.698325 -0.360854 0.960953
-1.613977 -0.073160 0.995737
0.773187 -1.556501 1.394096
-1.316454 -1.368196 1.150289
1.469753 0.671383 1.313451
-1.427777 0.651185 1.127097
-1.586446 0.007728 1.010299
-1.674972 -0.256443 0.963822
-1.236326 -1.432329 1.092767
1.454764 0.706375 1.307046
0.816908 -1.524225 1.398546
-1.417320 0.704322 1.139404
1.432340 0.763839 1.343504
-1.144509 -1.502951 1.061368
0.824430 -1.518480 1.399821
-1.643736 -0.156598 0.979503
-1.394648 0.807745 1.175896
-1.169346 -1.483005 1.062530
0.866532 -1.485510 1.421394
1.400681 0.876544 1.381767
1.345992 1.018220 1.370479
0.890750 -1.465807 1.426498
0.980698 -1.388889 1.368638
1.012110 -1.360046 1.334804
-1.280135 1.029271 1.195943
-1.409052 -1.284175 1.213712
1.139510 -1.224975 1.256496
-1.487154 -1.182533 1.203671
1.253486 1.139360 1.287189
-1.518998 -1.136902 1.200524
1.227067 1.163131 1.272871
-1.220008 1.113859 1.190325
1.281829 1.109413 1.348044
-1.147909 1.202006 1.180416
0.981810 1.347569 1.134078
-1.145028 1.205355 1.180185
1.186893 1.197409 1.233850
0.970316 1.355177 1.135508
-1.076043 1.279469 1.164319
0.917248 1.385106 1.109392
0.866212 1.414645 1.100657
0.957411 1.363548 1.136600
0.962738 1.360585 1.140523
-1.075032 -1.544465 1.025034
-1.692994 -0.840212 1.134165
-1.551465 0.094745 1.000201
1.159247 -1.201404 1.223202
0.406794 -1.773361 1.269723
-1.662677 -0.873307 1.082876
-0.690639 -1.720984 0.984495
-1.543120 0.107858 0.991524
-0.716486 1.542563 1.056240
-1.556365 0.086381 1.004118
0.814053 1.433682 1.042377
-0.508049 -1.766497 0.963223
1.462651 -0.372701 1.238005
-1.723965 -0.743809 1.098456
1.461355 -0.362023 1.217519
0.713676 -1.590026 1.214011
0.922007 1.380604 1.098491
-1.738669 -0.582892 1.071759
-1.496581 0.262609 1.006637
0.957459 1.363494 1.136448
1.469094 -0.330362 1.224513
1.562792 0.463656 1.270692
-1.293919 -1.381669 1.116133
-1.471902 0.374017 1.040638
-1.569810 0.023350 0.981589
0.821070 -1.519901 1.344457
1.350208 1.008280 1.385016
0.876259 -1.475884 1.301689
-1.453025 0.489242 1.081443
1.279170 1.118264 1.181680
1.195571 1.188146 1.134816
-1.395205 0.724922 1.101201
-1.362255 0.822489 1.110720
-1.332468 0.861466 1.083047
-1.300713 0.963379 1.139830
-1.192837 1.131689 1.147990
1.469571 -0.362978 1.285063
1.470354 -0.356203 1.273595
1.472095 -0.348211 1.273552
1.473150 -0.340775 1.267203
1.474572 -0.334654 1.268411
1.471690 -0.357348 1.318636
1.473305 -0.349127 1.303316
1.473699 -0.345611 1.291586
1.475684 -0.336430 1.290139
1.477186 -0.329292 1.288897
1.262247 -1.072557 1.401708
1.271268 -1.059409 1.402655
1.284976 -1.038602 1.383867
1.295007 -1.019271 1.403502
-0.173264 -1.909224 1.335209
1.132834 -1.229793 1.424771
-1.058967 -1.611667 1.237517
-0.070145 -1.893751 1.282112
1.156443 -1.203450 1.404287
-1.419276 -1.291250 1.282412
1.132334 1.241925 1.299334
-1.045732 1.322482 1.203268
-1.075203 -1.595687 1.216076
-1.345441 -1.359213 1.227362
1.096495 1.270897 1.285835
-0.015770 -1.882322 1.245342
-1.031899 1.334123 1.190973
1.236543 -1.107650 1.382046
1.037815 1.315282 1.240845
-1.296900 -1.401851 1.194829
-1.579955 0.075378 1.062533
0.139545 -1.861736 1.233195
-1.555265 0.145853 1.058219
1.033372 1.318546 1.239758
-0.990061 1.370923 1.169481
-0.853846 -1.725631 1.250340
-1.554871 0.137270 1.049741
-0.969638 1.388672 1.163454
-1.465286 -1.236722 1.288810
-1.555221 0.145871 1.058154
0.233140 -1.847785 1.291523
1.316458 -0.968116 1.434626
-1.500277 -1.183827 1.268292
1.486435 -0.289412 1.307161
-0.915207 1.440097 1.184291
0.375005 1.682812 1.308327
-1.009943 -1.647755 1.261848
-1.555220 0.145908 1.058177
-1.508809 -1.170545 1.263734
0.368467 1.684469 1.300040
1.486908 -0.287710 1.309441
0.156345 -1.859967 1.240074
-1.545503 -1.103235 1.227847
-0.887510 1.463953 1.196464
1.368286 -0.795918 1.458988
-1.041288 -1.626560 1.252663
-1.555588 0.119736 1.038434
1.494413 -0.255068 1.352880
0.438798 1.658168 1.315161
-0.951014 -1.680966 1.260961
-1.623925 -0.978832 1.219534
-0.823237 1.512631 1.222226
-1.541789 0.169978 1.044681
0.290970 -1.832209 1.370004
-1.631820 -0.964731 1.215195
-0.764726 1.552552 1.268101
-1.528019 0.221976 1.054249
-1.557239 -1.083728 1.224325
-1.715406 -0.821987 1.234487
0.333664 -1.815948 1.418160
-1.528130 0.225195 1.056744
1.452318 -0.442909 1.397854
1.497517 -0.240867 1.342541
-0.576480 -1.805622 1.165735
-1.517708 0.269886 1.069068
1.464387 -0.389178 1.366975
-1.508553 0.324381 1.092171
-0.275360 -1.891835 1.278735
0.362431 -1.803813 1.439434
-1.500307 0.383455 1.119150
1.465404 -0.385117 1.355651
-1.489344 0.437389 1.132767
1.532033 0.508568 1.370389
0.409335 -1.782819 1.470507
1.504691 0.578797 1.379590
1.471025 -0.360436 1.332139
-1.752266 -0.723088 1.270836
-1.477476 0.503474 1.150131
-1.759161 -0.666969 1.253099
1.575205 0.223796 1.416447
-1.466060 0.602750 1.188764
0.515896 1.619718 1.269374
-1.751821 -0.603628 1.173007
1.575532 0.258662 1.425283
0.463348 -1.755320 1.489497
-1.731869 -0.509307 1.061292
1.478724 -0.321622 1.287132
0.494329 -1.738057 1.498974
-1.722590 -0.454641 1.028518
-1.462914 0.615873 1.189950
1.551714 0.435659 1.411439
1.481483 -0.310980 1.297532
-1.696575 -0.308638 0.995011
-1.437456 0.724238 1.208331
-1.686852 -0.265587 0.997042
0.559880 -1.698736 1.508326
0.904736 1.402888 1.202491
-1.437167 0.727113 1.210270
0.889995 1.412395 1.204790
-1.675457 -0.227057 0.997752
1.476678 0.646916 1.395342
-1.399078 0.845933 1.240835
0.961061 1.367661 1.218944
0.628888 -1.654935 1.512936
1.455532 0.692769 1.450241
0.977958 1.356948 1.230110
-1.343525 0.952222 1.251156
-1.429650 -1.280918 1.289401
1.412413 0.792267 1.554585
-1.297273 1.022856 1.245075
-1.621146 -0.055781 1.038807
0.690285 -1.614383 1.518158
-1.602496 0.007711 1.058556
-1.253767 -1.436915 1.165140
0.743346 -1.577921 1.520736
-1.139448 -1.538467 1.173195
-1.592185 0.035705 1.058048
-1.173244 -1.510289 1.168540
-1.217614 1.133484 1.239807
-1.208242 1.146714 1.243967
1.212306 1.172535 1.379051
0.765107 -1.562363 1.530112
-1.128345 1.242718 1.251336
1.212716 1.172406 1.371846
-1.624702 -0.065965 1.036846
-1.100477 1.270434 1.236009
1.256104 1.129085 1.435614
0.808722 -1.530067 1.542384
1.282270 1.097906 1.468824
0.821791 -1.520013 1.546793
0.878410 -1.474495 1.536307
-1.746803 -0.745077 1.268585
0.880913 -1.472406 1.535823
0.958067 -1.405326 1.519936
-1.711616 -0.380421 1.008497
1.000647 -1.366475 1.490523
-1.651142 -0.144064 1.018147
-0.225436 -1.903385 1.314456
-0.177771 -1.890554 1.246692
-1.328584 -1.371325 1.205467
-0.054070 -1.879460 1.217819
1.163167 -1.197323 1.286859
-1.409059 -1.284177 1.213744
-1.038729 1.324570 1.180611
-1.557997 0.098888 1.023097
-0.834647 -1.728019 1.219523
-1.449734 -1.243953 1.244533
0.984891 1.346125 1.139632
0.220435 -1.839822 1.209098
-1.555302 0.146466 1.058893
0.288082 -1.827935 1.289052
1.334570 -0.897810 1.249112
1.056751 1.300244 1.207819
-0.998491 -1.623557 1.131490
-1.517328 0.230334 1.031426
-1.630507 -0.965564 1.212203
1.486762 -0.282865 1.287753
-0.470252 -1.823565 1.115822
1.465076 -0.385832 1.302104
-1.605481 -0.999295 1.186814
-0.371031 -1.852975 1.161336
0.465885 -1.751144 1.403530
-0.278687 -1.888314 1.263857
1.469861 -0.329981 1.228230
-1.461322 0.597303 1.173617
1.574926 0.351279 1.383360
-1.751029 -0.660085 1.175529
-1.594275 0.006553 1.032074
-1.311403 0.998080 1.235984
-1.723461 -0.483190 1.016079
1.463865 0.681404 1.360721
-1.213626 1.138056 1.237471
-1.679236 -0.248039 0.988187
1.212756 1.172379 1.371665
-1.153099 -1.506911 1.098219
-0.234992 -1.890134 1.255682
1.262968 -1.065993 1.476800
1.272007 -1.051210 1.487747
1.282340 -1.032815 1.499862
1.287293 -1.024608 1.494988
1.306270 -0.984312 1.503927
1.308622 -0.977738 1.509396
1.474363 -0.339279 1.392918
1.474953 -0.336703 1.391981
1.476786 -0.332967 1.349798
1.471323 -0.345933 1.442453
1.480119 -0.316531 1.367320
1.481381 -0.310986 1.366991
1.482089 -0.306882 1.375669
1.286526 -1.028911 1.470681
1.298479 -1.011120 1.421088
1.307523 -0.983203 1.493008
1.472962 -0.350533 1.354855
1.481503 -0.311603 1.357080
1.258657 -1.068008 1.522748
1.258664 -1.067998 1.522746
1.275662 -1.040676 1.528383
1.283262 -1.025650 1.540579
1.293166 -1.003880 1.555669
1.295038 -0.999716 1.556672
1.309330 -0.961755 1.573605
1.470165 -0.338616 1.509107
1.472002 -0.331395 1.502815
1.473892 -0.322278 1.504420
1.477182 -0.303917 1.521338
1.478870 -0.296584 1.519044
1.480013 -0.292387 1.514060
1.482881 -0.282850 1.496412
1.258413 -1.068495 1.521438
1.475001 -0.336342 1.393341
1.478017 -0.320404 1.408256
1.473228 -0.327975 1.491138
1.477489 -0.309086 1.486557
1.478034 -0.300936 1.516701
1.480424 -0.310134 1.404633
1.480498 -0.300243 1.462584
1.482726 -0.290533 1.460643
-0.058333 -1.908861 1.418485
1.175845 -1.174922 1.526821
-1.064729 -1.628943 1.331578
-1.598277 0.077551 1.125185
-0.106259 -1.917201 1.442184
1.227861 -1.112149 1.502861
-1.402923 -1.323664 1.336157
-1.077725 -1.618740 1.323892
-1.069078 1.312823 1.291513
-1.422526 -1.305070 1.352669
-1.580017 0.123569 1.114474
-1.042724 1.337776 1.274579
-1.296259 -1.436397 1.324481
-0.166558 -1.923586 1.439110
-1.566754 0.153758 1.103360
1.345927 -0.845565 1.589670
-1.464365 -1.254151 1.352098
-1.561768 0.170852 1.104356
-1.004728 1.372867 1.258352
1.141485 1.230317 1.435039
0.246018 -1.850850 1.409123
-1.551104 0.223386 1.119689
-0.963918 1.412594 1.288297
-0.362785 1.708857 1.505388
-0.917189 1.451960 1.308344
0.319483 -1.823090 1.473221
-1.550527 0.226888 1.121046
-1.539049 -1.141957 1.316505
1.113716 1.254294 1.405009
1.044478 1.310214 1.366714
-1.543328 0.280042 1.146719
-0.893760 1.470481 1.323236
-1.565090 -1.097298 1.303733
-0.269793 1.715008 1.577743
1.041662 1.312515 1.353322
-1.529460 0.337616 1.157655
1.452804 -0.416874 1.528297
-0.797776 1.536470 1.406990
-1.489443 -1.219829 1.343807
-1.003309 -1.672877 1.368151
-1.520573 0.361399 1.153886
0.371357 -1.801461 1.526180
-1.519513 -1.170611 1.316862
-1.025943 -1.658998 1.362464
1.456348 -0.401987 1.517763
-1.512012 0.406838 1.167973
-0.735752 1.572325 1.423441
1.495948 -0.218593 1.528416
-1.469062 -1.244496 1.338296
-1.504842 0.471675 1.198439
-0.704182 1.588432 1.445885
0.374311 -1.800180 1.527802
1.501307 -0.195536 1.524480
-0.269775 1.715009 1.577753
-1.514625 0.400804 1.170419
-1.590265 -1.056279 1.299969
-0.598084 1.637994 1.464986
1.502142 -0.193035 1.518657
0.417333 -1.780294 1.539345
1.486144 -0.272200 1.477945
1.511360 -0.154058 1.507365
-1.645642 -0.959479 1.279373
-0.551550 1.657036 1.477202
-1.499639 0.525769 1.224371
-1.721713 -0.822154 1.288822
-0.420333 1.698239 1.487055
1.532653 -0.060147 1.497087
0.443495 1.660393 1.438937
1.478208 -0.299502 1.519746
0.417953 -1.780005 1.540340
-1.496674 0.538888 1.226014
0.399498 1.678130 1.432456
-1.487246 0.634713 1.275945
-1.737931 -0.786620 1.309754
-0.442783 1.692761 1.484322
0.510490 -1.729436 1.565398
1.488484 -0.261916 1.478150
1.523765 0.500031 1.490465
-1.761026 -0.634121 1.268101
-1.470190 0.717810 1.309259
1.502776 0.563183 1.492200
-1.759388 -0.623326 1.253090
-0.510223 1.672217 1.484233
-0.256573 -1.914965 1.405903
1.493729 -0.237021 1.489099
0.585670 -1.682908 1.581331
-1.743591 -0.521323 1.148579
1.560758 0.218401 1.561521
-1.467878 0.725393 1.311154
-1.735117 -0.462733 1.112820
0.599807 -1.673797 1.589049
1.556768 0.318026 1.543921
-1.427917 0.822316 1.315267
-1.756002 -0.738864 1.340110
-1.688896 -0.207864 1.078129
-1.662296 -0.128796 1.082100
1.543501 0.430935 1.488020
-1.641406 -0.047738 1.117546
-1.763476 -0.680877 1.314871
-1.413816 0.853011 1.323198
-1.659301 -0.114626 1.090144
-1.623217 0.011896 1.131771
-1.350778 0.960565 1.323812
1.446626 0.701322 1.569369
-1.724365 -0.393554 1.081555
-1.603394 0.067862 1.130823
-1.290376 1.051809 1.328620
0.213260 1.721665 1.468060
-0.217651 -1.920871 1.417965
1.415473 0.771925 1.653749
-1.703068 -0.270729 1.068516
-1.258244 1.096018 1.324663
-0.214539 -1.921582 1.421009
0.303829 1.707074 1.432858
-1.197055 1.177154 1.343292
1.408795 0.787990 1.670952
-1.271532 -1.460349 1.322241
0.383757 1.683853 1.424094
-1.141106 1.241529 1.343885
0.814668 -1.524313 1.612681
-1.153247 -1.561219 1.310948
-1.126961 1.256003 1.334356
0.822002 -1.518661 1.612798
-1.192118 -1.532504 1.323873
0.613522 1.580436 1.389994
0.869161 -1.480222 1.616352
1.287712 1.072153 1.608708
0.576378 1.598622 1.395511
1.275643 1.093579 1.565012
0.501367 1.634652 1.435777
0.880724 -1.470204 1.621048
1.229888 1.148203 1.510028
0.951111 -1.407343 1.606280
0.731380 1.517670 1.356725
1.210032 1.168312 1.485530
0.986948 -1.372961 1.605358
1.104799 -1.253910 1.556219
0.909309 1.406999 1.355934
0.864868 1.437193 1.371815
0.960819 1.371497 1.354589
0.985337 1.354183 1.358214
1.128787 -1.230149 1.511860
-0.167593 -1.921033 1.415441
-1.426889 -1.283437 1.286685
-1.570567 0.140226 1.100484
-0.902792 1.456960 1.230317
0.134024 -1.864158 1.242150
-1.464903 -1.247694 1.330862
-1.561309 0.159015 1.092133
0.376019 1.683108 1.317353
1.486999 -0.287599 1.311970
-1.549305 -1.102987 1.242437
-1.558636 0.166872 1.093238
-1.750915 -0.745039 1.307140
1.494385 -0.245871 1.430681
0.365341 -1.803642 1.486776
-1.506530 -1.182985 1.296143
-1.757418 -0.621722 1.239693
-1.526869 0.268491 1.092280
1.499759 -0.219441 1.445806
-1.731941 -0.511786 1.061430
1.488268 -0.268714 1.448400
-1.509262 0.324227 1.093673
0.474938 -1.749543 1.515017
-1.713354 -0.378065 1.017131
-1.498322 0.458809 1.171469
-1.630835 -0.057017 1.073652
0.595692 -1.676570 1.576685
1.556979 0.315547 1.544419
-1.156179 -1.553882 1.288412
-1.441270 0.741608 1.236170
-0.214554 -1.920834 1.415574
1.446795 0.703534 1.550663
-1.122219 1.254816 1.285467
1.276492 1.099911 1.502463
1.256243 -1.066226 1.572554
1.263709 -1.053358 1.583445
1.279573 -1.025544 1.587090
1.280679 -1.023467 1.587000
1.293602 -0.993870 1.606189
1.296958 -0.986272 1.605255
1.301837 -0.972789 1.615979
1.303923 -0.967457 1.616841
1.311517 -0.944306 1.626476
1.294507 -0.997967 1.571890
1.300867 -0.981186 1.583376
1.249617 -1.072005 1.612734
1.266011 -1.045610 1.617149
1.273145 -1.032262 1.625297
1.287189 -1.003421 1.633357
1.288920 -0.999275 1.635695
1.299671 -0.970973 1.647389
1.311672 -0.934045 1.662764
1.279572 -1.025533 1.587188
1.300941 -0.970318 1.637065
-1.447779 -1.302933 1.486427
-1.133014 -1.604633 1.466838
-0.251758 -1.926460 1.501477
1.131759 1.232395 1.563636
-1.463453 -1.278686 1.461890
-1.414281 0.871202 1.418095
-1.670788 -0.037560 1.239329
-0.199141 -1.934844 1.555118
1.122001 1.240970 1.555773
-1.488717 -1.246930 1.459443
-1.163970 -1.583933 1.488399
-1.334698 0.997444 1.431640
-1.500376 -1.230024 1.451165
-1.655568 0.019462 1.259325
0.386601 1.675979 1.577154
1.050890 -1.305088 1.668152
-1.305887 1.038690 1.423137
-1.647624 0.036968 1.250046
0.380441 1.677827 1.579003
-1.061472 -1.653956 1.461969
-0.151692 -1.934495 1.607403
1.060503 1.292141 1.539948
-1.245627 1.122801 1.441256
0.439784 1.655766 1.591600
-0.038340 -1.917770 1.613482
1.032321 1.314440 1.540172
-1.221649 -1.536728 1.493363
0.129885 -1.887109 1.537668
-1.254881 -1.509531 1.507003
-1.633025 0.075692 1.241966
-1.201219 1.179947 1.460248
-0.345995 1.699846 1.682092
0.259252 -1.847494 1.523612
-1.354181 -1.415846 1.525744
1.174574 -1.169388 1.629831
0.263671 -1.845815 1.524599
-0.249018 1.706299 1.717058
-1.153455 1.237329 1.501638
-1.618672 0.099337 1.217390
1.491604 -0.212227 1.624776
0.340825 -1.814606 1.545471
-1.376736 -1.391617 1.524810
-1.150306 1.240747 1.492247
-1.031473 -1.674596 1.482029
-1.598554 0.163097 1.213530
0.390658 -1.793251 1.582036
1.236765 -1.090865 1.610860
1.497670 -0.180998 1.637658
0.398113 -1.789914 1.588993
-1.524445 -1.192905 1.430807
-1.081317 1.312979 1.456461
-1.580238 0.231559 1.216459
-1.536288 -1.171121 1.411366
1.339327 -0.837315 1.695558
1.512383 -0.113462 1.627261
0.436112 -1.771575 1.609934
-1.579539 -1.104553 1.409212
0.523968 -1.721660 1.643675
1.533516 -0.004868 1.621713
-1.613559 -1.053672 1.423292
-1.571227 0.299179 1.248044
0.561553 -1.698072 1.656687
-1.068820 1.324606 1.435677
0.616838 -1.662502 1.655126
1.445606 -0.421119 1.665675
-1.556443 0.362213 1.260178
-1.668899 -0.950295 1.395863
1.446934 -0.415241 1.664483
0.695985 -1.609326 1.657066
1.544888 0.106605 1.651933
-1.723207 -0.844498 1.392022
1.463475 -0.339821 1.650633
-1.763976 -0.734418 1.416663
-1.552367 0.386125 1.268876
0.742470 -1.576714 1.663844
-1.763986 -0.734400 1.416675
1.470114 -0.311524 1.635184
-1.736278 -0.812343 1.389842
-1.533883 0.501474 1.312137
1.528600 0.457536 1.563457
1.475552 -0.290349 1.608056
0.765257 -1.560252 1.667279
-1.775555 -0.677344 1.440563
-1.775290 -0.683872 1.440927
1.477929 -0.287187 1.571815
0.297573 1.699746 1.578908
-1.776357 -0.676140 1.442752
1.478589 -0.275119 1.614677
0.809660 -1.527080 1.672440
0.249368 1.708324 1.591126
-1.773328 -0.592326 1.388164
-0.991042 1.395360 1.426082
1.545905 0.129779 1.656417
0.818898 -1.519907 1.675054
1.483964 -0.262910 1.556574
-1.533877 0.501881 1.312373
0.868549 -1.478971 1.684065
-1.767402 -0.554174 1.343261
-0.978613 1.405651 1.427113
1.551269 0.198777 1.632776
1.472940 -0.298299 1.632117
0.881446 -1.467559 1.693063
-1.750215 -0.430278 1.244943
-1.775062 -0.642651 1.414003
1.478779 -0.273080 1.620234
-0.900255 1.464815 1.490902
-1.541252 0.444935 1.288956
1.485232 -0.246914 1.602974
0.945199 -1.409163 1.686894
0.744282 1.511950 1.542121
-0.885942 1.474718 1.501929
1.037983 -1.318254 1.671362
0.737170 1.516028 1.538268
-0.793950 1.533899 1.540356
-1.519383 0.572749 1.331424
1.551737 0.208925 1.629075
0.840042 1.452865 1.513218
-0.724058 1.570367 1.598242
1.551099 0.306024 1.598163
-1.519362 0.572828 1.331425
0.606279 1.583146 1.580520
-0.707007 1.579016 1.601725
0.562701 1.603348 1.578139
-1.498221 0.671595 1.369271
1.535717 0.427215 1.565494
0.484694 1.636943 1.597310
-0.604785 1.626343 1.615902
-1.493031 0.687387 1.369648
0.500298 1.630386 1.595035
-0.529153 1.657539 1.611098
-1.470061 0.766691 1.423498
1.439667 0.709591 1.645270
-0.410651 1.690480 1.647913
-1.435691 0.834408 1.422947
