0.404170 1.927094 5.694193
-1.391648 0.489336 5.698035
-0.410032 1.698574 5.666914
-0.159819 -2.140121 5.508362
-1.751797 -0.452340 5.949707
1.479317 0.799105 5.665032
-0.102968 -2.096187 5.453273
-1.382038 0.563023 5.676332
-1.382409 0.575930 5.668620
-1.501501 0.113557 5.758376
-1.737147 -0.436234 5.948705
-1.357935 0.718798 5.622879
0.507384 1.904251 5.781410
-1.513924 0.111640 5.733849
-1.340787 0.776014 5.660209
1.469888 0.856093 5.686331
-1.687419 -0.380709 5.933841
0.618507 1.885375 5.836533
-1.311731 1.024834 5.625410
1.473972 0.936030 5.684959
-1.291403 1.094333 5.640234
0.700276 1.938833 5.725828
-1.674195 -0.369454 5.936087
-1.280729 1.109754 5.651918
-1.253460 1.159337 5.680662
0.819562 1.891901 5.824245
-1.612679 -0.264616 5.942126
-1.281854 1.108250 5.650973
-1.240008 1.212477 5.689903
0.879319 1.907295 5.815394
-1.532780 0.051006 5.807626
1.449549 1.318277 5.609740
0.909557 1.938283 5.764322
0.947479 1.961818 5.730081
1.438545 1.334820 5.634599
1.103314 1.872377 5.827141
1.030541 1.945000 5.763792
-1.421624 -2.021639 5.667342
-1.487720 -1.992933 5.581669
-0.903442 -2.097587 5.973031
-0.934050 -2.087350 5.961307
-1.015081 -2.051581 5.990629
-1.091889 -2.041171 5.954619
-1.275047 -2.041862 5.807627
-1.324537 -2.003342 5.827197
-1.111336 -2.009908 5.979358
-1.520529 -1.914487 5.647335
-1.527366 -1.907511 5.640366
-1.588764 -1.793171 5.628858
-1.599623 -1.722846 5.628628
-1.599253 -1.691688 5.643448
-0.746006 -2.050171 6.092820
-0.707009 -2.149673 5.986363
-0.579475 -2.145453 5.944838
-0.430457 -2.230336 5.758693
-0.558384 -2.123690 5.913859
1.183011 -1.276599 5.928058
-0.329738 -2.235756 5.599651
-1.701046 -1.462559 5.353801
-1.158327 1.274222 5.759122
0.161206 -1.944037 5.205752
1.578759 0.214150 5.761856
-1.517971 0.167107 5.680256
-1.809733 -1.356393 5.261520
1.192722 -1.187132 5.842552
0.254845 -1.909633 5.198191
-1.493373 0.169680 5.724286
-1.784379 -1.363973 5.313332
-1.476461 0.193500 5.742403
-1.802423 -1.206768 5.504967
-1.136819 -2.048096 5.907457
-1.023861 1.396360 5.749275
1.347751 1.416344 5.770771
-1.859258 -1.207820 5.338032
0.556262 -1.770395 5.709367
-1.841479 -1.068650 5.646276
0.397187 1.964876 5.584970
-1.469514 0.218615 5.733857
0.731754 -1.744504 5.938731
1.339016 -0.955267 5.736764
-0.895487 1.468656 5.775003
-1.900536 -1.041074 5.559434
-1.464057 0.215517 5.743861
-1.600553 -1.694655 5.623760
-0.821943 1.487205 5.815729
-0.736158 1.509605 5.855094
-1.928565 -1.026232 5.232136
-0.645713 1.523716 5.904732
0.874343 -1.607012 5.821340
-0.510869 1.599480 5.802084
-0.463021 1.625925 5.763798
0.501113 1.957708 5.648140
1.566653 0.307662 5.690881
0.905054 -1.579266 5.817432
1.440753 1.334812 5.622418
-1.449580 0.232643 5.748381
-2.059490 -0.691619 5.617815
0.606234 1.956188 5.658342
-0.252429 -2.205761 5.555427
1.531257 -0.614171 5.887012
0.702387 1.994109 5.586117
-2.065823 -0.597540 5.596087
1.426456 1.387709 5.637676
0.795846 1.999613 5.579813
-0.432773 1.663909 5.699771
-0.190161 -2.175164 5.511151
1.541859 -0.426372 5.804760
-1.413273 0.521383 5.658273
-1.792226 -0.372628 5.798063
0.886180 1.977073 5.660594
1.233676 1.498453 5.923508
1.547716 -0.367924 5.802888
-0.411081 1.696846 5.668495
-0.146999 -2.142434 5.470847
-1.420905 0.282880 5.754426
1.129880 1.918738 5.744645
1.182319 1.532809 6.016537
-1.483018 0.158974 5.735335
-1.396936 0.441269 5.702700
-1.408143 0.499811 5.675298
-1.396518 0.485246 5.696970
-1.385804 0.643523 5.627744
-1.322142 0.944433 5.606890
-1.285750 1.104117 5.646688
-1.294624 1.094457 5.634339
-1.256503 1.172570 5.675692
-1.588995 -1.608200 5.727668
-0.089056 -2.049291 5.551171
-1.584834 -1.577443 5.735651
-0.554509 -2.143715 5.935704
1.196322 -1.315787 5.991322
-1.509647 0.099808 5.783938
0.041918 -1.972784 5.621915
-0.487367 -2.188959 5.877494
-1.580269 -1.557948 5.746322
1.211239 -1.293249 5.976489
-1.490685 0.138722 5.778429
0.221489 -1.915566 5.738854
-1.206489 1.212455 5.724382
1.291026 -1.179765 5.949987
1.640880 -0.197101 5.887241
0.340087 -1.875112 5.785530
-1.487066 0.149432 5.765074
-0.941138 -2.064814 6.015601
-1.174211 1.261309 5.743707
-0.421121 1.636723 5.745409
1.668766 -0.105799 5.887908
0.456259 -1.848219 5.882523
-1.007801 -2.039371 6.037814
-1.566046 -1.484503 5.752029
-1.476643 0.174058 5.766356
1.345497 1.424502 5.773441
1.637653 0.057237 5.865077
-0.410172 1.662355 5.713690
-1.106630 -1.956505 6.076731
1.286483 1.457492 5.850908
-1.155314 1.269864 5.764746
-1.132412 -1.922828 6.116896
1.633472 0.140498 5.878319
-1.540877 -1.397861 5.771743
-1.470740 0.186290 5.775551
0.483518 -1.845131 5.895317
1.365143 1.390519 5.749305
-1.217885 -1.911806 6.048943
1.654313 0.185813 5.923450
-1.534463 -1.376398 5.777390
-1.093621 1.354761 5.756853
-1.349496 -1.912995 5.908295
0.623110 -1.824859 6.039111
-1.545916 -1.255768 5.778524
-0.443995 -2.188913 5.840482
1.648046 0.353593 5.942288
0.699253 -1.786388 5.979952
-1.470362 0.187025 5.774519
1.350018 1.418526 5.762160
1.625647 0.402990 5.876859
-0.440382 -2.185348 5.839207
-1.635029 -1.205412 5.726942
-1.028749 -2.018386 6.059848
-1.469667 0.188080 5.776644
0.765487 -1.743694 5.963384
1.589122 0.510540 5.781691
-1.699457 -1.140587 5.724235
-0.418069 -2.238147 5.739382
-1.089627 1.356436 5.758260
-1.513889 -1.899519 5.711648
1.250762 1.484253 5.910227
0.795481 -1.723869 5.965452
-0.377499 -2.250467 5.663599
-1.519340 -1.887353 5.719411
1.242761 1.490303 5.926942
0.829900 -1.689528 5.937836
-1.385112 -1.939768 5.842076
-1.460566 0.206566 5.763983
-1.784395 -1.027944 5.744640
-1.581158 -1.742022 5.739716
1.175315 1.532402 6.033547
0.901976 -1.615026 5.855445
-1.454219 0.216593 5.757755
-1.551761 -1.250466 5.775924
0.924589 -1.594153 5.854881
-0.986859 1.410218 5.767108
1.546182 0.637419 5.728800
1.110874 1.624640 6.051116
-1.871304 -0.956936 5.731080
-1.796554 -0.936184 5.827654
-1.582353 -1.723624 5.751334
-1.452394 0.219170 5.757515
1.076064 1.730371 6.007277
-0.940841 1.446487 5.764273
-1.589941 -1.665268 5.731484
0.995731 -1.525760 5.913094
-1.866373 -0.893956 5.772350
1.669114 0.278909 5.970709
-1.436513 0.239126 5.761150
1.065153 -1.451209 5.995055
-0.872648 1.459786 5.813582
-1.432887 0.243600 5.762114
1.544015 0.641461 5.717420
-0.862107 -2.093870 6.017982
-1.858220 -0.885136 5.785728
1.065153 -1.451209 5.995055
-0.756631 -2.164522 6.013865
-1.403728 0.285026 5.768572
-0.814322 1.478650 5.839014
1.125718 -1.390516 6.015786
-1.798404 -0.852464 5.876927
-0.650409 -2.204247 5.974001
1.538484 0.664685 5.678412
-1.390925 0.350284 5.753403
1.138627 -1.378280 6.015521
1.501093 0.717461 5.689624
-0.750248 -2.183040 5.990787
-1.804989 -0.846013 5.874785
-0.716416 1.504746 5.887395
-1.389300 0.383831 5.739189
1.488129 0.715609 5.745466
-1.783124 -0.899944 5.868340
-1.390054 0.377157 5.742693
-0.400607 1.705315 5.666866
-0.616984 1.526587 5.917747
-1.837753 -0.805391 5.847874
-1.664168 -0.367317 5.933026
-1.385480 0.432042 5.728242
-0.389922 1.731470 5.641014
1.354647 -1.089913 5.972703
-1.653052 -0.289388 5.922237
-0.527129 1.547578 5.911249
1.441935 0.941293 5.753116
-1.803506 -0.740640 5.905889
-0.342171 1.788434 5.602302
-1.563022 0.000875 5.841971
1.364888 -1.072588 5.972337
1.444745 0.967811 5.741877
-1.384636 0.454178 5.720047
-0.454377 1.593457 5.824644
-1.824495 -0.840190 5.851390
-0.290105 1.823167 5.575375
-1.382812 0.508165 5.700169
1.446141 0.967150 5.738738
-0.218320 1.851437 5.560554
-0.375116 -2.246388 5.663906
-1.365022 0.606219 5.682787
-1.756186 -0.669990 5.953588
-0.156330 1.870618 5.553821
1.406000 -1.002325 5.953371
-1.342835 0.797633 5.673792
-0.364465 -2.240623 5.645952
-1.755889 -0.578885 5.976993
1.462131 1.137115 5.677448
-0.200786 1.856082 5.560026
-1.313070 1.002873 5.645217
-0.327107 -2.217799 5.623123
1.440942 -0.952294 5.953049
-1.755888 -0.578884 5.976994
-0.100924 1.895791 5.538163
1.464029 1.227258 5.643782
-0.234659 -2.141355 5.618850
1.463896 -0.917018 5.952736
-0.083488 1.904182 5.532859
-0.222626 -2.131981 5.618539
1.438285 1.325168 5.640968
1.487923 -0.872485 5.948917
0.005063 1.937073 5.520033
-1.294912 1.071257 5.656646
1.434498 1.332677 5.646211
0.049568 1.952204 5.511337
-1.755886 -0.578884 5.976997
-0.156843 -2.090388 5.586936
0.274884 1.899689 5.698131
-1.241168 1.123671 5.703381
1.513338 -0.796765 5.940483
-0.127452 -2.063671 5.584384
0.236220 1.916483 5.651195
-1.720065 -0.485811 5.974143
1.531146 -0.713864 5.930052
0.408803 1.826240 5.947082
-1.701759 -0.448010 5.952306
1.549812 -0.627360 5.912076
0.098290 1.957484 5.519400
-1.674777 -0.406297 5.950157
1.573406 -0.504931 5.844039
0.511300 1.770894 6.084501
1.571905 -0.486296 5.832147
0.613956 1.811074 6.017021
1.572410 -0.420068 5.814140
0.655987 1.801609 6.044471
1.593681 -0.328023 5.834689
0.695428 1.808205 6.037079
1.620210 -0.248572 5.868607
0.800285 1.780727 6.047057
1.076070 1.730389 6.007250
0.858895 1.812498 6.006926
0.937925 1.839705 5.951232
0.993144 1.754729 6.056635
-0.518683 -2.128957 5.917673
-1.497514 0.120808 5.766590
-1.593178 -1.560685 5.659225
0.452170 -1.851309 5.837508
-1.511781 0.115209 5.735559
-0.470829 -2.186982 5.872771
1.360665 -1.080260 5.972482
-1.484263 0.159632 5.751283
-0.398137 -2.257700 5.691499
-1.644452 -1.245944 5.676533
-1.252720 1.162172 5.681396
-1.469977 0.187516 5.775097
1.398724 -0.974990 5.911027
0.774308 -1.729248 5.956386
-1.211925 1.234779 5.714012
-1.541755 -1.373005 5.754949
-1.408087 -1.973528 5.768139
-1.473106 0.194481 5.756230
-1.142604 1.330575 5.737206
1.635604 -0.202485 5.887372
1.481603 -0.877611 5.949581
-1.554746 -1.257329 5.764380
-0.425815 1.666450 5.693887
-1.918380 -0.938888 5.714252
-0.910858 -2.093384 5.977133
1.646220 -0.125199 5.869211
-1.090678 1.356107 5.758020
0.920333 -1.598301 5.853201
-0.406652 1.703508 5.661085
-1.023636 -2.021161 6.051898
1.512988 -0.797688 5.941704
1.609479 0.047764 5.807709
-0.391110 1.729607 5.641694
1.530752 -0.704773 5.933885
1.252351 1.480274 5.909181
0.962451 -1.548180 5.875139
-1.225498 -1.932816 6.004980
-1.760405 -1.161272 5.641688
-1.436631 0.240142 5.760092
1.601546 0.133198 5.818551
-1.890777 -0.976629 5.701927
-0.966681 1.434848 5.752021
-0.155648 1.872511 5.550158
-1.819711 -1.036206 5.708366
-1.889594 -0.958937 5.716971
1.572787 -0.417639 5.813824
1.076087 1.730422 6.007195
-1.871035 -0.878647 5.779521
1.584062 -0.341309 5.826847
0.101738 1.963528 5.502905
-0.552252 1.555083 5.894367
1.602303 -0.264281 5.857807
-1.795630 -0.674637 5.931090
-1.620429 -0.264691 5.937161
0.288590 1.916231 5.659358
-0.507482 1.579468 5.847924
-0.758835 -2.049055 6.098879
-1.385926 0.394740 5.735925
1.538482 0.664691 5.678400
0.401943 1.848691 5.885308
-1.545442 0.030152 5.821035
-0.748669 -2.174992 5.996414
-1.729608 -0.448434 5.973661
-0.453853 1.594560 5.823333
0.501088 1.890276 5.813177
-1.675563 -0.393112 5.953169
0.617763 1.856753 5.904915
-0.287010 -2.201741 5.598502
1.475920 0.794703 5.677412
-1.305944 1.047973 5.642533
1.453561 0.876814 5.738223
0.939951 1.899660 5.844841
1.010499 1.807979 5.975657
1.438034 1.321602 5.642478
1.170888 -1.343591 5.994355
-1.122448 -1.954000 6.091613
-0.461406 -2.157191 5.892067
0.329123 -1.894698 6.047833
-1.515823 0.090477 5.798207
1.245642 -1.247766 5.947320
-1.161141 1.238662 5.775357
-1.498346 0.123027 5.790661
0.392084 -1.881696 6.023456
-0.457949 -2.155877 5.891412
-1.477143 0.161176 5.773475
1.347445 1.412213 5.778315
0.483478 -1.864738 6.033578
1.668390 -0.147306 5.893544
-0.423551 -2.173875 5.827506
1.277711 1.465040 5.857594
-1.457844 0.204669 5.776447
-1.146600 1.247707 5.794039
-0.394967 1.623516 5.793786
-0.399087 -2.231979 5.721814
1.269333 1.474570 5.864916
1.675931 -0.043131 5.885532
-1.453684 0.210145 5.774716
0.561726 -1.846617 6.039006
1.257400 -1.233777 5.943110
1.246211 1.492540 5.914718
-1.465362 -1.028591 6.210142
-0.377850 1.673239 5.733326
1.672729 0.054008 5.920690
-1.124251 -1.946676 6.100007
1.325399 -1.135017 5.947538
-1.516903 -0.946618 6.207917
0.605637 -1.849740 6.067082
1.192324 1.508907 6.007056
-1.444997 0.222736 5.765982
1.368695 -1.070058 5.953671
-0.364300 1.738486 5.656868
0.711700 -1.808501 6.027374
1.146931 1.628476 6.001884
-1.138672 1.289452 5.778337
-1.423621 -1.141838 6.148289
-1.444517 0.223291 5.766180
1.379660 -1.051731 5.950623
-1.673399 -0.680996 6.037707
0.758067 -1.755845 5.971934
-1.459128 -1.036908 6.210650
-1.690887 -0.568622 6.039667
1.117736 1.643702 6.020790
-1.432631 0.240657 5.763978
0.781012 -1.741150 5.973773
1.446617 -0.953292 5.946773
-1.136763 1.302815 5.771287
-0.331703 1.780244 5.625554
1.668088 0.077828 5.924043
-1.404796 -1.198735 6.130435
-1.428201 0.247112 5.764461
-1.046118 1.371729 5.771666
1.453413 -0.943292 5.946942
-1.419061 0.259850 5.766528
0.819483 -1.711847 5.969047
-1.687563 -0.484526 6.001885
-1.659411 -0.877867 6.027589
-1.213148 -1.855967 6.140837
1.680475 0.114640 5.955364
1.494412 -0.862502 5.937204
-1.221366 -1.840106 6.148735
-1.687443 -0.483252 6.001019
0.881488 -1.648309 5.893159
-1.391256 0.294106 5.776623
-1.658240 -0.825945 6.025551
1.704526 0.198519 6.012600
-0.254161 1.816933 5.608289
0.949681 -1.579106 5.871296
-1.060526 -2.007305 6.065312
-1.375174 0.333715 5.774029
-1.018499 1.383310 5.775190
-1.569894 -1.622103 5.815145
-1.648018 -0.796902 6.038379
-0.971861 -2.039039 6.066918
1.697806 0.279732 6.018804
1.513612 -0.801535 5.929796
-0.908873 1.445645 5.799613
-1.659566 -0.753069 6.029339
-1.546846 -1.556282 5.852720
1.671742 0.373067 6.003571
-1.309900 -1.811393 6.081600
-1.373678 0.347212 5.769370
-0.846056 1.462700 5.836261
-1.674454 -0.682183 6.035735
-1.540420 -1.538471 5.861899
-1.443845 -1.804946 5.945976
1.641103 0.442661 5.972837
-0.806210 1.474413 5.856211
-1.514928 -1.467694 5.891896
-1.480099 -1.818359 5.888747
0.956936 -1.572024 5.877386
1.607827 0.548834 5.978457
-0.706954 1.506768 5.896021
-1.538568 -1.758835 5.851079
-1.661037 -0.395558 5.955577
-1.435197 -1.335135 6.024277
-1.376410 0.351861 5.766158
1.031421 -1.486360 5.954273
-1.656682 -0.381264 5.952242
1.595267 0.561769 5.960910
-1.569800 -1.671272 5.818310
1.078677 -1.437314 5.998222
-1.381654 0.365467 5.758524
-0.626794 1.521761 5.922313
1.566262 0.607372 6.064880
-1.662882 -0.312227 5.918003
1.110700 -1.403614 6.002940
1.548909 0.642574 6.144796
-0.172023 1.845350 5.593089
-1.378487 0.399705 5.748943
-0.527759 1.533532 5.944375
1.471057 0.761819 5.968641
-1.611449 -0.116889 5.878100
-0.787093 -2.146697 6.038246
-1.379855 0.411821 5.744078
-1.604684 -0.100542 5.874853
1.432911 0.984706 5.761309
-1.367404 0.506211 5.724116
-0.867114 -2.100703 6.017793
-0.549211 1.531265 5.942569
1.442107 1.072848 5.736405
-0.711783 -2.229611 5.963615
-0.077521 1.886973 5.571740
-1.350907 0.713264 5.707933
1.138297 -1.377638 6.008747
-0.748811 -2.210271 5.972486
-0.464688 1.544884 5.926052
-1.343161 0.764299 5.701290
-0.398674 -2.231575 5.721861
1.445342 1.094027 5.729954
-0.577601 -2.157331 5.951939
-1.277299 1.084989 5.678270
1.450580 1.162711 5.716716
-0.076313 1.888055 5.570364
-0.575562 1.529630 5.938314
-0.398489 -2.220278 5.738045
1.433671 1.285573 5.675852
-1.225307 1.149830 5.717537
-0.899917 -2.091735 6.007531
0.015916 1.926029 5.551068
1.530399 -0.725722 5.925183
-1.219612 1.174319 5.717194
-0.370528 -2.226930 5.675922
1.349440 1.404144 5.777395
-0.452268 1.551065 5.914232
1.536053 -0.700459 5.923944
0.317918 1.790899 6.012073
1.430560 1.292292 5.677684
-1.137598 1.297296 5.774274
-0.523020 -2.143572 5.913065
-0.361298 -2.218116 5.663077
1.374878 1.339315 5.772272
0.172420 1.895418 5.694262
1.539644 -0.685931 5.923029
-0.268081 -2.136347 5.669181
0.391241 1.737141 6.160028
1.519335 -0.778102 5.927842
-0.135046 -2.025141 5.699783
-0.082558 -1.976856 5.756524
0.015916 1.926029 5.551068
1.560108 -0.614571 5.912165
0.022116 -1.898087 5.815016
0.131109 1.921498 5.622127
1.587879 -0.497457 5.854918
0.221029 -1.881851 5.990293
1.588022 -0.474238 5.843376
1.604856 -0.402599 5.842313
0.597334 1.770935 6.143263
1.629274 -0.314496 5.861746
0.628418 1.796176 6.067141
1.643199 -0.234591 5.880719
0.691970 1.792623 6.099313
0.798881 1.758822 6.142603
1.046273 1.715541 6.019905
1.029780 1.714054 6.036523
0.927877 1.747812 6.097785
0.854763 1.793006 6.078609
0.926955 1.749728 6.096432
-0.958184 -2.043989 6.052982
-1.479605 -1.042495 6.166783
-1.476627 0.173129 5.773859
1.301826 -1.166955 5.951493
-1.464680 0.194572 5.775343
-1.157091 1.242143 5.780498
-1.661563 -0.878101 6.025162
-1.776179 -0.834199 5.907523
1.376387 -1.056631 5.949270
-1.516271 -1.881591 5.744089
1.015347 -1.503559 5.937011
-1.675508 -0.828865 6.005894
-0.408774 1.614540 5.799282
-1.719683 -0.784127 5.963653
1.356017 1.399781 5.763233
1.065153 -1.451209 5.995055
-1.578138 -1.674826 5.787925
1.646812 -0.189034 5.887257
1.346541 1.424175 5.769231
-1.741006 -0.754868 5.951226
-0.887201 1.452624 5.810580
-0.319166 1.801765 5.600701
1.519070 -0.778886 5.928320
1.669606 -0.092047 5.886162
1.257426 1.485250 5.883674
-1.777993 -0.778666 5.914148
-1.678790 -0.684311 6.028955
-0.233407 1.843272 5.569718
-1.581450 -1.610030 5.770230
1.128182 -1.388265 6.015740
1.658619 0.056612 5.900613
1.551359 -0.628829 5.913673
-1.743553 -0.672202 5.958763
-0.579224 1.529705 5.936063
1.572176 -0.502139 5.841001
-0.077375 1.892192 5.560935
-1.672067 -0.406337 5.950973
-1.755885 -0.578883 5.976998
-1.663240 -0.304900 5.916991
-0.451028 1.551940 5.912204
1.103937 1.667279 6.014306
-1.708271 -0.579779 6.022742
-0.881680 -2.097354 6.010553
0.015916 1.926029 5.551068
1.582901 -0.472878 5.838183
-1.230271 1.164221 5.708428
1.654964 0.373820 5.972094
-1.693181 -0.490913 6.001229
1.609717 0.469097 5.858876
-1.198252 1.217900 5.731918
1.578869 -0.408930 5.818817
1.601925 -0.327212 5.838886
-0.347901 -2.220750 5.643383
-1.168066 1.257669 5.754960
1.628332 -0.243462 5.871941
1.013107 1.725331 6.051525
-0.228708 -2.119023 5.648274
1.443624 1.066254 5.733789
-1.540400 -1.476417 5.830372
-0.399599 -2.173107 5.800690
-0.397930 -2.182202 5.789304
-0.398638 -2.213785 5.747391
-0.425103 -2.139675 5.868441
-0.427063 -2.133016 5.880706
-0.424357 -2.147162 5.857230
-0.426437 -2.139590 5.873053
-0.417259 -2.149446 5.843433
-0.410453 -2.145750 5.832150
1.032684 -1.486186 5.957287
1.061750 -1.455717 5.990947
1.080417 -1.436343 6.000669
1.091782 -1.424022 6.001760
1.118880 -1.396302 6.005848
1.126346 -1.389516 6.008623
1.145361 -1.371164 6.008477
1.152169 -1.364241 6.006355
-0.424931 -2.142923 5.864550
-0.400790 -2.165227 5.811975
-0.405478 -2.153820 5.825150
-0.503653 -2.127833 5.919687
0.388057 -1.913420 6.095553
-1.139675 1.130050 5.825573
-0.438023 -2.140595 5.888376
1.229125 -1.269371 5.958214
0.356102 -1.910592 6.126355
-1.472390 -0.972029 6.286784
-1.153310 1.218877 5.791199
-0.370218 1.550162 5.950229
1.677470 0.040486 5.921829
1.261499 -1.229435 5.945613
-0.346128 1.603614 5.875951
1.676173 0.075314 5.935667
-0.430188 -2.145444 5.869874
-1.482421 -0.961505 6.277255
1.326742 -1.134521 5.952022
1.684067 -0.110514 5.901195
0.433151 -1.902148 6.078640
-1.524183 0.077457 5.812866
1.334740 1.424000 5.804623
1.678036 -0.009414 5.899446
1.332509 -1.126236 5.954374
-1.393816 -1.082741 6.324226
-1.480836 0.162514 5.798486
1.259620 1.478423 5.886973
-1.150321 1.229833 5.794600
-1.416371 -1.049263 6.312127
0.341749 -1.917068 6.165775
1.374377 -1.062607 5.958803
1.694008 0.126739 5.978868
-1.139290 -1.927311 6.128336
1.252068 1.492276 5.895177
-1.334227 -1.192071 6.339966
0.463102 -1.899823 6.090617
-1.459579 0.203152 5.786073
1.707003 0.170803 6.010825
1.227767 1.504489 5.940328
1.425316 -0.983098 5.946267
-1.183975 -1.882426 6.165044
-1.121042 1.327486 5.771007
-1.576579 -0.881592 6.128810
-1.434670 0.235135 5.777930
1.448843 -0.950352 5.949973
-1.046484 1.367769 5.777964
0.575382 -1.865598 6.079866
-1.589948 -0.821970 6.111185
-1.066034 -1.998800 6.085583
1.718862 0.214578 6.030194
1.490335 -0.873568 5.942674
-1.433184 0.238083 5.777498
-0.984696 1.393914 5.795021
0.614975 -1.860157 6.082847
-1.083089 -1.993625 6.082315
-1.441598 -1.609677 6.053517
-1.418093 0.252966 5.773249
1.701065 0.303089 6.022855
-0.326008 1.660451 5.805503
-0.982394 -2.031310 6.085551
1.699201 0.308301 6.022294
0.670231 -1.848807 6.083773
-0.938604 1.429720 5.791907
-1.425206 -1.512962 6.082295
-1.414266 0.262660 5.770244
-1.602566 -0.761948 6.105540
1.677448 0.393457 6.012181
1.182235 1.520373 6.014846
-1.390821 -1.397999 6.133632
0.745927 -1.777856 5.995694
-0.847138 1.454377 5.848663
-1.280100 -1.726820 6.210239
-1.398265 0.283497 5.777455
1.128091 1.632815 6.023125
0.801672 -1.734838 5.985954
-0.811009 1.464489 5.869565
-1.405688 -1.703015 6.063679
-1.327101 -1.267838 6.278734
0.808817 -1.728914 5.984851
-0.257549 1.726884 5.762383
-0.712120 1.496807 5.910550
-1.393112 0.289588 5.781237
1.661189 0.462153 6.020465
-1.433468 -1.693277 6.031442
-1.383004 0.300027 5.789992
-1.622193 -0.727678 6.087875
0.869650 -1.668928 5.931276
-1.462758 -1.657019 6.010582
-0.646209 1.512883 5.930291
-1.636251 -0.687869 6.082526
1.660762 0.475976 6.029139
-0.161676 1.795197 5.691223
0.929405 -1.599027 5.862765
-1.364442 0.318892 5.800314
-1.468318 -1.613543 6.011226
1.498111 -0.853082 5.938713
1.637284 0.545830 6.065347
-0.609425 1.520159 5.937373
-1.665385 -0.569024 6.064061
0.946475 -1.582443 5.871621
-1.367407 0.315736 5.798048
-0.155851 1.796546 5.691813
-0.532223 1.527216 5.962984
-1.685679 -0.495345 6.010877
-1.228444 -1.817314 6.191340
-1.363762 0.330962 5.787923
1.597039 0.611009 6.213257
-1.277939 -1.763928 6.183848
-0.435343 1.520813 5.991537
1.533292 -0.715088 5.926278
1.590582 0.617719 6.221382
-1.685293 -0.491091 6.008360
-1.369705 0.325643 5.783488
-0.051418 1.852900 5.656439
1.534684 -0.708969 5.925428
-1.662917 -0.402711 5.957270
-0.820117 -2.122525 6.042332
-1.373674 0.328876 5.779473
-0.838031 -2.117539 6.030048
1.629006 0.558714 6.079441
-1.666532 -0.321151 5.916550
1.540108 -0.686531 5.924580
-0.049779 1.853339 5.657062
-0.668817 -2.213395 5.979150
-1.383256 0.338435 5.772777
1.548201 0.685109 6.262439
-0.694829 -2.228801 5.965486
-1.613666 -0.140154 5.886235
0.040663 1.876740 5.670194
1.518719 -0.782108 5.931968
-0.756649 -2.206827 5.977718
1.461289 0.915736 5.979773
-1.382027 0.341933 5.771972
0.170339 1.835878 5.844069
-1.372234 0.399890 5.759906
-0.928988 -2.073391 6.020846
1.405615 1.146537 5.767579
1.563508 -0.610000 5.913239
0.320674 1.741111 6.171314
-1.373797 0.399713 5.759231
-0.377556 -2.188509 5.742427
-0.552916 -2.135940 5.945342
-1.358045 0.530923 5.745871
1.587219 -0.547382 5.889558
-0.530810 -2.127582 5.932027
-0.307413 -2.138460 5.702501
-1.323126 0.796447 5.729647
1.593896 -0.478997 5.850294
1.409879 1.241618 5.739894
-0.057930 -1.949979 5.905196
-1.253987 1.029114 5.751883
1.387869 1.260795 5.783969
1.103303 1.658829 6.014441
-0.020021 -1.923724 5.937101
1.607099 -0.402235 5.844941
-1.177460 1.059881 5.804959
1.340545 1.420887 5.788374
1.626602 -0.304495 5.861087
0.496622 1.732504 6.263369
0.049856 -1.890772 5.971191
-1.162114 1.234513 5.774935
0.589324 1.761876 6.194834
1.352710 1.381811 5.776162
1.649911 -0.212473 5.889427
0.248995 -1.905901 6.159368
-1.136219 1.296899 5.776095
0.684491 1.796239 6.135340
1.660561 -0.167148 5.891915
0.793519 1.756490 6.166798
0.697747 1.796614 6.135705
0.695194 1.796974 6.134285
0.966717 1.717631 6.058994
0.928898 1.743344 6.074956
0.862312 1.770335 6.115215
1.049363 1.698629 6.020584
-0.462761 -2.155971 5.893413
0.393538 -1.895815 6.052013
1.149301 -1.367104 6.007486
-0.400171 -2.221426 5.737644
-1.123552 -1.951059 6.096021
-1.521383 0.082326 5.809575
1.252044 -1.240293 5.944662
-1.619344 -0.747964 6.083871
-1.216672 -1.850366 6.149571
0.594613 -1.861477 6.078857
-1.450497 0.214349 5.774322
-1.680028 -0.567187 6.049877
1.334306 -1.122985 5.951619
-1.194460 1.124590 5.757461
-1.433156 0.235283 5.775628
-1.162134 1.183434 5.783928
-1.278401 -1.738752 6.198214
1.676899 -0.131135 5.898409
-1.687338 -0.486461 6.003497
1.673807 -0.026305 5.887013
-1.446401 -1.725457 5.999017
0.954895 -1.574597 5.875680
1.496162 -0.858482 5.937171
-0.328147 1.736409 5.690895
-1.153147 1.243653 5.785675
1.124676 1.635691 6.023722
-1.444974 0.222756 5.766003
-0.261885 1.800560 5.633769
-1.473505 -1.608482 6.002968
1.683275 0.117315 5.960451
-1.660722 -0.396207 5.955868
-1.027762 1.373244 5.787079
-0.165897 1.794796 5.689750
-1.507786 -1.546106 5.933530
1.711164 0.201662 6.021024
1.093072 -1.423782 6.006320
1.717644 0.211340 6.028636
-1.407061 0.274905 5.771059
-1.613575 -0.118565 5.879255
-0.730806 -2.220787 5.969125
-0.821781 1.465253 5.857155
-1.366631 0.324351 5.789798
1.699196 0.290617 6.020579
0.015919 1.926026 5.551076
1.673835 0.388062 6.008819
-1.372242 0.333334 5.778024
0.151865 1.872838 5.739455
-0.525473 1.532833 5.946210
-1.376344 0.412022 5.746486
-1.373435 0.404798 5.758225
-1.383098 0.340224 5.772235
1.592387 0.609301 6.208077
-1.236295 1.084954 5.729909
0.790197 1.754456 6.171165
0.945245 1.735107 6.063087
1.438116 1.210879 5.717155
0.856342 1.772903 6.116102
1.428848 1.284624 5.686806
0.927347 1.749519 6.096654
1.035698 1.711824 6.031549
-0.466304 -2.118713 5.918144
-0.457679 -2.117960 5.917025
-0.472581 -2.112442 5.923372
-0.525443 -2.110167 5.937982
-0.534175 -2.115848 5.939455
-0.472560 -2.112410 5.923398
-0.483722 -2.108098 5.927911
-0.529208 -2.111808 5.938525
-0.426623 -2.107338 5.907891
-0.415027 -2.124110 5.860575
1.036625 -1.482248 5.966024
1.064436 -1.454209 5.999229
1.068836 -1.449768 6.001461
1.092097 -1.425750 6.008654
1.117300 -1.399030 6.010786
1.119637 -1.396701 6.010909
1.145697 -1.372553 6.015694
1.157032 -1.361229 6.012257
-0.447560 -2.122060 5.910982
-0.454773 -2.117928 5.916226
-0.473795 -2.114090 5.923217
-0.425202 -2.140291 5.866947
-0.426511 -2.134282 5.880168
-0.521667 -2.108272 5.937376
-0.555655 -2.119916 5.954032
-0.550395 -2.116696 5.949218
-0.539571 -2.113469 5.940357
-0.495660 -2.090766 5.930727
-0.445025 -2.095874 5.917412
-0.417184 -2.100093 5.895585
1.031138 -1.489115 5.960202
1.051398 -1.467313 5.987911
1.066855 -1.452412 6.002923
1.092012 -1.427278 6.013519
1.113605 -1.404170 6.016534
1.123806 -1.394022 6.017669
1.149974 -1.369427 6.019065
1.158204 -1.361342 6.016888
-0.548621 -2.121334 5.941650
-0.502750 -2.103710 5.929231
-0.552499 -2.118383 5.949449
-0.518957 -2.105142 5.933584
-0.537049 -2.111733 5.939185
-0.525379 -2.110069 5.938064
1.062977 -1.455727 5.998523
0.102116 -1.918830 6.170716
-1.441486 0.227965 5.788898
-1.372978 -1.589003 6.166731
-1.089090 -1.991474 6.096753
1.231052 -1.266928 5.967734
0.287802 -1.956583 6.357628
-1.377264 -1.515133 6.179011
-1.394451 0.289601 5.780740
-1.138090 -1.946189 6.117285
-1.128366 1.302541 5.785013
0.331555 -1.944011 6.221921
-1.341863 -1.367250 6.253552
-1.049337 -2.008034 6.095277
-1.071579 1.339091 5.809736
1.254184 -1.236590 5.955935
-1.381349 0.297138 5.793134
-1.386809 -1.104756 6.354805
0.392359 -1.943076 6.179145
-1.320216 -1.276941 6.336947
-1.403395 -1.078135 6.345173
-1.070205 1.340357 5.808743
-1.299263 -1.638301 6.250213
0.456732 -1.926151 6.136637
-1.394502 0.284749 5.790301
-1.349550 -1.183149 6.368543
-1.323247 -1.629062 6.220770
-0.040805 1.761139 5.848774
1.684122 0.080652 5.949582
0.459477 -1.926698 6.138932
-0.987397 1.379749 5.815550
-1.364687 -1.598346 6.177329
-1.391405 0.287019 5.819386
1.310651 -1.158573 5.958544
-1.367883 -1.595160 6.173108
0.010280 1.786018 5.843774
-1.471906 -0.980771 6.298652
0.540059 -1.891454 6.114626
-0.899966 1.427401 5.839272
-1.183618 -1.876399 6.185505
1.704952 0.147448 6.001002
-1.384149 0.291010 5.843427
0.611073 -1.866692 6.088271
-1.538672 -0.881555 6.203620
0.080321 1.791023 5.896212
-1.225896 -1.839334 6.186247
1.723665 0.227216 6.033708
1.345971 -1.109015 5.971490
0.701989 -1.837449 6.071700
0.244525 1.715185 6.204311
-0.880581 1.432080 5.851693
-1.236298 -1.780808 6.238678
-1.569927 -0.815712 6.144003
0.765292 -1.761618 5.990036
1.676148 0.410664 6.017972
-0.778440 1.468397 5.894507
0.269031 1.712099 6.239691
1.384646 -1.046025 5.964045
-1.290689 -1.693555 6.238407
1.676180 0.412138 6.018520
-1.382241 0.292042 5.845351
0.766878 -1.760637 5.990082
0.836999 -1.699886 5.969231
0.308752 1.722874 6.256480
0.843486 -1.694010 5.964956
-0.695260 1.490374 5.937484
0.909906 -1.617798 5.870022
0.399249 1.707470 6.309797
-1.572875 -0.806559 6.140565
1.699971 0.324748 6.025102
0.937487 -1.588405 5.870105
-1.370427 0.305227 5.837219
-0.673651 1.495479 5.946290
1.186619 1.511066 6.015692
-1.598211 -0.758188 6.115722
-0.775508 -2.163553 6.025659
-0.590223 1.510820 5.971386
1.422512 -0.985632 5.955127
1.652163 0.519197 6.058274
-0.512132 1.515375 6.000450
-1.368694 0.306601 5.836184
-1.631085 -0.684148 6.091955
-0.786602 -2.142798 6.044348
-0.434105 1.514878 6.016608
-1.342931 0.330780 5.833042
1.649031 0.555749 6.111407
-0.713466 -2.205953 5.984639
-0.362414 1.541898 5.979714
-1.342437 0.332253 5.833838
1.432117 -0.971594 5.957138
1.641155 0.580548 6.149399
-0.853732 -2.110625 6.021332
-1.664776 -0.574579 6.065648
-0.925734 -2.073752 6.021417
-1.344263 0.339575 5.816351
-0.355410 1.547142 5.972720
1.488601 -0.876462 5.954146
-0.959146 -2.054181 6.044686
1.168583 1.569990 6.013699
-1.687257 -0.509858 6.017142
-1.347096 0.344963 5.809191
0.985641 1.691008 6.072544
-1.687288 -0.509859 6.017104
-0.590647 -2.158881 5.969892
1.621719 0.602863 6.191569
1.493009 -0.866015 5.952371
-0.557103 -2.125596 5.949089
-1.338287 0.415833 5.815824
0.939087 1.729041 6.060300
1.683949 -0.087917 5.897341
1.617066 0.631760 6.285957
1.678910 0.000894 5.905728
-0.557416 -2.123257 5.953075
1.127782 1.631645 6.024086
-1.095248 0.871291 6.007676
-1.686528 -0.507149 6.016696
1.613759 0.645778 6.334675
1.096845 1.662482 6.014420
1.517976 -0.786909 5.941037
-1.678770 -0.427869 5.956078
1.592749 0.674828 6.383627
-1.131885 1.202454 5.831526
1.534878 -0.710068 5.933293
-1.134983 1.238912 5.817805
0.503612 1.744836 6.253158
-1.677260 -0.425201 5.956098
1.365604 1.061121 5.918662
1.552203 -0.634301 5.921729
0.586098 1.763739 6.201262
-1.657756 -0.338768 5.927985
1.365401 1.077246 5.904598
-1.055617 0.910258 6.007610
1.556928 -0.618682 5.916231
0.682576 1.789267 6.146096
1.510281 0.767683 6.366714
-1.574570 -0.093851 5.881117
-1.072063 1.081228 5.966947
1.577821 -0.477155 5.837685
0.790721 1.757662 6.160351
-1.511390 0.069396 5.835881
-1.126379 1.198939 5.842917
-1.446429 0.218992 5.791812
1.585291 -0.390212 5.826917
1.356777 1.267586 5.815369
0.909500 1.749995 6.085963
1.344872 1.375413 5.796196
1.618590 -0.270601 5.867833
0.881081 1.758332 6.104662
1.329676 1.400099 5.833907
1.625106 -0.254013 5.877099
1.290314 1.421118 5.888039
-0.416876 -2.158999 5.764756
1.654468 -0.175512 5.895017
1.251236 1.475870 5.920277
-0.274887 -2.084887 5.838421
1.221608 1.496072 5.962880
-0.308943 1.611843 5.899095
-0.236877 1.696665 5.832975
-0.161017 1.734833 5.814382
0.115095 -1.918511 6.147631
-1.483253 -0.966565 6.278125
0.281622 -1.954591 6.332522
-1.165588 -1.896740 6.169935
-1.378862 -1.593306 6.155770
0.338916 -1.918307 6.172329
1.426383 -0.980423 5.954497
-1.541739 -0.880256 6.196981
-1.065215 -1.998497 6.093043
-1.574174 -0.819815 6.136252
-1.003713 -2.022319 6.096060
-1.126637 1.307915 5.784383
-0.037791 1.793450 5.783385
-1.480415 0.158800 5.799063
1.679583 0.078153 5.941802
-1.296542 -1.689877 6.223897
-0.964640 1.405477 5.798195
1.695902 0.130258 5.982693
-1.474350 0.178987 5.797936
1.534231 -0.711438 5.930364
0.653836 -1.853488 6.086013
0.077041 1.807244 5.855025
-1.633275 -0.684883 6.088251
-1.447382 0.226036 5.787680
0.238262 1.722260 6.181539
-1.441419 -1.655632 6.040138
1.698990 0.311000 6.022323
-1.664847 -0.574304 6.065422
0.732400 -1.800276 6.022067
1.177057 1.529717 6.020309
-1.232702 -1.801977 6.211941
1.159906 1.608851 5.995375
1.558595 -0.616785 5.915102
-1.673801 -0.419630 5.956397
-0.355827 1.546991 5.972862
-1.366011 0.308794 5.836121
0.981783 1.693666 6.071403
0.806192 -1.731375 5.985819
1.061443 1.690113 6.013733
-0.829852 -2.122839 6.034697
-1.659231 -0.337158 5.926125
1.658887 0.486985 6.034755
-0.672738 -2.211595 5.983011
-1.606511 -0.145074 5.889761
0.696815 1.795682 6.138000
0.840055 -1.696592 5.966206
-0.949675 -2.062629 6.030009
1.653177 -0.193226 5.892875
-1.375689 0.375042 5.777329
1.615602 0.630793 6.281344
-0.555191 -2.138653 5.949413
1.367364 1.084419 5.895346
-1.360739 0.502888 5.760072
-0.529995 -2.118399 5.934626
1.251338 1.486917 5.905515
-1.274213 0.870519 5.782913
-0.438874 -2.128053 5.900021
1.403166 1.239934 5.746342
-1.152609 0.990066 5.872912
1.356476 1.325945 5.803029
1.344335 1.402640 5.789559
1.038333 -1.480900 5.978061
1.071955 -1.447929 6.011632
1.104116 -1.416168 6.023804
1.121579 -1.398105 6.027452
1.124080 -1.395856 6.028806
1.149282 -1.371801 6.026417
1.138208 -1.383338 6.032582
1.139222 -1.382340 6.032257
1.142051 -1.379656 6.031717
1.139263 -1.382295 6.032211
1.166506 -1.354393 6.019626
1.033455 -1.486455 5.970274
1.122655 -1.396917 6.026810
1.138838 -1.382210 6.029821
1.044580 -1.472970 5.989383
1.069529 -1.448672 6.011622
1.105971 -1.415620 6.032216
1.106365 -1.415172 6.031988
1.135608 -1.386358 6.036719
1.147111 -1.375390 6.035072
1.164045 -1.358079 6.026265
1.107670 -1.412883 6.027346
1.122005 -1.398007 6.029352
1.136867 -1.384586 6.032422
-0.582840 -2.105643 6.035256
-1.374545 -1.188886 6.380944
-0.536161 -2.085661 5.952088
1.210910 -1.296522 5.996397
0.244252 -1.961957 6.571252
-1.421685 0.249140 5.763106
-0.479094 -2.113415 5.882267
-1.318052 -1.591263 6.247295
-1.409158 -1.096005 6.353401
0.290651 -1.980300 6.493724
-1.393756 0.293645 5.800039
-1.348537 -1.537918 6.224650
1.258971 -1.226297 5.960065
-1.411995 -1.087487 6.350192
0.301074 -1.980856 6.472067
-1.386560 0.259368 5.900908
-1.448987 -1.007496 6.326001
-1.204454 -1.869724 6.193110
-1.115312 1.267629 5.865089
1.673040 0.097042 5.940957
1.325351 -1.133545 5.982409
-1.388389 0.264480 5.904106
-1.052883 1.320827 5.867441
1.709584 0.171394 6.017762
0.448113 -1.951328 6.196957
-1.323337 -1.463720 6.300824
-1.224181 -1.841290 6.199778
1.333997 -1.121953 5.987156
-1.517021 -0.893960 6.250455
0.459131 -1.943469 6.180003
-0.989575 1.341822 5.884043
-1.382080 0.259116 5.926200
-1.236690 -1.783879 6.239625
1.369317 -1.066905 5.991538
-0.978299 1.353800 5.872110
0.005568 1.675560 6.067216
1.719173 0.251143 6.039412
-1.397166 0.258077 5.904379
0.500025 -1.923978 6.153032
1.389866 -1.031271 5.980513
0.155618 1.664396 6.253530
-0.909693 1.411484 5.852781
-1.308330 -1.385709 6.371056
-1.394991 0.258352 5.908123
-1.286819 -1.699985 6.250353
0.587345 -1.880816 6.108305
1.430831 -0.967343 5.968930
-0.839869 1.433751 5.888835
0.190480 1.659636 6.299463
1.688144 0.358636 6.025074
1.479995 -0.889997 5.963306
-1.145707 -1.945983 6.126180
-1.389723 0.264616 5.907490
0.645614 -1.863514 6.088058
1.662241 0.452707 6.018859
-1.336787 -1.308526 6.385380
0.252948 1.681967 6.313723
-1.367581 0.279056 5.927112
-0.782251 1.449089 5.922823
0.694088 -1.844266 6.082687
1.505758 -0.832687 5.962806
1.649564 0.527581 6.064648
-1.348445 0.298324 5.937463
-1.069960 -1.999450 6.098489
0.287716 1.708951 6.299928
1.650397 0.538947 6.086005
-0.724444 1.464246 5.955730
0.738361 -1.794265 6.017327
1.517470 -0.792603 5.959516
-1.314009 0.323176 5.970124
-1.289215 -1.613884 6.284235
1.640711 0.595292 6.193937
0.300261 1.716622 6.294162
1.536576 -0.699907 5.950056
-0.621597 1.482894 6.009509
-1.313668 0.324004 5.969543
0.775686 -1.751403 5.986537
0.409032 1.709943 6.323436
1.547760 -0.646590 5.938649
-0.609824 1.485777 6.011677
-0.742812 -2.175270 6.006603
-1.289588 0.373427 5.943815
0.816301 -1.719839 5.983778
1.554876 -0.606839 5.918180
1.627194 0.646226 6.306964
-0.761013 -2.158977 6.030680
-0.465525 1.503709 6.060328
1.623440 0.651528 6.317816
-1.222626 0.482240 5.982112
1.184683 1.504316 6.033367
-0.465768 1.503889 6.059679
0.837020 -1.693420 5.959324
-0.932080 -2.070164 6.023059
-1.552722 -0.829169 6.174693
1.179217 1.509330 6.039130
-0.957854 -2.051494 6.049776
-0.453428 1.504305 6.065179
0.887853 -1.627343 5.873123
1.614628 0.690212 6.474299
-1.211322 0.503925 5.988600
1.134658 1.627648 6.019703
-0.793147 -2.112626 6.058379
-0.514566 1.500709 6.041462
0.943741 -1.573345 5.871803
1.553401 -0.496621 5.828615
-0.821819 -2.094210 6.053906
1.510522 0.767324 6.536026
-1.200616 0.528294 5.992694
1.006896 1.687630 6.065941
-0.376491 1.511626 6.066796
-1.199314 0.564087 5.985161
0.998119 1.689417 6.069245
1.569863 -0.372408 5.843474
-0.739948 -2.179321 6.001317
0.984854 -1.534439 5.915973
1.441175 0.821886 6.416520
-1.223773 0.536526 5.952437
1.608833 -0.260932 5.890775
-0.642079 -2.150947 6.028089
0.910307 1.746227 6.083336
1.304540 0.989738 6.103031
-1.243477 0.512450 5.926725
0.900425 1.749134 6.096095
1.624911 -0.235850 5.903621
-1.618306 -0.715699 6.100233
1.611105 0.695635 6.502397
-0.613580 -2.132165 6.040435
1.646007 -0.166980 5.897333
1.113429 1.639949 6.028122
-0.586890 -2.106241 6.038144
-1.189165 0.626440 6.002783
1.633635 0.609499 6.222404
-1.624018 -0.694073 6.098551
0.500282 1.748360 6.249259
-1.094093 0.780897 6.126285
-1.010635 -2.018081 6.100695
0.605013 1.770033 6.192175
-1.588391 -0.765121 6.130902
1.303789 1.301158 5.869975
0.705709 1.783978 6.141710
-1.034098 0.861008 6.106689
0.608253 1.771531 6.189927
-1.664256 -0.589677 6.066341
1.291736 1.348414 5.895412
0.809847 1.757621 6.157387
-1.027336 1.003740 6.074846
-1.669467 -0.550052 6.055600
1.263338 1.390989 5.975691
-1.057782 1.093514 6.017288
-1.687642 -0.520621 6.021646
1.252299 1.447252 5.950581
1.248245 1.465983 5.941738
-1.677715 -0.427823 5.961316
-1.648526 -0.388757 5.971052
-0.299505 1.560040 6.013271
-1.638080 -0.348708 5.956426
-0.224455 1.628609 5.966229
-1.569069 -0.245175 5.970230
-0.199775 1.635223 5.976452
-0.120880 1.662770 5.983606
-1.534777 -0.132702 5.923804
0.311051 -1.983086 6.364128
0.398192 -1.976998 6.273822
-0.323297 -2.027334 6.009763
0.328712 -1.958264 6.279938
-1.128963 1.260195 5.824365
-1.409058 -1.094769 6.351511
-1.383245 0.264966 5.914760
-1.070189 1.340342 5.808777
0.144425 1.677959 6.213097
0.391885 -1.951376 6.199138
-1.354985 -1.583999 6.197470
1.675641 0.411614 6.017984
1.383666 -1.047132 5.971588
0.454405 -1.943176 6.178006
-1.123575 -1.974364 6.101850
-0.896966 1.429233 5.839028
0.459621 -1.927666 6.141262
-1.060247 -2.003830 6.096313
1.640241 0.586718 6.166130
-1.594270 -0.761215 6.121354
1.492696 -0.866743 5.952969
-1.369174 0.305668 5.844477
-0.747143 1.462252 5.935464
1.188914 1.507005 6.018144
0.506839 -1.913963 6.137132
-1.686774 -0.508736 6.017196
1.594036 0.673692 6.385446
0.602666 -1.869818 6.092587
-1.306352 -1.625148 6.246863
-0.622668 1.484964 6.004519
-1.316412 0.321864 5.966150
-1.687494 -0.513991 6.019021
1.009965 1.687570 6.063855
1.431378 0.839094 6.321792
0.672853 -1.854665 6.089466
0.908754 1.747739 6.086253
-0.463004 1.503531 6.059916
0.766890 -1.760647 5.990118
1.102511 1.651999 6.021619
-1.650104 -0.345958 5.939127
-1.339597 0.334013 5.847540
-0.777730 -2.139437 6.047420
-0.356008 1.548850 5.971397
-1.565981 -0.092115 5.884468
-0.881371 -2.096253 6.015745
-1.507292 -0.002396 5.870817
1.249599 1.463558 5.940362
-1.227601 0.483316 5.971736
0.695899 1.789299 6.137164
-1.000600 -2.022278 6.095850
0.798150 1.754657 6.164260
-0.805714 -2.110015 6.055180
-0.298578 1.588570 5.952703
0.886064 1.757419 6.102382
-0.227621 1.635152 5.951969
-1.281565 0.461240 5.878420
-0.619540 -2.159645 6.015925
1.046495 -1.466745 5.995603
1.074582 -1.442276 6.021693
1.053875 -1.459847 6.000794
1.085431 -1.433982 6.031721
1.077273 -1.440586 6.021920
1.113934 -1.409387 6.044679
1.079021 -1.439320 6.022974
1.134291 -1.388198 6.045130
1.144040 -1.378034 6.041442
1.171495 -1.350101 6.029618
1.190868 -1.324685 6.019096
1.076192 -1.441711 6.019801
1.139460 -1.382928 6.037751
1.177061 -1.344457 6.024394
1.053017 -1.456935 6.007756
1.089136 -1.430200 6.045057
1.114330 -1.408469 6.056946
1.125384 -1.395647 6.051289
1.155135 -1.362535 6.036167
1.159123 -1.357588 6.034198
1.192009 -1.306919 6.006466
1.051650 -1.460124 6.003900
1.075467 -1.441149 6.024807
1.072478 -1.443690 6.020144
1.156482 -1.361768 6.035990
-1.213489 -1.849962 6.200036
1.466634 -0.892109 5.957603
-1.685491 -0.533530 6.032251
-1.241912 -1.768335 6.261179
0.549538 -1.897531 6.131934
1.570106 0.745824 6.609499
-1.053013 0.594343 6.196672
0.622378 -1.866549 6.091987
-1.145347 -1.935647 6.132287
-1.686307 -0.529043 6.029651
-1.361510 -1.274385 6.402629
0.909667 1.746782 6.089988
0.674723 -1.850084 6.094701
1.512781 -0.781693 5.995715
-1.688344 -0.451084 5.981791
-1.381029 -1.214629 6.397710
0.843881 1.763493 6.127632
1.517614 -0.752415 5.996360
-1.180979 -1.889642 6.184777
0.718390 -1.809897 6.039412
-1.055118 0.700266 6.181700
1.008726 1.693667 6.061565
-1.627060 -0.373297 6.005262
-1.083532 -1.985322 6.101566
-1.308945 -1.561784 6.276259
1.106822 1.620577 6.058754
-0.994344 0.754552 6.248697
1.662488 0.117829 5.930603
1.016660 1.699813 6.055569
-1.281796 -1.686818 6.278736
-1.315155 -1.503252 6.301002
-1.626935 -0.367224 6.001774
-1.283548 -1.640127 6.290529
1.699311 0.179818 6.009328
0.769716 -1.752366 5.993485
-1.308888 -1.431194 6.358658
1.535821 0.774523 6.614078
-0.984514 0.856265 6.257385
0.422442 1.722202 6.307399
1.707716 0.204090 6.026805
-1.340568 -1.346001 6.386136
-1.003826 -2.022848 6.086036
0.508569 1.755718 6.234932
0.799144 -1.728818 5.993847
-1.042460 -2.006876 6.100258
1.703105 0.276363 6.038185
1.631339 0.650558 6.317160
0.615856 1.772517 6.188989
-1.610088 -0.282465 5.933587
-0.984709 0.944668 6.259413
-1.001111 -2.023709 6.085382
-1.405240 -1.123441 6.363127
0.819560 -1.708001 5.981352
1.628928 0.677308 6.370109
1.698871 0.291455 6.035098
0.698305 1.784038 6.144186
-0.753876 -2.060280 6.108852
-1.438825 -1.024358 6.331469
-1.610207 -0.180685 5.900476
0.865374 -1.630890 5.880371
-0.828153 -2.072352 6.060620
1.669622 0.394377 6.012590
-1.461641 -0.978161 6.321399
-0.979015 1.065001 6.240626
0.928282 -1.565838 5.857423
1.643562 0.503252 6.015283
-0.754838 -2.067447 6.102691
1.636552 0.613865 6.239585
1.646736 0.559475 6.121021
-0.990244 1.211518 6.105492
-0.950084 -2.039913 6.069825
-1.487513 -0.939361 6.296514
1.626716 0.685359 6.388138
0.938229 -1.553224 5.861526
1.636562 0.607045 6.225363
-0.860031 -2.077799 6.036920
0.809447 1.755455 6.162049
-0.976699 1.222391 6.103242
-1.535671 -0.852826 6.211178
-0.731435 -2.099241 6.060235
1.609870 0.715813 6.470924
1.255522 1.038573 6.206125
0.316395 -2.000889 6.433986
-0.663428 -2.103620 5.971302
1.256878 1.162543 6.126639
1.500626 0.808874 6.654733
1.199993 -1.290405 5.993936
-0.928177 1.278429 6.050045
-1.568333 -0.784397 6.158788
1.265343 0.995787 6.221760
-0.568400 -2.092009 5.984588
1.210705 1.477322 6.003744
-1.614545 -0.714169 6.108689
0.307475 -2.002768 6.471163
1.235125 -1.231659 5.963998
-0.382130 -2.006661 6.114040
1.245902 1.348105 6.018276
-0.893777 1.322019 6.008366
1.308762 -1.128307 5.989014
-1.665893 -0.620962 6.063216
1.244238 1.388415 6.017911
1.180890 1.517255 6.043314
0.371167 -1.999614 6.367455
1.319795 -1.112008 5.995798
-0.869331 1.349218 5.985762
1.361650 -1.058333 5.992594
0.438703 -1.974335 6.252930
-0.797583 1.422366 5.947373
1.368898 -1.046264 5.986738
-0.377952 1.497238 6.153768
1.406229 -0.993883 5.973855
-0.238555 -1.936768 6.219366
-0.298502 1.508329 6.157549
1.460604 -0.900622 5.953848
-0.170367 1.555942 6.144793
-0.786082 1.425013 5.955376
-0.058004 1.563717 6.218642
0.105788 -1.980875 6.562660
1.531251 -0.688289 5.985350
-0.672527 1.442255 6.043900
0.059725 1.584743 6.303089
0.201039 -1.988677 6.598959
-0.644567 1.446515 6.064829
1.539571 -0.614342 5.926816
0.104747 1.589787 6.344587
-0.556728 1.472300 6.089400
0.277340 -2.005813 6.565118
1.556261 -0.476919 5.889897
0.162379 1.618638 6.362479
-0.486754 1.493369 6.099374
0.250823 1.685535 6.319045
1.570411 -0.384708 5.898269
0.462849 -1.955690 6.210307
-0.444207 1.495826 6.112427
1.589872 -0.329012 5.918498
0.280519 1.709897 6.311483
0.487494 -1.938479 6.178079
1.601412 -0.262188 5.902775
0.311592 1.722356 6.305264
1.575705 -0.365023 5.905632
1.608550 -0.239076 5.903301
1.179085 1.532444 6.035095
1.108220 1.619266 6.058638
1.625088 -0.149699 5.877043
-1.459383 -0.009143 6.051824
-1.338042 0.109193 6.173181
-1.335846 0.123478 6.166638
-1.307338 0.227704 6.129866
-1.289200 0.282237 6.116557
-1.245200 0.306866 6.209824
-1.235283 0.319355 6.212970
-1.186510 0.376709 6.228000
-1.167632 0.398051 6.229864
-1.109460 0.472813 6.208881
-1.088759 0.507464 6.201586
-1.675355 -0.425311 5.962395
-1.319642 -1.541038 6.270779
-1.116628 0.660684 6.098725
1.535141 -0.693530 5.968573
1.708224 0.194708 6.024926
-1.199775 0.573481 5.981950
-1.317807 -1.469749 6.313744
-1.208210 -1.868687 6.193534
-1.623253 -0.364650 5.999500
0.937051 -1.560013 5.861159
1.613360 0.697279 6.528682
1.707096 0.269433 6.039890
-1.309329 -1.397561 6.371521
1.573754 -0.362966 5.896170
-1.265472 -1.733804 6.273253
1.624608 0.665035 6.339630
-1.335418 -1.334464 6.386574
-1.098408 0.767371 6.128876
1.006860 1.686200 6.067388
1.636652 0.607399 6.225641
1.110290 1.629732 6.044257
1.649391 0.542350 6.090621
-0.742431 -2.174888 6.006805
1.273348 1.181905 6.044285
-1.444252 -1.012492 6.330824
0.415854 1.719121 6.314467
-0.999586 -2.023894 6.088919
1.277606 1.325354 5.945631
-1.382083 0.129474 6.081599
0.503622 1.751586 6.242899
-0.939563 -2.065445 6.027243
-0.972281 1.342667 5.897952
1.255624 1.397271 5.989791
0.607162 1.771590 6.188709
-0.749833 -2.144997 6.041789
-1.621631 -0.697222 6.101591
-0.853825 -2.082874 6.040331
-1.385794 0.263133 5.917164
-1.660945 -0.593306 6.069691
-0.662456 1.445996 6.047124
-0.684093 -2.158057 6.018434
-0.078188 1.595521 6.142792
-0.551689 1.494573 6.037061
-0.711715 -2.146404 6.024154
-0.588633 -2.104880 6.039150
-0.464871 1.503823 6.060684
0.058588 1.589373 6.292519
0.247948 1.679463 6.319910
0.298187 1.715016 6.302670
0.511974 -1.912629 6.139599
-1.686907 -0.560210 6.050166
0.618336 -1.861973 6.096968
1.430624 -0.875487 5.908392
-1.184144 -1.865617 6.191437
1.555088 0.777129 6.694573
1.478427 -0.788428 5.977962
0.666195 -1.847003 6.108749
-1.026340 0.571421 6.295566
-1.199511 -1.855522 6.191758
-1.674521 -0.480894 6.054264
1.502262 -0.739453 6.005098
1.040826 1.702615 6.073505
1.540505 0.806731 6.759620
1.176073 1.251341 6.226530
-1.115351 -1.929374 6.139091
0.685548 -1.826362 6.077165
-1.656377 -0.398601 6.019942
1.174903 1.437862 6.098183
-0.973425 0.687706 6.300814
0.922412 1.724186 6.131023
1.519952 -0.696216 6.012395
-1.231419 -1.766050 6.262683
1.635887 0.644126 6.312444
1.116549 1.455205 6.167958
-0.967590 0.718761 6.299056
-1.273594 -1.721177 6.264425
0.805481 1.753607 6.166576
1.529205 -0.614337 5.950461
-1.356154 -1.313613 6.395257
-0.964900 0.830481 6.306885
-1.281304 -1.639771 6.292981
-1.648304 -0.375758 6.014587
1.572741 -0.499766 5.970177
0.775157 -1.748241 6.025073
-1.383498 -1.225010 6.400789
-1.646372 -0.307545 5.956265
1.591760 -0.409701 5.974522
0.918575 1.728273 6.129410
1.630533 0.684678 6.388628
-1.371456 -0.129815 6.269315
-0.972915 -2.018470 6.082539
0.789474 -1.741615 6.033299
-0.961647 0.863163 6.319397
1.596001 -0.381717 5.975369
1.610406 0.722587 6.481266
1.083659 1.697576 6.034949
-0.961645 0.872986 6.320473
1.645341 0.165576 5.913045
1.621804 0.705011 6.428447
-1.022110 -1.994176 6.098876
1.600146 -0.272767 5.924581
-1.282013 -1.663468 6.282283
0.829904 -1.686081 6.007523
-1.066102 -1.966454 6.100994
1.637502 0.630749 6.292205
1.672517 0.223568 5.977668
0.464316 1.749536 6.255092
-0.964224 0.939854 6.318999
-1.300292 -1.542575 6.299702
0.184622 -1.988693 6.651247
-0.963136 0.950747 6.318474
1.349608 0.974471 6.408462
0.515896 1.753615 6.237585
0.122007 -1.985266 6.638351
-0.882068 -2.037672 6.067267
1.683768 0.242045 6.002326
-1.305937 -1.447906 6.352670
0.845493 -1.650639 5.958845
-1.328937 -0.076511 6.313344
0.584421 1.762070 6.209811
1.674244 0.325404 6.013233
1.256549 1.065353 6.336128
0.230622 -2.002645 6.603182
-0.890462 1.084248 6.335946
-1.325750 -0.040766 6.298187
-0.789544 -2.034368 6.103072
-1.279930 -1.597202 6.308839
1.255714 1.066017 6.330574
0.296368 -2.017361 6.495223
1.668540 0.369223 6.009003
1.174040 1.237345 6.241984
-1.302398 0.114669 6.276448
1.641299 0.441450 5.980587
0.916463 -1.576614 5.899241
-1.319211 -1.402570 6.371435
-0.743977 -2.010153 6.145633
1.627374 0.536852 6.019114
0.355754 -2.011676 6.406759
-1.352497 -1.321442 6.393926
