0.389363 -1.805742 5.428123
-1.384755 0.854194 5.529388
-0.554069 -2.411650 5.543953
-1.632859 -1.507335 5.418991
-0.575103 -2.414144 5.540017
0.378628 -1.810087 5.424899
-1.383403 0.856505 5.530794
-1.707024 -1.402914 5.405423
-1.118138 1.508548 5.518117
0.146308 -1.887159 5.425251
-1.326598 1.039727 5.575960
-1.737812 -1.361904 5.417437
-0.485835 -2.399042 5.522812
-1.319919 1.109017 5.574411
0.617559 2.040557 5.355914
-1.112564 1.514012 5.515938
-1.657719 -1.454469 5.423112
0.286532 -1.832859 5.467798
-1.295670 1.173380 5.622239
-0.472183 -2.390451 5.527531
-1.804961 -1.285866 5.417901
-1.055601 1.579361 5.467579
0.658592 2.051091 5.399238
-0.381103 -2.302181 5.571270
0.389524 -1.805565 5.430436
-1.767905 0.014518 5.543169
-1.757843 0.017105 5.550131
0.510309 -1.715091 5.485128
-0.264239 -2.212877 5.583040
-1.004199 1.621951 5.434701
-1.421394 -2.087077 5.530524
-0.175391 -2.169330 5.543529
0.510330 -1.715068 5.485063
-1.473326 -2.031570 5.556759
-0.364231 -2.289421 5.569074
-0.170848 -2.167047 5.540168
-1.529386 -1.977835 5.485488
-0.926011 1.665045 5.394830
-0.127643 -2.137044 5.501822
0.698210 -1.605589 5.494675
-1.335999 -2.187167 5.505657
-0.761200 1.648128 5.478619
-1.356426 -2.167385 5.505135
-0.125483 -2.134073 5.502624
0.738247 -1.573053 5.502755
-1.244375 -2.236950 5.501694
-0.639584 1.657362 5.520763
-0.066155 -2.073714 5.463418
0.806491 -1.506136 5.514249
-1.135650 -2.272912 5.543490
0.805613 -1.506657 5.512787
-1.788924 -1.317612 5.396516
-0.028597 -2.030801 5.446851
-0.613520 1.672891 5.512681
-1.192351 -2.258711 5.512182
1.438954 1.407796 5.516961
-1.831895 -1.257429 5.413986
0.862161 -1.440387 5.499592
-0.010474 -2.011661 5.437534
1.438953 1.407898 5.516858
-1.841608 -1.241680 5.424010
0.872477 -1.428800 5.500499
0.934018 -1.349189 5.483195
1.406202 1.522810 5.489479
-0.508216 1.747698 5.478832
0.965303 -1.312595 5.484818
-1.928825 -1.119418 5.407465
1.349801 1.626259 5.500333
1.020008 -1.261045 5.511213
-0.477742 1.812080 5.404403
-1.932436 -1.111601 5.412394
1.352470 1.624725 5.497844
1.068325 -1.210405 5.517446
-0.463489 1.832081 5.382812
-1.850401 -1.229456 5.427943
1.117906 -1.112370 5.485152
-1.888920 -1.176770 5.436347
1.123481 -1.099417 5.478282
-1.935930 -1.104251 5.412719
-1.972453 -0.996932 5.450726
-2.003931 -0.871700 5.482825
-2.005921 -0.867143 5.484421
-2.038401 -0.795431 5.479912
-2.059812 -0.749604 5.469101
-2.070144 -0.712705 5.447097
-2.073166 -0.683816 5.445610
-2.067373 -0.597594 5.507473
-2.050024 -0.507234 5.487936
-2.001220 -0.400914 5.495224
-1.987487 -0.321807 5.474954
1.247260 -0.931135 5.376856
0.085793 -1.935912 5.394805
-1.296755 1.291277 5.609519
1.247902 -0.898149 5.355796
0.154189 -1.888558 5.409242
-1.298374 1.379217 5.556516
-2.059468 -0.237897 5.387215
-1.500826 0.154970 5.637758
1.435617 0.296257 5.320817
0.286928 -1.834957 5.451571
1.251252 -0.809027 5.334090
-0.646276 -2.418658 5.531368
-1.239215 1.404312 5.567633
1.353045 1.727326 5.406433
-0.146085 1.961892 5.359394
0.389390 -1.805748 5.427897
-0.369142 -2.306320 5.534572
-1.454231 0.253404 5.615066
-1.216080 1.491686 5.475941
-0.484556 -2.398708 5.522352
1.114061 1.988060 5.388401
-1.166277 1.501526 5.495071
1.535511 0.750687 5.408482
-2.004153 -0.239458 5.453279
-1.116761 1.519667 5.506239
-1.938540 -0.125991 5.470043
1.534277 0.806254 5.438786
-1.530158 -1.979577 5.475639
0.804950 -1.502481 5.493021
-1.059694 1.606343 5.422195
-1.248037 -2.275519 5.434928
-1.647370 -1.506064 5.382643
0.649226 2.047870 5.383118
-1.383851 0.856972 5.530104
-1.005377 1.631269 5.417754
0.998608 -1.271777 5.486429
-0.650198 1.684294 5.470534
-0.169270 -2.169563 5.532973
-0.528829 1.801771 5.380000
-0.120297 -2.133002 5.487353
-2.071241 -0.606946 5.351220
1.438920 1.412138 5.512149
-0.476929 1.844848 5.350693
-1.040838 -2.278875 5.624402
-1.972509 -0.405437 5.569029
-1.560047 0.068629 5.677881
1.131931 -1.128760 5.543955
0.038441 -1.950443 5.452600
-1.913940 -0.335296 5.558867
-1.527495 0.099208 5.671148
0.125363 -1.889970 5.451315
-1.231729 1.317934 5.660287
-1.915267 -0.323105 5.548721
-1.521982 0.103651 5.671024
1.169053 -1.059299 5.527914
0.203767 -1.854005 5.481980
-1.199097 1.360514 5.651132
-0.631512 -2.371016 5.631652
-1.867886 -0.192281 5.584778
-1.480485 0.165524 5.653114
0.209617 -1.851191 5.482489
1.257097 -0.973098 5.490500
-1.735240 -0.071070 5.679789
-0.403661 -2.305890 5.610399
-1.140914 1.412165 5.619999
0.377249 -1.804340 5.540261
-1.724944 -0.055237 5.679489
-1.089392 1.443674 5.615470
-0.532156 -2.344513 5.657211
-1.462843 0.202515 5.639571
0.354011 -1.808837 5.544275
-1.085791 1.445915 5.615318
-1.608132 -1.604357 5.577757
-0.478811 -2.339765 5.630229
0.209086 1.920805 5.615211
-1.607383 -1.551884 5.521757
-1.357049 0.615528 5.601207
1.221760 1.895190 5.581752
0.290299 -1.823477 5.526633
-1.606557 -1.543484 5.534020
-1.022716 1.519524 5.579129
-1.423318 -2.059244 5.584501
-1.612932 -1.483289 5.514313
0.250323 1.913084 5.632538
-1.401558 0.325016 5.632776
-1.001898 1.542259 5.563567
-1.633292 -1.422166 5.515175
-1.397249 0.332293 5.634907
-1.659845 -1.365310 5.536793
0.295857 1.907570 5.657364
0.411690 -1.793792 5.543081
-1.234552 -2.177012 5.637342
-1.785122 -1.254468 5.531711
-1.746617 -1.271944 5.552921
-1.329838 -2.137293 5.619652
0.499538 -1.730053 5.536673
-0.646221 1.612664 5.601732
-1.346733 0.565523 5.617621
0.505374 -1.725353 5.537858
-1.112029 -2.266295 5.591141
-1.357004 0.614966 5.601282
-0.640789 1.612077 5.605234
-1.145313 -2.233998 5.600599
-0.562006 1.638850 5.601167
-0.388694 -2.288868 5.621520
-0.308890 -2.227682 5.601230
-1.369451 0.743290 5.573014
-0.490420 1.685256 5.587370
0.746794 -1.612321 5.610445
-1.332286 -2.139074 5.610879
-0.263612 -2.190659 5.612810
-0.485050 1.693837 5.579613
-1.419675 -2.057563 5.597321
-1.367535 0.743768 5.573614
0.769070 -1.595100 5.615599
-0.202181 -2.157340 5.598795
-1.364702 0.763414 5.572708
-1.813337 -1.236079 5.518648
-0.171572 -2.139927 5.586078
-1.366620 0.778991 5.567858
0.836757 -1.538210 5.633884
-0.139373 -2.123762 5.562684
-1.863263 -1.166841 5.538631
0.845204 -1.526062 5.630367
-0.112574 -2.104024 5.540616
-1.875167 -1.150379 5.540775
-1.357444 0.832689 5.572953
0.877401 -1.474821 5.616009
-1.904931 -1.104912 5.549524
-1.608296 -1.611667 5.606552
-0.075707 -2.064182 5.523540
-1.357482 0.844042 5.571297
1.439198 1.401336 5.532387
-1.340274 0.919919 5.579928
-0.071518 -2.059635 5.521235
0.883904 -1.464011 5.612428
1.434637 1.408484 5.605763
-1.939471 -1.054227 5.549617
-1.313440 1.044495 5.599181
0.967148 -1.350226 5.572674
0.030649 -1.957414 5.454700
1.435841 1.408984 5.601876
-1.957911 -1.020623 5.550151
1.357482 1.468059 5.677597
-2.010267 -0.889076 5.550443
-1.308380 1.066580 5.600004
0.967513 -1.349975 5.572940
1.348509 1.483631 5.677338
-1.302665 1.098873 5.603976
1.309976 1.603856 5.588734
1.035567 -1.274951 5.563791
-1.308517 1.088662 5.595212
-2.043341 -0.811437 5.534945
1.079163 -1.230481 5.565568
-2.043461 -0.811227 5.534966
1.119964 -1.158787 5.551701
-1.276678 1.169958 5.648405
-2.070439 -0.694360 5.578747
-1.242919 1.287460 5.667426
-2.067605 -0.596682 5.581459
-2.067251 -0.594121 5.580989
-2.025508 -0.508695 5.582405
-1.972514 -0.405441 5.569029
1.274066 -0.948416 5.475521
1.276625 -0.938723 5.465945
1.272695 -0.903269 5.427130
1.274479 -0.801945 5.420075
1.452273 -0.433749 5.621447
-1.701339 -0.021017 5.668324
-1.692898 -0.015649 5.669469
1.178625 -1.039277 5.490920
0.077713 -1.934171 5.410838
-1.250207 1.313038 5.646723
-1.424605 0.289932 5.626783
0.141719 -1.883060 5.446045
1.272023 -0.936059 5.449684
-1.195208 1.425881 5.566443
-1.370724 0.482362 5.604164
-1.916731 -0.325105 5.548311
1.261965 -0.895155 5.394629
-1.144187 1.428857 5.595443
-1.357156 0.614936 5.601112
-1.929922 -0.200403 5.511146
-0.555981 -2.413232 5.541308
-1.062911 1.519117 5.547386
1.268050 -0.784840 5.382110
-0.485401 -2.398679 5.523189
-1.608136 -1.608964 5.559741
-1.930233 -1.112927 5.428518
-1.610148 -1.568830 5.469928
0.747950 -1.607398 5.602836
-0.931139 1.659912 5.402987
-1.867385 -1.165248 5.533407
-1.420816 -2.072351 5.562322
-0.781106 1.644649 5.484915
-1.720712 -1.359470 5.454439
-1.966856 -1.015798 5.480319
-1.372150 0.752876 5.568801
-1.335439 -2.150608 5.581833
-0.647258 1.613295 5.599873
-2.003495 -0.874389 5.486960
-1.382819 0.790793 5.546946
0.197753 1.931791 5.577523
-1.137831 -2.263816 5.557503
0.874721 -1.463003 5.591786
-0.555277 1.674685 5.551726
0.964959 -1.349886 5.566631
-2.067793 -0.596351 5.578535
-0.498320 1.699473 5.559642
-1.383624 0.818397 5.538994
-1.741220 0.002718 5.589865
1.056310 -1.239608 5.539763
-1.367856 0.779755 5.566283
1.081379 -1.194990 5.517155
-1.358846 0.835524 5.570718
-1.323646 1.043644 5.580881
1.439023 1.405135 5.522414
1.349403 1.624205 5.502933
-1.186768 1.303241 5.712802
-1.637686 -0.001018 5.703619
-0.476556 -2.269062 5.751833
-1.173958 1.322713 5.710197
-1.607403 0.013787 5.708332
1.145328 -1.245207 5.737758
1.353011 1.441763 5.724934
-1.602796 -1.590690 5.688631
-1.567680 0.042149 5.706993
1.347639 1.443439 5.735808
-1.132281 1.356364 5.710095
-1.600027 -1.549206 5.658387
1.165329 -1.178654 5.686091
0.294328 -1.822027 5.587241
-1.085877 1.380852 5.706871
0.351716 -1.809558 5.614897
1.411524 1.411913 5.652338
-1.599085 -1.543869 5.658781
-1.549669 0.055380 5.706985
-1.420475 -2.025118 5.663755
1.380073 1.415787 5.702588
0.382749 -1.802459 5.604648
-1.025906 1.438133 5.675481
-1.489840 -1.942341 5.727221
-1.596829 -1.507316 5.634250
-0.979523 1.484744 5.660504
-1.536821 0.064768 5.705756
1.252398 1.578444 5.759918
-1.051537 -2.251130 5.685319
0.485631 -1.754150 5.591876
1.293882 -0.988082 5.620383
1.252745 1.609676 5.726740
0.601089 -1.714095 5.661367
-1.634919 -1.282413 5.652986
1.316938 -0.970294 5.627929
-1.500657 0.105329 5.692891
1.323569 -0.966021 5.633563
-1.679639 -1.240592 5.655345
0.632832 -1.715757 5.704107
0.115043 1.895689 5.674485
-0.576652 1.574410 5.719652
-1.498316 0.109216 5.690268
0.722696 -1.691935 5.763877
0.209573 1.903948 5.689030
-1.595609 -1.355602 5.646197
-0.576400 1.574044 5.720633
0.811702 -1.619803 5.721152
0.240211 1.901244 5.691614
-1.454779 0.168540 5.687545
-0.496463 1.589755 5.734457
0.294579 1.891910 5.724039
-0.427131 1.611116 5.754157
1.356137 -0.918402 5.635553
-1.744279 -1.174447 5.657882
0.414911 1.911821 5.715681
-1.067473 -2.240021 5.686104
-0.393441 1.638355 5.743461
0.848951 -1.585269 5.717431
-1.418898 0.232601 5.687631
-1.130914 -2.161399 5.759515
-0.406340 1.667502 5.692494
-1.780147 -1.153836 5.645780
-1.200559 -2.137087 5.756640
-1.379656 0.305639 5.694947
-1.329657 -2.098216 5.689883
0.919341 -1.532919 5.762159
-1.345680 -2.058630 5.729263
-1.822369 -1.061555 5.681649
-1.234723 -2.121725 5.754330
0.933374 -1.522023 5.776237
-1.300177 0.542106 5.694716
0.984301 -1.465269 5.810677
-1.307057 0.596931 5.676536
1.020895 -1.425547 5.833115
-1.825012 -1.055714 5.683942
1.470146 -0.613805 5.722260
1.063151 -1.375581 5.836072
-1.312176 0.616455 5.665617
1.084003 -1.351689 5.828940
-0.315796 -2.199993 5.670947
-0.276083 -2.160460 5.670815
1.468584 -0.595603 5.703367
-1.334001 0.691106 5.623077
-1.347342 0.748075 5.597175
-0.216502 -2.113943 5.674320
-0.204131 -2.108542 5.669608
1.509924 -0.485303 5.724959
-1.300017 1.009399 5.634879
-0.147108 -2.093845 5.625621
-1.278030 1.079231 5.643710
1.507266 -0.448489 5.717990
-1.267833 1.099931 5.657342
-0.105002 -2.078477 5.579450
-1.244688 1.141755 5.688738
-1.599125 -1.625359 5.711487
-1.267828 1.096408 5.657653
-1.229926 1.221078 5.701110
-0.103757 -2.077283 5.578768
-0.940631 -2.257571 5.713942
-1.682797 -0.042867 5.710986
-1.653043 -0.012070 5.704623
-0.470107 -2.269442 5.739552
-0.389489 -2.251146 5.705160
-0.371982 -2.242373 5.695576
-1.958353 -0.952693 5.679583
-1.977243 -0.933821 5.681716
-1.931436 -0.982371 5.662852
-1.885452 -1.005505 5.679087
-1.928175 -0.984716 5.663463
-1.983835 -0.847058 5.709914
-1.981150 -0.816413 5.712338
-2.024404 -0.702220 5.674712
-2.054098 -0.597594 5.632948
-1.988928 -0.499665 5.668153
-1.982627 -0.494005 5.673008
-1.903523 -0.409559 5.677138
-1.894926 -0.405532 5.683508
-1.765539 -0.322866 5.741845
-1.746572 -0.163114 5.754137
1.119891 -1.229818 5.652128
0.292298 -1.821743 5.543597
-0.481034 -2.294133 5.706548
-1.635733 -1.357894 5.580055
1.119735 -1.163740 5.557446
-1.596717 0.032214 5.694058
-1.789923 -1.242867 5.542357
0.377368 -1.803569 5.559990
-0.317620 -2.222412 5.627022
-1.744064 -1.261614 5.570109
-1.565708 0.047272 5.702497
-1.190828 1.327768 5.690141
-1.234967 -2.134218 5.728573
1.277030 -0.955340 5.497484
1.351425 1.458474 5.705161
-1.523074 0.101497 5.673110
0.496100 -1.733387 5.538671
-1.781741 -1.153359 5.644861
-1.498995 0.109084 5.689560
1.439397 1.402530 5.542909
0.613385 -1.714049 5.675361
-1.882310 -1.096530 5.595331
-1.475777 0.164017 5.658953
1.428784 1.415945 5.621627
-1.086235 1.444007 5.617432
0.816829 -1.587608 5.676817
-1.600723 -1.625885 5.698754
-1.822735 -1.061374 5.681551
1.451905 -0.601982 5.677158
-1.931864 -0.987145 5.656365
-1.400698 0.334992 5.625525
0.860136 -1.546370 5.680959
-0.993950 1.513982 5.610579
-2.004324 -0.907539 5.561601
-1.321158 0.551954 5.660405
-0.931103 1.535723 5.629917
-1.334620 0.640670 5.629547
1.462979 -0.433614 5.643072
-1.317273 0.622741 5.656635
-0.208330 -2.143842 5.625547
-2.062716 -0.693744 5.611377
-0.132039 -2.109083 5.575973
-1.357955 0.732221 5.584965
-2.067199 -0.596637 5.586364
-0.085342 -2.069694 5.542129
-1.328903 0.947157 5.592951
-0.555485 1.620847 5.635076
-0.490619 1.636849 5.658632
-1.713510 -0.048280 5.685469
-1.272921 1.091896 5.650667
-1.972509 -0.405442 5.569042
-0.419869 1.638990 5.716911
-1.297832 1.115449 5.612394
-0.408080 1.666470 5.692257
-1.268014 1.204451 5.661690
-1.165185 1.176009 5.780836
-1.645853 -0.037167 5.737879
1.166506 -1.326796 5.948625
-1.008230 -2.144481 5.873893
-1.154418 1.239693 5.778800
-1.616594 -0.013434 5.735562
1.175562 -1.316982 5.945393
-1.099308 -2.118753 5.862526
-0.344285 1.627699 5.821232
-1.142844 1.256232 5.786343
-1.588247 0.006432 5.735752
-0.341146 1.648083 5.797424
1.251285 -1.203299 5.895394
-0.489411 -2.200313 5.879839
-1.574240 0.015546 5.736531
1.350020 1.413222 5.769944
1.295002 -1.135625 5.878167
-0.461241 -2.219295 5.826580
-1.550000 0.026222 5.743655
1.310896 -1.108615 5.871663
-1.556276 0.023479 5.741978
-0.459457 -2.220468 5.822542
-1.547305 0.028607 5.743202
1.374453 -1.017825 5.862651
-0.083594 1.780675 5.792006
1.290650 1.433053 5.881952
-0.388214 -2.191019 5.793235
-1.515798 0.062786 5.734558
1.408065 -0.975824 5.867489
-1.233511 -2.095655 5.806249
1.432590 -0.945153 5.874456
-1.489064 0.095314 5.732629
-0.325227 -2.176799 5.746132
1.359307 1.408846 5.748166
-0.050909 1.791816 5.788707
1.480291 -0.869840 5.890168
-1.240189 -2.060598 5.864026
-1.482532 0.103856 5.733019
-0.074412 1.781323 5.795779
1.356900 1.414679 5.749502
0.385104 -1.816051 5.702141
1.504148 -0.795927 5.889940
-1.417469 0.186829 5.762422
-0.006322 1.817546 5.767945
1.516738 -0.728105 5.886653
-1.408818 0.199737 5.767315
0.394059 -1.809080 5.679351
1.241152 1.576607 5.800790
0.016841 1.830473 5.761869
-1.592511 -1.592177 5.752499
-1.324401 -2.044833 5.783069
1.530613 -0.625236 5.848831
1.232826 1.572453 5.819689
-1.589948 -1.573652 5.749923
-1.325638 0.330446 5.814311
0.136192 1.878393 5.747640
1.541348 -0.499876 5.774901
0.487449 -1.773201 5.678855
-1.273273 0.459009 5.804937
-1.585992 -1.559121 5.752781
0.183018 1.889872 5.744802
-1.415286 -1.969048 5.788519
1.537319 -0.486118 5.765916
-1.573942 -1.499695 5.741587
0.294312 1.879310 5.780516
-1.257353 0.513370 5.801444
0.276101 1.882340 5.768874
1.542522 0.435070 5.790927
-1.123235 -2.109037 5.868854
-1.545882 -1.400036 5.754763
0.809295 -1.674520 5.851776
1.544928 0.466942 5.794323
-1.260947 0.515561 5.793556
-1.539913 -1.377160 5.757127
0.206483 1.890483 5.750746
-1.516426 -1.843354 5.825739
1.108254 1.831217 5.845146
0.881677 -1.597215 5.780558
-1.522708 -1.833827 5.819304
-1.548872 -1.259910 5.764128
-1.265975 0.567557 5.762691
1.546592 0.494107 5.794678
0.921320 -1.569789 5.799158
-1.418320 -1.969900 5.779965
1.549440 0.564785 5.804987
-1.625456 -1.207428 5.731848
-1.271322 0.580209 5.748246
0.985593 -1.512212 5.863165
-1.687765 -1.142711 5.729556
-1.294747 0.634108 5.702849
1.044246 -1.449308 5.916781
-1.752140 -1.057832 5.731835
-1.590854 -1.627365 5.764548
1.044246 -1.449308 5.916781
-1.553959 -1.254080 5.763562
-1.082612 1.325880 5.795503
-1.306389 0.861642 5.661692
1.108262 1.831268 5.845090
1.097293 -1.397335 5.951220
-1.802913 -0.971463 5.744764
-1.286563 0.964102 5.678411
1.545351 0.563893 5.795443
-1.077507 1.328972 5.796412
1.108050 -1.386553 5.954229
-1.820302 -0.930852 5.761555
-1.259388 1.033576 5.688362
1.534802 -0.443156 5.765981
-0.801086 -2.223770 5.884901
1.012057 1.889593 5.850001
-1.845863 -0.886863 5.771581
1.545347 0.563903 5.795437
-0.990478 1.398554 5.765021
-1.222032 1.085305 5.726492
-0.777837 -2.231073 5.889874
-0.949828 1.435410 5.749077
-0.895070 1.460546 5.772077
-1.700486 -0.383926 5.890464
-1.678340 -0.313250 5.894055
-1.889036 -0.933312 5.731770
-1.688320 -0.198892 5.852297
-0.604313 1.544389 5.825317
-1.872048 -0.879451 5.765615
-0.505752 1.553215 5.819292
-1.852913 -0.881166 5.770463
-0.421486 1.580034 5.828419
-0.318469 -2.168037 5.748496
-1.882072 -0.823330 5.776840
-1.884069 -0.782909 5.783543
-0.292234 -2.139127 5.741051
-1.857597 -0.858977 5.777305
-0.229860 -2.079055 5.733713
-0.180298 -2.077714 5.688914
-1.905287 -0.707227 5.781135
-0.168152 -2.074668 5.680609
-1.965640 -0.599198 5.774580
-1.965641 -0.599198 5.774580
-1.965640 -0.599198 5.774580
-1.885022 -0.496953 5.790780
-1.788016 -0.464631 5.858431
-1.762964 -0.433207 5.857474
-1.663897 -0.038034 5.722642
-1.242926 1.143820 5.691345
1.301696 -1.124308 5.875074
-1.642587 -0.009733 5.710231
0.387250 -1.810900 5.678548
-1.596179 -1.553412 5.695432
-1.611319 0.003313 5.718784
-0.360400 1.635821 5.786031
-1.204743 1.236452 5.723504
-0.348114 1.651802 5.783200
1.336697 -0.978636 5.696546
-1.626093 -1.241279 5.699362
-1.419861 -1.990380 5.736429
-1.549367 0.028322 5.741609
-1.139126 1.319367 5.745469
-1.542632 -1.371040 5.748951
-0.389990 -2.246100 5.714229
1.461280 -0.886771 5.861075
-1.079943 1.329330 5.793730
-1.538737 0.062331 5.707584
1.248797 1.595934 5.757491
-1.046465 -2.236248 5.711263
-0.052580 1.797126 5.776023
-1.555352 -1.261160 5.755135
-1.128801 -2.121281 5.842017
1.503059 -0.796889 5.887811
0.909017 -1.575191 5.784838
-1.421860 0.186149 5.750390
-1.328802 -2.060044 5.753423
1.108351 1.831382 5.844921
1.511348 -0.707275 5.871006
-1.729843 -1.153876 5.684328
1.545345 0.563899 5.795433
0.212872 1.896420 5.724276
-0.984961 1.440191 5.709300
-1.960317 -0.920313 5.703851
-1.781057 -1.053363 5.712849
0.928459 -1.533738 5.778654
0.304797 1.884632 5.756331
-1.260397 0.518536 5.790768
0.410026 1.901817 5.747371
-1.893390 -0.973533 5.700894
1.532739 -0.441165 5.762620
-0.576349 1.574002 5.720764
-1.867604 -0.969333 5.713614
-0.500401 1.575217 5.763284
-1.873233 -0.884198 5.759245
-1.279430 1.018889 5.667570
-0.422086 1.581206 5.824849
-1.737098 -0.320881 5.792113
-0.926704 -2.243130 5.751543
-1.720501 -0.164891 5.789812
-0.790847 -2.232870 5.873311
-1.949655 -0.709195 5.752643
-1.984243 -0.499011 5.677001
-0.218640 -2.106512 5.686018
-1.883318 -0.413101 5.706627
-0.467150 -2.178215 5.892428
-1.593338 -1.161687 5.835290
-1.096756 1.188960 5.866404
-0.466738 -2.181525 5.887700
-1.637410 -0.052931 5.763781
-1.220092 -2.066119 5.873903
-1.091096 1.203128 5.871716
-1.615630 -0.030285 5.758807
-1.221592 -2.063029 5.877813
-1.554733 -1.198320 5.824586
1.152875 -1.355321 5.982412
-0.409412 -2.157698 5.860144
-1.092074 1.244471 5.851553
-1.588235 -1.166340 5.835655
-1.315620 -1.977881 5.897570
-1.571478 0.000807 5.759672
-0.331613 -2.144106 5.816495
-0.349516 1.601276 5.877133
-1.542225 0.019072 5.764483
1.235754 -1.255472 5.948600
1.346656 1.383583 5.818757
-1.325720 -1.965497 5.903557
1.642440 0.087917 5.872570
-1.537247 0.022888 5.766256
1.279330 1.422532 5.925746
-1.088218 1.256858 5.848301
-0.331717 1.616390 5.870423
-1.722406 -0.734380 5.937056
1.644745 0.091962 5.875598
-1.120378 -2.079531 5.926339
-1.756916 -0.595056 5.958199
-1.025513 1.321541 5.858987
1.247603 -1.236482 5.939223
-1.736689 -0.492492 5.944991
-0.307135 1.643170 5.855374
1.244946 1.468627 5.940064
1.299828 -1.154608 5.910771
-1.775532 -0.903028 5.808211
-1.735683 -0.492439 5.946160
-1.001897 1.342403 5.844651
-1.742051 -0.847740 5.855805
-0.898326 1.412860 5.833500
-0.115996 1.752463 5.834153
-1.568768 -1.613256 5.829437
-0.832859 1.436527 5.872314
1.331698 -1.105819 5.905817
-1.566167 -1.577460 5.825850
-1.726081 -0.818295 5.883467
-0.049211 1.775950 5.823650
-0.796804 1.444732 5.904702
-1.724604 -0.781295 5.902104
0.043855 1.814177 5.828484
1.346243 -1.084176 5.905182
-1.563625 -1.566516 5.826133
-1.488744 0.068747 5.773859
1.109098 1.706049 5.953536
1.589647 0.487350 5.859852
-1.724387 -0.735913 5.933362
0.045665 1.815558 5.827645
-1.488475 0.069105 5.773858
1.562932 0.576208 5.888916
-0.660463 1.498398 5.964947
0.145631 1.861845 5.811475
1.433386 -0.969884 5.913797
0.301509 1.851462 5.883703
1.546695 0.594319 5.866212
0.236641 1.866696 5.832833
1.501138 0.652121 5.888176
-0.596257 1.532633 5.898247
1.443902 -0.955324 5.915504
-1.676181 -0.410801 5.935028
-0.494713 1.545281 5.878506
1.440313 0.703482 5.913921
-0.516772 1.542528 5.876905
-1.664288 -0.390544 5.939967
-0.419171 1.563814 5.886829
-1.252227 0.445333 5.883915
1.496439 -0.853297 5.916991
0.145635 1.861849 5.811469
-1.650484 -0.334459 5.940946
-1.245533 0.468025 5.878134
-0.555555 1.539698 5.880704
0.218755 1.870357 5.825342
-1.243125 0.495355 5.865687
-1.409009 -1.906863 5.895248
-1.666692 -0.233453 5.896645
1.511216 -0.806841 5.915964
-1.489396 -1.809428 5.900574
-1.667300 -0.224547 5.892300
-1.501901 -1.796775 5.892667
-0.407331 1.567732 5.888831
1.522072 -0.754375 5.911363
0.872258 -1.633572 5.842998
1.348528 1.385771 5.809414
-1.532406 -1.743442 5.874463
0.978092 -1.548156 5.878990
-1.239694 0.545647 5.845617
1.525739 -0.730551 5.907462
-1.564686 -1.655471 5.834819
-1.240631 0.586726 5.826740
1.529284 -0.711294 5.904716
1.352729 1.384476 5.795036
-1.246493 0.598055 5.811803
-0.330853 -2.142413 5.817958
0.985722 -1.540387 5.886980
-1.263999 0.661859 5.776760
1.517598 -0.781498 5.914603
-0.802980 -2.165163 6.019078
1.033471 -1.482516 5.932518
-0.324840 -2.115628 5.847643
-1.273105 0.833094 5.754089
1.080793 -1.427267 5.966843
-0.875251 -2.125974 5.997673
-1.271925 0.870513 5.747152
-0.267863 -2.078872 5.803302
1.549772 -0.632734 5.894927
-1.220128 1.015546 5.756795
1.099857 -1.408865 5.976703
1.115783 -1.392130 5.980815
1.560452 -0.504491 5.805644
-1.179937 1.078475 5.786104
1.068382 1.775298 5.924064
-0.257324 -2.073267 5.787569
-1.164084 1.108650 5.798411
1.051462 1.786561 5.921730
-0.910295 -2.112706 5.985705
-0.194961 -2.045791 5.744472
0.950094 1.832645 5.948896
-1.089069 1.253100 5.849694
0.949955 1.832673 5.948967
-1.595445 -1.164604 5.825086
-1.014204 -2.105838 5.936832
-1.097761 1.198135 5.863595
-1.574406 0.009720 5.744415
-1.777314 -0.904323 5.806522
1.259525 -1.198238 5.903610
-1.544792 0.021868 5.755982
-1.518325 -1.822731 5.844853
-1.829608 -0.867325 5.788185
1.013388 -1.493409 5.902475
-0.899219 1.440975 5.794342
-1.754615 -0.849681 5.843982
1.338431 -1.094120 5.902016
1.044246 -1.449308 5.916781
-1.572020 -1.653676 5.816528
-0.359813 1.597433 5.862761
1.355465 1.402471 5.765590
-1.583990 -1.598778 5.787312
-1.814796 -0.797353 5.815921
-0.560274 1.539862 5.875989
1.632974 0.073505 5.858908
1.104276 -1.393688 5.959649
-1.730882 -0.736571 5.924234
1.352040 1.408551 5.770166
-0.407859 1.567795 5.887290
-1.846006 -0.824931 5.792546
1.255456 1.448223 5.939131
-0.087219 1.771457 5.810580
1.516778 -0.782381 5.913000
-0.893152 -2.123014 5.985267
-1.861461 -0.720970 5.805117
-1.726445 -0.437954 5.897494
0.042200 1.818749 5.816441
1.570168 0.460825 5.832419
1.539773 -0.635563 5.877234
-1.965640 -0.599198 5.774580
-1.186693 1.098682 5.772052
-1.656800 -0.331288 5.931071
1.102941 1.762091 5.910890
1.540817 -0.498650 5.773843
-1.155875 1.172538 5.791821
0.145634 1.861849 5.811465
1.553847 0.483714 5.806058
-1.841155 -0.598790 5.879675
-1.141545 1.231508 5.797563
-1.773536 -0.501643 5.910685
-0.250196 -2.082600 5.756865
-0.189743 -2.075140 5.701991
-1.561613 -1.506704 5.789135
1.049591 1.832037 5.877735
-0.340663 -2.100691 5.877052
-0.332202 -2.096790 5.876085
-0.327243 -2.114358 5.851427
-0.373581 -2.069804 5.939574
-0.379542 -2.068981 5.946612
-0.369088 -2.072372 5.932184
-0.369994 -2.059358 5.947782
-0.347950 -2.047156 5.938388
-0.339546 -2.051761 5.928443
1.057293 -1.465512 5.973141
1.066743 -1.452666 5.976875
1.080416 -1.437331 5.985899
1.087342 -1.430400 5.990425
1.109463 -1.408596 5.998931
1.115876 -1.401967 6.001162
1.133823 -1.383256 6.004349
1.143192 -1.373923 6.004765
-0.369634 -2.065553 5.940001
-0.331086 -2.072202 5.903176
-0.334162 -2.056225 5.921055
-0.471552 -2.095739 5.970263
1.254403 -1.237121 5.956007
0.353809 -1.898272 5.960873
-1.210983 -2.015846 5.969143
1.275581 -1.204768 5.944653
-1.602088 -0.049097 5.793330
-1.237148 -1.938136 6.060294
1.317651 -1.141118 5.932023
0.381867 -1.879551 5.937357
-1.562274 -0.020694 5.796204
-1.096483 -2.051022 5.992635
-1.071761 1.156222 5.909852
-0.352743 1.590563 5.924286
-1.494532 0.039578 5.805398
0.389784 -1.875728 5.935154
1.331982 1.383484 5.856686
-0.327961 1.608318 5.911531
1.320375 -1.136426 5.931052
-1.116683 -2.052231 5.979137
1.267783 1.417112 5.958793
-1.078087 1.169759 5.900413
1.350711 -1.087671 5.924911
-1.490690 0.044482 5.805667
-0.988931 -2.048033 6.053533
1.257340 1.417496 5.981108
-0.312427 1.619804 5.907585
1.234894 1.485943 5.938228
1.446197 -0.957937 5.934624
-1.395320 -1.819833 6.018608
-0.410890 -2.115218 5.925073
-1.673836 -0.815819 5.948834
1.496658 -0.865625 5.939838
-1.478062 -1.727498 5.968770
0.579328 -1.781294 5.880110
-0.049922 1.761490 5.852692
-0.393955 -2.105955 5.920168
-1.062438 1.264052 5.880328
0.750029 -1.781946 5.994601
-1.683601 -0.776519 5.964915
-1.011265 1.300861 5.907494
-1.489858 -1.719966 5.952700
-1.311192 0.295250 5.920530
-0.042269 1.762370 5.856668
0.821851 -1.733904 6.004282
-1.501891 -1.694055 5.943820
-1.687950 -0.748193 5.980959
-1.492327 -1.663162 5.967028
-1.290276 0.335865 5.925955
1.665565 0.122126 5.902649
-1.696253 -0.721041 5.987442
-0.945863 1.335596 5.912918
0.879396 -1.661726 5.924801
-1.520821 -1.605420 5.925432
-1.268554 0.377493 5.933863
1.679759 0.146029 5.921421
-1.509073 -1.657682 5.942235
0.956194 -1.586927 5.882875
-1.244098 0.428015 5.937234
-1.696564 -0.595194 6.026493
0.977796 -1.566043 5.902021
-1.310440 -1.902987 6.019712
-1.243534 0.428967 5.937203
-0.886165 1.371782 5.910897
-1.381785 -1.854996 6.001120
-1.699634 -0.494254 5.991971
1.508988 -0.831947 5.937661
-1.231991 0.479199 5.915427
1.635817 0.444192 5.931009
-0.800047 1.405095 5.957552
-1.220334 0.527635 5.908795
-0.831632 -2.142904 6.020359
1.527040 -0.749516 5.926270
1.642537 0.484835 5.975573
-1.698130 -0.489340 5.988499
1.528557 -0.740124 5.924141
-0.760979 1.415374 5.994852
1.638052 0.489238 5.968023
-1.216743 0.545379 5.907185
-1.644938 -0.399005 5.971895
-0.640553 1.465255 6.062558
1.561581 0.590950 5.936475
0.068205 1.798961 5.890716
1.535217 -0.702976 5.917728
-1.636019 -0.334374 5.963967
-0.842587 -2.141702 6.012318
1.452455 0.690221 5.962398
1.521576 -0.782613 5.932282
-0.591700 1.512590 5.992314
-1.210846 0.612863 5.895479
1.448109 0.696383 5.969069
0.071348 1.801086 5.890590
1.553935 -0.638051 5.911322
1.548051 0.608560 5.936706
-0.562818 1.526450 5.962653
-1.211748 0.613988 5.893024
1.574185 -0.546532 5.854357
1.427778 0.768456 6.000610
-0.636538 -2.182016 6.023447
0.151023 1.838238 5.883544
-0.484205 1.539641 5.940518
1.415251 0.835400 5.992814
-0.661436 -2.190981 6.006290
0.222610 1.837109 5.923177
-1.218106 0.653682 5.881475
-0.748680 -2.193192 5.991492
-0.400334 1.565531 5.935235
-0.274836 -2.059480 5.869518
-0.934975 -2.087898 6.003665
-1.219234 0.654037 5.879611
-0.522726 -2.115743 6.013003
1.335704 1.381590 5.849957
-0.499156 -2.096589 6.002283
-1.122519 0.911286 5.952859
-1.103731 0.940332 5.943572
1.091615 1.691012 5.985067
-1.090901 1.174680 5.880579
-1.073881 1.249920 5.875157
0.802733 1.828826 6.037176
0.748840 1.859759 5.999361
0.747776 1.860853 5.997786
0.965249 1.770451 5.993395
0.942402 1.786388 5.999181
0.887707 1.810804 6.016961
1.051691 1.729360 5.983845
0.353016 -1.876504 5.889824
1.136666 -1.377893 5.999356
-1.218864 -2.061492 5.883190
-1.535982 0.021589 5.770293
-1.693052 -0.766998 5.956508
-1.315032 -1.966333 5.916249
-1.487562 0.046937 5.805696
-0.289584 1.647329 5.873599
1.247522 -1.239013 5.943486
-1.727905 -0.593579 5.988703
-1.488583 0.068782 5.774079
-0.132668 1.742620 5.841074
-1.084491 1.126821 5.894518
-1.734360 -0.493439 5.948628
-1.399040 -1.849361 5.982116
-1.093382 1.193401 5.871947
1.318291 -1.137309 5.926459
-1.491379 -1.733366 5.944576
0.986484 -1.541745 5.889013
-0.056147 1.761036 5.849010
-1.668760 -0.410340 5.942690
-0.999141 1.324095 5.880275
-1.513875 -1.652356 5.934359
-1.663994 -0.224233 5.897141
1.086781 -1.428323 5.986299
-1.246684 0.438143 5.911675
1.655607 0.108160 5.889669
0.145635 1.861836 5.811509
-0.792592 1.424331 5.939609
0.221392 1.856730 5.867127
-1.219955 0.540957 5.901450
-0.331946 -2.135461 5.829336
-0.490734 1.545536 5.881930
-1.241728 0.598304 5.821292
-0.466138 -2.173598 5.897938
1.112334 1.658218 6.002872
-1.220729 0.650470 5.876177
-1.212202 0.612686 5.892251
1.585599 0.360425 5.842754
0.791788 1.840914 6.020559
1.609512 0.453192 5.890855
0.951170 1.786812 5.990525
-1.155556 0.986138 5.860606
1.502218 -0.845014 5.927946
0.872458 1.829817 6.003696
0.950166 1.832828 5.948860
1.443894 0.697647 5.938690
1.064277 1.770872 5.931487
-1.547593 -1.591196 5.871270
-0.424209 -2.068751 5.975918
-0.411655 -2.056640 5.979576
-0.416570 -2.037862 5.993619
-0.463185 -2.009907 6.018330
-0.470500 -2.015278 6.020799
-0.416506 -2.037693 5.993701
-0.421244 -2.020413 6.001600
-0.466889 -2.012153 6.019699
-0.378534 -2.042263 5.973138
-0.349672 -2.039449 5.948318
1.057737 -1.472235 5.987386
1.069757 -1.455778 5.996729
1.072775 -1.451535 5.996622
1.094338 -1.428600 6.007715
1.110180 -1.412598 6.012543
1.113843 -1.408692 6.013224
1.141378 -1.380452 6.021228
1.151872 -1.370456 6.021421
-0.407402 -2.069843 5.965898
-0.409754 -2.057256 5.977977
-0.416569 -2.037873 5.993607
-0.375973 -2.076348 5.935283
-0.370055 -2.053543 5.954366
-0.461920 -2.009966 6.016805
-0.495886 -2.048000 6.032524
-0.485637 -2.031528 6.027120
-0.472896 -2.018070 6.022698
-0.432324 -2.008342 6.006975
-0.392194 -2.032332 5.989688
-0.356089 -2.026646 5.971842
1.059187 -1.475813 5.997827
1.067141 -1.464554 6.004949
1.078081 -1.450510 6.011765
1.099816 -1.427631 6.022121
1.114636 -1.412741 6.028187
1.119872 -1.407120 6.029583
1.147610 -1.378572 6.034545
1.160981 -1.366737 6.036307
-0.492545 -2.051885 6.021558
-0.450740 -2.034488 5.997119
-0.494353 -2.048160 6.028280
-0.458093 -2.016995 6.013179
-0.472186 -2.019403 6.021744
-0.463061 -2.009520 6.018407
1.070094 -1.456392 5.999270
-1.097672 -2.019053 6.050327
1.271642 -1.223509 5.987744
-1.183360 -1.984993 6.046385
-1.449648 -1.639840 6.049449
-1.041726 -2.016180 6.085774
1.290985 -1.194650 5.975575
-1.460003 -1.598676 6.042418
-1.391291 -1.694278 6.114414
-1.406401 -1.672044 6.100143
0.308552 -1.927504 6.003665
-1.438045 -1.647261 6.065644
0.067127 1.720437 6.045400
-1.051159 1.238975 5.917340
-1.220118 -1.905089 6.131528
0.366188 -1.905024 6.002005
0.105350 1.750130 6.034152
-1.001975 1.270187 5.965017
-1.262918 -1.888043 6.103331
0.405034 -1.887165 5.989423
1.387770 -1.043927 5.947763
-1.442639 -1.644200 6.059243
-1.296769 -1.830148 6.141512
-1.000053 1.271684 5.965751
0.155535 1.781414 6.019283
0.406753 -1.886743 5.990402
-1.251227 0.381946 6.021132
1.654451 0.454531 5.968207
-1.374130 -1.745283 6.113329
-1.657423 -0.817852 5.978193
0.241853 1.784478 6.073940
-1.250486 0.386779 6.012996
1.654043 0.454498 5.967425
1.423772 -0.993400 5.951927
-1.233772 0.418623 5.996533
-0.927837 1.304986 5.987045
0.258554 1.782868 6.093631
0.450052 -1.871521 6.008095
-0.771912 -2.139338 6.071761
-0.817840 1.359755 6.007509
-0.790570 -2.130965 6.065735
-1.232399 0.421066 5.995221
1.435503 -0.976861 5.955597
-0.679817 -2.169556 6.038760
-1.211435 0.458345 5.991027
1.648835 0.537052 6.054223
-0.800958 1.367162 6.017156
-1.206022 0.464798 5.997026
1.504637 -0.854386 5.964891
1.648026 0.555109 6.076597
-0.836156 -2.112080 6.047768
-0.697006 1.403774 6.098434
-1.660960 -0.809448 5.978714
-0.913438 -2.073183 6.037023
-1.177164 0.554297 6.001815
0.786790 -1.776802 6.036859
-0.948086 -2.059723 6.043361
1.167505 1.449638 6.096928
1.633977 0.583901 6.096892
1.507603 -0.845898 5.963669
-1.671957 -0.770622 5.991121
1.140643 1.495525 6.109332
-1.161081 0.669090 6.009052
0.786892 -1.776775 6.036958
-0.568962 -2.135308 6.046300
-1.681088 -0.707215 6.019604
-1.143063 0.774625 6.052961
0.971987 1.728932 6.029874
1.550427 0.640120 6.088677
-0.541410 1.520740 6.025088
-0.522412 -2.097401 6.031933
1.489341 0.695408 6.085841
0.936192 1.753519 6.035602
-1.086002 0.876319 6.016965
0.874420 -1.691534 6.006595
-0.458153 1.539661 5.996931
1.526014 -0.778475 5.951673
-0.506726 -2.067099 6.034886
1.469807 0.717746 6.076763
1.089671 1.570883 6.129209
-1.676403 -0.594679 6.053135
-0.381646 1.567208 5.980886
-1.057633 1.144240 5.942558
0.876415 -1.689972 6.005227
1.532024 -0.743826 5.944708
1.088376 1.673014 6.006070
1.437505 0.770893 6.051610
-1.059065 1.181982 5.935281
-0.341680 1.588365 5.966581
-1.683075 -0.504565 6.023826
0.940678 -1.622214 5.936397
-0.337113 1.590978 5.964781
1.548811 -0.660556 5.927020
-1.683461 -0.504548 6.023340
0.977882 -1.588696 5.937939
-1.052746 1.147037 5.951769
-1.683208 -0.502692 6.022144
1.408315 0.845013 6.066198
-1.630713 -0.412008 6.002027
0.825642 1.799370 6.072557
-1.626324 -0.407505 6.005094
0.908379 1.777670 6.037017
-1.601979 -0.336165 6.011396
-1.620692 -0.236273 5.961028
1.254396 1.405828 6.013836
1.220520 1.446119 6.019044
-1.610082 -0.187257 5.946465
-0.314267 1.603980 5.959125
-0.294369 -2.041198 5.918940
-1.052785 1.245448 5.909234
-1.208113 -1.940335 6.090436
-1.602073 -0.054652 5.800813
-0.909546 1.343229 5.937105
-1.592939 -0.062767 5.818673
1.424699 -0.991111 5.949738
-0.995610 -2.025977 6.089239
-1.659940 -0.821923 5.969628
-1.453863 -1.645053 6.040421
-1.392557 -1.746844 6.084133
1.528133 -0.750297 5.934936
-1.492176 -1.695020 5.958499
0.067509 1.758060 5.971955
1.156325 1.465370 6.116919
-1.690736 -0.715123 5.999964
-0.337485 1.590723 5.964808
-1.237458 0.419514 5.982853
-1.301370 -1.875754 6.070985
0.576364 -1.786167 5.892067
-1.681435 -0.595213 6.046580
1.559592 -0.630558 5.917857
0.158771 1.795133 5.992466
0.746781 -1.787224 6.006058
-1.621726 -0.399790 6.006569
0.236363 1.787872 6.061187
-0.840669 -2.141244 6.015674
-1.170853 0.723192 5.984949
0.818144 -1.740055 6.010523
-1.605291 -0.335800 6.006852
-0.646431 -2.181980 6.018476
1.623540 0.507095 5.960345
0.875472 -1.689628 6.002927
-1.627295 -0.238424 5.953706
-1.115973 0.873018 5.992986
-0.940035 -2.068991 6.030590
-1.097576 0.905147 5.976060
1.482709 0.696852 6.075415
-0.524529 -2.114121 6.017560
0.973358 1.730862 6.026940
-0.485235 -2.061360 6.011642
1.052718 1.704167 6.007828
-0.409258 -2.098895 5.940621
1.255530 1.408143 6.001731
1.068642 -1.473286 6.031578
1.085938 -1.450295 6.041389
1.113265 -1.420823 6.047797
1.127500 -1.403818 6.050745
1.129642 -1.401839 6.052748
1.156289 -1.376119 6.053987
1.147961 -1.387694 6.062359
1.147955 -1.387526 6.062097
1.153377 -1.382685 6.061933
1.148079 -1.387377 6.061978
1.180222 -1.356019 6.058070
1.065856 -1.475364 6.025379
1.126820 -1.404114 6.048768
1.143940 -1.389108 6.053983
1.076318 -1.472795 6.060515
1.086860 -1.457680 6.065910
1.117779 -1.423092 6.072967
1.118472 -1.422038 6.072208
1.145876 -1.392196 6.076295
1.164776 -1.375696 6.077919
1.177323 -1.364676 6.078324
1.115974 -1.419855 6.055310
1.128409 -1.403864 6.054824
1.147572 -1.388109 6.062291
-0.546910 -2.081631 6.084058
1.252014 -1.270494 6.062388
0.080239 1.646635 6.205755
-0.473098 -2.012735 6.027543
1.305292 -1.185447 6.010530
-0.387280 -2.004807 6.012530
0.166366 1.706810 6.188354
-1.385477 -1.635182 6.148011
0.191331 1.713214 6.202510
-1.418088 -1.596633 6.116563
-1.459083 -1.019610 6.293030
0.242956 1.736831 6.205323
0.275670 1.745358 6.220843
-1.224487 -1.884220 6.165456
-1.250930 -1.866361 6.156198
-1.397282 -1.531791 6.176245
1.653845 0.542503 6.073168
-1.281866 -1.814337 6.178395
1.649702 0.567255 6.096687
-1.284094 0.268070 6.140216
-1.341436 -1.733481 6.172905
1.644015 0.608942 6.156990
-1.274649 0.276835 6.148748
-1.671002 -0.735026 6.020360
-1.275220 0.280614 6.143093
1.163056 1.439741 6.111689
-1.670436 -0.709217 6.035540
1.599266 0.657632 6.205072
-1.161021 -1.956746 6.113526
-1.274666 0.281487 6.143064
1.160605 1.440935 6.123046
-1.060086 -2.000834 6.102400
-1.267351 0.295216 6.140245
-1.649144 -0.593270 6.087439
1.576648 0.674177 6.198514
-1.250988 0.316471 6.141449
-1.640541 -0.555913 6.093082
1.096431 1.535832 6.146941
1.496263 0.748292 6.173873
0.794299 -1.777334 6.050894
-1.227561 0.358784 6.127752
-0.971298 1.253602 6.036234
1.007203 1.666480 6.091149
1.356705 0.853528 6.136726
0.853961 -1.722324 6.043541
-1.226254 0.360152 6.128272
-1.359857 -1.671553 6.174775
1.001916 1.672302 6.086936
-1.646165 -0.507745 6.072384
0.885581 -1.694718 6.042868
-1.180788 0.441691 6.104412
0.910267 1.754421 6.062635
-0.927524 1.269834 6.053250
0.937633 -1.650891 6.028676
0.894015 1.759622 6.071192
-1.112162 0.585760 6.115014
-1.582493 -0.390364 6.055709
1.464667 -0.941344 6.003536
-0.711253 -2.132782 6.099835
1.477306 0.765196 6.160729
-0.912363 1.278528 6.052676
1.008623 -1.589595 6.019973
1.084602 1.566769 6.139207
-1.566420 -0.364843 6.066298
-0.752780 -2.117030 6.103034
-1.102263 0.607595 6.122074
1.502928 -0.871075 5.999024
-1.549114 -0.332173 6.078010
1.641623 0.627797 6.197553
-0.886531 -2.037704 6.097332
1.049625 -1.526307 6.053597
-1.093097 0.636341 6.129330
-1.093597 0.701411 6.132794
-0.942730 -2.018053 6.118698
1.520798 -0.819327 5.990189
-0.812450 1.332293 6.059358
-0.767557 -2.084209 6.118198
-1.108258 0.714296 6.117859
-0.751397 1.362277 6.091805
-0.780862 -2.069703 6.122261
1.255887 1.334192 6.069419
-1.114446 0.728518 6.111132
1.527209 -0.787507 5.980793
1.250689 1.362848 6.068186
0.823298 1.774070 6.112330
1.245792 1.388590 6.053919
-0.710087 -2.133052 6.099787
-1.115612 0.770434 6.117136
-0.693711 1.377762 6.147752
-1.089401 0.791955 6.133004
-0.625553 -2.133926 6.077026
-0.632469 1.397454 6.191033
-0.351671 1.566384 6.039963
-0.589144 -2.107042 6.091492
-0.306823 1.584211 6.035592
-0.556771 1.474941 6.144046
-1.038326 0.853985 6.113068
-0.552223 -2.083432 6.090243
-0.548337 1.483513 6.134697
-0.411254 1.541625 6.066668
-0.997062 -1.999954 6.135302
-0.412207 1.541669 6.065506
-0.398323 1.546308 6.062512
-0.466513 1.528324 6.069008
-1.150001 -1.988812 6.072478
-0.999989 1.271626 5.965925
-1.053090 -2.011245 6.087852
1.398320 -1.031267 5.958298
-1.284757 0.268920 6.138148
-1.426828 -1.630697 6.089429
-1.393015 -1.674790 6.119506
-0.813215 1.360282 6.012419
1.507164 -0.847637 5.965116
0.162451 1.714097 6.168421
-1.229294 0.416153 6.017326
0.407552 -1.887396 5.993403
-1.682233 -0.503722 6.024220
1.654503 0.454578 5.968268
-1.656851 -0.504741 6.057145
-0.666172 1.397946 6.147699
-1.227750 0.363734 6.121468
-0.774335 -2.118146 6.088393
-0.556489 1.478644 6.136367
1.638339 0.596397 6.121498
1.170529 1.446979 6.086411
-0.849503 -2.082129 6.068187
-1.580680 -0.333336 6.040416
-0.408105 1.543600 6.061268
-1.203712 0.459871 6.010508
-0.986777 -2.002570 6.133755
1.009465 1.672426 6.081655
-1.607636 -0.233136 5.975721
0.909716 1.761500 6.054032
-0.779684 -2.084164 6.110868
1.438943 0.768712 6.054835
0.786973 -1.776851 6.037176
-0.337424 1.589208 5.971429
-1.109891 0.596087 6.115427
1.099850 1.647620 6.022472
-0.599714 -2.133552 6.068239
1.352828 0.867481 6.117569
0.825151 1.789414 6.087862
-1.123031 0.742941 6.099115
0.885952 1.777859 6.056368
1.247183 1.385402 6.053862
-0.310875 1.596864 5.989898
1.088424 -1.476026 6.117070
1.102724 -1.451389 6.109304
1.089521 -1.466571 6.102498
1.109409 -1.443025 6.107989
1.104351 -1.445413 6.099958
1.129748 -1.420077 6.108688
1.104079 -1.444810 6.097236
1.153975 -1.396498 6.114904
1.171679 -1.381632 6.117096
1.199218 -1.354184 6.118454
1.221768 -1.325124 6.119486
1.101973 -1.445921 6.092085
1.155266 -1.385102 6.081369
1.199464 -1.348447 6.098553
1.097672 -1.480203 6.162941
1.116271 -1.448733 6.156035
1.137850 -1.424809 6.154394
1.153560 -1.408915 6.152403
1.196192 -1.370702 6.168550
1.199628 -1.367133 6.171309
1.238364 -1.316204 6.171730
1.092294 -1.481326 6.143174
1.106533 -1.450193 6.120773
1.102306 -1.452002 6.114712
1.195209 -1.370231 6.162298
-1.222390 -1.851547 6.201920
-1.045234 0.579234 6.215961
-1.270288 -1.771610 6.239766
-1.035025 0.691567 6.193726
-1.153142 -1.932874 6.153835
-0.998490 0.755208 6.243536
1.483059 0.779378 6.326070
-1.193364 -1.886319 6.191751
-1.069681 -1.977717 6.132653
-1.353643 -1.593997 6.209363
0.904962 1.739211 6.091984
1.641882 0.674776 6.325519
-1.350311 -1.530283 6.242304
0.845774 1.754656 6.124121
-0.993666 0.845021 6.240471
1.621244 0.696534 6.332668
0.796124 -1.786017 6.072280
-1.295579 -1.706143 6.257235
-1.327164 -1.449615 6.332807
1.005055 1.653554 6.115507
1.667416 0.632390 6.269343
-1.314812 -1.671249 6.237857
-1.618634 -0.508795 6.108403
1.610101 0.702121 6.323998
1.076299 1.519815 6.202321
-1.616742 -0.504505 6.108858
1.663207 0.628995 6.253956
-0.970872 -1.982591 6.174696
-1.552834 -0.406813 6.110865
-0.935376 1.183320 6.195203
0.938154 -1.673655 6.110083
1.003734 1.650097 6.127095
-1.491154 -0.354978 6.161565
-1.011624 -1.990735 6.147952
1.248120 1.047672 6.227188
-0.927464 1.193532 6.187436
1.045066 -1.608306 6.161879
1.245700 1.076546 6.232774
-1.483492 -0.348390 6.167759
-0.966651 -1.982323 6.176539
1.065741 -1.572215 6.165837
0.421071 1.726508 6.310843
-0.894666 1.238934 6.144593
0.499845 1.726972 6.300747
-0.721919 -2.023544 6.188726
1.229832 1.182458 6.213110
-1.439831 -1.027475 6.323291
-0.836728 1.276082 6.134059
-0.757677 -2.003345 6.192555
-0.807370 1.298323 6.124773
1.236190 1.268996 6.162094
-1.455714 -1.009227 6.304844
1.712986 -0.402879 6.216990
1.246649 -1.304478 6.167698
-0.706150 1.353162 6.170410
1.585730 0.720131 6.321084
0.810959 1.759432 6.146053
1.702802 -0.404780 6.191525
1.280989 -1.244362 6.119207
-0.341575 1.538435 6.156179
-0.694694 1.356670 6.180790
-0.720746 -2.022324 6.190055
-0.277237 1.531487 6.208237
-0.108986 1.491498 6.341006
-0.592148 1.387780 6.255901
-0.915667 -1.988081 6.176649
-1.623479 -0.600630 6.119674
-0.572263 1.401275 6.259558
-0.001060 1.511901 6.363268
-0.503979 1.459135 6.238195
-0.761897 -2.001664 6.192617
0.075412 1.589532 6.314031
-0.447632 1.507421 6.176940
-0.401813 1.531425 6.134948
-0.679475 -2.042978 6.182463
1.157416 1.427350 6.165147
0.104586 1.612302 6.304058
-0.588744 -2.071179 6.138043
-1.272912 0.271493 6.178075
-1.245070 0.303499 6.210983
0.151786 1.649744 6.290732
-1.225461 0.324789 6.239073
0.242204 1.716740 6.258799
-1.221135 0.330198 6.238268
1.499619 -0.891282 6.064260
0.269664 1.725873 6.275486
-1.190895 0.365358 6.242428
0.298287 1.732144 6.288546
-1.175714 0.381941 6.237389
-1.126435 0.441725 6.214975
1.155140 1.433150 6.167483
-1.107206 0.473137 6.206399
1.076585 1.519126 6.202502
-1.079078 0.693894 6.148126
-1.375558 -1.578166 6.187685
-1.110167 0.730415 6.118245
1.492440 0.756436 6.196349
-1.368417 -1.509376 6.234199
-1.576498 -0.384251 6.061445
-1.087830 0.781165 6.141747
1.625625 0.662187 6.259933
1.049965 -1.585471 6.136758
1.004297 1.661392 6.101386
-1.495505 -0.347303 6.150094
1.702331 -0.404561 6.190160
1.662128 0.628670 6.250080
-1.226417 -1.877566 6.173542
1.078303 1.529602 6.189471
-1.295407 -1.744876 6.242872
0.418329 1.728818 6.307895
1.247170 1.164066 6.178021
-1.451739 -1.021484 6.304631
1.252861 1.324659 6.088698
-0.711169 -2.132688 6.099965
-1.274332 0.279846 6.145723
-0.969858 -1.986962 6.167705
-1.666562 -0.711355 6.041352
-0.913692 1.271086 6.065251
-0.891063 -2.021628 6.119965
-1.640004 -0.591166 6.098549
-0.728847 -2.091814 6.133408
-0.779641 -2.018644 6.168595
0.075827 1.591568 6.310472
-0.634625 -2.118124 6.106288
0.238274 1.723673 6.234080
-0.643791 -2.088638 6.137899
-0.586372 1.398759 6.246838
-0.553157 -2.082729 6.092346
-0.498912 1.504958 6.136903
0.284080 1.733944 6.267162
-0.411058 1.541635 6.067417
-1.151116 -1.830031 6.272877
-1.007738 0.605602 6.317662
-1.168288 -1.821881 6.270632
-0.967301 0.682305 6.309976
-1.080453 -1.876635 6.251983
-1.264407 -1.629817 6.312803
-0.964846 0.705045 6.303541
-1.472364 -0.416624 6.274067
-1.250750 -1.641345 6.328326
-1.206901 -1.734907 6.321500
-1.426605 -0.347887 6.294467
-1.287973 -1.545699 6.304747
-1.247172 -1.691078 6.315614
-1.310118 -1.450218 6.353332
0.968192 1.537854 6.325575
-1.418317 -0.334394 6.303846
1.163787 1.180401 6.313577
0.890374 1.587334 6.344677
-0.893106 -1.931793 6.271839
-0.952995 -1.947472 6.241300
1.122830 1.283416 6.310834
0.794308 1.662418 6.317386
1.658518 0.684127 6.375413
0.886571 1.595697 6.337736
1.076976 1.335494 6.325393
-1.002240 -1.904129 6.255194
0.098255 -1.989578 6.363152
1.007158 1.471339 6.355766
-0.777470 -1.934739 6.272285
0.046373 -1.996046 6.347374
1.627831 0.714732 6.375010
-0.710044 -1.953613 6.261717
1.582631 0.743826 6.370735
0.447158 1.725127 6.307583
1.603975 0.731465 6.371961
0.124258 -1.987265 6.341270
0.502504 1.724489 6.305208
-0.690955 -1.944044 6.273813
1.672531 0.661285 6.361963
-0.662885 -1.942270 6.271535
0.530269 1.722091 6.309754
-0.957685 0.957003 6.326921
1.325832 0.981403 6.386253
-0.955400 0.961965 6.327470
1.257712 1.061885 6.342795
-0.893312 1.073778 6.337397
1.256077 1.064621 6.329697
-0.879975 1.136184 6.305193
1.164217 1.180143 6.313110
1.044862 -1.633033 6.259161
-0.843491 1.162387 6.311195
-0.800992 1.235177 6.241953
1.084087 -1.591022 6.256212
-0.729023 1.314736 6.201404
-0.695044 1.332411 6.217148
-0.131395 1.442661 6.429935
1.512407 0.795081 6.393955
-0.646916 1.350909 6.248637
1.124175 -1.475552 6.246199
-1.195497 0.369258 6.283378
1.150691 -1.448858 6.262114
-1.159663 0.402788 6.292992
-1.256652 -1.578624 6.334433
-0.610509 1.363375 6.271377
-0.171808 1.446122 6.433432
-1.135002 0.427053 6.304874
-0.534839 1.390624 6.315921
-1.301248 -1.411403 6.400642
1.190160 -1.409175 6.276712
-1.092446 0.469723 6.312559
-0.299804 1.479783 6.355834
-0.484213 1.417650 6.330380
-0.220116 1.467924 6.389920
-0.429816 1.474191 6.291672
1.239786 -1.348280 6.285926
-1.077244 0.485153 6.322426
-0.186601 1.461300 6.403686
-0.378580 1.483745 6.304512
1.242283 -1.343956 6.283833
-1.383466 -1.089107 6.410807
-0.037877 1.452796 6.415663
1.273423 -1.293188 6.287172
-0.403981 1.482332 6.289731
-1.409747 -1.056331 6.367990
-0.030521 1.455875 6.415126
-1.429736 -1.024757 6.342179
0.017772 1.501926 6.392577
-1.447030 -1.003256 6.323148
-0.201074 1.463696 6.399458
0.063536 1.545606 6.383965
-1.420898 -1.040428 6.352344
1.437307 -1.018237 6.199965
0.150076 1.624268 6.342948
0.158085 1.631741 6.338819
0.205411 1.677534 6.306674
0.426318 1.721167 6.316880
0.393258 1.723117 6.327878
0.238578 1.701989 6.295635
0.298446 1.723981 6.313492
1.068163 1.396831 6.306082
1.055329 1.420291 6.306327
-1.616459 -0.505556 6.109854
-1.220108 -1.809843 6.241781
1.159716 1.210345 6.304437
-1.308507 -1.620759 6.259646
-0.972182 0.706566 6.292925
-1.153850 -1.879339 6.219116
-1.338023 -1.550981 6.247445
1.155068 1.369525 6.219602
-0.971013 0.770154 6.287087
-1.094367 -1.937241 6.179453
-1.269191 -1.583045 6.317857
0.098105 -1.989331 6.356879
-0.957594 0.957937 6.326452
-1.300101 -1.688961 6.254162
1.155644 -1.419314 6.192939
0.998734 1.643772 6.142008
0.126456 -1.987193 6.336561
1.631893 0.696224 6.350933
-1.324191 -1.447170 6.338633
-0.945923 1.123435 6.258940
0.807873 1.757287 6.151420
-0.928274 1.175649 6.214379
-0.968125 -1.981879 6.176891
-0.883557 1.156788 6.282594
1.255752 1.065263 6.327381
0.427424 1.723591 6.312058
-0.719287 -2.013686 6.197703
