1.264171 0.709207 6.977328
-0.493094 -1.050866 6.977328
0.894220 -0.848148 6.977328
-1.755284 0.340668 6.977328
1.261374 0.710619 6.977328
-1.707440 -0.491720 6.977328
-0.497557 -1.046646 6.977328
0.801733 1.733894 6.977328
0.986708 -0.843430 6.977328
-1.731015 0.433156 6.977328
1.282115 0.618131 6.977328
-1.709243 -0.399232 6.977328
-0.400607 -1.111295 6.977328
1.079195 -0.791207 6.977328
-1.726208 0.525644 6.977328
0.339294 1.913030 6.977328
-1.779375 -0.306745 6.977328
-1.697722 0.618131 6.977328
1.178880 0.803107 6.977328
0.431782 1.940239 6.977328
1.103045 -0.769183 6.977328
-1.776621 -0.214257 6.977328
-1.695434 0.621030 6.977328
1.171683 0.814881 6.977328
0.524270 1.936487 6.977328
-0.308119 -1.169354 6.977328
-1.629639 0.710619 6.977328
-1.762603 -0.121770 6.977328
1.145840 0.895594 6.977328
0.616757 1.877052 6.977328
-0.368485 -1.139134 6.977328
-1.787921 -0.052696 6.977328
1.145381 -0.676695 6.977328
-1.610934 0.803107 6.977328
-1.301415 1.265545 6.977328
-0.215631 -1.163015 6.977328
0.573695 1.912958 6.977328
1.157877 0.988082 6.977328
1.156339 -0.584208 6.977328
-1.232996 1.351509 6.977328
-1.602946 0.815252 6.977328
-0.149070 -1.139134 6.977328
-0.955533 -1.353312 6.977328
-1.229963 1.358032 6.977328
-1.559516 0.895594 6.977328
-1.036395 -1.324109 6.977328
1.171683 -0.510775 6.977328
-1.140508 1.419708 6.977328
-1.510458 0.963563 6.977328
-0.891641 -1.324109 6.977328
1.177708 -0.491720 6.977328
-0.123144 -1.131594 6.977328
-1.088673 1.450520 6.977328
-1.493696 0.988082 6.977328
-1.048020 -1.300612 6.977328
-0.030656 -1.075926 6.977328
1.209653 -0.399232 6.977328
-1.048020 1.517701 6.977328
-1.098399 -1.231621 6.977328
-1.000148 1.543008 6.977328
-1.421847 1.080570 6.977328
0.003575 -1.046646 6.977328
1.230819 -0.306745 6.977328
-1.417971 1.094243 6.977328
-0.955533 1.575913 6.977328
-1.048020 -1.146084 6.977328
-1.358597 1.173057 6.977328
0.061831 -1.013728 6.977328
-0.863045 1.591372 6.977328
-1.325483 1.211198 6.977328
1.264171 -0.248339 6.977328
0.154319 -1.002155 6.977328
-0.793090 1.635495 6.977328
-0.955533 -1.147767 6.977328
-0.863045 -1.273987 6.977328
0.246807 -0.968869 6.977328
-0.770557 1.666870 6.977328
-0.799089 -1.231621 6.977328
-0.744017 1.727983 6.977328
-0.678070 1.815530 6.977328
-0.672509 1.820470 6.977328
-0.585582 1.878489 6.977328
-0.514115 1.912958 6.977328
-0.493094 1.919060 6.977328
-0.400607 1.937986 6.977328
-0.308119 1.956813 6.977328
-0.215631 1.984742 6.977328
-0.123144 1.991517 6.977328
-0.083723 2.005446 6.977328
-0.030656 2.010112 6.977328
0.061831 1.993233 6.977328
0.013438 2.005446 6.977328
0.154319 1.974676 6.977328
0.246807 1.940917 6.977328
-1.510458 -0.861671 6.964377
1.264171 -0.214257 6.939445
0.616757 -0.954158 6.903023
-0.678070 -1.139134 6.975430
1.264171 0.063206 6.947321
-1.602946 -0.769183 6.926322
0.709245 -0.954158 6.955703
1.264171 0.155693 6.926738
-0.585582 -1.139134 6.905321
-1.232996 -0.954158 6.922535
1.264171 0.248181 6.923953
-1.417971 -0.861671 6.907153
-0.493094 -1.139134 6.891775
1.264171 0.340668 6.959485
0.801733 -0.861671 6.929630
1.264171 0.525644 6.945840
-0.955533 -1.046646 6.903496
-1.695434 -0.584208 6.968799
0.709245 1.820470 6.947536
-1.048020 -0.954158 6.908522
1.264171 0.710619 6.969720
1.079195 -0.769183 6.904495
-1.417971 1.080570 6.948553
0.061831 2.005446 6.913671
-0.863045 -1.139134 6.976215
0.986708 1.635495 6.937461
0.154319 2.005446 6.897075
-0.955533 -1.324109 6.924299
-1.048020 -1.231621 6.912895
-0.955533 -1.231621 6.926901
-0.585582 -1.046646 6.944498
1.171683 -0.491720 6.896891
-0.863045 -1.231621 6.943433
-0.123144 -1.139134 6.949265
-0.030656 -1.139134 6.915110
0.061831 -1.046646 6.950439
0.154319 -1.046646 6.912083
1.171683 0.378210 7.069816
1.167592 0.386912 7.069816
1.136765 0.433156 7.069816
-1.510458 -0.865838 7.069816
-0.770557 -1.299695 7.069816
0.431782 -0.973961 7.069816
-1.265321 1.265545 7.069816
1.299328 -0.214257 7.069816
1.264171 0.029393 7.069816
0.351934 -0.954158 7.069816
-1.232996 1.296310 7.069816
1.300809 -0.121770 7.069816
1.247304 0.063206 7.069816
-1.514917 -0.861671 7.069816
0.524270 -0.958045 7.069816
1.291540 -0.029282 7.069816
1.215989 0.155693 7.069816
-1.199280 1.358032 7.069816
1.144999 1.080570 7.069816
0.536407 -0.954158 7.069816
-0.702464 -1.231621 7.069816
-1.602946 -0.802102 7.069816
1.123835 1.173057 7.069816
0.339294 -0.951992 7.069816
-1.140508 1.436517 7.069816
-1.642043 -0.769183 7.069816
-0.678418 -1.139134 7.069816
1.213217 0.248181 7.069816
0.616757 -0.946245 7.069816
1.125534 1.265545 7.069816
-1.793441 -0.029282 7.069816
0.709245 -0.938425 7.069816
1.190168 0.340668 7.069816
-1.125803 1.450520 7.069816
-1.051444 -1.139134 7.069816
1.151794 1.358032 7.069816
-1.802452 0.063206 7.069816
0.801733 -0.868708 7.069816
-1.325483 -0.986686 7.069816
1.108947 1.450520 7.069816
-1.055683 -1.046646 7.069816
0.829964 -0.861671 7.069816
-1.787921 0.122409 7.069816
1.090736 0.525644 7.069816
0.894220 -0.852060 7.069816
0.709245 1.765706 7.069816
-1.392463 -0.954158 7.069816
-1.048020 1.505327 7.069816
0.657004 1.820470 7.069816
-1.140508 -1.009412 7.069816
-1.779022 0.155693 7.069816
1.171683 0.557374 7.069816
1.079195 1.470173 7.069816
-1.004837 1.543008 7.069816
-1.232996 -1.012392 7.069816
0.986708 -0.862862 7.069816
0.989965 1.543008 7.069816
0.978827 -0.861671 7.069816
1.260516 0.618131 7.069816
-0.678070 -1.121539 7.069816
-1.787921 0.200610 7.069816
-0.955533 1.573776 7.069816
-1.417971 -0.942726 7.069816
-1.798214 0.248181 7.069816
-0.674527 -1.046646 7.069816
1.249249 0.710619 7.069816
0.986708 1.548097 7.069816
0.995061 -0.861671 7.069816
-0.863045 1.622327 7.069816
0.921773 1.635495 7.069816
-0.585582 -0.972067 7.069816
1.079195 -0.826013 7.069816
-1.787921 0.293633 7.069816
-1.695434 -0.688438 7.069816
0.801733 1.723675 7.069816
-0.852166 1.635495 7.069816
1.199820 0.803107 7.069816
-1.766839 0.340668 7.069816
-0.552308 -0.954158 7.069816
0.788066 1.727983 7.069816
-1.699724 -0.676695 7.069816
1.171683 -0.798238 7.069816
0.894220 1.661242 7.069816
-0.770557 1.707017 7.069816
1.171683 0.863807 7.069816
-0.400607 -0.986386 7.069816
-1.726865 0.433156 7.069816
1.164153 0.895594 7.069816
-1.726078 -0.584208 7.069816
0.524270 1.909999 7.069816
1.232444 -0.769183 7.069816
-0.755380 1.727983 7.069816
-0.413015 -0.954158 7.069816
0.513635 1.912958 7.069816
-1.699937 0.525644 7.069816
1.171194 0.988082 7.069816
-0.678070 1.805132 7.069816
1.235574 -0.676695 7.069816
0.339294 1.945679 7.069816
-0.493094 -0.934453 7.069816
-1.695434 0.539982 7.069816
0.431782 1.942690 7.069816
1.191958 -0.584208 7.069816
-0.642949 1.820470 7.069816
-1.739460 -0.491720 7.069816
0.616757 1.865098 7.069816
1.215654 -0.491720 7.069816
-1.664419 0.618131 7.069816
-1.736186 -0.399232 7.069816
-0.215631 -1.147597 7.069816
-0.585582 1.848810 7.069816
-1.643824 0.710619 7.069816
1.211602 -0.399232 7.069816
-0.216518 -1.139134 7.069816
-0.493094 1.886132 7.069816
-0.400607 1.907537 7.069816
-1.734229 -0.306745 7.069816
-0.374588 1.912958 7.069816
-0.192009 -1.139134 7.069816
-0.308119 1.936671 7.069816
-1.624609 0.803107 7.069816
-0.215631 1.974868 7.069816
1.264171 -0.321755 7.069816
-1.784852 -0.214257 7.069816
-0.123144 1.987713 7.069816
-1.602946 0.847894 7.069816
-0.308119 -1.122610 7.069816
-0.030656 1.983376 7.069816
1.276386 -0.306745 7.069816
-1.523966 0.895594 7.069816
-1.781579 -0.121770 7.069816
-0.378407 -1.046646 7.069816
0.061831 1.965930 7.069816
-1.787921 -0.072990 7.069816
-1.510623 0.988082 7.069816
0.154319 1.959614 7.069816
-0.123144 -1.084054 7.069816
-1.510458 0.988506 7.069816
0.246807 1.974302 7.069816
-0.069559 -1.046646 7.069816
-0.863045 -1.346395 7.069816
-1.454631 1.080570 7.069816
-0.030656 -1.022633 7.069816
-0.932770 -1.324109 7.069816
-1.417971 1.128932 7.069816
0.061831 -0.957231 7.069816
-0.791344 -1.324109 7.069816
-1.325483 1.144306 7.069816
0.064933 -0.954158 7.069816
-0.955533 -1.301007 7.069816
-1.297055 1.173057 7.069816
-1.042757 -1.231621 7.069816
0.154319 -0.907356 7.069816
-1.048020 -1.163223 7.069816
0.246807 -0.944157 7.069816
-0.770557 -1.231621 6.991899
0.339294 -0.954158 7.063800
-1.325483 -0.954158 7.006839
-1.787921 0.155693 7.042762
0.524270 -0.954158 6.977640
-1.048020 -1.139134 6.985588
0.616757 -0.954158 7.060245
-1.048020 -1.046646 7.040222
1.171683 0.433156 7.036489
0.709245 -0.954158 7.059305
0.801733 1.727983 7.036510
-0.955533 -1.139134 6.982621
1.264171 0.433156 6.979315
-1.695434 -0.676695 7.048583
-0.955533 -1.046646 7.038083
-0.493094 1.912958 7.001508
-1.695434 0.618131 6.982180
0.524270 1.912958 7.064292
1.171683 0.525644 7.019412
0.801733 -0.861671 7.027073
-0.400607 1.912958 7.049054
0.986708 -0.861671 7.064786
1.264171 0.618131 7.060721
-0.955533 -1.324109 7.054475
-0.030656 2.005446 6.997584
-0.863045 -1.324109 7.004453
-0.493094 -1.046646 6.980150
1.171683 -0.769183 7.044286
-1.510458 0.988082 7.068109
-1.048020 -1.231621 7.062355
-0.400607 -1.046646 7.049697
1.171683 -0.676695 7.002563
-0.493094 -0.954158 7.053606
1.171683 -0.584208 7.026082
-1.325483 1.173057 6.993110
-0.308119 -1.139134 7.045996
1.264171 -0.306745 7.058270
-0.030656 -1.046646 7.001693
0.154319 -0.954158 7.023034
0.246807 -0.954158 7.047654
1.171683 0.311664 7.116059
1.157814 0.340668 7.116059
1.134865 0.386912 7.116059
1.125439 0.401534 7.116059
1.107238 0.433156 7.116059
1.171683 0.340668 7.095586
1.125439 0.433156 7.084009
1.032952 0.337375 7.162303
1.025186 0.340668 7.162303
1.033786 0.340668 7.162303
1.032952 0.341896 7.162303
1.171683 0.256421 7.162303
1.152943 0.294425 7.162303
1.134720 0.340668 7.162303
1.125439 0.362989 7.162303
1.112693 0.386912 7.162303
1.085781 0.433156 7.162303
1.032952 0.340668 7.156159
1.171683 0.294425 7.128904
1.125439 0.386912 7.132954
1.264171 -0.517016 7.162303
-1.510458 0.877757 7.162303
0.339294 -0.939865 7.162303
-0.400607 1.900285 7.162303
-0.770557 -1.336459 7.162303
-1.510458 -0.877476 7.162303
1.146806 1.450520 7.162303
-0.722315 -1.324109 7.162303
0.431782 -0.941162 7.162303
-0.366897 1.912958 7.162303
1.079195 1.488766 7.162303
-1.524134 -0.861671 7.162303
-1.503425 0.895594 7.162303
-0.678070 -1.295574 7.162303
-0.215631 1.909964 7.162303
0.524270 -0.932826 7.162303
-1.500909 0.988082 7.162303
-0.611929 -1.231621 7.162303
-0.262570 1.912958 7.162303
-1.602946 -0.795318 7.162303
-1.430855 1.080570 7.162303
-0.585582 -1.186787 7.162303
-1.633169 -0.769183 7.162303
1.246514 -0.491720 7.162303
0.616757 -0.919336 7.162303
-0.560061 -1.139134 7.162303
-1.417971 1.091853 7.162303
-0.308119 1.923641 7.162303
-1.417971 -0.991151 7.162303
-1.344480 1.173057 7.162303
1.079195 0.601536 7.162303
1.264171 -0.406204 7.162303
-1.455484 -0.954158 7.162303
-1.325483 1.233092 7.162303
-1.048020 -1.091745 7.162303
1.171683 0.568791 7.162303
-0.172379 1.912958 7.162303
-1.325483 -1.011953 7.162303
-1.139192 -1.046646 7.162303
-1.301082 1.265545 7.162303
1.249510 0.618131 7.162303
1.322353 -0.584208 7.162303
-0.988991 -1.139134 7.162303
-0.123144 1.933321 7.162303
1.264171 0.639122 7.162303
-1.232996 1.333520 7.162303
-1.232996 -1.028134 7.162303
-1.140508 -1.046278 7.162303
-1.222013 1.358032 7.162303
1.267555 0.710619 7.162303
-0.030656 1.967046 7.162303
1.310728 -0.399232 7.162303
-1.140508 1.415789 7.162303
-0.558918 -1.046646 7.162303
0.061831 1.973190 7.162303
1.264171 0.728377 7.162303
-0.546082 -0.954158 7.162303
-1.695434 -0.618771 7.162303
0.709245 -0.907394 7.162303
1.194598 0.803107 7.162303
-1.696047 -0.584208 7.162303
-1.058192 1.450520 7.162303
1.356658 -0.391703 7.162303
0.154319 1.997448 7.162303
1.171683 0.839858 7.162303
-0.493094 -0.904303 7.162303
-1.692953 -0.676695 7.162303
1.159098 0.895594 7.162303
-0.400607 -0.875643 7.162303
1.367108 -0.306745 7.162303
0.801733 -0.900548 7.162303
-1.719528 -0.491720 7.162303
-1.048020 1.461172 7.162303
0.246807 2.002975 7.162303
1.156712 0.988082 7.162303
-1.729648 -0.399232 7.162303
1.356658 -0.275203 7.162303
-0.308119 -1.143990 7.162303
-0.955533 1.498121 7.162303
0.894220 -0.921224 7.162303
1.325385 -0.214257 7.162303
1.145972 1.080570 7.162303
-0.922740 1.543008 7.162303
-1.753836 -0.306745 7.162303
-0.309874 -1.139134 7.162303
0.339294 1.974077 7.162303
-0.863045 1.605652 7.162303
-0.301966 -1.139134 7.162303
0.986708 -0.922415 7.162303
1.140534 1.173057 7.162303
-0.831305 1.635495 7.162303
-1.787921 -0.247026 7.162303
1.281580 -0.121770 7.162303
1.144958 1.265545 7.162303
-0.308119 -1.136598 7.162303
-0.783950 1.727983 7.162303
1.079195 -0.940978 7.162303
-0.770557 1.741125 7.162303
1.283261 -0.029282 7.162303
-0.215631 -1.019721 7.162303
1.079195 0.443296 7.162303
1.148707 1.358032 7.162303
-0.225947 -0.954158 7.162303
-1.805011 -0.214257 7.162303
-0.678070 1.794868 7.162303
1.025215 0.525644 7.162303
-0.638450 1.820470 7.162303
-0.123144 -1.023280 7.162303
-1.798434 -0.121770 7.162303
1.171683 -0.919519 7.162303
-0.030656 -0.961377 7.162303
0.616757 1.813475 7.162303
-0.585582 1.846054 7.162303
-1.794786 -0.029282 7.162303
0.567939 1.820470 7.162303
1.264171 -0.877069 7.162303
-0.308119 -0.871614 7.162303
-0.493094 1.871165 7.162303
1.264171 0.055815 7.162303
0.709245 1.768588 7.162303
1.260457 0.063206 7.162303
-0.787162 -1.324109 7.162303
1.282177 -0.861671 7.162303
1.013450 1.543008 7.162303
-0.023721 -0.954158 7.162303
-1.787921 -0.007986 7.162303
0.986708 1.586978 7.162303
1.223009 0.155693 7.162303
0.061831 -0.873055 7.162303
1.340238 -0.769183 7.162303
-1.767276 0.063206 7.162303
0.154319 -0.873735 7.162303
0.921400 1.635495 7.162303
1.180559 0.248181 7.162303
-1.774516 0.155693 7.162303
0.801733 1.719378 7.162303
0.246807 -0.900285 7.162303
0.772945 1.727983 7.162303
-0.955533 -1.181602 7.162303
1.342986 -0.676695 7.162303
-1.759263 0.248181 7.162303
0.894220 1.682242 7.162303
-0.863045 -1.235842 7.162303
-1.778861 0.340668 7.162303
-0.868893 -1.231621 7.162303
0.524270 1.838587 7.162303
-1.737858 0.433156 7.162303
0.452487 1.912958 7.162303
0.431782 1.921342 7.162303
-1.695996 0.525644 7.162303
-1.695434 0.526081 7.162303
-1.636673 0.618131 7.162303
-1.612987 0.710619 7.162303
-1.602946 0.745639 7.162303
-1.560251 0.803107 7.162303
1.264171 -0.584208 7.120256
-0.770557 -1.324109 7.118878
1.079195 0.525644 7.077559
0.431782 -0.954158 7.119915
-0.215631 1.912958 7.157183
-1.510458 0.895594 7.102311
-1.417971 -0.954158 7.093066
1.264171 0.710619 7.148859
1.264171 -0.399232 7.154824
-1.510458 0.988082 7.108663
-0.678070 -1.231621 7.105433
0.524270 -0.954158 7.078056
-0.678070 -1.139134 7.070642
-1.695434 -0.676695 7.156121
1.356658 -0.306745 7.146529
-0.585582 -1.139134 7.152541
-1.325483 1.173057 7.140912
-1.048020 -1.139134 7.070189
-1.787921 -0.214257 7.071296
0.894220 -0.861671 7.090374
-1.787921 0.063206 7.106134
-1.787921 -0.121770 7.080811
-0.585582 -1.046646 7.148122
-1.787921 0.248181 7.120662
0.616757 1.820470 7.115903
1.079195 -0.861671 7.115922
-0.400607 -0.954158 7.077782
-0.863045 -1.324109 7.127207
-0.955533 -1.231621 7.136979
-0.955533 1.543008 7.125750
-0.308119 -1.139134 7.145484
1.171683 -0.861671 7.122952
-1.602946 0.803107 7.129014
-0.215631 -1.139134 7.088588
1.264171 -0.861671 7.148107
-0.770557 1.727983 7.103966
-0.308119 -1.046646 7.115613
1.264171 -0.769183 7.084582
-0.215631 -1.046646 7.157172
-0.308119 -0.954158 7.101264
-0.123144 -1.046646 7.132311
1.264171 -0.676695 7.088410
0.061831 -0.954158 7.074794
1.125439 0.264817 7.208547
1.115256 0.294425 7.208547
1.159971 0.248181 7.208547
1.121862 0.340668 7.208547
1.103009 0.386912 7.208547
1.081607 0.433156 7.208547
1.032952 0.340668 7.187292
1.125439 0.294425 7.182224
1.171683 0.248181 7.181416
1.125439 0.340668 7.195025
1.079195 0.426350 7.254791
1.075807 0.433156 7.254791
1.161149 0.248181 7.254791
1.133618 0.294425 7.254791
1.125439 0.306653 7.254791
1.107981 0.340668 7.254791
1.099517 0.386912 7.254791
1.079195 0.433156 7.219783
1.125439 0.294425 7.250398
-0.678070 -1.326699 7.254791
1.171683 0.572470 7.254791
-1.510458 -0.841125 7.254791
0.339294 -0.901500 7.254791
1.150594 1.450520 7.254791
-1.514744 0.895594 7.254791
-1.545373 -0.769183 7.254791
0.431782 -0.925668 7.254791
1.449146 -0.531522 7.254791
-1.510458 0.900584 7.254791
1.101105 0.618131 7.254791
1.420163 -0.491720 7.254791
-1.417971 -1.016267 7.254791
1.079195 1.536373 7.254791
-0.400607 1.899554 7.254791
-1.478382 -0.954158 7.254791
0.524270 -0.922614 7.254791
-1.470083 0.988082 7.254791
-0.308119 1.903484 7.254791
1.399668 -0.399232 7.254791
-1.325483 -1.042180 7.254791
-1.417971 1.062378 7.254791
0.616757 -0.933232 7.254791
1.254642 0.618131 7.254791
-0.248462 1.912958 7.254791
-1.232996 -1.085638 7.254791
0.709245 -0.931486 7.254791
-0.692574 -1.324109 7.254791
-1.404675 1.080570 7.254791
-1.315251 -1.046646 7.254791
1.079195 0.660881 7.254791
1.449146 -0.612694 7.254791
-0.215631 1.922909 7.254791
-0.663631 -1.324109 7.254791
-0.123144 1.961241 7.254791
-1.140508 -1.103417 7.254791
0.801733 -0.964423 7.254791
1.453762 -0.584208 7.254791
0.785229 -0.954158 7.254791
1.202740 0.710619 7.254791
-1.363572 1.173057 7.254791
-0.770557 -1.279208 7.254791
-1.503953 -0.861671 7.254791
0.894220 -0.990556 7.254791
-1.325483 1.212100 7.254791
0.986708 -1.003726 7.254791
-0.030656 1.982066 7.254791
-0.585582 -1.286472 7.254791
-1.276584 1.265545 7.254791
-1.602946 -0.725337 7.254791
1.079195 -1.003193 7.254791
1.171683 0.764191 7.254791
-1.641842 -0.676695 7.254791
1.382064 -0.306745 7.254791
0.061831 1.929929 7.254791
-1.232996 1.338643 7.254791
-0.507747 -1.231621 7.254791
1.133323 0.803107 7.254791
-1.639934 -0.584208 7.254791
0.154319 1.983926 7.254791
-1.223205 1.358032 7.254791
1.171683 -1.027561 7.254791
1.394147 -0.214257 7.254791
-0.493094 -1.220521 7.254791
1.085466 0.895594 7.254791
1.264171 -0.961058 7.254791
-1.140508 1.403309 7.254791
-1.695434 -0.463151 7.254791
0.246807 1.974899 7.254791
1.356658 -0.124703 7.254791
-1.707372 -0.399232 7.254791
-0.400607 -1.156124 7.254791
0.339294 1.916083 7.254791
1.135746 0.988082 7.254791
-1.048020 1.442918 7.254791
-1.679902 -0.491720 7.254791
1.301381 -0.954158 7.254791
1.355213 -0.121770 7.254791
-0.976554 1.450520 7.254791
1.142959 1.080570 7.254791
1.356658 -0.931074 7.254791
-1.058307 -1.139134 7.254791
-1.729270 -0.306745 7.254791
0.986708 0.517614 7.254791
1.408523 -0.861671 7.254791
-0.955533 1.456904 7.254791
-1.765543 -0.214257 7.254791
1.162114 1.173057 7.254791
0.963040 0.525644 7.254791
-1.013333 -1.139134 7.254791
1.286102 -0.029282 7.254791
1.426497 -0.769183 7.254791
-0.890487 1.543008 7.254791
-1.778207 -0.121770 7.254791
-0.955533 -1.129816 7.254791
-0.863045 1.569969 7.254791
1.171683 1.194788 7.254791
-1.776412 -0.029282 7.254791
0.965078 0.618131 7.254791
1.426031 -0.676695 7.254791
-0.799350 1.635495 7.254791
1.191852 1.265545 7.254791
-1.048020 -1.142789 7.254791
-1.768631 0.063206 7.254791
-0.770557 1.685503 7.254791
-0.938984 -1.139134 7.254791
0.986708 0.641691 7.254791
1.171683 1.349793 7.254791
-0.820714 -1.231621 7.254791
-1.695434 0.138608 7.254791
-0.749639 1.727983 7.254791
1.167344 1.358032 7.254791
-0.863045 -1.202207 7.254791
-0.678070 1.804542 7.254791
-1.689344 0.155693 7.254791
-0.648205 1.820470 7.254791
1.264171 -0.014131 7.254791
-0.382752 -1.139134 7.254791
1.070802 1.543008 7.254791
-1.695434 0.206042 7.254791
1.255419 0.063206 7.254791
-1.744271 0.248181 7.254791
0.986708 1.596344 7.254791
-0.585582 1.860344 7.254791
-1.753136 0.340668 7.254791
1.219953 0.155693 7.254791
-0.348955 -1.046646 7.254791
0.943586 1.635495 7.254791
-0.493094 1.906451 7.254791
-1.730385 0.433156 7.254791
0.894220 1.681118 7.254791
1.171683 0.223042 7.254791
-1.695434 0.519551 7.254791
0.847385 1.727983 7.254791
-1.692636 0.525644 7.254791
-0.384090 -0.954158 7.254791
0.801733 1.769304 7.254791
-1.647065 0.618131 7.254791
0.736811 1.820470 7.254791
-0.308119 -0.865139 7.254791
-1.618205 0.710619 7.254791
-0.290339 -0.861671 7.254791
-1.602946 0.729488 7.254791
0.431782 1.890835 7.254791
-1.549270 0.803107 7.254791
0.344120 1.912958 7.254791
-0.215631 -0.855114 7.254791
0.524270 1.833178 7.254791
-0.123144 -0.856194 7.254791
0.616757 1.848012 7.254791
-0.030656 -0.824250 7.254791
0.709245 1.834776 7.254791
0.061831 -0.833837 7.254791
0.154319 -0.854515 7.254791
0.246807 -0.892799 7.254791
0.165536 -0.861671 7.254791
1.264171 -0.491720 7.172945
-1.510458 -0.861671 7.191633
-0.770557 -1.324109 7.180654
-1.602946 -0.769183 7.205021
-1.510458 0.895594 7.228633
1.356658 -0.584208 7.195751
-0.678070 -1.324109 7.237524
0.801733 -0.954158 7.243630
1.356658 -0.491720 7.210497
-1.232996 -1.046646 7.203647
0.894220 -0.954158 7.199152
-1.417971 1.080570 7.195826
-0.308119 1.912958 7.196451
-1.140508 -1.046646 7.162953
1.079195 0.618131 7.199811
1.449146 -0.584208 7.248749
-0.215631 1.912958 7.162967
0.986708 -0.954158 7.193216
-0.585582 -1.231621 7.184938
1.356658 -0.399232 7.170992
1.079195 -0.954158 7.172241
1.264171 0.710619 7.170720
-1.695434 -0.584208 7.164153
-1.048020 1.450520 7.184482
-0.493094 -1.139134 7.188691
-1.695434 -0.491720 7.238930
-0.400607 -1.139134 7.232053
0.986708 0.525644 7.234107
1.171683 -0.954158 7.200215
-1.048020 -1.139134 7.245328
1.171683 0.803107 7.210452
1.356658 -0.214257 7.204169
-0.770557 1.727983 7.224976
0.986708 0.618131 7.164884
-0.955533 -1.139134 7.245522
-1.787921 -0.214257 7.215658
1.264171 -0.954158 7.246344
-1.787921 -0.121770 7.226121
-0.493094 -1.046646 7.196327
-1.787921 -0.029282 7.210106
1.356658 -0.861671 7.227385
-0.400607 -1.046646 7.233729
1.356658 -0.769183 7.178679
1.171683 1.265545 7.205734
-0.493094 -0.954158 7.217953
-1.695434 0.155693 7.223684
-0.400607 -0.954158 7.247343
-0.863045 -1.231621 7.163863
1.356658 -0.676695 7.176426
0.616757 1.820470 7.210404
-0.308119 -1.139134 7.169363
-1.695434 0.525644 7.169494
0.709245 1.820470 7.223287
-0.215631 -0.954158 7.170760
-0.123144 -0.954158 7.209698
0.801733 1.727983 7.177650
-0.030656 -0.954158 7.166548
-0.215631 -0.861671 7.241679
0.431782 1.912958 7.184764
-0.123144 -0.861671 7.251491
-0.030656 -0.861671 7.213962
0.061831 -0.861671 7.182059
0.154319 -0.861671 7.218163
-0.863045 -1.238682 7.347279
1.449146 -0.493596 7.347279
-0.770557 1.680202 7.347279
-1.695434 0.489877 7.347279
0.431782 -0.971309 7.347279
1.090980 0.340668 7.347279
-0.892665 -1.231621 7.347279
-1.683108 0.525644 7.347279
-0.734845 1.727983 7.347279
-1.510458 -0.924239 7.347279
1.448413 -0.491720 7.347279
0.411998 -0.954158 7.347279
-1.638777 0.618131 7.347279
-0.770557 -1.238770 7.347279
1.439960 -0.399232 7.347279
-0.678070 1.807192 7.347279
-1.522230 -0.861671 7.347279
-1.606476 0.710619 7.347279
1.083856 0.433156 7.347279
0.524270 -0.980900 7.347279
1.488535 -0.769183 7.347279
-0.955533 -1.199187 7.347279
-1.536491 -0.769183 7.347279
0.616757 -0.960213 7.347279
1.079195 0.472128 7.347279
0.720623 1.820470 7.347279
0.709245 -0.996584 7.347279
1.477302 -0.676695 7.347279
-1.417971 -1.046800 7.347279
0.709245 1.827386 7.347279
-1.602946 0.721785 7.347279
-1.418107 -1.046646 7.347279
-0.585582 -1.338499 7.347279
1.486050 -0.584208 7.347279
0.339294 -0.923574 7.347279
1.038442 0.710619 7.347279
-1.325483 -1.070032 7.347279
1.171683 1.456490 7.347279
-0.669868 -1.324109 7.347279
-1.480009 -0.954158 7.347279
1.449146 -0.395822 7.347279
0.894220 -1.065628 7.347279
1.039695 0.803107 7.347279
0.855465 -1.046646 7.347279
1.449146 -0.254202 7.347279
-1.232996 -1.102881 7.347279
-0.572630 -1.324109 7.347279
1.422426 -0.214257 7.347279
0.801733 -1.019972 7.347279
-1.140508 -1.118842 7.347279
1.053825 0.895594 7.347279
1.114188 1.543008 7.347279
1.383280 -0.121770 7.347279
-1.574868 0.803107 7.347279
-0.678070 -1.289687 7.347279
0.986708 -1.066571 7.347279
1.356658 -0.075010 7.347279
-1.529398 0.895594 7.347279
1.079195 0.919796 7.347279
1.079195 -1.059128 7.347279
-1.599066 -0.676695 7.347279
1.173193 1.450520 7.347279
-1.510458 0.940375 7.347279
-1.602946 -0.670228 7.347279
1.079195 1.585900 7.347279
-0.493094 -1.240148 7.347279
-1.653789 -0.584208 7.347279
-1.481889 0.988082 7.347279
1.109187 -1.046646 7.347279
-0.662278 1.820470 7.347279
-1.417971 1.041743 7.347279
-1.695434 -0.456923 7.347279
1.336048 -0.029282 7.347279
-1.387778 1.080570 7.347279
-1.712072 -0.399232 7.347279
-0.485189 -1.231621 7.347279
-1.675997 -0.491720 7.347279
1.171683 -1.027709 7.347279
-1.338683 1.173057 7.347279
1.470878 -0.306745 7.347279
-0.585582 1.867208 7.347279
-0.400607 -1.171908 7.347279
-1.325483 1.185111 7.347279
-1.714802 -0.306745 7.347279
1.264171 -1.035142 7.347279
-1.239425 1.265545 7.347279
-1.734747 -0.214257 7.347279
1.079195 1.063966 7.347279
-0.493094 1.889551 7.347279
-1.714078 -0.029282 7.347279
-1.096334 -1.139134 7.347279
-1.232996 1.273524 7.347279
-1.733868 -0.121770 7.347279
-1.735199 0.063206 7.347279
1.072654 1.080570 7.347279
-0.400607 1.894879 7.347279
-1.167756 1.358032 7.347279
-1.748834 0.155693 7.347279
1.356658 -1.020720 7.347279
1.079195 1.091321 7.347279
-1.140508 1.418427 7.347279
-1.048020 -1.166021 7.347279
-1.751274 0.248181 7.347279
-0.365571 -1.139134 7.347279
-1.048020 1.438465 7.347279
-1.749917 0.340668 7.347279
-0.311707 1.912958 7.347279
1.101029 0.988082 7.347279
-1.016057 1.450520 7.347279
-1.717407 0.433156 7.347279
-0.308119 1.914693 7.347279
1.449146 -0.964364 7.347279
-0.346591 -1.046646 7.347279
-0.215631 1.975110 7.347279
-0.955533 1.496533 7.347279
1.171683 1.122010 7.347279
1.476140 -0.954158 7.347279
-0.328130 -0.954158 7.347279
-0.123144 1.979130 7.347279
1.203288 1.173057 7.347279
1.502412 -0.861671 7.347279
-0.879552 1.543008 7.347279
-0.030656 1.962981 7.347279
-0.308119 -0.921432 7.347279
1.198120 1.265545 7.347279
-0.894484 1.635495 7.347279
-0.250865 -0.861671 7.347279
0.061831 1.940452 7.347279
1.187563 1.358032 7.347279
-0.215631 -0.836407 7.347279
0.154319 1.942765 7.347279
-0.863045 1.660532 7.347279
-0.123144 -0.794462 7.347279
0.339294 1.905524 7.347279
0.986708 1.623431 7.347279
0.321178 1.912958 7.347279
-0.085194 -0.769183 7.347279
0.966414 1.635495 7.347279
0.246807 1.937840 7.347279
0.246807 -0.958469 7.347279
0.894220 1.711885 7.347279
0.232472 -0.954158 7.347279
0.872090 1.727983 7.347279
0.253966 -0.954158 7.347279
0.986708 0.500849 7.347279
0.801733 1.759764 7.347279
0.911739 0.525644 7.347279
0.154319 -0.867002 7.347279
0.148509 -0.861671 7.347279
0.973097 0.618131 7.347279
0.431782 1.879568 7.347279
0.061831 -0.790140 7.347279
0.986708 0.631423 7.347279
0.024058 -0.769183 7.347279
0.524270 1.852646 7.347279
0.616757 1.844283 7.347279
1.264171 0.121472 7.347279
-0.030656 -0.756657 7.347279
1.250415 0.155693 7.347279
1.285511 0.063206 7.347279
1.172270 0.248181 7.347279
1.171683 0.248824 7.347279
-0.863045 -1.231621 7.333491
1.449146 -0.769183 7.296219
0.431782 -0.954158 7.329955
-1.510458 -0.861671 7.310343
1.449146 -0.676695 7.302365
-0.955533 -1.139134 7.277621
0.524270 -0.954158 7.321290
-1.417971 -1.046646 7.346813
0.616757 -0.954158 7.333620
-0.678070 -1.324109 7.270225
-1.325483 -1.046646 7.265102
0.709245 -0.954158 7.296533
-0.585582 -1.324109 7.313626
1.079195 0.433156 7.308547
1.449146 -0.306745 7.316542
-0.308119 1.912958 7.270390
0.894220 -1.046646 7.325517
1.171683 0.618131 7.308128
-1.602946 -0.676695 7.330672
-0.493094 -1.231621 7.292680
1.171683 1.450520 7.344868
1.079195 0.710619 7.284910
0.986708 -1.046646 7.319470
1.356658 -0.121770 7.259262
-0.863045 1.635495 7.331330
1.171683 0.710619 7.290711
1.079195 -1.046646 7.320695
1.079195 1.543008 7.270399
0.339294 1.912958 7.274980
1.079195 0.803107 7.291073
1.079195 0.895594 7.261348
1.356658 -0.954158 7.269577
1.449146 -0.954158 7.339058
1.079195 1.080570 7.314935
1.449146 -0.861671 7.292508
-0.030656 -0.769183 7.324185
-1.695434 0.155693 7.278256
1.264171 0.063206 7.311251
0.246807 -0.954158 7.344165
1.171683 1.173057 7.302621
0.154319 -0.861671 7.334288
1.171683 0.248181 7.345212
1.171683 1.358032 7.290179
-0.955533 -1.287362 7.439766
0.894220 -1.155504 7.439766
-0.863045 -1.282250 7.439766
-1.695434 0.414278 7.439766
-1.510458 -0.825508 7.439766
1.618898 -0.769183 7.439766
-0.770557 -1.286655 7.439766
-1.692023 0.433156 7.439766
-1.538608 -0.769183 7.439766
1.634121 -0.695951 7.439766
-0.678070 -1.350958 7.439766
-0.770557 1.697965 7.439766
-1.680389 0.525644 7.439766
-1.325483 -1.054159 7.439766
0.840392 -1.139134 7.439766
1.639421 -0.676695 7.439766
-0.745285 1.727983 7.439766
-0.707984 -1.324109 7.439766
-1.364792 -1.046646 7.439766
-1.602946 0.617507 7.439766
1.656276 -0.584208 7.439766
-0.678070 1.789077 7.439766
-1.417971 -1.024400 7.439766
-1.602144 0.618131 7.439766
0.986708 -1.232503 7.439766
-0.585582 -1.327539 7.439766
-1.448743 -0.954158 7.439766
1.634121 -0.513058 7.439766
1.171683 1.477502 7.439766
-0.629994 1.820470 7.439766
0.977545 -1.231621 7.439766
1.034367 0.710619 7.439766
-1.232996 -1.088322 7.439766
1.102940 1.543008 7.439766
1.594748 -0.491720 7.439766
-0.579128 -1.324109 7.439766
-1.140508 -1.134773 7.439766
-1.575975 0.710619 7.439766
1.207231 1.450520 7.439766
1.039181 0.803107 7.439766
1.628689 -0.399232 7.439766
-1.469203 -0.861671 7.439766
-0.493094 -1.243787 7.439766
1.079195 1.562841 7.439766
-1.560416 0.803107 7.439766
0.992540 -1.231621 7.439766
1.449146 -0.209069 7.439766
-0.477721 -1.231621 7.439766
-0.585582 1.853948 7.439766
1.078121 0.895594 7.439766
-1.695434 -0.586168 7.439766
-1.531032 0.895594 7.439766
1.400680 -0.121770 7.439766
-0.493094 1.869009 7.439766
-1.697351 -0.584208 7.439766
1.079195 -1.140470 7.439766
1.356658 -0.047091 7.439766
-0.400607 1.881119 7.439766
-1.592401 -0.676695 7.439766
1.079195 0.897878 7.439766
1.351097 -0.029282 7.439766
-1.518162 0.988082 7.439766
-0.400973 -1.139134 7.439766
-1.602946 -0.661663 7.439766
-1.510458 1.003396 7.439766
0.339294 -1.048300 7.439766
1.541634 -0.329503 7.439766
-0.308119 1.904384 7.439766
1.526969 -0.306745 7.439766
-1.702686 -0.491720 7.439766
0.339760 -1.046646 7.439766
1.118893 0.988082 7.439766
-1.133275 -1.139134 7.439766
1.452228 -0.214257 7.439766
-1.697035 -0.399232 7.439766
-0.297228 1.912958 7.439766
-1.417971 1.047120 7.439766
1.159239 1.080570 7.439766
-0.215631 1.940390 7.439766
-1.701758 -0.306745 7.439766
-1.388410 1.080570 7.439766
0.431782 -1.042917 7.439766
-0.153398 2.005446 7.439766
-0.400607 -1.138688 7.439766
-1.733524 -0.029282 7.439766
0.524270 -1.015732 7.439766
-0.030656 1.955070 7.439766
-1.725561 0.063206 7.439766
-1.359086 1.173057 7.439766
-1.725729 -0.214257 7.439766
-0.077619 2.005446 7.439766
-1.769895 0.155693 7.439766
1.171683 1.088811 7.439766
0.616757 -1.046963 7.439766
-1.728361 -0.121770 7.439766
-0.123144 2.013051 7.439766
-1.325483 1.203764 7.439766
-1.755597 0.248181 7.439766
-0.343235 -1.046646 7.439766
0.615655 -1.046646 7.439766
1.251466 1.173057 7.439766
-1.709252 0.340668 7.439766
-1.232996 1.251616 7.439766
0.061831 1.947001 7.439766
-1.037598 -1.231621 7.439766
-0.308119 -0.978656 7.439766
0.709245 -1.076373 7.439766
1.264171 1.254851 7.439766
-1.224753 1.265545 7.439766
-1.048020 -1.222283 7.439766
0.154319 1.951300 7.439766
-0.291040 -0.954158 7.439766
-1.213349 1.358032 7.439766
1.264782 1.265545 7.439766
0.801733 -1.119193 7.439766
0.246807 1.908492 7.439766
-1.140508 1.401967 7.439766
-0.215631 -0.863675 7.439766
0.228789 1.912958 7.439766
1.264171 1.393644 7.439766
-0.214215 -0.861671 7.439766
0.339294 1.882123 7.439766
-1.069288 1.450520 7.439766
1.281953 1.358032 7.439766
-0.141204 -0.769183 7.439766
1.087178 -1.139134 7.439766
-1.048020 1.473345 7.439766
0.335991 -1.046646 7.439766
1.171683 -1.122602 7.439766
1.079195 0.333097 7.439766
-0.966754 1.543008 7.439766
0.709245 1.799938 7.439766
0.246807 -0.997613 7.439766
1.264171 -1.116962 7.439766
0.644542 1.820470 7.439766
1.068977 0.340668 7.439766
0.206681 -0.954158 7.439766
-0.955533 1.549188 7.439766
1.356658 -1.087074 7.439766
-0.863045 1.605437 7.439766
0.986708 0.431016 7.439766
0.154319 -0.898305 7.439766
1.010837 1.635495 7.439766
1.449146 -1.058389 7.439766
0.128668 -0.861671 7.439766
-0.840109 1.635495 7.439766
0.981477 0.433156 7.439766
0.801733 1.750479 7.439766
0.061831 -0.800177 7.439766
1.468945 -1.046646 7.439766
0.894220 1.735086 7.439766
0.918415 0.525644 7.439766
0.007097 -0.769183 7.439766
1.541634 -0.979103 7.439766
0.986708 1.654562 7.439766
0.986708 0.607860 7.439766
1.561020 -0.954158 7.439766
0.905638 1.727983 7.439766
0.996121 0.618131 7.439766
1.599783 -0.861671 7.439766
-0.123144 -0.760490 7.439766
0.431782 1.870553 7.439766
-0.030656 -0.762738 7.439766
1.356658 0.009424 7.439766
0.524270 1.844299 7.439766
1.364634 0.063206 7.439766
0.616757 1.829249 7.439766
1.356658 0.108073 7.439766
1.343256 0.155693 7.439766
1.171683 0.328980 7.439766
1.264171 0.273590 7.439766
1.301420 0.248181 7.439766
0.894220 -1.139134 7.419417
1.079195 0.340668 7.439009
1.449146 -0.491720 7.348617
-1.510458 -0.861671 7.403431
-0.955533 -1.231621 7.377527
0.986708 -1.231621 7.438983
-1.695434 0.433156 7.432409
1.449146 -0.399232 7.356457
1.079195 0.433156 7.352641
-1.417971 -1.046646 7.403143
-0.678070 -1.324109 7.400435
1.541634 -0.769183 7.379106
0.709245 1.820470 7.366642
-0.308119 1.912958 7.407961
0.986708 -1.139134 7.418166
1.541634 -0.676695 7.391000
-0.123144 2.005446 7.395991
1.079195 -1.139134 7.438838
1.079195 1.080570 7.378202
1.634121 -0.676695 7.437218
-0.400607 -1.139134 7.439277
-1.695434 -0.584208 7.427292
-1.602946 0.618131 7.439028
0.339294 -1.046646 7.437881
1.541634 -0.584208 7.402324
0.246807 1.912958 7.417163
-1.602946 0.710619 7.357895
-1.695434 -0.491720 7.394389
0.339294 -0.954158 7.376017
1.634121 -0.584208 7.420573
1.264171 1.265545 7.437784
0.616757 -1.046646 7.439363
0.986708 0.433156 7.432805
-0.308119 -0.954158 7.383440
1.541634 -0.491720 7.420832
0.709245 -1.046646 7.407667
-1.510458 0.988082 7.400653
1.264171 1.358032 7.410682
1.541634 -0.399232 7.407942
0.986708 0.618131 7.395509
-0.215631 -0.861671 7.434920
0.801733 -1.046646 7.375281
-1.232996 1.265545 7.353626
-0.123144 -0.769183 7.420614
1.449146 -0.214257 7.418740
1.264171 0.155693 7.367593
0.986708 1.635495 7.373376
-1.048020 1.450520 7.386088
1.356658 0.063206 7.434459
0.894220 1.727983 7.390125
1.171683 -1.046646 7.390728
-0.955533 1.543008 7.416215
1.264171 0.248181 7.434704
1.264171 -1.046646 7.359047
-0.863045 1.635495 7.429360
1.356658 -1.046646 7.372150
1.449146 -1.046646 7.426539
1.541634 -0.954158 7.392695
1.541634 -0.861671 7.379798
1.079195 1.538533 7.532254
-1.140508 -1.160473 7.532254
-1.734956 -0.029282 7.532254
-0.815035 1.635495 7.532254
1.449146 -1.080754 7.532254
-0.770557 -1.330101 7.532254
1.073281 1.543008 7.532254
1.508555 -1.046646 7.532254
-1.733598 0.063206 7.532254
-0.809328 -1.324109 7.532254
-0.142888 -0.769183 7.532254
-0.770557 1.700602 7.532254
-1.166427 -1.139134 7.532254
1.436347 -0.029282 7.532254
-1.700452 0.155693 7.532254
-0.123144 -0.762478 7.532254
1.541634 -1.024091 7.532254
-1.048020 -1.278533 7.532254
-0.706590 1.727983 7.532254
1.444634 0.063206 7.532254
-0.030656 -0.768267 7.532254
-1.078299 -1.231621 7.532254
-1.510458 -0.778383 7.532254
-0.678070 1.737704 7.532254
1.619750 -0.954158 7.532254
1.000485 1.635495 7.532254
-1.517640 -0.769183 7.532254
-0.955533 -1.315445 7.532254
-1.695434 0.198135 7.532254
1.449146 0.127449 7.532254
-0.029365 -0.769183 7.532254
-0.585582 1.809588 7.532254
-1.325483 -1.047053 7.532254
1.634121 -0.933554 7.532254
-0.863045 -1.318286 7.532254
-1.325883 -1.046646 7.532254
-1.690098 0.248181 7.532254
-0.566853 1.820470 7.532254
0.709245 1.806396 7.532254
1.449146 0.168370 7.532254
-1.417971 -0.965170 7.532254
-1.673993 0.340668 7.532254
1.658444 -0.861671 7.532254
-1.424288 -0.954158 7.532254
-0.493094 1.896610 7.532254
0.801733 -1.193002 7.532254
0.801733 1.755556 7.532254
-0.678070 -1.355000 7.532254
-1.670556 0.433156 7.532254
-0.400607 1.871559 7.532254
0.728044 -1.139134 7.532254
-1.232996 -1.099864 7.532254
1.357009 0.248181 7.532254
-1.626303 0.525644 7.532254
1.690609 -0.769183 7.532254
-1.437380 -0.861671 7.532254
-0.308119 1.891399 7.532254
-1.602946 0.609207 7.532254
1.356658 0.248508 7.532254
-0.588590 -1.324109 7.532254
-0.215631 1.912272 7.532254
0.894220 1.742191 7.532254
0.894220 -1.225929 7.532254
-1.598400 -0.676695 7.532254
1.278971 0.340668 7.532254
-0.123144 1.903930 7.532254
-1.600543 0.618131 7.532254
1.714875 -0.676695 7.532254
-1.602946 -0.670094 7.532254
0.986708 -1.209813 7.532254
-0.585582 -1.321077 7.532254
-1.561296 0.710619 7.532254
-1.653754 -0.584208 7.532254
-0.102902 1.912958 7.532254
1.079195 -1.200151 7.532254
1.725316 -0.584208 7.532254
-0.493094 -1.266583 7.532254
0.986708 1.657212 7.532254
-0.030656 1.940427 7.532254
1.457669 0.155693 7.532254
-1.680752 -0.491720 7.532254
-1.525053 0.803107 7.532254
0.339294 -1.074735 7.532254
0.947283 1.727983 7.532254
-1.678590 -0.399232 7.532254
-1.510458 0.843943 7.532254
0.061831 1.947601 7.532254
-0.445876 -1.231621 7.532254
0.407814 -1.046646 7.532254
0.154319 1.916156 7.532254
-1.695434 -0.238377 7.532254
1.726609 -0.564358 7.532254
-1.495754 0.895594 7.532254
0.524270 -1.064689 7.532254
0.339294 1.891900 7.532254
0.495024 -1.046646 7.532254
-1.704739 -0.214257 7.532254
-1.504512 0.988082 7.532254
0.246807 1.911911 7.532254
1.727688 -0.491720 7.532254
0.431782 -1.038727 7.532254
0.431782 1.841244 7.532254
0.198522 1.912958 7.532254
-1.417971 1.049632 7.532254
-1.682101 -0.306745 7.532254
0.616757 -1.109506 7.532254
-1.384974 1.080570 7.532254
1.726609 -0.465248 7.532254
0.524270 1.827075 7.532254
1.079195 0.414390 7.532254
1.710742 -0.399232 7.532254
0.709245 -1.129590 7.532254
-1.349249 1.173057 7.532254
-1.739281 -0.121770 7.532254
1.007988 0.433156 7.532254
1.171683 0.387811 7.532254
-1.325483 1.209722 7.532254
0.564627 1.820470 7.532254
0.987426 0.525644 7.532254
-0.400607 -1.189902 7.532254
-1.261337 1.265545 7.532254
1.449146 -0.220681 7.532254
1.264171 0.356417 7.532254
1.020416 0.618131 7.532254
1.171683 -1.173392 7.532254
1.441368 -0.214257 7.532254
1.027041 0.710619 7.532254
-1.232996 1.293673 7.532254
1.171683 1.482779 7.532254
-0.343309 -1.139134 7.532254
1.264171 -1.153539 7.532254
-1.180289 1.358032 7.532254
1.449146 -0.140995 7.532254
1.209850 1.450520 7.532254
-0.308119 -1.072645 7.532254
1.049472 0.803107 7.532254
-1.140508 1.399325 7.532254
1.449146 -0.115529 7.532254
1.288477 -1.139134 7.532254
1.079195 0.885920 7.532254
-0.297148 -1.046646 7.532254
1.541634 -0.258026 7.532254
-0.288146 -0.954158 7.532254
1.356658 -1.114091 7.532254
-1.048020 1.439592 7.532254
1.634121 -0.285497 7.532254
1.084075 0.895594 7.532254
-0.227575 -0.861671 7.532254
-1.036716 1.450520 7.532254
1.652153 -0.306745 7.532254
1.134694 0.988082 7.532254
-0.215631 -0.851224 7.532254
-0.955533 1.535710 7.532254
1.171683 1.049188 7.532254
1.449571 -0.121770 7.532254
0.257281 -1.046646 7.532254
1.189017 1.080570 7.532254
-0.941090 1.543008 7.532254
0.246807 -1.021581 7.532254
0.215428 -0.954158 7.532254
-0.863045 1.577832 7.532254
1.246961 1.173057 7.532254
0.061831 -0.876378 7.532254
1.263380 1.265545 7.532254
0.021070 -0.861671 7.532254
0.154319 -0.894792 7.532254
1.258700 1.358032 7.532254
0.616757 1.815930 7.532254
-0.770557 -1.324109 7.517807
1.356658 -0.029282 7.449478
-1.695434 0.248181 7.523712
1.634121 -0.861671 7.488015
-1.048020 -1.231621 7.455566
-0.585582 1.820470 7.513036
1.356658 0.155693 7.451558
1.079195 1.543008 7.505186
-1.695434 0.340668 7.467551
1.634121 -0.769183 7.454967
-1.140508 -1.139134 7.457540
1.449146 0.155693 7.507589
0.801733 -1.139134 7.466224
1.079195 0.340668 7.455139
0.986708 -1.231621 7.440239
1.171683 0.340668 7.455487
-0.215631 1.912958 7.530866
1.264171 0.340668 7.490523
1.634121 -0.491720 7.444526
0.616757 1.820470 7.479359
0.524270 -1.046646 7.494777
1.356658 0.248181 7.527777
1.634121 -0.399232 7.442479
-0.123144 1.912958 7.523078
-0.585582 -1.324109 7.522831
1.726609 -0.491720 7.522220
-0.123144 2.005446 7.488890
-1.695434 -0.584208 7.465640
-1.510458 0.895594 7.499915
1.449146 -0.214257 7.476376
1.171683 -1.139134 7.454423
-1.695434 -0.491720 7.504444
1.079195 0.895594 7.445988
-1.510458 0.988082 7.522788
-0.400607 -1.139134 7.440694
1.264171 -1.139134 7.508641
1.449146 -0.121770 7.531316
-1.695434 -0.399232 7.460268
0.986708 0.433156 7.504282
1.171683 1.080570 7.471277
1.541634 -0.306745 7.461266
0.986708 0.525644 7.531240
-1.695434 -0.306745 7.452977
1.634121 -0.306745 7.515164
1.264171 1.265545 7.462487
-1.232996 1.265545 7.463140
-0.308119 -1.046646 7.520852
1.264171 1.358032 7.466099
-1.048020 1.450520 7.524122
-0.215631 -0.861671 7.464088
-0.955533 1.543008 7.526582
0.061831 -0.861671 7.504272
1.079195 1.581632 7.624742
-0.776139 1.635495 7.624742
0.524270 -1.150782 7.624742
1.480799 -1.139134 7.624742
-0.955533 -1.341918 7.624742
1.029634 1.635495 7.624742
0.503798 -1.139134 7.624742
1.449146 0.199142 7.624742
-1.232996 -1.139488 7.624742
-0.863045 -1.349682 7.624742
1.541634 -1.067889 7.624742
0.709245 1.806788 7.624742
0.616757 -1.185976 7.624742
-0.770557 1.648619 7.624742
1.556894 -1.046646 7.624742
-0.770557 -1.357505 7.624742
1.394828 0.248181 7.624742
0.801733 1.788277 7.624742
1.628562 -0.954158 7.624742
0.709245 -1.231210 7.624742
1.356658 0.305359 7.624742
-1.048020 -1.279737 7.624742
1.634121 -0.948708 7.624742
-1.233720 -1.139134 7.624742
-1.107836 -1.231621 7.624742
-0.730825 1.727983 7.624742
0.894220 1.738715 7.624742
0.801733 -1.252138 7.624742
1.694925 -0.861671 7.624742
-1.140508 -1.187343 7.624742
-0.991297 -1.324109 7.624742
0.710219 -1.231621 7.624742
1.714308 -0.769183 7.624742
-0.678070 1.767645 7.624742
0.986708 1.643704 7.624742
-0.678070 -1.352025 7.624742
1.337101 0.340668 7.624742
1.726609 -0.733066 7.624742
0.907061 1.727983 7.624742
0.894220 -1.257678 7.624742
1.745378 -0.676695 7.624742
-1.510458 -0.778533 7.624742
-0.585582 -1.337790 7.624742
-0.585582 1.802982 7.624742
1.476344 -0.029282 7.624742
-1.519135 -0.769183 7.624742
0.943922 -1.231621 7.624742
1.771463 -0.584208 7.624742
1.476771 0.063206 7.624742
-0.561750 -1.324109 7.624742
0.986708 -1.217619 7.624742
-1.325483 -1.057192 7.624742
1.788957 -0.491720 7.624742
1.482064 0.155693 7.624742
-1.706373 -0.029282 7.624742
-1.338881 -1.046646 7.624742
1.079195 -1.211538 7.624742
1.815213 -0.399232 7.624742
-1.709793 0.063206 7.624742
0.339294 1.882691 7.624742
-0.493094 -1.277961 7.624742
-0.545440 1.820470 7.624742
-1.402619 -0.954158 7.624742
1.079195 0.513113 7.624742
0.339294 -1.078744 7.624742
0.431782 1.878633 7.624742
-1.702935 0.155693 7.624742
1.819097 -0.374618 7.624742
1.171683 0.449144 7.624742
0.431782 -1.097694 7.624742
-0.418616 -1.231621 7.624742
-1.417971 -0.931191 7.624742
-1.695434 0.172323 7.624742
-0.493094 1.862820 7.624742
-0.400607 -1.215930 7.624742
1.264171 0.439458 7.624742
1.819097 -0.293129 7.624742
-1.680366 0.248181 7.624742
-1.470658 -0.861671 7.624742
0.522475 1.820470 7.624742
1.171683 -1.204763 7.624742
1.791416 -0.214257 7.624742
-0.400607 1.874278 7.624742
1.270567 0.433156 7.624742
-1.677632 0.340668 7.624742
-0.308119 -1.139831 7.624742
1.264171 -1.199933 7.624742
1.541634 -0.156335 7.624742
-0.307259 -1.139134 7.624742
1.485622 -0.121770 7.624742
-1.685153 0.433156 7.624742
1.356658 -1.187203 7.624742
1.022766 0.710619 7.624742
1.171683 1.496596 7.624742
-1.567889 -0.676695 7.624742
-1.641099 0.525644 7.624742
1.449146 -1.164684 7.624742
1.634121 -0.127005 7.624742
-0.244913 -1.046646 7.624742
-0.308119 1.893229 7.624742
-1.594657 -0.584208 7.624742
1.093843 1.543008 7.624742
1.044992 0.803107 7.624742
-1.614044 0.618131 7.624742
-0.215631 -0.961719 7.624742
-1.602946 -0.563861 7.624742
1.726609 -0.144750 7.624742
-1.602946 0.652380 7.624742
-1.642045 -0.491720 7.624742
-0.215631 1.902809 7.624742
1.211021 1.450520 7.624742
-1.530350 0.710619 7.624742
-1.647790 -0.399232 7.624742
-0.209278 -0.954158 7.624742
1.072497 0.895594 7.624742
-1.695434 -0.327754 7.624742
-1.529509 0.803107 7.624742
-0.123144 1.900096 7.624742
1.821055 -0.306745 7.624742
-1.706182 -0.306745 7.624742
1.079195 0.920348 7.624742
-1.511384 0.895594 7.624742
-0.123144 -0.871247 7.624742
-1.728018 -0.214257 7.624742
-0.055345 1.912958 7.624742
-0.121118 -0.861671 7.624742
-1.510458 0.897539 7.624742
1.140148 0.988082 7.624742
-1.695434 -0.132863 7.624742
-0.030656 1.917496 7.624742
1.171683 1.016298 7.624742
-0.030656 -0.845437 7.624742
-1.695434 -0.034641 7.624742
-1.454886 0.988082 7.624742
1.207053 1.080570 7.624742
0.061831 1.913361 7.624742
-1.690176 -0.121770 7.624742
-1.417971 1.041836 7.624742
1.239297 1.173057 7.624742
0.154319 1.919384 7.624742
0.154319 -0.962238 7.624742
-1.381730 1.080570 7.624742
1.264171 1.265152 7.624742
0.138819 -0.954158 7.624742
0.246807 1.899345 7.624742
1.264253 1.265545 7.624742
0.195774 1.912958 7.624742
0.246807 -1.055680 7.624742
-1.325483 1.149173 7.624742
0.231831 -1.046646 7.624742
1.264171 1.363507 7.624742
-1.307326 1.173057 7.624742
1.265547 1.358032 7.624742
0.061831 -0.898060 7.624742
-1.239577 1.265545 7.624742
1.069283 0.525644 7.624742
0.019523 -0.861671 7.624742
-1.232996 1.269592 7.624742
1.052010 0.618131 7.624742
0.524270 1.819408 7.624742
-1.149739 1.358032 7.624742
0.616757 1.816602 7.624742
-1.140508 1.365485 7.624742
-1.048020 1.443417 7.624742
-1.039988 1.450520 7.624742
-0.955533 1.510327 7.624742
-0.873498 1.543008 7.624742
-0.863045 1.551464 7.624742
-0.955533 -1.324109 7.556121
-1.232996 -1.139134 7.623734
-0.863045 -1.324109 7.544697
1.449146 -1.139134 7.585438
-0.123144 -0.769183 7.550377
1.541634 -1.046646 7.577879
-0.030656 -0.769183 7.532792
-1.602946 0.618131 7.555021
-1.417971 -0.954158 7.538757
-0.585582 -1.324109 7.546983
1.449146 -0.029282 7.557462
1.079195 1.543008 7.544804
1.449146 0.063206 7.545084
0.524270 -1.139134 7.610831
1.726609 -0.676695 7.565988
0.616757 -1.139134 7.565976
-1.510458 0.895594 7.609394
1.726609 -0.584208 7.534187
0.709245 -1.139134 7.543151
-0.308119 -1.139134 7.622775
-1.602946 -0.584208 7.601729
0.801733 -1.231621 7.579033
1.726609 -0.399232 7.541466
1.079195 0.433156 7.556699
0.524270 1.820470 7.544556
0.894220 -1.231621 7.546452
1.171683 0.433156 7.603086
-0.215631 -0.954158 7.615725
1.449146 -0.214257 7.552646
1.264171 0.433156 7.616675
0.431782 -1.046646 7.556125
-0.215631 -0.861671 7.565410
-1.325483 1.173057 7.588390
1.541634 -0.214257 7.576619
-1.695434 -0.306745 7.609588
1.634121 -0.214257 7.573470
1.079195 0.895594 7.595941
-0.123144 -0.861671 7.621561
1.726609 -0.306745 7.567771
1.819097 -0.306745 7.621641
-1.695434 -0.121770 7.594193
1.726609 -0.214257 7.586439
1.264171 1.265545 7.619727
0.154319 -0.954158 7.616016
1.356658 -1.139134 7.557256
1.264171 1.358032 7.597099
0.246807 -1.046646 7.579202
0.524270 -1.234981 7.717229
-0.955533 -1.337278 7.717229
-1.701582 0.155693 7.717229
1.449146 0.188778 7.717229
-1.232996 -1.145135 7.717229
0.513407 -1.231621 7.717229
-0.818910 1.635495 7.717229
-0.863045 -1.343372 7.717229
1.421868 0.248181 7.717229
-1.695434 0.167870 7.717229
0.431782 -1.149709 7.717229
1.402876 0.340668 7.717229
-0.770557 1.693338 7.717229
1.634121 -0.972890 7.717229
0.414067 -1.139134 7.717229
-1.244873 -1.139134 7.717229
-0.770557 -1.334272 7.717229
1.634121 0.050833 7.717229
1.653927 -0.954158 7.717229
-0.750251 1.727983 7.717229
1.614600 0.063206 7.717229
-1.048020 -1.253035 7.717229
0.616757 1.794896 7.717229
0.616757 -1.247127 7.717229
-1.075625 -1.231621 7.717229
1.726609 -0.863131 7.717229
1.541634 0.093489 7.717229
-0.678070 1.796273 7.717229
0.561020 1.820470 7.717229
-0.977195 -1.324109 7.717229
-1.637742 0.248181 7.717229
1.727398 -0.861671 7.717229
0.709245 -1.252858 7.717229
1.471604 0.155693 7.717229
-1.140508 -1.173427 7.717229
0.709245 1.793072 7.717229
-0.587291 1.820470 7.717229
1.747101 -0.769183 7.717229
-1.638208 0.340668 7.717229
1.726609 -0.000082 7.717229
-0.678070 -1.367063 7.717229
-0.585582 1.820980 7.717229
0.801733 -1.253029 7.717229
1.777099 -0.029282 7.717229
0.894220 1.634295 7.717229
1.793698 -0.676695 7.717229
-0.585582 -1.355349 7.717229
-0.493094 1.872351 7.717229
0.892998 1.635495 7.717229
0.894220 -1.270655 7.717229
-1.683818 0.433156 7.717229
1.171683 0.516866 7.717229
1.812088 -0.584208 7.717229
1.157171 0.525644 7.717229
-0.511782 -1.324109 7.717229
-0.400607 1.904462 7.717229
1.079195 1.542468 7.717229
0.986708 -1.271271 7.717229
1.264171 0.474496 7.717229
-0.493094 -1.307184 7.717229
