0.884779 -1.518404 4.288763
0.930962 -1.489578 4.288763
0.945952 -1.475994 4.288763
0.958992 -1.429812 4.288763
0.977145 -1.411675 4.288763
1.019917 -1.383629 4.288763
1.023327 -1.378620 4.288763
1.069510 -1.339011 4.288763
0.884779 -1.522177 4.275530
0.977145 -1.429812 4.270980
1.023327 -1.429812 4.280057
1.069510 -1.337447 4.281408
-2.225211 -0.875621 4.288763
-1.463206 1.710600 4.288763
1.161875 -1.190780 4.288763
-2.210249 -0.783257 4.288763
-1.681755 0.048029 4.288763
-1.424347 1.754520 4.288763
-1.886172 -2.094375 4.288763
1.161875 1.357804 4.288763
-0.683890 -2.353462 4.288763
1.626560 -0.136701 4.288763
1.147669 1.433505 4.288763
-1.904516 -2.076367 4.288763
1.185994 -1.152717 4.288763
-0.631258 -2.261097 4.288763
-1.653547 0.140394 4.288763
1.625203 -0.044336 4.288763
1.119878 1.525870 4.288763
1.254240 -1.067568 4.288763
-0.593061 -2.194304 4.288763
-1.609077 0.194813 4.288763
1.259472 -1.060351 4.288763
1.108706 1.618235 4.288763
-0.562375 -2.168732 4.288763
-1.793807 -2.163396 4.288763
1.637690 0.048029 4.288763
1.069510 1.688765 4.288763
1.312081 -0.967987 4.288763
-1.969390 -1.984002 4.288763
1.052657 1.710600 4.288763
-1.606734 0.232759 4.288763
1.311513 -0.875621 4.288763
-0.500696 -2.138651 4.288763
1.623700 0.066169 4.288763
0.977145 1.826940 4.288763
-1.609077 0.240474 4.288763
1.346605 -0.801891 4.288763
-0.447658 -2.076367 4.288763
-2.163267 -1.706511 4.288763
1.558609 0.140394 4.288763
0.947026 1.895330 4.288763
-1.656708 0.325124 4.288763
1.367518 -0.783257 4.288763
-0.408331 -2.050817 4.288763
0.422954 -1.895591 4.288763
1.535217 0.232759 4.288763
0.993645 1.802965 4.288763
-0.315966 -2.032342 4.288763
1.432652 -0.690891 4.288763
-1.978537 -1.974905 4.288763
0.923146 1.987695 4.288763
-2.052302 -1.891637 4.288763
1.531335 0.241177 4.288763
-1.609077 0.489738 4.288763
1.438970 -0.606109 4.288763
0.884779 2.047384 4.288763
1.518973 0.325124 4.288763
0.441470 -1.891637 4.288763
-2.197018 -1.522177 4.288763
0.858626 2.080060 4.288763
-2.070902 -1.815455 4.288763
1.439770 -0.598526 4.288763
-2.163267 -1.435296 4.288763
1.531335 0.398577 4.288763
-1.595291 0.509854 4.288763
-2.082440 -1.799272 4.288763
0.515319 -1.867108 4.288763
-2.163267 -1.289262 4.288763
-1.571179 0.602219 4.288763
1.531335 0.572258 4.288763
-2.175588 -1.245082 4.288763
1.510816 0.602219 4.288763
-2.162235 -1.706907 4.288763
-1.532426 0.694584 4.288763
-2.161606 -1.429812 4.288763
1.539771 0.417489 4.288763
-1.516712 0.718633 4.288763
-2.154681 -1.337447 4.288763
-1.516712 -2.389167 4.288763
0.607684 -1.816652 4.288763
-1.473437 0.786949 4.288763
-1.607510 -2.353462 4.288763
1.512980 -0.229066 4.288763
1.548124 0.509854 4.288763
-1.448622 0.879314 4.288763
1.531335 -0.200404 4.288763
-2.214672 -1.060351 4.288763
-1.355783 1.802965 4.288763
-0.038871 2.266349 4.288763
0.661238 -1.799272 4.288763
-2.214378 -0.967987 4.288763
-1.054886 -2.546246 4.288763
0.053494 2.275848 4.288763
-1.449574 0.971680 4.288763
1.623700 -0.147771 4.288763
-1.146393 -2.538192 4.288763
-1.331982 1.816887 4.288763
1.456796 0.694584 4.288763
0.700049 -1.723089 4.288763
1.438970 0.771140 4.288763
-1.516712 1.109242 4.288763
0.184232 2.264791 4.288763
1.434339 0.786949 4.288763
-1.239616 1.877666 4.288763
-2.005984 -0.136701 4.288763
-1.556033 1.156410 4.288763
0.701835 -1.706907 4.288763
-1.978537 -0.119377 4.288763
1.346605 0.971062 4.288763
-1.590543 1.248775 4.288763
1.346257 0.971680 4.288763
0.753602 -1.614542 4.288763
-1.886172 -0.069757 4.288763
-1.588990 1.341140 4.288763
-1.190772 1.895330 4.288763
-1.147252 -2.537988 4.288763
-1.841918 -0.044336 4.288763
0.145859 2.279264 4.288763
1.391466 0.879314 4.288763
-1.793807 -0.021188 4.288763
-1.609077 1.377796 4.288763
-1.623148 1.433505 4.288763
-1.147252 1.913683 4.288763
1.298298 1.064044 4.288763
0.792415 -1.592096 4.288763
-0.997663 -2.538192 4.288763
-1.609077 1.494823 4.288763
1.254240 1.094528 4.288763
-1.701442 0.026561 4.288763
0.607684 2.179689 4.288763
-1.054886 1.960791 4.288763
1.211047 1.156410 4.288763
-0.962522 -2.526464 4.288763
0.700049 2.125671 4.288763
0.880124 -1.522177 4.288763
1.193014 1.248775 4.288763
0.621809 2.172425 4.288763
-0.870156 -2.473124 4.288763
-1.587765 1.525870 4.288763
0.792415 2.108892 4.288763
-1.005209 1.987695 4.288763
-0.834389 -2.445827 4.288763
1.164721 1.341140 4.288763
1.070981 -1.337447 4.288763
-0.777792 -2.403767 4.288763
-0.962522 2.020660 4.288763
-2.212167 -0.690891 4.288763
-1.535913 1.618235 4.288763
1.119775 -1.245082 4.288763
-0.685426 -2.357637 4.288763
-0.870156 2.032056 4.288763
-1.516712 1.643750 4.288763
-2.255632 -0.598582 4.288763
-0.785871 2.080060 4.288763
-2.255678 -0.598526 4.288763
-1.701442 -2.263304 4.288763
-1.703590 -2.261097 4.288763
-2.268964 -0.506161 4.288763
-1.609077 -2.352376 4.288763
-0.777792 2.083956 4.288763
-1.782814 -2.168732 4.288763
-0.685426 2.151289 4.288763
-2.266746 -0.413796 4.288763
-2.255632 -0.390968 4.288763
-0.666935 2.172425 4.288763
-2.194772 -0.321431 4.288763
-2.163267 -0.265504 4.288763
-2.148588 -0.229066 4.288763
-2.070902 -0.173091 4.288763
-0.223601 -2.002769 4.288763
-0.204066 -1.984002 4.288763
-1.609077 0.140394 4.211028
0.422954 -1.891637 4.212246
1.161875 1.248775 4.221144
-0.685426 -2.353462 4.275629
-2.255632 -0.875621 4.239844
-1.331982 1.802965 4.240886
-1.793807 -2.168732 4.249140
1.254240 -1.060351 4.258238
-2.255632 -0.690891 4.211006
-0.593061 -2.168732 4.259396
-1.609077 0.325124 4.202852
1.069510 1.433505 4.207671
1.161875 1.341140 4.284875
-1.886172 -2.076367 4.203443
0.700049 -1.799272 4.273449
1.069510 1.525870 4.228740
-0.500696 -2.076367 4.231506
1.346605 -0.875621 4.252900
1.623700 -0.136701 4.250213
0.977145 1.710600 4.233570
1.623700 -0.044336 4.269931
-0.315966 -1.984002 4.229637
-2.163267 -1.706907 4.288327
0.700049 -1.706907 4.266003
1.069510 1.618235 4.258545
1.623700 0.048029 4.248381
-0.593061 2.172425 4.210304
-2.070902 -1.891637 4.230441
-0.223601 -1.984002 4.270086
0.792415 1.895330 4.238569
1.438970 -0.598526 4.288179
1.531335 0.325124 4.254511
0.607684 2.080060 4.209852
0.700049 1.987695 4.208770
-1.609077 -2.353462 4.286333
1.531335 0.509854 4.201789
0.792415 1.987695 4.240141
-2.255632 -0.967987 4.205454
1.531335 -0.229066 4.261384
0.700049 2.080060 4.244990
-1.054886 -2.538192 4.233749
0.792415 2.080060 4.253299
-1.609077 1.433505 4.229870
0.884779 1.802965 4.225000
-1.516712 1.618235 4.210024
-0.870156 -2.445827 4.255518
0.977145 1.802965 4.280704
0.884779 1.895330 4.263163
0.884779 1.987695 4.270074
1.438970 0.786949 4.282042
-0.038871 2.264791 4.282699
0.053494 2.264791 4.244565
1.254240 1.064044 4.201565
0.515319 2.172425 4.217474
0.607684 2.172425 4.273586
0.884779 -1.524039 4.334946
0.887228 -1.522177 4.334946
0.930962 -1.476664 4.334946
0.931499 -1.475994 4.334946
0.970432 -1.429812 4.334946
0.977145 -1.422391 4.334946
1.009151 -1.383629 4.334946
1.023327 -1.365388 4.334946
1.062016 -1.337447 4.334946
0.884779 -1.522177 4.329999
1.069510 -1.337447 4.333527
0.884779 -1.540632 4.381128
0.916121 -1.522177 4.381128
0.930962 -1.506237 4.381128
0.946982 -1.475994 4.381128
0.958684 -1.429812 4.381128
0.977145 -1.400934 4.381128
0.997778 -1.383629 4.381128
1.023327 -1.362510 4.381128
1.053459 -1.337447 4.381128
-1.886172 -2.078252 4.381128
-1.528578 -2.353462 4.381128
1.135224 -1.245082 4.381128
-1.888248 -2.076367 4.381128
-1.609077 -2.271611 4.381128
-2.153674 -1.060351 4.381128
1.161875 -1.193840 4.381128
-0.134589 -1.984002 4.381128
-1.793807 -0.027639 4.381128
-1.793807 -2.165340 4.381128
-2.163267 -1.008211 4.381128
-0.131236 -1.981742 4.381128
-1.719184 0.048029 4.381128
-1.783207 -2.168732 4.381128
-1.960316 -1.984002 4.381128
-1.601686 1.525870 4.381128
1.194095 -1.152717 4.381128
-1.701442 0.067749 4.381128
-2.166710 -0.875621 4.381128
-1.978537 -1.956929 4.381128
1.531335 0.196878 4.381128
-1.544943 1.618235 4.381128
0.977145 2.023668 4.381128
-1.642849 0.140394 4.381128
-2.023242 -1.891637 4.381128
1.516736 0.232759 4.381128
1.254240 -1.075885 4.381128
1.201644 1.525870 4.381128
0.900655 2.080060 4.381128
-2.043427 -1.799272 4.381128
1.162164 1.618235 4.381128
-2.192059 -0.783257 4.381128
1.579247 -0.136701 4.381128
1.265704 -1.060351 4.381128
-1.516712 1.653793 4.381128
1.169442 1.710600 4.381128
-0.659204 -2.353462 4.381128
-2.209895 -0.690891 4.381128
-2.052944 -1.706907 4.381128
-1.479562 1.710600 4.381128
1.069510 1.967263 4.381128
1.303751 -0.967987 4.381128
-0.593061 -2.280607 4.381128
1.582526 -0.044336 4.381128
-1.424347 1.759703 4.381128
1.040035 1.987695 4.381128
-0.575558 -2.261097 4.381128
1.180908 1.802965 4.381128
-2.070902 -1.638275 4.381128
1.590690 0.048029 4.381128
1.339516 -0.875621 4.381128
1.161875 1.914764 4.381128
-2.210781 -0.598526 4.381128
1.174165 1.895330 4.381128
-1.365527 1.802965 4.381128
-0.500696 -2.212233 4.381128
0.422954 -1.912851 4.381128
-2.203554 -0.506161 4.381128
1.549289 0.140394 4.381128
-1.609434 0.509854 4.381128
-0.438743 -2.168732 4.381128
-2.085656 -1.614542 4.381128
1.344987 -0.783257 4.381128
-1.331982 1.820533 4.381128
-1.609077 0.511941 4.381128
-2.173259 -0.413796 4.381128
-0.408331 -2.140680 4.381128
0.515319 -1.903497 4.381128
-1.239616 1.859932 4.381128
-1.597040 0.602219 4.381128
-0.315966 -2.092382 4.381128
-2.163267 -0.399791 4.381128
-1.516712 -2.364719 4.381128
-1.147252 1.891359 4.381128
0.539096 -1.891637 4.381128
1.346605 -0.781693 4.381128
-1.424347 -2.440033 4.381128
-1.571425 0.694584 4.381128
-1.140263 1.895330 4.381128
1.514665 0.325124 4.381128
-1.526521 0.786949 4.381128
-1.147252 -2.551744 4.381128
-1.054886 1.970619 4.381128
0.607684 -1.817022 4.381128
1.429149 -0.690891 4.381128
-1.213165 -2.538192 4.381128
-1.516712 0.804713 4.381128
-2.102274 -0.321431 4.381128
1.531335 0.408961 4.381128
-1.054886 -2.561994 4.381128
-1.466594 0.879314 4.381128
0.627140 -1.799272 4.381128
-2.070902 -0.245780 4.381128
-1.473561 0.971680 4.381128
1.531335 0.472620 4.381128
0.700049 -1.732936 4.381128
0.191235 2.264791 4.381128
-1.609077 1.123016 4.381128
0.745827 -1.706907 4.381128
1.523065 0.509854 4.381128
-1.411709 -2.445827 4.381128
0.781029 -1.614542 4.381128
-2.060224 -0.229066 4.381128
-1.617976 1.156410 4.381128
-1.239616 -2.530534 4.381128
1.438970 -0.682353 4.381128
1.474658 0.602219 4.381128
-1.978537 -0.162005 4.381128
-1.516712 1.032374 4.381128
-1.030094 1.987695 4.381128
0.792415 -1.593195 4.381128
-1.565179 1.064044 4.381128
-0.980443 -2.538192 4.381128
-1.942744 -0.136701 4.381128
-2.121606 -1.522177 4.381128
-0.962522 2.023349 4.381128
-0.870156 -2.544556 4.381128
1.532889 0.417489 4.381128
-0.870156 2.069039 4.381128
1.069510 -1.327854 4.381128
-0.908671 -2.538192 4.381128
-0.824028 2.080060 4.381128
-0.269200 -2.076367 4.381128
0.700049 2.165878 4.381128
-0.846792 -2.538192 4.381128
0.689604 2.172425 4.381128
-0.223601 -2.063508 4.381128
-0.962522 -2.531317 4.381128
0.792415 2.113857 4.381128
-2.109636 -1.429812 4.381128
-1.622741 1.433505 4.381128
-0.777792 2.109541 4.381128
0.884779 2.088335 4.381128
-0.777792 -2.468963 4.381128
-2.117775 -1.337447 4.381128
-1.609077 1.498987 4.381128
-0.693552 2.172425 4.381128
-0.755263 -2.445827 4.381128
1.234953 1.341140 4.381128
-2.119233 -1.245082 4.381128
1.424222 0.786949 4.381128
-0.685426 -2.385409 4.381128
-0.685426 2.174705 4.381128
1.231571 1.433505 4.381128
-2.165857 -0.967987 4.381128
1.531335 -0.428461 4.381128
1.405537 0.879314 4.381128
-1.623719 -2.261097 4.381128
-2.145104 -1.152717 4.381128
-1.701442 -2.202481 4.381128
1.358616 0.971680 4.381128
1.545877 -0.413796 4.381128
1.565311 -0.321431 4.381128
1.346605 1.000126 4.381128
1.309189 1.064044 4.381128
1.607425 -0.229066 4.381128
1.254240 1.123531 4.381128
1.227262 1.156410 4.381128
-1.886172 -0.096091 4.381128
-1.815504 -0.044336 4.381128
-2.163267 -1.060351 4.374752
1.161875 1.433505 4.300131
-1.701442 0.048029 4.327880
1.531335 0.232759 4.300878
-2.163267 -1.614542 4.343935
1.161875 1.525870 4.336667
-2.255632 -0.598526 4.288830
0.515319 -1.891637 4.339152
-1.147252 1.895330 4.309995
1.161875 1.618235 4.380792
-2.070902 -1.799272 4.300414
-1.609077 0.232759 4.303015
-2.255632 -0.506161 4.306751
1.346605 -0.783257 4.380348
1.623700 -0.136701 4.321661
1.069510 1.710600 4.294819
1.623700 -0.044336 4.349597
-2.070902 -1.706907 4.336926
1.161875 1.710600 4.368017
-2.255632 -0.413796 4.301523
-0.593061 -2.261097 4.354928
1.623700 0.048029 4.372297
-1.609077 0.509854 4.379326
0.977145 1.895330 4.302526
1.161875 1.802965 4.365374
-2.163267 -0.321431 4.332516
1.531335 -0.413796 4.371478
-0.500696 -2.168732 4.324523
-0.685426 2.172425 4.365462
1.161875 1.895330 4.365659
1.531335 -0.321431 4.348912
-1.147252 -2.538192 4.289669
1.069510 1.802965 4.313856
-0.408331 -2.076367 4.316194
-1.516712 0.786949 4.336929
1.531335 -0.229066 4.316831
1.531335 0.509854 4.357473
1.069510 1.895330 4.337162
-0.315966 -2.076367 4.355211
-2.070902 -0.229066 4.372385
0.977145 1.987695 4.330019
-1.609077 1.156410 4.359982
0.884779 2.080060 4.331217
-0.870156 -2.538192 4.367067
-2.163267 -1.522177 4.328973
-1.978537 -0.136701 4.332206
-1.516712 1.064044 4.344968
1.346605 0.971680 4.289618
-2.163267 -1.245082 4.319891
-1.609077 1.248775 4.335910
-0.777792 -2.445827 4.346961
-1.609077 1.341140 4.356191
-2.163267 -1.152717 4.365686
-1.701442 -2.261097 4.292308
-2.070902 -1.054171 4.473493
-1.793807 -2.198248 4.473493
-1.518671 -2.353462 4.473493
-0.064076 -1.984002 4.473493
-2.100444 -0.967987 4.473493
-1.601449 -2.261097 4.473493
-1.857078 -2.168732 4.473493
-2.069766 -1.060351 4.473493
-0.038871 -1.961213 4.473493
-1.609077 -2.254151 4.473493
-2.127670 -0.875621 4.473493
-1.886172 -2.126082 4.473493
-1.897325 -2.076367 4.473493
1.154197 -1.245082 4.473493
-2.163267 -0.735424 4.473493
0.145859 -1.934321 4.473493
-1.793807 -0.068095 4.473493
1.161875 -1.227458 4.473493
-2.171657 -0.690891 4.473493
-1.934658 -1.984002 4.473493
1.623700 -0.076756 4.473493
0.977145 2.055235 4.473493
-1.779162 -0.044336 4.473493
-1.609077 1.574953 4.473493
1.607393 -0.044336 4.473493
-2.181541 -0.598526 4.473493
-1.732707 0.048029 4.473493
-0.630488 -2.353462 4.473493
1.635239 -0.136701 4.473493
-2.163267 -0.553424 4.473493
0.896570 2.080060 4.473493
-1.701442 0.078179 4.473493
1.601727 0.048029 4.473493
-1.978537 -1.900810 4.473493
-1.556656 1.618235 4.473493
1.201591 -1.152717 4.473493
-2.148544 -0.783257 4.473493
1.276068 1.525870 4.473493
1.568741 0.140394 4.473493
1.254240 -1.114568 4.473493
-1.983033 -1.891637 4.473493
1.277956 1.618235 4.473493
-2.118968 -0.506161 4.473493
0.238224 -1.921668 4.473493
-1.516712 1.685818 4.473493
1.544826 0.232759 4.473493
1.307240 -1.060351 4.473493
1.069510 2.023892 4.473493
1.308146 1.710600 4.473493
-0.593061 -2.318436 4.473493
0.330589 -1.904666 4.473493
-1.504646 1.710600 4.473493
-2.070902 -0.460969 4.473493
1.325082 -0.967987 4.473493
1.531335 0.594791 4.473493
0.422954 -1.906801 4.473493
1.254240 1.793594 4.473493
-0.507588 -2.261097 4.473493
1.526761 0.602219 4.473493
1.251910 1.802965 4.473493
-2.011735 -0.413796 4.473493
-1.424347 1.762242 4.473493
1.346605 -0.917491 4.473493
0.515319 -1.897641 4.473493
-2.003600 -0.321431 4.473493
-0.500696 -2.257247 4.473493
1.540425 0.325124 4.473493
0.521767 -1.891637 4.473493
1.358608 -0.875621 4.473493
1.537299 0.417489 4.473493
0.573308 -1.799272 4.473493
-1.978537 -0.235496 4.473493
1.543598 0.509854 4.473493
-0.408331 -2.205061 4.473493
0.607684 -1.756622 4.473493
-1.239616 1.868690 4.473493
1.392962 -0.783257 4.473493
-1.975929 -0.229066 4.473493
0.700049 -1.707304 4.473493
-1.200795 1.895330 4.473493
-0.372346 -2.168732 4.473493
1.421495 -0.690891 4.473493
-1.147252 1.954057 4.473493
-1.609077 0.581886 4.473493
-1.441633 -2.445827 4.473493
0.700495 -1.706907 4.473493
-1.054886 1.975918 4.473493
-0.315966 -2.107280 4.473493
-1.516712 -2.354378 4.473493
0.769822 -1.614542 4.473493
1.438970 -0.656704 4.473493
-1.028081 1.987695 4.473493
-1.603241 0.602219 4.473493
-0.962522 2.033233 4.473493
0.792415 -1.590281 4.473493
-1.147252 -2.563038 4.473493
1.463485 -0.598526 4.473493
-1.220209 -2.538192 4.473493
-1.570563 0.694584 4.473493
-0.915389 2.080060 4.473493
-2.067400 -1.522177 4.473493
0.884779 -1.556830 4.473493
1.438970 0.764437 4.473493
-1.054886 -2.576498 4.473493
1.498700 -0.506161 4.473493
1.423505 0.786949 4.473493
-0.870156 2.123650 4.473493
0.977145 -1.546033 4.473493
-2.070902 -1.518660 4.473493
0.274444 2.264791 4.473493
0.977145 -1.502018 4.473493
-0.781239 2.172425 4.473493
-1.516712 0.760863 4.473493
-2.093709 -1.429812 4.473493
-1.502686 0.786949 4.473493
0.956435 -1.429812 4.473493
-0.777792 2.173632 4.473493
-1.239616 -2.527974 4.473493
1.346605 0.962193 4.473493
-0.685426 2.201690 4.473493
-1.515925 0.879314 4.473493
1.339456 0.971680 4.473493
0.981399 -1.522177 4.473493
-2.070902 -1.395335 4.473493
-1.502707 0.971680 4.473493
-0.593061 2.233837 4.473493
1.381006 0.879314 4.473493
-0.962522 -2.562708 4.473493
0.977145 -1.377894 4.473493
-2.049845 -1.337447 4.473493
-1.609077 1.029913 4.473493
-0.870156 -2.541457 4.473493
1.040716 -1.337447 4.473493
1.287478 1.064044 4.473493
0.792415 2.134293 4.473493
-0.863665 -2.538192 4.473493
1.258041 1.156410 4.473493
-2.048728 -1.245082 4.473493
0.727992 2.172425 4.473493
-0.777792 -2.465169 4.473493
1.069510 -1.328372 4.473493
1.254240 1.180296 4.473493
-0.748785 -2.445827 4.473493
-1.516712 0.991843 4.473493
-2.056276 -1.152717 4.473493
-0.685426 -2.397762 4.473493
0.884779 2.083549 4.473493
1.251202 1.248775 4.473493
1.573041 -0.321431 4.473493
1.282978 1.341140 4.473493
1.254240 1.250041 4.473493
-1.701442 -2.209277 4.473493
1.267463 1.433505 4.473493
1.606470 -0.229066 4.473493
1.623700 -0.194423 4.473493
-1.622551 1.525870 4.473493
-1.914289 -0.136701 4.473493
-1.886172 -0.103179 4.473493
-0.242129 -2.076367 4.473493
-0.223601 -2.071633 4.473493
-1.793807 -2.168732 4.388460
-2.070902 -1.060351 4.471965
-1.609077 -2.261097 4.419525
-0.131236 -1.984002 4.384789
-2.163267 -0.967987 4.389460
-1.793807 -0.044336 4.401227
-2.163267 -0.875621 4.391450
-1.609077 1.525870 4.406497
1.531335 0.232759 4.446464
1.346605 -0.875621 4.408926
-2.070902 -1.614542 4.401831
-2.163267 -0.783257 4.448434
-0.408331 -2.168732 4.415857
1.069510 1.987695 4.402430
1.623700 -0.136701 4.467250
0.607684 -1.799272 4.405622
1.254240 1.525870 4.452124
1.346605 -0.783257 4.381906
-1.424347 -2.445827 4.400888
1.254240 1.618235 4.453427
-1.516712 0.786949 4.466625
-2.163267 -0.506161 4.431477
1.531335 0.325124 4.446965
1.254240 1.710600 4.456707
-2.070902 -1.522177 4.468777
-1.147252 1.895330 4.398452
1.531335 0.509854 4.441732
-1.609077 1.064044 4.418475
-2.163267 -0.413796 4.387721
-2.070902 -1.337447 4.442604
0.977145 -1.522177 4.432104
-0.962522 -2.538192 4.393696
-2.070902 -1.245082 4.452152
-2.070902 -0.413796 4.401420
-2.070902 -0.321431 4.403163
1.346605 0.971680 4.459800
0.700049 2.172425 4.406039
-0.870156 2.080060 4.399264
-1.978537 -0.229066 4.470260
-2.070902 -1.152717 4.454692
1.254240 1.156410 4.469422
1.254240 1.341140 4.411100
-0.777792 2.172425 4.463021
1.254240 1.433505 4.448057
-2.000159 -0.875621 4.565858
-1.793807 -2.169986 4.565858
-1.609077 -2.263184 4.565858
-1.503545 1.710600 4.565858
1.161875 -1.215417 4.565858
-2.065115 -0.783257 4.565858
-1.612748 -2.261097 4.565858
-1.424347 1.742990 4.565858
1.189223 -1.152717 4.565858
-1.793807 0.003158 4.565858
-1.795724 -2.168732 4.565858
-2.070902 -0.779947 4.565858
-1.701442 -2.208048 4.565858
1.254240 -1.127365 4.565858
-1.760760 0.048029 4.565858
-2.125242 -0.690891 4.565858
0.977145 2.078944 4.565858
1.314281 -1.060351 4.565858
-1.852074 -2.076367 4.565858
1.352253 1.341140 4.565858
-1.517254 -2.353462 4.565858
0.971084 2.080060 4.565858
1.585374 -0.136701 4.565858
-1.365955 1.802965 4.565858
-1.844926 -1.984002 4.565858
1.337973 -0.967987 4.565858
1.383471 1.433505 4.565858
1.613735 -0.044336 4.565858
1.161875 1.975478 4.565858
-2.149919 -0.598526 4.565858
-1.701442 0.089357 4.565858
1.346605 -0.945769 4.565858
1.150812 1.987695 4.565858
1.623700 -0.006707 4.565858
-2.070902 -0.514087 4.565858
1.374112 -0.875621 4.565858
0.055262 -1.984002 4.565858
1.402105 1.525870 4.565858
1.630941 0.048029 4.565858
-2.062626 -0.506161 4.565858
-0.604470 -2.353462 4.565858
0.145859 -1.936498 4.565858
-1.978537 -1.819691 4.565858
1.346605 1.669898 4.565858
1.623700 0.104320 4.565858
-0.593061 -2.342548 4.565858
1.390362 -0.783257 4.565858
1.337547 1.710600 4.565858
-2.010514 -0.413796 4.565858
-0.508052 -2.261097 4.565858
0.217249 -1.891637 4.565858
-1.239616 1.886890 4.565858
-1.886172 -1.954760 4.565858
1.358258 1.618235 4.565858
-1.978537 -0.335387 4.565858
0.238224 -1.877085 4.565858
-1.948585 -1.891637 4.565858
-0.500696 -2.249872 4.565858
-1.973531 -0.321431 4.565858
0.422954 -1.905076 4.565858
-1.223117 1.895330 4.565858
1.431048 -0.690891 4.565858
0.395216 -1.891637 4.565858
1.277584 1.802965 4.565858
-0.408331 -2.216271 4.565858
-1.941596 -0.229066 4.565858
1.531335 0.597706 4.565858
1.254240 1.842776 4.565858
-1.147252 1.944717 4.565858
-0.354756 -2.168732 4.565858
-1.898797 -0.136701 4.565858
1.227880 1.895330 4.565858
1.528894 0.602219 4.565858
0.330589 -1.856683 4.565858
1.438970 -0.672403 4.565858
-0.315966 -2.103420 4.565858
-1.060264 1.987695 4.565858
0.466873 -1.891637 4.565858
-1.054886 1.992140 4.565858
-1.434034 -2.445827 4.565858
1.555848 0.417489 4.565858
0.509150 -1.799272 4.565858
-0.276624 -2.076367 4.565858
1.581755 0.509854 4.565858
-1.516712 -2.354222 4.565858
-2.018048 -1.522177 4.565858
0.515319 -1.795536 4.565858
-0.223601 -2.059741 4.565858
-0.962522 2.035288 4.565858
-0.131236 -2.025449 4.565858
-2.017988 -1.429812 4.565858
-0.038871 -2.018651 4.565858
0.607684 -1.747645 4.565858
-1.147252 -2.542911 4.565858
-0.911781 2.080060 4.565858
0.053494 -1.984471 4.565858
-1.163999 -2.538192 4.565858
0.645480 -1.706907 4.565858
-1.127285 -2.538192 4.565858
0.700049 -1.665439 4.565858
1.403386 0.786949 4.565858
-1.979706 -1.337447 4.565858
-0.870156 2.123024 4.565858
1.346605 0.876959 4.565858
-1.978537 -1.335732 4.565858
1.343097 0.879314 4.565858
-0.782722 2.172425 4.565858
-1.886172 -0.115689 4.565858
1.282098 0.971680 4.565858
-1.953952 -1.245082 4.565858
0.744932 -1.614542 4.565858
-1.830795 -0.044336 4.565858
-0.777792 2.174920 4.565858
-1.054886 -2.527355 4.565858
1.287481 1.064044 4.565858
0.422954 2.258056 4.565858
-0.685426 2.228836 4.565858
1.298568 1.156410 4.565858
-0.962522 -2.540063 4.565858
-1.978537 -1.118269 4.565858
-1.609077 0.636912 4.565858
0.382471 2.264791 4.565858
-0.973406 -2.538192 4.565858
1.331548 1.248775 4.565858
-2.016744 -1.060351 4.565858
0.792415 -1.572713 4.565858
1.346605 1.312972 4.565858
-0.954606 -2.538192 4.565858
-0.601905 2.264791 4.565858
-1.564407 0.694584 4.565858
-1.963928 -1.152717 4.565858
-0.870156 -2.496109 4.565858
0.877441 -1.522177 4.565858
-1.516712 0.777647 4.565858
0.238224 2.268444 4.565858
-2.001074 -0.967987 4.565858
0.884779 -1.515361 4.565858
-0.777792 -2.467789 4.565858
-0.592412 2.264791 4.565858
-1.510611 0.786949 4.565858
0.330589 2.271598 4.565858
0.964232 -1.429812 4.565858
-0.714830 -2.445827 4.565858
-1.516712 0.787295 4.565858
0.977145 -1.418344 4.565858
-0.685426 -2.432534 4.565858
-1.533813 0.879314 4.565858
-0.593061 2.266445 4.565858
1.069510 -1.349355 4.565858
-1.565964 0.971680 4.565858
1.082253 -1.337447 4.565858
0.792415 2.162069 4.565858
1.156893 -1.245082 4.565858
0.780554 2.172425 4.565858
0.884779 2.101768 4.565858
-1.626093 1.525870 4.565858
-1.624947 1.618235 4.565858
-1.609077 1.636481 4.565858
-1.516712 1.701497 4.565858
-1.609077 -2.261097 4.565787
-2.163267 -0.690891 4.501016
-0.038871 -1.984002 4.502184
-1.886172 -2.076367 4.510339
-1.793807 -0.044336 4.520952
-1.054886 1.987695 4.495626
0.053494 -1.984002 4.563848
-2.163267 -0.598526 4.543215
-1.886172 -1.984002 4.527784
-2.070902 -0.875621 4.544279
0.238224 -1.891637 4.511018
-1.978537 -1.891637 4.483099
-2.070902 -0.783257 4.564620
1.346605 1.341140 4.556710
-1.609077 0.602219 4.496474
-2.070902 -1.429812 4.499367
0.330589 -1.891637 4.498105
1.623700 -0.136701 4.515037
1.346605 1.433505 4.534863
-2.070902 -0.506161 4.546597
1.346605 1.525870 4.529259
-1.978537 -1.245082 4.524982
0.515319 -1.891637 4.495568
1.623700 0.048029 4.564569
1.346605 1.618235 4.553764
-1.516712 0.879314 4.477783
0.330589 2.264791 4.512526
-0.593061 2.264791 4.559993
-1.054886 -2.538192 4.554432
0.515319 -1.799272 4.555075
-1.978537 -1.152717 4.549156
-1.978537 -0.321431 4.539699
-1.516712 0.971680 4.497670
1.254240 1.802965 4.477906
-2.070902 -0.967987 4.498768
0.700049 -1.706907 4.473945
-0.870156 -2.538192 4.484800
0.884779 -1.522177 4.558662
0.977145 -1.522177 4.494289
1.346605 0.879314 4.558537
-1.609077 1.618235 4.500897
1.069510 -1.337447 4.523081
1.254240 1.248775 4.474345
1.161875 -1.226843 4.658224
1.202595 -1.198899 4.658224
1.208057 -1.180065 4.658224
1.215238 -1.152717 4.658224
1.254240 -1.123552 4.658224
1.300422 -1.110305 4.658224
1.308516 -1.106534 4.658224
1.323613 -1.060351 4.658224
1.346453 -1.014169 4.658224
1.346605 -1.013912 4.658224
1.366876 -0.967987 4.658224
1.378644 -0.921804 4.658224
1.392709 -0.875621 4.658224
-1.609077 -2.261826 4.658224
-1.793807 -2.004019 4.658224
0.238224 -1.986705 4.658224
-1.931656 -0.875621 4.658224
-1.610086 -2.261097 4.658224
-1.812415 -1.984002 4.658224
0.243859 -1.984002 4.658224
-1.958702 -0.783257 4.658224
-1.480213 1.710600 4.658224
-1.701442 -2.177083 4.658224
-1.793807 0.031630 4.658224
-1.943793 -0.690891 4.658224
-1.424347 1.747392 4.658224
-1.978537 -1.832292 4.658224
-1.717136 -2.168732 4.658224
0.017016 -1.984002 4.658224
-2.070902 -0.604978 4.658224
1.592209 -0.136701 4.658224
0.053494 -1.968634 4.658224
-1.516712 -2.299425 4.658224
1.393943 -0.783257 4.658224
-1.886172 -1.918474 4.658224
-1.778880 0.048029 4.658224
-1.333318 1.802965 4.658224
-2.075614 -0.598526 4.658224
-1.500309 -2.353462 4.658224
1.402469 1.341140 4.658224
1.550750 -0.044336 4.658224
-1.907528 -1.891637 4.658224
1.438970 -0.700315 4.658224
-1.978537 -0.657367 4.658224
-1.722754 0.140394 4.658224
1.438970 1.411467 4.658224
-1.745854 -2.076367 4.658224
0.145859 -1.978699 4.658224
1.444483 -0.690891 4.658224
-1.331982 1.803600 4.658224
-2.070902 -0.517394 4.658224
-1.701442 0.182376 4.658224
1.446728 1.433505 4.658224
0.223244 -1.984002 4.658224
-1.239616 1.843413 4.658224
1.531563 0.048029 4.658224
1.161875 1.972404 4.658224
-0.569788 -2.353462 4.658224
-2.054718 -0.506161 4.658224
1.467069 -0.598526 4.658224
1.146338 1.987695 4.658224
-1.152958 1.895330 4.658224
-0.500696 -2.304878 4.658224
0.330589 -1.899734 4.658224
1.495675 -0.506161 4.658224
1.069510 2.042262 4.658224
1.448132 1.618235 4.658224
1.553268 0.140394 4.658224
-0.428659 -2.261097 4.658224
-1.147252 1.898715 4.658224
1.023698 2.080060 4.658224
1.438970 1.626034 4.658224
-1.054886 1.945570 4.658224
-2.011765 -0.413796 4.658224
1.356617 1.710600 4.658224
1.526843 -0.413796 4.658224
0.377506 -1.891637 4.658224
-1.978537 -0.353637 4.658224
-1.003186 1.987695 4.658224
1.531335 0.416544 4.658224
-0.408331 -2.249731 4.658224
1.346605 1.717989 4.658224
-0.962522 2.019825 4.658224
0.422954 -1.881882 4.658224
1.281787 1.802965 4.658224
-1.965831 -0.321431 4.658224
-0.913847 2.080060 4.658224
1.531335 -0.405914 4.658224
1.254240 1.839706 4.658224
1.531151 0.417489 4.658224
1.216262 1.895330 4.658224
-0.870156 2.126711 4.658224
-1.948142 -0.229066 4.658224
0.515319 -1.845747 4.658224
0.016172 2.264791 4.658224
-1.935380 -0.136701 4.658224
-0.785716 2.172425 4.658224
-0.315966 -2.191459 4.658224
0.575243 -1.799272 4.658224
-0.777792 2.174277 4.658224
0.053494 2.270710 4.658224
1.531335 0.420337 4.658224
1.556301 -0.229066 4.658224
-0.685426 2.208618 4.658224
-0.296660 -2.168732 4.658224
0.607684 -1.774137 4.658224
-1.609077 0.642715 4.658224
-0.593061 2.197820 4.658224
0.145859 2.279096 4.658224
-0.223601 -2.078106 4.658224
0.238224 2.273357 4.658224
-1.574554 0.694584 4.658224
0.679399 -1.706907 4.658224
-1.990822 -1.522177 4.658224
-0.221727 -2.076367 4.658224
-1.553028 0.786949 4.658224
-1.886172 -0.065681 4.658224
-1.989638 -1.429812 4.658224
1.531335 0.545452 4.658224
0.330589 2.278697 4.658224
-0.685426 -2.463048 4.658224
-0.131236 -2.021530 4.658224
-1.553974 0.879314 4.658224
0.700049 -1.685216 4.658224
-1.978537 -1.405818 4.658224
1.514596 0.602219 4.658224
0.422954 2.270546 4.658224
-0.038871 -2.002137 4.658224
-0.656021 -2.445827 4.658224
-1.561347 0.971680 4.658224
-1.869370 -0.044336 4.658224
-1.941935 -1.337447 4.658224
0.779803 -1.614542 4.658224
-0.593061 -2.377823 4.658224
-1.898038 -1.245082 4.658224
0.436354 2.264791 4.658224
0.792415 -1.598710 4.658224
-1.887549 -1.152717 4.658224
1.536638 0.509854 4.658224
0.854969 -1.522177 4.658224
-1.886172 -1.149222 4.658224
0.884779 -1.502642 4.658224
-1.880046 -1.060351 4.658224
0.977145 -1.437164 4.658224
-1.886172 -1.033443 4.658224
0.985042 -1.429812 4.658224
0.884779 2.151913 4.658224
-1.910082 -0.967987 4.658224
0.857137 2.172425 4.658224
1.069510 -1.364054 4.658224
-1.618174 1.525870 4.658224
1.367852 0.879314 4.658224
1.089626 -1.337447 4.658224
0.977145 2.102550 4.658224
-1.609077 1.561340 4.658224
1.142156 -1.245082 4.658224
1.350404 0.971680 4.658224
-1.584323 1.618235 4.658224
1.346605 0.978964 4.658224
-1.516712 1.687104 4.658224
1.334188 1.064044 4.658224
1.346605 1.119437 4.658224
1.362887 1.156410 4.658224
1.353696 1.248775 4.658224
0.238224 -1.984002 4.651968
-1.793807 -2.168732 4.570626
-1.978537 -0.875621 4.575497
1.623700 0.048029 4.581515
-1.701442 0.140394 4.628976
-1.978537 -0.783257 4.589554
0.053494 -1.984002 4.570389
1.346605 -0.967987 4.575597
-1.793807 -2.076367 4.617014
-1.516712 -2.353462 4.567954
-1.054886 1.987695 4.584023
-2.070902 -0.690891 4.590381
0.238224 -1.891637 4.613527
1.531335 0.417489 4.652660
-1.978537 -0.690891 4.594772
0.977145 2.080060 4.568574
0.330589 -1.891637 4.652958
1.438970 1.433505 4.641744
-1.516712 0.786949 4.580246
-0.593061 -2.353462 4.612274
0.422954 -1.891637 4.584623
1.438970 -0.690891 4.568736
-0.500696 -2.261097 4.582217
1.438970 1.525870 4.609626
1.346605 0.879314 4.611519
0.515319 -1.799272 4.613331
-0.315966 -2.168732 4.622012
1.346605 0.971680 4.650249
-1.147252 -2.538192 4.578531
1.346605 1.710600 4.619318
-1.609077 1.618235 4.627558
1.346605 1.156410 4.613015
1.438970 1.618235 4.649569
-0.223601 -2.076367 4.653004
-1.978537 -1.337447 4.567276
-0.962522 -2.538192 4.567877
0.977145 -1.429812 4.613011
1.346605 1.248775 4.622516
0.422954 2.264791 4.612837
-0.685426 -2.445827 4.610665
-1.978537 -1.060351 4.611217
0.792415 2.172425 4.578391
-1.886172 -1.060351 4.655488
-1.978537 -0.967987 4.580665
1.161875 -1.207228 4.704406
1.169078 -1.198899 4.704406
1.187389 -1.152717 4.704406
1.208057 -1.142889 4.704406
1.249607 -1.106534 4.704406
1.254240 -1.103931 4.704406
1.298038 -1.060351 4.704406
1.254240 -1.007667 4.704406
1.245025 -0.967987 4.704406
1.300422 -1.049682 4.704406
1.346605 -1.023426 4.704406
1.256927 -0.967987 4.704406
1.254240 -0.956181 4.704406
1.376958 -1.014169 4.704406
1.392787 -1.009414 4.704406
1.406658 -0.967987 4.704406
1.392787 -0.942812 4.704406
1.361448 -0.921804 4.704406
1.370077 -0.875621 4.704406
1.208057 -1.152717 4.688429
1.254240 -1.106534 4.701720
1.300422 -1.106534 4.695096
1.300422 -1.060351 4.701734
1.254240 -0.967987 4.688438
1.346605 -1.014169 4.676788
1.392787 -0.967987 4.667125
1.161875 -1.176965 4.750588
1.176946 -1.152717 4.750588
1.208057 -1.122166 4.750588
1.221863 -1.106534 4.750588
1.254240 -1.062373 4.750588
1.256742 -1.060351 4.750588
1.277759 -1.014169 4.750588
1.300422 -0.993144 4.750588
1.336997 -0.967987 4.750588
1.346605 -0.955718 4.750588
1.354710 -0.921804 4.750588
1.349339 -0.875621 4.750588
1.161875 -1.198899 4.715249
1.254240 -0.967987 4.725948
1.300422 -1.014169 4.720078
1.346605 -1.014169 4.713054
1.346605 -0.967987 4.732224
1.392787 -0.967987 4.725731
-0.104766 -1.984002 4.750588
-1.793807 0.056674 4.750588
-1.424347 1.720261 4.750588
-1.886172 -1.896315 4.750588
-1.744374 0.140394 4.750588
-1.331982 1.782296 4.750588
-1.890551 -1.891637 4.750588
-1.786764 -1.984002 4.750588
1.362468 -0.783257 4.750588
-1.283527 1.802965 4.750588
-1.793807 -1.976686 4.750588
-0.038871 -1.971711 4.750588
1.531335 0.130776 4.750588
1.399530 -0.690891 4.750588
-1.239616 1.820935 4.750588
1.533744 0.140394 4.750588
-1.951960 -1.799272 4.750588
1.438970 -0.633247 4.750588
-0.485528 -2.353462 4.750588
-0.004118 -1.984002 4.750588
1.562806 0.232759 4.750588
-0.408331 -2.320346 4.750588
1.230579 1.895330 4.750588
1.161875 1.959600 4.750588
-1.147252 1.850949 4.750588
-1.957394 -1.706907 4.750588
0.286342 -1.984002 4.750588
1.460320 -0.598526 4.750588
1.531335 0.547387 4.750588
-1.067800 1.895330 4.750588
-0.350283 -2.261097 4.750588
0.330589 -1.962899 4.750588
1.514845 0.602219 4.750588
-1.932903 -1.614542 4.750588
-0.315966 -2.190510 4.750588
-1.054886 1.900223 4.750588
1.468614 -0.506161 4.750588
0.422954 -1.948759 4.750588
-0.962522 1.971838 4.750588
-1.904788 -1.522177 4.750588
0.454935 -1.891637 4.750588
-0.942725 1.987695 4.750588
1.540542 0.509854 4.750588
1.517128 -0.413796 4.750588
-1.915748 -1.429812 4.750588
0.515319 -1.855716 4.750588
-0.880541 2.080060 4.750588
0.604509 -1.799272 4.750588
-1.888222 -1.337447 4.750588
1.531335 -0.373914 4.750588
-1.508092 -2.353462 4.750588
-1.558983 0.786949 4.750588
-0.870156 2.084229 4.750588
0.607684 -1.796779 4.750588
-1.886172 -1.333022 4.750588
-1.917576 -0.875621 4.750588
-0.777792 2.110939 4.750588
-1.830902 -1.245082 4.750588
0.694727 -1.706907 4.750588
-1.528278 0.879314 4.750588
1.544025 -0.321431 4.750588
0.700049 -1.700154 4.750588
-0.685426 2.119184 4.750588
-1.793807 -1.204244 4.750588
-1.588408 0.971680 4.750588
0.785087 -1.614542 4.750588
1.133929 1.987695 4.750588
-0.593061 2.130409 4.750588
-1.959274 -0.783257 4.750588
1.069510 2.050771 4.750588
0.792415 -1.604668 4.750588
1.368570 1.064044 4.750588
-1.978537 -0.716063 4.750588
0.836672 -1.522177 4.750588
-1.793807 -0.992329 4.750588
1.373324 1.156410 4.750588
-1.803280 -0.967987 4.750588
1.027345 2.080060 4.750588
1.433296 1.248775 4.750588
-1.994304 -0.690891 4.750588
0.884779 -1.493335 4.750588
-1.886172 -0.901372 4.750588
1.438970 1.267046 4.750588
-2.057100 -0.598526 4.750588
0.977145 -1.434579 4.750588
1.452763 1.341140 4.750588
-2.048878 -0.506161 4.750588
-1.936840 -0.136701 4.750588
-1.609077 1.505666 4.750588
0.980469 -1.429812 4.750588
-1.886172 -0.071160 4.750588
-1.603155 1.525870 4.750588
-0.626940 -2.445827 4.750588
1.069510 -1.345388 4.750588
-1.548797 1.618235 4.750588
-0.593061 -2.420108 4.750588
-1.865977 -0.044336 4.750588
-0.500696 -2.364784 4.750588
1.073195 -1.337447 4.750588
-1.532254 1.710600 4.750588
-1.801834 0.048029 4.750588
-2.024114 -0.413796 4.750588
0.143612 2.264791 4.750588
1.107050 -1.245082 4.750588
-1.609077 -2.225077 4.750588
-1.516712 1.722342 4.750588
-1.978537 -0.356672 4.750588
-1.670736 -2.168732 4.750588
0.238224 2.256348 4.750588
-1.516712 -2.341687 4.750588
1.531335 -0.054397 4.750588
0.147195 2.264791 4.750588
-1.573649 -2.261097 4.750588
-1.969420 -0.321431 4.750588
1.522360 -0.044336 4.750588
-1.694015 -2.076367 4.750588
0.330589 2.258890 4.750588
-1.978537 -0.278209 4.750588
1.511408 0.048029 4.750588
-1.701442 -2.067118 4.750588
0.397557 2.264791 4.750588
-1.988002 -0.229066 4.750588
0.145859 2.265333 4.750588
-1.978537 -0.198980 4.750588
0.422954 2.271927 4.750588
-1.763991 -1.152717 4.750588
0.515319 2.202615 4.750588
-1.730046 -1.060351 4.750588
0.434390 2.264791 4.750588
-0.298939 -2.168732 4.750588
-0.223601 -2.088720 4.750588
0.977145 2.106730 4.750588
-0.212966 -2.076367 4.750588
0.892848 2.172425 4.750588
-0.131236 -1.999831 4.750588
0.884779 2.179821 4.750588
0.053494 -2.020502 4.750588
0.145859 -2.017036 4.750588
0.238224 -1.997206 4.750588
1.458578 1.618235 4.750588
1.438970 1.662691 4.750588
1.381737 1.710600 4.750588
1.346605 1.735469 4.750588
1.321073 1.802965 4.750588
1.254240 1.881786 4.750588
-1.793807 -1.984002 4.709599
-1.978537 -0.690891 4.731681
-1.793807 0.048029 4.718976
-0.038871 -1.984002 4.707675
-2.070902 -0.598526 4.668325
0.053494 -1.984002 4.677962
-1.701442 0.232759 4.711792
-0.500696 -2.353462 4.740100
1.438970 -0.690891 4.683743
-1.978537 -1.799272 4.713237
0.145859 -1.984002 4.664937
-0.408331 -2.261097 4.672637
1.531335 0.048029 4.658964
-1.978537 -0.229066 4.684687
-1.978537 -1.706907 4.688372
0.422954 -1.891637 4.695461
-1.331982 1.802965 4.659947
1.531335 0.417489 4.666601
0.053494 2.264791 4.680103
-1.978537 -1.522177 4.671916
-1.793807 -1.152717 4.688183
-1.793807 -1.060351 4.713207
-1.978537 -1.429812 4.673414
0.238224 2.264791 4.715277
-1.147252 1.895330 4.667136
0.330589 2.264791 4.734019
-1.886172 -1.245082 4.672250
-1.609077 1.525870 4.686728
-1.886172 -1.152717 4.659256
1.346605 1.064044 4.689740
-0.962522 1.987695 4.707921
-1.516712 1.710600 4.678326
-1.886172 -0.967987 4.675872
-1.609077 -2.261097 4.660775
1.438970 1.341140 4.710442
0.884779 2.172425 4.710023
-1.701442 -2.168732 4.670197
-0.777792 2.172425 4.662778
-1.701442 -2.076367 4.723496
-0.685426 2.172425 4.691647
-0.593061 2.172425 4.687432
-0.500696 2.172425 4.711302
1.531335 -0.044336 4.722769
1.161875 -1.166798 4.796771
1.172359 -1.152717 4.796771
1.202890 -1.106534 4.796771
1.208057 -1.102401 4.796771
1.254240 -1.070035 4.796771
1.259626 -1.060351 4.796771
1.278263 -1.014169 4.796771
1.296156 -0.967987 4.796771
1.300422 -0.960175 4.796771
1.326709 -0.921804 4.796771
1.333876 -0.875621 4.796771
1.208057 -1.106534 4.782515
1.300422 -0.967987 4.789743
1.346605 -0.921804 4.770292
1.346605 -0.875621 4.758670
1.161875 -1.165525 4.842954
1.172630 -1.152717 4.842954
1.199444 -1.106534 4.842954
1.208057 -1.092094 4.842954
1.225059 -1.060351 4.842954
1.243433 -1.014169 4.842954
1.254240 -0.993910 4.842954
1.267348 -0.967987 4.842954
1.279359 -0.921804 4.842954
1.300422 -0.877562 4.842954
1.301485 -0.875621 4.842954
1.254240 -1.060351 4.807228
1.254240 -1.014169 4.830389
1.300422 -0.921804 4.818713
-1.777163 -1.984002 4.842954
-1.978537 -0.831272 4.842954
-1.793807 0.082659 4.842954
-1.793807 -1.965051 4.842954
-1.886172 -0.869202 4.842954
1.313862 -0.783257 4.842954
1.531335 0.120376 4.842954
-1.424347 1.736750 4.842954
0.246367 -1.984002 4.842954
1.304219 -0.690891 4.842954
-1.875625 -0.875621 4.842954
-1.331982 1.768108 4.842954
-1.886172 -1.892040 4.842954
1.161875 1.962764 4.842954
0.330589 -1.945581 4.842954
1.346605 -0.668958 4.842954
-1.239616 1.799359 4.842954
1.127720 1.987695 4.842954
-2.030143 -0.690891 4.842954
-1.886631 -1.891637 4.842954
-0.346105 -2.353462 4.842954
1.254240 1.917585 4.842954
-1.224474 1.802965 4.842954
1.623700 0.136439 4.842954
1.438970 -0.608167 4.842954
-0.315966 -2.290144 4.842954
-1.147252 1.834928 4.842954
1.461557 -0.598526 4.842954
-1.913495 -1.799272 4.842954
-2.050360 -0.506161 4.842954
-1.055381 1.895330 4.842954
1.531335 -0.549472 4.842954
1.624866 0.140394 4.842954
-1.914870 -1.706907 4.842954
-2.030368 -0.413796 4.842954
1.623700 0.140701 4.842954
-0.315966 2.172126 4.842954
1.276589 1.895330 4.842954
-1.054886 1.896137 4.842954
-1.995355 -0.321431 4.842954
1.592507 0.232759 4.842954
-1.886172 -1.652121 4.842954
-0.314392 2.172425 4.842954
1.535368 -0.506161 4.842954
-1.865268 -1.614542 4.842954
-1.978537 -0.291172 4.842954
-0.962522 1.953049 4.842954
-1.957074 -0.229066 4.842954
1.531335 -0.491096 4.842954
1.531335 0.569417 4.842954
-1.942966 -0.136701 4.842954
-1.424347 -2.423966 4.842954
1.515051 0.602219 4.842954
-0.907507 1.987695 4.842954
-1.487149 -2.353462 4.842954
1.454387 -0.413796 4.842954
-0.870761 2.080060 4.842954
1.506397 -0.321431 4.842954
-1.793807 -1.306847 4.842954
-1.393828 -2.445827 4.842954
-1.774800 -1.245082 4.842954
-1.852367 -1.522177 4.842954
-0.685426 2.079348 4.842954
-1.793807 -1.174671 4.842954
1.531335 -0.239107 4.842954
1.560955 0.509854 4.842954
-1.793807 -0.980228 4.842954
-1.851278 -1.429812 4.842954
1.531335 -0.185715 4.842954
-1.788569 -0.967987 4.842954
-0.773361 2.080060 4.842954
1.516030 -0.136701 4.842954
-1.793807 -0.958974 4.842954
1.499978 0.694584 4.842954
-1.824528 -1.337447 4.842954
1.533829 -0.229066 4.842954
-0.301803 -2.261097 4.842954
0.238224 2.237559 4.842954
-0.252317 -2.168732 4.842954
-0.660711 2.080060 4.842954
0.422954 2.170677 4.842954
-1.813531 -1.152717 4.842954
-0.223601 -2.104438 4.842954
0.394569 2.172425 4.842954
-1.887475 -0.044336 4.842954
-0.205042 -2.076367 4.842954
0.330589 2.202435 4.842954
-1.886172 -0.042879 4.842954
-1.803037 -1.060351 4.842954
-0.131236 -2.030828 4.842954
-1.823019 0.048029 4.842954
-0.870156 2.080500 4.842954
-0.038871 -1.997238 4.842954
-1.693846 0.417489 4.842954
0.453886 2.172425 4.842954
0.053494 -1.985683 4.842954
-1.644160 0.509854 4.842954
0.515319 2.189396 4.842954
-0.777792 2.090327 4.842954
0.145859 -1.990171 4.842954
0.607684 2.191408 4.842954
-1.997578 -0.783257 4.842954
0.238224 -1.986794 4.842954
-0.685426 -2.469382 4.842954
-0.593061 2.090677 4.842954
-0.629400 -2.445827 4.842954
-0.500696 2.122085 4.842954
1.388429 1.064044 4.842954
0.884779 2.158909 4.842954
-0.500696 -2.457641 4.842954
0.860296 2.172425 4.842954
1.438970 1.136124 4.842954
-0.408331 2.160738 4.842954
-0.507808 -2.445827 4.842954
1.444133 1.156410 4.842954
0.977145 2.120925 4.842954
-0.593061 -2.433073 4.842954
1.438970 1.183949 4.842954
-1.516712 0.957928 4.842954
-1.548074 0.971680 4.842954
1.430245 1.248775 4.842954
-0.408331 -2.450239 4.842954
-1.609077 1.108919 4.842954
-0.397777 -2.445827 4.842954
1.438970 1.294812 4.842954
1.484035 -0.044336 4.842954
-1.597997 1.064044 4.842954
1.512988 0.048029 4.842954
-1.609077 -2.223924 4.842954
1.438970 1.708227 4.842954
1.436674 1.710600 4.842954
-1.695058 -2.168732 4.842954
-1.516712 -2.276739 4.842954
1.346605 1.841445 4.842954
-1.528492 -2.261097 4.842954
1.371008 1.802965 4.842954
-1.618810 1.525870 4.842954
-1.690713 -2.076367 4.842954
-1.609077 1.549425 4.842954
-1.701442 -2.053464 4.842954
-1.558826 1.618235 4.842954
-1.516712 1.674249 4.842954
-1.475458 1.710600 4.842954
0.422954 -1.928580 4.842954
0.515319 -1.910140 4.842954
0.531404 -1.891637 4.842954
0.575469 -1.799272 4.842954
0.607684 -1.782445 4.842954
0.700049 -1.742847 4.842954
0.780557 -1.614542 4.842954
0.792415 -1.601416 4.842954
0.874372 -1.522177 4.842954
0.884779 -1.514938 4.842954
0.977145 -1.436223 4.842954
0.983087 -1.429812 4.842954
1.041982 -1.337447 4.842954
1.069510 -1.306000 4.842954
1.100151 -1.245082 4.842954
-1.886172 -0.875621 4.780206
1.346605 -0.783257 4.773695
-0.038871 -1.984002 4.818506
-0.408331 -2.353462 4.782431
-1.978537 -0.783257 4.789855
-1.886172 -1.614542 4.821307
1.346605 -0.690891 4.820606
-0.315966 -2.261097 4.819446
-1.239616 1.802965 4.818297
1.623700 0.140394 4.841183
0.515319 -1.891637 4.815990
-1.424347 -2.445827 4.787462
-1.978537 -0.321431 4.792732
1.531335 -0.506161 4.787238
-1.886172 -1.522177 4.779804
1.254240 1.895330 4.803758
-1.886172 -1.429812 4.794729
-1.978537 -0.229066 4.824262
0.700049 -1.706907 4.758827
1.531335 -0.321431 4.800453
-0.685426 2.080060 4.837176
-0.315966 2.172425 4.840142
-1.886172 -1.337447 4.754766
-1.516712 0.879314 4.770793
1.531335 -0.136701 4.814569
-1.793807 -1.245082 4.800327
-0.500696 -2.445827 4.816298
-1.793807 -1.152717 4.823078
1.438970 1.156410 4.835496
-1.793807 -1.060351 4.830168
-0.408331 -2.445827 4.837588
-1.609077 1.064044 4.826545
-1.886172 -0.044336 4.840145
0.145859 2.264791 4.751659
-1.793807 -0.967987 4.837538
0.422954 2.172425 4.837330
1.069510 -1.337447 4.766137
0.422954 2.264791 4.771209
-1.609077 1.525870 4.758358
-1.516712 1.710600 4.792939
0.884779 2.172425 4.819876
1.346605 1.802965 4.797058
1.161875 -1.168266 4.935318
0.006819 -1.984002 4.935318
-1.770856 -1.984002 4.935318
-2.076186 -0.506161 4.935318
1.168464 -1.152717 4.935318
-1.793807 -1.965889 4.935318
0.053494 -1.961493 4.935318
-2.082748 -0.413796 4.935318
-2.075504 -0.321431 4.935318
1.191470 -1.060351 4.935318
-1.822426 -1.891637 4.935318
1.496761 -0.136701 4.935318
-2.070902 -0.299994 4.935318
1.246758 -0.967987 4.935318
1.494229 -0.044336 4.935318
0.145859 -1.971458 4.935318
1.161875 1.978156 4.935318
-1.870568 -1.799272 4.935318
1.254240 -0.959101 4.935318
1.130283 1.987695 4.935318
1.527359 0.048029 4.935318
-2.032045 -0.229066 4.935318
0.238224 -1.938687 4.935318
-1.869501 -1.706907 4.935318
-0.316774 -2.353462 4.935318
1.312979 -0.875621 4.935318
1.531335 0.061472 4.935318
-1.835645 -1.614542 4.935318
0.330589 -1.945349 4.935318
-0.315966 -2.352218 4.935318
-1.978537 -0.151429 4.935318
1.590499 0.140394 4.935318
0.422954 -1.929888 4.935318
-1.424347 -2.385651 4.935318
-0.315966 2.148986 4.935318
-1.974157 -0.136701 4.935318
1.312429 -0.783257 4.935318
-1.450560 -2.353462 4.935318
-0.227451 2.172425 4.935318
-1.822978 -1.522177 4.935318
1.314324 -0.690891 4.935318
-1.701442 0.415928 4.935318
-0.223601 2.173459 4.935318
0.515319 -1.920334 4.935318
-1.800324 -1.429812 4.935318
-1.701104 0.417489 4.935318
1.346605 -0.629704 4.935318
-1.793807 -1.412408 4.935318
-1.239616 -2.461002 4.935318
0.526419 -1.891637 4.935318
-1.659194 0.509854 4.935318
-1.299031 -2.445827 4.935318
-1.749639 -1.337447 4.935318
-1.464458 1.710600 4.935318
-1.609077 0.555450 4.935318
-1.773489 -1.245082 4.935318
-1.331982 -2.436745 4.935318
0.576776 -1.799272 4.935318
-1.793807 -1.219817 4.935318
1.533659 0.602219 4.935318
-1.841773 -1.152717 4.935318
-1.239616 1.800837 4.935318
1.531335 0.610211 4.935318
0.238224 2.207925 4.935318
-0.267187 -2.261097 4.935318
1.375455 -0.598526 4.935318
1.499041 0.694584 4.935318
-1.230569 1.802965 4.935318
0.607684 -1.743316 4.935318
0.330589 2.166754 4.935318
1.404410 -0.506161 4.935318
-1.516712 0.802265 4.935318
-1.147252 1.841873 4.935318
1.454383 0.786949 4.935318
0.316706 2.172425 4.935318
-0.223601 -2.180726 4.935318
-1.500768 0.879314 4.935318
-1.054886 1.878503 4.935318
1.396609 -0.413796 4.935318
-1.876419 -1.060351 4.935318
0.351349 2.172425 4.935318
-0.215259 -2.168732 4.935318
1.438970 0.813250 4.935318
-1.506236 0.971680 4.935318
1.438970 -0.326799 4.935318
0.700049 -1.713643 4.935318
0.422954 2.177832 4.935318
-1.014287 1.895330 4.935318
-0.131236 -2.086104 4.935318
1.446324 -0.321431 4.935318
-1.609077 1.097313 4.935318
-0.962522 1.920648 4.935318
-0.109345 -2.076367 4.935318
0.723526 -1.706907 4.935318
1.490572 -0.229066 4.935318
-0.875086 1.987695 4.935318
0.515319 2.168971 4.935318
-0.038871 -2.039638 4.935318
1.402527 0.971680 4.935318
-0.870156 2.009016 4.935318
0.776198 -1.614542 4.935318
-0.801373 2.080060 4.935318
0.496627 2.172425 4.935318
-0.727069 -2.445827 4.935318
-1.919011 -0.044336 4.935318
-1.978537 -1.031530 4.935318
0.607684 2.164412 4.935318
-0.685426 -2.437561 4.935318
1.434999 1.064044 4.935318
-1.886172 0.001514 4.935318
-0.777792 2.082589 4.935318
-1.516712 1.008849 4.935318
-1.852042 0.048029 4.935318
-1.566259 1.064044 4.935318
1.438970 1.068191 4.935318
-0.685426 2.086512 4.935318
-0.500696 -2.459197 4.935318
-0.593061 2.088508 4.935318
-0.582194 -2.445827 4.935318
-1.984741 -0.875621 4.935318
-0.500696 2.109733 4.935318
-0.593061 -2.441390 4.935318
-1.886172 -1.051982 4.935318
-0.408331 2.121058 4.935318
-0.408331 -2.446308 4.935318
-0.407183 -2.445827 4.935318
-1.632623 1.433505 4.935318
-1.999666 -0.783257 4.935318
-1.701442 -2.174129 4.935318
-1.609077 1.507775 4.935318
-1.702808 -2.168732 4.935318
-1.601352 1.525870 4.935318
-1.609077 -2.231245 4.935318
0.792415 -1.604024 4.935318
-1.551937 1.618235 4.935318
-1.516712 -2.293491 4.935318
-1.563591 -2.261097 4.935318
-2.070902 -0.528255 4.935318
0.884779 -1.530820 4.935318
-1.516712 1.657969 4.935318
-1.701442 -2.160925 4.935318
1.438970 1.701614 4.935318
-1.685141 -2.076367 4.935318
0.897928 -1.522177 4.935318
1.432325 1.710600 4.935318
-1.701442 -2.016971 4.935318
0.966838 -1.429812 4.935318
0.977145 -1.415443 4.935318
1.346605 1.891985 4.935318
1.045251 -1.337447 4.935318
1.342753 1.895330 4.935318
1.069510 -1.299756 4.935318
1.392310 1.802965 4.935318
1.111050 -1.245082 4.935318
-2.070902 -0.506161 4.915304
-1.886172 -1.891637 4.843846
0.053494 -1.984002 4.844937
-2.070902 -0.413796 4.914567
1.254240 -0.967987 4.901016
-1.886172 -1.799272 4.884788
