1.228529 1.892401 4.686566
0.718787 -1.661693 4.768712
-0.237672 -2.114234 4.609962
-1.941774 -0.055737 4.627417
1.003872 2.075503 4.626982
-0.263325 -2.124854 4.611325
-1.149155 1.896453 4.661204
0.767405 -1.606989 4.762957
-0.255582 -2.122372 4.624833
1.531713 0.457210 4.655300
-1.149153 1.896460 4.661191
1.531712 0.457242 4.655351
-1.900945 -0.032100 4.572879
-1.551811 0.848401 4.642922
-1.037084 1.970767 4.638550
-1.891640 -0.028856 4.555579
1.531534 0.459387 4.657820
-1.889707 -1.411925 4.954347
-1.555878 0.856769 4.671322
-0.258304 -2.123852 4.627506
-0.990488 1.993554 4.665691
-1.916999 -1.329825 4.912175
1.526932 0.529306 4.679605
-0.962258 2.017860 4.670164
1.527319 0.539440 4.644550
-1.921116 -1.316860 4.896419
-0.910691 2.072476 4.667778
-0.205154 -2.100670 4.643571
-1.931765 -1.271165 4.871077
1.527526 0.522153 4.682056
-1.941129 -1.201897 4.803512
-0.201481 -2.099041 4.644273
-0.842254 2.130975 4.663534
0.784974 -1.590213 4.759283
-1.949764 -1.121463 4.796256
-0.110323 -2.064825 4.646764
0.886212 -1.518161 4.690503
-1.949394 -1.122280 4.799002
0.913625 -1.497053 4.672514
-0.686885 -2.451254 4.632523
-0.766318 2.168384 4.665285
0.981291 -1.429285 4.621866
-1.980164 -1.033824 4.792417
-0.759139 2.171411 4.664225
0.989119 -1.420592 4.619768
-0.676763 -2.445661 4.634127
-2.000085 -0.998295 4.772967
-0.683835 2.184926 4.665591
-0.026654 -2.042665 4.638045
-2.054844 -0.926690 4.721840
1.034731 -1.362460 4.624879
-0.620087 2.193797 4.665382
0.096394 2.267078 4.698771
-0.588847 -2.364497 4.630405
1.053546 -1.339433 4.626440
1.138502 -1.229038 4.684988
-1.612543 1.536699 4.669649
0.110672 2.267250 4.700004
1.397875 0.986886 4.715015
-1.611361 1.549631 4.670363
1.376532 1.037915 4.704023
0.150670 2.267839 4.694946
-1.594512 1.618815 4.643702
1.374906 1.044082 4.701489
0.262075 2.268347 4.702144
-1.508390 1.699733 4.665945
1.367831 1.073060 4.672417
0.343055 2.269806 4.691014
1.365368 1.098707 4.635145
0.409563 2.265628 4.645596
1.364838 1.120315 4.605951
1.366421 1.152083 4.554467
0.416218 2.263143 4.641800
0.864440 2.157650 4.653318
0.846710 2.167769 4.649264
0.974742 2.093988 4.657319
0.169418 -1.976852 4.601531
-1.761326 -2.166722 4.608831
1.592127 0.077142 4.636969
-2.112979 -0.821202 4.650762
-0.059537 -2.052279 4.636399
-1.814167 0.008076 4.457420
-1.513058 -2.353961 4.578538
1.313261 -0.967473 4.706572
-1.781411 -2.090615 4.652989
-2.105749 -0.732125 4.697676
-1.048544 1.988102 4.581013
0.180278 -1.971450 4.582492
-2.104993 -0.670990 4.694988
1.531522 0.458827 4.656983
-2.105065 -0.649210 4.692527
-0.556327 -2.324132 4.577378
1.381015 -0.693662 4.731238
0.304222 -1.922406 4.671365
-0.296394 -2.118578 4.507690
1.361807 1.259420 4.506551
0.962882 2.078274 4.557379
-1.531134 0.834235 4.545974
0.323562 -1.917360 4.603557
1.341832 1.308364 4.486046
-0.291848 -2.137416 4.605970
-1.148333 -2.540977 4.558051
1.394679 0.981413 4.671377
1.270529 1.459676 4.398965
1.376633 1.044670 4.701493
1.345256 1.337572 4.466681
0.457932 -1.833901 4.875834
-0.973548 -2.542729 4.556192
1.359402 1.137992 4.573157
-1.935654 -1.291655 4.775482
-0.205588 -2.100674 4.641443
1.358208 1.190632 4.529991
-1.604853 1.608980 4.624430
-0.618517 -2.367593 4.509230
0.395505 2.265456 4.594185
-1.996682 -1.026038 4.735117
-1.981857 -1.033702 4.789485
-2.088279 -0.922085 4.657785
0.818445 2.168824 4.608386
0.987738 -1.421924 4.605810
1.170891 -1.184385 4.700173
1.175046 -1.178810 4.701108
1.200315 -1.143929 4.710285
1.203014 -1.139589 4.710993
1.220647 -1.114233 4.718207
1.223428 -1.110249 4.718878
1.271739 -1.037829 4.721147
1.283009 -1.021296 4.721129
1.304171 -0.986789 4.716516
1.279328 -1.026310 4.720708
1.296862 -0.999710 4.717682
1.305575 -0.983768 4.715891
1.306352 -0.982204 4.715755
1.304380 -0.986280 4.715503
1.309198 -0.976861 4.714800
1.320039 -0.946248 4.713553
1.322879 -0.937716 4.712260
1.325386 -0.928544 4.710382
1.334464 -0.898245 4.703553
1.203691 -1.139040 4.711273
1.222379 -1.111681 4.718377
1.235404 -1.092377 4.718894
1.272857 -1.036119 4.721005
1.303632 -0.988148 4.716403
1.302010 -0.991305 4.715962
1.319085 -0.953236 4.713618
1.180995 -1.171180 4.704464
1.196057 -1.150102 4.709656
1.212773 -1.125357 4.717115
1.218528 -1.117069 4.719100
1.253515 -1.066223 4.723162
1.254955 -1.064018 4.723166
1.289464 -1.011100 4.721086
1.303384 -0.988620 4.718022
1.313535 -0.966396 4.716131
1.316864 -0.956600 4.715912
1.327140 -0.922359 4.710612
1.336533 -0.892967 4.703850
1.174720 -1.179271 4.701448
1.303826 -0.987268 4.717043
1.294036 -1.003878 4.718788
1.301064 -0.992437 4.716805
1.313846 -0.964931 4.715326
1.318321 -0.951987 4.714756
-2.040569 -0.869623 4.740904
-1.749528 -1.754441 5.036622
-1.893003 -0.037163 4.498369
0.022485 -2.023613 4.639872
-2.063511 -0.745648 4.797219
-1.755676 -1.734616 5.040279
-1.867100 -0.020412 4.496873
0.053520 -2.016868 4.640273
1.358312 -0.788555 4.709505
-2.038173 -0.685287 4.826789
-1.728864 -1.923278 4.938103
0.077111 -2.010259 4.641919
1.593946 0.105758 4.647269
1.390225 -0.684983 4.741817
1.150575 1.973792 4.751962
1.594335 0.108071 4.644456
-1.795128 -1.630948 5.037331
-1.478835 1.718930 4.757582
1.147380 1.975150 4.772903
1.409340 -0.624666 4.781217
1.583330 0.132745 4.567428
1.248209 1.894710 4.775359
-2.042038 -0.667518 4.813084
0.276070 -1.929425 4.823992
1.052777 2.060083 4.722049
1.429856 -0.578572 4.813337
-1.314562 1.792149 4.740461
1.021895 2.080307 4.721747
-2.060238 -0.614009 4.770630
1.465430 -0.474103 4.817454
-1.826001 -1.546557 5.032129
1.527740 0.522326 4.713309
-1.294754 1.799389 4.744737
-1.860308 -1.459664 5.015542
-2.091168 -0.511079 4.774159
1.501240 -0.362734 4.774819
0.317597 -1.900047 4.917746
-1.242174 1.816723 4.760296
1.526663 0.543436 4.707741
1.507716 -0.322557 4.769312
0.341200 -1.882862 4.997911
-2.083941 -0.444417 4.755696
1.516114 -0.284511 4.761895
-1.158521 1.847277 4.750779
-1.741411 -1.952521 4.888235
-1.502730 -2.340298 4.742693
-2.039419 -0.359564 4.783373
-1.061483 1.897720 4.750677
1.528447 0.506515 4.708147
0.391624 -1.862369 4.992276
0.140775 2.263252 4.728028
-0.292261 -2.244930 4.710901
-2.014796 -0.320835 4.755405
-1.061095 1.897906 4.750633
0.203359 2.260744 4.733087
-0.147462 -2.126684 4.692281
0.459415 -1.836045 4.953246
0.141276 2.263399 4.726958
-1.978404 -0.095534 4.626665
-1.992866 -0.274944 4.747289
0.346000 2.242255 4.761501
-1.929297 -0.030907 4.623795
-1.553331 0.892017 4.735629
-0.946837 1.993857 4.738277
-1.913742 -0.031293 4.597720
0.579337 -1.781304 4.866727
-1.556663 0.918548 4.764785
-1.980122 -0.213474 4.698642
-1.893855 -0.036918 4.505033
-0.925985 2.019309 4.742028
-1.557237 0.911229 4.753820
-0.093586 -2.064876 4.670407
0.581731 -1.779977 4.864447
0.391148 2.235916 4.774097
-0.084791 -2.057235 4.659719
-0.880118 2.060838 4.745106
-1.976188 -0.181178 4.678966
0.141269 2.263399 4.726955
0.685151 -1.694649 4.786729
-1.878335 -1.408731 5.005826
0.408156 2.232961 4.780206
-1.904505 -1.337880 4.975780
-0.874734 2.063742 4.748711
0.696283 -1.683423 4.782888
-1.925086 -1.272564 4.935410
0.513461 2.215688 4.756939
-1.941485 -1.163329 4.877379
-1.925794 -1.269347 4.936527
-0.779111 2.109307 4.745339
0.419600 2.234717 4.777740
0.769589 -1.605440 4.766144
-1.943701 -1.127546 4.862182
-1.939273 -1.188478 4.893190
-0.618135 -2.437414 4.758369
-0.683899 2.126057 4.748863
-0.609325 -2.433104 4.749383
-1.938052 -1.066411 4.899290
1.377483 1.038342 4.707129
-1.608210 1.524277 4.727809
-1.936160 -0.962954 4.895764
-0.426143 -2.341032 4.746083
-1.943613 -0.918528 4.875993
-1.607710 1.523297 4.737194
0.787078 -1.589241 4.762347
-2.027842 -0.875409 4.759034
1.378280 1.073658 4.670308
-1.544579 1.640898 4.757143
-0.613639 2.142277 4.739077
0.950291 2.120889 4.721345
-1.611336 -2.235686 4.766544
-1.514427 1.704579 4.751742
0.884464 2.170857 4.722729
-1.734142 -2.173400 4.648903
0.873893 -1.527375 4.714903
1.380602 1.094813 4.617818
-1.501513 -2.338477 4.769481
0.884802 2.173580 4.732138
-1.571054 -2.266210 4.751150
-1.502640 1.711079 4.761960
0.915614 -1.494814 4.672678
1.382639 1.093483 4.604815
-0.095729 -2.058270 4.660443
0.979589 -1.430774 4.621106
1.386031 1.091781 4.561167
-1.735713 -2.111620 4.761934
-0.064352 -2.042977 4.661938
-1.739048 -2.107729 4.765260
0.982008 -1.428144 4.620302
-0.048744 -2.037796 4.657938
1.047613 -1.346178 4.624028
0.010160 -2.022563 4.642522
1.560504 -0.090747 4.661571
1.051597 -1.341381 4.625425
1.382403 1.250113 4.469086
1.561461 -0.085873 4.657938
0.102211 -2.001567 4.640003
1.114142 -1.263684 4.669876
1.360880 1.308863 4.435376
1.581937 0.025155 4.648511
1.298588 1.364621 4.388460
0.184182 -1.973324 4.655388
0.239756 -1.950309 4.727275
1.330905 1.686833 4.683822
1.329201 1.807741 4.769158
1.246438 1.893004 4.766365
-1.752955 -1.955774 4.859897
-2.041892 -0.660585 4.808996
1.389698 -0.680642 4.741607
0.029367 -2.026843 4.637942
-1.331503 1.802535 4.663285
-1.881822 -0.031284 4.481292
1.587808 0.055406 4.658724
-0.374430 -2.294607 4.719504
-1.149153 1.896440 4.661232
-2.094511 -0.593964 4.724693
-1.811663 -1.608934 5.016007
-0.224911 -2.109298 4.617309
-1.816066 0.015523 4.543000
0.047250 -2.019801 4.632836
1.532869 0.435276 4.635034
-0.955987 2.002520 4.706158
0.116196 2.266447 4.709055
0.093603 -2.004562 4.628818
-1.839550 -1.547561 4.991481
-1.971514 -0.201049 4.690616
-1.887160 -1.407359 4.970746
0.349349 -1.882449 4.937426
-0.762843 2.169079 4.666143
-1.914937 -1.332537 4.918781
0.211489 2.264153 4.721042
-0.696117 2.168333 4.686335
-1.948363 -1.127772 4.795762
-1.941590 -1.197274 4.821034
-1.951895 -1.043632 4.845379
-0.611876 2.178597 4.687711
0.346732 2.253832 4.743296
-0.570338 2.173234 4.696792
-1.949577 -1.123441 4.796422
-1.610334 1.532186 4.695460
1.369523 1.064385 4.686994
-2.027899 -0.915971 4.769510
-1.507157 1.706708 4.689386
1.563601 -0.075802 4.650930
1.375708 1.135199 4.552537
-1.603708 -2.257274 4.667875
0.868938 2.170620 4.692313
-1.744309 -2.172539 4.611060
-1.744440 -2.111260 4.727498
1.185428 -1.163554 4.705250
1.191404 -1.155357 4.707568
1.215644 -1.119974 4.717701
1.217336 -1.117405 4.717968
1.246746 -1.073787 4.721454
1.257539 -1.057465 4.722340
1.285637 -1.015933 4.722526
1.309829 -0.971136 4.716487
1.310686 -0.968670 4.716449
1.323108 -0.932448 4.715277
1.333818 -0.886822 4.712572
1.216394 -1.119066 4.717690
1.310442 -0.969937 4.716325
1.325659 -0.927212 4.712452
1.336395 -0.893496 4.704209
1.185622 -1.162381 4.705850
1.195153 -1.149188 4.709910
1.221750 -1.110392 4.719866
1.223655 -1.107357 4.719758
1.250330 -1.067972 4.723174
1.276698 -1.028905 4.724821
1.294284 -1.002030 4.721826
1.306285 -0.981774 4.719398
1.318773 -0.947897 4.718656
1.333768 -0.895444 4.710688
1.333925 -0.893699 4.711074
1.256154 -1.059526 4.722590
1.276495 -1.029043 4.724302
1.320529 -0.941941 4.717344
0.280174 -1.913375 4.990609
-1.704036 -1.865717 5.041394
-2.036988 -0.880609 4.693557
0.318255 -1.889722 5.041059
1.350863 -0.798639 4.722188
-1.712821 -1.827093 5.054669
-2.004630 -0.891909 4.739176
1.590003 0.069033 4.647491
-1.901972 -0.028754 4.605415
0.384215 -1.864973 5.015006
-1.433112 1.730592 4.856655
-1.994870 -0.895468 4.750003
1.375794 -0.713251 4.737422
-1.323832 1.771109 4.841169
1.592011 0.089950 4.644142
-0.076488 -2.097482 4.726163
-1.749405 -1.710817 5.070304
-2.035374 -0.697999 4.823000
-0.046940 -2.075599 4.732100
-1.237055 1.800933 4.835308
1.591919 0.090524 4.643728
1.145339 1.975407 4.806663
-1.749408 -1.710812 5.070303
1.591917 0.090527 4.643735
1.389882 -0.678175 4.749709
-1.233139 1.802299 4.835863
1.142967 1.977994 4.820499
1.257274 1.900850 4.815560
-1.845816 -1.471652 5.046081
1.588187 0.126947 4.609036
1.412697 -0.608080 4.796468
-1.153175 1.832544 4.842789
0.442658 -1.844362 4.975295
-1.783309 -1.628114 5.065356
1.257897 1.899167 4.811544
1.420296 -0.587858 4.811570
-1.871587 -1.404573 5.033187
-1.055051 1.895600 4.843269
-1.816813 -1.532771 5.066861
-2.079419 -0.538417 4.779850
-1.896726 -1.341516 5.006758
1.448416 -0.497113 4.841432
-1.822263 0.046474 4.662670
0.466485 -1.835044 4.959305
-1.055050 1.895601 4.843266
1.526400 0.520500 4.740706
-1.913249 -1.295911 4.978812
1.525173 0.543964 4.746790
-0.354721 2.164393 4.843112
1.461596 -0.456246 4.826900
-1.921013 -1.271342 4.961063
-0.913998 2.006967 4.843644
-1.818671 0.111450 4.746708
-2.089012 -0.441738 4.765946
-0.352919 2.164911 4.843052
-0.888866 2.039101 4.843637
1.468832 -0.444026 4.816671
-1.938803 -1.153516 4.957890
-2.044863 -0.337648 4.758794
0.555685 -1.795896 4.894029
1.530076 0.466527 4.693801
-0.852095 2.060289 4.843187
1.490996 -0.387123 4.790341
-1.939376 -1.146891 4.960474
-2.031078 -0.310864 4.750509
-0.695313 2.083533 4.841872
0.600800 -1.767666 4.849298
-1.939958 -1.071391 4.971965
-0.768463 2.079682 4.842813
1.518236 0.582389 4.791186
1.503159 -0.293681 4.785461
-1.926351 -0.980803 4.957244
-2.000412 -0.225646 4.701534
-0.669787 2.086646 4.839449
-1.922976 -0.961381 4.939964
0.671421 -1.708082 4.793832
1.512721 -0.258433 4.769967
-1.986315 -0.097679 4.632041
-2.066451 -0.841785 4.663580
1.521135 -0.231903 4.756994
-0.850770 2.060997 4.842969
1.530139 -0.187203 4.734784
-0.766620 2.079871 4.842800
-1.933980 -1.207759 4.940005
-1.546609 0.971016 4.865761
0.295180 2.197142 4.884224
-1.548711 0.966649 4.852328
0.772419 -1.602669 4.769539
1.514189 -0.249256 4.767582
-0.618402 2.095245 4.839283
0.431089 2.203116 4.832766
-0.484772 2.129535 4.839678
-1.561755 1.005995 4.862096
1.392834 1.012138 4.737406
-1.922554 -0.960290 4.941854
-0.386425 2.155409 4.842298
1.388232 1.017457 4.703049
0.411372 2.205428 4.825843
-1.925114 -0.019728 4.659028
0.789846 -1.586695 4.766034
-1.554941 0.987507 4.858848
1.390584 1.013711 4.695232
0.332343 2.200126 4.860322
-1.925266 -0.019367 4.660551
1.390678 1.022566 4.686583
-1.909349 -0.034180 4.594256
1.398218 1.018929 4.624440
1.548426 -0.115425 4.678355
0.887762 -1.515549 4.692544
0.444306 2.200486 4.838169
1.404472 1.011968 4.581746
-0.025834 -2.061248 4.715755
0.513500 2.189663 4.863948
0.899130 -1.506277 4.679005
1.574358 -0.022822 4.612509
-1.612015 1.531130 4.862950
0.585369 2.184015 4.861311
0.025538 -2.033628 4.684888
0.974241 -1.434891 4.593206
-1.610948 1.532789 4.871352
0.982174 -1.426322 4.585051
0.050615 -2.016129 4.677105
-1.543664 1.639897 4.827486
0.877543 2.167735 4.834405
-1.833723 -1.497617 5.054870
0.060798 -2.011888 4.664831
1.039002 -1.354820 4.589543
-1.517638 1.688471 4.813765
0.875313 2.168009 4.836338
0.084053 -2.004707 4.659458
1.075894 -1.309394 4.618790
0.958277 2.131493 4.815792
-1.488125 1.705598 4.820498
-1.385979 -2.414966 4.896299
1.120738 -1.252204 4.674329
0.121425 -1.993948 4.663398
-1.455953 -2.349857 4.906080
0.195019 -1.966707 4.717350
0.243630 -1.944231 4.823968
-1.353712 -2.437664 4.897917
1.434374 1.707436 4.841487
1.434341 1.707683 4.842001
0.281378 -1.914143 4.977102
1.342787 1.824335 4.815935
1.367884 1.798686 4.845712
-0.671832 -2.452200 4.879640
-0.613666 -2.445035 4.873564
-0.464798 -2.446342 4.867349
-0.481611 -2.449120 4.868968
-0.601231 -2.440855 4.850472
-0.269037 -2.274464 4.800653
-0.197235 -2.204266 4.764033
-1.597989 -2.233433 4.874460
-1.698570 -2.133341 4.836385
-1.520769 -2.285855 4.887194
-1.540997 -2.276371 4.845565
-1.721460 -2.099183 4.847892
-1.722916 -2.071588 4.868319
0.107732 -1.999403 4.658866
1.358695 -0.787925 4.710237
-2.031364 -0.877171 4.727369
-0.141735 -2.127780 4.701647
-1.853706 -1.454536 5.040763
1.377328 -0.711946 4.735525
-2.063123 -0.789448 4.747235
-0.033812 -2.056756 4.697664
-1.373203 -2.437340 4.877301
0.456996 -1.838566 4.963695
1.461653 -0.468496 4.823880
-1.875800 -1.403605 5.020661
1.592043 0.090883 4.644088
-2.026529 -0.329553 4.760303
-1.237084 1.802806 4.827174
-1.898544 -1.343281 4.998195
-1.556396 0.932262 4.784176
0.691076 -1.688994 4.785935
1.254017 1.897227 4.798771
-1.995784 -0.223504 4.701920
1.509345 -0.298415 4.770790
-1.924865 -1.272094 4.939775
-0.353899 2.164753 4.842671
-1.559395 0.978736 4.827274
-1.936732 -1.195678 4.920289
-0.471645 -2.428139 4.824104
1.534460 -0.181761 4.727360
1.388195 1.022907 4.698662
-0.690493 2.084258 4.840701
0.140789 2.263251 4.728035
-1.939292 -1.138949 4.954394
-0.214887 -2.217706 4.763780
1.049847 -1.343475 4.625781
-1.607748 1.521514 4.748914
-1.936730 -1.061136 4.965949
0.428804 2.205712 4.828108
-1.922417 -0.959229 4.940560
0.408859 2.225853 4.791153
-1.507214 1.704604 4.788234
-1.925207 -0.019841 4.658787
0.878382 2.167878 4.831854
1.342448 1.808112 4.796734
-1.696095 -1.829333 5.091485
-2.090767 -0.557512 4.763544
0.226118 -1.949747 4.874427
1.178641 -1.167497 4.700617
-1.729698 -1.732399 5.092075
0.247816 -1.935685 4.940332
1.196594 -1.142259 4.706930
-1.689872 -1.854571 5.084542
-1.764608 -1.650268 5.084799
-1.485077 1.685912 4.941127
0.266582 -1.916048 5.032969
1.243399 -1.074792 4.722067
1.146058 1.982832 4.931392
1.506642 -0.205342 4.785461
0.286978 -1.899903 5.082467
1.146855 1.983401 4.944361
-0.250921 -2.282279 4.926023
1.522958 -0.138935 4.734877
1.304802 -0.976222 4.720399
0.337397 -1.881407 5.063997
-0.250873 -2.282236 4.926010
-1.797277 -1.560644 5.088691
1.305775 -0.973680 4.720449
0.394680 -1.861608 5.016978
1.557257 -0.047108 4.627953
-1.828119 -1.492546 5.073248
-2.110391 -0.487317 4.758724
1.325979 -0.867402 4.751638
-1.840168 0.056692 4.742659
1.559931 -0.034218 4.626195
0.443473 -1.845027 4.980284
-2.078050 -0.365418 4.744733
-1.379417 -2.363601 5.011803
1.339986 -0.772514 4.769964
-1.860491 -1.429157 5.043724
0.477810 -1.832619 4.958283
-0.303554 2.147838 4.943378
1.577864 0.069430 4.675209
-1.241324 1.798706 4.941916
-1.840057 0.059132 4.744942
1.369743 -0.696530 4.762796
-1.880320 -1.373641 5.034423
0.560632 -1.791097 4.891961
-2.071634 -0.350840 4.746897
-0.253396 2.163154 4.944149
1.392143 -0.648345 4.766140
-1.885423 -1.359780 5.030663
0.616223 -1.754746 4.836289
-0.250619 2.164291 4.943155
1.404715 -0.606191 4.799789
-1.416092 -2.350467 5.013225
-2.053833 -0.288844 4.704694
0.683122 -1.692980 4.792527
-1.838931 0.079557 4.771364
-1.930154 -1.219763 4.987576
1.438571 -0.482842 4.865413
0.701563 -1.675167 4.784918
-1.942180 -1.158872 4.987980
-2.004105 -0.122915 4.648062
-1.212307 -2.443406 5.015992
-1.888803 -0.038641 4.775962
0.776774 -1.596156 4.776112
-1.950864 -1.100226 4.985834
1.524042 0.533942 4.787540
1.462304 -0.418282 4.840782
-1.999872 -0.114181 4.650000
0.802157 -1.574962 4.768113
1.483406 -0.329154 4.830581
1.523140 0.539061 4.797547
1.482994 -0.321853 4.834091
0.887091 -1.512921 4.679873
1.515883 0.597885 4.891969
-1.238151 1.800196 4.939822
1.502057 0.686147 5.023042
1.494587 -0.254377 4.816167
-1.903494 -1.311890 5.010928
-1.943169 -1.053428 4.978043
0.894975 -1.506366 4.669659
1.499605 0.697333 5.053042
-1.138285 1.837986 4.955024
-1.923997 -1.245351 4.989745
0.314235 2.140862 4.992482
-1.923599 -0.009634 4.702956
-1.047138 1.881694 4.947440
0.970355 -1.435489 4.545877
1.476855 0.808461 5.119710
0.361614 2.148994 4.956027
-1.916307 -0.004669 4.703347
-1.951961 -0.907452 4.823385
0.983221 -1.421638 4.534492
-1.913811 -0.020714 4.686258
1.469919 0.806552 4.980569
-1.949349 -1.089558 4.984196
-1.537388 0.967869 4.897522
1.044620 -1.343359 4.553117
0.356049 2.147299 4.959713
1.470273 0.802986 4.969485
-1.298567 -2.441642 4.945446
-1.008360 1.895057 4.953098
0.365530 2.149901 4.954027
1.062488 -1.320331 4.566820
-1.345271 -2.434804 4.912400
-2.036192 -0.865986 4.722441
-0.040162 -2.101652 4.825177
0.401537 2.151508 4.952156
1.123899 -1.241232 4.665424
0.069383 -2.029373 4.759941
-0.936549 1.933998 4.962575
0.485048 2.171490 4.903534
-2.073998 -0.593138 4.760629
0.072936 -2.027522 4.765994
-0.847395 2.018213 4.948000
0.473532 2.171343 4.901982
-1.532993 0.961129 4.913833
-0.838162 2.028023 4.946029
0.149918 -1.986440 4.772337
0.579736 2.173905 4.911817
-1.530773 0.957759 4.933633
0.154934 -1.985534 4.774449
-0.807343 2.046839 4.953945
0.195385 -1.964386 4.843377
-0.700415 -2.443641 4.924693
-1.539467 0.984946 4.937596
-0.781281 2.058083 4.954179
-0.694976 -2.446522 4.914044
-0.682167 2.083398 4.952395
-1.531028 0.959967 4.939591
-0.490711 -2.444101 4.944911
-1.538269 0.980158 4.935638
-0.567658 2.088836 4.954273
-0.584123 -2.442280 4.911075
-0.467761 2.101928 4.952846
-0.599833 -2.443201 4.903341
-0.378583 2.124409 4.948084
-0.383104 -2.407492 4.932581
-0.383208 -2.407558 4.932581
-1.623186 1.346720 4.972946
-1.609383 1.511964 4.923063
-1.677952 -2.127675 4.932985
-1.676237 -2.128111 4.938330
-1.606894 1.522060 4.919569
1.436586 1.707399 4.951838
-1.607715 -2.218843 4.923892
1.436755 1.707634 4.959733
-1.544747 1.619749 4.937273
-1.511789 -2.288084 4.935607
-1.508412 1.656690 4.971266
-1.547937 -2.258020 4.972723
1.343367 1.890287 4.945149
1.341314 1.891117 4.945533
-1.678294 -2.126094 4.936661
1.385948 1.802963 4.911404
-1.689755 -2.060574 4.964093
-1.699138 -1.975586 4.978985
-2.088486 -0.550587 4.769132
0.199649 -1.964138 4.730941
-1.749370 -1.710774 5.070387
1.309868 -0.969007 4.719803
0.264458 -1.925284 4.958590
-1.771882 -1.640331 5.078835
0.279714 -1.913913 4.987759
-2.102968 -0.475392 4.763029
-1.909674 -1.301606 4.991497
-1.800549 -1.564703 5.077756
-2.075648 -0.364491 4.747446
-1.544291 0.979144 4.887177
1.412288 -0.603725 4.800481
-1.055050 1.895601 4.843274
-2.014352 -0.236938 4.701756
1.591737 0.088918 4.643347
1.444019 -0.484275 4.853266
-1.333653 -2.437957 4.918431
1.458158 -0.463076 4.831974
-1.928571 -0.975338 4.958513
-0.857008 2.057599 4.844836
-1.952955 -0.907293 4.820462
-1.609034 1.521840 4.907068
1.525178 0.526895 4.766538
0.364486 2.150030 4.953978
-0.695312 2.083533 4.841872
-1.931113 -0.995649 4.967058
1.485960 -0.394993 4.798049
-0.690729 -2.448466 4.906418
0.436053 2.188358 4.859041
-1.923189 -0.963929 4.947301
0.892595 -1.511742 4.689292
-1.969390 -0.901549 4.790329
1.513926 -0.254168 4.768222
0.487783 2.173103 4.897621
0.972899 -1.434555 4.564224
0.584188 2.177117 4.894863
0.064872 -2.026525 4.721733
-1.687854 -2.126333 4.897151
0.134687 -1.992197 4.727643
1.402958 0.993862 4.630565
0.251304 -1.913455 5.117867
-1.723304 -1.729156 5.105878
1.239711 -1.072048 4.714183
-2.090977 -0.595194 4.758275
0.287933 -1.897447 5.101889
1.299183 -0.970715 4.728668
-1.686424 -1.826202 5.115758
0.312110 -1.888927 5.094640
-2.131159 -0.491371 4.730118
-1.777345 -1.602956 5.094824
-1.716646 -1.745001 5.108079
0.354703 -1.875052 5.056271
1.304580 -0.951762 4.738266
-1.793899 -1.558726 5.095204
-1.676922 -1.961766 5.049722
-1.413303 1.697472 5.041533
0.401927 -1.858164 5.015395
-2.111884 -0.390639 4.721643
-1.411458 1.700256 5.040494
1.488220 -0.206230 4.839672
1.312300 -0.866718 4.797479
-1.807690 -1.534747 5.083092
0.407029 -1.856301 5.011173
-1.843172 0.090164 4.897261
1.497001 -0.144157 4.807899
-1.361378 1.726030 5.041971
-2.070940 -0.277625 4.698863
-1.406354 -2.348607 5.049701
0.405955 2.117888 5.007920
-1.215608 1.757880 5.065429
0.468554 -1.829658 4.959264
-1.413749 -2.349325 5.059851
1.520464 -0.075655 4.715730
-1.910552 -1.284327 5.019989
-1.161120 1.786847 5.050085
-2.069646 -0.272449 4.699497
0.405962 2.117886 5.007924
1.538626 0.055918 4.766137
0.548888 -1.790094 4.900304
1.311115 -0.830469 4.828382
-1.145539 1.792053 5.053832
0.621044 -1.745692 4.831677
-1.919407 -1.254617 5.014466
-1.326003 -2.378317 5.058690
-1.046588 1.846175 5.060078
1.344436 -0.712026 4.808807
0.648438 -1.722953 4.808700
1.157741 1.982807 5.033762
-1.949672 -1.122766 5.000423
1.350312 -0.703608 4.802851
0.735073 -1.639056 4.776254
-0.927566 1.890048 5.043379
-1.978676 -0.084967 4.721320
1.158358 1.982099 5.037910
-1.855207 0.081595 4.897565
0.749296 -1.621514 4.781359
-1.239196 -2.436269 5.013852
-0.917466 1.891309 5.045883
1.331524 -0.745859 4.815827
1.082578 2.024432 5.063262
0.818459 -1.556645 4.751327
-1.852792 0.087285 4.918243
-0.814116 1.901403 5.103659
-1.147201 -2.446034 5.058017
0.852580 -1.533535 4.696335
1.388188 -0.634521 4.785548
-1.187591 -2.443430 5.034664
0.894593 -1.500657 4.618406
-1.867650 0.056137 4.889019
-0.734736 1.955208 5.115216
0.948819 -1.448365 4.494006
1.414696 -0.534580 4.875268
-0.702386 1.994128 5.099528
0.992577 -1.397863 4.478688
-1.914144 -0.033915 4.919279
-0.078697 1.996067 5.344705
-0.696247 1.999379 5.097577
1.010309 -1.372103 4.492792
-0.030544 2.013046 5.326923
1.050622 -1.318166 4.540753
1.427926 -0.476638 4.892858
-0.431799 1.945909 5.307160
1.102386 -1.254754 4.619482
-0.477443 1.970333 5.259501
-0.000192 2.030304 5.293815
-0.256848 1.929067 5.386914
1.439729 -0.413895 4.900652
1.177132 -1.157538 4.692086
0.006521 2.044362 5.263780
1.234639 -1.079614 4.712298
1.460114 -0.330460 4.892398
0.106239 2.106909 5.173712
-1.839322 -1.475808 5.056874
-0.156952 1.955717 5.377688
-0.505199 -2.439412 4.992914
-1.870977 -1.397621 5.043021
0.158074 2.137600 5.120469
-0.087132 1.997191 5.338479
1.465399 -0.287115 4.895239
-0.375814 -2.404102 5.006426
-1.892870 -1.336769 5.032779
-1.520762 0.951945 4.970997
-0.281863 -2.328255 5.029833
1.472936 -0.226053 4.884344
-0.622901 2.019380 5.117537
0.267482 2.130571 5.046641
-1.514352 0.948340 4.994894
-0.119360 -2.174279 5.133575
0.258408 2.132539 5.050197
-1.665279 -2.095962 5.022224
-1.534057 1.006861 5.046857
-1.571658 -2.196161 5.077111
0.208136 2.133568 5.090301
-1.485821 -2.269402 5.083175
-1.950903 -1.103049 4.996643
-1.960420 -0.046865 4.749413
-1.532575 -2.258380 5.023881
-1.550865 1.056843 5.047890
0.343721 2.116794 5.016952
1.506095 0.675740 5.020929
-1.903774 0.023995 4.799199
-1.674502 -2.016543 5.026771
-1.939646 -1.174428 5.005122
0.405799 2.115912 5.010682
1.506425 0.693229 4.995933
-1.662943 -2.030130 5.056290
1.504127 0.713119 5.002223
-1.885476 0.033683 4.809069
-1.550977 1.057081 5.047983
-1.881930 0.029271 4.823179
-1.538623 1.028359 5.056505
0.471297 2.125693 5.020244
-1.540399 1.033175 5.055050
0.562350 2.163896 4.977274
-0.045038 -2.109614 5.163231
-1.943543 -1.154736 5.003224
-0.035380 -2.103095 5.145020
-1.939704 -1.017150 4.980000
0.089903 -2.011904 5.125465
-1.926255 -0.943725 4.941569
-1.612195 1.431828 5.037847
0.135021 -1.979975 5.167126
-1.611183 1.437624 5.033901
0.172096 -1.955072 5.163965
-1.532094 1.527075 5.043003
0.203617 -1.938277 5.140706
-1.518978 1.624371 5.020873
0.233112 -1.924648 5.112466
-2.049025 -0.674174 4.830057
-1.509716 1.637173 5.017976
1.438179 1.710319 5.021293
1.335650 1.872777 5.022176
1.327875 1.882092 5.019460
1.438179 1.710319 5.021293
1.393914 1.802966 5.022410
1.188299 -1.153049 4.702124
-1.714072 -1.738193 5.120753
0.250313 -1.925015 5.036465
1.234888 -1.079840 4.708081
-1.858296 0.068311 4.846687
-2.069376 -0.275974 4.698257
1.551421 0.063680 4.738440
-1.806473 -1.531439 5.089735
0.401054 -1.858377 5.015697
-1.996642 -0.119488 4.663396
-0.843082 2.020617 4.951551
1.524178 0.195910 4.913766
-1.676908 -1.886196 5.093433
0.405837 2.121253 5.003004
0.480663 -1.828496 4.956834
-0.767668 2.055569 4.992704
-1.229187 -2.441258 5.008765
-1.846367 -1.454453 5.059354
1.341051 -0.760561 4.774926
-1.879430 -1.376025 5.035568
-0.576600 2.076452 4.991039
0.688133 -1.688315 4.791535
-0.266994 -2.297836 4.933559
-0.378413 2.037168 5.115492
-1.920932 -1.250903 5.007437
-0.348238 2.083230 5.036225
1.402665 -0.610567 4.796808
-0.502125 -2.440015 4.986248
0.883650 -1.511987 4.657559
-1.950569 -1.099307 4.989265
1.418744 -0.526360 4.877112
-0.383990 -2.408045 4.931783
-1.950216 -1.098611 4.986940
-1.939595 -1.021165 4.981026
-0.250438 2.163413 4.946257
0.201982 -1.955685 5.002541
1.482448 -0.326288 4.834330
0.271759 2.130521 5.043590
1.504997 0.679336 5.030696
0.400176 2.145581 4.962418
1.470999 0.803605 5.026752
1.438247 1.710272 5.019287
1.268452 -0.953954 4.867827
1.278626 -0.909117 4.917878
1.279892 -0.865797 4.948793
1.280414 -0.863918 4.947027
1.281919 -0.843409 4.950304
1.300078 -0.776493 4.920178
0.219526 -1.920770 5.181628
-1.407135 -2.347376 5.107214
-1.659484 -1.890368 5.143099
0.248060 -1.909288 5.161126
-1.465693 -2.291961 5.081542
-2.119366 -0.399827 4.741782
1.220515 -1.063694 4.758926
-1.659709 -1.892734 5.140704
0.305838 -1.890068 5.105621
-2.116459 -0.389039 4.735136
1.232834 -1.044670 4.769014
-1.680516 -1.815312 5.137416
-1.382236 -2.348786 5.062038
0.327664 -1.882974 5.085491
-2.097934 -0.601438 4.763711
-1.808605 0.102726 5.092804
-1.273147 -2.400395 5.073152
-1.712773 -1.716697 5.134561
-2.126415 -0.494597 4.762889
0.396933 -1.857660 5.022818
-1.801067 0.126510 5.091624
-1.273724 -2.368843 5.151013
-1.418603 1.590877 5.127258
0.270474 2.114527 5.077491
1.322196 -0.715623 4.892071
1.471107 -0.185139 4.911314
0.444044 -1.836838 4.977741
0.208953 2.128740 5.103228
-2.091499 -0.292689 4.738800
-1.677173 -1.816929 5.145094
-1.396723 1.626910 5.107977
1.370080 -0.627305 4.840398
0.444059 -1.836833 4.977721
-2.051209 -0.200095 4.792849
0.391032 2.086109 5.054107
1.431480 1.618285 5.130820
-1.327232 1.659267 5.125991
-1.126033 -2.446315 5.074942
-1.968570 -0.064186 4.805364
0.509812 -1.805413 4.919175
1.485027 -0.155382 4.866424
-1.233879 1.683857 5.137033
0.449956 -1.834134 4.972046
-1.781242 0.151380 5.129724
0.517673 -1.801413 4.914824
-1.782218 0.170535 5.123583
0.590177 -1.753664 4.858477
0.488818 2.084476 5.086361
-1.781643 0.195997 5.125949
0.654105 -1.705753 4.814016
-1.178807 -2.438174 5.057965
0.720408 -1.637658 4.798038
-1.785117 0.208923 5.120396
-1.833288 0.168858 5.129954
0.488821 2.084476 5.086363
0.748901 -1.599965 4.821692
-1.762718 -1.636875 5.090838
1.412398 1.710554 5.118405
-1.201266 1.701292 5.136174
-1.727430 -1.698552 5.116356
1.248952 1.889081 5.115264
-1.739869 -1.680102 5.104113
0.811474 -1.547404 4.762617
1.244439 1.889016 5.134325
1.406353 -0.421037 4.979093
1.501446 -0.086309 4.809805
1.350395 1.811745 5.135536
1.161083 1.966987 5.088007
-1.756028 -1.646777 5.097116
0.870161 -1.508873 4.649860
-1.804218 -1.538641 5.084607
1.102608 2.000852 5.106791
0.874227 -1.505270 4.642001
1.416825 -0.399109 4.968132
1.064817 2.020252 5.161622
-1.897618 0.091365 5.158384
1.061159 2.034966 5.150592
0.935505 -1.450727 4.516175
1.351109 1.808531 5.141137
0.986085 -1.386123 4.500123
-1.892419 -1.323787 5.049393
1.430435 -0.332015 4.976969
-1.905277 -1.276102 5.051378
1.513397 -0.042080 4.781387
0.990324 -1.378409 4.506952
-1.850105 -1.444555 5.057229
-0.082504 1.965734 5.401286
1.450693 -0.241671 4.967663
-1.944513 -1.122615 5.034231
1.526275 0.038361 4.808000
-0.075374 1.968895 5.398813
1.043323 -1.307713 4.617122
-1.850792 -1.443503 5.056457
-1.132628 1.727700 5.157837
-0.024367 1.980890 5.404032
0.048464 1.994840 5.408063
-1.884966 -1.349962 5.048043
0.048369 1.994864 5.407967
-0.183354 -2.224056 5.268811
0.156887 2.030578 5.329258
-0.987901 1.736844 5.266483
-1.458713 -2.271079 5.140042
-1.911720 0.034902 4.864187
-1.515635 -2.214037 5.133910
-0.933510 1.721815 5.324596
-1.575312 -2.135743 5.149058
1.071337 -1.266580 4.677820
-1.850751 0.096374 4.956532
-0.755150 1.656206 5.501596
-1.622570 -2.129649 5.090952
-0.170610 -2.212866 5.274572
-0.625985 1.660492 5.521684
-1.502990 0.981400 5.090727
-1.652240 -2.012932 5.099829
1.150184 -1.152016 4.784801
-0.552589 1.691139 5.523080
-1.498517 0.977972 5.097039
-0.041003 -2.090059 5.308447
-1.829968 0.090680 5.026245
1.498202 0.201721 5.010137
-1.946151 -1.112470 5.031834
-0.490268 1.798475 5.443638
0.026482 -2.029121 5.316428
-1.369895 -2.348367 5.077570
-1.490232 0.987934 5.123087
-1.928760 -1.190583 5.040593
-0.485790 1.801819 5.441832
0.030777 -2.026362 5.313667
0.167285 2.038369 5.314652
-1.931427 -1.187684 5.033077
0.064224 -2.001330 5.302661
-0.424124 1.840593 5.430599
-1.491319 0.999811 5.138680
1.493012 0.299822 5.133107
-0.330243 1.868703 5.437301
0.073241 -1.994114 5.300862
-1.941857 -1.041472 5.011069
0.142626 -1.954096 5.247015
-0.211228 1.903719 5.443221
0.202116 2.131577 5.103144
-1.495883 1.010226 5.146734
-1.496996 1.016541 5.138293
-0.203667 1.907120 5.441644
-1.497019 1.016589 5.138286
0.145681 -1.952573 5.244587
-1.516877 1.041211 5.137268
-0.119529 1.946812 5.418528
-1.586061 1.057681 5.166333
0.203507 2.112377 5.160524
-1.597380 1.102049 5.167067
-1.573653 1.073126 5.160621
0.193851 2.098880 5.195127
-2.034860 -0.688294 4.906607
-2.039255 -0.673949 4.868952
-2.128127 -0.481879 4.762538
-1.604586 1.249958 5.128852
0.601826 2.119753 5.132079
-1.593754 1.425146 5.115541
-1.514814 1.501972 5.118243
-1.500489 1.522345 5.124814
0.048365 1.994865 5.407963
-1.697268 -1.782279 5.123519
-1.739542 -1.683982 5.105558
-1.422790 1.636100 5.079105
0.315567 -1.887745 5.092311
1.229242 -1.051547 4.763115
-2.113916 -0.395285 4.740577
-1.680657 -1.813907 5.138339
-1.410343 1.698241 5.042522
-1.843981 0.104999 4.946724
-1.761534 -1.634706 5.099901
-1.321243 1.687229 5.104105
-1.720472 -1.706975 5.125867
-2.124705 -0.477475 4.765850
0.363207 -1.872652 5.050685
-1.220655 1.695993 5.130573
1.481973 -0.208856 4.859637
1.317959 -0.746105 4.868770
1.496262 -0.150141 4.811909
1.434328 1.618286 5.119507
0.304099 2.121853 5.037039
-1.342577 -2.357693 5.083394
1.421850 -0.427117 4.937125
-1.766643 -1.628268 5.090519
0.444063 -1.836834 4.977703
1.513644 -0.070729 4.759037
-1.144341 1.790849 5.056702
-1.511326 0.975937 5.078405
-1.159874 -2.445115 5.051952
0.488817 2.084476 5.086359
1.454680 -0.239932 4.952011
-1.492869 0.995550 5.119339
-1.935782 -1.187733 5.021298
-1.816934 -1.526208 5.066045
1.438179 1.710319 5.021294
-1.536798 1.045764 5.074068
-0.080392 1.992905 5.350270
-1.849920 -1.446292 5.056121
-0.917134 1.888934 5.049525
-1.520542 1.023954 5.079989
0.016044 2.021506 5.321345
-0.745943 1.804830 5.257561
1.249409 1.889101 5.113786
0.623680 -1.737324 4.827159
0.048463 1.994843 5.408054
-0.565587 1.776260 5.414265
0.103827 2.038223 5.302347
-1.664660 -2.106144 5.016160
-1.574776 1.072075 5.160609
-1.622870 -2.139701 5.060149
0.740985 -1.630665 4.779392
-0.609691 1.869097 5.292783
-0.032955 -2.099550 5.195658
-1.508546 -2.262660 5.062911
0.031725 -2.026399 5.311106
-0.506567 1.870380 5.359133
0.090328 -1.997470 5.251578
-0.559323 1.948070 5.244845
0.827285 -1.548064 4.731449
-1.608854 1.427373 5.059578
0.179100 -1.940107 5.207332
-0.417957 1.861881 5.408192
-0.308751 1.889527 5.411498
0.921353 -1.469542 4.522148
-1.521392 1.520000 5.071792
-0.207368 1.905601 5.442490
-1.515851 1.628649 5.025382
1.057288 -1.297244 4.594548
1.251689 -0.938816 4.992642
1.269119 -0.908642 4.968864
1.269431 -0.870492 5.006416
1.271495 -0.847267 5.005100
1.275591 -0.828880 4.993637
1.287791 -0.792689 4.964089
1.297370 -0.766978 4.944615
1.297328 -0.767006 4.944788
1.298426 -0.765569 4.940958
1.298407 -0.765568 4.941037
1.279383 -0.862981 4.952988
1.271519 -0.847268 5.004922
1.306792 -0.762328 4.904272
1.231388 -0.920707 5.234204
1.239634 -0.895507 5.208903
1.245344 -0.879492 5.180519
1.250857 -0.845528 5.156424
1.262460 -0.800764 5.107937
1.271992 -0.778654 5.079193
1.284240 -0.794270 4.980680
1.298330 -0.765590 4.941503
-1.247700 -2.364258 5.195482
-1.628377 -1.983516 5.205514
1.163593 -1.063203 5.137960
-1.420275 1.548051 5.205407
0.165242 -1.938866 5.239814
-2.092549 -0.600726 4.797978
-1.638698 -1.828997 5.257167
-1.755665 0.148980 5.199463
-1.351961 1.575820 5.211256
0.284688 -1.896207 5.133243
-2.129018 -0.484732 4.815983
1.188555 -1.017450 5.171086
-1.681370 -1.767223 5.171573
-1.751702 0.154480 5.237336
-1.278240 -2.352066 5.186024
-2.145550 -0.393529 4.772837
0.307453 -1.888974 5.111475
-1.158274 1.569170 5.374532
-1.712662 -1.720893 5.126384
-1.748196 0.151436 5.249623
-2.101858 -0.261673 4.856066
1.300559 -0.709436 5.039133
-1.115239 1.580000 5.400330
1.448409 -0.151451 5.087986
-1.747542 0.150572 5.252849
0.168791 2.015667 5.365786
-2.047104 -0.157337 4.947345
1.346986 -0.611807 4.997595
1.460917 -0.113210 5.017078
-1.734337 0.173492 5.279125
0.094199 1.994419 5.419772
-1.734843 -1.696607 5.095759
-1.928085 0.016326 5.049676
1.418362 1.555737 5.265841
1.460916 -0.113208 5.017080
0.210319 2.065013 5.272479
-1.177904 -2.415230 5.136974
-1.710919 -1.725892 5.126847
-1.750317 0.188827 5.245605
1.483143 -0.062055 4.924750
-1.774483 -1.606862 5.087342
-1.825896 -1.470950 5.085366
-1.022565 1.590818 5.468079
-1.828221 -1.464340 5.085657
-0.968561 1.616717 5.468179
-1.862341 -1.376403 5.081952
-0.917407 1.627034 5.485408
0.377532 -1.862590 5.041547
-1.869091 -1.356943 5.082544
-0.783644 1.636211 5.533014
1.498730 0.052900 4.957269
-0.159866 -2.175333 5.412808
0.422543 2.023656 5.252720
-0.675243 1.633489 5.567066
1.388161 -0.366947 5.112401
1.496112 0.089639 4.995116
0.442861 -1.831692 4.996391
-0.088948 -2.123921 5.366519
1.397191 1.710420 5.206447
1.472077 0.203903 5.135974
-0.003597 -2.045891 5.344990
0.454958 -1.824990 4.990291
0.586932 2.036247 5.291874
-0.000742 -2.043818 5.343286
-1.887069 -1.301178 5.080863
0.520348 -1.786086 4.953004
1.345224 1.801233 5.205085
0.029458 -2.019579 5.335680
0.616312 2.061493 5.263153
1.464394 0.258444 5.197787
1.344881 1.801381 5.206886
1.412769 -0.300629 5.109806
-1.921110 -1.191279 5.069810
0.034634 -2.015687 5.333738
1.469668 0.313845 5.273719
0.627310 2.068735 5.263475
1.241557 1.882417 5.210352
0.554637 -1.756063 4.945608
-1.921116 -1.191261 5.069832
0.066698 -1.993404 5.318768
1.235045 1.887227 5.209870
1.488857 0.386520 5.289326
0.665813 -1.661736 4.923386
0.073035 -1.988381 5.316054
-1.922169 -1.186555 5.070068
1.431954 -0.229448 5.110821
1.094500 1.995033 5.222227
0.690757 -1.626284 5.010951
1.153456 1.969165 5.212009
1.505744 0.491396 5.205414
-1.910382 -1.225472 5.071858
1.089169 1.996190 5.220464
0.151881 -1.944485 5.251488
-1.750281 0.199337 5.240063
0.714561 -1.597185 5.102602
-1.669212 0.241271 5.435001
1.000382 2.078825 5.222937
0.785321 -1.530386 5.098232
-1.668814 0.244588 5.435795
-1.933732 -1.106860 5.075843
-0.018719 1.962928 5.449657
0.805770 -1.511160 5.046475
-0.004836 1.965949 5.451409
-0.590639 1.652897 5.574210
0.860170 -1.450038 4.948225
-1.789608 0.369786 5.285985
-1.935980 -1.095105 5.069905
-1.758425 0.151810 5.187548
0.915637 -1.407983 4.808542
-0.508740 1.711174 5.547902
-1.936209 -1.065073 5.061485
0.930673 -1.392457 4.799227
0.085920 1.988874 5.433669
0.992717 -1.327554 4.794725
-0.495973 1.726047 5.537467
-0.440805 1.793354 5.487349
1.014259 -1.290087 4.886687
0.650175 2.105971 5.212277
-1.989403 -0.800351 4.953976
-1.441458 -2.263631 5.178195
1.063875 -1.183519 5.173051
-0.157475 1.915224 5.458002
-2.052717 -0.693415 4.889166
-0.384240 1.832074 5.465836
-0.096540 1.938940 5.452801
-0.374984 1.838442 5.458436
-0.061251 1.952250 5.448174
-1.513685 -2.164996 5.221906
-1.493685 0.965078 5.189085
1.099397 -1.147618 5.170544
-0.258011 1.873927 5.466103
-1.501686 0.963004 5.213635
0.989125 2.083360 5.229324
-0.159123 1.914453 5.458302
-1.509063 0.926475 5.261308
-2.057245 -0.685977 4.879820
-1.541596 -2.129167 5.215015
-1.495622 0.844821 5.348507
-1.583925 -2.106361 5.192673
-1.492755 0.817432 5.378786
-1.377693 -2.342848 5.135390
-1.481653 0.921840 5.427437
-1.430646 -2.269554 5.193071
-1.543433 1.439925 5.218785
-1.513645 1.476600 5.209057
-1.455031 1.531762 5.195672
-1.642576 -1.918521 5.187015
-1.335941 1.635811 5.141944
0.193160 -1.928412 5.213613
-1.754169 0.160922 5.209829
1.487625 -0.078976 4.894083
-1.686325 -1.762201 5.162306
-2.133540 -0.400615 4.727820
-1.241831 1.641988 5.182653
-1.410388 -2.345891 5.118773
0.444047 -1.836833 4.977770
-2.119913 -0.475807 4.806243
-1.737758 -1.679312 5.108790
1.492984 0.180085 5.033338
-1.120342 1.702191 5.207886
-1.699881 0.223167 5.377850
-1.714253 -1.723547 5.121337
0.194486 2.013501 5.376878
0.517641 -1.801750 4.917444
-1.833484 0.170343 5.160207
0.197463 2.116520 5.151069
1.347379 1.804122 5.168843
-0.927646 1.710616 5.343315
-0.149248 -2.174238 5.373751
0.539202 -1.776939 4.925935
-1.489158 0.989235 5.139624
-1.497298 0.998467 5.166084
0.608275 2.091103 5.189337
-0.772440 1.642601 5.523940
0.802734 -1.516380 5.023887
-1.922243 -1.193729 5.063318
-0.077559 1.963856 5.407954
0.943124 -1.419502 4.585000
0.123855 -1.962836 5.265240
-1.509988 0.995983 5.190058
1.075734 2.003206 5.191828
-0.665858 1.635385 5.564410
-0.037634 1.965157 5.431481
-1.944296 -1.119977 5.033170
0.988088 -1.379615 4.507429
-1.442118 -2.272960 5.168974
-1.592388 1.117799 5.178460
0.043775 1.994040 5.408379
1.013034 -1.335655 4.623010
-1.524479 -2.160023 5.208670
-0.585544 1.656113 5.569825
-1.645825 -2.082534 5.086243
-0.505557 1.713473 5.547158
0.162869 2.034963 5.320753
-0.483304 1.801881 5.442831
-2.047079 -0.681696 4.882965
0.188015 2.066579 5.266963
-0.432787 1.813341 5.459290
1.228729 -0.923839 5.279260
1.230884 -0.914421 5.280340
1.234159 -0.899340 5.282096
1.235961 -0.890881 5.278821
1.238666 -0.880495 5.253182
1.240230 -0.876034 5.238241
1.241360 -0.872659 5.229314
1.244209 -0.847818 5.224306
1.245501 -0.837720 5.212202
1.250640 -0.806078 5.186537
1.261322 -0.776802 5.149821
1.230913 -0.921662 5.237710
1.235956 -0.890881 5.278824
1.239084 -0.880529 5.245480
1.241895 -0.872090 5.223647
1.228162 -0.945206 5.329853
1.234953 -0.916439 5.323689
1.234954 -0.916436 5.323689
1.238947 -0.886233 5.312675
1.235667 -0.920019 5.329578
1.237588 -0.904235 5.323636
1.237340 -0.909276 5.326760
1.241911 -0.858163 5.299251
1.243266 -0.808642 5.280219
1.248242 -0.780112 5.273581
1.235298 -0.894534 5.285879
1.238092 -0.880571 5.275522
1.235989 -0.912346 5.323662
1.240505 -0.871896 5.243715
-1.158564 -2.374917 5.285486
0.429752 -1.828961 5.051192
-0.181836 -2.172305 5.515572
0.497865 -1.773628 5.078380
-1.703949 -1.738495 5.128914
-1.227225 -2.355762 5.255543
-0.170681 -2.167468 5.501303
1.488984 0.393136 5.325990
0.987679 2.048671 5.320046
1.490382 0.398724 5.326280
-1.855845 -1.334420 5.133519
-0.912864 1.571105 5.587528
1.491248 0.402531 5.325965
0.965246 2.057951 5.315309
1.506082 0.649437 5.134927
-1.866598 -1.304897 5.132988
-0.849889 1.601995 5.581707
1.506145 0.656581 5.124416
0.512497 -1.755414 5.105579
-0.748972 1.608232 5.624412
1.511459 0.676366 5.022605
1.095926 1.999510 5.324416
-1.911521 -1.173243 5.098890
-0.809317 1.608115 5.594962
1.128710 1.988086 5.278730
1.514479 0.667268 4.998283
-0.642157 1.614192 5.655367
-1.916815 -1.135426 5.108692
1.276176 -0.722944 5.268899
0.558352 -1.696535 5.221763
1.508218 0.676083 5.060524
-1.891568 -1.242040 5.114517
0.617414 2.045075 5.321110
-0.616973 1.625599 5.635199
-1.898209 -1.217644 5.113353
-1.737857 -1.665001 5.111543
0.714892 -1.590695 5.314768
1.335668 -0.631913 5.322126
0.616848 2.044945 5.319681
-1.507034 0.914416 5.274692
-1.920617 -1.120370 5.101766
0.720496 -1.586617 5.317024
-1.746562 -1.646377 5.108952
1.342107 -0.621940 5.329800
-1.925738 -1.031466 5.048769
0.638830 2.060149 5.312782
-1.505939 0.894544 5.298600
-0.815531 1.608675 5.590853
-1.925625 -0.998422 5.027027
-1.806521 -1.459692 5.139869
-1.833231 -1.393952 5.134159
-1.783167 -1.526562 5.136090
-0.547166 1.680684 5.574383
1.422920 -0.251492 5.300320
-0.552778 -2.445620 5.384538
1.431200 -0.212839 5.308906
-0.479852 1.722201 5.566273
-0.460003 1.744431 5.550313
1.434550 -0.196863 5.311652
-0.390713 1.806382 5.508701
-1.925273 -1.078617 5.088046
0.781176 -1.528325 5.324138
-0.179922 1.893933 5.484383
-0.298650 1.845942 5.495916
1.440946 -0.154997 5.293486
-0.115939 1.921049 5.478291
-0.447415 -2.376121 5.432398
-0.120112 -2.135535 5.439463
-0.084627 1.932546 5.475474
-1.936053 -0.912845 4.975331
1.442944 -0.139917 5.290418
-2.000305 -0.826246 4.965779
-0.073027 1.936442 5.475439
-0.087964 -2.112824 5.410349
-2.013691 -0.816718 4.955600
0.789594 -1.517764 5.326645
-0.044909 1.946499 5.470660
-0.054495 -2.084625 5.383603
-2.061743 -0.707718 4.905546
-1.845557 0.121071 5.245537
-1.413374 -2.189782 5.353893
0.000201 1.967428 5.449169
-2.100323 -0.636585 4.808383
-1.775331 0.174530 5.253885
-1.455340 -2.155473 5.339303
0.847752 -1.428214 5.312741
-0.000583 -2.039641 5.352729
-2.100322 -0.636579 4.808400
0.194770 2.012362 5.377689
-1.531488 -2.080199 5.308325
-1.759297 0.172563 5.247441
0.005330 -2.034910 5.350617
-2.123934 -0.454431 5.008271
-1.533371 -2.073092 5.316698
0.120200 2.003880 5.392884
-0.296485 1.846757 5.495619
-2.123850 -0.454357 5.008931
0.024624 -2.019925 5.343980
-1.609193 -1.882469 5.371375
-2.122058 -0.337830 5.025521
-1.732363 0.140413 5.324488
1.442973 -0.139636 5.290271
1.447632 -0.083955 5.283945
-1.719304 0.147007 5.357119
0.100982 2.001277 5.399671
-1.354844 -2.322309 5.242313
-2.055295 -0.187955 5.175236
-1.397179 -2.250388 5.269405
-1.682107 0.152865 5.440397
-1.977300 -0.063223 5.277280
1.452775 0.009430 5.304493
-1.690880 0.150477 5.420728
-1.262666 -2.340998 5.250788
0.064514 -1.992241 5.325779
1.452061 0.130553 5.289496
-1.580043 0.196788 5.602719
0.443709 2.011887 5.322669
1.448559 0.173117 5.264893
-1.518246 0.229920 5.696810
0.623573 2.047774 5.328288
0.104687 -1.966230 5.297103
-1.616051 -1.870004 5.340745
1.448140 0.258448 5.272879
0.623703 2.047765 5.328792
-1.514951 0.231280 5.700551
-1.636218 -1.826126 5.269526
0.546219 2.030153 5.330247
0.889332 -1.348156 5.323870
-1.456888 0.384533 5.723496
0.107985 -1.964951 5.294882
-1.665058 -1.792146 5.196412
-1.483034 0.831124 5.368775
0.188582 -1.927506 5.226057
0.621105 2.045574 5.331267
-1.530705 0.555127 5.533235
0.204684 -1.921623 5.212910
-1.664021 -1.786692 5.203798
0.625434 2.048582 5.330266
1.468768 0.321424 5.288149
-1.432482 0.757275 5.462789
0.331435 -1.878961 5.092200
-1.357784 0.660344 5.606787
0.409906 -1.841478 5.047469
1.481495 0.365170 5.309508
-1.684284 -1.763465 5.162714
1.406039 1.255460 5.679331
-1.349500 0.670672 5.620769
1.502882 0.507712 5.259207
1.383107 1.241218 5.717283
-1.345702 0.690098 5.630518
1.388487 1.705524 5.311906
-1.350568 0.974632 5.662868
0.894084 -1.340564 5.327004
1.248850 1.871155 5.280779
-1.391093 1.263900 5.511855
1.234386 1.890582 5.333147
-1.377276 1.289478 5.501942
1.346909 1.799482 5.313710
-1.193842 1.326743 5.724028
1.347088 1.798805 5.314998
0.932347 -1.283909 5.324824
-1.202796 1.401556 5.624849
1.135994 1.988713 5.276621
-1.112355 1.427595 5.649848
1.002594 -1.200417 5.337727
-1.034284 1.480122 5.625515
1.075006 -1.137084 5.357174
-1.011612 1.509866 5.603995
1.075010 -1.137081 5.357178
-0.953705 1.541524 5.605475
1.179376 -1.013822 5.345164
1.220204 -0.962175 5.330800
-1.731203 -1.704156 5.096776
1.346657 -0.608310 5.099900
0.975747 2.070643 5.275806
-1.253788 -2.354956 5.216775
-1.747551 -1.649978 5.104627
0.439174 -1.824002 5.048293
-0.896630 1.589965 5.568017
-1.900747 -1.202968 5.119699
1.093488 1.995312 5.222229
1.491141 0.403900 5.299008
-1.502208 0.955886 5.217530
1.134405 1.985227 5.254653
-1.919140 -1.135662 5.096309
0.708297 -1.601817 5.117852
-0.746044 1.611968 5.616183
-1.506305 0.927714 5.259876
-0.022280 -2.057935 5.361366
-0.023553 1.957016 5.459662
1.434580 -0.209121 5.130725
-1.929160 -1.072329 5.080876
-0.641409 1.619553 5.635473
0.083577 1.990852 5.427962
-1.497848 0.859115 5.331427
0.894296 -1.339763 5.325220
0.114961 -1.960597 5.288162
-2.006176 -0.814152 4.954821
0.617631 2.048089 5.306153
-1.638352 -1.814348 5.268561
-1.418167 0.723953 5.493288
-0.157439 1.915187 5.458101
-2.062052 -0.705585 4.898986
-1.680232 -1.766399 5.175064
-0.104713 1.930062 5.467234
1.186118 -1.005905 5.303464
-1.709260 0.171645 5.349452
-2.100325 -0.636593 4.808350
-2.124574 -0.454600 5.002949
-0.378494 1.829505 5.473881
-1.657864 0.194320 5.457867
0.204042 2.032460 5.337791
1.460916 -0.113209 5.017083
-1.397433 1.516276 5.283399
1.346387 1.802167 5.277912
0.623954 2.048757 5.324682
1.461562 0.303692 5.282368
1.229442 -0.956564 5.357901
1.237545 -0.920757 5.338080
1.238728 -0.914131 5.337026
1.241109 -0.889591 5.327820
1.241881 -0.879815 5.323203
1.243035 -0.868092 5.319003
1.243955 -0.858579 5.317538
1.245367 -0.811137 5.308345
1.234956 -0.916437 5.323702
1.236850 -0.915568 5.330189
1.242061 -0.868162 5.312218
1.245647 -0.945595 5.397508
1.246226 -0.934517 5.383025
1.246448 -0.923895 5.372093
1.246811 -0.898660 5.356052
1.248155 -0.859691 5.342980
1.250831 -0.813540 5.344323
1.245802 -0.926211 5.372201
1.246416 -0.865378 5.336708
0.398122 -1.840094 5.090283
-1.050259 -2.357753 5.417339
-1.455021 0.654133 5.490057
0.497393 -1.743754 5.237647
-0.249606 -2.185499 5.591763
-0.902256 1.538559 5.659474
-1.706892 -1.695241 5.151018
-0.192323 -2.166761 5.549681
-0.850942 1.557302 5.666623
-1.734692 -1.635527 5.140969
-1.125855 -2.348805 5.397520
0.998527 2.027348 5.380733
-0.756428 1.584893 5.681194
0.513965 -1.723792 5.293534
-1.788467 -1.485052 5.164719
-1.845978 -1.354883 5.151591
