0.513477 0.880677 5.961585
-0.225148 -2.166152 5.894545
-0.225148 1.157661 5.952000
0.698133 0.788349 5.953305
0.421149 -2.258480 5.935035
1.806071 -0.504245 5.913137
-0.132820 1.157661 5.884851
1.990727 -1.242871 5.930421
-1.240758 0.973005 5.914729
1.898399 -0.596574 5.891798
-1.794727 -0.873558 5.903823
2.083055 -1.150543 5.914663
-0.225148 1.249989 5.874741
1.898399 -0.504245 5.899505
0.513477 -2.166152 5.915892
-1.425414 -1.427527 5.912866
2.083055 -1.058214 5.958713
-1.794727 -0.781230 5.936287
0.882789 0.603692 5.883153
1.806071 -0.411917 5.932734
0.605805 -2.073824 5.881605
2.083055 -0.965886 5.925375
0.975118 0.511364 5.908736
-1.794727 -0.688902 5.938852
1.898399 -0.411917 5.894364
-1.056102 1.065333 5.904317
-1.794727 -0.596574 5.936072
1.806071 -0.319589 5.919180
1.898399 -0.781230 5.942395
1.713743 -0.042605 5.875956
-0.963774 1.065333 5.918451
1.252102 -1.889168 5.946824
1.806071 -0.134933 5.876470
-0.871446 1.065333 5.939390
1.344430 -1.889168 5.901693
1.806071 -0.688902 5.938707
1.067446 0.419036 5.945653
-0.779117 1.065333 5.943516
1.898399 -0.688902 5.888310
-1.702399 -0.227261 5.946364
-1.794727 -0.042605 5.895658
1.990727 -0.873558 5.937421
1.252102 0.326708 5.933976
-1.887055 0.142052 5.922492
-0.502133 1.065333 5.877340
-1.333086 -1.612183 5.956384
-0.409805 1.065333 5.947021
-1.702399 -0.134933 5.917995
-1.887055 0.234380 5.908731
-1.794727 0.419036 5.889881
-0.225148 1.056426 6.008853
-0.178984 1.025390 6.008853
-0.132820 1.022556 6.008853
-0.040492 0.965837 6.008853
-0.070112 0.973005 6.008853
-0.086656 1.004653 6.008853
-0.106592 1.019169 6.008853
-0.225148 1.065333 5.993834
-0.178984 1.065333 5.969397
-0.040492 0.973005 5.971583
-0.086656 1.019169 5.998694
-0.040492 1.019169 5.969158
-0.040492 1.065333 5.969661
-0.178984 0.999959 6.055017
-0.204921 1.019169 6.055017
-0.132820 0.987462 6.055017
-0.225148 1.032917 6.055017
-0.086656 0.915603 6.055017
-0.093335 0.926841 6.055017
-0.042944 0.926841 6.055017
-0.100923 0.973005 6.055017
-0.040492 0.955571 6.055017
-0.178984 1.019169 6.014661
-0.132820 1.019169 6.012453
-0.086656 0.926841 6.026230
-0.086656 0.973005 6.028293
-1.056102 -1.814077 6.055017
1.773179 -0.411917 6.055017
-1.610071 -1.273362 6.055017
-1.086702 -1.796840 6.055017
1.796862 -0.319589 6.055017
-1.425414 0.890488 6.055017
-1.632512 -1.242871 6.055017
1.159774 0.327844 6.055017
-1.148430 -1.712802 6.055017
1.765469 -0.227261 6.055017
-1.333086 0.932786 6.055017
0.421149 -2.303361 6.055017
1.611651 -1.704511 6.055017
-1.684152 -1.150543 6.055017
1.096340 0.419036 6.055017
-1.155890 -1.704511 6.055017
-1.240758 0.945982 6.055017
1.621415 -1.699406 6.055017
0.698133 0.764955 6.055017
1.067446 0.438778 6.055017
0.513477 -2.266937 6.055017
-1.173581 0.973005 6.055017
-0.871446 -1.892241 6.055017
-1.794727 0.137769 6.055017
0.978722 0.511364 6.055017
1.713743 -1.640865 6.055017
0.649018 0.788349 6.055017
-0.875557 -1.889168 6.055017
0.530702 -2.258480 6.055017
-1.795832 0.142052 6.055017
-1.148430 0.987774 6.055017
0.789708 0.696021 6.055017
1.252102 0.260050 6.055017
-0.686789 -2.013041 6.055017
-1.686481 -0.227261 6.055017
-1.056102 1.013950 6.055017
1.160614 0.326708 6.055017
1.740592 -1.612183 6.055017
0.603413 -2.166152 6.055017
-1.670969 -0.134933 6.055017
-0.746495 -1.981496 6.055017
0.618580 0.880677 6.055017
1.776349 -1.519855 6.055017
1.344430 0.291444 6.055017
-1.702399 -0.050266 6.055017
-0.779117 -1.958507 6.055017
-0.963774 1.036495 6.055017
0.605805 -2.158694 6.055017
-1.707777 -0.042605 6.055017
1.806071 -1.462821 6.055017
0.051836 0.943290 6.055017
1.374060 0.326708 6.055017
-0.963774 -1.832214 6.055017
-1.550637 -1.335199 6.055017
1.822366 -1.427527 6.055017
1.529086 0.295785 6.055017
-1.766874 0.049723 6.055017
0.698133 -2.114786 6.055017
-0.779117 1.010400 6.055017
-1.702399 -1.116748 6.055017
1.860782 -1.335199 6.055017
-0.502133 -2.127333 6.055017
0.765400 -2.073824 6.055017
-1.726562 -1.058214 6.055017
-1.841176 0.234380 6.055017
-0.566145 -2.073824 6.055017
-0.686789 1.021672 6.055017
1.896669 -1.242871 6.055017
1.494037 0.326708 6.055017
0.236492 0.881904 6.055017
-1.794727 0.267633 6.055017
-1.765259 -0.965886 6.055017
1.898399 -1.234267 6.055017
0.239867 0.880677 6.055017
-0.594461 1.009794 6.055017
1.436758 0.361231 6.055017
-1.750410 0.326708 6.055017
-1.794727 -0.899861 6.055017
0.790461 -2.056263 6.055017
0.401512 0.880677 6.055017
1.947441 -1.150543 6.055017
-1.702399 0.391855 6.055017
-0.502133 1.049008 6.055017
-0.409805 -2.169725 6.055017
-1.805214 -0.873558 6.055017
0.328820 0.842453 6.055017
0.874842 -1.981496 6.055017
-1.689969 0.419036 6.055017
-0.409805 1.020800 6.055017
0.421149 0.918674 6.055017
-0.424229 -2.166152 6.055017
1.984836 -1.058214 6.055017
0.882789 -1.974619 6.055017
-0.317477 1.059039 6.055017
-1.685898 0.511364 6.055017
-0.317477 -2.181814 6.055017
0.790461 0.695133 6.055017
1.930916 -0.965886 6.055017
0.975118 -1.922232 6.055017
0.513477 0.919374 6.055017
0.051836 -2.261069 6.055017
1.898399 -0.859328 6.055017
0.605805 0.887210 6.055017
-1.685092 0.603692 6.055017
1.025061 -1.889168 6.055017
0.046395 -2.258480 6.055017
1.880501 -0.781230 6.055017
-1.610071 0.679067 6.055017
-0.225148 -2.201797 6.055017
1.067446 -1.863671 6.055017
0.882789 0.595610 6.055017
-1.528888 0.696021 6.055017
0.875368 0.603692 6.055017
1.159774 -1.868638 6.055017
1.713743 -0.626388 6.055017
-1.817561 -0.596574 6.055017
-0.040492 -2.235115 6.055017
1.702121 -0.596574 6.055017
-1.523684 0.788349 6.055017
1.252102 -1.843510 6.055017
0.975118 0.516016 6.055017
1.806071 -0.704665 6.055017
-0.594461 -2.043750 6.055017
-1.795009 -0.504245 6.055017
1.344430 -1.835948 6.055017
1.777860 -0.688902 6.055017
-1.526350 0.880677 6.055017
-1.794727 -0.503692 6.055017
1.421526 -1.796840 6.055017
1.902389 -0.873558 6.055017
1.436758 -1.787427 6.055017
-1.761701 -0.411917 6.055017
-1.517743 0.886930 6.055017
1.713743 -0.101135 6.055017
1.529086 -1.749386 6.055017
-1.425414 -1.511314 6.055017
-1.782246 -0.319589 6.055017
1.713743 -0.523415 6.055017
1.657818 -0.042605 6.055017
-1.702399 -0.243115 6.055017
-1.480260 -1.427527 6.055017
1.740731 -0.504245 6.055017
1.729998 -0.134933 6.055017
-1.517743 -1.371871 6.055017
1.621415 -0.019744 6.055017
-1.240758 -1.644947 6.055017
1.587373 0.049723 6.055017
-1.290130 -1.612183 6.055017
1.612149 0.142052 6.055017
-1.333086 -1.577510 6.055017
-1.414802 -1.519855 6.055017
1.576931 0.234380 6.055017
1.621415 -1.704511 6.051920
-1.148430 -1.704511 5.990920
0.051836 -2.258480 6.045921
-1.794727 0.049723 5.979164
1.806071 -1.519855 6.013740
0.513477 -2.258480 6.027245
1.898399 -1.335199 5.969722
-1.794727 -0.504245 6.052032
-0.317477 1.065333 6.011979
-0.317477 1.157661 5.971025
-0.409805 -2.166152 6.043044
0.698133 -2.073824 5.988444
-1.333086 0.973005 5.984787
-0.225148 1.249989 6.001425
-0.317477 -2.166152 5.993047
1.898399 -1.242871 6.050943
0.605805 0.880677 5.976363
-1.333086 -1.612183 5.964496
-1.702399 0.419036 6.031923
1.067446 -1.889168 6.010614
0.790461 0.696021 6.052464
-1.702399 0.511364 6.032881
1.990727 -1.150543 6.022275
1.159774 -1.889168 5.983606
1.067446 0.419036 5.966938
0.051836 0.973005 5.966458
1.990727 -1.058214 6.049019
-0.686789 1.065333 5.998016
-1.702399 0.603692 6.032808
1.990727 -0.965886 6.011328
1.436758 -1.796840 6.040207
-1.610071 0.696021 6.043920
1.529086 0.326708 5.992967
1.529086 -1.796840 5.999987
-0.594461 1.065333 5.963005
1.713743 -0.504245 6.041649
1.621415 0.049723 6.026166
1.621415 0.142052 6.039905
-0.225148 1.002714 6.101181
-0.178984 1.004462 6.101181
-0.132820 0.975102 6.101181
-0.086656 0.951379 6.101181
-0.131567 0.973005 6.101181
-0.040492 0.960194 6.101181
-0.225148 1.019169 6.076918
-0.086656 0.926841 6.062664
-0.132820 0.892338 6.147345
-0.161829 0.926841 6.147345
-0.225148 0.960567 6.147345
-0.178984 0.948191 6.147345
-0.103095 0.926841 6.147345
-0.086656 0.950790 6.147345
-0.040492 0.966154 6.147345
-0.132820 0.926841 6.136922
-0.225148 0.973005 6.135014
-0.178984 0.973005 6.128613
-0.132820 0.973005 6.103039
-1.056102 -1.800640 6.147345
1.529086 -1.661985 6.147345
-1.610071 -1.250726 6.147345
1.815028 -0.411917 6.147345
-1.425414 0.734378 6.147345
1.597984 -1.612183 6.147345
-1.616409 -1.242871 6.147345
1.809207 -0.319589 6.147345
-1.373028 0.788349 6.147345
1.529086 0.127514 6.147345
1.621415 -1.600327 6.147345
1.713743 -0.228481 6.147345
1.522526 0.142052 6.147345
-1.333086 0.838147 6.147345
-1.085940 -1.796840 6.147345
1.806071 -0.296725 6.147345
-1.148430 -1.762190 6.147345
1.705406 -1.519855 6.147345
-1.288712 0.880677 6.147345
0.421149 0.864194 6.147345
-1.194518 -1.704511 6.147345
0.513477 -2.285975 6.147345
1.159774 0.311242 6.147345
0.494229 0.880677 6.147345
-1.678334 -1.150543 6.147345
0.583263 -2.258480 6.147345
1.147891 0.326708 6.147345
1.713743 -1.504129 6.147345
-0.686789 -2.023874 6.147345
-1.240758 0.897131 6.147345
0.605805 0.829817 6.147345
-1.794727 0.116906 6.147345
-0.754951 -1.981496 6.147345
-1.551893 -1.335199 6.147345
0.605805 -2.243118 6.147345
1.782634 -1.427527 6.147345
0.975118 0.486365 6.147345
0.535361 0.880677 6.147345
-1.148430 0.903215 6.147345
-1.797904 0.142052 6.147345
-0.779117 -1.929469 6.147345
0.672260 -2.166152 6.147345
-1.702399 -1.093863 6.147345
0.790461 0.714384 6.147345
0.968167 0.511364 6.147345
1.806071 -1.336683 6.147345
0.698300 0.788349 6.147345
-1.745068 -0.227261 6.147345
-0.828364 -1.889168 6.147345
0.698133 -2.141480 6.147345
-1.703237 -0.134933 6.147345
1.806275 -1.335199 6.147345
-0.963774 -1.822643 6.147345
-1.723940 -0.042605 6.147345
0.698133 0.788402 6.147345
-1.101860 0.973005 6.147345
-0.871446 -1.872430 6.147345
-1.747495 0.049723 6.147345
0.760119 -2.073824 6.147345
1.099029 0.419036 6.147345
-1.056102 1.008054 6.147345
0.051836 0.939056 6.147345
-1.805193 0.234380 6.147345
1.850455 -1.242871 6.147345
1.067446 0.437636 6.147345
-1.794727 0.282433 6.147345
-0.502133 -2.105944 6.147345
0.236492 0.904791 6.147345
0.790461 -2.045434 6.147345
-0.583938 -2.073824 6.147345
1.898399 -1.191604 6.147345
0.328820 0.890991 6.147345
-1.718788 -1.058214 6.147345
0.871451 -1.981496 6.147345
-1.717850 0.326708 6.147345
1.252102 0.287403 6.147345
0.343417 0.880677 6.147345
-0.317477 -2.211844 6.147345
1.898399 -1.148942 6.147345
0.882789 -1.976087 6.147345
-1.702399 0.337783 6.147345
-0.871446 0.996895 6.147345
1.344430 0.269507 6.147345
0.513477 0.888755 6.147345
0.975118 -1.933740 6.147345
-1.787508 -0.965886 6.147345
1.878118 -1.058214 6.147345
-0.393709 -2.166152 6.147345
-0.779117 0.990352 6.147345
1.050937 -1.889168 6.147345
1.467834 0.234380 6.147345
-0.409805 -2.149669 6.147345
0.900167 0.603692 6.147345
1.878184 -0.965886 6.147345
-1.656507 0.419036 6.147345
0.882789 0.621253 6.147345
-1.794727 -0.956261 6.147345
0.801244 0.696021 6.147345
1.436758 0.269517 6.147345
-0.686789 0.987599 6.147345
-1.838048 -0.873558 6.147345
1.922998 -1.150543 6.147345
1.067446 -1.877352 6.147345
-1.610071 0.510164 6.147345
1.712933 -0.227261 6.147345
-1.609633 0.511364 6.147345
1.625434 -0.134933 6.147345
1.159774 -1.857815 6.147345
-0.594461 0.991632 6.147345
1.621415 -0.128209 6.147345
-1.517743 0.592296 6.147345
1.880925 -0.873558 6.147345
-1.496759 0.603692 6.147345
1.595932 -0.042605 6.147345
1.252102 -1.852423 6.147345
-1.454085 0.696021 6.147345
1.344430 -1.826896 6.147345
1.559436 0.049723 6.147345
1.887133 -0.781230 6.147345
-0.409805 1.036609 6.147345
1.372156 -1.796840 6.147345
-0.317477 1.012881 6.147345
1.898399 -0.701488 6.147345
1.436758 -1.761384 6.147345
-1.807154 -0.504245 6.147345
1.898399 -0.670984 6.147345
1.492060 -1.704511 6.147345
-0.257930 0.973005 6.147345
-1.813115 -0.411917 6.147345
1.829161 -0.596574 6.147345
-1.814958 -0.319589 6.147345
1.910279 -0.688902 6.147345
-1.794727 -0.275966 6.147345
1.806071 -0.543960 6.147345
1.800983 -0.504245 6.147345
-1.333086 -1.621445 6.147345
1.806071 -0.418085 6.147345
-1.344004 -1.612183 6.147345
-1.240758 -1.669503 6.147345
-1.386217 -1.519855 6.147345
-1.425414 -1.475156 6.147345
0.051836 -2.274884 6.147345
-0.040492 -2.265369 6.147345
-0.063845 -2.258480 6.147345
-0.132820 -2.243553 6.147345
-0.594461 -2.067626 6.147345
-1.499776 -1.427527 6.147345
-1.517743 -1.408123 6.147345
-1.425414 0.788349 6.096579
-0.871446 -1.889168 6.057190
1.529086 -1.704511 6.097931
-1.425414 0.880677 6.064354
1.529086 0.142052 6.137649
1.621415 -1.612183 6.133419
-1.333086 0.880677 6.119068
0.605805 -2.166152 6.058918
1.806071 -0.411917 6.139820
1.713743 -1.612183 6.101953
1.806071 -0.319589 6.139272
0.421149 0.880677 6.082319
1.159774 0.326708 6.057880
1.713743 -0.227261 6.146864
-1.794727 -0.411917 6.098556
-1.148430 0.973005 6.097324
1.713743 -1.519855 6.139708
-0.409805 -2.166152 6.073769
0.605805 0.880677 6.072319
-1.794727 -0.319589 6.071185
0.975118 0.511364 6.119794
1.806071 -1.427527 6.108856
0.698133 0.788349 6.147219
-1.702399 -0.227261 6.087318
-1.702399 -0.134933 6.145888
-0.040492 -2.258480 6.135854
0.790461 0.696021 6.055518
1.898399 -1.058214 6.133466
-1.333086 -1.612183 6.132234
1.898399 -0.965886 6.098248
1.529086 0.234380 6.098723
1.436758 0.326708 6.078984
0.328820 0.880677 6.129683
-1.610071 0.511364 6.146982
1.898399 -0.873558 6.074326
1.713743 -0.596574 6.065514
-1.610071 0.603692 6.106328
1.806071 -0.688902 6.074113
-1.517743 0.603692 6.133231
1.898399 -0.688902 6.113865
-1.517743 0.696021 6.060059
1.806071 -0.596574 6.097128
0.882789 0.603692 6.074085
-1.517743 0.788349 6.058344
-1.517743 0.880677 6.058988
1.713743 -0.134933 6.083106
1.621415 -0.042605 6.075453
-1.794727 -1.000200 6.239673
-1.240758 -1.728372 6.239673
1.771391 -0.596574 6.239673
-1.824536 -0.965886 6.239673
-1.254923 -1.704511 6.239673
-0.686789 0.944011 6.239673
0.421149 0.870652 6.239673
1.806071 -0.519336 6.239673
0.373322 0.880677 6.239673
-1.056102 -1.801759 6.239673
-0.594461 0.908963 6.239673
-1.425414 0.677482 6.239673
-1.078904 -1.796840 6.239673
-1.610071 -1.206470 6.239673
1.810229 -0.504245 6.239673
-1.148430 -1.781739 6.239673
0.790461 0.691035 6.239673
-1.668702 -1.150543 6.239673
-0.502133 0.967465 6.239673
0.779206 0.696021 6.239673
-1.407976 0.696021 6.239673
1.409327 -1.704511 6.239673
-1.333086 0.744074 6.239673
-1.552115 -1.335199 6.239673
-1.240758 0.777266 6.239673
1.436758 -1.661314 6.239673
-0.482801 0.973005 6.239673
-1.586183 -1.242871 6.239673
-0.871446 -1.970312 6.239673
-1.227241 0.788349 6.239673
0.473243 0.880677 6.239673
1.806071 -0.493447 6.239673
-0.409805 0.985908 6.239673
-0.925370 -1.889168 6.239673
0.605805 0.811932 6.239673
-1.148430 0.830467 6.239673
1.474945 -1.612183 6.239673
-0.317477 0.983397 6.239673
0.542241 0.880677 6.239673
-0.686789 -2.025521 6.239673
-1.678344 -1.058214 6.239673
0.698133 0.745230 6.239673
-0.225148 0.933568 6.239673
-1.056102 0.838113 6.239673
-0.722070 -1.981496 6.239673
0.640224 0.788349 6.239673
1.529086 -1.574192 6.239673
1.733056 -0.411917 6.239673
-1.702399 -1.038807 6.239673
-0.779117 -1.950905 6.239673
-0.973991 0.880677 6.239673
-0.300788 0.973005 6.239673
0.513477 -2.275163 6.239673
-0.963774 -1.828496 6.239673
0.051836 0.947042 6.239673
-0.963774 0.889904 6.239673
-0.132820 0.926506 6.239673
1.713743 -0.320583 6.239673
0.605805 -2.267100 6.239673
0.144164 0.936202 6.239673
1.621415 -1.521799 6.239673
-0.871446 0.944345 6.239673
-1.815544 -0.873558 6.239673
1.713262 -0.319589 6.239673
-0.594461 -2.095638 6.239673
0.236492 0.920314 6.239673
-0.040492 0.950670 6.239673
-0.799539 0.973005 6.239673
-0.639943 -2.073824 6.239673
1.623657 -1.519855 6.239673
0.621565 -2.258480 6.239673
0.328820 0.938627 6.239673
1.621415 -0.231510 6.239673
-0.502133 -2.126485 6.239673
-0.766567 0.973005 6.239673
1.617897 -0.227261 6.239673
0.698133 -2.167638 6.239673
1.529086 0.087856 6.239673
-0.779117 0.973592 6.239673
0.513477 0.898636 6.239673
-0.409805 -2.176487 6.239673
-0.438653 -2.166152 6.239673
1.678800 -1.427527 6.239673
-0.317477 -2.177698 6.239673
1.479712 0.142052 6.239673
1.713743 -1.397982 6.239673
1.763128 -1.335199 6.239673
0.699981 -2.166152 6.239673
1.806071 -1.265913 6.239673
-1.783700 -0.227261 6.239673
0.975118 0.558419 6.239673
0.790461 -2.085806 6.239673
1.067446 0.415327 6.239673
1.815670 -1.242871 6.239673
1.061255 0.419036 6.239673
-0.040492 -2.293530 6.239673
1.159774 0.329072 6.239673
0.911689 0.603692 6.239673
-0.105159 -2.258480 6.239673
1.898399 -1.170888 6.239673
1.001755 0.511364 6.239673
-1.742160 -0.134933 6.239673
0.882789 0.627679 6.239673
-0.225148 -2.213913 6.239673
-1.830245 -0.319589 6.239673
-0.132820 -2.246912 6.239673
1.806071 -1.115575 6.239673
1.344430 0.209257 6.239673
-1.709812 -0.042605 6.239673
1.714165 -1.058214 6.239673
-1.794727 -0.240702 6.239673
1.283498 0.234380 6.239673
1.898399 -1.134056 6.239673
-1.702399 -0.027270 6.239673
0.814073 -2.073824 6.239673
1.757941 -0.965886 6.239673
-1.425414 -1.496811 6.239673
1.599143 -0.134933 6.239673
1.252102 0.251705 6.239673
-1.494784 -1.427527 6.239673
-1.672643 0.049723 6.239673
1.900459 -1.150543 6.239673
1.163524 0.326708 6.239673
1.588562 -0.042605 6.239673
-1.517743 -1.382687 6.239673
-1.318106 -1.612183 6.239673
0.882789 -2.042919 6.239673
-1.613876 0.142052 6.239673
1.794292 -0.873558 6.239673
0.975118 -1.990838 6.239673
-1.333086 -1.598397 6.239673
1.538540 0.049723 6.239673
-1.641759 0.234380 6.239673
1.806071 -0.861749 6.239673
-1.401845 -1.519855 6.239673
0.988898 -1.981496 6.239673
1.436758 0.154997 6.239673
-1.614919 0.326708 6.239673
1.856642 -0.781230 6.239673
1.067446 -1.932005 6.239673
-1.610071 0.339661 6.239673
1.864290 -0.688902 6.239673
1.135543 -1.889168 6.239673
-1.584978 0.419036 6.239673
1.159774 -1.877907 6.239673
1.806071 -0.640908 6.239673
-1.517743 0.507423 6.239673
1.252102 -1.843949 6.239673
-1.513816 0.511364 6.239673
1.324570 -1.796840 6.239673
1.344430 -1.775984 6.239673
-1.473974 0.603692 6.239673
1.436758 -1.704511 6.212076
1.898399 -0.688902 6.196179
-1.425414 0.696021 6.208024
-1.240758 -1.704511 6.197042
1.529086 -1.612183 6.200063
0.790461 0.696021 6.207573
-1.794727 -0.965886 6.152380
-0.686789 0.973005 6.175465
-1.333086 0.788349 6.191080
-0.594461 0.973005 6.164469
1.806071 -0.596574 6.200865
-1.240758 0.788349 6.235132
-1.610071 -1.242871 6.157590
0.698133 0.788349 6.147988
-0.502133 0.973005 6.224921
-0.871446 -1.889168 6.194404
1.806071 -0.504245 6.216899
-1.240758 0.880677 6.197104
-1.702399 -1.058214 6.201457
1.713743 -1.427527 6.204574
1.806071 -0.411917 6.162413
0.605805 -2.258480 6.169931
-1.148430 0.880677 6.164271
1.713743 -0.319589 6.238741
-0.594461 -2.073824 6.159495
1.806071 -1.335199 6.148254
0.975118 0.511364 6.166832
-1.056102 0.880677 6.206328
1.621415 -0.227261 6.227274
0.698133 -2.166152 6.234613
-0.409805 -2.166152 6.193338
1.806071 -0.319589 6.152735
1.621415 -0.134933 6.154670
0.790461 -2.073824 6.222452
1.806071 -1.058214 6.186661
-1.333086 -1.612183 6.152914
-1.056102 0.973005 6.179049
-1.794727 0.142052 6.151798
1.806071 -0.965886 6.193020
1.159774 0.326708 6.221797
-0.963774 0.973005 6.207749
-1.702399 0.049723 6.188706
0.882789 -1.981496 6.164242
-0.871446 0.973005 6.197670
1.067446 0.419036 6.227210
-1.702399 0.142052 6.177902
0.975118 -1.981496 6.228512
1.806071 -0.873558 6.230116
1.344430 0.234380 6.197395
1.067446 -1.889168 6.166481
-1.794727 0.234380 6.163358
1.436758 0.234380 6.165578
-1.702399 0.234380 6.203645
1.344430 -1.796840 6.192787
-1.702399 0.326708 6.153271
-1.610071 0.419036 6.200440
-1.517743 0.511364 6.233177
-0.686789 -2.074172 6.332002
-1.610071 -1.248163 6.332002
-1.425414 0.463242 6.332002
1.348921 -1.704511 6.332002
-1.614556 -1.242871 6.332002
-1.389304 0.511364 6.332002
1.621415 -0.545239 6.332002
1.387827 -1.612183 6.332002
-0.687568 -2.073824 6.332002
-1.636744 -1.150543 6.332002
0.421149 0.867003 6.332002
1.436758 -1.535086 6.332002
0.382346 0.880677 6.332002
-1.333086 0.549058 6.332002
-1.530808 -1.335199 6.332002
1.580263 -0.504245 6.332002
0.502366 0.880677 6.332002
-1.270641 0.603692 6.332002
-1.333086 -1.711027 6.332002
1.663667 -0.596574 6.332002
0.605805 0.837732 6.332002
-1.240758 0.631261 6.332002
1.462456 -1.519855 6.332002
0.520653 0.880677 6.332002
1.621415 -0.450606 6.332002
-1.679737 -1.058214 6.332002
-1.166616 0.696021 6.332002
0.698133 0.722841 6.332002
1.629326 -0.411917 6.332002
0.640797 0.788349 6.332002
-1.338693 -1.704511 6.332002
-0.225148 0.879779 6.332002
1.621415 -0.403938 6.332002
0.790461 0.702671 6.332002
0.513477 -2.308478 6.332002
1.600145 -0.319589 6.332002
-1.240758 -1.752216 6.332002
-0.226565 0.880677 6.332002
1.621415 -0.238014 6.332002
0.144164 0.966353 6.332002
0.583797 -2.258480 6.332002
-1.702399 -1.021210 6.332002
1.628315 -0.227261 6.332002
0.127150 0.973005 6.332002
-0.133008 0.880677 6.332002
0.605805 -2.238829 6.332002
-1.148430 -1.813466 6.332002
-1.756100 -0.965886 6.332002
-1.148430 0.711243 6.332002
0.236492 0.939173 6.332002
0.698133 -2.214048 6.332002
-1.836754 -0.227261 6.332002
-1.187382 -1.796840 6.332002
-1.056102 0.780213 6.332002
0.051836 0.980634 6.332002
-0.686789 0.921271 6.332002
0.772601 -2.166152 6.332002
-1.794727 -0.170972 6.332002
-1.040942 0.788349 6.332002
1.529086 -1.453640 6.332002
-1.794727 -0.880735 6.332002
-0.594461 0.929376 6.332002
0.328820 0.903021 6.332002
0.790461 -2.151500 6.332002
-1.777401 -0.134933 6.332002
-0.963774 0.822869 6.332002
-1.056102 -1.837462 6.332002
-1.744293 -0.042605 6.332002
-0.502133 0.965154 6.332002
-0.871446 0.861765 6.332002
0.513477 0.881893 6.332002
-1.796301 -0.873558 6.332002
0.882789 -2.134235 6.332002
-1.702399 -0.021248 6.332002
-0.779117 0.872418 6.332002
1.549726 -1.427527 6.332002
0.924280 -2.073824 6.332002
-0.770982 0.880677 6.332002
-1.624442 0.049723 6.332002
-0.871446 -1.996907 6.332002
-1.610071 0.080917 6.332002
0.882789 0.598450 6.332002
1.621415 -1.408044 6.332002
-0.910508 -1.981496 6.332002
0.878129 0.603692 6.332002
0.975118 -2.025784 6.332002
-1.576300 0.142052 6.332002
1.690725 -1.335199 6.332002
1.018622 -1.981496 6.332002
0.968661 0.603692 6.332002
-0.963774 -1.917154 6.332002
-1.850858 -0.596574 6.332002
1.067446 -1.936790 6.332002
0.882789 0.631232 6.332002
-0.409805 0.970325 6.332002
-0.989720 -1.889168 6.332002
1.156177 -1.889168 6.332002
0.975118 0.604216 6.332002
-1.573031 0.234380 6.332002
1.700372 -1.242871 6.332002
1.159774 -1.886363 6.332002
0.895215 0.696021 6.332002
-1.521884 0.326708 6.332002
-0.779117 -2.007598 6.332002
1.252102 -1.829745 6.332002
-0.317477 0.942054 6.332002
1.275365 -1.796840 6.332002
1.009322 0.511364 6.332002
-1.517743 0.335021 6.332002
1.344430 -1.712122 6.332002
1.704957 -1.150543 6.332002
0.975399 0.603692 6.332002
-1.452588 0.419036 6.332002
-0.594461 -2.108325 6.332002
-0.132820 0.921651 6.332002
1.686013 -1.058214 6.332002
-0.502133 -2.141476 6.332002
0.882789 0.713290 6.332002
-0.040492 0.937477 6.332002
1.696487 -0.965886 6.332002
-1.333086 -1.632669 6.332002
-0.317477 -2.176682 6.332002
0.025513 0.973005 6.332002
-1.329451 -1.612183 6.332002
-0.372064 -2.166152 6.332002
1.695172 -0.873558 6.332002
1.621415 -0.204947 6.332002
-1.333086 -1.610059 6.332002
-0.409805 -2.162018 6.332002
1.713743 -0.850596 6.332002
-1.410156 -1.519855 6.332002
1.583186 -0.134933 6.332002
-0.132820 -2.272668 6.332002
1.737779 -0.781230 6.332002
1.529086 0.007606 6.332002
-1.425414 -1.497320 6.332002
-0.206068 -2.258480 6.332002
1.562438 -0.042605 6.332002
1.483391 0.049723 6.332002
1.713743 -0.659374 6.332002
-0.040492 -2.280513 6.332002
1.436758 0.073947 6.332002
1.728646 -0.688902 6.332002
1.352842 0.142052 6.332002
-0.225148 -2.249870 6.332002
1.159774 0.319473 6.332002
1.155361 0.326708 6.332002
-1.474347 -1.427527 6.332002
1.067446 0.382971 6.332002
-1.517743 -1.356617 6.332002
1.043417 0.419036 6.332002
1.252102 0.222789 6.332002
1.219244 0.234380 6.332002
1.344430 0.154016 6.332002
-0.686789 -2.073824 6.330118
1.436758 -1.612183 6.277309
-1.794727 -0.965886 6.292381
-1.333086 -1.704511 6.320990
1.529086 -1.519855 6.307870
-1.610071 -1.242871 6.327127
0.605805 -2.258480 6.281662
-1.148430 -1.796840 6.265807
1.621415 -0.504245 6.292120
1.713743 -0.596574 6.293100
1.621415 -1.519855 6.242025
-0.871446 -1.981496 6.249309
1.713743 -0.504245 6.255806
0.790461 0.696021 6.315721
-1.425414 0.511364 6.319998
-0.963774 -1.889168 6.288882
-0.225148 0.880677 6.330859
0.882789 -2.073824 6.276020
1.713743 -0.411917 6.251292
-0.779117 -1.981496 6.288286
-1.425414 0.603692 6.282268
1.621415 -1.427527 6.304255
-1.333086 0.603692 6.309158
-0.409805 0.973005 6.312235
0.051836 0.973005 6.287007
1.806071 -0.504245 6.247932
-1.333086 0.696021 6.277935
-0.317477 0.973005 6.262456
1.713743 -1.335199 6.302310
-1.240758 0.696021 6.293789
-1.794727 -0.227261 6.257465
-0.409805 -2.166152 6.322134
1.621415 -0.319589 6.286108
0.882789 0.603692 6.284200
-1.148430 0.788349 6.278731
-0.132820 -2.258480 6.287350
0.975118 0.603692 6.330806
1.713743 -1.242871 6.320268
-1.056102 0.788349 6.324139
1.621415 -0.227261 6.262664
0.882789 0.696021 6.317024
1.529086 0.049723 6.279147
1.713743 -1.150543 6.314929
1.436758 0.142052 6.264798
-0.963774 0.880677 6.250933
-0.871446 0.880677 6.325660
1.806071 -1.242871 6.257546
1.159774 0.326708 6.304312
-0.779117 0.880677 6.324063
1.806071 -1.150543 6.274942
1.252102 0.234380 6.281782
1.898399 -1.150543 6.247454
-1.610071 0.142052 6.246242
-0.779117 0.973005 6.248830
1.713743 -1.058214 6.240170
1.713743 -0.965886 6.300861
-1.610071 0.234380 6.284371
-1.610071 0.326708 6.242124
-1.517743 0.419036 6.296753
1.713743 -0.873558 6.304782
1.806071 -0.781230 6.277589
1.806071 -0.688902 6.278181
0.190328 0.909297 6.424330
0.148289 0.926841 6.424330
0.236492 0.898247 6.424330
0.144164 0.931822 6.424330
0.282656 0.897181 6.424330
0.328820 0.897977 6.424330
-0.686789 -2.081696 6.424330
-1.186033 0.511364 6.424330
-1.610071 -1.233888 6.424330
-1.863024 -0.227261 6.424330
0.051836 -2.281999 6.424330
-1.148430 0.597302 6.424330
-1.669249 -1.150543 6.424330
1.529086 -1.354197 6.424330
1.529086 -0.082467 6.424330
1.551296 -1.335199 6.424330
-1.517743 -1.323992 6.424330
-0.696585 -2.073824 6.424330
-1.146773 0.603692 6.424330
-1.597539 -1.242871 6.424330
-1.056102 0.681889 6.424330
1.463644 -0.042605 6.424330
-1.240758 -1.726431 6.424330
0.968520 0.511364 6.424330
-1.261728 -1.704511 6.424330
-1.026395 0.696021 6.424330
-1.510559 -1.335199 6.424330
-1.833413 -0.134933 6.424330
-1.056102 -1.866565 6.424330
0.975118 0.583963 6.424330
1.344430 0.002596 6.424330
-0.963774 0.716709 6.424330
-1.794727 -0.093007 6.424330
-1.124333 -1.796840 6.424330
-0.871446 0.740745 6.424330
1.281743 0.049723 6.424330
0.975118 0.610419 6.424330
-1.682354 -1.058214 6.424330
-1.711650 -0.042605 6.424330
-1.148430 -1.783097 6.424330
-0.779117 0.750822 6.424330
0.912282 0.696021 6.424330
-1.702399 -0.039069 6.424330
0.513477 -2.300597 6.424330
1.599055 -1.242871 6.424330
-1.702399 -1.034719 6.424330
-0.737996 0.788349 6.424330
-1.610071 0.038092 6.424330
1.261712 0.142052 6.424330
1.621415 -1.160680 6.424330
0.605805 -2.258520 6.424330
-0.686789 0.840767 6.424330
0.975675 0.603692 6.424330
-1.757689 -0.965886 6.424330
-0.963774 -1.923022 6.424330
1.436758 -0.028701 6.424330
1.622643 -1.150543 6.424330
-1.005822 -1.889168 6.424330
0.605901 -2.258480 6.424330
-0.871446 -1.945663 6.424330
-1.603321 0.049723 6.424330
1.662098 -1.058214 6.424330
0.790461 0.713572 6.424330
-0.648251 0.880677 6.424330
-0.779117 -1.998770 6.424330
-1.557604 0.142052 6.424330
1.670020 -0.965886 6.424330
-1.794727 -0.907319 6.424330
0.882789 0.736584 6.424330
0.698133 -2.211116 6.424330
-0.317477 0.873227 6.424330
-0.829352 -1.981496 6.424330
-1.813692 -0.873558 6.424330
1.067446 0.320634 6.424330
1.713743 -0.892947 6.424330
-1.517743 0.213762 6.424330
0.777611 -2.166152 6.424330
1.062721 0.326708 6.424330
1.713743 -0.804073 6.424330
-1.499037 0.234380 6.424330
0.790461 -2.161571 6.424330
1.688196 -0.781230 6.424330
-0.348751 0.880677 6.424330
-0.594461 -2.120950 6.424330
-1.445349 0.326708 6.424330
1.594179 -0.227261 6.424330
-1.832717 -0.688902 6.424330
-1.425414 0.376085 6.424330
1.159774 0.273369 6.424330
1.587278 -0.134933 6.424330
-0.317477 -2.248447 6.424330
-0.225148 0.830371 6.424330
1.723411 -0.873558 6.424330
0.882789 -2.142311 6.424330
-0.387163 -2.166152 6.424330
-1.887055 -0.648516 6.424330
-0.409805 -2.151264 6.424330
1.655910 -0.688902 6.424330
0.975118 -2.075392 6.424330
-1.414988 0.419036 6.424330
0.975118 0.502762 6.424330
1.623235 -0.596574 6.424330
-0.225148 -2.296307 6.424330
-1.333086 0.474931 6.424330
-0.309515 -2.258480 6.424330
0.976588 -2.073824 6.424330
-1.240758 0.496365 6.424330
1.027454 0.419036 6.424330
-0.132820 -2.287264 6.424330
1.621415 -0.590397 6.424330
-1.908141 -0.596574 6.424330
-0.040492 -2.280177 6.424330
1.581374 -0.504245 6.424330
1.017247 -1.981496 6.424330
1.252102 0.167315 6.424330
-1.425414 -1.460092 6.424330
1.610055 -0.411917 6.424330
1.067446 -1.940096 6.424330
1.209574 0.234380 6.424330
-1.446547 -1.427527 6.424330
1.137305 -1.889168 6.424330
1.615757 -0.319589 6.424330
-1.887055 -0.510449 6.424330
1.159774 -1.847874 6.424330
0.421149 0.876631 6.424330
-1.879537 -0.504245 6.424330
0.412928 0.880677 6.424330
1.212452 -1.796840 6.424330
1.252102 -1.762454 6.424330
0.513477 0.860413 6.424330
-0.040492 0.840886 6.424330
1.296245 -1.704511 6.424330
0.605805 0.841024 6.424330
-0.034374 0.880677 6.424330
-1.333086 -1.635234 6.424330
0.698133 0.711327 6.424330
-0.594461 0.922854 6.424330
1.305025 -1.612183 6.424330
-1.341823 -1.612183 6.424330
0.672820 0.788349 6.424330
-0.502133 0.940025 6.424330
1.344430 -1.576495 6.424330
-1.390934 -1.519855 6.424330
-0.409805 0.889135 6.424330
1.400044 -1.519855 6.424330
0.051836 0.933171 6.424330
1.436758 -1.478357 6.424330
1.472778 -1.427527 6.424330
-1.610071 -1.242871 6.353742
-1.333086 -1.704511 6.385589
1.529086 -1.427527 6.338104
-1.794727 -0.134933 6.359566
0.605805 -2.258480 6.424277
-1.517743 -1.335199 6.371942
1.621415 -1.335199 6.379283
-1.148430 -1.796840 6.394147
1.621415 -1.242871 6.412876
-1.610071 0.049723 6.372060
-1.333086 0.511364 6.365848
0.513477 0.880677 6.335471
-0.871446 -1.981496 6.407095
1.529086 -0.042605 6.379633
0.975118 -2.073824 6.418314
-1.887055 -0.596574 6.368125
-1.240758 0.511364 6.401896
1.713743 -0.873558 6.388628
-1.240758 0.603692 6.345693
0.882789 0.603692 6.345458
1.713743 -0.781230 6.395621
-1.517743 0.234380 6.403060
0.975118 0.511364 6.413969
1.344430 0.049723 6.364398
-1.148430 0.603692 6.422768
1.713743 -0.688902 6.351287
-1.517743 0.326708 6.351336
-1.148430 0.696021 6.345370
1.344430 0.142052 6.337497
-1.056102 0.696021 6.409858
-1.333086 -1.612183 6.336388
1.621415 -0.411917 6.364094
1.621415 -0.227261 6.361306
1.436758 0.049723 6.350384
1.252102 -1.796840 6.363722
-1.425414 0.419036 6.391961
-0.225148 -2.258480 6.338988
-0.963774 0.788349 6.361839
1.344430 -1.704511 6.337949
-0.871446 0.788349 6.368787
1.067446 0.326708 6.411912
-0.779117 0.788349 6.400149
1.344430 -1.612183 6.362159
-0.686789 0.880677 6.385401
1.436758 -1.519855 6.344415
-0.317477 0.880677 6.420471
0.051836 0.973005 6.375670
-0.132820 0.880677 6.348463
-0.040492 0.880677 6.411841
0.190328 0.833223 6.470494
0.188081 0.834513 6.470494
0.236180 0.834513 6.470494
0.190328 0.846015 6.470494
0.236492 0.873087 6.470494
0.208047 0.880677 6.470494
0.259432 0.880677 6.470494
0.328820 0.875490 6.470494
0.313516 0.880677 6.470494
0.144164 0.904772 6.470494
0.190328 0.889622 6.470494
0.282656 0.906530 6.470494
0.190328 0.834513 6.467402
0.236492 0.880677 6.461191
0.328820 0.880677 6.463618
0.144164 0.926841 6.426279
0.190328 0.851428 6.516658
0.167183 0.880677 6.516658
0.236492 0.874542 6.516658
0.282656 0.864441 6.516658
0.328820 0.854159 6.516658
0.190328 0.909144 6.516658
0.204596 0.926841 6.516658
0.144164 0.930427 6.516658
0.190328 0.940839 6.516658
0.190328 0.834513 6.512301
0.190328 0.880677 6.475657
0.282656 0.880677 6.478082
0.144164 0.926841 6.489809
0.190328 0.926841 6.493620
-1.794727 -0.967999 6.516658
-1.056102 -1.822211 6.516658
1.529086 -1.271983 6.516658
-1.798989 -0.965886 6.516658
0.144164 -2.262659 6.516658
-1.089793 -1.796840 6.516658
1.544715 -1.242871 6.516658
0.121183 -2.258480 6.516658
-1.610071 -1.256361 6.516658
1.575212 -1.150543 6.516658
-1.625815 -1.242871 6.516658
-1.820060 -0.227261 6.516658
1.575876 -1.058214 6.516658
-1.660135 -1.150543 6.516658
1.344430 -0.057539 6.516658
-1.794727 -0.138252 6.516658
-1.148430 -1.743683 6.516658
1.603228 -0.965886 6.516658
1.329790 -0.042605 6.516658
-1.524410 -1.335199 6.516658
-1.214080 -1.704511 6.516658
0.546797 0.880677 6.516658
-1.170251 0.511364 6.516658
-1.702399 -1.073095 6.516658
1.574741 -0.873558 6.516658
0.605805 0.907085 6.516658
-0.871446 -1.920310 6.516658
-1.708926 -1.058214 6.516658
1.581495 -0.781230 6.516658
1.529086 -0.177824 6.516658
-1.148430 0.516371 6.516658
0.686617 0.880677 6.516658
-1.824525 -0.873558 6.516658
0.051836 -2.253922 6.516658
-0.947440 -1.889168 6.516658
1.604603 -0.688902 6.516658
-1.836603 -0.781230 6.516658
1.494377 -0.134933 6.516658
-1.073548 0.603692 6.516658
0.513477 -2.281137 6.516658
-0.779117 -1.987112 6.516658
-1.792297 -0.134933 6.516658
-1.873009 -0.688902 6.516658
-0.786093 -1.981496 6.516658
0.605805 -2.259041 6.516658
0.790461 0.598366 6.516658
-1.887055 -0.647994 6.516658
1.621415 -0.626194 6.516658
0.606144 -2.258480 6.516658
-0.686789 -2.059875 6.516658
-1.889308 -0.596574 6.516658
-1.056102 0.615615 6.516658
0.882789 0.594012 6.516658
1.621581 -0.596574 6.516658
1.436758 -0.102723 6.516658
0.698133 -2.223909 6.516658
-0.963774 -1.865061 6.516658
-1.887055 -0.571590 6.516658
0.790461 -2.244808 6.516658
0.958240 0.511364 6.516658
1.621415 -0.595179 6.516658
-0.317477 -2.269280 6.516658
1.599066 -0.504245 6.516658
0.882789 -2.182001 6.516658
-1.861443 -0.504245 6.516658
-0.963774 0.657626 6.516658
0.790461 0.620921 6.516658
0.909612 -2.166152 6.516658
1.587949 -0.411917 6.516658
1.252102 0.030845 6.516658
-0.330215 -2.258480 6.516658
0.882789 0.628345 6.516658
1.571027 -0.319589 6.516658
0.975118 -2.080498 6.516658
-0.871446 0.665393 6.516658
-0.594461 -2.123211 6.516658
1.556927 -0.227261 6.516658
0.978727 -2.073824 6.516658
1.232147 0.049723 6.516658
-0.669583 -2.073824 6.516658
0.898107 0.696021 6.516658
-1.240758 -1.667723 6.516658
1.034839 -1.981496 6.516658
1.185483 0.142052 6.516658
-1.318489 -1.612183 6.516658
-1.333086 -1.604424 6.516658
0.790461 0.730135 6.516658
1.067446 -1.941776 6.516658
1.159774 0.181020 6.516658
-1.389475 -1.519855 6.516658
-1.715835 -0.042605 6.516658
1.102456 -1.889168 6.516658
0.882789 0.728733 6.516658
-0.779117 0.684234 6.516658
1.132824 0.234380 6.516658
-1.702399 -0.029512 6.516658
-1.425414 -1.468623 6.516658
-0.370115 -2.166152 6.516658
1.159774 -1.832616 6.516658
1.088200 0.326708 6.516658
-1.640139 0.049723 6.516658
-0.761618 0.696021 6.516658
1.204508 -1.796840 6.516658
-0.409805 -2.137519 6.516658
-1.610071 0.105706 6.516658
1.252102 -1.743713 6.516658
0.975118 0.479528 6.516658
1.303487 -1.704511 6.516658
-0.686789 0.746632 6.516658
-1.578234 0.142052 6.516658
-0.225148 -2.283488 6.516658
1.068177 0.419036 6.516658
-1.517743 0.227552 6.516658
1.344430 -1.623250 6.516658
-0.132820 -2.308824 6.516658
-1.509232 0.234380 6.516658
1.350034 -1.612183 6.516658
-0.594461 0.734239 6.516658
-1.425414 0.285316 6.516658
1.403870 -1.519855 6.516658
1.067446 0.419535 6.516658
-0.051506 -2.258480 6.516658
1.436758 -1.439632 6.516658
-0.517647 0.788349 6.516658
1.441921 -1.427527 6.516658
-1.396705 0.326708 6.516658
-0.040492 -2.254203 6.516658
1.495015 -1.335199 6.516658
-0.502133 0.816749 6.516658
-1.333086 0.401190 6.516658
0.051836 0.867737 6.516658
-1.307037 0.419036 6.516658
-0.409805 0.791089 6.516658
0.065058 0.880677 6.516658
-1.240758 0.490167 6.516658
-0.317477 0.795940 6.516658
-1.455734 -1.427527 6.516658
0.421149 0.833834 6.516658
-1.517743 -1.343692 6.516658
-0.225148 0.800694 6.516658
0.788032 0.603692 6.516658
0.513477 0.857918 6.516658
-0.040492 0.857107 6.516658
0.739582 0.788349 6.516658
0.698133 0.867358 6.516658
0.051836 -2.258480 6.499543
-1.794727 -0.134933 6.514968
-1.794727 -0.965886 6.503905
1.529086 -1.335199 6.447124
-0.686789 -2.073824 6.477740
-1.610071 -1.242871 6.477713
-1.610071 0.049723 6.472882
1.621415 -1.150543 6.425861
-1.240758 -1.704511 6.459197
0.790461 -2.166152 6.434147
-1.517743 -1.335199 6.500731
1.621415 -1.058214 6.468878
-0.963774 -1.889168 6.483924
-1.702399 -1.058214 6.490453
0.882789 -2.166152 6.448666
1.344430 -0.042605 6.494012
-0.963774 0.696021 6.450671
1.621415 -0.965886 6.502614
-1.425414 0.326708 6.439103
0.605805 0.880677 6.485476
1.529086 -0.134933 6.472451
-0.871446 0.696021 6.460049
1.436758 -0.042605 6.434321
1.621415 -0.873558 6.490905
-0.317477 -2.258480 6.434695
-0.779117 0.696021 6.501882
1.713743 -0.873558 6.442362
1.252102 0.049723 6.487401
1.621415 -0.781230 6.474749
0.790461 0.603692 6.500845
1.252102 0.142052 6.450546
-0.686789 0.788349 6.486870
1.344430 -1.612183 6.515052
-0.040492 -2.258480 6.502036
1.621415 -0.688902 6.480896
-1.333086 0.419036 6.494261
0.882789 0.603692 6.511656
-1.333086 -1.612183 6.493502
1.159774 0.234380 6.491372
-0.594461 0.788349 6.480129
0.975118 0.603692 6.430777
1.067446 0.326708 6.433798
-0.594461 0.880677 6.501417
-0.502133 0.880677 6.502905
1.067446 0.419036 6.514694
-0.409805 0.880677 6.436200
0.051836 0.880677 6.494514
0.698133 0.788349 6.447923
0.282656 0.866011 6.562822
0.262247 0.880677 6.562822
0.328820 0.850370 6.562822
0.144164 0.902668 6.562822
0.190328 0.902936 6.562822
0.236492 0.899424 6.562822
0.190328 0.880677 6.539020
0.236492 0.880677 6.526260
0.144164 0.926841 6.530336
0.190328 0.926841 6.553950
0.144164 0.822748 6.608986
0.165728 0.834513 6.608986
0.144164 0.841006 6.608986
0.282656 0.865486 6.608986
0.249845 0.880677 6.608986
0.328820 0.846621 6.608986
0.190328 0.907763 6.608986
0.161415 0.926841 6.608986
0.236492 0.886394 6.608986
0.144164 0.930727 6.608986
0.144164 0.834513 6.594978
0.144164 0.926841 6.607839
-1.610071 -1.276586 6.608986
0.144164 -2.303082 6.608986
-1.056102 -1.760602 6.608986
1.475139 -1.335199 6.608986
0.056916 -2.258480 6.608986
-1.634662 -1.242871 6.608986
-1.131748 -1.704511 6.608986
-1.714478 -0.042605 6.608986
1.519569 -1.242871 6.608986
-1.699982 -1.150543 6.608986
-0.871446 -1.916984 6.608986
1.520668 -1.150543 6.608986
1.067446 0.327102 6.608986
-0.918566 -1.889168 6.608986
-0.693486 0.696021 6.608986
1.529086 -1.062582 6.608986
-1.569614 -1.335199 6.608986
-0.686789 -2.019760 6.608986
1.529086 -1.040675 6.608986
-0.686789 0.699075 6.608986
-0.754467 -1.981496 6.608986
0.421149 -2.290761 6.608986
1.509877 -0.965886 6.608986
-1.702399 -0.008045 6.608986
-1.702399 -1.144813 6.608986
0.051836 -2.257418 6.608986
-0.779117 -1.967890 6.608986
1.488367 -0.873558 6.608986
-1.733924 -1.058214 6.608986
0.502900 -2.258480 6.608986
-1.672970 0.049723 6.608986
-0.963774 -1.858640 6.608986
0.513477 -2.253613 6.608986
-1.035856 -1.796840 6.608986
1.483942 -0.781230 6.608986
-0.594461 0.687508 6.608986
-1.622918 0.142052 6.608986
0.605805 -2.227079 6.608986
-1.767436 -0.965886 6.608986
-0.674407 0.696021 6.608986
-0.594461 -2.090526 6.608986
0.698133 -2.226562 6.608986
-0.608377 -2.073824 6.608986
1.471177 -0.688902 6.608986
0.790461 -2.221228 6.608986
-1.610071 0.157995 6.608986
-0.502133 0.679301 6.608986
1.529086 -0.610716 6.608986
-1.794727 -0.907172 6.608986
-0.317477 -2.187790 6.608986
0.882789 -2.176145 6.608986
-1.517743 0.178715 6.608986
-1.809406 -0.873558 6.608986
-0.465214 0.696021 6.608986
1.529086 -0.433434 6.608986
0.924435 -2.166152 6.608986
1.514246 -0.411917 6.608986
-0.339579 -2.166152 6.608986
-1.444244 0.234380 6.608986
-1.807232 -0.781230 6.608986
1.470873 -0.319589 6.608986
-0.409805 -2.151627 6.608986
0.975118 -2.110939 6.608986
-0.409805 0.774088 6.608986
1.456130 -0.227261 6.608986
-1.425414 0.246164 6.608986
0.994195 -2.073824 6.608986
-0.225148 -2.242159 6.608986
-1.819445 -0.688902 6.608986
-0.317477 0.778189 6.608986
1.034461 -1.981496 6.608986
-0.132820 -2.246603 6.608986
1.531166 -1.058214 6.608986
1.067446 -1.922377 6.608986
-1.794727 -0.673866 6.608986
-0.040492 -2.249515 6.608986
1.090966 -1.889168 6.608986
-1.333086 0.298979 6.608986
1.548791 -0.596574 6.608986
1.159774 -1.834816 6.608986
-0.265294 0.788349 6.608986
1.230553 -1.796840 6.608986
1.561916 -0.504245 6.608986
-1.425414 -1.503263 6.608986
-0.225148 0.804890 6.608986
-1.484709 -1.427527 6.608986
-1.309223 0.326708 6.608986
1.252102 -1.783338 6.608986
-1.811602 -0.227261 6.608986
-1.517743 -1.389581 6.608986
1.321049 -1.704511 6.608986
1.344430 -1.640938 6.608986
1.357793 -1.612183 6.608986
-1.794727 -0.196685 6.608986
1.398668 -1.519855 6.608986
1.436758 -1.437698 6.608986
-1.240758 0.400449 6.608986
1.444350 -1.427527 6.608986
-1.733932 -0.134933 6.608986
-0.040492 0.858342 6.608986
-1.194957 0.419036 6.608986
-1.148430 0.441661 6.608986
-1.779206 -0.596574 6.608986
0.051836 0.867516 6.608986
-1.118996 0.511364 6.608986
-1.056102 0.563833 6.608986
-1.794727 -0.563440 6.608986
-1.845179 -0.504245 6.608986
1.159774 0.025433 6.608986
-0.963774 0.593429 6.608986
1.147792 0.049723 6.608986
-0.905888 0.603692 6.608986
1.140250 0.142052 6.608986
-0.871446 0.608298 6.608986
1.252102 -0.139184 6.608986
1.245873 -0.134933 6.608986
-0.779117 0.652356 6.608986
1.344430 -0.153490 6.608986
-1.240758 -1.630990 6.608986
1.218705 -0.042605 6.608986
-1.278922 -1.612183 6.608986
1.436758 -0.205742 6.608986
-1.333086 -1.576979 6.608986
-1.401675 -1.519855 6.608986
1.110087 0.234380 6.608986
-1.148430 -1.700916 6.608986
1.067660 0.326708 6.608986
1.035999 0.419036 6.608986
0.995278 0.511364 6.608986
0.083662 0.880677 6.608986
0.421149 0.850971 6.608986
0.790461 0.662503 6.608986
0.783376 0.696021 6.608986
0.513477 0.862172 6.608986
0.537986 0.880677 6.608986
0.698133 0.778718 6.608986
0.691228 0.788349 6.608986
0.790461 0.735441 6.608986
0.720873 0.788349 6.608986
0.698133 0.864104 6.608986
0.790461 0.835547 6.608986
0.773379 0.880677 6.608986
0.605805 0.923548 6.608986
0.640106 0.973005 6.608986
0.747193 0.973005 6.608986
0.698133 0.988678 6.608986
0.882789 0.541627 6.608986
0.818759 0.603692 6.608986
0.975118 0.524008 6.608986
0.882577 0.788349 6.608986
1.529086 -1.242871 6.590548
-1.610071 0.142052 6.568564
-0.594461 0.696021 6.587637
-1.056102 -1.796840 6.555135
0.513477 -2.258480 6.596905
-1.794727 -0.965886 6.549819
-1.148430 -1.704511 6.597281
0.605805 -2.258480 6.516959
1.529086 -1.150543 6.593447
0.975118 0.511364 6.546358
-0.502133 0.696021 6.570860
-1.333086 0.326708 6.585562
1.529086 -0.965886 6.580762
-0.779117 -1.981496 6.526060
-1.887055 -0.596574 6.520655
1.067446 0.419036 6.586191
1.529086 -0.873558 6.556335
-0.502133 0.788349 6.528512
-1.240758 0.419036 6.576910
-1.794727 -0.596574 6.584159
-0.317477 -2.258480 6.547112
1.529086 -0.781230 6.563653
-0.409805 0.788349 6.533586
1.159774 0.142052 6.534739
-1.148430 0.511364 6.524278
1.529086 -0.688902 6.579755
-0.317477 0.788349 6.561040
-0.225148 -2.258480 6.575750
-0.132820 -2.258480 6.586176
1.529086 -0.411917 6.599306
-1.056102 0.603692 6.536566
0.790461 0.603692 6.606103
1.529086 -0.319589 6.583028
0.790461 0.696021 6.548849
-0.963774 0.603692 6.598926
1.529086 -0.227261 6.568323
1.159774 0.049723 6.574640
0.698133 0.788349 6.542502
0.790461 0.788349 6.592530
1.252102 -0.134933 6.605251
0.698133 0.880677 6.526467
1.344430 -0.134933 6.596957
1.252102 -0.042605 6.581139
1.621415 -0.596574 6.518221
0.698133 0.973005 6.570763
1.436758 -0.134933 6.583955
0.882789 0.696021 6.524173
0.281469 0.788349 6.655150
0.282656 0.789807 6.655150
0.282725 0.788349 6.655150
0.282656 0.875486 6.655150
0.272740 0.880677 6.655150
0.328820 0.846374 6.655150
0.144164 0.908084 6.655150
0.190328 0.899303 6.655150
0.236492 0.912134 6.655150
0.144164 0.834513 6.639958
0.282656 0.788349 6.653609
0.144164 0.926841 6.629972
0.236492 0.876760 6.701314
0.221241 0.880677 6.701314
0.282656 0.865247 6.701314
0.328820 0.845842 6.701314
0.144164 0.904379 6.701314
0.190328 0.889692 6.701314
0.236492 0.880677 6.696074
0.282656 0.788349 6.690945
0.975118 0.490120 6.701314
-0.686789 0.586225 6.701314
-1.610071 -1.237996 6.701314
0.955220 0.511364 6.701314
-0.594461 0.602398 6.701314
-1.669964 -1.150543 6.701314
-1.709421 -0.042605 6.701314
1.459268 -1.335199 6.701314
-1.056102 -1.799089 6.701314
-1.702399 -0.031270 6.701314
-1.553825 -1.335199 6.701314
1.472889 -1.242871 6.701314
1.067446 0.386340 6.701314
-1.601688 -1.242871 6.701314
-1.659756 0.049723 6.701314
-1.058828 -1.796840 6.701314
1.514864 -1.150543 6.701314
1.044013 0.419036 6.701314
1.496084 -1.058214 6.701314
-1.686255 -1.058214 6.701314
-1.148430 -1.709658 6.701314
1.468778 -0.965886 6.701314
-1.702399 -0.981781 6.701314
-1.708653 -0.965886 6.701314
-1.150624 -1.704511 6.701314
1.109650 0.326708 6.701314
1.442377 -0.873558 6.701314
-0.591904 0.603692 6.701314
1.436758 -0.863244 6.701314
-1.794727 -0.798163 6.701314
-1.614734 0.142052 6.701314
1.410980 -0.781230 6.701314
-1.804031 -0.781230 6.701314
-0.503188 0.696021 6.701314
1.159774 0.182307 6.701314
1.418419 -0.688902 6.701314
-1.610071 0.156242 6.701314
-1.808753 -0.688902 6.701314
-0.963774 -1.917103 6.701314
1.419755 -0.596574 6.701314
-1.815970 -0.596574 6.701314
-1.517743 0.191441 6.701314
1.173975 0.234380 6.701314
-0.502133 0.696343 6.701314
-0.996267 -1.889168 6.701314
1.408492 -0.504245 6.701314
-1.752503 -0.873558 6.701314
-1.425414 0.205389 6.701314
1.159774 0.270035 6.701314
1.383010 -0.411917 6.701314
-0.409805 0.716781 6.701314
1.252102 -0.239594 6.701314
-1.830084 -0.504245 6.701314
1.233024 -0.227261 6.701314
-1.333086 0.168863 6.701314
-0.317477 0.717106 6.701314
-1.842333 -0.411917 6.701314
1.344430 -0.297455 6.701314
-1.293272 0.234380 6.701314
0.421149 0.832454 6.701314
1.358723 -0.319589 6.701314
-0.871446 -1.962647 6.701314
-1.240758 0.292727 6.701314
-1.842790 -0.319589 6.701314
-0.247931 0.788349 6.701314
-1.148430 0.301435 6.701314
-1.820891 -0.227261 6.701314
0.513477 0.688313 6.701314
-0.779117 -1.995447 6.701314
-1.080538 0.326708 6.701314
-0.225148 0.802405 6.701314
-1.794727 -0.191154 6.701314
0.484457 0.696021 6.701314
-0.823165 -1.981496 6.701314
-1.056102 0.395574 6.701314
-1.240758 -1.634816 6.701314
-0.132820 0.838392 6.701314
-1.283185 -1.612183 6.701314
0.595152 0.696021 6.701314
-1.739917 -0.134933 6.701314
-0.963774 0.364425 6.701314
-1.333086 -1.573120 6.701314
-0.686789 -2.067562 6.701314
-1.371861 -1.519855 6.701314
-0.871446 0.326776 6.701314
0.513477 0.699895 6.701314
-0.040492 0.828921 6.701314
-0.779117 0.362155 6.701314
-1.425414 -1.458057 6.701314
0.455647 0.880677 6.701314
-0.701235 0.419036 6.701314
0.043191 0.880677 6.701314
-0.594461 -2.085457 6.701314
-0.706044 0.511364 6.701314
-0.648481 -2.073824 6.701314
0.051836 0.885078 6.701314
0.513477 0.909505 6.701314
-0.317477 -2.173555 6.701314
0.051836 -2.266264 6.701314
0.605805 0.911983 6.701314
1.159774 0.093698 6.701314
-0.360858 -2.166152 6.701314
0.144164 -2.279719 6.701314
1.157984 0.142052 6.701314
0.698133 0.926192 6.701314
-0.409805 -2.159628 6.701314
0.790461 0.906648 6.701314
1.200073 -0.134933 6.701314
-0.027615 -2.258480 6.701314
1.175357 -0.042605 6.701314
0.882789 0.553529 6.701314
0.421149 -2.275516 6.701314
0.816243 0.603692 6.701314
1.167551 0.049723 6.701314
0.482604 -2.258480 6.701314
0.806726 0.696021 6.701314
0.605805 -2.263479 6.701314
0.811417 0.788349 6.701314
0.566019 -2.258480 6.701314
-0.040492 -2.255661 6.701314
0.802750 0.880677 6.701314
0.623613 -2.258480 6.701314
0.513477 -2.254403 6.701314
-1.459455 -1.427527 6.701314
0.698133 -2.220595 6.701314
-1.517743 -1.379833 6.701314
0.786394 -2.166152 6.701314
0.790461 -2.163769 6.701314
0.882789 -2.139281 6.701314
0.975118 -2.074151 6.701314
0.976123 -2.073824 6.701314
1.056109 -1.981496 6.701314
1.067446 -1.969073 6.701314
1.159774 -1.889798 6.701314
1.160230 -1.889168 6.701314
1.252102 -1.823620 6.701314
1.300770 -1.796840 6.701314
1.344430 -1.746271 6.701314
1.371644 -1.704511 6.701314
1.425793 -1.612183 6.701314
1.436758 -1.575587 6.701314
1.443593 -1.519855 6.701314
1.455560 -1.427527 6.701314
0.051836 -2.258480 6.697804
0.975118 0.511364 6.676416
-1.056102 -1.796840 6.699153
1.529086 -1.058214 6.614225
-0.686789 0.696021 6.625032
