-1.297438 2.109731 4.921570
0.022289 2.667881 4.921570
-0.630875 -1.602327 4.921570
-1.282050 2.118513 4.921570
-0.537850 -1.585709 4.921570
-1.189025 2.158692 4.921570
1.351777 2.016706 4.921570
-1.108432 2.202755 4.921570
-0.165751 -1.625067 4.921570
1.374881 2.109731 4.921570
-0.210237 -1.611268 4.921570
-1.096000 2.209556 4.921570
1.352137 2.202755 4.921570
-0.351800 -1.560488 4.921570
1.322649 2.335707 4.921570
-0.258775 -1.581908 4.921570
-1.002975 2.243419 4.921570
1.332858 2.295781 4.921570
-0.941418 2.295781 4.921570
-0.072725 -1.628958 4.921570
-0.909950 2.320796 4.921570
1.135687 2.574855 4.921570
-0.827362 2.388805 4.921570
0.857524 2.752681 4.921570
-0.816925 2.395103 4.921570
0.950549 2.731445 4.921570
1.043574 2.683461 4.921570
0.113324 -1.611268 4.880487
-2.398349 -0.960093 4.893234
-2.026250 1.179481 4.873976
0.764499 -0.587993 4.843988
0.206349 -1.611268 4.829732
1.136599 2.574855 4.884518
0.857524 -0.401943 4.869686
-2.398349 -0.681018 4.870322
-2.305324 -1.146142 4.869069
-0.537850 2.481831 4.883187
-1.840199 1.458556 4.849030
-2.398349 -0.587993 4.897674
0.299374 -1.518243 4.914031
0.950549 0.156207 4.896187
0.206349 2.853930 4.839336
-2.305324 -0.494968 4.839732
-2.119275 -1.332192 4.842789
-1.561125 1.923681 4.837994
0.485424 -1.425218 4.884250
0.206349 2.946955 4.917037
1.043574 0.249232 4.886229
-2.305324 -0.401943 4.909746
0.020299 2.667881 4.916881
0.578449 -1.425218 4.841493
-1.747175 -1.518243 4.870617
-2.212299 -0.308918 4.879052
-2.212299 0.528306 4.911735
0.671474 -1.332192 4.859494
-1.002975 2.295781 4.833050
-2.212299 -0.215893 4.886380
-2.119275 0.807381 4.845576
-2.119275 0.900406 4.892337
0.764499 -1.239168 4.862256
0.857524 2.760906 4.889464
1.415674 1.644606 4.877006
0.764499 -1.146142 4.910578
-2.212299 -0.122868 4.864376
-1.189025 -1.611268 4.866042
1.415674 1.737631 4.850658
-1.096000 -1.611268 4.895772
0.857524 -1.053118 4.891927
-0.909950 -1.611268 4.840473
-0.816925 -1.611268 4.903959
-0.723900 -1.611268 4.919693
0.857524 -0.867068 4.906172
-0.630875 -1.611268 4.908215
-0.537850 -1.611268 4.883480
-0.351800 -1.611268 4.860950
-0.258775 -1.611268 4.882341
0.859724 -0.308918 4.968082
0.877889 -0.262405 4.968082
0.892469 -0.215893 4.968082
0.904037 -0.169871 4.968082
0.904136 -0.169381 4.968082
0.950549 -0.125157 4.968082
0.950549 -0.055171 4.968082
0.904589 -0.029843 4.968082
0.952233 -0.122868 4.968082
0.960779 -0.076356 4.968082
0.904037 -0.215893 4.943110
0.950549 -0.122868 4.966201
0.950549 -0.076356 4.963897
0.997061 -0.122868 4.936975
0.849720 -0.308918 5.014595
0.854902 -0.262405 5.014595
0.857524 -0.253681 5.014595
0.870099 -0.215893 5.014595
0.875926 -0.169381 5.014595
0.891986 -0.122868 5.014595
0.857524 -0.049018 5.014595
0.846379 -0.029843 5.014595
0.886532 -0.076356 5.014595
0.823164 -0.401943 5.014595
0.837305 -0.355431 5.014595
0.857524 -0.308918 4.978829
0.857524 -0.262405 5.008755
0.904037 -0.169381 4.968279
0.904037 -0.122868 4.997046
0.950549 -0.122868 4.972287
0.857524 -0.029843 4.999838
0.904037 -0.076356 4.981949
0.950549 -0.076356 4.985004
0.904037 -0.029843 4.968455
-2.212299 -1.243227 5.014595
0.764499 -0.559650 5.014595
-0.351800 -1.462465 5.014595
1.223808 2.388805 5.014595
0.785361 -0.494968 5.014595
-2.026250 1.135015 5.014595
1.229624 2.407166 5.014595
-2.222141 -1.239168 5.014595
-1.989512 1.179481 5.014595
1.252827 2.481831 5.014595
-0.723900 2.422972 5.014595
-1.933225 1.239822 5.014595
1.229624 2.527175 5.014595
-2.264675 -1.146142 5.014595
1.167731 2.574855 5.014595
-0.630875 2.418340 5.014595
0.020299 -1.560417 5.014595
-1.901064 1.272506 5.014595
0.857524 0.044638 5.014595
0.113324 -1.539532 5.014595
1.136599 2.604931 5.014595
-2.305324 -1.094804 5.014595
-0.537850 2.409363 5.014595
0.206349 -1.519189 5.014595
-0.258775 -1.483415 5.014595
0.898764 0.063182 5.014595
-2.325652 -1.053118 5.014595
0.217196 -1.518243 5.014595
-0.444825 2.454978 5.014595
-1.899328 1.365531 5.014595
0.020299 2.766290 5.014595
0.950549 0.096932 5.014595
0.113324 2.829623 5.014595
-0.208203 -1.518243 5.014595
0.299374 -1.504880 5.014595
0.144601 2.853930 5.014595
-2.360140 -0.960093 5.014595
-1.862652 1.458556 5.014595
0.382458 -1.425218 5.014595
0.997699 0.156207 5.014595
0.392399 -1.415251 5.014595
0.206349 2.901350 5.014595
-0.386493 2.481831 5.014595
-1.840199 1.487220 5.014595
-2.026250 -1.383906 5.014595
0.472470 -1.332192 5.014595
-2.398349 -0.794629 5.014595
0.299374 2.899196 5.014595
1.043574 0.213388 5.014595
-0.351800 2.496503 5.014595
-2.102151 -1.332192 5.014595
0.392399 2.882976 5.014595
-2.408345 -0.774043 5.014595
0.485424 -1.318334 5.014595
-1.774235 1.551581 5.014595
1.081883 0.249232 5.014595
-1.840199 -1.470697 5.014595
-0.258775 2.541281 5.014595
-2.383180 -0.867068 5.014595
0.578449 -1.240908 5.014595
-1.918239 -1.425218 5.014595
-1.747175 1.581076 5.014595
1.136599 0.292719 5.014595
0.485424 2.884430 5.014595
0.579972 -1.239168 5.014595
-0.210781 2.574855 5.014595
0.578449 2.861507 5.014595
0.660377 -1.146142 5.014595
-1.667339 1.644606 5.014595
-2.398349 -0.709019 5.014595
0.671474 2.831386 5.014595
0.671474 -1.134612 5.014595
-0.165751 2.624107 5.014595
-1.933225 -1.415767 5.014595
0.600351 2.853930 5.014595
0.763072 -1.053118 5.014595
-2.398349 -0.653573 5.014595
-1.654150 1.656819 5.014595
0.764499 2.802710 5.014595
-0.072725 2.644796 5.014595
-2.402765 -0.587993 5.014595
1.187663 0.342257 5.014595
0.764499 -1.048754 5.014595
0.844285 2.760906 5.014595
-1.596899 1.737631 5.014595
-1.561125 -1.533723 5.014595
-0.034547 2.667881 5.014595
-2.398133 -0.681018 5.014595
-2.126863 0.528306 5.014595
-1.561125 1.785635 5.014595
0.771784 -0.960093 5.014595
-1.633356 -1.518243 5.014595
-2.156079 0.621331 5.014595
0.015622 2.760906 5.014595
-1.524886 1.830656 5.014595
-2.398349 -0.571427 5.014595
-1.468100 -1.551153 5.014595
-2.119275 0.712841 5.014595
0.764499 -0.901769 5.014595
-1.468100 1.900871 5.014595
-2.348037 -0.494968 5.014595
-2.117499 0.714356 5.014595
0.741181 -0.867068 5.014595
-1.747175 -1.492500 5.014595
-2.329890 -0.401943 5.014595
0.739082 -0.774043 5.014595
-1.453952 1.923681 5.014595
-2.119275 0.714868 5.014595
-1.654150 -1.514326 5.014595
1.508699 1.232522 5.014595
-2.305324 -0.342589 5.014595
-2.142429 0.807381 5.014595
0.732150 -0.681018 5.014595
1.495063 1.272506 5.014595
-1.401731 2.016706 5.014595
-2.119275 -1.318836 5.014595
-2.286535 -0.308918 5.014595
0.754321 -0.587993 5.014595
-2.126734 0.900406 5.014595
-2.212299 -0.216102 5.014595
1.464991 1.365531 5.014595
-1.375075 2.033514 5.014595
-2.119275 0.913154 5.014595
-1.375075 -1.554219 5.014595
1.461767 1.458556 5.014595
-1.294066 2.109731 5.014595
-2.212156 -0.215893 5.014595
-2.089799 0.993431 5.014595
-1.282050 -1.557456 5.014595
-1.282050 2.119665 5.014595
1.415674 1.532120 5.014595
-2.060181 1.086456 5.014595
-2.212299 -0.215590 5.014595
1.399767 1.551581 5.014595
-1.189025 2.169367 5.014595
-1.189025 -1.556494 5.014595
-2.223256 -0.122868 5.014595
-1.096000 2.189227 5.014595
1.358385 1.644606 5.014595
-1.096000 -1.555421 5.014595
-2.233545 -0.029843 5.014595
-1.068894 2.202755 5.014595
1.341262 1.737631 5.014595
-0.909950 -1.548827 5.014595
-1.002975 2.251050 5.014595
-2.224968 0.063182 5.014595
1.322649 1.776057 5.014595
-0.951176 2.295781 5.014595
-0.816925 -1.543840 5.014595
-2.240170 0.156207 5.014595
-0.909950 2.340537 5.014595
-0.723900 -1.557352 5.014595
-2.274061 0.249232 5.014595
1.542262 1.086456 5.014595
-0.830997 2.388805 5.014595
-2.260865 0.342257 5.014595
-0.630875 -1.532567 5.014595
1.525892 1.179481 5.014595
-0.816925 2.391892 5.014595
-0.594190 -1.518243 5.014595
-2.229109 0.435282 5.014595
-2.212299 0.478810 5.014595
-0.537850 -1.503137 5.014595
1.317043 2.016706 5.014595
-0.444825 -1.486586 5.014595
1.322649 2.038393 5.014595
-0.165751 -1.535568 5.014595
1.338043 2.109731 5.014595
1.335885 2.202755 5.014595
-0.072725 -1.555557 5.014595
1.322649 2.264561 5.014595
1.315187 2.295781 5.014595
1.229624 2.379809 5.014595
0.857524 2.756592 5.014595
0.950549 2.719940 5.014595
1.057379 2.667881 5.014595
1.043574 2.675182 5.014595
1.315658 1.830656 5.014595
1.312201 1.923681 5.014595
0.020299 -1.611268 4.929323
-0.351800 -1.518243 4.972473
-1.933225 1.272506 4.935126
-0.258775 -1.518243 4.970121
-1.933225 -1.425218 4.972551
0.392399 -1.425218 4.977897
-1.840199 1.458556 4.984117
0.485424 -1.332192 4.994759
-1.654150 -1.518243 4.990838
-0.444825 2.481831 4.966478
1.229624 2.388805 4.991366
0.578449 -1.332192 4.945803
-2.398349 -0.867068 4.959447
1.136599 2.574855 4.925756
-0.258775 2.574855 4.943766
0.671474 -1.239168 4.923221
1.136599 2.667881 4.931185
-2.119275 0.714356 5.012171
-2.398349 -0.681018 5.012193
-0.072725 2.667881 4.942242
0.206349 2.946955 4.924276
0.020299 2.667881 4.977030
-0.537850 -1.518243 4.993813
-1.468100 1.923681 4.982400
0.671474 -1.146142 4.998445
-0.444825 -1.518243 4.971726
-2.119275 0.807381 4.985019
-2.212299 -0.215893 5.014385
0.764499 -1.053118 5.013880
1.415674 1.551581 4.970588
-2.119275 0.900406 4.992872
-0.165751 -1.611268 4.940828
0.857524 -0.960093 4.940250
1.322649 1.830656 5.000020
-0.072725 -1.611268 4.944230
0.764499 -0.867068 5.004248
-1.096000 2.202755 4.945677
0.764499 -0.774043 4.963422
1.322649 2.016706 4.999978
1.322649 2.295781 4.955828
0.795780 -0.401943 5.061107
0.810889 -0.355431 5.061107
0.811011 -0.355103 5.061107
0.818012 -0.308918 5.061107
0.835847 -0.262405 5.061107
0.832193 -0.215893 5.061107
0.895467 -0.308918 5.061107
0.904037 -0.278675 5.061107
0.921980 -0.308918 5.061107
0.826071 -0.169381 5.061107
0.857524 -0.143957 5.061107
0.867602 -0.122868 5.061107
0.811011 -0.120626 5.061107
0.807087 -0.076356 5.061107
0.857524 -0.078864 5.061107
0.811011 -0.063909 5.061107
0.833654 -0.029843 5.061107
0.811011 -0.401943 5.032427
0.811011 -0.355431 5.060924
0.857524 -0.215893 5.030046
0.904037 -0.308918 5.034973
0.857524 -0.169381 5.034373
0.811011 -0.076356 5.057799
0.857524 -0.076356 5.039953
0.766347 -0.401943 5.107620
0.779569 -0.355431 5.107620
0.799978 -0.308918 5.107620
0.811011 -0.283933 5.107620
0.816164 -0.262405 5.107620
0.811011 -0.224719 5.107620
0.805298 -0.215893 5.107620
0.767245 -0.169381 5.107620
0.764499 -0.167658 5.107620
0.811011 -0.308918 5.084962
0.811011 -0.215893 5.096582
0.904037 -0.308918 5.088521
0.811011 -0.169381 5.073397
0.764499 -0.122868 5.083256
0.811011 -0.122868 5.061420
0.857524 -0.122868 5.071013
0.764499 -0.076356 5.083389
0.764499 -0.029843 5.086855
0.811011 -0.029843 5.078564
-2.212299 -1.218086 5.107620
0.764499 -0.434467 5.107620
-1.970918 1.272506 5.107620
0.020299 -1.498212 5.107620
-0.486444 2.388805 5.107620
0.113324 -1.477112 5.107620
-0.444825 2.407432 5.107620
-2.345747 -0.960093 5.107620
-1.950823 1.365531 5.107620
0.734913 -0.122868 5.107620
-2.344619 -0.867068 5.107620
0.206349 -1.450005 5.107620
-0.351800 2.462040 5.107620
-1.933225 1.391038 5.107620
0.745201 -0.029843 5.107620
-2.375086 -0.774043 5.107620
-0.258775 2.475029 5.107620
-2.274624 -1.146142 5.107620
0.299374 -1.455429 5.107620
-1.880122 1.458556 5.107620
-0.238713 2.481831 5.107620
0.764499 -0.006274 5.107620
-2.294034 -1.053118 5.107620
-0.165751 2.572675 5.107620
0.362822 -1.425218 5.107620
-2.305324 -1.031442 5.107620
-2.361854 -0.681018 5.107620
0.857524 2.748608 5.107620
0.392399 -1.408386 5.107620
0.855371 0.063182 5.107620
-2.026250 -1.423881 5.107620
-2.393634 -0.587993 5.107620
-0.163594 2.574855 5.107620
0.831964 2.760906 5.107620
-1.840199 1.512476 5.107620
-2.105483 -1.332192 5.107620
0.857524 0.065377 5.107620
-0.072725 2.622377 5.107620
0.437391 -1.332192 5.107620
0.950549 2.685115 5.107620
-1.933225 -1.427997 5.107620
-0.029194 2.667881 5.107620
-2.354670 -0.494968 5.107620
-2.006569 -1.425218 5.107620
0.950549 0.075529 5.107620
1.043574 2.639165 5.107620
-1.840199 -1.473007 5.107620
0.020299 2.714402 5.107620
-1.747175 -1.503380 5.107620
-2.339725 -0.401943 5.107620
-1.796046 1.551581 5.107620
-1.654150 -1.510114 5.107620
0.991621 0.156207 5.107620
0.485424 -1.270682 5.107620
-2.119275 -1.319322 5.107620
1.508699 1.217741 5.107620
-2.311864 -0.308918 5.107620
-1.747175 1.598481 5.107620
-2.199394 -1.239168 5.107620
0.510992 -1.239168 5.107620
1.494202 1.272506 5.107620
-2.305324 -0.281758 5.107620
0.968144 2.667881 5.107620
-1.698552 1.644606 5.107620
0.559981 -1.146142 5.107620
1.472624 1.365531 5.107620
-2.212299 -0.240620 5.107620
-0.909950 -1.499370 5.107620
1.043574 0.214209 5.107620
1.134720 2.667881 5.107620
1.441579 1.458556 5.107620
-0.816925 -1.468902 5.107620
0.578449 -1.118689 5.107620
-1.654150 1.686501 5.107620
-0.723900 -1.435156 5.107620
1.322649 1.642028 5.107620
1.080360 0.249232 5.107620
1.136599 2.668570 5.107620
-2.191316 -0.215893 5.107620
0.621899 -1.053118 5.107620
1.321618 1.644606 5.107620
-1.609777 1.737631 5.107620
-0.630875 -1.470313 5.107620
1.415674 1.483590 5.107620
1.136599 0.296266 5.107620
0.671054 -0.960093 5.107620
-0.537850 -1.428639 5.107620
1.369520 1.551581 5.107620
-1.561125 1.782099 5.107620
-2.212299 -0.101897 5.107620
1.281024 2.388805 5.107620
-0.444825 -1.431219 5.107620
-1.517990 1.830656 5.107620
1.239481 2.481831 5.107620
1.275515 1.737631 5.107620
-2.221779 -0.029843 5.107620
1.275203 1.830656 5.107620
-0.351800 -1.449878 5.107620
1.229624 2.497797 5.107620
-1.468100 1.875796 5.107620
-2.159630 0.528306 5.107620
1.275756 1.923681 5.107620
-0.258775 -1.519063 5.107620
-2.230589 0.063182 5.107620
1.155729 2.574855 5.107620
1.137798 2.667881 5.107620
-0.260366 -1.518243 5.107620
-0.258330 -1.518243 5.107620
0.070018 2.760906 5.107620
-0.165751 -1.489185 5.107620
-2.131727 0.621331 5.107620
0.113324 2.803306 5.107620
1.291761 2.016706 5.107620
0.206349 2.821509 5.107620
-0.072725 -1.497075 5.107620
-2.126442 0.714356 5.107620
0.242914 2.853930 5.107620
-2.221446 0.156207 5.107620
-2.152898 0.807381 5.107620
0.671474 -0.959424 5.107620
-2.183164 0.900406 5.107620
0.299374 2.873508 5.107620
-1.416287 1.923681 5.107620
0.392399 2.875660 5.107620
-2.119275 0.931848 5.107620
-2.245890 0.249232 5.107620
0.690073 -0.867068 5.107620
-2.090837 0.993431 5.107620
-2.241069 0.342257 5.107620
1.530847 1.086456 5.107620
0.485424 2.860446 5.107620
-1.375075 1.998283 5.107620
-2.054853 1.086456 5.107620
0.691955 -0.774043 5.107620
1.516706 1.179481 5.107620
-2.214736 0.435282 5.107620
-1.363017 2.016706 5.107620
0.578449 2.878408 5.107620
-2.031917 1.179481 5.107620
0.690553 -0.681018 5.107620
-2.212299 0.437356 5.107620
0.671474 2.831377 5.107620
0.739044 -0.587993 5.107620
0.614641 2.853930 5.107620
-1.305819 2.109731 5.107620
-2.026250 1.189142 5.107620
-2.209513 -0.122868 5.107620
0.764499 2.797870 5.107620
0.760675 -0.494968 5.107620
-1.282050 2.149630 5.107620
1.291268 2.109731 5.107620
1.315112 2.202755 5.107620
-1.189025 2.169740 5.107620
-1.096000 2.201597 5.107620
1.322649 2.294765 5.107620
1.322649 2.311810 5.107620
-1.083491 2.202755 5.107620
1.326268 2.295781 5.107620
-1.002975 2.240955 5.107620
-0.969975 2.295781 5.107620
-0.909950 2.337382 5.107620
-0.816925 2.353111 5.107620
-0.723900 2.370749 5.107620
-0.681065 2.388805 5.107620
-0.537850 2.368916 5.107620
-0.576944 2.388805 5.107620
-0.630875 2.390773 5.107620
-0.537850 2.388805 5.057662
-2.398349 -0.774043 5.020868
-2.212299 -1.239168 5.034219
-1.933225 1.272506 5.065907
0.764499 -0.494968 5.100225
-0.351800 2.481831 5.052444
-1.933225 1.365531 5.071260
0.206349 -1.518243 5.015872
1.043574 2.667881 5.038673
-2.305324 -1.053118 5.055286
-2.398349 -0.587993 5.044260
1.136599 2.667881 5.105513
-0.258775 2.481831 5.091580
0.020299 -1.518243 5.077579
1.229624 2.388805 5.098948
0.857524 0.063182 5.100590
-0.165751 2.574855 5.103985
-1.933225 -1.425218 5.105851
0.113324 -1.518243 5.058734
0.020299 2.760906 5.024441
-2.305324 -0.308918 5.043678
0.206349 2.853930 5.081001
-1.375075 2.016706 5.068317
-2.119275 0.714356 5.095218
-0.909950 -1.518243 5.071745
0.578449 -1.239168 5.016013
-0.816925 -1.518243 5.052866
-2.026250 1.179481 5.091340
0.578449 -1.146142 5.082401
-2.212299 -0.122868 5.077145
-0.723900 -1.518243 5.037592
1.322649 1.644606 5.104485
0.671474 -1.053118 5.068426
-0.630875 -1.518243 5.029100
0.671474 -0.960093 5.107415
-0.816925 2.388805 5.024340
1.322649 1.737631 5.029050
0.764499 -0.960093 5.021765
-0.723900 2.388805 5.085041
-0.258775 -1.518243 5.103883
-0.165751 -1.518243 5.044054
-0.072725 -1.518243 5.062733
1.322649 2.109731 5.044706
1.322649 2.202755 5.074784
1.322649 2.295781 5.086499
0.767431 -0.401943 5.154132
0.777578 -0.355431 5.154132
0.781570 -0.308918 5.154132
0.796395 -0.262405 5.154132
0.793823 -0.215893 5.154132
0.811011 -0.262405 5.123836
0.746684 -0.401943 5.200644
0.751305 -0.355431 5.200644
0.755700 -0.308918 5.200644
0.764499 -0.276965 5.200644
0.770267 -0.262405 5.200644
0.782645 -0.215893 5.200644
0.764499 -0.401943 5.165346
0.764499 -0.355431 5.182792
0.764499 -0.308918 5.183366
-2.212299 -1.205404 5.200644
-2.262107 -1.146142 5.200644
-0.397142 2.388805 5.200644
0.764499 -0.168808 5.200644
0.020299 -1.420395 5.200644
0.950549 2.639013 5.200644
-2.305324 -1.075630 5.200644
0.724472 -0.122868 5.200644
-0.351800 2.407120 5.200644
-2.314615 -1.053118 5.200644
-1.985422 1.272506 5.200644
0.923595 2.667881 5.200644
-2.343786 -0.960093 5.200644
-1.962908 1.365531 5.200644
0.857524 2.712086 5.200644
0.694933 -0.029843 5.200644
0.766757 2.760906 5.200644
-0.258775 2.475080 5.200644
0.113324 -1.387541 5.200644
0.764499 0.039963 5.200644
-1.933225 1.399646 5.200644
-2.365027 -0.867068 5.200644
0.206349 -1.380179 5.200644
-0.250555 2.481831 5.200644
-1.840199 -1.518896 5.200644
1.043574 2.610123 5.200644
0.299374 -1.357904 5.200644
-1.881814 1.458556 5.200644
0.793436 0.063182 5.200644
-2.367443 -0.774043 5.200644
-0.165751 2.556641 5.200644
1.105644 2.574855 5.200644
0.392399 -1.346168 5.200644
-1.841029 -1.518243 5.200644
-1.840199 1.513668 5.200644
0.857524 0.121518 5.200644
1.229624 2.458364 5.200644
0.394925 -1.332192 5.200644
0.919947 0.156207 5.200644
1.220941 2.481831 5.200644
-1.801164 1.551581 5.200644
-2.026250 -1.375686 5.200644
1.257589 2.388805 5.200644
0.449096 -1.239168 5.200644
-1.747175 1.607563 5.200644
-2.075368 -1.332192 5.200644
0.950549 0.177636 5.200644
1.136599 2.542228 5.200644
0.485424 -1.193279 5.200644
0.128315 2.760906 5.200644
-1.692513 1.644606 5.200644
0.513659 -1.146142 5.200644
0.206349 2.798834 5.200644
0.299374 2.824942 5.200644
-0.134686 2.574855 5.200644
-1.654150 1.669768 5.200644
0.492474 -1.053118 5.200644
-1.933225 -1.435171 5.200644
0.391098 2.760906 5.200644
0.524536 -0.960093 5.200644
1.043574 0.231939 5.200644
-1.589530 1.737631 5.200644
-1.953569 -1.425218 5.200644
0.448265 2.760906 5.200644
-1.561125 1.813147 5.200644
-0.072725 2.605818 5.200644
0.485424 2.841938 5.200644
0.578449 -0.908191 5.200644
1.069842 0.249232 5.200644
-1.547605 1.830656 5.200644
0.500676 2.853930 5.200644
0.610304 -0.867068 5.200644
-0.007994 2.667881 5.200644
1.136599 0.299744 5.200644
0.578449 2.864258 5.200644
-1.839077 -1.518243 5.200644
-1.468100 1.866497 5.200644
0.671474 2.814110 5.200644
0.020299 2.696070 5.200644
0.634569 -0.774043 5.200644
0.594472 2.853930 5.200644
-2.157357 0.528306 5.200644
-1.747175 -1.491959 5.200644
0.764499 2.762124 5.200644
-1.426721 1.923681 5.200644
-2.172591 0.621331 5.200644
0.664715 -0.681018 5.200644
-1.375075 1.985748 5.200644
-2.176808 0.714356 5.200644
-1.654150 -1.508448 5.200644
-1.329930 2.016706 5.200644
0.671474 -0.672586 5.200644
-2.160735 0.807381 5.200644
1.506472 1.086456 5.200644
-2.133164 0.900406 5.200644
-2.355817 -0.681018 5.200644
-2.119275 -1.281869 5.200644
1.496237 1.179481 5.200644
0.711256 -0.587993 5.200644
-1.282050 2.059604 5.200644
-2.172852 -1.239168 5.200644
-2.119275 0.932650 5.200644
-2.389214 -0.587993 5.200644
-1.252085 2.109731 5.200644
-2.090316 0.993431 5.200644
1.491977 1.272506 5.200644
0.722443 -0.494968 5.200644
1.456929 1.365531 5.200644
-1.189025 2.174853 5.200644
1.415674 1.435400 5.200644
-2.060187 1.086456 5.200644
1.400745 1.458556 5.200644
-1.140579 2.202755 5.200644
-1.096000 2.246826 5.200644
-2.026250 1.147754 5.200644
1.322649 1.613724 5.200644
-2.382242 -0.494968 5.200644
1.305214 1.644606 5.200644
-1.021220 2.295781 5.200644
-2.005094 1.179481 5.200644
-0.909950 -1.454007 5.200644
1.365222 1.551581 5.200644
-1.002975 2.301906 5.200644
-2.318247 -0.401943 5.200644
-0.909950 2.305550 5.200644
1.275921 1.737631 5.200644
-0.816925 -1.426054 5.200644
-2.305324 -0.382567 5.200644
-0.816925 2.315984 5.200644
1.260148 1.830656 5.200644
-2.283978 -0.308918 5.200644
-0.813946 -1.425218 5.200644
-0.723900 2.321446 5.200644
-2.239645 -0.215893 5.200644
1.247169 1.923681 5.200644
-0.723900 -1.396496 5.200644
-0.630875 2.339684 5.200644
1.238969 2.016706 5.200644
-2.215323 -0.122868 5.200644
-0.537850 2.351067 5.200644
-0.630875 -1.384768 5.200644
-2.212299 -0.108957 5.200644
-0.537850 -1.362946 5.200644
-0.444825 2.374129 5.200644
0.113324 2.744131 5.200644
-2.212299 0.003656 5.200644
-0.351800 -1.434032 5.200644
-2.223349 0.063182 5.200644
0.392399 2.760334 5.200644
-0.367027 -1.425218 5.200644
-2.230519 0.156207 5.200644
-0.444825 -1.358855 5.200644
-2.214840 0.249232 5.200644
1.296827 2.109731 5.200644
-2.212299 0.278036 5.200644
-0.258775 -1.457766 5.200644
1.301345 2.202755 5.200644
-0.165751 -1.436205 5.200644
1.277677 2.295781 5.200644
-2.208963 -0.029843 5.200644
-0.113635 -1.425218 5.200644
-0.072725 -1.419468 5.200644
-2.203683 0.342257 5.200644
-2.168174 0.435282 5.200644
1.484374 0.714356 5.200644
1.508699 0.769205 5.200644
1.508699 1.072233 5.200644
-1.561125 -1.495394 5.200644
-1.468100 -1.492671 5.200644
1.525048 0.900406 5.200644
1.519681 0.993431 5.200644
0.020299 -1.425218 5.195039
0.113324 -1.425218 5.169535
-2.305324 -1.053118 5.200403
0.206349 -1.425218 5.146837
-2.305324 -0.308918 5.125108
0.950549 0.156207 5.174106
0.299374 -1.425218 5.125341
-1.840199 -1.518243 5.187819
-2.212299 -0.215893 5.173637
0.950549 2.667881 5.147067
-0.444825 2.388805 5.156188
-1.282050 2.109731 5.142573
-2.212299 -0.122868 5.188671
-2.212299 -0.029843 5.153005
0.485424 -1.239168 5.147363
1.136599 2.574855 5.156048
-2.212299 0.342257 5.170604
1.136599 2.667881 5.116013
0.578449 -1.053118 5.144608
-2.212299 0.435282 5.109068
-0.723900 -1.425218 5.124390
-1.096000 2.202755 5.110825
-2.026250 1.179481 5.120824
1.229624 2.481831 5.178565
0.578449 -0.960093 5.154573
-0.630875 -1.425218 5.153343
1.508699 1.086456 5.193952
-0.537850 -1.425218 5.110402
-1.002975 2.295781 5.173941
1.508699 1.179481 5.152614
-0.444825 -1.425218 5.116505
0.671474 -0.867068 5.140682
0.113324 2.760906 5.183992
1.415674 1.458556 5.154954
0.671474 -0.774043 5.137745
0.299374 2.853930 5.148288
-0.630875 2.388805 5.111468
-0.258775 -1.518243 5.109659
0.671474 -0.681018 5.177001
0.392399 2.760906 5.195100
0.392399 2.853930 5.137491
-0.072725 -1.425218 5.194453
0.485424 2.853930 5.156028
1.322649 2.295781 5.121019
1.194427 0.342257 5.200644
-1.468100 -1.518243 5.144417
-1.468100 1.863340 5.293670
0.755009 -0.215893 5.293670
0.020299 -1.305170 5.293670
-2.212299 -1.175928 5.293670
1.136599 2.475339 5.293670
1.464734 0.714356 5.293670
-1.416971 1.923681 5.293670
1.128727 2.481831 5.293670
0.030405 -1.239168 5.293670
0.004137 -1.146142 5.293670
0.754413 -0.122868 5.293670
1.488337 0.807381 5.293670
0.020299 -1.127367 5.293670
1.043574 2.550226 5.293670
-1.375075 1.968503 5.293670
0.710016 -0.029843 5.293670
0.020299 -1.187512 5.293670
1.002427 2.574855 5.293670
-2.370116 -0.960093 5.293670
1.497838 0.900406 5.293670
-1.306868 2.016706 5.293670
-2.388556 -0.867068 5.293670
0.857524 2.659219 5.293670
0.206349 -1.215873 5.293670
0.837374 2.667881 5.293670
-2.378180 -0.774043 5.293670
0.764499 0.049828 5.293670
0.182963 -1.146142 5.293670
0.950549 2.603061 5.293670
-2.348154 -0.681018 5.293670
1.481921 0.993431 5.293670
0.764499 2.709305 5.293670
-2.236033 -1.146142 5.293670
0.780060 0.063182 5.293670
-1.282050 2.056190 5.293670
0.299374 -1.263752 5.293670
-2.350462 -0.587993 5.293670
1.466637 1.086456 5.293670
-2.301743 -1.053118 5.293670
0.854904 0.156207 5.293670
1.192537 2.388805 5.293670
0.209302 -1.239168 5.293670
-2.305324 -1.047314 5.293670
-1.262534 2.109731 5.293670
0.857524 0.157207 5.293670
-2.346571 -0.494968 5.293670
0.333773 -1.239168 5.293670
1.457301 1.179481 5.293670
-2.346999 -0.401943 5.293670
-2.026250 -1.346441 5.293670
-1.192502 2.202755 5.293670
0.950549 0.227648 5.293670
0.280894 2.760906 5.293670
-2.045166 -1.332192 5.293670
0.299374 2.772007 5.293670
-2.305324 -0.319503 5.293670
1.439622 1.272506 5.293670
0.392399 -1.167387 5.293670
-1.189025 2.205202 5.293670
-1.933225 -1.407353 5.293670
-1.840199 -1.408921 5.293670
-1.096000 2.249145 5.293670
0.392399 2.805620 5.293670
1.421219 1.365531 5.293670
-2.299902 -0.308918 5.293670
-1.747175 -1.478145 5.293670
0.113324 -1.112550 5.293670
-1.818811 -1.425218 5.293670
-2.276719 -0.215893 5.293670
-1.028097 2.295781 5.293670
1.043574 0.249156 5.293670
-1.654150 -1.481382 5.293670
0.470085 2.760906 5.293670
-0.909950 2.285696 5.293670
1.415674 1.375047 5.293670
-2.227389 -0.122868 5.293670
-1.561125 -1.466693 5.293670
0.578449 2.945601 5.293670
1.043690 0.249232 5.293670
0.413843 -1.146142 5.293670
1.376085 1.458556 5.293670
-0.995463 2.295781 5.293670
-2.216306 -0.029843 5.293670
1.123665 0.342257 5.293670
0.576752 2.946955 5.293670
-1.468100 -1.456598 5.293670
-2.223061 0.063182 5.293670
0.449833 -1.053118 5.293670
0.611735 2.946955 5.293670
1.136599 0.356263 5.293670
-2.119275 -1.282888 5.293670
-1.002975 2.302182 5.293670
-2.167419 -1.239168 5.293670
1.322649 1.568281 5.293670
-2.212299 0.091028 5.293670
0.485424 -1.016020 5.293670
0.578449 2.947946 5.293670
1.286627 1.644606 5.293670
-0.816925 2.283747 5.293670
0.516199 -0.960093 5.293670
-2.185905 0.528306 5.293670
-0.723900 -1.366064 5.293670
-2.190413 0.156207 5.293670
1.376829 1.551581 5.293670
-0.630875 -1.345386 5.293670
-0.784990 2.295781 5.293670
-2.200400 0.621331 5.293670
-2.167238 0.249232 5.293670
-0.537850 -1.345886 5.293670
-2.189484 0.342257 5.293670
-0.723900 2.319551 5.293670
-2.194807 0.714356 5.293670
-2.184464 0.435282 5.293670
1.272458 1.737631 5.293670
-0.630875 2.330491 5.293670
-2.166341 0.807381 5.293670
0.532773 -0.867068 5.293670
-0.537850 2.336295 5.293670
-2.119275 0.886982 5.293670
0.485424 -0.774981 5.293670
-0.444825 2.365065 5.293670
1.255246 1.830656 5.293670
-2.115116 0.900406 5.293670
0.483325 -0.774043 5.293670
-0.376633 2.388805 5.293670
0.578449 -0.778782 5.293670
1.249623 1.923681 5.293670
-2.119275 0.919103 5.293670
0.524797 -0.774043 5.293670
-2.126100 0.993431 5.293670
1.245373 2.016706 5.293670
-0.444825 -1.352662 5.293670
0.589648 -0.774043 5.293670
-2.119275 1.078811 5.293670
-0.351800 2.402106 5.293670
-2.117273 1.086456 5.293670
0.485424 -0.771137 5.293670
0.020299 2.664602 5.293670
-0.258775 2.461004 5.293670
-0.351800 -1.369461 5.293670
0.022528 2.667881 5.293670
-2.035713 1.179481 5.293670
-0.239511 2.481831 5.293670
0.608940 -0.681018 5.293670
-0.258775 -1.379807 5.293670
0.113324 2.723973 5.293670
-2.026250 1.202254 5.293670
0.671474 -0.608717 5.293670
-0.165751 -1.357959 5.293670
-0.165751 2.558612 5.293670
0.206349 2.734848 5.293670
-2.003730 1.272506 5.293670
0.681104 -0.587993 5.293670
-0.109094 -1.332192 5.293670
-0.148206 2.574855 5.293670
0.703532 -0.494968 5.293670
-1.958757 1.365531 5.293670
0.485424 2.751778 5.293670
-0.072725 2.616313 5.293670
-0.072725 -1.316778 5.293670
0.690741 -0.401943 5.293670
-1.933225 1.403090 5.293670
0.578449 2.703871 5.293670
0.749385 -0.308918 5.293670
-1.891519 1.458556 5.293670
0.671474 2.703821 5.293670
-1.654150 1.691298 5.293670
1.250589 2.109731 5.293670
-1.605930 1.737631 5.293670
1.253633 2.202755 5.293670
-1.561125 1.782916 5.293670
1.229624 2.277597 5.293670
-1.505952 1.830656 5.293670
1.219944 2.295781 5.293670
0.020299 -1.146142 5.266569
0.392399 -1.332192 5.203048
0.764499 -0.215893 5.264936
-1.189025 2.202755 5.280148
0.020299 -1.332192 5.285519
-2.305324 -1.053118 5.227605
0.113324 -1.332192 5.241379
0.113324 -1.239168 5.263361
0.857524 0.156207 5.292403
1.136599 2.481831 5.284374
0.206349 -1.332192 5.231949
-0.909950 2.295781 5.232388
1.508699 0.807381 5.235730
0.206349 -1.239168 5.267160
1.043574 2.574855 5.258657
0.113324 -1.146142 5.264115
-0.816925 2.295781 5.242637
1.508699 0.900406 5.259434
1.136599 0.342257 5.277560
-1.840199 -1.518243 5.208884
0.857524 2.667881 5.277048
0.299374 -1.332192 5.226984
0.764499 2.760906 5.205132
-2.212299 -0.029843 5.252277
0.392399 -1.239168 5.243439
-1.933225 -1.425218 5.254773
1.229624 2.388805 5.220611
-2.119275 0.900406 5.293061
-2.212299 0.156207 5.219770
0.485424 -1.146142 5.226413
-1.840199 -1.425218 5.259822
-2.119275 0.993431 5.274649
0.020299 2.667881 5.286276
0.485424 -1.053118 5.211115
0.206349 2.760906 5.251286
-2.212299 0.249232 5.210879
0.392399 2.760906 5.205206
-2.026250 1.179481 5.279365
1.508699 0.993431 5.231505
0.578449 -0.867068 5.234991
0.485424 2.760906 5.281354
0.485424 -0.774043 5.291473
0.578449 2.760906 5.280480
0.578449 2.853930 5.219509
0.578449 2.946955 5.292994
-0.351800 -1.425218 5.223600
0.671474 2.760906 5.259199
-0.258775 -1.425218 5.243694
-0.165751 -1.425218 5.209486
-0.072725 -1.332192 5.281386
1.229624 2.295781 5.279444
-0.080547 -1.146142 5.386694
0.684707 -0.215893 5.386694
1.395521 0.714356 5.386694
0.950549 2.568220 5.386694
-1.468100 1.898830 5.386694
0.741427 -0.122868 5.386694
-0.072725 -1.141586 5.386694
1.415674 0.769135 5.386694
-2.212299 -1.187764 5.386694
-1.448134 1.923681 5.386694
0.939159 2.574855 5.386694
0.764499 -0.083460 5.386694
-2.241642 -1.146142 5.386694
0.020299 -1.090999 5.386694
-1.378495 2.016706 5.386694
1.136599 2.416482 5.386694
0.113324 -1.095454 5.386694
-2.305324 -1.065286 5.386694
0.206349 -1.110232 5.386694
1.064672 2.481831 5.386694
-2.343076 -0.960093 5.386694
-2.311946 -1.053118 5.386694
0.786301 -0.029843 5.386694
0.299374 -1.095012 5.386694
-1.375075 2.024353 5.386694
1.427670 0.807381 5.386694
-2.358305 -0.867068 5.386694
0.384151 -1.053118 5.386694
1.043574 2.500770 5.386694
1.446139 0.900406 5.386694
-2.375103 -0.774043 5.386694
-1.345617 2.109731 5.386694
0.781267 0.063182 5.386694
1.415674 0.990338 5.386694
-2.366930 -0.681018 5.386694
0.392399 -1.049040 5.386694
0.764499 2.651942 5.386694
-2.353451 -0.587993 5.386694
-1.282050 2.161510 5.386694
1.414992 0.993431 5.386694
0.832170 0.156207 5.386694
0.480468 -0.960093 5.386694
-2.368279 -0.494968 5.386694
1.415674 0.998113 5.386694
0.857524 2.612641 5.386694
-2.352654 -0.401943 5.386694
-1.189025 2.190896 5.386694
1.438824 1.086456 5.386694
0.478824 -0.867068 5.386694
0.843864 0.249232 5.386694
-2.338041 -0.308918 5.386694
-1.172924 2.202755 5.386694
0.479066 -0.774043 5.386694
1.415674 1.156112 5.386694
-2.305324 -0.262051 5.386694
0.857524 0.253066 5.386694
1.157461 2.388805 5.386694
0.950549 0.268861 5.386694
1.043574 0.333284 5.386694
0.485424 -0.752985 5.386694
1.059104 0.342257 5.386694
1.407001 1.179481 5.386694
0.571611 -0.681018 5.386694
-2.273508 -0.215893 5.386694
0.578449 -0.674685 5.386694
1.136599 0.412625 5.386694
0.614779 -0.587993 5.386694
1.388823 1.272506 5.386694
-1.096000 2.260444 5.386694
1.322649 1.447934 5.386694
0.647653 -0.494968 5.386694
-2.221979 -0.122868 5.386694
1.317850 1.458556 5.386694
-2.216115 0.528306 5.386694
0.671474 -0.435565 5.386694
-2.212299 -0.107491 5.386694
1.366229 1.365531 5.386694
-2.223087 0.621331 5.386694
-2.212299 -0.005612 5.386694
0.699733 -0.401943 5.386694
-2.229775 0.063182 5.386694
1.289612 1.551581 5.386694
-1.010054 2.295781 5.386694
-2.212299 0.138504 5.386694
-2.216605 0.714356 5.386694
1.248966 1.644606 5.386694
0.692136 -0.308918 5.386694
-1.002975 2.297289 5.386694
-2.212299 0.482210 5.386694
1.229624 1.692620 5.386694
-2.212299 0.731312 5.386694
-0.909950 2.301676 5.386694
-2.200844 -0.029843 5.386694
1.224875 1.737631 5.386694
-2.201384 0.156207 5.386694
-0.816925 2.307268 5.386694
-2.157355 0.249232 5.386694
-2.186543 0.807381 5.386694
1.229624 1.777095 5.386694
-2.189514 0.342257 5.386694
-0.723900 2.326643 5.386694
-2.208840 0.435282 5.386694
-2.158591 0.900406 5.386694
1.246914 1.830656 5.386694
-0.630875 2.338542 5.386694
-2.134485 0.993431 5.386694
1.256189 1.923681 5.386694
-0.537850 2.360741 5.386694
-2.119275 1.051060 5.386694
1.253567 2.016706 5.386694
-0.469202 2.388805 5.386694
-2.111745 1.086456 5.386694
-2.081078 1.179481 5.386694
-0.444825 2.391579 5.386694
0.020299 2.654878 5.386694
-2.048530 1.272506 5.386694
-0.351800 2.441329 5.386694
0.045297 2.667881 5.386694
0.113324 2.687392 5.386694
-0.258775 2.453974 5.386694
-2.026250 1.298251 5.386694
-0.245428 2.481831 5.386694
0.206349 2.680760 5.386694
-1.974491 1.365531 5.386694
-0.165751 2.571020 5.386694
0.392399 2.648086 5.386694
-1.933225 1.414359 5.386694
-0.161188 2.574855 5.386694
0.330710 2.667881 5.386694
-1.892075 1.458556 5.386694
0.299374 2.680167 5.386694
-0.072725 2.609596 5.386694
-1.654150 1.703016 5.386694
-1.624069 1.737631 5.386694
0.485424 2.639758 5.386694
-1.561125 1.815771 5.386694
0.578449 2.622314 5.386694
-1.545287 1.830656 5.386694
0.671474 2.641240 5.386694
1.243303 2.109731 5.386694
1.237940 2.202755 5.386694
1.229624 2.228275 5.386694
1.161401 2.295781 5.386694
-1.933225 -1.356383 5.386694
-1.997208 -1.332192 5.386694
-1.840199 -1.360209 5.386694
-1.747175 -1.443179 5.386694
-1.778225 -1.425218 5.386694
-1.654150 -1.450431 5.386694
-1.561125 -1.447049 5.386694
-1.468100 -1.433105 5.386694
-2.119275 -1.255471 5.386694
-2.142001 -1.239168 5.386694
-2.026250 -1.316839 5.386694
-0.723900 -1.335326 5.386694
-0.716615 -1.332192 5.386694
-0.630875 -1.308599 5.386694
-0.537850 -1.256736 5.386694
-0.444825 -1.275223 5.386694
-0.351800 -1.293774 5.386694
-0.258775 -1.270896 5.386694
-0.212842 -1.239168 5.386694
-0.165751 -1.214622 5.386694
-1.840199 1.506819 5.386694
-1.799130 1.551581 5.386694
-1.411457 -1.425218 5.386694
-1.375075 -1.420570 5.386694
-1.282050 -1.409599 5.386694
-1.747175 1.606124 5.386694
-1.096000 -1.433791 5.386694
-1.707265 1.644606 5.386694
-1.002975 -1.429300 5.386694
-0.974126 -1.425218 5.386694
-0.909950 -1.410242 5.386694
-0.816925 -1.373400 5.386694
-2.305324 -1.053118 5.341333
1.415674 0.714356 5.364107
0.020299 -1.239168 5.302289
0.764499 -0.029843 5.367129
-0.072725 -1.146142 5.381157
-1.375075 2.016706 5.382534
0.950549 2.574855 5.369463
-2.026250 -1.332192 5.334478
0.206349 -1.146142 5.319816
1.415674 0.993431 5.385723
0.299374 -1.239168 5.307961
0.857524 0.249232 5.373430
1.415674 1.179481 5.370377
0.950549 0.249232 5.339416
-1.282050 2.109731 5.329655
0.299374 -1.146142 5.346405
-2.305324 -0.308918 5.307551
0.764499 2.667881 5.351977
0.392399 -1.146142 5.304255
1.415674 1.272506 5.334017
1.043574 0.249232 5.293833
-0.630875 -1.332192 5.321336
-1.189025 2.202755 5.321194
1.322649 1.458556 5.379375
0.392399 -1.053118 5.380558
-2.212299 -0.029843 5.325017
-0.537850 -1.332192 5.311086
1.415674 1.365531 5.305250
-0.444825 -1.332192 5.322683
-2.212299 0.528306 5.373771
0.485424 -0.960093 5.381431
-0.351800 -1.332192 5.336382
-2.212299 0.621331 5.340571
1.322649 1.551581 5.319129
0.299374 2.760906 5.303808
-0.909950 2.295781 5.365414
-2.212299 0.714356 5.368571
-0.258775 -1.332192 5.340342
0.485424 -0.867068 5.372718
0.392399 2.760906 5.333962
1.229624 1.737631 5.366838
-0.165751 -1.332192 5.316862
0.578449 -0.774043 5.295555
-0.816925 2.295781 5.365481
-2.119275 0.900406 5.315612
0.578449 2.946955 5.294508
0.578449 -0.681018 5.360804
-0.165751 -1.239168 5.352686
0.392399 2.667881 5.360734
-2.026250 1.272506 5.355117
-0.072725 -1.239168 5.347857
0.671474 -0.587993 5.306572
-0.444825 2.388805 5.382624
0.485424 2.667881 5.366615
0.671474 -0.494968 5.329216
0.578449 2.667881 5.317126
0.671474 2.667881 5.325219
1.322649 0.611125 5.386694
0.648772 -0.308918 5.433207
0.647996 -0.262405 5.433207
0.647779 -0.215893 5.433207
0.671474 -0.177206 5.433207
0.671474 -0.308918 5.412204
0.671474 -0.262405 5.406864
0.671474 -0.215893 5.396015
0.597916 -0.308918 5.479719
0.598885 -0.262405 5.479719
0.598344 -0.215893 5.479719
0.578449 -0.181079 5.479719
0.574730 -0.169381 5.479719
0.578449 -0.129599 5.479719
0.624962 -0.140859 5.479719
0.671474 -0.148927 5.479719
0.624962 -0.308918 5.455667
0.624962 -0.262405 5.457937
0.624962 -0.215893 5.449961
0.578449 -0.169381 5.473392
0.624962 -0.169381 5.459088
0.671474 -0.169381 5.443443
-2.212299 -1.128805 5.479719
0.757260 -0.122868 5.479719
-2.026250 1.332807 5.479719
-0.351800 -1.236094 5.479719
-2.254934 -1.053118 5.479719
-0.351800 2.495977 5.479719
-2.003446 1.365531 5.479719
0.764499 -0.100614 5.479719
-2.279650 -0.960093 5.479719
0.206349 -1.068849 5.479719
-0.258775 -1.199162 5.479719
-1.933225 1.438183 5.479719
0.157823 -1.053118 5.479719
-0.165751 -1.149404 5.479719
0.392399 2.622159 5.479719
0.764499 0.011694 5.479719
-0.258775 2.486069 5.479719
0.485424 2.599996 5.479719
-0.161788 -1.146142 5.479719
-1.907318 1.458556 5.479719
0.759568 0.063182 5.479719
-0.165751 2.510205 5.479719
0.578449 2.597173 5.479719
-0.100212 -1.053118 5.479719
-1.654150 -1.432297 5.479719
0.020299 -1.048332 5.479719
0.764499 0.154628 5.479719
0.767833 -0.029843 5.479719
0.671474 2.617434 5.479719
0.764691 0.156207 5.479719
-0.072725 -1.041151 5.479719
0.764499 2.603474 5.479719
-1.679166 -1.425218 5.479719
0.844592 0.249232 5.479719
-1.747175 -1.377341 5.479719
-1.811118 -1.332192 5.479719
1.136599 2.329732 5.479719
-0.075129 2.574855 5.479719
1.099351 2.388805 5.479719
-1.643512 -1.425218 5.479719
0.857524 0.258156 5.479719
-1.561125 -1.423096 5.479719
-2.297854 -0.867068 5.479719
0.113324 -1.041282 5.479719
-1.468100 -1.413811 5.479719
0.950549 0.321709 5.479719
1.241883 2.016706 5.479719
-2.305324 -0.855495 5.479719
-0.072725 2.577280 5.479719
1.235341 2.109731 5.479719
-2.026250 -1.296227 5.479719
-2.334004 -0.774043 5.479719
0.019692 2.667881 5.479719
-2.108380 -1.239168 5.479719
0.975938 0.342257 5.479719
1.229624 2.122899 5.479719
0.020299 2.668004 5.479719
-2.119275 -1.217759 5.479719
1.182683 2.202755 5.479719
-2.309860 -0.681018 5.479719
0.299374 -1.055626 5.479719
-2.201089 -1.146142 5.479719
-2.345095 -0.587993 5.479719
1.153074 2.295781 5.479719
1.043574 0.391614 5.479719
0.308371 -1.053118 5.479719
-1.933225 -1.311373 5.479719
-2.358112 -0.494968 5.479719
1.292201 0.714356 5.479719
-1.840199 -1.312062 5.479719
1.089950 0.435282 5.479719
0.857524 2.567881 5.479719
-2.344915 -0.401943 5.479719
-1.840199 1.522849 5.479719
-2.326638 -0.308918 5.479719
1.322649 0.764258 5.479719
1.136599 0.481153 5.479719
0.392399 -0.990725 5.479719
-1.375075 -1.383738 5.479719
-2.305324 -0.269914 5.479719
0.840700 2.574855 5.479719
1.341360 0.807381 5.479719
-1.282050 -1.403705 5.479719
-2.266421 -0.215893 5.479719
1.365613 0.900406 5.479719
1.322649 1.052795 5.479719
1.313018 1.086456 5.479719
0.411164 -0.960093 5.479719
1.375070 0.993431 5.479719
0.950549 2.534234 5.479719
-1.762729 1.551581 5.479719
-2.214042 -0.122868 5.479719
1.322649 1.132395 5.479719
1.043574 2.459446 5.479719
0.447867 -0.867068 5.479719
-1.747175 1.564054 5.479719
-1.096000 -1.419917 5.479719
1.020724 2.481831 5.479719
1.352336 1.179481 5.479719
-2.212299 -0.114174 5.479719
0.447637 -0.774043 5.479719
-1.724158 1.644606 5.479719
1.353024 1.272506 5.479719
-1.002975 -1.414426 5.479719
-2.244023 0.528306 5.479719
-2.212299 0.407874 5.479719
1.322649 1.313365 5.479719
-2.231070 0.435282 5.479719
-0.909950 -1.382764 5.479719
0.485424 -0.712951 5.479719
1.304440 1.365531 5.479719
-1.672722 1.737631 5.479719
-2.235343 0.621331 5.479719
0.549213 -0.681018 5.479719
1.295105 1.458556 5.479719
-0.838430 -1.332192 5.479719
-1.654150 1.750641 5.479719
-2.193704 -0.029843 5.479719
0.578449 -0.622242 5.479719
-2.233577 0.714356 5.479719
-2.191932 0.063182 5.479719
1.271187 1.551581 5.479719
-2.180644 0.156207 5.479719
-0.816925 -1.318136 5.479719
0.582142 -0.587993 5.479719
1.246835 1.644606 5.479719
-2.212299 0.803567 5.479719
-1.468100 1.967387 5.479719
-2.170252 0.249232 5.479719
-0.723900 -1.305850 5.479719
-2.195675 0.342257 5.479719
1.243603 1.737631 5.479719
-1.440796 2.016706 5.479719
0.578449 -0.420048 5.479719
1.237854 1.830656 5.479719
-2.211055 0.807381 5.479719
0.574632 -0.401943 5.479719
-0.630875 -1.258874 5.479719
-2.184012 0.900406 5.479719
0.603831 -0.494968 5.479719
-1.388561 2.109731 5.479719
-0.594781 -1.239168 5.479719
0.113324 2.651348 5.479719
-1.375075 2.127743 5.479719
0.578449 -0.329014 5.479719
-0.537850 -1.215384 5.479719
-2.166939 0.993431 5.479719
0.020647 2.667881 5.479719
-1.300010 2.202755 5.479719
-2.172307 1.086456 5.479719
0.206349 2.657815 5.479719
-0.444825 -1.203498 5.479719
-1.282050 2.213842 5.479719
-2.119275 1.173083 5.479719
0.299374 2.641332 5.479719
-1.189025 2.259432 5.479719
-2.117343 1.179481 5.479719
-1.141079 2.295781 5.479719
-2.067747 1.272506 5.479719
-1.096000 2.306787 5.479719
-1.002975 2.285442 5.479719
-1.043859 2.295781 5.479719
-0.972155 2.295781 5.479719
-0.909950 2.324902 5.479719
-0.816925 2.321525 5.479719
-0.723900 2.353567 5.479719
-0.630875 2.377054 5.479719
-0.546846 2.388805 5.479719
-0.537850 2.392839 5.479719
-0.444825 2.422180 5.479719
-0.374457 2.481831 5.479719
-0.351800 -1.239168 5.476882
-0.258775 -1.239168 5.434656
-0.351800 2.481831 5.409230
-2.212299 -1.146142 5.469500
1.136599 2.388805 5.414206
-0.258775 2.481831 5.415557
0.020299 -1.053118 5.464433
-2.305324 -1.053118 5.425475
0.764499 0.063182 5.461468
-1.654150 1.737631 5.458272
0.113324 -1.053118 5.452579
-0.072725 -1.053118 5.461249
-2.305324 -0.960093 5.433938
1.229624 2.202755 5.404007
0.020299 2.667881 5.479014
-1.468100 1.923681 5.429047
-1.933225 -1.332192 5.448579
-1.840199 -1.332192 5.416336
-1.375075 2.109731 5.442016
1.322649 0.714356 5.455758
-2.305324 -0.867068 5.462412
-1.747175 -1.425218 5.414617
0.857524 2.574855 5.462475
1.415674 0.807381 5.396608
-1.282050 2.202755 5.456295
0.578449 -0.401943 5.475132
1.415674 0.900406 5.418934
1.043574 0.342257 5.404171
-1.561125 -1.425218 5.471488
1.322649 1.086456 5.459876
-1.189025 2.202755 5.416502
1.043574 2.481831 5.428640
-1.468100 -1.425218 5.417749
1.136599 0.435282 5.417572
-1.096000 2.295781 5.458162
1.415674 1.086456 5.433169
0.671474 -0.401943 5.410926
-1.002975 2.295781 5.450269
-2.212299 0.063182 5.430262
-2.119275 -1.239168 5.441635
1.322649 1.365531 5.444699
-0.537850 2.388805 5.448974
-2.212299 0.435282 5.415162
1.229624 1.737631 5.394008
-2.119275 1.086456 5.425125
-1.096000 -1.425218 5.437325
0.113324 2.667881 5.429672
0.206349 2.667881 5.434838
-1.002975 -1.425218 5.411027
0.299374 2.667881 5.407081
-0.816925 -1.332192 5.460194
-0.723900 -1.332192 5.395648
-0.537850 -1.239168 5.404289
-0.444825 -1.239168 5.439384
0.544795 -0.308918 5.526232
0.532659 -0.262405 5.526232
0.544433 -0.215893 5.526232
0.624962 -0.223826 5.526232
0.609925 -0.215893 5.526232
0.644230 -0.215893 5.526232
0.571534 -0.169381 5.526232
0.551627 -0.122868 5.526232
0.624962 -0.210426 5.526232
0.671474 -0.128255 5.526232
0.638267 -0.122868 5.526232
0.578449 -0.308918 5.496382
0.578449 -0.262405 5.494664
0.578449 -0.215893 5.497522
0.624962 -0.215893 5.512749
0.578449 -0.122868 5.488341
0.624962 -0.122868 5.507176
0.511422 -0.308918 5.572744
0.487767 -0.262405 5.572744
0.519529 -0.215893 5.572744
0.529238 -0.169381 5.572744
0.506057 -0.122868 5.572744
0.531937 -0.308918 5.539791
0.531937 -0.262405 5.526797
0.531937 -0.215893 5.546164
0.624962 -0.215893 5.542058
0.531937 -0.169381 5.564912
0.531937 -0.122868 5.550455
0.671474 -0.122868 5.533173
-2.026250 1.344545 5.572744
-0.351800 2.426862 5.572744
-2.021090 1.365531 5.572744
-0.258775 2.466743 5.572744
-2.212299 -1.073499 5.572744
-1.972976 1.458556 5.572744
-0.214094 2.481831 5.572744
-2.219590 -1.053118 5.572744
-1.933225 1.508646 5.572744
-0.351800 -1.152475 5.572744
-1.878879 1.551581 5.572744
0.392399 2.627175 5.572744
-1.840199 1.583762 5.572744
-0.258775 -1.155116 5.572744
0.206349 -1.058328 5.572744
-0.165751 2.514620 5.572744
-1.779324 1.644606 5.572744
-0.240057 -1.146142 5.572744
-2.263065 -0.960093 5.572744
0.485424 2.582268 5.572744
0.578449 -0.050395 5.572744
-1.747175 1.686065 5.572744
-0.072725 2.535726 5.572744
-0.165751 -1.066130 5.572744
0.153979 -1.053118 5.572744
-1.840199 -1.338508 5.572744
0.578449 2.598485 5.572744
-0.014697 2.574855 5.572744
-1.859290 -1.332192 5.572744
-0.124100 -1.053118 5.572744
0.020299 -1.034002 5.572744
0.644106 -0.029843 5.572744
0.671474 2.592302 5.572744
-1.747175 -1.333600 5.572744
-1.714572 1.737631 5.572744
0.653865 0.063182 5.572744
0.020299 2.599897 5.572744
0.764499 2.592676 5.572744
0.671474 0.135872 5.572744
-1.654150 -1.390799 5.572744
0.113324 -1.032804 5.572744
-1.654150 1.804428 5.572744
0.676483 0.156207 5.572744
-0.072725 -1.045084 5.572744
-1.561125 -1.407389 5.572744
-1.468100 -1.404578 5.572744
0.764499 0.233653 5.572744
1.136599 2.259877 5.572744
0.237805 -1.053118 5.572744
-2.026250 -1.290648 5.572744
1.223574 0.714356 5.572744
0.299374 -1.020802 5.572744
1.123828 2.295781 5.572744
-1.500230 2.016706 5.572744
-2.305324 -0.889308 5.572744
-2.073786 -1.239168 5.572744
0.788969 0.249232 5.572744
0.385556 -0.960093 5.572744
-2.119275 -1.155533 5.572744
-2.131202 -1.146142 5.572744
-1.933225 -1.302476 5.572744
-2.316275 -0.867068 5.572744
1.067282 2.388805 5.572744
-1.470608 2.109731 5.572744
-2.338396 -0.774043 5.572744
1.200812 2.016706 5.572744
1.229624 0.737108 5.572744
-2.338131 -0.681018 5.572744
0.392399 -0.952814 5.572744
-1.468100 2.111572 5.572744
-2.349789 -0.587993 5.572744
-1.375075 -1.375254 5.572744
1.160626 2.109731 5.572744
1.248022 0.807381 5.572744
0.392399 -0.864137 5.572744
-1.375075 2.171515 5.572744
1.151153 2.202755 5.572744
0.369343 -0.774043 5.572744
-1.282050 -1.392681 5.572744
-2.361799 -0.494968 5.572744
1.277655 0.900406 5.572744
-1.348492 2.202755 5.572744
-1.096000 -1.412507 5.572744
-2.356491 -0.401943 5.572744
0.392399 -0.724061 5.572744
0.857524 0.292987 5.572744
-1.002975 -1.400058 5.572744
0.857524 2.553508 5.572744
-1.282050 2.258506 5.572744
1.278534 0.993431 5.572744
-2.324366 -0.308918 5.572744
0.402225 -0.867068 5.572744
-0.909950 -1.363461 5.572744
0.818843 2.574855 5.572744
0.442992 -0.681018 5.572744
-1.189025 2.295434 5.572744
0.950549 0.324049 5.572744
1.272263 1.086456 5.572744
-2.305324 -0.283629 5.572744
-0.875421 -1.332192 5.572744
-1.188350 2.295781 5.572744
0.950549 2.495135 5.572744
0.963593 0.342257 5.572744
0.485424 -0.651420 5.572744
-0.816925 -1.295182 5.572744
-1.096000 2.334593 5.572744
-2.261914 -0.215893 5.572744
1.043574 2.414232 5.572744
-0.723900 -1.264854 5.572744
0.534989 -0.587993 5.572744
1.043574 0.431324 5.572744
0.966954 2.481831 5.572744
-1.002975 2.348359 5.572744
-0.630875 -1.242305 5.572744
1.046836 0.435282 5.572744
-2.212299 -0.132528 5.572744
0.557631 -0.494968 5.572744
-0.909950 2.367041 5.572744
1.115305 0.528306 5.572744
-0.620191 -1.239168 5.572744
-0.537850 -1.210741 5.572744
0.564025 -0.401943 5.572744
-2.212299 0.182079 5.572744
-0.444825 -1.168535 5.572744
-0.816925 2.348660 5.572744
-2.294189 0.528306 5.572744
-2.222458 0.249232 5.572744
-2.289716 0.621331 5.572744
1.287982 1.179481 5.572744
-0.723900 2.377721 5.572744
-2.252558 0.342257 5.572744
-2.239114 0.714356 5.572744
1.292822 1.272506 5.572744
-2.305324 0.381146 5.572744
-0.708437 2.388805 5.572744
-2.320880 0.435282 5.572744
-2.231461 0.807381 5.572744
1.263519 1.365531 5.572744
-0.630875 2.417958 5.572744
-2.305324 0.515520 5.572744
-2.227833 0.900406 5.572744
-0.537850 2.398293 5.572744
1.276430 1.458556 5.572744
-0.444825 2.405761 5.572744
-2.207382 -0.122868 5.572744
1.242050 1.551581 5.572744
-2.212299 0.957886 5.572744
-2.170191 -0.029843 5.572744
1.243026 1.644606 5.572744
-2.201030 0.993431 5.572744
-2.182681 0.063182 5.572744
1.233585 1.737631 5.572744
-2.185835 1.086456 5.572744
-2.207713 0.156207 5.572744
1.229624 1.764251 5.572744
-2.128359 1.179481 5.572744
1.221713 1.830656 5.572744
-2.119275 1.192965 5.572744
-2.057749 1.272506 5.572744
0.113324 2.623669 5.572744
0.206349 2.633033 5.572744
0.299374 2.645269 5.572744
-1.631795 1.830656 5.572744
-1.561125 1.921411 5.572744
1.136599 0.558488 5.572744
-1.559488 1.923681 5.572744
-1.189025 -1.407245 5.572744
