0.594509 1.040813 9.935056
-1.157439 -1.072201 10.029231
1.611452 -0.312198 9.997250
0.792449 -1.706845 9.981183
0.687228 0.953689 10.007149
1.607474 -0.219970 10.021351
0.880326 -1.697834 9.929369
-0.774663 0.967257 9.967394
-1.150529 -0.038908 10.016457
0.973406 -1.606450 9.974102
1.162407 0.689934 9.975248
1.057933 -1.511860 10.007142
-1.252251 -0.872494 9.968100
0.886991 0.879293 9.998380
-1.304452 -0.771025 9.926863
0.972829 0.861520 9.952220
1.155385 -1.422413 9.988121
-1.249806 -0.775731 9.990264
1.060284 0.778795 9.997262
1.230332 -1.323955 9.981709
-1.301470 -0.673445 9.939691
-1.255870 -0.675854 9.979648
-1.307511 -0.593159 9.927556
1.620940 -0.050719 9.953210
-1.255107 -0.511587 9.985319
-0.400359 -1.739688 10.109323
-0.599438 -1.621524 10.118384
-0.464340 -1.703102 10.114178
0.424167 -1.762661 10.106746
-1.000495 0.512637 10.114152
-0.675523 0.967127 10.105529
0.519528 -1.744854 10.112750
-0.307939 -1.770001 10.114807
1.501560 -0.591140 10.114239
-0.588810 0.995738 10.126811
0.613609 -1.708247 10.119199
-0.972825 0.595261 10.102292
1.500664 -0.506231 10.122270
-0.513980 1.033176 10.116791
0.530428 0.899904 10.128202
-0.942498 0.640999 10.102825
1.493075 -0.409756 10.132663
-0.221984 -1.779781 10.119852
0.516105 0.905904 10.124238
-0.904513 0.681384 10.109183
0.638175 -1.697436 10.117488
-0.503697 1.037460 10.115309
-0.260521 -1.776693 10.118668
-0.855627 0.732564 10.114433
1.500270 -0.314031 10.129869
0.600078 0.884183 10.129852
-0.418224 1.055834 10.114928
-0.644764 -1.597378 10.111365
1.521033 -0.238751 10.119194
-0.130324 -1.784335 10.114349
-0.313367 1.075705 10.108661
0.690558 0.868092 10.124965
0.706345 -1.655591 10.124115
-0.797378 0.793692 10.125803
0.787488 -1.612387 10.113945
0.794818 0.843737 10.125730
-0.510337 -1.673526 10.119460
-0.046048 -1.785953 10.104163
1.524743 -0.227559 10.117262
-0.130514 1.055111 10.109654
-0.782650 0.815751 10.124612
0.803012 -1.603402 10.112499
0.044692 1.026521 10.101525
-0.679931 -1.572539 10.111398
0.017101 -1.782145 10.101369
-0.755233 0.878203 10.107582
0.885978 -1.540819 10.119118
0.139794 1.005086 10.105869
-0.131141 1.055312 10.109609
0.032397 -1.780713 10.101357
0.925019 -1.517345 10.115297
-1.156916 -0.225826 10.109079
-0.722600 0.944750 10.089159
0.227251 0.980253 10.105993
-1.144199 -0.185232 10.112226
0.973175 -1.481291 10.115839
-0.050364 1.043959 10.099348
0.328233 0.956962 10.100590
-1.125829 -0.132621 10.116043
0.235501 0.978010 10.105612
-1.137196 -0.970316 10.114529
-0.730192 -1.524913 10.120411
1.025084 -1.431365 10.118134
0.437814 0.936396 10.102533
-0.215094 1.075110 10.107058
-1.164731 -0.881068 10.119840
-1.104369 -0.046258 10.104422
-0.880160 -1.385834 10.126706
1.057047 -1.406471 10.108406
-0.927648 -1.340702 10.123885
-1.182115 -0.786553 10.118624
-1.059380 0.039540 10.118894
1.118696 -1.326595 10.100402
1.162624 0.643114 10.115570
-0.776175 -1.490490 10.115921
1.097646 0.694214 10.118247
-1.186412 -0.687028 10.115647
-1.057365 0.096371 10.110133
-0.838666 -1.430582 10.120720
0.892750 0.819615 10.120808
-1.079721 0.134365 10.091439
-1.181128 -0.590988 10.118517
1.512047 0.122128 10.109009
1.145965 -1.243618 10.118977
-1.068150 -1.120543 10.118972
1.506554 0.138785 10.109121
-1.051958 0.048285 10.122292
-1.180555 -0.502424 10.116175
0.976362 0.786487 10.116199
-1.093300 -1.064349 10.118488
1.165548 -1.205096 10.121356
-1.180465 -0.411482 10.114164
-1.137087 -0.970595 10.114522
-1.100306 0.240194 10.076948
1.469714 0.232161 10.111160
1.191575 -1.157216 10.125922
-1.108831 0.321481 10.066582
-0.959920 -1.312476 10.116092
-1.173871 -0.316573 10.110659
1.260189 -1.070034 10.126712
-1.013807 -1.238811 10.113134
-1.056227 0.413168 10.095258
1.426534 0.318978 10.113125
1.267252 -1.063534 10.125576
-1.056540 -1.149769 10.117096
-1.045873 0.430549 10.099571
1.329147 0.468366 10.111523
1.344571 -0.989258 10.119032
0.131714 -1.770277 10.104279
1.310358 0.497859 10.107672
1.367381 -0.965620 10.117279
1.066473 0.719416 10.118991
1.419269 0.330802 10.113805
0.236436 -1.761358 10.111827
0.992065 0.776668 10.116868
1.360387 0.417492 10.118211
1.421034 -0.897384 10.114035
0.330520 -1.763852 10.107663
1.444172 -0.865044 10.106071
1.245625 0.577645 10.105396
1.466116 -0.782535 10.118864
1.234140 0.587510 10.107222
1.497343 -0.676349 10.103944
1.543480 -0.142206 10.108955
1.545856 -0.049137 10.107030
1.532632 0.048277 10.106928
-0.308998 -1.775463 10.102556
1.523449 -0.594740 10.079869
-1.050846 0.510821 10.040962
-0.682165 -1.601231 10.066593
0.703959 -1.707109 10.042782
1.517318 -0.507142 10.100154
-0.042736 -1.793436 10.075739
1.526094 -0.409702 10.093521
1.529532 -0.313163 10.098927
-0.786545 0.898227 10.032138
-0.596291 1.050745 10.029556
0.880802 -1.605007 10.049676
0.526476 0.912812 10.099669
-0.773438 -1.516510 10.091289
-1.236237 -0.412382 10.028022
-0.752276 0.948989 10.040710
-0.954597 -1.418856 10.026986
0.599917 0.898522 10.104484
-1.230903 -0.319177 10.026943
-0.876926 -1.432611 10.085130
-0.130157 1.056292 10.107662
0.971787 -1.515189 10.081242
0.689666 0.885135 10.098947
-0.959740 -1.334105 10.098035
0.789318 0.878200 10.069488
0.042428 1.046342 10.069212
-1.052216 -1.235270 10.072007
1.058621 -1.424713 10.091585
-1.139670 -1.149098 10.022979
-1.151596 -0.132606 10.071565
-1.068680 -1.150916 10.101215
1.515197 0.139656 10.081385
1.166683 -1.336693 10.042607
1.432001 0.326736 10.044095
-1.060869 0.048054 10.113770
1.163805 -1.243788 10.100637
1.240942 -1.241964 10.021270
-1.129377 0.319422 10.021938
1.246431 0.595023 10.025887
1.261652 -1.159721 10.048361
1.346408 -1.057149 10.036905
1.606025 -0.138814 10.025218
-0.492312 -1.648063 10.200746
-0.396431 -1.702996 10.195103
1.428855 -0.586796 10.211578
-0.561691 -1.597030 10.201752
-0.863307 0.395046 10.212947
0.426362 -1.714604 10.214658
1.429119 -0.539239 10.211571
-0.790614 0.356160 10.231526
-0.589771 -1.574041 10.202263
-0.451498 -1.676017 10.196959
1.428747 -0.503883 10.210831
-0.784789 0.330215 10.228590
0.515389 -1.709441 10.202732
-0.307016 -1.724571 10.197013
1.428187 -0.502321 10.211368
-0.646489 -1.520305 10.206960
-0.669027 0.883066 10.194372
0.559937 -1.691633 10.208012
1.412205 -0.408552 10.220133
-0.228646 -1.721787 10.212383
0.602432 0.848227 10.218226
-0.582721 0.948674 10.187968
-0.139372 -1.748585 10.186560
0.605172 -1.672685 10.204277
1.378348 -0.300234 10.238022
-0.921791 0.510685 10.191208
0.567775 0.868139 10.208807
-0.686081 -1.483227 10.208001
-0.219237 -1.722475 10.212668
1.379549 -0.240522 10.239398
-0.508804 0.896937 10.222731
-0.885258 0.600101 10.195402
0.694730 -1.614690 10.203972
-0.048870 -1.748723 10.190483
1.422519 -0.365838 10.206990
-0.856053 0.641872 10.198867
0.691746 0.815472 10.225887
1.426700 -0.316123 10.201344
-0.506409 0.932642 10.205098
-0.227874 -1.720330 10.214262
-0.796572 0.697705 10.213803
1.422810 -0.259566 10.205788
0.040900 -1.742133 10.196597
0.792958 0.794132 10.224433
-0.771556 0.744592 10.204840
-0.574999 0.957398 10.184223
-0.756377 0.776168 10.197191
0.705188 -1.605350 10.205664
-0.731183 -1.435229 10.214806
-0.684034 0.870549 10.193179
-0.506304 0.957619 10.192521
0.046107 0.934779 10.224678
-1.086374 -0.965065 10.202000
-1.078423 -0.224482 10.205154
0.778594 -1.531443 10.218630
0.135570 0.953308 10.200824
-0.780050 -1.396302 10.209541
-1.091700 -0.141911 10.175245
-0.501417 0.955241 10.193906
-0.503620 0.892697 10.224645
0.798276 -1.515419 10.217599
0.215588 0.951482 10.194978
-0.412096 0.833433 10.246785
-1.123579 -0.876058 10.203131
-1.050485 -0.050251 10.181245
-0.862947 -1.327207 10.200505
0.884887 -1.456316 10.207713
-0.323268 0.883381 10.235619
-1.038126 -0.036382 10.184417
-0.321619 0.888264 10.234205
0.951121 -1.417816 10.193970
-1.054736 -1.023476 10.204605
0.961425 -1.410738 10.191907
-1.136003 -0.831089 10.204216
-0.971758 -0.017668 10.217184
-0.304567 0.960299 10.209310
1.016205 -1.330848 10.199111
-0.906866 0.046880 10.219852
-1.144405 -0.787610 10.204078
-0.864346 -1.325631 10.200629
-0.870467 0.086569 10.221164
-0.221062 1.006902 10.190619
1.044595 -1.245679 10.219790
-0.936584 -1.237751 10.202015
-0.832770 0.136857 10.222926
1.075154 -1.200880 10.217288
-1.153322 -0.688313 10.199182
-0.138102 0.968902 10.212266
1.113114 -1.152006 10.213089
-0.956627 -1.204422 10.204484
0.441757 0.918663 10.197651
-0.809564 0.239982 10.215414
-1.142884 -0.591351 10.205478
1.161408 -1.091836 10.211938
-0.987702 -1.148649 10.206318
-0.048215 0.941457 10.223971
-0.789287 0.284014 10.222646
-0.133711 0.967536 10.212795
0.520703 0.892736 10.201437
-0.913321 0.427543 10.196724
1.197558 -1.056144 10.207537
-1.140147 -0.574540 10.206490
-1.036451 -1.058107 10.204917
1.243590 -1.017833 10.200105
-1.127921 -0.505050 10.209329
1.319187 -0.953201 10.192694
-1.117427 -0.417178 10.203970
1.062626 0.674284 10.207793
1.034783 0.694833 10.210108
1.380912 -0.236705 10.238982
-1.094393 -0.318914 10.207752
1.328203 -0.944439 10.192165
1.150160 0.611294 10.199740
1.434624 -0.151030 10.217302
1.387270 -0.867783 10.193385
0.884709 0.786509 10.206959
1.436923 -0.148377 10.215989
1.413639 -0.817572 10.193249
0.960017 0.765419 10.195999
0.139636 -1.726084 10.210232
1.473863 -0.049075 10.201319
1.434822 -0.773567 10.186595
0.237813 -1.714294 10.217719
1.475794 0.048361 10.200110
1.431675 -0.677697 10.203850
0.973664 0.755175 10.197450
0.330542 -1.711947 10.219758
1.429235 -0.602362 10.210696
1.451330 0.148316 10.210761
1.237750 0.528919 10.196633
1.186691 0.584049 10.195339
1.433693 0.237895 10.199394
1.255355 0.504441 10.198639
1.409238 0.300391 10.194521
1.399923 0.315134 10.195090
1.342452 0.382356 10.205057
1.310464 0.419280 10.208720
-0.671514 0.953667 10.127022
1.429890 -0.586812 10.210391
-0.864256 0.334245 10.198439
-0.593150 -1.600922 10.162068
-0.503971 0.899679 10.219806
1.431028 -0.409532 10.201044
-0.221992 -1.773941 10.131902
-0.792995 0.328528 10.224219
-0.690414 -1.526907 10.156167
-0.503253 1.028640 10.128362
-0.130856 -1.783023 10.117631
0.610896 -1.695684 10.149649
1.380712 -0.240376 10.238408
0.530996 0.888308 10.179240
-0.421287 0.903874 10.209671
-0.227724 -1.724230 10.208722
-0.423403 0.964424 10.188473
1.430607 -0.233977 10.200873
-0.046866 -1.782765 10.114280
-0.323102 0.888447 10.233708
0.787720 -1.605476 10.122731
0.048416 0.976121 10.171567
-0.318150 0.962340 10.204773
1.516740 -0.227721 10.125404
-0.948578 0.510180 10.169437
0.136452 0.960322 10.188675
0.799132 -1.531350 10.199383
-0.417975 1.024405 10.155493
-1.137040 -0.970283 10.114823
0.223797 0.973576 10.127653
-0.942272 0.595515 10.141449
-0.312794 1.023499 10.173447
-1.137295 -0.878001 10.176755
-0.864797 -1.327758 10.198191
0.888025 -1.524574 10.135116
-0.782588 -1.432357 10.169726
-1.141933 -0.225143 10.130519
-0.853972 0.685581 10.168708
0.963966 -1.419017 10.182886
-0.220044 1.031393 10.166284
-1.140853 -0.505264 10.189289
1.066119 0.695302 10.168790
-1.052327 0.126368 10.116201
-0.049082 0.972362 10.190816
-1.136051 -0.416147 10.180063
1.053909 -1.329254 10.164601
-1.062567 -1.061733 10.164938
-0.770255 0.781597 10.176455
-0.982260 0.050096 10.172048
-1.141578 -0.317923 10.154054
-0.955416 -1.238850 10.180368
1.232239 0.580502 10.130374
1.074716 -1.243688 10.191592
-0.979581 0.124611 10.151755
-0.878186 0.138236 10.196440
1.166817 -1.155768 10.153441
1.437073 -0.150539 10.215114
1.513485 -0.142683 10.142278
-1.059007 0.232337 10.113946
1.516680 -0.047974 10.147710
-1.047083 0.336291 10.124533
1.257582 -1.062409 10.137779
1.512244 0.049256 10.144077
-1.041199 0.416165 10.112230
1.334139 -0.958139 10.170668
1.409439 0.314625 10.176607
1.420235 -0.872463 10.142419
1.343306 0.415632 10.161657
-0.866941 0.236484 10.189028
-0.953575 0.345045 10.169711
-0.948810 0.428367 10.178269
0.596424 -1.630861 10.282006
0.617701 0.807448 10.315585
-0.680957 -1.401192 10.288122
0.642254 -1.595256 10.287971
0.697755 0.769024 10.317402
1.343732 -0.232171 10.295565
-0.757686 -1.330834 10.287588
0.783850 0.755462 10.297538
1.347830 -0.573103 10.296982
0.694433 -1.543999 10.294160
1.349147 -0.217026 10.294438
-0.459538 0.126959 10.331499
-1.052302 -0.909571 10.285904
1.358565 -0.503091 10.288853
1.370190 -0.142941 10.300247
0.723755 -1.515400 10.293449
-1.077968 -0.876642 10.272720
-0.872313 -1.191030 10.293928
1.392362 -0.049716 10.305006
0.094914 0.884427 10.308266
1.345606 -0.419067 10.293979
-0.912105 -1.145260 10.288894
1.405364 0.044588 10.296090
0.134361 0.896343 10.301852
0.788377 -1.447962 10.293789
1.392597 0.143775 10.294783
-1.100107 -0.797262 10.272840
1.342380 -0.410682 10.296070
-0.775918 -1.311759 10.288199
0.220487 0.908096 10.303259
-1.112794 -0.688833 10.266588
1.155864 0.503432 10.287659
-0.831723 -1.242928 10.292991
1.325531 -0.318734 10.303503
1.147325 0.511679 10.288470
-1.097216 -0.580832 10.271178
0.806702 -1.429718 10.293074
-0.486449 0.234544 10.330726
-1.017608 -0.968177 10.290505
-0.957198 -1.070087 10.291867
1.334634 0.299013 10.287915
0.884350 -1.346348 10.291130
1.319152 0.318647 10.287876
-0.473682 0.344565 10.344991
-0.963478 -1.057881 10.292897
0.437385 0.898795 10.308683
-1.067689 -0.495978 10.280401
1.377268 0.235097 10.282526
0.891743 -1.336000 10.291868
-1.058372 -0.475556 10.283320
1.253784 0.379856 10.294053
-0.505523 0.416980 10.333890
-0.964620 -0.222670 10.298478
1.219988 0.419138 10.292424
-1.025985 -0.411190 10.292493
-0.526764 0.432512 10.327690
0.952465 -1.242356 10.299207
-0.504755 -1.541465 10.297265
-0.984739 -0.314592 10.300476
-0.960852 -0.202661 10.297354
-0.683546 0.442395 10.292957
0.042645 0.872281 10.311760
-0.545332 -1.514279 10.292749
0.972787 -1.224811 10.294035
-0.946150 -0.136142 10.290775
-0.599678 0.515380 10.328938
0.608490 0.812827 10.315045
-0.408865 -1.631008 10.278959
1.030728 -1.145939 10.294974
0.049375 -1.674639 10.296516
0.541641 0.859796 10.304107
-0.531298 0.509366 10.340081
-0.454477 -1.599282 10.283732
0.145409 -1.670321 10.297682
-0.862491 -0.042907 10.304336
1.063869 -1.101152 10.295905
-0.314415 -1.663153 10.275291
0.242409 -1.662637 10.303214
-0.851334 -0.037330 10.308175
1.108507 -1.052089 10.290643
-0.586558 -1.484226 10.288760
0.332469 -1.654861 10.314384
-0.784365 0.519804 10.280889
0.517393 0.873939 10.302939
-0.656111 -1.423092 10.288334
-0.774608 0.008048 10.322923
-0.759309 0.595323 10.292384
0.421049 -1.666765 10.298166
1.155370 -0.970079 10.304658
-0.744803 0.040505 10.317588
-0.753446 0.602355 10.294458
-0.223193 -1.678755 10.272283
0.509439 -1.664183 10.285238
0.974367 0.653836 10.297572
-0.686131 0.686573 10.306870
-0.694112 0.056262 10.319755
-0.137254 -1.677739 10.284151
0.913091 0.695339 10.298870
1.161605 -0.961548 10.305354
-0.680440 0.696600 10.305812
-0.044953 -1.674115 10.295772
1.064758 0.593918 10.288534
-0.766875 0.451513 10.273699
1.244166 -0.897808 10.289766
1.057322 0.604595 10.285556
-0.593610 0.517634 10.330567
1.270995 -0.871447 10.286089
-0.592690 -0.046466 10.342230
0.876332 0.740211 10.280650
1.306573 -0.779456 10.294483
-0.327554 0.597518 10.344719
-0.625249 -0.028572 10.341355
-0.380927 0.611194 10.340857
-0.510393 -0.065904 10.342042
1.317944 -0.681154 10.306451
-0.392569 0.696508 10.317215
-0.443483 -0.046113 10.340340
1.341755 -0.589122 10.300870
-0.632406 0.774735 10.289909
-0.424400 -0.023492 10.338276
-0.584567 0.818995 10.278202
-0.668327 0.038908 10.325423
-0.505294 0.829760 10.273587
-0.412237 0.739526 10.304945
-0.427601 0.042030 10.332504
-0.459858 0.783557 10.293271
-0.436479 0.069881 10.331990
-0.257771 0.629463 10.341613
-0.249302 0.639292 10.340156
-0.209610 0.710559 10.332737
-0.207444 0.793944 10.309221
-0.222040 0.802307 10.301815
-0.240577 0.868110 10.274942
-0.053240 0.853333 10.316849
-0.093288 0.872669 10.297795
-0.214985 0.909785 10.264137
-0.137997 0.896307 10.279677
-0.697804 0.118278 10.292648
0.696277 -1.604891 10.216471
-0.401308 -1.684606 10.220671
1.350683 -0.588631 10.292252
-0.597376 0.120567 10.305719
1.424261 -0.049869 10.263161
-1.051967 -0.966323 10.250040
-0.310868 -1.695121 10.238356
1.427576 -0.503860 10.212172
0.882721 -1.426004 10.236774
1.422018 0.045728 10.274380
0.616868 0.813905 10.296080
-0.699735 0.231242 10.267915
-1.137827 -0.788183 10.216570
0.691613 0.790311 10.281752
0.967506 -1.332420 10.239152
1.441876 0.148483 10.225662
0.789621 0.778673 10.256064
1.351105 -0.409996 10.286131
-0.499507 0.128242 10.314229
-0.139434 -1.694747 10.263874
-0.499513 0.235341 10.323018
-1.136163 -0.688255 10.232207
0.042582 0.902464 10.267090
-0.698872 0.342957 10.264744
0.973452 -1.239542 10.285352
-0.586328 0.349476 10.297490
-0.046410 -1.700602 10.263652
1.372222 -0.314664 10.246971
-0.505803 0.345075 10.324447
-1.137966 -0.591159 10.214672
1.155446 0.510894 10.283794
0.048363 -1.697096 10.267862
0.976305 0.697439 10.259255
-0.687509 0.433426 10.287917
1.417743 -0.316310 10.209509
-0.592808 0.431871 10.304659
1.149913 0.588888 10.227937
1.336660 0.320099 10.270743
1.065347 -1.147640 10.263494
-0.594023 0.513511 10.328505
0.875889 0.752795 10.268495
-1.056363 -0.414716 10.267695
1.410204 0.235307 10.241413
-0.681814 -1.424106 10.268780
0.953979 0.746747 10.233468
1.150133 -1.050585 10.256646
-0.774325 -1.329784 10.275920
-0.857157 0.513306 10.235102
-1.056558 -0.318700 10.244078
1.236226 0.501250 10.224872
-0.856440 0.601944 10.218327
1.163193 -0.971833 10.298239
1.258837 0.424119 10.259233
-1.053794 -0.224416 10.228535
-0.761993 0.602682 10.288064
-1.039467 -0.136491 10.223493
-1.037093 -0.049404 10.192193
1.247695 -0.964285 10.243781
-0.955167 -0.136009 10.284580
-0.869537 -1.240937 10.264080
-0.959615 -0.044358 10.241442
-0.862864 -0.039519 10.301960
-0.954405 -1.145677 10.247464
-0.780119 0.698347 10.227664
1.330073 -0.868851 10.245755
0.143526 -1.695192 10.262516
-0.868376 0.045520 10.244157
1.334799 -0.777761 10.275032
-0.776289 0.045297 10.297506
-0.498648 -1.600088 10.254298
0.238599 -1.705082 10.234624
1.411833 -0.775537 10.211568
-0.678249 0.779545 10.259560
-0.786098 0.135449 10.248631
-0.588502 -1.513903 10.263910
0.330890 -1.700518 10.241142
-0.670139 0.872754 10.201234
1.354850 -0.680255 10.275834
0.423547 -1.684665 10.270544
1.423467 -0.677558 10.213153
0.512768 -1.680732 10.258356
-0.785329 0.239635 10.227504
-0.322398 0.626727 10.325362
-0.318524 0.702618 10.303663
-0.863424 0.422909 10.219531
-0.582729 0.878224 10.236058
-0.776330 0.425652 10.259928
-0.410889 0.799511 10.269596
-0.317396 0.792291 10.276850
-0.593498 -0.030009 10.331293
-0.506244 -0.026204 10.310913
-0.242069 0.708827 10.315113
-0.442146 -0.022782 10.322158
-0.226534 0.794795 10.300416
-0.601341 0.039334 10.311754
-0.050530 0.889673 10.278882
-0.503950 0.041468 10.299767
-0.575538 0.946094 10.193392
-0.437651 0.041777 10.321852
-0.506364 0.954169 10.194781
-0.218974 0.944047 10.240887
-0.138519 0.964999 10.216393
1.254698 -0.407595 10.382008
0.606859 -1.539620 10.368187
-0.586338 -1.301678 10.378297
0.631861 -1.520939 10.367663
1.244966 -0.318483 10.390847
-0.699349 -1.249391 10.367128
-0.426766 0.136452 10.397224
-0.662837 -1.269280 10.371187
1.254105 -0.282755 10.388995
0.704451 -1.449535 10.365026
-0.778465 -1.167914 10.368164
0.695750 0.727430 10.395761
0.987509 0.118652 10.431855
-0.512651 -1.343149 10.380935
0.645256 0.772897 10.385345
1.272383 -0.224321 10.388423
0.954557 0.155136 10.436173
-0.889338 -1.034197 10.366822
-0.451027 0.236972 10.391385
0.706767 -1.447455 10.364583
0.730698 0.698917 10.398429
-0.925857 -0.986876 10.364413
-0.413610 -1.325788 10.389628
1.064153 0.119305 10.418099
0.591681 0.810427 10.381638
-0.444000 0.347192 10.398082
1.105068 0.150157 10.407793
0.768904 -1.360721 10.364624
-0.809895 -1.126984 10.370361
-0.427178 -1.269134 10.392843
0.344684 0.861770 10.405076
-0.853406 -1.075757 10.369448
1.315503 -0.126795 10.382368
0.427641 0.866868 10.392761
-0.409226 -1.335141 10.389007
-0.419930 0.435445 10.407756
1.322815 -0.105292 10.381959
-0.830503 -0.213256 10.378296
-0.391764 -1.228765 10.394495
0.507507 0.852356 10.383744
1.329870 -0.046439 10.386431
0.825633 -1.246968 10.374805
-0.819215 -0.124685 10.372512
-0.383266 -1.207446 10.395609
1.328706 -0.015937 10.388201
0.884723 0.575460 10.398333
1.319613 0.037976 10.389663
0.825735 -1.246712 10.374846
0.829775 0.609244 10.407232
-0.419726 0.435993 10.407792
-0.150789 -1.328388 10.405715
-0.490297 -1.357507 10.381404
0.965325 0.509408 10.388153
-0.772287 -0.042248 10.374897
1.308231 0.137201 10.375613
-0.414749 -1.470718 10.366234
-0.408853 0.509053 10.398112
0.891011 -1.146639 10.382236
-0.226166 -1.256539 10.404074
-0.472221 -1.413209 10.371669
0.796659 0.635128 10.408230
-0.230024 -1.253735 10.403935
0.964826 0.230383 10.422381
-0.359505 -1.415570 10.382368
-0.750258 -0.001533 10.369996
0.966517 0.507802 10.388108
-0.303731 -1.199164 10.401661
0.975754 0.328539 10.412529
0.895549 -1.142332 10.381921
-0.128123 -1.570241 10.370167
1.151701 0.230215 10.387622
-0.664045 0.606441 10.353317
-0.149308 -1.514365 10.383497
0.973887 -1.063934 10.375783
-0.737680 0.016661 10.367231
1.163897 0.249388 10.382123
-0.664361 0.606619 10.353230
-0.147372 -1.336580 10.405091
-0.050903 -1.578055 10.375228
0.970359 0.429780 10.405775
-0.689762 0.051316 10.362418
0.040953 -1.597306 10.371482
0.976719 -1.057909 10.376604
0.967269 0.491585 10.393288
-0.154252 -1.420986 10.394057
-0.663977 0.607114 10.353356
-0.149301 -1.347282 10.402787
1.023906 -0.971658 10.381976
-0.978225 -0.911504 10.359379
1.262994 0.229641 10.370240
-0.590519 -0.117688 10.402000
-0.594259 -0.115982 10.401705
1.243544 0.257166 10.367036
-0.590416 0.603837 10.367103
-0.983866 -0.904152 10.357928
-0.525358 -0.122100 10.403345
1.071218 -0.915388 10.377264
-0.495747 0.558276 10.375793
-0.655613 -0.043415 10.389589
-0.598668 0.675521 10.361314
1.106100 -0.874828 10.374268
0.050679 0.820488 10.390635
-0.511940 -0.121019 10.404385
1.135217 -0.788724 10.385417
0.145001 0.837147 10.399825
-0.458282 0.591888 10.376321
-0.438647 -0.090153 10.408949
1.165084 -0.753998 10.382643
0.234827 0.852209 10.403394
-0.328258 0.551297 10.397620
-0.399370 -0.033568 10.407387
-0.944546 -0.455307 10.358983
1.211604 -0.689348 10.378343
-0.476841 0.675888 10.359834
0.329346 0.859558 10.407180
-0.681222 0.019755 10.374393
1.253602 -0.616686 10.371886
-0.901864 -0.411568 10.370735
-0.587740 0.686028 10.360391
1.262935 -0.592475 10.370454
-0.393534 0.046960 10.405790
0.511928 0.850695 10.383535
-0.511686 0.714481 10.352540
-0.874869 -0.379032 10.376983
-0.417309 0.110981 10.398603
1.292086 -0.501908 10.357728
-0.234359 0.599520 10.392277
1.256459 -0.410926 10.380899
-0.827206 -0.294634 10.385746
-0.227056 0.604543 10.392242
-0.163544 0.695857 10.382421
-0.123405 0.762273 10.375593
0.147844 -1.608238 10.368937
-0.085297 0.779363 10.383381
0.252182 -1.605829 10.374825
-0.044436 0.795540 10.386283
0.334913 -1.610805 10.371683
0.317098 -1.610334 10.372084
0.381639 -1.607737 10.372805
0.416484 -1.598849 10.376925
0.511278 -1.582048 10.372317
1.326342 -0.502935 10.324198
-0.682137 -1.334189 10.331787
0.600851 -1.594580 10.321721
-0.503748 0.431741 10.338118
-0.581701 -1.342263 10.366304
0.994317 0.158274 10.408771
1.257020 -0.407826 10.380208
-0.695682 -1.260350 10.363622
-0.672963 0.534514 10.330195
0.611165 0.796767 10.367658
0.692211 -1.514727 10.325401
1.257947 -0.319212 10.379211
-0.498202 0.513320 10.359422
-0.873244 -1.149166 10.317492
1.065107 0.152645 10.405678
0.789698 0.699548 10.354822
-0.401717 -1.262940 10.392805
-0.425518 0.436956 10.397858
-0.782220 -1.244761 10.326201
-0.414213 0.509787 10.394378
-0.325341 -1.330600 10.387774
-0.798696 -1.160587 10.360422
0.788480 -1.430723 10.307757
1.326026 -0.128248 10.368915
0.139622 0.868708 10.349927
-0.321540 -1.252484 10.393406
-0.958560 -1.058008 10.297673
-0.758288 0.523856 10.295859
0.803892 -1.347313 10.346508
-0.962210 -0.222617 10.300144
-0.881024 -1.066374 10.356151
-0.319069 -1.199341 10.399370
-0.679881 0.685760 10.311462
0.234116 0.858526 10.394107
1.337579 0.039976 10.372616
-0.964547 -0.975056 10.338995
-0.875124 -0.218033 10.354598
1.330938 0.139702 10.357401
0.329796 0.862875 10.402318
-0.225032 -1.333403 10.390293
0.885481 -1.336406 10.295930
-0.414334 0.595203 10.364213
-0.503188 -1.514509 10.315174
-0.229900 -1.256324 10.403278
-0.860977 -0.129258 10.345990
-0.412947 0.690965 10.327283
-0.411601 -1.597925 10.304418
0.512443 0.852800 10.377809
-0.151115 -1.337162 10.403703
0.983975 0.230511 10.411261
0.900456 -1.248757 10.330140
-0.317414 -1.599607 10.326857
-0.586705 0.769667 10.311234
-0.416682 -1.504764 10.352351
0.978307 0.328611 10.410767
-0.507541 0.765958 10.318853
-0.323412 -1.508877 10.365365
0.885704 0.601920 10.379594
0.895780 -1.146780 10.379938
-0.581600 -1.420157 10.331483
1.070880 0.232741 10.388065
0.968850 0.591811 10.343362
-0.242725 0.618041 10.365654
-0.493570 -1.417077 10.364402
0.969587 -1.141905 10.342097
1.073580 0.328543 10.372424
-1.052822 -0.886354 10.297929
0.881913 0.692941 10.316129
-0.590730 -0.116222 10.401066
-0.129878 0.784468 10.356474
-0.326981 -1.417436 10.382345
1.165321 0.316752 10.360186
-0.212941 0.865076 10.285970
-1.062637 -0.812557 10.314314
1.058566 0.513856 10.336195
-0.217292 -1.605454 10.336295
-0.135476 0.864641 10.302762
0.974062 0.430152 10.403116
1.063639 -1.055534 10.322920
-0.127277 -1.592643 10.359370
1.059010 0.593618 10.292398
-0.215884 -1.512140 10.375272
1.062222 0.428222 10.359564
1.066917 -0.965963 10.362001
-0.046723 -1.602951 10.360779
1.160557 0.419776 10.323323
-1.072830 -0.571950 10.296082
0.044825 -1.614707 10.357966
1.151092 -0.871278 10.354177
1.329047 0.234176 10.327752
-0.982184 -0.909795 10.356774
-0.219388 -1.418731 10.386615
1.161147 -0.784611 10.376322
1.242736 0.305886 10.345491
1.241623 -0.871137 10.304477
-1.060274 -0.494002 10.287041
1.249206 -0.780754 10.331240
-0.983382 -0.468761 10.338958
1.251778 -0.683983 10.355642
-0.971733 -0.402836 10.328577
-0.895807 -0.386472 10.368249
-0.967412 -0.313630 10.312186
-0.880004 -0.307863 10.363340
0.147926 -1.620346 10.356898
0.249585 -1.619797 10.359570
0.415945 -1.610723 10.365974
0.510376 -1.605502 10.351370
-0.318465 -1.195334 10.400138
-0.682070 -0.065553 10.431829
-0.248697 0.493094 10.476713
0.043983 0.504011 10.508135
-0.317233 0.494878 10.461377
0.042562 0.516998 10.506156
-0.699763 -0.044905 10.429850
0.052783 0.745485 10.467483
0.112845 0.772830 10.466249
-0.015601 0.606405 10.483251
-0.147112 -1.201793 10.453492
0.732632 -1.022393 10.497762
0.234004 0.784756 10.478526
-0.034476 0.683346 10.465893
-0.690120 0.000470 10.424381
0.207815 0.783641 10.476122
-0.150716 -1.200198 10.452746
-0.060706 0.689859 10.454552
0.733054 -1.022061 10.497666
0.150691 0.783372 10.466896
0.782360 -0.959111 10.493056
-0.030592 0.716911 10.456060
-0.634801 -0.059095 10.429611
0.261072 0.787380 10.479331
-0.081862 -1.254631 10.456443
0.321657 0.801458 10.472588
0.785854 -0.939031 10.497280
-0.499202 -0.197770 10.472645
-0.093510 -1.238900 10.458358
0.419128 0.810531 10.464815
-0.424625 -0.134204 10.482167
0.030020 0.425673 10.519856
0.798174 -0.881133 10.506909
-0.417510 -0.126555 10.483225
0.030954 0.427077 10.519754
0.787688 0.562102 10.475255
0.830771 -0.782931 10.513788
-0.360103 -0.036637 10.496760
0.735631 0.604328 10.479745
0.879573 -0.684993 10.506877
0.696768 0.649081 10.475789
-0.541042 -0.250504 10.474670
1.131762 -0.227332 10.482775
-0.350037 0.052214 10.500618
0.673830 0.687134 10.466896
1.163992 -0.195034 10.474114
-0.500381 -0.199152 10.472728
-0.385937 0.145517 10.479766
0.880861 -0.682162 10.506756
0.515302 0.796194 10.461984
0.983955 0.013419 10.498003
0.898599 -0.602194 10.519455
-0.388856 0.152289 10.478332
0.589441 0.783758 10.448545
0.939484 0.068280 10.496158
-0.403801 0.237401 10.475132
0.910249 0.148255 10.487116
0.966053 -0.503029 10.508881
0.642398 0.749676 10.446749
-0.403889 0.339770 10.469439
1.073486 -0.030447 10.488771
0.973506 -0.492607 10.508006
-0.409214 0.423121 10.449643
1.166009 -0.006694 10.467422
1.050220 -0.404873 10.491171
0.845617 0.506945 10.472851
-0.389141 0.467659 10.448952
1.216410 -0.127516 10.463456
1.070282 -0.356743 10.490405
-0.361847 0.487721 10.451852
1.240572 -0.103192 10.455756
1.083088 -0.320981 10.490316
1.257860 -0.049579 10.450111
-0.057366 0.346077 10.534381
-0.117007 0.353905 10.535888
1.243751 -0.011291 10.451482
-0.027441 0.361382 10.529453
-0.128240 0.374409 10.528343
0.907221 0.164934 10.485570
-0.153520 0.414347 10.514738
0.901427 0.231072 10.482191
-0.231683 0.477047 10.487410
0.901463 0.241941 10.481585
0.903765 0.328104 10.476280
0.894580 0.423695 10.471316
0.880376 0.455804 10.472638
-0.783238 -0.203512 10.397040
0.608815 -1.523759 10.378763
-0.759831 -0.115020 10.404350
-0.682749 -0.184591 10.414582
0.426201 -1.556456 10.405806
-0.902325 -0.997932 10.375924
-0.676845 -0.109790 10.419231
0.518498 -1.537203 10.402281
-0.824696 -1.089672 10.379745
0.445842 -1.501961 10.431868
-0.751593 -0.042577 10.392039
-0.232739 0.497538 10.473913
1.158636 0.143291 10.412725
0.533147 -1.488457 10.423384
-0.139428 0.501130 10.479379
-0.690663 0.006086 10.415932
1.243408 0.134997 10.407486
-0.129053 0.601046 10.450225
0.625192 -1.471953 10.400094
1.162795 0.229434 10.387825
-0.117622 0.692333 10.418928
1.243851 0.229494 10.377001
-0.580472 -0.185276 10.433750
-0.040005 0.503861 10.487875
-0.500507 -0.197638 10.471738
-0.037504 0.607271 10.477567
-0.489315 -1.342118 10.384303
-0.511840 -0.122065 10.405538
0.041878 0.504019 10.507287
-0.416273 -1.412170 10.380806
-0.427800 -0.125621 10.468702
0.052908 0.774343 10.444583
0.704753 -1.448135 10.365677
-0.414676 -1.335563 10.389024
-0.042401 0.776565 10.405034
0.234016 0.786189 10.477346
-0.133684 -1.515808 10.385454
-0.392021 0.145084 10.469870
0.425111 0.856983 10.409314
-0.063141 -1.530182 10.391519
0.030108 0.427112 10.519109
0.794958 0.608678 10.432168
0.024618 -1.554650 10.393335
-0.410800 0.433469 10.423831
0.691456 0.689492 10.448672
-0.143496 -1.421931 10.395825
1.166282 -0.224943 10.465537
-0.054121 0.361941 10.516477
-0.087923 -1.433785 10.405741
0.982903 0.070127 10.463898
0.825558 -1.139655 10.413080
-0.132872 0.416868 10.506577
0.802993 -1.043009 10.455405
1.066244 0.062058 10.445439
-0.097139 -1.331858 10.424450
0.884864 0.509448 10.440825
1.163927 0.043765 10.447598
-0.046054 0.417848 10.500245
0.785974 -0.959663 10.490740
0.965221 0.507743 10.388890
1.249622 -0.222596 10.410717
0.891257 -1.059867 10.413769
1.245243 -0.126185 10.446406
-0.663971 0.606660 10.353399
0.974636 -1.058010 10.377643
1.323879 -0.046411 10.393260
0.881510 -0.973107 10.441032
-0.590459 0.607529 10.367841
1.247639 0.032058 10.436720
-0.500784 0.596618 10.381329
0.984628 -0.976195 10.398023
-0.587787 0.674931 10.365260
0.903415 0.230996 10.479687
-0.511394 0.675784 10.367273
0.873243 -0.881618 10.464013
0.991987 -0.887955 10.413450
0.988944 -0.788924 10.430779
1.075510 -0.879597 10.385344
1.084666 -0.793823 10.400401
0.970931 -0.689446 10.455027
0.963704 -0.592930 10.480246
1.080796 -0.703150 10.419076
1.172247 -0.696769 10.393839
1.175817 -0.597267 10.413253
1.254409 -0.593141 10.376354
0.972168 -0.501709 10.505434
-0.479752 -1.280518 10.391570
1.058774 -0.486887 10.470323
1.167978 -0.491489 10.429395
1.064605 -0.403074 10.484100
-0.384178 -1.207389 10.395805
1.168070 -0.400453 10.434237
-0.149625 -1.259071 10.427337
1.168560 -0.316344 10.443293
-0.227817 -1.198800 10.422873
1.252282 -0.499768 10.387604
-0.093503 -1.255973 10.451149
-0.811155 -0.289295 10.390957
-0.573358 -0.249769 10.460037
0.257644 -1.577612 10.398801
0.335150 -1.608259 10.374377
0.342290 -1.574749 10.399647
0.658657 -0.972691 10.574466
-0.418267 -0.188948 10.538761
0.029128 0.358399 10.587894
0.687172 -0.940446 10.571532
0.103964 0.422723 10.583830
-0.368447 -0.122729 10.550415
0.134680 0.454986 10.583881
-0.423679 -0.196589 10.538242
-0.323992 -0.059576 10.571462
0.182614 0.507222 10.584659
0.703231 -0.910010 10.573977
0.236438 0.581975 10.575602
-0.308469 0.124721 10.570617
0.719464 -0.871849 10.578066
-0.312238 0.143908 10.568011
0.253730 0.599191 10.573694
0.759735 -0.781086 10.583480
0.701797 0.478970 10.572089
-0.311054 -0.030086 10.577323
0.324718 0.637178 10.569749
0.629588 0.522780 10.576771
0.784577 -0.737065 10.580828
-0.300380 0.054381 10.577798
0.781393 0.475095 10.540001
0.421349 0.642207 10.569981
0.818563 -0.681059 10.573510
-0.312953 0.239166 10.565363
0.606659 0.543510 10.575127
0.856475 -0.593357 10.573533
0.989596 -0.236979 10.557618
-0.304908 0.329838 10.556963
0.543399 0.599214 10.570702
0.976634 -0.125270 10.555293
0.878100 -0.541957 10.573145
-0.294221 0.352454 10.555483
0.516315 0.619978 10.568426
0.940287 -0.024106 10.551000
0.890903 -0.509811 10.573727
-0.132662 0.319705 10.593145
-0.150680 0.330423 10.588016
0.926966 -0.425500 10.572466
0.906318 0.041639 10.549070
-0.060509 0.320288 10.593427
0.900376 0.057178 10.547064
0.969002 -0.334163 10.563060
0.006977 0.345597 10.588966
0.882781 0.136819 10.532145
-0.266044 0.399072 10.546917
-0.167177 0.385230 10.559933
0.870687 0.234785 10.524925
-0.219700 0.408762 10.548530
0.858066 0.337682 10.526928
0.826047 0.426512 10.533967
0.131838 0.506720 10.554312
0.043095 0.601929 10.499719
-0.685135 -0.046880 10.433555
-0.315897 0.486582 10.468744
0.143071 0.597638 10.536251
-0.147023 -1.200475 10.454178
0.237795 0.598467 10.569637
-0.028679 0.688867 10.469044
0.732439 -1.021852 10.498110
-0.420096 -0.189572 10.537146
0.049265 0.695481 10.487997
-0.330843 -0.032989 10.547323
0.709863 -0.946718 10.550097
0.147896 0.698205 10.511552
-0.326045 0.053691 10.541661
0.239131 0.693392 10.532793
-0.504037 -0.247266 10.495783
0.789552 -0.881252 10.513134
-0.382509 0.237155 10.504176
0.324014 0.690379 10.544983
0.792825 -0.784204 10.548352
-0.382063 0.336220 10.496918
0.419591 0.686877 10.549106
0.698327 0.520073 10.552125
-0.377453 0.415364 10.482457
0.783887 0.505669 10.518625
0.150748 0.773650 10.475184
-0.311759 0.418529 10.510295
0.879474 -0.682182 10.507935
0.320774 0.782880 10.487982
0.995475 -0.236183 10.553788
0.896833 -0.602098 10.521316
-0.128681 0.348059 10.549879
0.418021 0.781382 10.490061
0.995407 -0.127220 10.544802
0.983476 -0.028413 10.521488
0.973394 -0.415692 10.537466
0.604842 0.598181 10.551691
1.079787 -0.231574 10.507328
0.514719 0.684091 10.539937
1.073271 -0.134774 10.514315
0.986524 -0.331270 10.550170
0.603349 0.684700 10.511975
1.164199 -0.131882 10.484650
1.072876 -0.321548 10.496076
1.073098 -0.039685 10.492899
0.697871 0.603040 10.504732
1.165513 -0.051557 10.480841
0.515611 0.779613 10.477835
0.906592 0.059622 10.537514
0.592936 0.759721 10.472759
0.906544 0.147114 10.492527
1.241045 -0.050649 10.459220
0.885034 0.330038 10.497230
0.880820 0.424346 10.483806
-0.150765 0.163544 10.675091
-0.138785 0.182499 10.674767
0.585741 -0.897780 10.659718
-0.126196 0.286845 10.641953
-0.163556 0.309916 10.625968
0.628038 -0.875461 10.648235
-0.112988 0.250425 10.659737
0.645629 -0.857359 10.645303
-0.059420 0.275806 10.660674
0.671894 -0.779366 10.660105
-0.103409 0.303605 10.637490
0.037425 0.317858 10.658577
0.702059 -0.725156 10.662170
-0.129413 0.313891 10.629702
0.726498 -0.691044 10.659329
0.785238 -0.601185 10.649031
0.785895 -0.599422 10.649114
0.056308 0.328111 10.657796
0.146241 0.384816 10.655927
0.812913 -0.524739 10.649838
0.192665 0.412659 10.658119
0.848189 -0.443280 10.642176
0.228246 0.431122 10.658921
0.889883 -0.361097 10.627474
0.312779 0.451064 10.661139
0.413627 0.444885 10.662160
0.588780 0.428651 10.636839
0.528169 0.449315 10.642619
-0.284809 -0.086042 10.637377
0.510035 0.452689 10.644635
-0.249768 -0.017647 10.652430
-0.222174 0.056813 10.658882
-0.221071 0.059592 10.659079
0.873334 0.049966 10.590435
-0.289534 0.327400 10.567342
0.640882 -0.927079 10.613355
-0.302250 0.143756 10.577867
-0.215785 0.149565 10.639000
-0.297404 0.239726 10.576292
0.787441 0.436020 10.555754
-0.205618 0.249068 10.619320
-0.129819 0.252622 10.650223
0.229923 0.506442 10.608570
-0.203686 0.325350 10.596431
0.695117 -0.865825 10.602688
-0.131478 0.314296 10.617694
0.317845 0.511296 10.626298
0.697949 -0.778712 10.641149
0.323411 0.602481 10.584461
0.033581 0.336420 10.627008
0.422355 0.518287 10.623068
0.774689 -0.681238 10.621687
-0.213682 0.384964 10.568183
0.422619 0.604854 10.585550
0.785434 -0.601136 10.648867
0.523375 0.525688 10.605521
0.517739 0.600405 10.576028
0.880294 -0.510271 10.584917
0.607093 0.522612 10.584409
0.142588 0.415001 10.623297
0.897873 -0.432113 10.597165
0.901027 -0.355246 10.618312
0.599476 0.458909 10.617587
0.701847 0.458618 10.581857
-0.321800 -0.101960 10.599271
0.911992 -0.017864 10.576944
-0.221920 0.059462 10.658353
-0.082652 0.165764 10.722008
0.563589 -0.706061 10.742017
-0.061954 0.189024 10.722551
0.564699 -0.705196 10.741925
0.624048 -0.672418 10.728860
0.017503 0.252627 10.721724
0.658920 -0.637771 10.723557
0.030251 0.260593 10.721381
0.130934 0.310100 10.726112
0.211116 0.348009 10.725808
0.219820 0.350836 10.726115
0.254830 0.358729 10.727301
-0.181826 0.005864 10.714858
-0.154386 0.051135 10.721178
-0.131814 0.083338 10.725455
-0.138818 0.163482 10.683584
-0.125771 0.301626 10.640604
-0.055889 0.244608 10.691170
0.580003 -0.854858 10.680694
0.626411 -0.856908 10.657408
0.142328 0.334473 10.706884
0.569110 -0.769462 10.716867
0.625932 -0.777810 10.688263
0.227626 0.413997 10.672584
0.564682 -0.706005 10.741629
0.284935 0.369609 10.720809
0.622254 -0.700621 10.718943
0.308166 0.427024 10.677236
0.704798 -0.694917 10.673409
0.413468 0.444347 10.662492
0.715312 -0.622032 10.695235
0.739046 -0.554992 10.700090
0.508769 0.447701 10.647613
0.806170 -0.527143 10.655369
0.822056 -0.454107 10.663379
-0.248019 -0.069997 10.673275
-0.231693 -0.012545 10.670831
-0.148186 0.076015 10.715314
-0.066607 0.171159 10.729647
0.027822 0.255384 10.724827
0.219526 0.349834 10.726935
0.579345 -1.469245 0.187778
0.679345 -1.469245 0.187778
0.779345 -1.469245 0.187778
0.879345 -1.469245 0.187778
0.979345 -1.469245 0.187778
1.079345 -1.469245 0.187778
0.079345 -1.369245 0.187778
0.179345 -1.369245 0.187778
0.279345 -1.369245 0.187778
0.379345 -1.369245 0.187778
0.479345 -1.369245 0.187778
0.579345 -1.369245 0.187778
0.679345 -1.369245 0.187778
0.779345 -1.369245 0.187778
0.879345 -1.369245 0.187778
0.979345 -1.369245 0.187778
1.079345 -1.369245 0.187778
1.179345 -1.369245 0.187778
-0.520655 -1.269245 0.187778
-0.420655 -1.269245 0.187778
-0.320655 -1.269245 0.187778
-0.220655 -1.269245 0.187778
-0.120655 -1.269245 0.187778
-0.020655 -1.269245 0.187778
0.079345 -1.269245 0.187778
0.179345 -1.269245 0.187778
0.279345 -1.269245 0.187778
0.379345 -1.269245 0.187778
0.479345 -1.269245 0.187778
0.579345 -1.269245 0.187778
0.679345 -1.269245 0.187778
0.779345 -1.269245 0.187778
0.879345 -1.269245 0.187778
0.979345 -1.269245 0.187778
1.079345 -1.269245 0.187778
1.179345 -1.269245 0.187778
1.279345 -1.269245 0.187778
-0.820655 -1.169245 0.187778
-0.720655 -1.169245 0.187778
-0.620655 -1.169245 0.187778
-0.520655 -1.169245 0.187778
-0.420655 -1.169245 0.187778
-0.320655 -1.169245 0.187778
-0.220655 -1.169245 0.187778
-0.120655 -1.169245 0.187778
-0.020655 -1.169245 0.187778
0.079345 -1.169245 0.187778
0.179345 -1.169245 0.187778
0.279345 -1.169245 0.187778
0.379345 -1.169245 0.187778
0.479345 -1.169245 0.187778
0.579345 -1.169245 0.187778
0.679345 -1.169245 0.187778
0.779345 -1.169245 0.187778
0.879345 -1.169245 0.187778
0.979345 -1.169245 0.187778
1.079345 -1.169245 0.187778
1.179345 -1.169245 0.187778
1.279345 -1.169245 0.187778
-1.020655 -1.069245 0.187778
-0.920655 -1.069245 0.187778
-0.820655 -1.069245 0.187778
-0.720655 -1.069245 0.187778
-0.620655 -1.069245 0.187778
-0.520655 -1.069245 0.187778
-0.420655 -1.069245 0.187778
-0.320655 -1.069245 0.187778
-0.220655 -1.069245 0.187778
-0.120655 -1.069245 0.187778
-0.020655 -1.069245 0.187778
0.079345 -1.069245 0.187778
0.179345 -1.069245 0.187778
0.279345 -1.069245 0.187778
0.379345 -1.069245 0.187778
0.479345 -1.069245 0.187778
0.579345 -1.069245 0.187778
0.679345 -1.069245 0.187778
0.779345 -1.069245 0.187778
0.879345 -1.069245 0.187778
0.979345 -1.069245 0.187778
1.079345 -1.069245 0.187778
1.179345 -1.069245 0.187778
1.279345 -1.069245 0.187778
1.379345 -1.069245 0.187778
-1.120655 -0.969245 0.187778
-1.020655 -0.969245 0.187778
-0.920655 -0.969245 0.187778
-0.820655 -0.969245 0.187778
-0.720655 -0.969245 0.187778
-0.620655 -0.969245 0.187778
-0.520655 -0.969245 0.187778
-0.420655 -0.969245 0.187778
-0.320655 -0.969245 0.187778
-0.220655 -0.969245 0.187778
-0.120655 -0.969245 0.187778
-0.020655 -0.969245 0.187778
0.079345 -0.969245 0.187778
0.179345 -0.969245 0.187778
0.279345 -0.969245 0.187778
0.379345 -0.969245 0.187778
0.479345 -0.969245 0.187778
0.579345 -0.969245 0.187778
0.679345 -0.969245 0.187778
0.779345 -0.969245 0.187778
0.879345 -0.969245 0.187778
0.979345 -0.969245 0.187778
1.079345 -0.969245 0.187778
1.179345 -0.969245 0.187778
1.279345 -0.969245 0.187778
1.379345 -0.969245 0.187778
-1.120655 -0.869245 0.187778
-1.020655 -0.869245 0.187778
-0.920655 -0.869245 0.187778
-0.820655 -0.869245 0.187778
-0.720655 -0.869245 0.187778
-0.620655 -0.869245 0.187778
-0.520655 -0.869245 0.187778
-0.420655 -0.869245 0.187778
-0.320655 -0.869245 0.187778
-0.220655 -0.869245 0.187778
-0.120655 -0.869245 0.187778
-0.020655 -0.869245 0.187778
0.079345 -0.869245 0.187778
0.179345 -0.869245 0.187778
0.279345 -0.869245 0.187778
0.379345 -0.869245 0.187778
0.479345 -0.869245 0.187778
0.579345 -0.869245 0.187778
0.679345 -0.869245 0.187778
0.779345 -0.869245 0.187778
0.879345 -0.869245 0.187778
0.979345 -0.869245 0.187778
1.079345 -0.869245 0.187778
1.179345 -0.869245 0.187778
1.279345 -0.869245 0.187778
1.379345 -0.869245 0.187778
1.479345 -0.869245 0.187778
-1.120655 -0.769245 0.187778
-1.020655 -0.769245 0.187778
-0.920655 -0.769245 0.187778
-0.820655 -0.769245 0.187778
-0.720655 -0.769245 0.187778
-0.620655 -0.769245 0.187778
-0.520655 -0.769245 0.187778
-0.420655 -0.769245 0.187778
-0.320655 -0.769245 0.187778
-0.220655 -0.769245 0.187778
-0.120655 -0.769245 0.187778
-0.020655 -0.769245 0.187778
0.079345 -0.769245 0.187778
0.179345 -0.769245 0.187778
0.279345 -0.769245 0.187778
0.379345 -0.769245 0.187778
0.479345 -0.769245 0.187778
0.579345 -0.769245 0.187778
0.679345 -0.769245 0.187778
0.779345 -0.769245 0.187778
0.879345 -0.769245 0.187778
0.979345 -0.769245 0.187778
1.079345 -0.769245 0.187778
1.179345 -0.769245 0.187778
1.279345 -0.769245 0.187778
1.379345 -0.769245 0.187778
1.479345 -0.769245 0.187778
-1.120655 -0.669245 0.187778
-1.020655 -0.669245 0.187778
-0.920655 -0.669245 0.187778
-0.820655 -0.669245 0.187778
-0.720655 -0.669245 0.187778
-0.620655 -0.669245 0.187778
-0.520655 -0.669245 0.187778
-0.420655 -0.669245 0.187778
-0.320655 -0.669245 0.187778
-0.220655 -0.669245 0.187778
-0.120655 -0.669245 0.187778
-0.020655 -0.669245 0.187778
0.079345 -0.669245 0.187778
0.179345 -0.669245 0.187778
0.279345 -0.669245 0.187778
0.379345 -0.669245 0.187778
0.479345 -0.669245 0.187778
0.579345 -0.669245 0.187778
0.679345 -0.669245 0.187778
0.779345 -0.669245 0.187778
0.879345 -0.669245 0.187778
0.979345 -0.669245 0.187778
1.079345 -0.669245 0.187778
1.179345 -0.669245 0.187778
1.279345 -0.669245 0.187778
1.379345 -0.669245 0.187778
1.479345 -0.669245 0.187778
-1.120655 -0.569245 0.187778
-1.020655 -0.569245 0.187778
-0.920655 -0.569245 0.187778
-0.820655 -0.569245 0.187778
-0.720655 -0.569245 0.187778
-0.620655 -0.569245 0.187778
-0.520655 -0.569245 0.187778
-0.420655 -0.569245 0.187778
-0.320655 -0.569245 0.187778
-0.220655 -0.569245 0.187778
-0.120655 -0.569245 0.187778
-0.020655 -0.569245 0.187778
0.079345 -0.569245 0.187778
0.179345 -0.569245 0.187778
0.279345 -0.569245 0.187778
0.379345 -0.569245 0.187778
0.479345 -0.569245 0.187778
0.579345 -0.569245 0.187778
0.679345 -0.569245 0.187778
0.779345 -0.569245 0.187778
0.879345 -0.569245 0.187778
0.979345 -0.569245 0.187778
1.079345 -0.569245 0.187778
1.179345 -0.569245 0.187778
1.279345 -0.569245 0.187778
1.379345 -0.569245 0.187778
1.479345 -0.569245 0.187778
1.579345 -0.569245 0.187778
-1.120655 -0.469245 0.187778
-1.020655 -0.469245 0.187778
-0.920655 -0.469245 0.187778
-0.820655 -0.469245 0.187778
-0.720655 -0.469245 0.187778
-0.620655 -0.469245 0.187778
-0.520655 -0.469245 0.187778
-0.420655 -0.469245 0.187778
-0.320655 -0.469245 0.187778
-0.220655 -0.469245 0.187778
-0.120655 -0.469245 0.187778
-0.020655 -0.469245 0.187778
0.079345 -0.469245 0.187778
0.179345 -0.469245 0.187778
0.279345 -0.469245 0.187778
0.379345 -0.469245 0.187778
0.479345 -0.469245 0.187778
0.579345 -0.469245 0.187778
0.679345 -0.469245 0.187778
0.779345 -0.469245 0.187778
0.879345 -0.469245 0.187778
0.979345 -0.469245 0.187778
1.079345 -0.469245 0.187778
1.179345 -0.469245 0.187778
1.279345 -0.469245 0.187778
1.379345 -0.469245 0.187778
1.479345 -0.469245 0.187778
1.579345 -0.469245 0.187778
-1.120655 -0.369245 0.187778
-1.020655 -0.369245 0.187778
-0.920655 -0.369245 0.187778
-0.820655 -0.369245 0.187778
-0.720655 -0.369245 0.187778
-0.620655 -0.369245 0.187778
-0.520655 -0.369245 0.187778
-0.420655 -0.369245 0.187778
-0.320655 -0.369245 0.187778
-0.220655 -0.369245 0.187778
-0.120655 -0.369245 0.187778
-0.020655 -0.369245 0.187778
0.079345 -0.369245 0.187778
0.179345 -0.369245 0.187778
0.279345 -0.369245 0.187778
0.379345 -0.369245 0.187778
0.479345 -0.369245 0.187778
0.579345 -0.369245 0.187778
0.679345 -0.369245 0.187778
0.779345 -0.369245 0.187778
0.879345 -0.369245 0.187778
0.979345 -0.369245 0.187778
1.079345 -0.369245 0.187778
1.179345 -0.369245 0.187778
1.279345 -0.369245 0.187778
1.379345 -0.369245 0.187778
1.479345 -0.369245 0.187778
1.579345 -0.369245 0.187778
1.679345 -0.369245 0.187778
-1.120655 -0.269245 0.187778
-1.020655 -0.269245 0.187778
-0.920655 -0.269245 0.187778
-0.820655 -0.269245 0.187778
-0.720655 -0.269245 0.187778
-0.620655 -0.269245 0.187778
-0.520655 -0.269245 0.187778
-0.420655 -0.269245 0.187778
-0.320655 -0.269245 0.187778
-0.220655 -0.269245 0.187778
-0.120655 -0.269245 0.187778
-0.020655 -0.269245 0.187778
0.079345 -0.269245 0.187778
0.179345 -0.269245 0.187778
0.279345 -0.269245 0.187778
0.379345 -0.269245 0.187778
0.479345 -0.269245 0.187778
0.579345 -0.269245 0.187778
0.679345 -0.269245 0.187778
0.779345 -0.269245 0.187778
0.879345 -0.269245 0.187778
0.979345 -0.269245 0.187778
1.079345 -0.269245 0.187778
1.179345 -0.269245 0.187778
1.279345 -0.269245 0.187778
1.379345 -0.269245 0.187778
1.479345 -0.269245 0.187778
1.579345 -0.269245 0.187778
1.679345 -0.269245 0.187778
-1.120655 -0.169245 0.187778
-1.020655 -0.169245 0.187778
-0.920655 -0.169245 0.187778
-0.820655 -0.169245 0.187778
-0.720655 -0.169245 0.187778
-0.620655 -0.169245 0.187778
-0.520655 -0.169245 0.187778
-0.420655 -0.169245 0.187778
-0.320655 -0.169245 0.187778
-0.220655 -0.169245 0.187778
-0.120655 -0.169245 0.187778
-0.020655 -0.169245 0.187778
0.079345 -0.169245 0.187778
0.179345 -0.169245 0.187778
0.279345 -0.169245 0.187778
0.379345 -0.169245 0.187778
0.479345 -0.169245 0.187778
0.579345 -0.169245 0.187778
0.679345 -0.169245 0.187778
0.779345 -0.169245 0.187778
0.879345 -0.169245 0.187778
0.979345 -0.169245 0.187778
1.079345 -0.169245 0.187778
1.179345 -0.169245 0.187778
1.279345 -0.169245 0.187778
1.379345 -0.169245 0.187778
1.479345 -0.169245 0.187778
1.579345 -0.169245 0.187778
1.679345 -0.169245 0.187778
-1.120655 -0.069245 0.187778
-1.020655 -0.069245 0.187778
-0.920655 -0.069245 0.187778
-0.820655 -0.069245 0.187778
-0.720655 -0.069245 0.187778
-0.620655 -0.069245 0.187778
-0.520655 -0.069245 0.187778
-0.420655 -0.069245 0.187778
-0.320655 -0.069245 0.187778
-0.220655 -0.069245 0.187778
-0.120655 -0.069245 0.187778
-0.020655 -0.069245 0.187778
0.079345 -0.069245 0.187778
0.179345 -0.069245 0.187778
0.279345 -0.069245 0.187778
0.379345 -0.069245 0.187778
0.479345 -0.069245 0.187778
0.579345 -0.069245 0.187778
0.679345 -0.069245 0.187778
0.779345 -0.069245 0.187778
0.879345 -0.069245 0.187778
0.979345 -0.069245 0.187778
1.079345 -0.069245 0.187778
1.179345 -0.069245 0.187778
1.279345 -0.069245 0.187778
1.379345 -0.069245 0.187778
1.479345 -0.069245 0.187778
1.579345 -0.069245 0.187778
1.679345 -0.069245 0.187778
-1.120655 0.030755 0.187778
-1.020655 0.030755 0.187778
-0.920655 0.030755 0.187778
-0.820655 0.030755 0.187778
-0.720655 0.030755 0.187778
-0.620655 0.030755 0.187778
-0.520655 0.030755 0.187778
