1.200752 -0.076696 -0.737907
1.696794 -0.108379 -1.524744
2.242981 -0.143266 -2.465257
1.725309 -0.414387 -1.499876
0.816545 -0.276011 -1.127507
0.792304 -0.343368 -1.183867
0.890177 -0.385784 -2.002783
0.737124 -0.401069 -1.207140
0.703564 -0.460473 -1.263531
1.029294 -0.673660 -2.191771
2.007452 -1.592271 -2.283130
0.558211 -0.522901 -1.231926
0.506829 -0.569800 -1.152832
0.456569 -0.606029 -1.005934
0.461853 -0.731173 -1.228953
0.535692 -0.848070 -2.158858
0.391080 -0.768451 -1.138779
0.465230 -0.914153 -2.112641
0.377327 -0.913954 -1.191526
0.653709 -1.583400 -2.320973
0.317099 -1.017483 -1.256660
0.503217 -1.614684 -2.377637
0.170145 -0.794241 -1.140156
0.201055 -0.938534 -2.285186
0.079237 -0.608803 -1.202364
0.106755 -0.820235 -2.145454
0.028584 -0.606541 -0.941525
0.038540 -0.817815 -1.976210
-0.025160 -0.584693 -1.066920
-0.079918 -0.637008 -1.303636
-0.247782 -1.139417 -1.264795
-0.331394 -1.523907 -2.263070
-0.173296 -0.563919 -1.237127
-0.793372 -1.562790 -2.130636
-0.661600 -1.053756 -1.363001
-0.753737 -1.200506 -1.936466
-1.001131 -1.338555 -2.013024
-0.833138 -0.925129 -1.385336
-1.274007 -1.202758 -2.119606
-1.354840 -1.082610 -2.253339
-0.341936 -0.226231 -1.060010
-0.582925 -0.313771 -1.132960
-0.816279 -0.439378 -2.140275
-0.374910 -0.163841 -1.025823
-0.528433 -0.174404 -0.908590
-0.651069 -0.214878 -1.801065
-0.420882 -0.103056 -0.991043
-0.531642 -0.130176 -2.057480
-1.082961 -0.172482 -1.435242
-1.884019 -0.300066 -2.221635
-1.022720 -0.066667 -1.527685
-1.836481 -0.119712 -2.357842
-1.020750 0.016143 -1.415402
-1.836971 0.029051 -2.302812
-0.824697 0.087383 -0.801063
-0.689896 0.133442 -0.712959
-0.562929 0.160029 -1.066920
-0.691961 0.196711 -1.992292
-0.501908 0.188500 -1.102285
-0.676029 0.253894 -2.048846
-0.900119 0.428865 -1.449967
-1.660856 0.791321 -2.346836
-0.791990 0.465518 -1.351298
-1.527155 0.897635 -2.461442
-0.643525 0.461546 -1.298932
-0.465988 0.397738 -1.157004
-0.767555 0.655136 -2.271188
-0.823253 0.838081 -1.522124
-0.508836 0.610155 -1.377970
-0.375430 0.542722 -1.053670
-0.615651 0.889987 -2.233422
-0.422788 0.733207 -1.432690
-0.618506 1.072627 -2.336991
-0.422319 0.912153 -0.842608
-0.235270 0.640342 -0.939827
-0.267440 0.727901 -2.114157
-0.222509 0.834684 -1.195139
-0.311058 1.166851 -2.237820
-0.276820 1.524603 -1.508219
-0.148715 1.516864 -1.498054
0.002837 1.518347 -1.331667
0.004287 2.294790 -2.418653
0.143292 1.684715 -1.248620
0.188781 2.219545 -2.116547
0.280865 1.678172 -1.557875
0.388146 2.319182 -2.524297
0.441017 1.738125 -1.322669
0.550053 2.167857 -2.280026
0.550986 1.549720 -1.371813
0.505918 1.422960 -2.276945
0.417873 0.918670 -1.022331
0.534136 1.174267 -1.886619
0.784235 1.405644 -1.029579
0.642490 1.151583 -1.963505
0.937529 1.375719 -1.216230
0.836420 1.227354 -2.278342
1.066654 1.319899 -1.436391
0.943600 1.167631 -2.110495
1.286437 1.327433 -1.475088
1.266073 1.107238 -0.917194
1.288763 1.127081 -1.811838
1.592776 1.160477 -1.393735
1.051502 0.630737 -0.614558
1.376449 0.825654 -1.650280
1.417897 0.702699 -0.941609
1.486235 0.736567 -1.736692
1.380195 0.530284 -0.755166
1.568762 0.460267 -1.040007
1.482029 0.434820 -1.974882
1.576630 0.325587 -1.040648
1.489726 0.307640 -2.009374
1.315060 0.151453 -0.423576
1.711089 0.197063 -1.446543
1.202554 0.039385 -0.737907
1.648577 0.053992 -1.504511
1.922817 0.062974 -2.496257
1.051674 -0.060739 -0.751827
1.190919 -0.165898 -0.693190
1.542068 -0.214814 -1.696643
1.526153 -0.212597 -2.375340
1.175615 -0.272609 -0.916767
1.144666 -0.365773 -0.648472
1.311426 -0.419060 -1.570368
0.992251 -0.419405 -0.684090
0.954832 -0.499576 -0.706517
0.747631 -0.481285 -1.205681
1.957019 -1.814996 -2.395964
0.762210 -0.828817 -0.604857
0.684089 -0.892671 -0.504053
0.526809 -0.830424 -0.989234
0.349593 -0.668676 -0.813817
0.365527 -0.865074 -1.204222
0.481922 -1.140539 -2.336991
0.310139 -0.943221 -1.326371
0.226042 -0.978511 -0.797675
0.281476 -1.218482 -1.541675
0.387325 -1.676692 -2.453443
0.139560 -1.018807 -1.617504
0.054753 -1.021783 -1.482773
-0.028017 -0.816435 -1.298149
-0.033566 -0.978139 -2.171407
-0.094155 -0.809728 -1.241725
-0.127877 -1.099729 -2.232066
-0.144282 -0.700873 -1.256036
-0.208258 -1.011647 -2.247360
-0.288345 -0.974348 -1.269417
-0.387134 -1.308168 -2.352142
-0.498288 -0.809475 -0.573690
-0.602741 -0.979160 -1.523051
-0.836681 -1.359200 -2.461006
-0.444457 -0.605632 -0.621682
-0.648806 -0.884084 -1.435242
-1.176321 -1.602893 -2.316198
-0.510879 -0.588224 -0.790736
-0.703471 -0.809974 -1.469759
-1.143028 -1.316078 -2.407804
-0.526363 -0.505812 -0.836924
-0.760439 -0.730750 -1.650183
-0.429860 -0.350409 -0.817743
-0.541003 -0.365130 -0.713818
-0.598801 -0.330729 -1.019075
-0.690677 -0.381474 -1.875779
-0.684698 -0.308253 -0.599077
-0.969054 -0.436271 -1.840899
-1.275832 -0.574383 -2.517611
-1.122797 -0.397357 -1.264025
-1.311441 -0.464118 -2.384089
-0.421348 -0.108094 -1.059376
-0.552475 -0.089426 -1.044852
-0.802063 -0.063065 -0.812835
-0.755928 0.003182 -0.881625
-1.201872 0.005058 -1.577096
-1.523914 0.006414 -2.509912
-1.069904 0.103059 -1.525831
-1.763934 0.169911 -2.472466
-1.088193 0.194870 -1.670591
-1.751135 0.313588 -2.582697
-0.846319 0.231707 -0.698685
-1.144492 0.313342 -1.812944
-1.300707 0.356110 -2.509551
-0.825894 0.303072 -0.822630
-0.525893 0.247488 -0.896696
-0.483859 0.277953 -0.976722
-0.618322 0.355194 -1.856548
-0.549389 0.382059 -1.370803
-0.579537 0.403024 -2.219820
-0.453580 0.377229 -1.237127
-0.630308 0.524209 -1.998778
-0.439500 0.438888 -1.429143
-0.629788 0.628912 -2.379459
-0.402751 0.471318 -1.395129
-0.594418 0.695616 -2.378021
-0.369619 0.523639 -1.269639
-0.467139 0.661796 -2.293486
-0.371591 0.629162 -0.870848
-0.404764 0.685329 -2.022565
-0.295434 0.620920 -1.154918
-0.354635 0.745344 -2.111608
-0.248021 0.669778 -1.210787
-0.313044 0.845371 -2.130308
-0.191376 0.682172 -0.995833
-0.185729 0.662042 -1.846346
-0.132834 0.721372 -0.995233
-0.121232 0.658367 -1.994691
-0.074625 0.734135 -1.164834
-0.101866 1.002122 -2.237491
-0.026755 1.373164 -1.481310
0.099950 1.392458 -1.413645
0.240043 1.551717 -1.385428
0.353363 2.284260 -2.275754
0.384687 1.534929 -1.706676
0.572832 2.285641 -2.600355
0.378179 1.116736 -0.783101
0.482645 1.425218 -1.643245
0.486766 1.101961 -0.816160
0.649668 1.470747 -1.716695
0.554537 1.011357 -0.750000
0.773247 1.410237 -1.727764
0.667802 1.000624 -0.726728
0.911932 1.366425 -1.936853
0.762595 0.962257 -0.715112
1.033292 1.303828 -1.847235
0.976568 1.043815 -0.800564
1.271059 1.358584 -1.772133
1.455467 1.297230 -1.504362
1.010437 0.749973 -0.982635
1.254850 0.931382 -1.829626
1.578063 0.978658 -0.913234
1.399161 0.707708 -1.318951
1.519404 0.768528 -2.133266
1.641309 0.667833 -1.433733
1.590888 0.647317 -2.398250
1.292080 0.400026 -0.701792
1.610231 0.498525 -1.779814
1.475988 0.321065 -1.065402
1.452395 0.180620 -1.177797
1.450661 0.180405 -1.811907
1.463544 0.062810 -1.222229
1.453488 0.062379 -2.179751
1.326725 -0.062115 -0.735657
1.753047 -0.082075 -1.644186
1.241062 -0.161338 -0.636515
1.699278 -0.220906 -1.844959
1.205895 -0.267963 -1.061430
1.059542 -0.328214 -1.019849
1.259636 -0.390197 -1.963505
0.988775 -0.407176 -1.368822
1.141415 -0.470033 -2.269970
0.943703 -0.482897 -1.054745
1.087426 -0.556441 -2.024176
0.900357 -0.567110 -1.200575
1.058040 -0.666430 -2.101110
0.931539 -0.841514 -0.848660
0.602447 -0.641412 -0.833897
0.618762 -0.793975 -0.910006
0.604616 -0.922073 -0.706087
0.688880 -1.050580 -1.686827
0.475219 -0.891651 -1.067259
0.359245 -0.835298 -1.024812
0.299580 -0.886448 -1.080454
0.159509 -0.664923 -1.007754
0.102212 -0.677830 -1.075677
0.044851 -0.706549 -0.973205
-0.027117 -0.978910 -0.798159
-0.034827 -1.257205 -1.720321
-0.036729 -1.325876 -2.555668
-0.106234 -0.973289 -0.786918
-0.115770 -0.576468 -1.169046
-0.166226 -0.827708 -1.986295
-0.287315 -1.001403 -1.291093
-0.590855 -2.059359 -2.384037
-0.247300 -0.654825 -0.531902
-0.620207 -1.642247 -2.606349
-0.381866 -0.789804 -0.687417
-0.248880 -0.414929 -1.012607
-0.626866 -0.616615 -0.800095
-0.804971 -0.791807 -1.635977
-1.151896 -1.133059 -2.370965
-0.448525 -0.368146 -0.851300
-0.542503 -0.375244 -1.042343
-0.442947 -0.249321 -0.989263
-0.482640 -0.223737 -0.931860
-0.931850 -0.333614 -1.225238
-1.182229 -0.423253 -2.201601
-1.532508 -0.412207 -2.305979
-2.084748 -0.363457 -2.363663
-0.606329 -0.054913 -1.009574
-0.860425 -0.077925 -1.872385
-1.068224 0.001199 -1.335174
-1.890292 0.002122 -2.354925
-0.630336 0.051858 -0.952294
-0.884916 0.072803 -1.848724
-0.478482 0.079104 -1.058108
-0.594969 0.098362 -2.168450
-0.728483 0.190073 -0.723402
-1.135540 0.296281 -1.488562
-1.691860 0.441435 -2.496053
-0.828160 0.296826 -0.822630
-1.155738 0.414236 -1.598480
-1.458702 0.522823 -2.519457
-0.730483 0.331750 -0.688664
-1.097538 0.498448 -1.666528
-1.362347 0.618712 -2.467056
-0.763524 0.430195 -0.631076
-1.072756 0.604426 -1.687856
-1.274441 0.718062 -2.324174
-0.622940 0.425389 -0.802515
-0.817009 0.557913 -1.877966
-0.568078 0.459958 -0.882157
-0.648187 0.524821 -1.760724
-0.415465 0.411356 -1.044225
-0.542219 0.536856 -1.854312
-0.370532 0.425153 -1.203810
-0.588930 0.675746 -2.028948
-0.437898 0.604004 -1.424849
-0.586402 0.808839 -2.080218
-0.519932 0.856633 -0.674103
-0.406851 0.831509 -0.585293
-0.248741 0.635507 -0.951149
-0.253698 0.648171 -2.027444
-0.298716 1.032024 -0.482238
-0.395865 1.367658 -1.490616
-0.137076 0.678264 -1.302068
-0.208596 1.032154 -2.156241
-0.126180 1.068428 -0.594380
-0.172993 1.464815 -1.522105
-0.021878 0.808455 -1.004720
-0.025031 0.924943 -2.106510
0.053183 0.960424 -1.124780
0.061214 1.105445 -2.232066
0.160859 1.091630 -0.750913
0.201488 1.367345 -1.703942
0.206065 0.883422 -0.934735
0.246522 1.056865 -1.783726
0.509161 1.543934 -1.538630
0.362402 0.855023 -0.765365
0.622374 1.186263 -1.214836
0.581206 1.107796 -2.112276
0.793189 1.231965 -1.233337
0.732542 1.137770 -2.151679
0.879089 1.123414 -0.633795
1.104862 1.411937 -1.311651
0.797814 0.868399 -0.794287
1.120187 1.017866 -1.176352
1.012136 0.919684 -1.938838
1.072178 0.820911 -0.556988
1.389012 1.063494 -1.500803
1.269115 0.819667 -1.076497
1.265042 0.817037 -2.199273
1.618539 0.849443 -0.715650
1.557481 0.648060 -1.116058
1.401447 0.583135 -1.942816
1.502833 0.483679 -0.764389
1.596727 0.513899 -1.580936
1.684836 0.393821 -0.838816
1.647275 0.385042 -1.912376
1.215487 0.173435 -0.715112
1.539986 0.219737 -1.663394
1.663778 0.095159 -1.271496
1.626918 0.093050 -2.170401
1.482221 -0.048656 -0.966133
1.473773 -0.048379 -2.078475
1.785585 -0.205323 -1.443864
1.108656 -0.230356 -0.940841
1.282157 -0.266406 -1.762823
1.233197 -0.364281 -1.082448
1.248753 -0.368876 -2.132005
1.640819 -0.651488 -1.235283
1.122043 -0.555129 -0.658847
1.390724 -0.688058 -1.563641
0.962283 -0.588958 -0.739257
0.811604 -0.593812 -0.865074
0.960927 -0.703064 -1.902409
0.738165 -0.650213 -1.000473
0.999384 -0.880308 -2.219862
1.844702 -1.914234 -2.212688
0.600446 -0.747037 -0.989834
0.300455 -0.665813 -0.859540
0.354941 -0.786554 -1.849841
0.268481 -1.057893 -1.278316
0.340494 -1.341644 -2.261671
0.153091 -0.933061 -1.406729
0.256744 -1.564802 -2.283830
0.060969 -0.752996 -0.859022
0.080096 -0.989219 -1.945388
-0.010288 -1.114335 -1.210320
-0.011748 -1.272518 -2.044029
-0.101752 -1.109071 -1.187913
-0.118856 -1.295498 -2.109700
-0.195661 -1.065313 -0.975623
-0.224680 -1.223312 -1.967103
-0.250058 -0.680630 -0.542891
-0.496290 -1.350843 -2.347828
-0.389939 -0.838896 -0.540273
-0.276716 -0.476370 -0.601968
-0.478745 -0.580546 -0.700798
-1.200347 -1.029620 -2.206301
-0.570565 -0.406518 -0.577167
-0.706600 -0.503441 -1.319122
-1.277935 -0.910508 -2.429281
-0.348145 -0.207065 -0.843482
-0.907920 -0.434104 -0.898773
-1.116049 -0.533617 -1.821905
-1.144162 -0.436936 -1.520270
-0.745863 -0.210902 -0.542236
-1.005667 -0.284365 -1.392098
-1.382993 -0.391058 -2.314483
-0.663000 -0.130561 -0.588838
-0.550721 -0.057542 -0.772318
-0.411073 -0.009435 -1.105592
-0.611015 -0.014025 -1.815657
-0.646950 0.048819 -0.430570
-1.781590 0.134438 -2.294641
-0.789376 0.127068 -0.496752
-0.540212 0.131473 -0.885879
-0.713756 0.173708 -1.776284
-0.726258 0.242098 -1.254523
-0.737332 0.245790 -2.148043
-0.758914 0.332786 -0.767219
-0.487223 0.263095 -0.772318
-0.674579 0.364266 -1.933403
-0.444552 0.294079 -0.977308
-0.430683 0.284904 -1.933691
-0.557014 0.441048 -1.075030
-0.546134 0.432433 -2.038762
-0.616992 0.581936 -0.360842
-0.837989 0.790376 -1.579018
-1.133616 1.069206 -2.240905
-0.584549 0.648857 -0.383162
-0.764926 0.849078 -1.321545
-0.602395 0.800793 -0.674103
-0.719778 0.956835 -1.454114
-0.718650 0.955336 -2.462845
-0.519511 0.827091 -0.652031
-0.452983 0.891954 -0.561760
-0.379694 0.928604 -0.741507
-0.206063 0.672846 -0.769537
-0.201797 0.658917 -1.880304
-0.093438 0.701511 -0.961890
-0.116646 0.875759 -1.747331
-0.068388 1.638386 -1.216980
0.045052 1.148497 -0.481359
0.054751 1.395744 -1.435898
0.129075 0.998051 -0.898773
0.173821 0.814063 -0.947713
0.195839 0.917181 -1.846488
0.313069 1.009943 -0.942559
0.319178 1.029651 -2.154933
0.604266 1.501247 -1.328395
0.788755 1.959595 -2.298078
0.421990 0.824295 -0.607803
0.568538 0.916873 -0.773797
0.563057 0.908035 -1.964284
1.037174 1.376610 -1.479655
0.899041 1.010552 -0.701792
1.077902 1.211597 -1.427985
0.736596 0.687558 -0.954937
1.027938 0.959504 -1.680652
1.086369 0.713597 -0.513059
1.483734 0.974611 -1.521922
1.568410 0.847908 -0.959016
1.419965 0.767657 -1.860579
1.599092 0.694083 -1.324305
1.441194 0.625548 -2.006907
1.564586 0.532540 -0.707695
1.472190 0.501091 -1.652311
1.365437 0.464755 -2.403401
1.734174 0.417544 -0.992079
1.613950 0.238359 -0.896201
1.677210 0.247701 -1.989694
1.812146 0.119475 -1.255780
1.680069 0.110767 -2.245071
1.350621 -0.023432 -0.590405
1.626324 -0.028215 -1.560758
1.800188 -0.031231 -2.526024
1.226054 -0.121445 -0.927379
1.506224 -0.288144 -0.987125
1.595996 -0.305317 -2.081893
1.770839 -0.507435 -1.288018
1.663665 -0.476724 -2.187130
1.678112 -0.632070 -1.322669
1.637473 -0.791919 -1.343874
1.316527 -0.770409 -1.531329
2.148997 -1.257556 -2.330758
0.799493 -0.565518 -0.798159
0.933003 -0.659956 -1.949510
0.674256 -0.678604 -0.911110
0.681913 -0.686310 -1.946567
0.475551 -0.681971 -0.902591
0.454948 -0.652424 -2.011275
0.402492 -1.122802 -1.947138
0.130755 -0.716236 -0.735147
0.071529 -0.804771 -0.970859
0.103921 -1.169212 -2.071393
0.007890 -1.033384 -0.988034
0.010526 -1.378708 -2.161495
-0.112833 -0.669467 -0.781323
-0.253087 -1.006144 -1.145184
-0.299651 -1.191259 -2.158255
-0.451270 -1.290890 -2.407816
-0.355540 -0.794671 -1.409285
-0.296278 -0.534146 -1.088961
-0.406210 -0.732339 -1.839680
-0.661847 -0.974595 -2.587402
-0.640836 -0.782303 -1.100954
-0.935876 -1.142474 -2.122894
-0.499979 -0.526476 -0.610748
-0.605837 -0.637945 -1.657196
-0.834575 -0.878806 -2.316062
-0.364419 -0.320441 -1.069483
-0.387781 -0.236833 -0.808323
-1.775232 -0.700311 -2.232622
-0.698515 -0.206063 -0.746456
-0.871347 -0.257048 -1.746275
-1.193837 -0.352183 -2.448679
-0.522141 -0.108459 -0.988670
-0.786574 -0.163387 -2.169325
-1.930963 -0.236858 -2.439829
-0.554089 -0.017480 -0.806387
-0.679602 -0.021440 -1.665212
-1.850186 0.092616 -2.125375
-0.330088 0.046472 -0.993415
-0.492550 0.069344 -2.059947
-0.539801 0.121493 -0.749606
-0.757440 0.243521 -1.411841
-1.482351 0.476585 -2.218740
-0.466333 0.193333 -0.830095
-0.858114 0.450943 -1.372148
-1.537382 0.807903 -2.297475
-0.494493 0.314109 -1.089615
-0.601063 0.381803 -1.833922
-0.785971 0.604383 -1.281424
-1.457398 1.120686 -2.324825
-0.433860 0.393640 -1.089615
-0.527735 0.478812 -1.845235
-0.591990 0.644080 -0.518390
-0.729090 0.793244 -1.593115
-1.004667 1.093069 -2.267240
-0.361614 0.463228 -1.157699
-0.438481 0.561694 -1.845235
-0.290509 0.452442 -1.159090
-0.392955 0.611991 -2.150633
-0.422866 0.796834 -0.675740
-0.596404 1.123842 -1.451455
-0.236888 0.561134 -1.020915
-0.201456 0.477204 -1.967790
-0.140066 0.597079 -1.179684
-0.119691 0.510225 -2.092808
-0.153664 1.044149 -0.852805
-0.193116 1.312229 -1.561145
-0.192224 1.306167 -2.455350
-0.062393 0.968132 -1.394634
0.016326 0.659432 -1.042343
0.017887 0.722473 -2.060156
0.117478 1.095597 -0.661260
0.179361 1.672724 -1.702477
0.261341 2.437267 -2.517975
0.181815 0.913462 -0.900409
0.416235 1.436510 -1.399083
0.630625 2.176411 -2.354832
0.318171 0.825973 -1.059231
0.357520 0.928124 -1.990334
0.410432 0.833268 -0.776619
0.856826 1.440062 -1.536735
0.469664 0.655224 -0.891849
0.647656 0.903540 -1.816256
0.760181 0.881531 -1.197658
0.690421 0.800635 -2.234779
1.185731 1.147224 -1.515568
1.762150 1.704925 -2.528814
0.991355 0.812924 -0.926248
1.257765 1.031384 -1.560758
1.549258 1.270412 -2.568349
0.917748 0.633897 -1.243930
1.048004 0.723866 -2.066350
1.348014 0.763303 -1.497134
1.487929 0.842529 -2.265770
1.100949 0.498704 -0.995013
1.508416 0.683276 -1.670360
1.525776 0.691140 -2.522774
1.339354 0.480657 -1.468377
1.140715 0.409371 -2.316062
1.721152 0.463304 -0.936974
1.881558 0.328028 -1.758952
1.775914 0.143037 -0.903910
1.798145 0.001257 -1.465898
1.636329 -0.147031 -1.316518
1.615079 -0.145122 -2.015505
1.233163 -0.217656 -0.681179
1.580658 -0.278990 -1.650280
1.168939 -0.314884 -1.073255
1.485795 -0.400237 -1.852926
1.139319 -0.410165 -1.084432
1.195269 -0.430307 -1.999387
1.674294 -0.767341 -1.277013
1.473213 -0.839992 -1.403257
2.082532 -1.187411 -2.456018
1.258831 -0.862204 -1.542420
0.757877 -0.620876 -0.820639
1.659772 -1.904279 -2.513233
0.517180 -0.714634 -0.935301
0.585054 -0.808422 -2.057748
0.346671 -0.711236 -1.276350
0.480991 -0.986809 -2.052759
0.231502 -0.798523 -0.902591
0.201310 -0.994590 -1.224495
0.273872 -1.353092 -2.194888
-0.085199 -1.404114 -2.215794
-0.110082 -0.768924 -1.582138
-0.338177 -1.043818 -2.041551
-0.302730 -0.709532 -1.435287
-0.745999 -1.748458 -2.530772
-0.662581 -1.254326 -1.958707
-0.444227 -0.684738 -1.275579
-0.631074 -0.972746 -2.274120
-0.976381 -1.265154 -2.494221
-0.385078 -0.415268 -1.283282
-0.662710 -0.714666 -2.092720
-0.433241 -0.389729 -0.964788
-0.550996 -0.175598 -0.749156
-0.330980 -0.075058 -1.221728
-1.588598 -0.217615 -2.149597
-1.771495 -0.096741 -2.505537
-0.606643 0.019587 -0.930183
-0.335334 0.040384 -1.164653
-0.789290 0.167697 -0.925711
-0.547121 0.162542 -1.419509
-0.622047 0.184802 -2.086538
-0.585269 0.229634 -0.770928
