-0.942968 0.836355 4.500677
-1.144523 0.940089 4.749202
-0.326869 0.516262 6.527163
-0.253274 0.477988 6.804025
-0.304243 0.503719 7.331706
-0.424456 0.565465 7.595566
-0.258652 0.479569 7.911474
0.177493 0.254179 8.225431
-1.588885 1.029359 2.936549
-1.468944 0.976777 3.489176
-1.405302 0.948736 3.917040
-1.176593 0.849200 4.271566
-0.996078 0.770688 4.503410
-0.753090 0.665189 4.638950
-1.889362 1.156194 6.238720
-0.392127 0.506463 6.761121
-0.284397 0.459328 7.166892
-0.463623 0.536600 7.586950
-0.339502 0.482658 7.705867
0.157183 0.266772 8.212731
-1.347806 0.821308 2.672648
-1.434634 0.852507 2.957274
-1.498574 0.875343 3.302455
-1.382019 0.832508 3.857448
-1.281017 0.795606 4.124151
-1.048753 0.711008 4.482793
-0.732378 0.595937 4.811617
-0.862911 0.642764 5.313262
-1.595533 0.907946 5.813082
-1.601103 0.909666 6.107989
-1.022113 0.699739 6.059479
-0.738808 0.596361 6.683170
-0.374224 0.463884 6.935554
-0.266176 0.424285 7.341495
-0.517684 0.515335 7.500323
-0.294363 0.433826 8.009693
0.028958 0.316430 8.148336
-1.929123 0.896085 1.951605
-1.520684 0.775326 2.148055
-1.326854 0.717427 2.832768
-1.328945 0.717800 3.077058
-1.282779 0.703806 3.444388
-1.256614 0.695489 4.038285
-1.132495 0.658522 4.367635
-1.061975 0.637793 4.280585
-0.784152 0.555589 4.477578
-0.619920 0.506647 4.941692
-1.368190 0.726089 6.374668
-0.960071 0.605602 6.392994
-0.659334 0.516492 6.732305
-0.288052 0.406644 6.985529
-0.323361 0.416830 7.221999
-0.462432 0.457268 7.834793
-0.318100 0.414481 8.018370
0.166001 0.271628 7.975016
-2.121250 0.810124 1.432247
-1.736063 0.721587 1.327861
-1.403009 0.644482 1.798299
-1.485550 0.663193 2.086424
-1.287744 0.617000 2.771800
-1.343771 0.629778 2.889187
-1.215857 0.599792 3.448433
-1.263343 0.610320 3.855178
-1.232974 0.603255 3.932341
-1.014378 0.552662 4.227397
-0.728570 0.486408 4.719246
-0.679070 0.474589 5.154528
-0.884547 0.521572 5.460676
-1.062293 0.561771 6.176904
-1.071863 0.563679 6.476042
-0.955202 0.536786 6.524090
-0.482578 0.427809 6.744354
-0.329000 0.392289 6.926013
-0.404743 0.409266 7.386452
-0.282092 0.380578 7.858132
0.038269 0.306372 8.350893
-2.247801 0.691567 1.271180
-1.702794 0.600625 1.706527
-1.607633 0.584850 1.676220
-1.487581 0.564205 2.402411
-1.481474 0.563178 2.415918
-1.307541 0.533909 2.807867
-1.320407 0.535587 3.280520
-1.289824 0.529928 3.876934
-1.259234 0.524772 3.953872
-1.038250 0.487783 4.248845
-0.633360 0.420029 4.770843
-0.721022 0.434542 4.819045
-0.584342 0.411167 5.513288
-1.137839 0.502264 6.368845
-0.925533 0.466986 6.386223
-0.426724 0.383864 6.670719
-0.273326 0.357865 7.207797
-0.371476 0.373783 7.601882
-0.250709 0.353266 8.074201
0.039864 0.305063 8.015405
-2.033674 0.527651 1.777232
-1.578760 0.480092 1.803746
-1.423850 0.463589 2.132738
-1.215875 0.441417 2.590411
-1.161163 0.435341 2.963317
-1.256228 0.445001 3.247541
-1.235790 0.442569 3.554732
-1.067953 0.424369 4.243358
-0.969546 0.414107 4.221890
-0.631787 0.378497 4.552258
-0.531476 0.367751 4.826887
-0.433690 0.357268 5.102435
-0.992245 0.414516 6.258603
-0.717519 0.385606 6.470787
-0.310328 0.342753 6.789585
-0.326822 0.344184 7.092384
-0.372229 0.348361 7.681786
-0.204802 0.330626 7.931924
0.169909 0.291211 8.203365
0.801484 0.225147 8.278851
1.367578 0.165762 8.523427
-2.857384 0.434443 1.310422
-2.308484 0.411152 1.505965
-1.975372 0.397350 1.278737
-1.542630 0.378728 1.703926
-1.326797 0.369205 2.160435
-1.319925 0.368902 2.175281
-1.111552 0.359690 2.635250
-1.084651 0.358260 2.945715
-1.112917 0.358773 3.651635
-1.173395 0.361207 3.768063
-0.947090 0.351396 4.065547
-0.723784 0.341708 4.366664
-0.648903 0.337209 5.771796
-0.940264 0.349092 6.167516
-0.930275 0.348322 6.532072
-0.503343 0.329988 6.912143
-0.269630 0.320066 7.001181
-0.348551 0.322945 7.462146
-0.388792 0.324413 7.698132
-0.123702 0.313038 7.924466
0.526798 0.285119 8.487375
0.919516 0.268662 8.411765
-1.801724 0.281643 1.442692
-1.551168 0.285844 1.727506
-1.242675 0.291179 1.910229
-0.997772 0.295275 2.200788
-0.825850 0.297738 2.833571
-0.905507 0.295759 3.414830
-1.098664 0.292002 3.734429
-0.915330 0.294834 4.196500
-0.816839 0.296615 4.173952
-0.522703 0.301392 4.670875
-0.929403 0.292281 6.597301
-0.753885 0.295521 6.487700
-0.441000 0.300778 6.833615
-0.380189 0.301662 7.043544
-0.442097 0.300054 7.568456
-0.222200 0.303552 8.015931
0.040718 0.308027 8.246168
0.625232 0.318177 8.547812
1.259808 0.329427 8.635829
-1.774605 0.174856 1.300857
-1.552714 0.191928 1.754535
-1.125611 0.225434 1.958128
-0.777856 0.251640 3.241320
-1.060376 0.229000 3.602510
-0.992759 0.233915 4.039484
-0.868821 0.243654 4.082558
-0.501924 0.271938 4.775768
-0.935743 0.236248 6.292454
-0.677763 0.256122 6.794925
-0.482037 0.271605 6.753536
-0.195818 0.293571 7.397585
-0.410564 0.276284 7.753314
-0.226159 0.290528 8.072226
-1.255624 0.132396 1.476290
-1.456671 0.102781 1.515722
-1.091275 0.156008 2.060227
-0.820810 0.194966 2.918748
-0.822527 0.193961 3.695179
-0.923812 0.178786 3.978207
-0.769609 0.201082 4.380808
-0.578693 0.229222 4.325659
-0.364415 0.259274 5.844732
-0.747927 0.202438 6.273528
-0.579285 0.226357 7.193057
-0.407898 0.251328 7.443222
-0.283721 0.269136 7.918314
0.041096 0.316440 8.415301
-0.986833 0.112871 1.367395
-1.183496 0.071179 1.641465
-0.777578 0.155049 3.305458
-0.888473 0.131185 3.822098
-0.709397 0.168445 4.290638
-0.631481 0.184650 4.501600
-0.646940 0.181153 4.747420
-0.342348 0.245040 5.022742
0.025345 0.322018 5.502943
-0.785291 0.150272 6.523556
-0.481016 0.214371 6.514606
-0.177446 0.277619 7.222952
-0.326944 0.245935 7.421547
-0.349072 0.240978 7.723835
-0.105999 0.292019 7.885325
0.310618 0.379307 8.360921
0.932002 0.510110 8.442799
-0.722507 0.125468 3.202250
-0.870842 0.084111 3.884285
-0.696112 0.131565 4.350928
-0.506838 0.183234 4.590259
-0.273033 0.246365 5.583609
-0.492049 0.185710 6.180049
-0.797539 0.101607 6.507899
-0.477428 0.188984 6.919629
-0.197938 0.265345 7.207482
-0.438130 0.199251 7.432738
-0.301137 0.236285 7.971736
0.014957 0.322897 8.045112
0.580869 0.477794 8.344931
-0.661155 0.103881 3.374623
-0.794690 0.057837 3.825401
-0.622238 0.116237 4.293630
-0.435926 0.179599 4.533935
-0.412451 0.186309 5.822199
-0.818376 0.047426 6.120465
-0.424611 0.180428 7.529686
-0.263665 0.235119 7.781286
-0.168519 0.267613 7.770620
0.266500 0.415510 8.379269
-0.346283 0.196873 2.902543
-0.581728 0.101175 3.332520
-0.760236 0.028624 3.654761
-0.721963 0.043720 4.029771
-0.578585 0.101308 4.434041
-0.179134 0.261646 5.658906
-0.429209 0.159992 6.125153
-0.848138 -0.009730 6.354493
-0.485713 0.136636 6.605501
-0.250925 0.231094 7.117286
-0.325539 0.200430 7.579691
-0.211452 0.246094 8.055436
0.032261 0.344452 8.287641
-0.500283 0.103867 3.304692
-0.710036 0.001476 3.794508
-0.697021 0.007466 4.104778
-0.474477 0.115153 4.474606
-0.337877 0.180399 5.502900
-0.626249 0.039679 6.130519
-0.539733 0.080617 7.143429
-0.289101 0.201653 7.787462
-0.168082 0.260297 7.909106
0.185846 0.431823 8.250363
-4.055220 -1.929677 5.778066
-3.744199 -1.754216 5.591858
-0.475152 0.089061 4.491480
-0.377417 0.142426 6.043412
-0.753020 -0.069546 6.338263
-0.407677 0.123960 7.329998
-0.342241 0.160527 7.606927
-0.165327 0.259792 7.992120
0.274924 0.507912 7.952033
-4.086422 -2.277014 5.569774
-4.000089 -2.221740 6.121750
-3.839222 -2.117507 6.063527
-0.626258 -0.037450 6.465631
-0.395994 0.111407 6.681819
-0.166968 0.259459 6.902262
-0.217093 0.226396 7.432007
-0.288985 0.179318 7.891746
-0.028076 0.348261 7.896784
-3.808100 -2.422214 5.719617
-3.932050 -2.513432 5.598696
-3.933927 -2.515140 5.870820
-3.763924 -2.390517 6.446012
-0.580507 -0.044275 6.638376
-0.391464 0.094962 6.725951
-0.171778 0.256627 6.948087
-0.263701 0.188475 7.280725
-0.266593 0.185902 7.650869
-0.025475 0.363197 8.013433
-3.565636 -2.584546 5.726370
-3.592421 -2.607595 6.205181
-3.568452 -2.587988 6.591086
-3.538627 -2.562751 6.400457
-0.402107 0.065802 6.701830
-0.149379 0.277102 7.123546
-0.238183 0.202254 7.456294
-0.229385 0.209082 7.893337
-0.026797 0.378594 8.125499
-0.410159 0.041057 3.371021
-0.407145 0.043187 3.921374
-3.376230 -2.773997 6.702738
-0.545899 -0.092035 6.752262
-0.361172 0.082805 6.909352
-0.207148 0.228252 7.292994
-0.292588 0.146852 7.624045
-0.086965 0.341310 7.920209
-0.386202 0.043407 3.463691
-0.436985 -0.011444 3.816763
-0.362957 0.067399 4.096041
-0.484783 -0.065664 5.996237
-0.634280 -0.226099 6.297252
-0.522954 -0.107694 6.833105
-0.375844 0.049729 6.857432
-0.193269 0.244328 7.440144
-0.298272 0.131660 7.639004
-0.093424 0.350406 8.002492
-0.380738 0.027784 4.037433
-0.313348 0.108983 4.315948
-0.185446 0.260645 6.471877
-0.251819 0.179729 6.823860
-0.142554 0.311142 7.436543
-0.229384 0.205579 7.702030
-0.079747 0.386023 8.225141
-0.332169 0.073136 3.703468
-0.348193 0.050333 4.186351
-2.646537 -3.111986 6.923124
-0.701883 -0.438734 6.093718
-0.558988 -0.243116 6.532759
-0.408789 -0.036996 6.686437
-0.271048 0.151524 7.135439
-0.204511 0.242271 7.548557
-0.287938 0.127566 3.932367
-0.357958 0.017266 4.150575
-0.544063 -0.278501 6.189763
-0.434515 -0.107735 6.857679
-0.349979 0.024633 7.041837
-0.175203 0.298219 7.467240
-0.239349 0.196939 7.798657
-0.176080 0.296151 7.855151
-2.173755 -3.275530 6.143426
-0.422274 -0.124722 6.892768
-0.401984 -0.088488 7.037087
-0.244140 0.194763 7.459070
-0.216657 0.243808 7.671618
-0.151148 0.361471 7.793184
-1.459473 -2.333280 3.448039
-1.479358 -2.375811 3.842490
-1.799641 -3.051601 6.045576
-1.843349 -3.143850 6.358269
-0.374336 -0.067834 6.849723
-0.322922 0.039744 6.901987
-0.249525 0.192130 7.512235
-0.240243 0.211393 7.592937
-0.130991 0.438927 8.183342
-1.395446 -2.626326 3.686129
-1.429735 -2.712732 4.233344
-1.493774 -2.873118 4.870893
-1.598030 -3.133268 5.533723
-1.669031 -3.310175 5.882928
-1.640412 -3.240538 6.394056
-0.564199 -0.572037 6.175498
-0.417336 -0.208598 6.424088
-0.262642 0.173110 7.119137
-0.263140 0.170923 7.490447
-0.248575 0.206657 7.636296
-0.111623 0.544539 8.269605
-1.207853 -2.633292 3.613406
-1.257530 -2.784032 4.261291
-1.341907 -3.037952 4.662977
-1.427887 -3.296653 5.058776
-1.449256 -3.361793 5.435278
-1.412856 -3.253698 5.739753
-0.399905 -0.222159 6.464011
-0.385896 -0.180643 6.608993
-0.305619 0.057106 7.493508
-0.251483 0.218472 7.747492
-0.182252 0.424429 8.204806
-0.047698 0.827240 8.261069
-0.971868 -2.496430 3.870503
-1.054667 -2.816339 4.376931
-1.104177 -3.008680 4.955858
-1.155741 -3.207848 5.254835
-1.113817 -3.047430 5.409550
-0.314290 0.025521 4.773866
-0.170313 0.578015 4.889548
-0.484406 -0.635774 6.870863
-0.613681 -1.132357 6.899449
-0.756598 -2.241186 3.591712
-0.828495 -2.610230 3.985375
-0.278804 0.194115 4.421530
-0.195250 0.619126 4.739837
-0.363992 -0.249678 6.197873
-0.269820 0.229987 6.426967
-0.197174 0.594211 7.766032
-0.176770 0.696283 8.187798
-0.591410 -1.984793 3.271786
-0.583096 -1.926041 3.408799
-0.279683 0.246554 4.318770
-0.288326 0.183673 4.435832
-0.228384 0.611940 4.752759
-0.340644 -0.205724 6.405326
-0.294805 0.123036 6.466167
-0.151261 1.140474 8.394751
-0.458757 -1.860471 3.131151
-0.433974 -1.549721 3.605567
-0.394318 -1.045371 3.784601
-0.342277 -0.381245 3.835428
-0.310812 0.021493 3.770000
-0.294080 0.228503 4.316685
-0.285785 0.331002 4.598854
-0.239087 0.925209 4.785469
-0.349641 -0.504112 6.181370
-0.329644 -1.604969 3.027589
-0.329109 -1.582473 3.331630
-0.324347 -1.181681 3.774032
-0.318472 -0.620205 3.562080
-0.312110 -0.061210 3.887153
-0.309376 0.163860 4.197423
-0.307658 0.291733 4.545271
-0.304321 0.580884 4.761199
-0.312263 -0.286994 6.276802
-0.307499 0.124497 6.600173
-0.232031 -1.625580 3.019255
-0.248366 -1.285681 3.562668
-0.267445 -0.897907 3.719492
-0.294569 -0.350464 3.743773
-0.314838 0.062829 3.980181
-0.322138 0.218061 4.395158
-0.336329 0.508408 4.610984
-0.290402 -0.383854 6.360911
-0.308626 -0.012657 6.552404
-0.160596 -1.373755 3.381614
-0.161253 -1.367745 3.395962
-0.201371 -1.007340 3.486150
-0.270662 -0.384348 3.702060
-0.316329 0.027044 3.937374
-0.327851 0.132752 4.218242
-0.367846 0.494864 4.633895
-0.258114 -0.475930 6.120092
-0.307920 -0.025554 6.572856
-0.076844 -1.382800 3.122270
-0.096015 -1.270839 3.389428
-0.162352 -0.887736 3.544048
-0.248919 -0.387871 3.733279
-0.343929 0.161450 4.065869
-0.361593 0.264807 4.347383
-0.411086 0.551193 4.562630
-0.246491 -0.388501 6.116451
-0.303791 -0.056006 6.532733
0.007239 -1.384499 3.123260
-0.036785 -1.196797 3.580888
-0.125997 -0.819626 3.737551
-0.236610 -0.352257 3.863923
-0.335614 0.065592 3.864862
-0.371261 0.217761 4.278875
-0.449135 0.547878 4.628143
-0.226871 -0.383739 6.178408
-0.285860 -0.134150 6.330028
0.096132 -1.393506 2.843954
0.050748 -1.241799 3.467440
-0.019734 -1.009181 3.531755
-0.159207 -0.548887 3.653311
-0.347991 0.074567 3.946037
-0.405663 0.265547 4.191773
-0.455731 0.431234 4.372711
-0.222743 -0.330306 6.403015
-0.280102 -0.140133 6.717349
0.154851 -1.317378 3.009315
0.133678 -1.259808 3.151733
0.043864 -1.016282 3.511705
-0.123431 -0.564177 3.635480
-0.332092 -0.000260 3.797280
-0.419225 0.236086 4.178674
-0.512993 0.490550 4.632372
-0.135785 -0.523020 6.459497
-0.150834 -0.481000 6.960237
0.128553 -1.064606 3.372515
0.136697 -1.083189 3.324013
-0.041771 -0.677785 3.612295
-0.294541 -0.104031 3.838098
-0.481325 0.320446 4.215820
-0.541497 0.457178 4.332710
-0.051014 -0.649443 6.719464
0.016801 -0.802903 6.856973
0.183212 -1.036603 2.909988
0.202266 -1.072676 3.324513
0.096369 -0.866745 3.623604
-0.027362 -0.626580 3.759586
-0.236379 -0.221216 3.826221
-0.445635 0.184627 3.898734
-0.646476 0.574665 4.215926
0.020965 -0.713846 6.833680
0.089579 -0.846448 7.035461
0.246966 -1.024261 2.658209
0.272439 -1.065759 3.303522
0.154264 -0.867085 3.600937
-0.023127 -0.569077 3.930603
-0.264819 -0.164198 3.763530
-0.550392 0.315194 4.104164
0.138989 -0.835683 6.698012
0.166224 -0.881020 6.870232
0.027217 -0.647570 7.087855
0.309795 -0.997109 2.680736
0.316641 -1.006199 3.158351
0.139871 -0.749892 3.649197
-0.036619 -0.494869 3.616402
-0.378395 -0.000636 3.777805
-0.666928 0.416725 3.986392
0.269014 -0.931546 6.613364
0.212060 -0.848665 6.949035
-0.007110 -0.531474 7.204648
0.400037 -1.013433 3.073318
0.329285 -0.923078 3.345040
0.253141 -0.820614 7.007484
0.134155 -0.668886 7.319120
0.345129 -0.856503 3.229327
0.331817 -0.841115 3.539519
0.100964 -0.581521 3.868208
0.316817 -0.819385 6.935435
0.200613 -0.688600 7.180715
0.399863 -0.836884 3.219019
0.442252 -0.878821 3.335505
0.157844 -0.595775 3.791114
0.397047 -0.829266 6.788726
0.259164 -0.691925 7.097153
0.482477 -0.840376 2.861482
0.493835 -0.849757 3.338014
0.321209 -0.697556 3.635288
0.361076 -0.728553 6.820364
0.301646 -0.675939 7.092091
0.522389 -0.801847 2.890858
0.440023 -0.737194 3.395468
0.320295 -0.643978 3.501765
0.302106 -0.625703 6.906671
0.301871 -0.625077 7.271444
0.482682 -0.707658 3.141188
0.531513 -0.740872 3.258751
0.416970 -0.662251 3.595853
0.329804 -0.599234 6.597642
0.372951 -0.628501 6.771628
0.310613 -0.585198 7.398796
0.361220 -0.579297 2.823367
0.531526 -0.680265 3.383120
0.582549 -0.710570 3.501536
0.327844 -0.558407 3.701143
0.697174 -0.775751 6.365191
0.412445 -0.605839 6.420510
0.341115 -0.562587 7.049257
0.305424 -0.541134 7.195345
0.584251 -0.653204 3.349363
0.566621 -0.643753 3.661903
0.281158 -0.495888 3.929074
1.572757 -1.162264 5.172809
0.715006 -0.717438 6.465886
0.317898 -0.512045 6.558962
0.348365 -0.527154 7.152895
0.263981 -0.483161 7.495516
0.589907 -0.601850 2.921018
0.702654 -0.651390 3.142134
0.550515 -0.583809 3.542801
0.280081 -0.464218 3.742019
1.652889 -1.068472 5.430834
1.202742 -0.869553 5.624259
0.626092 -0.613977 6.593187
0.236036 -0.441757 6.621084
0.266864 -0.455116 6.859642
0.216103 -0.432117 7.424045
0.654574 -0.575045 3.362461
0.636815 -0.568151 3.672993
0.384290 -0.474495 3.807900
2.007927 -1.074401 5.158268
1.550366 -0.904472 5.627377
1.025916 -0.709837 6.031638
0.695622 -0.587403 6.144974
0.327508 -0.450824 6.393203
0.230925 -0.414708 6.734325
0.250125 -0.421145 7.392602
0.665807 -0.527067 3.160094
0.646069 -0.520797 3.470358
0.466732 -0.466183 3.937563
2.108025 -0.960330 5.339915
1.574272 -0.798801 5.713718
1.319348 -0.721981 5.565866
1.020887 -0.631251 6.181385
0.795179 -0.563023 6.261831
0.386802 -0.439700 6.284682
0.158060 -0.370193 6.727491
0.265276 -0.402232 7.059396
0.047571 -0.336053 7.506507
0.651703 -0.474684 3.270604
0.606871 -0.463715 3.646668
1.965402 -0.783520 5.023422
1.670117 -0.712878 5.872011
1.121878 -0.583168 5.978963
0.811516 -0.509466 6.315553
0.376487 -0.406535 6.405439
0.295096 -0.387022 6.681650
0.385046 -0.407895 7.079188
0.734830 -0.443292 3.137155
0.766526 -0.448574 3.319146
2.468116 -0.739779 5.207636
1.982279 -0.655933 5.389270
1.475506 -0.568411 5.643661
1.292754 -0.536711 5.877764
0.997715 -0.485638 6.147392
0.630827 -0.422278 6.328145
0.150917 -0.339412 6.551755
0.145776 -0.338165 6.923750
0.187259 -0.344731 7.518307
0.759991 -0.396219 3.399249
0.794117 -0.399750 3.579032
2.955433 -0.632274 5.726137
1.254741 -0.447329 6.086904
0.905260 -0.409288 6.198609
0.437419 -0.358019 6.705367
0.128297 -0.324473 6.698655
0.184307 -0.330042 7.227850
2.609810 -0.437345 1.569835
2.455330 -0.430176 1.432618
2.025713 -0.409472 1.848411
1.779014 -0.397763 1.899867
1.504756 -0.384468 2.247509
1.080356 -0.363974 2.701583
0.826467 -0.351406 3.293723
0.859276 -0.352783 3.475639
3.087714 -0.456204 5.455394
2.995175 -0.451589 5.707482
0.519558 -0.333488 6.850843
0.192862 -0.317647 7.268203
2.512628 -0.281240 1.806790
1.907173 -0.288683 2.139086
1.841458 -0.289391 2.278753
1.066500 -0.298605 3.029591
0.794623 -0.301967 3.157825
0.866287 -0.300715 3.506315
1.060350 -0.297921 3.825562
2.870529 -0.272806 5.819081
1.023236 -0.296033 6.291867
0.612372 -0.301001 6.603730
0.185810 -0.306440 6.633540
0.089507 -0.307002 7.334915
0.146401 -0.306108 7.507280
2.549336 -0.123231 1.983912
2.004765 -0.164029 1.963929
1.764664 -0.181516 2.476045
1.519453 -0.199823 2.533177
1.063622 -0.233916 2.574673
0.834611 -0.250556 3.103644
0.958134 -0.241094 3.324969
0.820012 -0.251113 3.661903
3.056715 -0.081735 5.628016
1.108115 -0.226902 6.406220
0.603740 -0.264397 6.690518
0.217052 -0.293449 6.591096
0.230933 -0.292114 6.898040
0.175780 -0.295697 7.467355
3.112809 0.129664 1.308759
2.718504 0.073182 1.425084
2.203502 -0.000380 1.793062
1.899345 -0.043866 1.968402
1.954656 -0.035589 2.317714
1.862084 -0.048680 2.519475
1.263805 -0.134192 2.890265
1.080839 -0.159782 3.582764
1.180817 -0.145159 3.865378
2.850588 0.096193 5.611187
2.916862 0.105811 5.719990
0.422732 -0.250917 7.015427
0.083001 -0.299204 7.504623
2.708605 0.238184 1.208195
2.840891 0.265860 1.601021
2.340465 0.162309 1.282413
1.946173 0.081314 1.639130
1.968091 0.086240 2.051564
1.911794 0.075209 2.647800
1.654785 0.022767 3.239942
1.750116 0.042709 3.521397
1.814151 0.056535 4.150222
1.510843 -0.006071 4.116763
1.377419 -0.031808 5.945030
1.024637 -0.104134 6.408762
0.626166 -0.186378 6.369850
0.092329 -0.296095 6.793343
0.108393 -0.292482 7.099510
0.058313 -0.302255 7.669408
1.972136 0.209352 2.733543
2.038396 0.227844 3.318150
2.082342 0.240123 3.720406
2.017917 0.223128 4.144156
1.874455 0.184449 4.245761
1.998770 0.218544 4.739817
2.345134 0.313218 5.793242
1.059563 -0.033783 6.308629
0.455953 -0.195904 7.362702
0.214487 -0.261019 7.520420
2.249713 0.429689 3.264233
2.280616 0.440292 3.439262
2.229382 0.423656 4.081207
2.248445 0.430038 4.032329
1.833720 0.290684 4.588653
1.540975 0.191887 4.556191
1.137634 0.057004 5.736330
1.232920 0.089486 6.067435
1.041485 0.025206 6.369196
0.411076 -0.186635 7.202164
0.156125 -0.272423 7.425807
2.395207 0.638034 3.329026
2.474447 0.670341 3.382841
2.384242 0.634122 3.861648
2.331685 0.612872 3.997199
2.015795 0.484623 4.303929
1.747633 0.375677 4.492837
1.323120 0.203885 5.444143
1.119391 0.121641 6.094958
1.057958 0.096851 6.301123
0.349757 -0.190550 7.109193
0.066250 -0.305567 7.467108
2.668914 0.935579 3.275864
2.485042 0.847504 3.489552
2.247416 0.734048 4.111043
2.220065 0.720992 4.185131
2.086956 0.657173 4.283316
1.720279 0.481307 4.496007
1.307864 0.284260 5.445134
1.224596 0.244556 5.712628
1.087161 0.179044 6.172621
1.001655 0.139040 7.168372
1.090424 0.182083 7.556306
2.769970 1.185248 3.107806
2.428893 0.996002 3.742435
2.312084 0.931300 4.059568
2.351482 0.953122 3.951473
2.112579 0.820522 4.354639
1.838980 0.668431 4.603614
1.547727 0.506269 4.634653
1.030754 0.219526 5.686823
0.951984 0.175957 5.957014
0.738726 0.057673 6.391905
0.380390 -0.141531 6.710041
0.192225 -0.246293 6.733370
0.273715 -0.200474 7.132743
2.563868 1.270297 3.446806
2.392416 1.160837 3.662741
2.366278 1.144194 3.734863
2.190853 1.032513 4.232882
2.025714 0.927096 4.452268
1.782312 0.771887 4.922198
1.444152 0.555762 5.142775
1.225310 0.416227 5.576294
1.077773 0.322417 6.098203
0.907964 0.214107 6.400719
0.743936 0.109097 6.353441
0.431613 -0.090536 6.538525
0.136596 -0.278755 7.022694
0.351450 -0.140617 7.603586
2.465443 1.411327 3.493509
2.239191 1.246871 3.890020
2.173071 1.198905 4.085727
1.895209 0.997056 4.674650
1.682478 0.842137 4.802387
1.451255 0.673818 4.996097
1.090945 0.411950 5.653536
1.069570 0.396461 5.731340
0.819841 0.215163 6.356510
0.767745 0.177434 6.564479
0.500378 -0.017395 6.621850
0.434323 -0.065218 6.898147
0.623489 0.073440 7.543074
2.221481 1.441617 3.688270
2.157303 1.388506 3.883854
2.036452 1.288507 4.262923
1.866520 1.147584 4.546186
1.719169 1.025008 4.487124
1.407121 0.765854 4.705308
1.114109 0.522456 4.867619
0.876220 0.325016 5.134057
0.831186 0.288558 5.921813
0.989838 0.420471 5.934656
0.666620 0.152586 6.598149
0.559421 0.063610 6.714285
0.585488 0.085578 6.952861
0.705466 0.186011 7.503867
1.983403 1.447461 3.889736
1.953981 1.420104 4.248855
1.792693 1.267915 4.534169
1.738178 1.216240 4.452026
1.476009 0.968749 4.830827
1.250689 0.755958 5.091871
1.010740 0.529422 5.422461
0.895738 0.421253 5.887508
0.830743 0.360134 6.161577
0.797002 0.328410 6.307361
0.636753 0.177324 6.683409
0.731086 0.266905 6.948427
0.844409 0.374821 7.495711
0.790912 0.324575 7.767078
1.796792 1.466234 3.701200
1.750924 1.417744 4.121486
1.712916 1.377267 4.258321
1.609042 1.266659 4.642391
1.414222 1.058066 4.548697
1.121479 0.745631 5.122799
0.991516 0.606900 5.358618
0.862839 0.469548 5.597055
0.728634 0.326781 6.192166
0.721482 0.319646 6.560436
0.639509 0.232004 6.611340
0.716451 0.315292 7.293913
0.886302 0.497350 7.518252
0.878688 0.489800 7.944175
1.561815 1.399966 3.461822
1.586390 1.430725 4.145767
1.551236 1.388402 4.282209
1.410657 1.218767 4.568710
1.242066 1.015440 4.984315
1.149644 0.903789 5.089158
0.925672 0.633427 5.480360
0.862498 0.556973 5.461177
0.722483 0.388578 6.118446
0.767192 0.442829 6.227013
0.687533 0.347065 6.628171
0.794936 0.477726 7.114101
0.924702 0.635857 7.875520
0.941685 0.656844 8.169628
1.389540 1.365918 3.818733
1.480552 1.490096 3.969836
1.359380 1.325916 4.478304
1.229960 1.150149 4.767418
1.088611 0.958246 5.123204
0.963035 0.787726 5.419803
0.809092 0.578323 5.559429
0.767694 0.522284 5.765569
0.746365 0.493937 6.196303
0.603822 0.300539 6.632904
0.738756 0.485324 7.276120
0.901789 0.708148 7.780447
0.984109 0.820659 8.035811
0.972288 0.804686 8.112543
0.807735 0.581069 8.396467
1.195606 1.294449 3.493813
1.216656 1.328678 4.184334
1.197345 1.299052 4.547477
1.105326 1.155102 4.714145
0.988656 0.972738 5.009199
0.985777 0.968250 5.023792
0.858699 0.769691 5.386294
0.750583 0.601263 5.977600
0.681234 0.493267 6.378951
0.689640 0.506357 6.329286
0.674745 0.484401 7.111869
0.920983 0.870787 7.328196
0.974590 0.955507 7.713821
0.909090 0.853648 8.172923
0.734798 0.581282 8.650516
0.989304 1.137095 2.835477
1.128962 1.389586 3.426242
1.077507 1.298526 4.205422
1.107622 1.352946 4.319969
1.033837 1.220938 4.711199
0.940387 1.053792 5.230867
0.859059 0.907776 5.403151
0.710959 0.641793 5.673361
0.646353 0.526321 6.074293
0.670193 0.569565 6.248164
0.618974 0.478058 6.585452
0.728875 0.677103 7.228541
0.900500 0.987128 7.822779
0.890383 0.969074 7.900356
0.809173 0.823412 8.143942
1.037301 1.446457 3.708920
1.070374 1.516352 4.047010
1.064977 1.505731 4.345950
0.959194 1.286000 4.984315
0.926812 1.218115 4.899457
0.844128 1.045769 5.130725
0.683052 0.710041 5.588023
0.643657 0.628282 5.858377
0.578635 0.493381 6.323592
0.599475 0.538114 6.847883
0.813840 0.987236 7.284990
0.841766 1.046752 7.795777
0.825562 1.013186 7.935568
0.655961 0.659334 8.257448
0.854105 1.273396 3.275390
0.975505 1.573546 3.795012
0.950883 1.514017 4.219195
0.956046 1.527328 4.455539
0.864643 1.303238 4.808220
0.783531 1.104330 5.101998
0.720537 0.949700 5.271660
0.616491 0.694846 5.764312
0.590687 0.631854 5.970428
0.519511 0.458171 6.565689
0.813456 1.183966 7.449072
0.778981 1.099943 7.778192
0.690987 0.884610 8.274928
0.855909 1.569989 3.431606
0.851722 1.559969 4.246022
0.871661 1.619713 4.358606
0.800940 1.410742 4.935000
0.747259 1.251312 5.102972
0.679485 1.050278 5.399920
0.610775 0.845600 5.411593
0.570369 0.727285 6.099456
0.532022 0.613178 6.147220
0.740919 1.239407 7.421919
0.706040 1.136673 7.815347
0.688664 1.085517 8.019429
0.589857 0.791137 8.021661
0.739826 1.549664 3.863241
0.766439 1.649521 4.140479
0.719838 1.478126 4.592977
0.705821 1.426586 4.733294
0.643236 1.195486 5.092094
0.587647 0.990147 5.391531
0.544304 0.829825 5.565949
0.487235 0.620321 6.225511
0.544438 0.833855 6.523546
0.637191 1.180313 7.065769
0.657304 1.256664 7.515752
0.646990 1.218884 7.657156
0.602945 1.056201 7.898343
0.648401 1.614994 3.546306
0.671137 1.728613 4.051389
0.644623 1.600505 4.379573
0.609264 1.429743 4.835014
0.589194 1.332861 5.103465
0.550852 1.146458 5.338312
0.521840 1.005080 5.447912
0.470965 0.758322 5.880272
0.459548 0.704858 6.377690
0.542092 1.110284 6.732666
0.576626 1.283137 7.557758
0.579363 1.296294 7.509576
0.527878 1.047163 8.070405
0.432949 0.584005 8.309497
0.523783 1.475088 3.454158
0.543039 1.614137 3.898450
0.560836 1.741323 4.113935
0.542328 1.612831 4.441671
0.507698 1.372625 5.085951
0.483974 1.206222 5.257645
0.457219 1.018863 5.495091
0.421566 0.769987 5.928361
0.420823 0.764842 5.944228
0.465754 1.088813 6.908618
0.510752 1.408840 7.227367
0.502328 1.350735 7.432286
0.491615 1.276902 7.700951
0.424167 0.804875 8.343947
0.429626 1.465129 3.290893
0.443291 1.644127 3.898939
0.451271 1.747703 4.175561
0.432898 1.523891 4.753431
0.419278 1.354844 4.921943
0.405732 1.186743 5.092306
0.390609 1.003119 5.617280
0.375624 0.817792 5.856867
0.364932 0.688332 6.258867
0.403290 1.175580 6.708054
0.430039 1.514685 6.964870
0.413226 1.312056 7.673484
0.411473 1.290968 7.751201
0.383456 0.945543 8.289184
0.326643 1.358016 3.607374
0.329459 1.645095 3.961578
0.329360 1.656954 4.200283
0.328306 1.598179 4.626316
0.325957 1.404581 4.856503
0.322692 1.144498 5.280377
0.320501 0.985386 5.741647
0.319127 0.864445 5.787945
0.317471 0.768255 6.412748
0.322987 1.297859 6.731328
0.323362 1.395776 7.462652
0.322799 1.356700 7.602748
0.321746 1.284211 7.869864
0.317597 0.923616 8.063058
0.245381 1.539079 3.470627
0.236762 1.730761 3.789945
0.243221 1.566786 4.469693
0.246419 1.488514 4.674303
0.249553 1.411694 4.879462
0.255402 1.268056 5.275509
0.271036 0.897286 5.737670
0.272984 0.849169 5.882538
0.273249 0.834899 6.251689
0.253195 1.284647 6.826263
0.245290 1.456376 7.304008
0.247586 1.398944 7.506612
0.259346 1.112561 8.193075
0.275063 0.754856 7.978740
0.189817 1.170395 3.349726
0.149800 1.544885 3.746315
0.146489 1.571925 4.213175
0.157186 1.468424 4.479696
0.172466 1.320457 4.873938
0.182518 1.223031 5.142764
0.194583 1.105993 5.476366
0.220627 0.855984 5.908468
0.235470 0.714703 6.021586
0.218271 0.872723 6.514392
0.166047 1.362125 6.958815
0.159293 1.421264 7.472035
0.168565 1.330645 7.803208
0.199534 1.034869 8.149712
0.079857 1.413005 3.561650
0.059956 1.529115 4.067040
0.069535 1.469323 4.495229
0.066417 1.488262 4.445435
0.094381 1.318332 4.901697
0.125716 1.129528 5.135660
0.158919 0.927474 5.726111
0.166597 0.880719 5.868443
0.184243 0.773204 6.204795
0.062104 1.497909 7.225150
0.080050 1.388270 7.617584
0.102167 1.255305 7.731517
0.172240 0.833515 8.181794
0.073327 1.069431 3.116321
-0.032258 1.524608 3.552289
-0.070586 1.688905 3.930007
-0.041503 1.561627 4.255931
-0.013253 1.437954 4.583312
0.014158 1.317901 4.912109
0.072014 1.065661 5.336771
0.133234 0.798558 5.831532
0.135967 0.785166 6.197975
0.115358 0.874192 6.240609
0.051904 1.145452 7.040478
-0.029741 1.498060 7.228106
0.002493 1.356327 7.746001
0.043654 1.176862 8.050471
0.175136 0.606556 8.327278
-0.063101 1.283920 3.107040
-0.134409 1.516734 3.819626
-0.157569 1.591990 4.159152
-0.134689 1.515870 4.360959
-0.064611 1.282626 5.006873
-0.009562 1.100304 5.241276
0.025678 0.983939 5.285389
0.077517 0.811233 5.814114
0.097025 0.746212 6.021586
0.089439 0.769279 6.612749
-0.054391 1.242155 7.054438
-0.121165 1.461425 7.341242
-0.094719 1.373120 7.670515
0.024471 0.978778 8.053272
-0.182773 1.386147 3.603912
-0.282773 1.654156 3.960599
-0.228625 1.507423 4.353575
-0.192865 1.410493 4.622081
-0.101094 1.162466 5.048125
-0.067588 1.071591 5.320014
0.023426 0.826379 5.463690
0.044555 0.768164 5.964427
0.060592 0.724632 6.108150
0.051080 0.748590 6.700000
-0.109243 1.178281 7.268441
-0.177976 1.362030 7.680907
-0.096675 1.141970 8.178109
0.067830 0.699946 8.004194
-0.265226 1.372590 3.345509
-0.386309 1.645343 3.930741
-0.341324 1.542176 4.485658
-0.243462 1.319757 4.845198
-0.212631 1.250148 4.762988
-0.125369 1.051867 5.063907
-0.039355 0.856403 5.368370
0.002841 0.759372 5.998313
0.038161 0.678751 6.274164
0.057238 0.634372 6.774841
-0.158351 1.121736 7.089378
-0.261645 1.354249 7.659630
-0.173470 1.153580 8.095078
-0.060991 0.899211 7.972256
-0.480025 1.608644 3.959130
-0.462721 1.574359 4.324937
-0.448794 1.547218 4.402923
-0.272724 1.205206 4.853196
-0.195126 1.054527 5.025884
-0.107642 0.884559 5.264849
-0.024875 0.723115 5.797626
-0.027704 0.727957 6.103592
0.011878 0.650704 6.378992
-0.037632 0.745916 6.712651
-0.256732 1.169284 7.218633
-0.255668 1.165616 7.988201
-0.142449 0.945966 8.145898
-0.532865 1.502705 3.384150
-0.604929 1.622734 3.827072
-0.572315 1.567238 4.253890
-0.447114 1.356598 4.609238
-0.396061 1.270478 4.876416
-0.203477 0.946640 5.333571
-0.104205 0.780249 5.281780
-0.077339 0.733713 6.071692
-0.123807 0.811561 6.116427
-0.088476 0.751257 6.677737
-0.204350 0.945039 6.970912
-0.267129 1.049067 7.643769
-0.346658 1.182083 7.837401
-0.211580 0.955134 8.056534
-0.689380 1.560063 3.892091
-0.710126 1.590108 4.068028
-0.543592 1.345720 4.547524
-0.394609 1.127100 4.970146
-0.233837 0.891612 5.172267
-0.155782 0.776768 5.573008
-0.099698 0.694770 5.554595
-0.090155 0.680185 5.924348
-0.006518 0.557059 6.393713
-0.024689 0.583232 6.632265
-0.317414 1.010139 7.358499
-0.410230 1.144976 7.898094
-0.362010 1.073885 8.230501
-0.334711 0.938981 2.793990
-0.715192 1.427041 3.379731
-0.832773 1.577650 3.699165
-0.807429 1.544509 4.064609
-0.697850 1.402976 4.518827
-0.491686 1.137519 4.843250
-0.416187 1.040421 4.887951
-0.226389 0.796083 5.157051
-0.069252 0.593457 5.594275
-0.117417 0.654728 5.996912
-0.076429 0.601725 6.206806
-0.034952 0.547538 6.772403
-0.351511 0.953773 7.149325
-0.460585 1.093202 7.628652
-0.465481 1.098934 7.987703
-0.246342 0.816359 8.595246
-0.829729 1.413676 3.532971
-0.913485 1.508451 3.749177
-0.821449 1.403070 4.364165
-0.738150 1.308024 4.692774
-1.916391 2.643889 5.933463
-0.196915 0.691463 6.136516
-0.153479 0.641847 6.345729
-0.085700 0.563890 7.039949
-0.364857 0.880319 7.384894
-0.420871 0.943256 7.836936
-0.471231 1.000280 7.940696
-0.425486 0.947953 8.211039
-1.082606 1.529897 3.481736
-1.051818 1.498465 3.845634
-0.906421 1.351665 4.359996
-0.836848 1.281785 4.337579
-0.069494 0.507676 6.572810
-0.106540 0.544666 6.746654
-0.393493 0.831973 7.509288
-0.478260 0.916711 7.832679
-0.428718 0.866560 8.103718
-0.416700 0.853822 8.591978
-1.112018 1.405190 3.679658
-1.119649 1.411668 3.917250
-0.912838 1.226969 4.619161
-0.805774 1.132057 4.433618
-1.833530 2.043162 6.218355
-0.158432 0.553888 6.662314
-0.126710 0.525513 6.805555
-0.399950 0.767656 7.345635
-0.488797 0.846202 7.668709
-0.435063 0.797574 8.349481
-0.325130 0.699639 8.532187
-1.171761 1.316768 3.238481
-1.159544 1.306180 4.055084
-1.155291 1.302824 4.068516
-1.092240 1.253074 4.269808
-0.292384 0.622236 6.584707
-0.289064 0.619612 6.598657
-0.285596 0.616441 6.965762
-0.368154 0.680357 7.708546
-0.375557 0.685730 8.069934
-0.398752 0.703581 8.365447
-1.321352 1.293232 3.287898
-1.337706 1.304000 3.754152
-1.242974 1.237839 4.305320
-0.277505 0.567601 6.449110
-0.240652 0.541529 6.949298
-0.349257 0.616333 7.215173
-0.402353 0.652447 7.737368
-0.343546 0.611454 8.012304
-0.273771 0.562799 8.352948
-1.286617 1.142235 3.594195
-1.307700 1.154461 4.060701
-2.985559 2.166574 6.230526
-3.079547 2.223417 6.219737
-0.329814 0.560569 6.380516
-0.290449 0.536207 6.880598
-0.340727 0.566019 7.406412
-0.457084 0.636081 7.669117
-0.381098 0.589755 8.008756
-0.114670 0.428647 8.015793
-1.381093 1.073472 3.524815
-1.305813 1.033914 3.728268
-1.247010 1.002722 4.158170
-1.445087 1.105956 4.409248
-2.498890 1.655124 5.795902
-2.317117 1.559834 6.077593
-0.240163 0.474063 6.495212
-0.149427 0.426277 6.838731
-0.505074 0.611673 7.253488
-0.361055 0.535767 7.853334
-0.183760 0.442706 8.236545
-1.460241 0.983503 3.243363
-1.526107 1.012130 3.584642
-1.379391 0.947161 3.972839
-1.243325 0.887179 4.074422
-1.084784 0.817239 4.240522
-0.924398 0.746181 4.698931
-0.506215 0.560439 6.341804
-0.323879 0.479878 6.651108
-0.320422 0.477971 7.019062
-0.497579 0.555489 7.439067
-0.279340 0.458921 7.947435
0.094017 0.294645 7.928238
-1.424408 0.858740 3.220345
-1.466571 0.873897 3.626466
-1.460827 0.871761 3.641140
-1.286982 0.807091 4.095590
-1.100900 0.738130 4.326727
-0.783644 0.620626 4.653492
-2.062932 1.091840 5.885492
-1.604552 0.922351 6.079763
-0.968325 0.687230 6.222721
-0.430267 0.487637 7.079220
-0.456364 0.496608 7.731480
-0.298625 0.438096 7.981111
-0.022470 0.336167 7.921374
-1.321207 0.725794 2.110815
-1.363370 0.737644 2.984043
-1.532439 0.788571 3.079423
-1.485179 0.773940 3.447231
-1.369039 0.738335 4.003090
-1.250770 0.702604 4.042482
-0.990416 0.623612 4.464290
-0.645941 0.519262 4.857636
-1.668844 0.826767 6.044493
-1.364819 0.734690 6.371225
-0.885210 0.590028 6.296370
-0.217062 0.388169 6.521364
-0.267116 0.403100 6.695200
-0.470519 0.463771 7.406412
-0.443099 0.455001 7.901349
-0.283528 0.406595 8.151680
-1.258021 0.619925 1.869694
-1.577716 0.695157 2.347253
-1.350741 0.640902 2.863559
-1.312263 0.631201 3.461410
-1.370746 0.644936 3.576906
-1.231437 0.611338 4.196962
-1.111344 0.582859 4.237834
-0.849335 0.520397 4.663522
-0.593360 0.459358 5.094880
-0.955434 0.544951 5.242525
-1.332911 0.633630 5.959882
-1.287769 0.622802 6.100031
-0.886196 0.527411 6.404254
-0.450026 0.423690 6.848046
-0.297292 0.387343 7.030252
-0.485650 0.431531 7.451608
-0.347912 0.398387 7.987235
-0.061442 0.330611 7.927558
-2.128593 0.685576 1.501316
-1.677982 0.607816 1.522626
-1.492446 0.575654 1.680356
-1.490685 0.574662 2.387680
-1.399849 0.558794 2.590287
-1.310418 0.543167 2.793537
-1.322939 0.544868 3.266443
-1.368420 0.552318 3.673486
-1.137519 0.511915 4.257715
-0.919725 0.474051 4.555262
-0.798527 0.453100 4.598445
-0.631162 0.423773 5.064523
-0.887570 0.467553 5.532850
-1.192290 0.519799 5.866762
-1.024656 0.490369 6.390249
-0.867335 0.463057 6.566688
-0.465292 0.393388 6.882633
-0.310816 0.366561 7.065021
-0.354979 0.373605 7.655741
-0.267590 0.358197 7.997354
0.039025 0.305292 8.004279
-2.122729 0.547079 1.590656
-1.758020 0.507226 1.656350
-1.572108 0.486792 1.813058
-1.421487 0.469821 2.371554
-1.387024 0.465988 2.447479
-1.331213 0.459543 2.817258
-1.212651 0.445847 3.606082
-1.247675 0.449497 3.783874
-1.041792 0.426531 4.306236
-0.939910 0.415157 4.575299
-0.841972 0.404493 4.553192
-0.579144 0.375403 4.984340
-0.561426 0.372831 5.647415
-0.986216 0.418886 5.947160
-1.008777 0.420782 6.533086
-0.622289 0.378378 6.780997
-0.427802 0.357202 6.737222
-0.311064 0.344075 7.142782
-0.340339 0.346637 7.797786
-0.303322 0.342459 7.942055
0.199523 0.287234 8.321471
-2.214328 0.417169 1.691045
-1.517746 0.384393 1.984361
-1.513306 0.383951 2.229563
-1.334394 0.375228 2.622352
-1.299867 0.373543 2.699813
-1.246446 0.370694 3.071307
-1.159346 0.365934 3.798662
-1.195207 0.367435 3.977461
-1.021138 0.359153 4.146350
-0.774748 0.347310 4.510495
-1.176081 0.364523 6.082852
-0.856083 0.348935 6.770874
-0.545492 0.334454 6.763661
-0.313761 0.323218 7.207029
-0.430637 0.328355 7.535806
-0.307253 0.322146 8.007853
-1.845054 0.287867 1.578489
-1.626963 0.290926 1.569016
-1.378517 0.293902 2.089221
-1.167924 0.296406 2.550063
-1.012433 0.298481 2.653704
-1.133669 0.296574 2.875151
-1.160935 0.295517 3.579394
-1.170121 0.295157 3.821557
-0.963572 0.297542 4.346368
-0.673962 0.301401 4.546942
-0.691152 0.300928 4.789309
-0.358441 0.305258 5.126285
-0.867920 0.297178 6.122086
-0.798318 0.297616 6.680869
-0.429594 0.302593 6.868574
-0.310604 0.304208 6.919668
-0.388383 0.302679 7.380590
-0.410681 0.302078 7.681786
-0.046953 0.306569 8.304100
0.490309 0.313988 8.402644
0.914591 0.319865 8.462156
-2.264336 0.145507 1.435602
-1.896795 0.172899 1.501947
-1.618461 0.193580 1.616568
-1.460491 0.205063 1.946793
-1.213281 0.223474 2.004155
-0.910072 0.245479 2.675594
-1.104251 0.230437 3.234348
-1.020804 0.235967 3.965855
-0.964195 0.240057 4.109925
-0.717127 0.258160 4.476855
-0.545128 0.270556 4.947375
-0.422309 0.279685 4.995149
-0.164013 0.298554 5.438359
-0.931815 0.240369 6.301743
-0.482555 0.273500 6.747928
-0.210133 0.293636 6.970300
-0.360205 0.282232 7.172469
-0.458323 0.274521 7.568711
-0.092562 0.301244 8.192229
0.265986 0.327824 8.404535
0.658170 0.357192 8.329580
-1.746377 0.077343 1.372359
-1.526724 0.107018 1.827083
-1.221762 0.148651 2.010621
-0.839880 0.199931 3.124051
-1.080393 0.166766 3.320514
-1.100732 0.163517 3.796088
-0.870273 0.194540 4.389577
-0.679063 0.220808 4.334457
-0.406225 0.257190 5.393964
-0.639165 0.224394 6.282790
-0.843386 0.196384 6.294007
-0.416106 0.254594 6.676794
-0.335266 0.265408 6.955034
-0.447877 0.249647 7.287604
-0.304103 0.268837 7.827961
-0.041561 0.304608 8.058883
0.411993 0.366609 8.247533
1.022285 0.449848 8.695825
-1.262565 0.066887 1.702988
-1.225789 0.074176 1.781782
-0.867279 0.144952 2.830045
-0.853934 0.147092 3.374805
-0.916451 0.133943 4.017919
-0.788268 0.159284 4.355805
-0.666779 0.183572 4.400613
-0.635030 0.189564 4.775593
-0.330340 0.250317 5.050439
0.058939 0.327746 5.596712
-0.525838 0.210210 6.026280
-0.756137 0.163510 6.615783
-0.450687 0.224690 6.609588
-0.166477 0.280982 7.253125
-0.376457 0.238580 7.609047
-0.400388 0.233492 7.910577
-0.078924 0.297803 7.982548
0.385818 0.390633 8.235185
0.928962 0.499243 8.406958
-0.664761 0.147566 2.827933
-0.882419 0.089583 3.322167
-0.853207 0.096698 3.928124
-0.774196 0.117362 4.136833
-0.582596 0.167736 4.375252
-0.192714 0.269280 5.829261
-0.719900 0.129765 6.093211
-0.913178 0.078351 6.456281
-0.480225 0.192271 6.903289
-0.253749 0.252004 6.993711
-0.338868 0.228710 7.810772
-0.286451 0.242346 8.022613
-0.047650 0.305261 8.187335
0.518379 0.454476 8.488641
-0.447908 0.180676 2.872874
-0.650847 0.112626 3.664321
-0.837055 0.050597 3.982832
-0.689925 0.098949 4.384639
-0.481324 0.167769 4.689037
-0.873238 0.036300 6.266801
-0.512701 0.154849 7.187044
-0.281965 0.230795 7.698959
-0.170371 0.267721 7.753321
0.158660 0.376189 8.317026
0.668927 0.545182 8.419074
-0.337216 0.201448 2.923855
-0.708902 0.052292 3.262026
-0.838194 0.000062 3.713588
-0.707944 0.051555 4.346873
-0.570515 0.106463 4.456194
-0.288024 0.218026 5.941820
-0.630897 0.080247 6.433608
-0.511897 0.127075 7.222510
-0.368145 0.184437 7.406925
-0.161374 0.266754 7.857413
0.174328 0.400940 8.065354
-0.543574 0.087069 3.716517
-0.706347 0.009782 3.804645
-0.537569 0.089011 4.570619
-0.532802 0.091257 4.584902
-0.378938 0.163725 5.057622
-0.015163 0.335981 5.304904
-0.685861 0.016542 6.590033
-0.491191 0.108841 6.611631
-0.245700 0.224651 7.189437
-0.279988 0.208136 7.428217
-0.300314 0.198175 7.731883
-0.091037 0.297321 7.828464
-0.418580 0.125022 3.547459
-0.611360 0.018312 3.804847
-0.598383 0.025135 4.117270
-0.379679 0.145141 4.787073
-0.356965 0.156588 5.785799
-0.677722 -0.021034 6.280506
-0.382008 0.140959 7.432322
-0.287112 0.192901 7.841009
-0.199196 0.241449 7.830025
0.259585 0.494233 8.281694
-4.018870 -2.189666 5.554908
-3.755148 -2.022499 6.099329
-0.686028 -0.070022 6.239416
-0.430400 0.091456 7.258761
-0.366577 0.131748 7.534998
-0.138696 0.275993 8.184226
0.191954 0.486451 8.103106
-3.904945 -2.449931 5.470071
-3.912224 -2.455844 6.004184
-3.841205 -2.404606 6.242157
-0.472495 0.039409 6.057603
-0.362258 0.118015 7.209606
-0.271801 0.183150 7.619919
-0.212973 0.225495 7.899283
0.052754 0.418176 7.974128
-3.776134 -2.705789 5.653508
-3.810641 -2.734382 5.815620
-3.657344 -2.609291 6.651715
-3.432684 -2.424739 6.885546
-0.677893 -0.157768 6.553519
-0.539739 -0.044407 6.801474
-0.328911 0.128779 7.024592
-0.212893 0.223559 7.569526
-0.305697 0.146791 7.900762
-0.114008 0.304301 8.067188
-3.444369 -2.811727 5.615317
-3.529451 -2.892017 5.869685
-3.571193 -2.931797 6.290309
-3.371473 -2.744338 6.462781
-0.562668 -0.104619 6.335106
-0.276407 0.163583 6.950236
-0.148473 0.283474 7.204244
-0.233279 0.203340 7.537975
-0.213358 0.221396 8.042577
0.037724 0.457159 8.187006
-0.434215 -0.006006 3.291279
-0.420182 0.008454 3.607698
-0.356216 0.075665 4.120731
-3.082952 -2.823493 6.639223
-0.663066 -0.253523 6.503081
-0.395692 0.030057 6.757779
-0.182817 0.255620 7.113690
-0.225763 0.209271 7.645076
-0.219693 0.215106 8.082181
0.082818 0.536187 8.202349
-0.366825 0.046815 3.545932
-0.350842 0.065074 4.158810
-3.057414 -3.186301 6.877107
-0.568420 -0.199568 6.559979
-0.356652 0.054422 6.617846
-0.182692 0.262267 7.199052
-0.207142 0.232574 7.438070
-0.294700 0.127129 7.701438
-0.051832 0.418112 7.973083
-0.289556 0.132391 3.612025
-0.380880 0.008005 3.765828
-0.372088 0.019449 4.079585
-0.601573 -0.296642 6.646860
-0.371189 0.016105 6.903182
-0.199085 0.249576 7.193861
-0.226770 0.210977 7.791142
-0.146971 0.319249 7.913962
-0.339317 0.050210 3.685691
-0.326749 0.068396 4.300478
-2.424665 -3.151967 6.933800
-0.537183 -0.258784 6.934536
-0.450952 -0.126305 6.762719
-0.241054 0.194346 7.382608
-0.243374 0.190136 7.755126
-0.151191 0.330986 8.011870
-0.288499 0.122120 3.964678
-0.270175 0.154028 4.345122
-2.106479 -3.122741 6.616985
-0.499345 -0.259000 6.716324
-0.422029 -0.121578 6.898147
-0.253053 0.178585 7.385718
-0.238511 0.203512 7.889657
-0.164702 0.334669 8.079097
-1.412637 -2.206498 3.254671
-1.904022 -3.231039 6.665999
-0.440206 -0.201422 6.692899
-0.388524 -0.095350 7.099439
-0.253197 0.184743 7.097352
-0.215512 0.261188 7.801309
-0.170367 0.353716 8.214703
-1.289615 -2.324141 3.665577
-1.356975 -2.488684 3.758366
-1.613062 -3.119351 6.133243
-1.672845 -3.266337 6.592686
-0.411375 -0.189878 6.832331
-0.373644 -0.097802 6.816326
-0.299802 0.081522 7.130786
-0.243665 0.217086 7.673696
-1.185173 -2.510562 3.895653
-1.302141 -2.854060 4.064520
-1.318258 -2.903288 4.725977
-1.406253 -3.162498 5.121619
-1.481587 -3.384912 5.627665
-1.496264 -3.428436 5.791133
-0.423071 -0.282750 6.247704
-0.339000 -0.037734 6.757887
-0.312881 0.038031 7.035953
-0.275864 0.145360 7.447403
-0.263121 0.182291 7.594235
-0.191835 0.389976 8.050450
-0.002171 0.945250 8.353664
-1.035087 -2.596437 3.850955
-1.128350 -2.938101 4.298273
-1.167337 -3.082775 4.995381
-1.245805 -3.369108 5.060146
-1.257543 -3.413486 5.496342
-1.202332 -3.213167 5.768122
-0.230824 0.331565 5.062101
-0.380872 -0.220881 6.541855
-0.303738 0.060612 6.470637
-0.271183 0.177811 6.884281
-0.276789 0.154954 7.551152
-0.266344 0.192500 7.699675
-0.186879 0.480900 8.067419
-0.061322 0.937745 8.328619
-0.881482 -2.690669 3.765881
-0.958382 -3.059891 4.156352
-0.973083 -3.134226 5.032792
-0.981426 -3.174881 5.202361
-0.155244 0.773776 4.882203
-0.400484 -0.404730 6.346315
-0.339554 -0.114970 6.632768
-0.297825 0.082815 6.969324
-0.251117 0.302084 7.799707
-0.203593 0.528667 7.899443
-0.125941 0.898337 8.181643
-0.664220 -2.405221 3.794571
-0.677319 -2.499077 4.349272
-0.300062 0.098664 4.199524
-0.371029 -0.404658 6.425325
-0.337049 -0.171349 6.512943
-0.225972 0.582130 8.175787
-0.169441 0.968883 8.530174
-0.482374 -2.019532 3.259476
-0.443980 -1.567814 3.817468
-0.398377 -1.023837 3.832808
-0.337198 -0.293251 3.781924
-0.304666 0.092990 3.951122
-0.305483 0.080389 4.199783
-0.354777 -0.529558 6.094939
-0.327918 -0.213046 6.441527
-0.267765 0.483908 8.255416
-0.251265 0.681154 8.223229
-0.297426 0.675537 3.023745
-0.287904 1.096398 3.269151
-0.352202 -1.817997 3.281086
-0.346826 -1.586879 3.569014
-0.337396 -1.158977 3.556491
-0.317456 -0.269970 3.892900
-0.311248 0.015438 3.799252
-0.308792 0.104332 4.314737
-0.304804 0.277205 4.495639
-0.320082 -0.492590 6.277808
-0.311692 -0.120594 6.467018
-0.241175 -1.549204 3.448014
-0.246856 -1.424425 3.487073
-0.267633 -0.969994 3.539777
-0.293857 -0.395999 3.626369
-0.318094 0.144727 4.193780
-0.322597 0.248883 4.476316
-0.330300 0.420797 4.659250
-0.289427 -0.439205 6.179793
-0.305453 -0.086951 6.303170
-0.151464 -1.517841 3.294339
-0.182883 -1.222314 3.484595
-0.226785 -0.809773 3.706274
-0.293084 -0.187776 3.929178
-0.326716 0.129220 4.204709
-0.337512 0.232715 4.487022
-0.378204 0.614899 4.670436
-0.281121 -0.277180 6.421756
-0.320420 0.092068 6.615247
-0.071700 -1.443361 2.979953
-0.097244 -1.289347 3.603600
-0.129249 -1.101200 3.541789
-0.249464 -0.392158 3.719971
-0.318522 0.015918 3.955791
-0.347595 0.188171 4.134461
-0.384578 0.407791 4.449463
-0.238106 -0.444474 6.266350
-0.296890 -0.097552 6.389452
0.012992 -1.471043 2.919264
-0.023963 -1.306220 3.311254
-0.089241 -1.017256 3.501682
-0.215895 -0.457837 3.584721
-0.307159 -0.053990 3.816342
-0.367554 0.214520 4.259797
-0.416058 0.429984 4.574128
-0.208049 -0.481183 6.186684
-0.294439 -0.098755 6.439603
-0.384618 0.300719 6.767271
0.081365 -1.393170 2.846921
0.044843 -1.266191 3.407805
-0.030734 -1.006945 3.536769
-0.243097 -0.277821 4.096041
-0.384334 0.206533 4.301879
-0.419021 0.325474 4.349128
-0.237172 -0.290953 6.189549
-0.358043 0.124292 6.580672
0.140393 -1.290084 3.077757
0.101184 -1.182375 3.347235
-0.018869 -0.853972 3.670977
-0.234086 -0.266253 3.893391
-0.350035 0.050163 3.933543
-0.452490 0.331094 4.449989
-0.568312 0.647189 4.499661
-0.155251 -0.474647 6.286021
-0.184239 -0.394796 6.563375
0.222209 -1.285493 3.061384
0.086120 -0.973477 3.614269
0.008998 -0.797547 3.555681
-0.273299 -0.152050 3.977865
-0.408749 0.157290 4.021644
-0.451232 0.254963 4.307400
-0.119261 -0.497515 6.576129
-0.059905 -0.632535 6.780939
0.286305 -1.242362 3.132363
0.258616 -1.188067 3.275537
0.063340 -0.806194 3.793076
-0.151689 -0.387242 3.624111
-0.406868 0.111059 3.959439
-0.509238 0.311344 4.275541
0.010488 -0.698057 6.209244
0.076067 -0.824766 6.765602
0.176741 -0.911005 2.962216
0.300543 -1.119590 3.158012
0.182361 -0.919567 3.453521
0.044832 -0.687196 3.585661
-0.300327 -0.103967 3.941783
-0.497534 0.229209 4.117256
-0.719307 0.604115 4.435157
0.071773 -0.726673 6.773907
0.177183 -0.904572 6.780428
0.245478 -0.927233 2.389852
0.316181 -1.031803 2.846198
0.272793 -0.966397 3.284343
0.115133 -0.730732 3.712197
-0.204778 -0.253876 3.804544
-0.458806 0.124772 3.874897
-0.664195 0.431539 4.292144
0.248911 -0.925598 6.314549
0.244509 -0.918411 6.679904
0.178710 -0.819675 7.080845
0.288799 -0.884798 2.955429
0.363953 -0.981746 3.177623
0.246438 -0.828878 3.643003
0.056542 -0.583086 3.611033
-0.352080 -0.053986 3.669181
-0.678470 0.368996 3.945328
0.264359 -0.846967 6.903709
0.261603 -0.843375 6.919067
0.051408 -0.570502 7.398423
0.375819 -0.904580 3.088917
0.361274 -0.887480 3.400515
0.295907 -0.807422 7.003200
0.134432 -0.621886 7.507495
0.419011 -0.866683 2.627369
0.491415 -0.939008 3.146090
0.290591 -0.735866 3.572859
0.361232 -0.802548 6.929643
0.358220 -0.799490 6.944249
0.116473 -0.555001 7.423134
0.499863 -0.868069 3.034236
0.444508 -0.817835 3.470612
0.167157 -0.568457 3.861335
0.371402 -0.748024 6.740881
0.284456 -0.669489 7.141205
0.268230 -0.654830 7.218214
