0.663387 -4.368827 1.624243
0.656381 -4.322688 1.167192
0.642103 -4.228662 0.419738
0.304871 -4.392386 3.471849
0.295307 -4.254589 3.136560
0.290391 -4.183760 2.034787
0.289409 -4.169616 1.816194
0.286427 -4.126659 0.859864
0.284160 -4.093986 0.527764
-0.048488 -4.270824 3.831632
-0.046695 -4.112825 3.128014
-0.045681 -4.023512 2.111884
-0.045679 -4.023385 1.719536
-0.045099 -3.972295 1.183004
-0.044313 -3.903054 0.498616
-0.406546 -4.040745 3.561583
-0.393328 -3.909368 2.792745
-0.387768 -3.854110 2.114289
-0.381776 -3.794551 1.542522
-0.380044 -3.777337 1.157114
-0.375493 -3.732108 0.328606
-0.757957 -3.966811 3.787298
-0.722084 -3.779068 3.230466
-0.714350 -3.738594 2.539739
-0.704631 -3.687725 1.825712
-0.689808 -3.610152 1.260750
-0.676493 -3.540467 0.569646
-0.953898 -3.561449 3.372697
-0.961731 -3.590695 2.671538
-0.944387 -3.525937 1.757587
-0.924629 -3.452172 1.223607
-0.919838 -3.434281 0.611928
-1.288728 -3.442811 3.273892
-1.276277 -3.409548 2.927805
-1.266021 -3.382149 2.298713
-1.245713 -3.327897 1.332117
-1.228526 -3.281982 0.563245
-1.218445 -3.255050 0.298447
-1.542894 -3.330487 3.449615
-1.515601 -3.271573 3.081241
-1.489335 -3.214875 2.046159
-1.467742 -3.168264 1.608893
-1.455292 -3.141390 0.887667
-1.450499 -3.131043 0.306989
-1.834014 -3.208554 3.663682
-1.772381 -3.100729 2.726095
-1.773847 -3.103294 2.467795
-1.744092 -3.051238 1.566176
-1.715613 -3.001415 0.696898
-1.712463 -2.995903 0.315285
-2.111707 -3.033006 3.663682
-2.057340 -2.954919 3.031711
-2.038649 -2.928074 2.385157
-2.007926 -2.883947 1.557896
-1.976408 -2.838678 0.771551
-1.971324 -2.831376 0.232317
-2.321490 -2.850342 3.273892
-2.279582 -2.798887 2.589587
-2.272586 -2.790298 2.125365
-2.255184 -2.768932 1.687572
-2.214425 -2.718887 0.670909
-2.561364 -2.645671 3.331533
-2.517765 -2.600637 2.971471
-2.482146 -2.563846 2.393421
-2.439766 -2.520071 1.425411
-2.426022 -2.505875 0.911798
-2.417314 -2.496880 0.265287
-2.892911 -2.540440 3.478888
-2.796469 -2.455749 2.986365
-2.784081 -2.444870 2.531701
-2.714900 -2.384118 1.536267
-2.704663 -2.375129 1.239111
-2.687734 -2.360262 0.413139
-3.186247 -2.349684 3.548972
-3.065794 -2.260857 2.853550
-3.020971 -2.227802 2.188795
-3.006749 -2.217314 1.488836
-2.976313 -2.194869 1.202105
-2.919750 -2.153157 0.470197
-3.519465 -2.129785 3.580001
-3.334450 -2.017824 2.985468
-3.299256 -1.996526 2.222480
-3.299637 -1.996757 1.860593
-3.244650 -1.963482 1.050475
-3.275297 -1.982028 0.499864
-3.829273 -1.917919 3.920418
-3.654905 -1.830586 2.876307
-3.625278 -1.815747 2.191449
-3.589255 -1.797704 1.548559
-3.580765 -1.793452 1.353095
-3.535898 -1.770980 0.571220
-4.023887 -1.627270 2.892551
-4.046372 -1.636364 2.614180
-3.990462 -1.613753 1.808563
-3.921407 -1.585827 1.350997
-3.899929 -1.577142 0.671629
-4.035707 -1.232594 3.411466
-3.946754 -1.205426 2.757949
-3.871585 -1.182468 1.709965
-3.856904 -1.177984 1.417071
-3.810030 -1.163668 0.758237
-3.889912 -0.819242 3.249711
-3.822707 -0.805088 2.539495
-3.740059 -0.787682 1.698258
-3.691722 -0.777501 1.190911
-3.652710 -0.769285 0.723479
-3.732711 -0.500637 3.405426
-3.664923 -0.491545 2.441190
-3.638045 -0.487940 2.078932
-3.536838 -0.474366 1.083121
-3.498363 -0.469206 0.579332
-3.635718 -0.179212 3.620242
-3.530732 -0.174037 2.595981
-3.520744 -0.173545 2.147171
-3.414464 -0.168306 1.646082
-3.358813 -0.165563 0.915547
-3.320954 -0.163697 0.224941
-3.492454 0.138084 3.671217
-3.387503 0.133935 2.935276
-3.340941 0.132094 2.059621
-3.320307 0.131278 1.726468
-3.235170 0.127912 0.910941
-3.173692 0.125481 0.351622
-3.264854 0.393864 3.408771
-3.173755 0.382874 3.013013
-3.110745 0.375273 2.276011
-3.089685 0.372732 1.528063
-3.086052 0.372294 0.755256
-3.087891 0.653074 3.110061
-3.045635 0.644137 2.648992
-2.991097 0.632602 1.893278
-2.957217 0.625437 1.203733
-2.939755 0.621743 0.589354
-3.131894 0.928313 3.859853
-2.897189 0.858745 3.021704
-2.866779 0.849731 2.371319
-2.868190 0.850150 2.041071
-2.855431 0.846368 1.340504
-2.809313 0.832698 0.607663
-2.964815 1.178162 3.648642
-2.778246 1.104023 2.948348
-2.744197 1.090493 2.535396
-2.698697 1.072412 1.843359
-2.644664 1.050940 1.159788
-2.628137 1.044373 0.491099
-2.870947 1.411973 3.723940
-2.698283 1.327054 3.125171
-2.645507 1.301098 2.476365
-2.612382 1.284807 1.961586
-2.554843 1.256508 1.193634
-2.538898 1.248666 0.567296
-2.731930 1.663152 3.715575
-2.554580 1.555184 3.211922
-2.500239 1.522102 2.197954
-2.464171 1.500144 1.488521
-2.443704 1.487685 0.854428
-2.436967 1.483583 0.490703
-2.471543 1.789686 3.537348
-2.359798 1.708769 3.194352
-2.307812 1.671126 2.160966
-2.310832 1.673312 1.829410
-2.282272 1.652632 1.076033
-2.294493 1.957679 3.447646
-2.219936 1.894066 2.989245
-2.211961 1.887262 2.275735
-2.201503 1.878339 1.665967
-2.175205 1.855902 0.795224
-2.100159 2.141720 3.296132
-2.068938 2.109882 2.560693
-2.079411 2.120561 2.093289
-2.034564 2.074827 1.402875
-2.015531 2.055417 0.532572
-1.957211 2.351261 3.604584
-1.912382 2.297406 2.668139
-1.912116 2.297087 1.998959
-1.901811 2.284707 1.205683
-1.895191 2.276754 0.902255
-1.816229 2.575861 3.534324
-1.811120 2.568615 2.975999
-1.776485 2.519494 2.271306
-1.758563 2.494076 1.303632
-1.749294 2.480930 0.841199
-1.642665 2.826067 3.673173
-1.610950 2.771504 2.843341
-1.605595 2.762290 2.086450
-1.601979 2.756070 1.541079
-1.585775 2.728192 0.628377
-1.456462 3.056817 3.381066
-1.436989 3.015948 2.671324
-1.425079 2.990950 1.977969
-1.444457 3.031620 1.440766
-1.444811 3.032364 0.774086
-1.250883 3.354082 3.535326
-1.245779 3.340399 2.926769
-1.234058 3.308968 2.238202
-1.223598 3.280923 1.292899
-1.201045 3.220449 0.888396
-1.057805 3.720847 3.418737
-1.049375 3.691193 2.611364
-1.042139 3.665742 1.929279
-1.033668 3.635944 1.363277
-1.027710 3.614985 0.739305
-0.725079 3.794071 3.369636
-0.714175 3.737015 2.804352
-0.702746 3.677209 2.049132
-0.706424 3.696457 1.536873
-0.704492 3.686344 0.484683
-0.391163 3.614349 3.361757
-0.386333 3.569718 2.657793
-0.382432 3.533672 1.829545
-0.382374 3.533140 1.340386
-0.377376 3.486957 0.704034
-0.064165 3.536339 3.146755
-0.064182 3.537288 2.904354
-0.061925 3.412868 1.979817
-0.061433 3.385779 1.506105
-0.060828 3.352424 0.482795
0.216643 3.552436 3.780985
0.206268 3.382302 3.170545
0.204057 3.346059 2.511032
0.200693 3.290889 1.711201
0.198812 3.260049 1.018716
0.196618 3.224076 0.601773
0.463318 3.247366 3.333692
0.452668 3.172725 2.548423
0.447438 3.136064 2.054652
0.440998 3.090929 1.191448
0.435377 3.051530 0.713885
0.725262 3.084167 3.227316
0.714628 3.038945 2.749643
0.701803 2.984409 2.027723
0.693698 2.949943 1.388807
0.687030 2.921588 0.362045
1.000577 3.109561 3.859853
0.940280 2.922173 3.246170
0.920620 2.861073 2.564984
0.922139 2.865793 1.946847
0.917046 2.849966 1.103659
1.214324 2.864102 3.615554
1.162961 2.742956 2.838838
1.180139 2.783473 2.140393
1.204559 2.841069 1.504115
1.154667 2.723395 0.742075
1.436653 2.742542 3.702420
1.346752 2.570923 2.820363
1.337382 2.553036 2.269116
1.338108 2.554422 1.463168
1.331416 2.541647 1.116579
1.644212 2.615093 3.643659
1.577721 2.509339 3.197650
1.549006 2.463668 2.309513
1.537317 2.445077 1.556126
1.536994 2.444565 0.912893
1.886856 2.480834 3.665885
1.817729 2.389946 2.819713
1.812075 2.382512 2.413428
1.759863 2.313864 1.428210
1.762612 2.317478 0.878383
1.740743 2.288725 0.287430
2.163832 2.399238 3.974770
2.022606 2.242649 3.251410
1.975389 2.190295 2.493232
1.951633 2.163954 1.571758
1.938790 2.149714 1.132576
1.928395 2.138188 0.566382
2.248334 2.138079 3.319084
2.217661 2.108911 2.619671
2.192993 2.085452 1.793871
2.208457 2.100158 1.202759
2.199940 2.092058 0.849609
2.486451 1.975443 3.523096
2.436302 1.935601 2.911303
2.418194 1.921214 2.346872
2.383487 1.893641 1.666320
2.374785 1.886726 0.740276
2.628382 1.764380 3.202194
2.673456 1.794638 2.724019
2.627417 1.763733 2.004407
2.605675 1.749138 1.551969
2.581558 1.732949 0.788816
2.938537 1.614107 3.064945
2.933959 1.611593 2.746256
2.910676 1.598804 2.094633
2.873686 1.578486 1.344187
2.854529 1.567963 0.684780
3.209718 1.442587 3.215567
3.203559 1.439819 2.622953
3.181202 1.429771 1.966666
3.147386 1.414572 1.270136
3.129336 1.406460 0.639357
3.548030 1.228862 3.066050
3.534022 1.224010 2.644679
3.524570 1.220737 1.835445
3.523952 1.220523 1.349099
3.473515 1.203054 0.329424
4.016595 1.041371 3.666200
3.910078 1.013755 3.143990
3.906829 1.012912 2.585904
3.870254 1.003430 1.712827
3.849312 0.998000 1.280851
3.849343 0.998008 0.383226
4.518581 0.754785 3.889005
4.342939 0.725445 3.016297
4.359886 0.728276 2.674033
4.345505 0.725874 1.826568
4.331285 0.723499 1.005415
4.275261 0.714140 0.781585
4.285026 0.356839 3.451290
4.225585 0.351889 2.625211
4.173409 0.347544 1.945743
4.152273 0.345784 1.589402
4.099609 0.341398 0.933632
4.060909 0.338176 0.219419
4.209077 0.016998 3.740992
4.114767 0.016618 3.144246
4.078171 0.016470 2.492217
4.044892 0.016335 1.653025
4.021839 0.016242 1.164746
3.975411 0.016055 0.277231
4.005039 -0.338902 3.632656
3.890310 -0.329193 2.795066
3.890475 -0.329207 2.194269
3.845811 -0.325428 1.458113
3.853111 -0.326046 1.031491
3.785764 -0.320347 0.090218
3.955258 -0.669367 3.567514
3.857877 -0.652887 2.884957
3.744831 -0.633756 2.441328
3.639266 -0.615891 1.590086
3.670876 -0.621240 1.201110
3.598247 -0.608949 0.123639
3.664390 -0.917224 3.503936
3.624048 -0.907126 3.126121
3.591649 -0.899016 2.498791
3.553437 -0.889452 1.533732
3.548199 -0.888141 0.717038
3.492072 -0.874092 0.198148
7.876145 -1.971458 -1.899805
3.594151 -1.243059 3.717244
3.500122 -1.210539 2.797183
3.441338 -1.190208 2.362783
3.376276 -1.167706 1.712363
3.353008 -1.159658 1.199806
3.355519 -1.160527 0.289441
3.437035 -1.535036 3.605381
3.329006 -1.486789 3.227130
3.282276 -1.465918 2.407968
3.271838 -1.461256 1.894128
3.208158 -1.432816 0.935887
3.195635 -1.427223 0.207086
3.345962 -1.839963 3.840222
3.261641 -1.793595 3.235615
3.178187 -1.747703 2.496732
3.123738 -1.717761 1.571865
3.101124 -1.705325 0.951662
3.067724 -1.686958 0.331333
3.186142 -2.102722 3.832026
3.014449 -1.989412 2.888953
3.012034 -1.987818 2.265700
2.986513 -1.970975 1.811515
2.932952 -1.935627 0.952446
2.925931 -1.930993 0.629501
2.927065 -2.368349 3.397216
2.859778 -2.313906 2.799491
2.825371 -2.286067 2.272081
2.793815 -2.260534 1.644895
2.778049 -2.247777 1.215344
2.761760 -2.234598 0.454825
2.780774 -2.603271 3.766443
2.707610 -2.534777 2.854772
2.710986 -2.537938 2.324041
2.679880 -2.508818 1.682011
2.622690 -2.455278 1.057455
2.592153 -2.426690 0.314249
2.566377 -2.867387 3.462512
2.543596 -2.841933 2.629925
2.531530 -2.828453 2.078551
2.510111 -2.804521 1.545085
2.488239 -2.780084 0.641278
2.467065 -2.756427 0.065832
2.416685 -3.195688 3.733437
2.378917 -3.145745 2.947865
2.357962 -3.118036 2.259648
2.351982 -3.110128 1.734899
2.316675 -3.063441 0.999589
2.308758 -3.052971 0.458895
2.234970 -3.498926 3.476782
2.173972 -3.403430 3.135854
2.123264 -3.324045 2.388384
2.133156 -3.339531 1.518521
2.164346 -3.388360 1.132182
2.140657 -3.351275 0.383226
1.969767 -3.777899 3.096184
1.968129 -3.774757 2.217176
1.968350 -3.775182 1.860078
1.938048 -3.717065 1.028421
1.933164 -3.707697 0.656000
1.796088 -4.277071 3.751608
1.762576 -4.197267 3.001025
1.765241 -4.203614 2.234755
1.752975 -4.174406 1.770819
1.740722 -4.145227 1.130204
1.733589 -4.128240 0.440952
1.494280 -4.621837 3.482514
1.484344 -4.591105 2.965104
1.466573 -4.536136 2.330696
1.457396 -4.507753 1.495119
1.444647 -4.468319 1.130473
1.430869 -4.425704 0.350666
1.077619 -4.559951 3.519287
1.060904 -4.489223 3.099690
1.043111 -4.413931 2.252657
1.032525 -4.369137 1.539986
1.014913 -4.294611 0.900123
1.000386 -4.233138 0.185188
1.840728 -7.789051 -2.028959
1.867797 -7.903597 -2.238930
0.647981 -4.476538 3.831561
0.621653 -4.294648 3.128659
0.610300 -4.216219 2.566477
0.604498 -4.176133 1.643342
0.598708 -4.136138 1.337078
0.594931 -4.110041 0.470142
0.263797 -4.215586 3.657019
0.258169 -4.125650 3.084852
0.257814 -4.119972 2.488049
0.255252 -4.079030 1.936037
0.251497 -4.019025 1.286850
0.248594 -3.972641 0.611504
-0.070615 -4.175613 3.679338
-0.067353 -3.982742 3.323084
-0.065802 -3.891021 2.656095
-0.065049 -3.846515 1.696847
-0.064741 -3.828319 1.336434
-0.063853 -3.775785 0.361165
-0.395809 -3.834178 3.295966
-0.393397 -3.810818 2.818417
-0.385735 -3.736592 1.858567
-0.383142 -3.711475 1.390201
-0.375591 -3.638329 0.717038
-0.694804 -3.689397 3.298666
-0.696774 -3.699855 2.642493
-0.683630 -3.630061 2.052524
-0.666103 -3.536993 1.230855
-0.659465 -3.501746 0.926080
-1.005565 -3.579765 3.427494
-0.983515 -3.501268 2.612194
-0.973051 -3.464017 2.117109
-0.953540 -3.394558 1.275283
-0.948939 -3.378177 0.770283
-1.323894 -3.570604 3.758244
-1.250310 -3.372146 2.990429
-1.245774 -3.359911 2.575198
-1.221553 -3.294588 1.981611
-1.190813 -3.211680 1.262875
-1.191311 -3.213022 0.398578
-1.622814 -3.483745 4.028663
-1.527440 -3.279003 2.946718
-1.513078 -3.248172 2.259306
-1.490722 -3.200180 1.847601
-1.453835 -3.120993 1.070989
-1.449667 -3.112045 0.738979
-1.874389 -3.232709 3.792204
-1.807892 -3.118023 3.306742
-1.785665 -3.079689 2.593850
-1.766003 -3.045779 1.682074
-1.750807 -3.019571 0.994660
-1.730923 -2.985276 0.315285
-2.139731 -3.095755 3.597170
-2.063267 -2.985126 3.062214
-2.048492 -2.963751 2.507044
-2.008752 -2.906255 1.888974
-1.985554 -2.872692 1.044374
-1.963082 -2.840179 0.456325
-2.395092 -2.874295 3.624789
-2.378860 -2.854816 2.928800
-2.352734 -2.823463 2.144820
-2.305388 -2.766643 1.777002
-2.277245 -2.732869 0.702875
-2.257181 -2.708792 0.331061
-2.613968 -2.672658 3.600135
-2.591717 -2.649907 2.830093
-2.568087 -2.625747 2.443205
-2.508599 -2.564923 1.529275
-2.495988 -2.552029 1.116179
-2.517969 -2.574504 0.346754
-2.932881 -2.508980 3.560753
-2.896992 -2.478279 2.886344
-2.860442 -2.447011 1.981751
-2.799998 -2.395303 1.466605
-2.776552 -2.375246 0.535740
-3.214306 -2.330806 3.431883
-3.188369 -2.311998 2.890725
-3.139252 -2.276382 1.793609
-3.114896 -2.258720 1.187946
-3.099701 -2.247702 0.532638
-3.670705 -2.235754 3.844555
-3.521436 -2.144837 3.447236
-3.462890 -2.109178 2.510565
-3.396404 -2.068683 2.156181
-3.354148 -2.042946 1.299324
-3.336331 -2.032094 0.662074
-3.845474 -1.898807 3.354490
-3.869563 -1.910702 2.894988
-3.863947 -1.907929 2.245695
-3.792099 -1.872451 1.334829
-3.777577 -1.865281 0.906230
-3.742831 -1.848124 0.072895
-3.994005 -1.588606 3.214594
-3.933441 -1.564516 2.544387
-3.911558 -1.555812 2.253269
-3.865823 -1.537622 1.467867
-3.837335 -1.526291 0.575991
-3.881775 -1.157214 3.472135
-3.806586 -1.134799 2.714720
-3.779481 -1.126719 2.043724
-3.746938 -1.117018 1.463859
-3.697987 -1.102424 0.761407
-3.785871 -0.807808 3.443284
-3.686994 -0.786710 2.699966
-3.630018 -0.774553 1.943909
-3.604823 -0.769177 1.491303
-3.555592 -0.758673 0.833085
-3.619497 -0.466679 3.485424
-3.538553 -0.456242 2.684774
-3.487855 -0.449705 2.372522
-3.439176 -0.443429 1.626799
-3.384360 -0.436361 0.897433
-3.469098 -0.137075 3.472309
-3.413569 -0.134881 2.673093
-3.385841 -0.133785 1.981439
-3.335879 -0.131811 1.550210
-3.260143 -0.128818 0.910198
-3.507727 0.138335 3.795454
-3.314022 0.130696 3.203304
-3.303333 0.130274 2.556815
-3.208668 0.126541 1.950980
-3.139582 0.123816 1.048017
-3.129986 0.123438 0.712726
-3.302063 0.430729 3.961907
-3.118941 0.406842 3.001140
-3.094368 0.403637 2.437237
-3.067643 0.400151 1.655228
-3.022338 0.394241 1.211165
-2.975972 0.388193 0.353626
-3.123857 0.667043 3.885970
-3.008010 0.642306 2.796093
-3.034703 0.648006 2.531530
-2.949143 0.629736 1.600351
-2.928462 0.625320 1.120501
-3.012315 0.927206 3.534324
-2.965756 0.912875 3.081533
-2.938712 0.904551 2.491586
-2.852306 0.877955 1.475300
-2.835825 0.872882 1.053982
-2.817246 1.122057 3.590667
-2.748355 1.094619 2.883283
-2.708372 1.078695 2.377060
-2.657695 1.058511 1.506636
-2.629277 1.047193 0.609626
-2.843158 1.444383 3.844134
-2.635740 1.339011 3.121776
-2.624251 1.333174 2.417324
-2.644361 1.343390 2.034291
-2.581179 1.311293 1.141024
-2.567065 1.304122 0.566382
-2.566512 1.563100 3.346645
-2.514203 1.531242 2.723056
-2.479172 1.509907 2.208171
-2.441876 1.487192 1.472805
-2.445736 1.489544 0.947457
-2.458363 1.811009 3.554158
-2.404334 1.771207 2.634447
-2.375319 1.749833 2.170884
-2.326390 1.713788 1.581476
-2.303580 1.696985 0.862886
-2.414498 2.096191 3.911069
-2.279151 1.978686 3.234581
-2.240072 1.944759 2.695578
-2.245325 1.949320 2.143853
-2.210127 1.918762 1.308914
-2.191677 1.902745 0.447682
-2.238338 2.320618 3.720927
-2.115694 2.193466 3.274011
-2.060300 2.136036 2.406948
-2.068702 2.144747 1.855753
-2.033411 2.108159 1.359550
-2.016718 2.090852 0.599708
-2.102443 2.564529 3.853597
-1.996757 2.435614 3.043037
-1.970689 2.403817 2.277857
-1.961921 2.393122 1.672016
-1.944870 2.372323 1.067376
-1.918523 2.340186 0.344927
-1.928457 2.773651 3.744436
-1.840985 2.647842 3.044004
-1.830309 2.632487 2.245384
-1.828140 2.629367 1.808805
-1.813386 2.608148 1.298350
-1.784545 2.566666 0.343809
-1.718950 3.018281 3.901163
-1.663795 2.921435 3.156489
-1.630659 2.863252 2.423411
-1.591228 2.794017 1.589992
-1.614050 2.834089 0.868458
-1.635377 2.871538 0.575291
-1.550783 3.307661 3.727405
-1.503997 3.207871 2.686980
-1.505957 3.212052 2.445014
-1.488339 3.174474 1.392286
-1.478947 3.154443 0.770917
-1.333183 3.571440 3.134779
-1.337409 3.582760 2.744672
-1.321206 3.539355 1.799578
-1.309658 3.508420 1.117954
-1.305443 3.497129 0.723479
-1.023602 3.731369 3.426920
-1.019085 3.714904 2.775149
-1.011253 3.686352 2.101414
-1.001980 3.652548 1.519189
-0.988132 3.602070 0.813893
-0.721283 3.812094 3.923879
-0.682439 3.606797 3.224477
-0.669167 3.536656 2.465766
-0.666081 3.520346 1.885867
-0.662946 3.503774 1.008737
-0.665652 3.518076 0.619685
-0.386648 3.639848 3.785089
-0.371168 3.494118 3.165894
-0.368710 3.470984 2.357899
-0.362981 3.417050 1.503638
-0.359008 3.379648 1.222357
-0.060828 3.576169 3.720062
-0.057260 3.366384 2.954312
-0.057299 3.368656 2.409167
-0.056611 3.328233 1.826437
-0.056945 3.347885 1.216037
-0.056648 3.330411 0.641457
0.221251 3.452723 3.793362
0.209256 3.265530 3.014027
0.208223 3.249411 2.560982
0.208610 3.255451 1.964502
0.202602 3.161684 1.080661
0.198705 3.100872 0.704915
0.519456 3.356958 3.691526
0.492155 3.180528 2.977130
0.485645 3.138456 2.500266
0.472809 3.055506 2.042871
0.472970 3.056543 1.074904
0.467112 3.018688 0.579995
0.727235 3.061814 3.492430
0.709989 2.989204 3.025231
0.715147 3.010920 2.084842
0.702748 2.958719 1.607464
0.677485 2.852355 0.683609
0.950515 2.930203 3.346960
0.921889 2.841958 2.651294
0.915314 2.821688 2.390090
0.928184 2.861364 1.448855
0.945847 2.915815 1.000164
1.193739 2.784444 3.565434
1.176727 2.744763 2.914656
1.170265 2.729690 2.093289
1.141161 2.661803 1.166368
1.126023 2.626493 0.727558
1.431246 2.719673 3.279770
1.399697 2.659723 2.564984
1.384204 2.630282 2.126999
1.345452 2.556645 1.573026
1.319678 2.507670 0.770470
1.651894 2.607789 3.405737
1.611744 2.544406 2.640739
1.588079 2.507047 2.059577
1.552837 2.451412 1.309970
1.541869 2.434097 0.667809
1.863017 2.417966 3.545753
1.819615 2.361635 2.575479
1.819556 2.361559 2.253389
1.788138 2.320782 1.376427
1.776921 2.306223 0.869939
2.062174 2.285394 3.551294
1.993992 2.209832 2.516502
1.999015 2.215398 1.923149
1.973417 2.187031 1.156053
1.962008 2.174387 0.531713
2.453136 2.275878 3.689213
2.322666 2.154835 3.227316
2.269907 2.105889 2.447605
2.265826 2.102103 2.026081
2.248879 2.086380 1.067376
2.237428 2.075756 0.420298
2.609689 2.017572 3.711888
2.502356 1.934592 2.923343
2.490648 1.925541 2.468780
2.473183 1.912039 1.788066
2.450098 1.894191 1.184023
2.413687 1.866042 0.327836
2.817393 1.871394 3.777699
2.726774 1.811203 2.761321
2.725169 1.810136 2.106399
2.711836 1.801280 1.387036
2.691755 1.787942 0.668626
3.086642 1.677578 3.392129
3.122773 1.697215 2.811031
3.087251 1.677909 1.981611
3.033990 1.648962 1.328210
2.992933 1.626648 0.664809
3.363756 1.477450 3.691404
3.280453 1.440861 2.850029
3.265470 1.434280 2.368627
3.286395 1.443471 1.562312
3.312989 1.455152 1.081335
3.297390 1.448300 0.371521
3.767128 1.283424 3.720234
3.736325 1.272930 2.980512
3.749331 1.277361 2.280362
3.716511 1.266180 1.274824
3.683672 1.254992 1.022456
3.645201 1.241885 0.327515
4.201361 1.064839 3.528963
4.143159 1.050088 2.435188
4.173722 1.057834 2.197317
4.170125 1.056922 1.283069
4.151991 1.052326 0.734490
4.284442 0.727572 3.413286
4.269279 0.724997 2.787830
4.242572 0.720462 2.165061
4.242304 0.720416 1.307263
4.223216 0.717175 0.750629
4.431727 0.348915 4.005073
4.206724 0.331201 3.411466
4.141488 0.326065 2.502176
4.111950 0.323739 2.121053
4.072481 0.320632 1.463443
4.015997 0.316184 0.504676
4.228643 -0.046056 3.894649
3.988552 -0.043441 3.371989
3.954524 -0.043071 2.798583
3.883534 -0.042298 1.891762
3.950676 -0.043029 1.265600
3.902939 -0.042509 0.490443
4.044636 -0.336379 3.941838
3.840208 -0.319377 3.047736
3.818650 -0.317584 2.545827
3.794272 -0.315557 1.871886
3.775164 -0.313968 0.919209
3.739163 -0.310974 0.418968
3.944457 -0.716646 3.948391
3.727980 -0.677316 3.153782
3.701433 -0.672493 2.609648
3.705278 -0.673191 2.006384
3.610235 -0.655923 1.104261
3.495724 -0.635118 0.479632
3.826935 -0.982810 4.080658
3.621012 -0.929926 3.383583
3.584115 -0.920450 2.474106
3.628823 -0.931932 2.090214
3.561292 -0.914589 1.293691
3.439626 -0.883344 0.355596
3.634883 -1.289180 3.743856
3.439583 -1.219913 3.018486
3.438069 -1.219376 2.445221
3.455791 -1.225662 2.021271
3.396775 -1.204730 1.346433
3.304356 -1.171952 0.646064
3.393066 -1.510459 3.811775
3.324443 -1.479911 3.161175
3.261287 -1.451796 2.409950
3.237574 -1.441240 1.647607
3.213362 -1.430462 1.051794
3.353140 -1.865334 3.787911
3.179276 -1.768614 3.152930
3.139002 -1.746210 2.674310
3.145825 -1.750006 1.752234
3.147353 -1.750856 1.288646
3.064491 -1.704760 0.679190
3.152619 -2.119706 3.884403
3.070548 -2.064524 3.262969
3.012782 -2.025684 2.537973
2.977151 -2.001727 1.960207
2.957686 -1.988640 0.950878
2.925847 -1.967232 0.306232
2.944431 -2.367561 3.720311
2.942975 -2.366389 3.030689
2.913957 -2.343057 2.330338
2.838574 -2.282442 1.617450
2.794352 -2.246884 0.834462
2.919969 -2.761272 4.021679
2.781915 -2.630722 3.290501
2.774626 -2.623829 2.951921
2.731228 -2.582789 2.262715
2.722304 -2.574350 1.167252
2.709323 -2.562074 0.534411
2.659801 -2.981560 3.643824
2.613254 -2.929382 3.015661
2.592088 -2.905656 2.384186
2.576669 -2.888372 1.670891
2.558098 -2.867554 1.056920
2.513945 -2.818060 0.369373
2.445710 -3.254121 3.428609
2.430801 -3.234284 2.962468
2.404974 -3.199921 2.170676
2.403280 -3.197666 1.745415
2.381208 -3.168299 0.922022
2.360930 -3.141318 0.571697
2.264949 -3.585393 3.376286
2.252972 -3.566433 2.928998
2.224164 -3.520831 1.971685
2.220910 -3.515680 1.427349
2.220432 -3.514923 0.705176
2.202660 -3.486790 0.073017
4.354688 -6.893429 -2.024245
2.060941 -3.974089 3.235772
2.069136 -3.989892 2.926006
2.054295 -3.961274 1.927757
2.054946 -3.962531 1.525253
2.029328 -3.913132 0.723353
2.025557 -3.905859 0.200950
1.885387 -4.557853 3.681855
1.842829 -4.454971 2.925491
1.829409 -4.422528 2.552880
1.823392 -4.407982 2.035145
1.808492 -4.371962 1.367973
1.788317 -4.323191 0.501648
1.430543 -4.435446 3.304275
1.414710 -4.386357 2.536258
1.406567 -4.361110 2.208891
1.373146 -4.257486 1.195310
1.353379 -4.196198 0.763530
0.982449 -4.285201 3.415583
0.973437 -4.245892 2.793531
0.963489 -4.202502 1.921444
0.951593 -4.150616 1.422552
0.940075 -4.100376 0.671629
1.821475 -7.944828 -1.989172
1.805106 -7.873427 -2.313618
0.598232 -4.182090 3.230784
0.593492 -4.148950 2.907172
0.584571 -4.086586 2.169728
0.579660 -4.052259 1.625895
0.572103 -3.999429 0.976665
0.229514 -4.247484 3.891392
0.220882 -4.087733 3.409510
0.217247 -4.020481 2.471966
0.217282 -4.021115 1.776516
0.215910 -3.995730 1.279781
0.211048 -3.905748 0.858196
-0.101662 -4.177255 4.082652
-0.095733 -3.933622 3.105486
-0.095305 -3.916045 2.662059
-0.093621 -3.846856 1.713224
-0.092264 -3.791086 1.042271
-0.090855 -3.733170 0.781016
-0.454636 -3.921466 3.865189
-0.440631 -3.800666 3.265919
-0.432763 -3.732796 2.560373
-0.424893 -3.664918 1.986676
-0.416486 -3.592404 1.023577
-0.409485 -3.532013 0.628464
-0.735209 -3.704974 3.712104
-0.713982 -3.598006 3.199765
-0.710958 -3.582766 2.502917
-0.697386 -3.514374 1.430155
-0.690507 -3.479707 1.191535
-0.681224 -3.432926 0.207086
-1.007817 -3.551378 3.413856
-0.989242 -3.485923 2.746365
-0.980486 -3.455070 2.366679
-0.953129 -3.358668 1.600607
-0.937250 -3.302714 0.738979
-1.295433 -3.379156 3.438787
-1.296877 -3.382923 3.004471
-1.273305 -3.321435 2.244631
-1.258206 -3.282048 1.574455
-1.238866 -3.231599 0.846198
-1.594373 -3.335795 3.463237
-1.564561 -3.273421 2.795859
-1.548497 -3.239813 2.358420
-1.509733 -3.158710 1.276333
-1.502390 -3.143346 0.770917
-1.954113 -3.366619 4.205290
-1.841191 -3.172073 3.424903
-1.817542 -3.131330 2.713365
-1.778921 -3.064791 2.054431
-1.761408 -3.034619 1.450254
-1.748229 -3.011914 0.712902
-2.168712 -3.065055 3.931880
-2.078260 -2.937218 3.006942
-2.084979 -2.946714 2.589587
-2.050972 -2.898652 1.771662
-2.059998 -2.911408 1.025267
-2.036640 -2.878396 0.339337
-2.335482 -2.796922 3.435964
-2.346951 -2.810656 2.610043
-2.314049 -2.771253 1.925581
-2.259721 -2.706192 1.267007
-2.247885 -2.692017 0.695753
-2.682633 -2.683891 3.435430
-2.667784 -2.669036 2.741011
-2.640235 -2.641474 2.272807
-2.609944 -2.611169 1.606548
-2.584573 -2.585786 0.642874
-3.170610 -2.701273 3.985451
-3.009743 -2.564219 3.285053
-2.976863 -2.536206 2.588526
-2.964080 -2.525316 2.047130
-2.907886 -2.477440 1.123369
-2.876705 -2.450875 0.549939
-3.377331 -2.436776 3.787761
-3.298687 -2.380033 3.173886
-3.256862 -2.349856 2.645065
-3.209837 -2.315927 1.878882
-3.173989 -2.290063 0.939903
-3.166722 -2.284819 0.588520
-3.717897 -2.243512 3.797846
-3.623069 -2.186290 2.805309
-3.600126 -2.172445 2.506072
-3.598685 -2.171575 1.790394
-3.570760 -2.154725 1.126497
-3.511587 -2.119018 0.365385
-4.028766 -1.980123 3.762686
-3.908456 -1.920991 3.037489
-3.858842 -1.896606 2.441204
-3.854820 -1.894629 2.052147
-3.775794 -1.855788 1.400680
-3.703456 -1.820234 0.381303
-3.975796 -1.534878 3.758964
-3.810417 -1.471033 3.328283
-3.730413 -1.440147 2.441442
-3.706690 -1.430989 2.107259
-3.668619 -1.416291 1.413649
-3.618714 -1.397025 0.539932
-3.811398 -1.131164 3.687622
-3.683394 -1.093174 3.181330
-3.627041 -1.076450 2.566462
-3.583480 -1.063522 1.529929
-3.513597 -1.042781 0.980696
-3.477635 -1.032109 0.453700
-3.625278 -0.730689 3.471467
-3.574353 -0.720425 2.719375
-3.532342 -0.711957 2.191411
-3.444413 -0.694235 1.549617
-3.375702 -0.680386 1.087586
-3.359321 -0.677084 0.406881
-3.539264 -0.424877 3.620894
-3.426198 -0.411304 2.778781
-3.395130 -0.407574 2.071184
-3.319883 -0.398541 1.650129
-3.281491 -0.393932 0.600300
-3.380570 -0.136028 3.356122
-3.324387 -0.133767 2.798482
-3.248667 -0.130720 2.174929
-3.226847 -0.129842 1.363096
-3.202156 -0.128849 0.585536
-3.393506 0.173099 3.699837
-3.202627 0.163363 3.113388
-3.163813 0.161383 2.703324
-3.095668 0.157907 1.764340
-3.077502 0.156980 1.411750
-3.028315 0.154471 0.706633
-3.333611 0.439381 4.016944
-3.162308 0.416803 3.191233
-3.140033 0.413867 2.694950
-3.077003 0.405559 1.831476
-3.014877 0.397371 1.017792
-2.951172 0.388974 0.396043
-3.130024 0.699167 3.986349
-2.949101 0.658753 3.268238
-2.884596 0.644345 2.246776
-2.867137 0.640445 1.985316
-2.854047 0.637521 1.249834
-2.857871 0.638375 0.506396
-2.969961 0.920594 3.811511
-2.822697 0.874947 2.849557
-2.795878 0.866634 2.197954
-2.848300 0.882883 1.424755
-2.809957 0.870998 1.046398
-2.804922 1.120837 3.702964
-2.723996 1.088499 2.885604
-2.714833 1.084837 2.147314
-2.687734 1.074009 1.674416
-2.650698 1.059210 0.575298
-2.654389 1.345654 3.537473
-2.604116 1.320168 2.733690
-2.596621 1.316369 1.961586
-2.573487 1.304641 1.496972
-2.503255 1.269037 0.677898
-2.690379 1.681311 3.710208
-2.560281 1.600008 3.242996
-2.507010 1.566717 2.255208
-2.512476 1.570133 1.983715
-2.474059 1.546125 1.064128
-2.485098 1.553024 0.624540
-2.524314 1.837050 3.912168
-2.418172 1.759806 3.211922
-2.404983 1.750208 2.491223
-2.381001 1.732755 1.680152
-2.332867 1.697726 0.828387
-2.375163 2.071799 3.534324
-2.300327 2.006522 3.078110
-2.249919 1.962552 2.312358
-2.240419 1.954265 1.737788
-2.200137 1.919128 1.123221
-2.219200 2.278593 3.777180
-2.141896 2.199220 3.000030
-2.101792 2.158043 2.335741
-2.089418 2.145338 1.677440
-2.052555 2.107489 1.046398
-2.027053 2.488549 3.807578
-1.975434 2.425178 2.816728
-1.998571 2.453583 2.357921
-1.975314 2.425031 1.325617
-1.962999 2.409912 0.746866
-1.896123 2.747160 3.167390
-1.877529 2.720220 2.834110
-1.849184 2.679153 1.855964
-1.845450 2.673743 1.228369
-1.833213 2.656013 0.434627
-1.810859 3.205253 3.949823
-1.759343 3.114069 3.284671
-1.728898 3.060180 2.347686
-1.717767 3.040478 1.617178
-1.691425 2.993853 0.938198
-1.673196 2.961587 0.382285
-1.587889 3.422543 2.732803
-1.583081 3.412178 2.295564
-1.567345 3.378261 1.736789
-1.543781 3.327471 1.071312
-1.331314 3.702445 3.336774
-1.307100 3.635103 2.889749
-1.297661 3.608853 2.273480
-1.310166 3.643630 1.695437
-1.292203 3.593675 1.090585
-1.008932 3.712993 3.670171
-0.994210 3.658813 2.929755
-0.984585 3.623390 2.205223
-0.964245 3.548537 1.301926
-0.955015 3.514572 1.039221
-0.640727 3.612538 3.650221
-0.627369 3.537223 2.949141
-0.620676 3.499491 2.203290
-0.613616 3.459684 1.549617
-0.608313 3.429786 0.746053
-0.356810 3.679460 4.065067
-0.339623 3.502227 3.441802
-0.335787 3.462667 2.525650
-0.331719 3.420723 1.953295
-0.326173 3.363532 1.356431
-0.322201 3.322568 0.924624
-0.056414 3.382835 3.356122
-0.056762 3.403694 2.531861
-0.056990 3.417347 2.046267
-0.056360 3.379585 1.373063
-0.053888 3.231372 0.685339
0.245773 3.392300 3.927330
0.240235 3.315861 3.278294
0.238840 3.296614 2.834110
0.235090 3.244845 1.822563
0.234503 3.236752 1.136494
0.233444 3.222123 0.626843
0.497276 3.254663 3.865065
0.489745 3.205378 3.447725
0.481340 3.150362 2.322534
0.478036 3.128741 2.012781
0.472676 3.093656 1.367540
0.741388 3.042782 3.579103
0.743518 3.051524 3.204787
0.740018 3.037161 2.175400
0.738584 3.031276 1.679047
0.731453 3.002008 0.982563
0.992600 3.011127 3.693463
0.962651 2.920275 3.050429
0.928410 2.816401 2.025862
0.917944 2.784652 1.427058
0.911040 2.763707 0.819275
1.242399 2.881249 3.629401
1.208324 2.802225 3.069705
1.180202 2.737008 2.244964
1.176620 2.728700 1.712507
1.161959 2.694699 0.801739
1.420200 2.677139 3.573845
1.395479 2.630538 2.821987
1.396929 2.633271 1.872603
1.397461 2.634274 1.424755
1.372850 2.587882 0.573908
1.716512 2.633685 3.679688
1.717342 2.634958 3.246690
1.682279 2.581161 2.567171
1.629525 2.500220 1.475300
1.623138 2.490420 1.205683
2.021672 2.620347 3.998466
1.911229 2.477199 3.087427
1.864266 2.416329 2.518819
1.837052 2.381056 1.896344
1.828272 2.369675 1.078394
2.129996 2.340349 3.643219
2.085021 2.290933 2.760263
2.065543 2.269531 2.415985
2.024749 2.224708 1.448855
2.016176 2.215288 1.145764
2.498146 2.290732 4.030308
2.392742 2.194080 3.252888
2.379363 2.181811 2.815962
2.310422 2.118594 1.930595
2.290751 2.100556 1.444167
2.287451 2.097530 0.520315
2.634560 2.059920 4.070167
2.577750 2.015502 3.258593
2.596643 2.030274 2.734058
2.557180 1.999418 2.099763
2.538870 1.985102 1.204295
2.522576 1.972362 0.426617
2.890741 1.904788 3.809950
2.879173 1.897165 3.013469
2.828729 1.863927 2.324069
2.769374 1.824816 1.609814
2.750796 1.812574 1.109622
3.219916 1.729925 3.534874
3.199600 1.719010 3.095205
3.175319 1.705965 2.207921
3.133204 1.683338 1.406531
3.111830 1.671855 0.711729
3.598057 1.578563 3.287781
3.568133 1.565434 2.416888
3.546210 1.555816 1.703618
3.525589 1.546769 1.245263
3.485449 1.529158 0.647883
4.114880 1.387036 3.797846
4.053830 1.366457 3.020953
4.051514 1.365676 2.451332
4.036905 1.360752 1.900460
3.983733 1.342829 0.534083
4.320015 1.066796 3.441927
4.300766 1.062043 2.778436
4.267390 1.053801 2.053265
4.227090 1.043849 1.329206
4.169564 1.029644 1.105627
4.506643 0.713739 3.940261
4.258237 0.674398 3.548053
4.164838 0.659606 2.643593
4.132563 0.654494 2.247066
4.098762 0.649141 1.736666
4.034730 0.639000 0.804445
4.049451 0.312426 3.347320
4.027548 0.310736 2.897386
4.000165 0.308623 2.292849
3.966929 0.306059 1.329769
3.901296 0.300995 0.907221
4.156650 -0.011779 3.920627
3.992468 -0.011313 3.404587
3.859521 -0.010937 2.576459
3.925165 -0.011123 2.135277
3.898905 -0.011048 1.218668
3.813675 -0.010807 0.934841
3.959984 -0.364445 3.695775
3.877263 -0.356832 3.192416
3.883269 -0.357384 2.746025
3.832736 -0.352734 1.729600
3.753408 -0.345433 1.100608
3.642079 -0.335187 0.708798
3.751220 -0.652316 3.950008
3.657805 -0.636072 3.145151
3.658738 -0.636234 2.630415
3.666773 -0.637632 1.695677
3.592604 -0.624734 1.162880
3.498123 -0.608304 0.297710
3.828544 -1.025450 4.170403
3.580644 -0.959051 3.754194
3.511288 -0.940475 2.870085
3.477262 -0.931361 2.141878
3.458687 -0.926386 1.380589
3.412995 -0.914148 0.744826
7.894909 -2.114598 -1.952202
3.601272 -1.282151 3.873006
3.475835 -1.237491 3.164207
3.437833 -1.223962 2.752347
3.386442 -1.205665 2.067567
3.341757 -1.189756 1.183265
3.325228 -1.183871 0.579332
3.352802 -1.538152 3.606066
3.351150 -1.537394 3.139512
3.285855 -1.507439 2.348227
3.216716 -1.475721 1.556615
3.247432 -1.489812 1.198817
3.408343 -1.918052 3.969669
3.241521 -1.824173 3.652446
3.193699 -1.797261 2.917157
3.168937 -1.783326 2.296820
3.121088 -1.756399 1.397112
3.098554 -1.743718 0.620196
3.258768 -2.185902 3.876559
3.095813 -2.076596 3.509718
3.047545 -2.044219 2.700662
3.066272 -2.056780 2.027832
3.050966 -2.046513 1.219572
2.980185 -1.999035 0.933576
3.062410 -2.473936 3.974550
3.000506 -2.423928 3.320525
2.933538 -2.369829 2.418724
2.943488 -2.377867 1.898058
2.908904 -2.349928 0.961827
2.840242 -2.294461 0.354423
2.875928 -2.746513 3.695775
2.834839 -2.707273 2.958485
2.796046 -2.670225 2.007918
2.799218 -2.673255 1.670891
2.761608 -2.637337 1.082388
2.728478 -3.046708 3.591110
2.704062 -3.019445 3.035668
2.665488 -2.976372 2.400704
2.657218 -2.967137 1.877315
2.644594 -2.953041 0.946492
2.618736 -2.924167 0.269527
2.550047 -3.423702 3.815486
2.510565 -3.370693 2.767209
2.510074 -3.370033 2.473706
2.486622 -3.338547 1.516484
2.484041 -3.335082 0.745695
2.464918 -3.309407 0.373191
2.372358 -3.797619 3.008661
2.346628 -3.756431 2.171994
2.335693 -3.738926 1.423390
2.321989 -3.716989 0.707881
2.292512 -3.669803 0.410971
2.232712 -4.381054 3.948915
2.170727 -4.259426 2.769358
2.148313 -4.215445 2.189664
2.126822 -4.173274 1.426042
2.113790 -4.147703 0.597700
1.829836 -4.446819 3.279490
1.815822 -4.412763 2.674135
1.784692 -4.337112 1.960797
1.757043 -4.269918 1.589296
1.723814 -4.189168 0.584251
1.368070 -4.296216 3.719474
1.350565 -4.241246 2.735970
1.341460 -4.212651 2.059560
1.320174 -4.145807 1.749155
1.294770 -4.066031 1.033898
1.290233 -4.051783 0.428170
0.944771 -4.173205 3.486473
0.936193 -4.135316 3.139194
0.920149 -4.064446 2.354284
0.910577 -4.022162 1.721899
0.903846 -3.992431 1.072491
1.806594 -7.980015 -2.064325
1.797768 -7.941028 -2.187647
0.577663 -4.031423 3.444864
0.567156 -3.958090 2.728754
0.564817 -3.941772 1.861012
0.566341 -3.952402 1.615049
0.555117 -3.874073 0.931733
0.221199 -4.100875 3.729151
0.211626 -3.923403 3.287781
0.209725 -3.888158 2.384186
0.208573 -3.866798 2.097926
0.206055 -3.820123 1.262688
0.205279 -3.805721 0.852861
-0.101893 -4.000250 3.891373
-0.097638 -3.833228 3.107611
-0.096053 -3.770988 2.724594
-0.093162 -3.657505 1.897687
-0.093689 -3.678189 1.351334
-0.092515 -3.632091 0.742372
-0.431586 -3.769070 3.843391
-0.426590 -3.725437 3.257594
-0.419634 -3.664692 2.325961
-0.411139 -3.590509 1.552772
-0.406538 -3.550322 1.215344
-0.401606 -3.507253 0.604158
-0.726119 -3.651522 3.468609
-0.713817 -3.589660 2.867723
-0.695461 -3.497351 2.011417
-0.690243 -3.471107 1.556615
-0.685578 -3.447647 0.985563
-1.039664 -3.576882 3.485054
-1.024876 -3.526002 2.991293
-1.001181 -3.444483 2.308866
-0.991087 -3.409754 1.771662
-0.979806 -3.370943 0.828247
-1.306324 -3.446823 3.364465
-1.290904 -3.406135 2.678156
-1.273500 -3.360215 2.391453
-1.257233 -3.317292 1.713773
-1.246643 -3.289350 1.060072
-1.612382 -3.371048 3.792204
-1.580915 -3.305261 2.908919
-1.547757 -3.235935 2.308866
-1.530315 -3.199468 1.697232
-1.516283 -3.170133 0.952446
-1.914691 -3.271169 4.010700
-1.829334 -3.125341 2.987971
-1.838140 -3.140385 2.329803
-1.840410 -3.144264 1.633938
-1.818813 -3.107367 1.263879
-1.769799 -3.023627 0.513552
-2.196923 -3.084755 3.585999
-2.142191 -3.007904 2.947679
-2.133362 -2.995508 2.500854
-2.115063 -2.969814 1.683401
-2.073021 -2.910780 1.215344
-2.433707 -2.908587 3.186598
-2.426533 -2.900014 2.823087
-2.395078 -2.862420 2.239929
-2.363826 -2.825071 1.441906
-2.346358 -2.804194 0.659355
-2.704892 -2.733137 3.437946
-2.658900 -2.686664 2.525429
-2.668541 -2.696406 2.045739
-2.645211 -2.672832 1.479390
-2.627238 -2.654672 0.805674
-3.198636 -2.706033 4.163619
-3.040650 -2.572377 3.537876
-3.017504 -2.552796 2.774104
-3.010493 -2.546864 2.035561
-2.981457 -2.522300 1.365793
-2.924727 -2.474307 0.639151
-3.517723 -2.523240 3.889681
-3.408679 -2.445023 3.414323
-3.380180 -2.424581 2.567008
-3.372817 -2.419300 2.135487
-3.324856 -2.384898 1.023761
-3.277567 -2.350978 0.748831
-3.885023 -2.328729 3.879581
-3.813911 -2.286103 3.190361
-3.757722 -2.252423 2.199802
-3.746964 -2.245975 1.618950
-3.707011 -2.222026 1.161109
-3.672053 -2.201072 0.645721
-3.800458 -1.845073 3.862309
-3.667573 -1.780560 2.762565
-3.656876 -1.775366 2.329669
-3.610074 -1.752645 1.524130
-3.591492 -1.743623 1.043495
-3.553518 -1.725187 0.244821
-3.698362 -1.439762 3.630540
-3.629680 -1.413024 2.960942
-3.577312 -1.392638 2.322628
-3.540212 -1.378195 1.732476
-3.479685 -1.354631 0.772796
-3.727213 -1.083611 3.740762
-3.609334 -1.049340 3.339733
-3.551225 -1.032446 2.739584
-3.486324 -1.013577 1.849771
-3.468676 -1.008447 1.519762
-3.372222 -0.980405 0.877928
-3.634747 -0.748276 3.787099
-3.483299 -0.717097 3.328708
-3.436973 -0.707560 2.865335
-3.357232 -0.691144 2.187441
-3.300927 -0.679553 1.131859
-3.268618 -0.672901 0.891314
-3.384024 -0.404854 3.353387
-3.349204 -0.400688 2.752334
-3.316028 -0.396719 2.001336
-3.285174 -0.393028 1.451460
-3.179569 -0.380394 0.434981
-3.258833 -0.113278 3.150083
-3.199139 -0.111203 2.793156
-3.138758 -0.109104 2.022798
-3.091644 -0.107466 1.091693
-3.099603 -0.107743 0.377657
-3.220467 0.174843 3.729285
-3.151555 0.171102 3.110061
-3.092442 0.167892 2.455999
-3.057230 0.165981 1.522141
-3.018516 0.163879 1.212147
-3.152783 0.412609 3.768809
-3.047206 0.398792 3.033630
-3.075515 0.402497 2.514746
-2.949744 0.386037 1.771495
-2.910617 0.380917 0.835489
-2.984356 0.650270 3.562563
-2.968881 0.646898 2.935187
-3.014579 0.656856 2.304893
-2.902088 0.632345 1.687224
-2.770469 0.603666 0.838188
-2.942905 0.920538 3.806188
-2.842057 0.888993 3.085563
-2.853008 0.892418 2.007382
-2.835177 0.886841 1.695652
-2.737553 0.856304 1.091212
-2.997695 1.208034 3.983127
-2.803696 1.129855 3.506547
-2.692033 1.084856 2.531036
-2.738636 1.103636 2.204615
-2.711480 1.092693 1.224513
-2.692615 1.085091 0.489913
-2.689040 1.374436 3.481305
-2.643416 1.351116 2.720864
-2.648158 1.353541 2.152280
-2.603056 1.330488 1.224513
-2.569499 1.313336 0.845289
-2.757951 1.701748 4.049968
-2.586393 1.595891 3.428053
-2.554055 1.575938 2.802875
-2.546840 1.571485 2.057915
-2.509140 1.548223 1.223525
-2.475752 1.527622 0.785498
-2.599805 1.910927 3.941341
-2.484367 1.826077 3.134410
-2.459639 1.807902 2.527224
-2.428321 1.784882 1.997345
-2.391004 1.757453 1.062410
-2.381098 1.750172 0.607172
-2.358934 2.079533 3.688068
-2.318671 2.044039 2.684718
-2.321429 2.046471 2.084842
-2.293097 2.021494 1.421299
-2.260191 1.992486 0.926045
-2.286373 2.366577 3.645174
-2.239592 2.318155 3.027287
-2.231191 2.309460 2.623689
-2.199890 2.277060 2.029530
-2.168482 2.244551 1.157903
-2.131670 2.594908 3.578051
-2.104342 2.561643 2.665169
-2.087447 2.541076 2.340011
-2.070802 2.520813 1.528969
-2.052702 2.498780 0.768900
-2.001849 2.927498 3.237746
-1.997791 2.921562 2.645620
-1.963244 2.871041 2.192148
-1.930512 2.823174 1.130005
-1.935578 2.830582 0.548031
-1.832949 3.207807 1.655931
-1.823995 3.192136 1.285456
-1.801080 3.152033 0.610415
-1.649130 3.585467 3.442895
-1.637479 3.560136 2.678397
-1.639710 3.564986 2.447551
-1.617607 3.516930 1.679073
-1.340884 3.662530 3.688628
-1.320320 3.606361 2.916718
-1.296817 3.542164 2.096693
-1.283286 3.505207 1.423081
-1.256669 3.432505 0.609910
-0.939041 3.505824 3.529531
-0.926218 3.457952 2.816984
-0.930198 3.472811 2.075824
-0.917614 3.425828 1.166724
-0.895046 3.341574 0.788139
-0.646343 3.515071 3.485752
-0.639239 3.476438 2.871260
-0.624106 3.394137 1.777495
-0.619032 3.366541 1.204747
-0.615511 3.347395 0.515243
-0.328840 3.533628 3.899887
-0.317983 3.416962 3.561015
-0.311397 3.346198 2.610901
-0.307041 3.299385 1.986303
-0.301486 3.239698 1.345285
-0.294711 3.166896 0.627866
-0.049251 3.558976 4.167778
-0.046632 3.369758 3.677895
-0.045458 3.284902 2.608953
-0.045038 3.254584 2.225033
-0.044122 3.188370 1.557815
-0.043366 3.133747 0.779792
0.255264 3.410384 4.254659
0.236813 3.163873 3.269182
0.236400 3.158355 2.694950
0.237183 3.168814 2.196985
0.231180 3.088609 1.192416
0.224821 3.003655 0.892380
0.521379 3.361455 4.121737
0.485143 3.127829 3.430991
0.473109 3.050249 2.913658
0.453296 2.922504 1.899410
0.465389 3.000471 1.514964
0.460601 2.969601 0.606190
0.705908 2.948395 3.360773
0.692883 2.893994 2.508075
0.685457 2.862977 2.078109
0.693282 2.895662 1.323653
0.688189 2.874391 0.632467
1.002711 2.989102 3.755101
0.969568 2.890302 3.512130
0.946555 2.821700 2.805135
0.941583 2.806878 1.949995
0.944909 2.816792 1.163546
1.222241 2.851217 3.752776
1.199323 2.797755 3.240382
1.192344 2.781474 2.182457
1.178489 2.749153 1.610067
1.169386 2.727919 1.079267
1.450281 2.747715 3.581994
1.398057 2.648771 2.735513
1.394858 2.642710 1.990537
1.392495 2.638232 1.450028
1.382312 2.618940 0.868535
1.658749 2.566245 3.349661
1.654122 2.559087 2.756323
1.651323 2.554756 2.046182
1.626555 2.516438 1.171026
1.616325 2.500610 0.455024
1.932379 2.517396 3.718581
1.920580 2.502026 3.330478
1.875593 2.443419 2.558774
1.864805 2.429366 1.538946
1.868617 2.434331 1.100980
2.206717 2.402821 3.826463
2.170843 2.363759 3.138476
2.180947 2.374761 2.479491
2.120555 2.309002 1.484910
2.087301 2.272793 0.848232
2.431268 2.251081 3.406002
2.429409 2.249360 2.615163
2.424952 2.245233 2.221409
2.375179 2.199149 1.521861
2.340978 2.167482 0.996108
2.810512 2.209049 3.904961
2.767365 2.175136 3.223845
2.734617 2.149396 2.517361
2.712110 2.131705 1.752604
2.689916 2.114261 1.163225
2.635201 2.071255 0.399560
3.094132 2.017727 3.205362
3.089812 2.014910 2.632587
3.026828 1.973837 1.975098
3.005214 1.959742 1.529275
2.976408 1.940958 0.504438
3.410389 1.847828 1.334212
4.144729 1.409727 2.759002
4.093848 1.392421 2.106830
4.060872 1.381205 1.542385
4.009189 1.363627 0.792312
4.249224 1.039206 3.850977
4.132163 1.010577 3.268467
4.091181 1.000554 2.586973
4.053923 0.991442 2.101299
3.986470 0.974945 1.332333
3.937381 0.962940 0.504253
4.010589 0.640965 3.347320
3.981970 0.636392 2.545216
3.924669 0.627234 2.123567
3.926065 0.627457 1.264544
3.859815 0.616869 0.760139
4.210154 0.323458 3.846137
3.980825 0.305839 3.619378
3.877210 0.297878 2.895531
3.892311 0.299038 2.186096
3.872324 0.297503 1.440543
3.767783 0.289471 0.533525
3.975461 -0.043239 3.886449
3.805529 -0.041390 3.309623
3.746031 -0.040743 2.420726
3.779171 -0.041104 1.824200
3.800130 -0.041332 1.255536
3.784219 -0.346068 3.692641
3.761492 -0.343989 3.038897
3.709042 -0.339193 2.133056
3.729368 -0.341052 1.661408
3.619855 -0.331037 0.808346
3.892160 -0.718026 4.129614
3.665736 -0.676255 3.718224
3.635428 -0.670664 2.723125
3.626187 -0.668959 2.309497
3.580662 -0.660561 1.592716
3.530537 -0.651314 0.983130
3.725023 -0.992362 3.927122
3.589411 -0.956234 3.611326
3.511040 -0.935356 2.853592
3.471894 -0.924927 2.042794
3.433300 -0.914646 1.323848
3.387533 -0.902453 0.629501
7.895699 -2.103447 -1.924165
3.609832 -1.283513 3.938558
3.507171 -1.247011 3.235615
3.482187 -1.238128 2.416501
3.502345 -1.245295 2.026157
3.443230 -1.224276 1.352452
3.353056 -1.192214 0.760747
3.452466 -1.588231 4.084525
3.367152 -1.548984 3.320564
3.293853 -1.515265 2.480235
3.298856 -1.517567 1.858018
3.285745 -1.511535 1.031828
3.205961 -1.474832 0.537956
3.372379 -1.889757 4.008972
3.268884 -1.831762 3.232947
3.269696 -1.832218 2.735063
3.229575 -1.809735 1.787598
3.228158 -1.808941 1.259708
3.144613 -1.762125 0.577901
3.221739 -2.163057 3.732583
3.191802 -2.142957 2.957667
3.158345 -2.120495 2.515139
3.103205 -2.083474 1.958738
3.034321 -2.037226 1.360693
3.012725 -2.022726 0.527935
3.092416 -2.519148 3.586781
3.032046 -2.469969 2.588526
3.035379 -2.472685 1.988240
3.015198 -2.456245 1.546856
2.953018 -2.405591 0.762675
3.033747 -2.883890 3.949744
2.961694 -2.815396 3.344531
2.900162 -2.756903 2.474030
2.892194 -2.749329 1.991423
2.875903 -2.733843 1.060679
2.848575 -2.707865 0.604361
2.799513 -3.187759 2.918460
2.744082 -3.124641 2.240849
2.737115 -3.116708 1.704241
2.750798 -3.132289 1.077893
2.614673 -3.535394 1.166203
2.157947 -4.250115 2.882878
2.112012 -4.159644 2.306817
2.089588 -4.115480 1.557381
2.067108 -4.071206 0.991458
1.718833 -4.230723 3.777139
1.690816 -4.161763 2.901969
1.677174 -4.128185 2.194223
1.656820 -4.078084 1.762273
1.626299 -4.002960 1.128872
1.599765 -3.937651 0.250445
1.280035 -4.120977 3.580299
1.255466 -4.041879 2.813392
1.248897 -4.020731 2.261359
1.233299 -3.970514 1.411142
1.227122 -3.950629 0.867974
0.895187 -4.000378 3.458233
0.881207 -3.937905 2.577767
0.876272 -3.915851 1.949045
0.868539 -3.881293 1.297157
0.863487 -3.858719 0.546742
1.774979 -7.931960 -2.316173
0.527994 -3.880138 2.917638
0.521832 -3.834853 2.402533
0.514330 -3.779721 1.558918
0.518880 -3.813159 1.204323
0.513292 -3.772099 0.680682
0.201079 -3.901166 3.737668
0.199146 -3.863660 3.195063
0.196141 -3.805373 2.588934
0.192936 -3.743188 1.718921
0.188818 -3.663287 1.071312
-0.112598 -3.812665 3.807434
-0.110455 -3.740091 2.934601
-0.109931 -3.722370 2.455618
-0.108019 -3.657616 1.905927
-0.107772 -3.649240 1.270035
-0.436128 -3.714405 3.816859
-0.427261 -3.638886 2.908919
-0.421953 -3.593680 2.389485
-0.413266 -3.519697 1.647607
-0.410633 -3.497268 1.159408
-0.793147 -3.796701 3.915700
-0.746644 -3.574097 3.276587
-0.737440 -3.530038 2.548318
-0.730088 -3.494844 2.077534
-0.721234 -3.452464 1.300112
-0.711872 -3.407650 0.654884
-1.079520 -3.675654 3.738758
-1.039690 -3.540036 3.164207
-1.020257 -3.473868 2.713365
-0.993850 -3.383957 1.789672
-0.986064 -3.357445 1.234917
-0.987553 -3.362515 0.571528
-1.332300 -3.466399 3.603101
-1.316621 -3.425605 3.216240
-1.293281 -3.364880 2.531809
-1.270527 -3.305679 2.021344
-1.253350 -3.260988 1.085800
-1.239244 -3.224286 0.555877
-1.615467 -3.382332 3.882592
-1.579762 -3.307576 2.925395
-1.564521 -3.275667 2.214350
-1.567248 -3.281376 1.502016
-1.538227 -3.220613 1.099650
-2.003522 -3.387141 4.149363
-1.880392 -3.178977 3.430317
-1.876889 -3.173055 2.607891
-1.878075 -3.175060 1.978445
-1.865122 -3.153162 1.541971
-1.835860 -3.103692 0.643937
-2.215871 -3.104117 3.151175
-2.198171 -3.079321 2.566462
-2.167753 -3.036710 2.223489
-2.140625 -2.998708 1.458372
-2.110368 -2.956322 0.701137
-2.607353 -3.073577 3.515722
-2.545988 -3.001238 2.586374
-2.526576 -2.978356 1.841155
-2.483516 -2.927596 1.549432
-2.445799 -2.883135 0.632008
-2.899414 -2.908251 3.301155
-2.835758 -2.844401 2.349850
-2.810367 -2.818933 1.836556
-2.796613 -2.805137 1.485892
-2.758214 -2.766621 0.670246
-3.288974 -2.782862 3.728480
-3.226382 -2.729901 2.463544
-3.174382 -2.685904 1.874450
-3.141669 -2.658224 0.982326
-3.669607 -2.602438 3.639378
-3.585102 -2.542508 3.179672
-3.563217 -2.526988 2.654415
-3.540724 -2.511036 1.984259
-3.470108 -2.460956 1.333704
-3.433530 -2.435016 0.776801
-3.574500 -2.123236 3.525411
-3.503403 -2.081005 3.000632
-3.471829 -2.062250 2.610314
-3.425362 -2.034649 1.893618
-3.384198 -2.010198 0.849316
-3.353392 -1.991899 0.269752
-3.464834 -1.680757 3.263218
