0.301003 -1.152932 2.892612
0.460064 -0.881670 3.193668
0.673411 -0.517238 3.673904
0.845706 -0.224626 3.842523
1.044947 0.114265 4.104062
1.260517 0.479708 4.229326
1.237800 0.445343 4.751980
0.875614 -0.161013 5.529163
0.736865 -0.389829 6.275740
0.768281 -0.334220 6.598014
0.984013 0.035044 7.181582
1.147750 0.313317 7.366864
1.448709 0.824330 7.646932
0.080762 -1.900868 1.275741
0.078503 -1.900906 1.795216
0.152076 -1.734546 2.057734
0.294669 -1.412015 2.577736
0.457826 -1.046359 2.820252
0.540371 -0.861317 2.947828
0.712878 -0.472564 3.427150
0.816868 -0.238878 3.647457
0.964159 0.092969 4.048232
1.102150 0.401934 4.223021
1.389523 1.043879 4.432064
0.767834 -0.325143 6.032510
0.832946 -0.175349 6.531950
0.931855 0.049262 6.985065
1.046334 0.307264 7.304980
1.158972 0.559023 7.401844
0.335796 -1.712189 1.354467
0.245911 -1.980706 1.821187
0.381035 -1.562326 2.282868
0.435772 -1.391854 2.548316
0.594262 -0.902713 2.964334
0.673947 -0.656697 3.180514
0.770174 -0.359033 3.486889
0.865677 -0.063537 3.796818
1.020109 0.413529 4.237788
1.108427 0.684279 4.325469
1.050422 0.513291 4.808147
0.827840 -0.156426 5.585607
0.769143 -0.326818 6.282458
0.830143 -0.135996 6.644981
0.917742 0.135461 6.962101
1.060823 0.578037 7.416108
1.230351 1.098020 7.606280
0.490541 -1.745498 1.417434
0.500052 -1.690824 2.021291
0.543341 -1.490443 2.143376
0.604494 -1.202505 2.579830
0.682559 -0.838123 2.963995
0.778045 -0.394903 3.299619
0.824903 -0.173804 3.659208
0.878243 0.074400 3.879942
0.949803 0.405080 4.051274
1.102582 1.112372 4.487051
0.746317 -0.489447 6.046404
0.769106 -0.377631 6.453596
0.809958 -0.184026 6.813193
0.897907 0.225083 7.169482
0.975409 0.580666 7.216509
0.684902 -1.523223 1.476549
0.673006 -1.608259 2.054088
0.692271 -1.428463 2.318813
0.717407 -1.193663 2.670439
0.755399 -0.851860 2.828361
0.789655 -0.538050 3.131114
0.835342 -0.116774 3.613418
0.857206 0.081347 3.744918
0.917380 0.632443 4.272838
0.943222 0.861012 4.268332
0.789698 -0.437084 5.999274
0.800949 -0.323236 6.405989
0.811744 -0.213423 6.812928
0.857305 0.202258 7.167392
0.913004 0.698358 7.256529
1.004157 1.506855 7.305779
0.845908 -1.499827 1.391594
0.843489 -1.701639 1.800494
0.842981 -1.402535 2.234313
0.842655 -1.222714 2.500205
0.842533 -0.791345 2.970894
0.842721 -0.532417 3.186871
0.843198 -0.079406 3.527434
0.843089 0.285634 3.927093
0.843902 0.571241 4.011797
0.844143 1.070995 4.459674
0.831961 -0.477868 5.975205
0.830820 -0.362206 6.382640
0.830051 -0.114901 6.830096
0.830647 0.209305 7.009030
0.831603 0.668525 7.234231
1.011342 -1.444777 1.497194
1.003273 -1.391814 2.100169
0.989635 -1.271213 2.277878
0.963189 -1.037533 2.627249
0.922007 -0.667700 3.010410
0.893743 -0.412071 3.224265
0.838095 0.091029 3.650942
0.816313 0.289250 3.782974
0.767298 0.733357 4.132396
0.769525 0.693411 4.651935
0.881528 -0.405727 6.136991
0.867813 -0.292854 6.543287
0.850803 -0.144266 6.814273
0.804778 0.271802 7.168314
0.760419 0.680396 7.303786
1.176005 -1.445372 1.683801
1.158361 -1.370886 2.145172
1.137030 -1.276314 2.464881
1.045875 -0.855069 2.930714
0.974299 -0.520366 3.089182
0.884611 -0.106269 3.566950
0.819236 0.196338 3.874808
0.742372 0.558440 3.904478
0.677456 0.858745 4.219569
0.968895 -0.548607 5.918793
0.943207 -0.435102 6.324216
0.879795 -0.146012 6.856146
0.840378 0.037397 6.991485
0.744550 0.485364 7.211113
0.582410 1.242684 7.616246
1.320929 -1.313841 1.165906
1.325653 -1.336917 1.826891
1.337412 -1.377020 2.117650
1.263271 -1.152084 2.464217
1.121434 -0.717424 2.788117
1.049121 -0.498219 3.140856
0.952012 -0.201647 3.442014
0.829668 0.173631 3.693829
0.707713 0.547640 3.950681
0.612365 0.838613 4.263912
1.064240 -0.579983 5.873710
1.015905 -0.433869 6.141024
0.979454 -0.326273 6.545152
0.845916 0.079562 7.115179
0.731594 0.429844 7.380875
0.578048 0.903735 7.469941
1.505708 -1.271003 1.514326
1.480819 -1.221488 2.117650
1.405745 -1.057206 2.381352
1.260554 -0.739596 2.902383
1.176814 -0.554745 3.029061
0.966262 -0.090945 3.450180
0.848595 0.169757 3.528433
0.697382 0.501926 3.926670
0.617827 0.673840 4.432547
1.096414 -0.404393 5.978217
1.047187 -0.298906 6.383904
1.039845 -0.284822 6.616313
0.901710 0.018302 7.013330
0.729680 0.397168 7.365453
0.486197 0.935616 7.632467
1.707962 -1.247656 1.462744
1.636699 -1.129041 2.007644
1.598193 -1.066250 2.467758
1.408936 -0.742844 2.845557
1.278244 -0.519124 3.056648
1.119884 -0.248386 3.356462
0.920357 0.093733 3.606556
0.721470 0.434708 3.861717
0.736989 0.403872 4.380709
1.056413 -0.153825 5.253947
1.234630 -0.465657 5.826824
1.124330 -0.279971 6.403376
1.072100 -0.191336 6.586192
0.995923 -0.062091 6.856376
0.760822 0.339890 7.295700
0.510018 0.771705 7.384155
1.896405 -1.131648 1.492552
1.848146 -1.069453 1.951180
1.685085 -0.852814 2.521188
1.579126 -0.711323 2.783453
1.391028 -0.459013 3.077345
1.187758 -0.185288 3.234324
1.134648 -0.115628 3.555926
0.802005 0.330623 4.067899
0.817090 0.309248 4.216440
1.214428 -0.234542 5.228560
1.344759 -0.414728 5.835038
1.192865 -0.212312 6.273229
1.131203 -0.130161 6.454355
0.931436 0.137260 6.848306
0.786246 0.330565 7.294104
0.622521 0.551275 7.384770
0.111790 1.240774 7.515744
1.933613 -0.861363 1.805986
1.920222 -0.848848 2.182008
1.681856 -0.589951 2.697995
1.583036 -0.481596 2.737147
1.293382 -0.166064 3.205263
1.158059 -0.020268 3.700399
0.986022 0.167497 3.917410
0.606537 0.583595 4.067728
1.420192 -0.319052 5.538457
1.337588 -0.230647 5.941891
1.224554 -0.109311 6.431743
1.063313 0.066571 6.652203
0.838188 0.311613 7.049521
0.711129 0.450418 7.187541
0.310983 0.888545 7.453062
1.969874 -0.614064 1.542472
1.954609 -0.602450 1.917562
1.898453 -0.554865 2.375857
1.784246 -0.455296 2.777572
1.633228 -0.321474 2.899586
1.418855 -0.132892 3.334284
1.312056 -0.039937 3.739605
0.892173 0.333176 3.880795
0.702992 0.500472 4.098737
1.240720 0.016796 5.026351
1.531657 -0.245990 5.735748
1.303786 -0.045848 6.257582
1.255023 -0.004094 6.573128
1.077721 0.152621 6.791521
0.865604 0.339865 7.099283
0.519335 0.645855 7.539708
0.081009 1.035903 7.583493
2.107427 -0.457002 1.744715
1.929848 -0.332850 2.231052
1.803827 -0.245025 2.634150
1.613358 -0.111025 2.982679
1.425435 0.021152 3.333280
1.353484 0.070859 3.653706
1.101569 0.248864 3.954014
0.712909 0.524773 4.153139
1.576370 -0.098662 5.875733
1.490499 -0.038358 6.055421
1.174441 0.184498 6.530111
1.051633 0.270685 6.798627
0.858916 0.406900 7.020266
0.556977 0.620715 7.284705
0.036168 0.990009 7.639904
2.098357 -0.200602 1.819756
2.031072 -0.164998 2.279834
1.873934 -0.078188 2.542641
1.718356 0.007744 2.806662
1.369029 0.200625 3.413964
1.244321 0.268622 3.821589
1.170262 0.308642 4.143398
0.605976 0.624211 4.238696
1.784818 -0.042405 5.671727
1.410028 0.165967 6.006197
1.070628 0.353878 6.483067
1.049000 0.363943 6.936639
0.801607 0.501085 7.246348
0.479214 0.680422 7.512677
-0.074091 0.989669 7.646186
2.036455 0.064596 1.410066
1.908062 0.116493 1.955238
1.968728 0.089023 2.387378
1.880544 0.124909 2.705586
1.537391 0.268227 3.083545
1.326043 0.355990 3.434738
1.428670 0.310221 4.001817
1.146694 0.428036 4.301313
0.630844 0.645280 4.448477
1.418750 0.302698 6.742103
0.915144 0.514720 6.901233
0.691954 0.607087 7.345494
0.352810 0.749190 7.611705
-0.354855 1.047317 7.789738
1.900023 0.302880 1.414410
1.822611 0.324967 1.877410
1.805496 0.328715 2.254965
1.846306 0.314862 2.546932
1.540196 0.407024 3.206707
1.294064 0.482440 3.418989
1.157770 0.523004 3.826969
1.209291 0.505843 4.116023
0.917018 0.595187 4.418933
1.385278 0.440494 6.735753
0.862432 0.601894 6.896150
0.636570 0.670981 7.119732
0.367120 0.753206 7.433341
-0.242361 0.940649 7.790364
1.830460 0.513715 1.450354
1.810186 0.516120 1.827551
1.793178 0.517898 2.203763
1.667290 0.540042 2.748328
1.466457 0.576889 3.237669
1.214564 0.624720 3.448815
1.324647 0.601173 4.015853
1.024483 0.657977 4.315459
1.465238 0.564078 6.490891
0.595862 0.733137 6.227860
0.303639 0.787466 6.762133
0.543580 0.738701 7.359815
0.314789 0.782012 7.584755
-0.261295 0.893166 7.627688
1.771859 0.701797 1.443097
1.692776 0.706805 1.904834
1.618827 0.711372 2.365787
1.663369 0.706376 2.656306
1.319576 0.734028 3.175572
1.202620 0.743421 3.355700
1.199529 0.742209 3.729993
0.838969 0.771836 4.116136
1.057144 0.741189 7.100966
0.561120 0.783742 7.177944
0.189220 0.813950 7.665056
-0.349253 0.860654 7.620032
1.754143 0.879609 1.700301
1.677000 0.876526 2.161845
1.547993 0.872260 2.707264
1.315167 0.867061 3.057230
1.085493 0.861905 3.409274
0.998063 0.859203 3.730876
0.913184 0.856544 4.052490
1.164111 0.848371 7.173369
0.443486 0.836275 7.241582
0.028244 0.828065 7.595879
-0.470350 0.819522 7.687215
1.638898 1.074672 1.704252
1.505624 1.054893 2.249678
1.549111 1.059484 2.540660
1.261443 1.019746 2.974032
0.924429 0.973138 3.495426
0.893744 0.968153 3.729533
0.704126 0.941138 4.221953
1.073531 0.979158 6.940697
0.352626 0.882752 7.226603
0.167760 0.857782 7.362484
-0.509045 0.766588 7.803355
1.362240 1.189963 1.597672
1.343248 1.184024 1.976268
1.327516 1.178846 2.353867
1.259777 1.161256 2.815284
0.979649 1.094464 3.251702
0.811260 1.054294 3.519248
0.943815 1.072664 6.586964
0.203280 0.901067 6.510891
0.011533 0.855111 6.868385
0.126357 0.880095 7.281479
-0.144962 0.815853 7.593128
-0.978785 0.621766 7.723515
1.259516 1.345714 1.542464
1.186509 1.318095 2.004403
1.172549 1.311611 2.380689
1.161708 1.306230 2.755947
0.890825 1.209094 3.190590
0.596853 1.104404 3.488421
0.755499 1.158219 3.970126
0.679096 1.130006 4.288185
0.685533 1.130725 4.658486
0.852521 1.181692 6.526121
0.346045 1.003742 6.459740
0.242772 0.965717 6.863169
0.099170 0.913136 7.354018
-0.246440 0.790413 7.618587
-0.758528 0.609469 7.796641
1.156070 1.477391 1.490282
1.139211 1.467910 1.866510
1.020873 1.410460 2.411170
1.011474 1.404460 2.785442
0.752198 1.281887 3.219301
0.420773 1.125951 3.602577
0.673136 1.242080 3.911193
0.251705 1.043487 4.469712
1.023062 1.395151 6.170630
0.571164 1.184525 6.234080
0.188542 1.004941 6.575003
0.170136 0.994412 7.026726
0.001125 0.915159 7.160647
-0.251985 0.795991 7.471453
-0.786281 0.546135 7.736682
0.991806 1.600803 1.826231
1.027097 1.620979 2.118639
1.015064 1.611907 2.494467
0.600213 1.356347 3.043270
0.452129 1.264795 3.310035
0.305597 1.174186 3.577977
0.748122 1.434751 5.603595
0.371804 1.202649 6.162156
0.284211 1.148391 6.342655
0.223670 1.108984 6.880541
-0.056626 0.936205 7.274954
-0.215310 0.838794 7.410718
0.778484 1.655674 1.564277
0.830286 1.692699 1.997463
0.727988 1.612675 2.541456
0.542918 1.471041 2.889510
0.249024 1.246970 3.271133
0.267927 1.260528 3.419491
0.529685 1.447857 5.559483
0.425582 1.366084 6.181388
0.313505 1.281135 6.225353
0.116300 1.129878 6.664411
-0.039504 1.010335 7.019598
-0.337237 0.782851 7.504539
-0.521550 0.642393 7.730500
-1.060340 0.235059 7.730507
0.676466 1.809185 1.749056
0.622362 1.755570 2.210037
0.451102 1.591879 2.558497
0.241352 1.391348 2.994693
0.155794 1.309534 3.175712
0.052287 1.209532 3.583704
-0.272824 0.900549 3.920313
-0.845124 0.359113 4.056234
0.269897 1.404251 5.591281
0.183725 1.320654 5.994206
0.030166 1.172456 6.569902
-0.078101 1.068709 6.838907
-0.249015 0.906029 7.061126
-0.519459 0.647884 7.547391
-0.751546 0.427635 7.727747
-1.405707 -0.190416 7.729504
0.469190 1.852505 1.956227
0.406321 1.777260 2.274798
0.271394 1.616952 2.763399
0.140143 1.463139 2.887012
-0.063408 1.223961 3.184122
0.009936 1.306053 3.753038
-0.369829 0.860940 4.121928
-0.902322 0.239970 4.118115
0.066768 1.360345 5.734586
-0.097374 1.166267 6.173418
-0.107188 1.153427 6.404051
-0.240112 0.994922 6.980913
-0.361681 0.852333 7.115642
-0.600956 0.571692 7.379930
0.213325 1.841004 1.526276
0.217034 1.842849 2.045666
0.195220 1.808798 2.281080
0.110839 1.680640 2.686004
-0.096067 1.370706 3.067371
-0.206407 1.203373 3.561470
-0.307294 1.040582 5.402337
-0.173070 1.237186 5.787191
-0.264977 1.097246 6.278413
-0.326884 1.002459 6.683707
-0.435721 0.838319 7.041375
-0.516900 0.715855 7.313255
-0.771416 0.336349 7.534635
-1.074536 -0.115035 7.714042
-0.051146 1.692040 1.612901
-0.019803 1.746282 2.049118
-0.065743 1.658834 2.370948
-0.163973 1.473470 2.863629
-0.299478 1.219747 3.303422
-0.340569 1.141236 3.626849
-0.527733 0.793732 3.878071
-1.010328 -0.097950 3.999924
-0.335796 1.135804 5.349844
-0.357190 1.090697 6.030192
-0.300370 1.193939 6.226759
-0.440605 0.930743 6.756591
-0.552838 0.721754 6.980569
-0.708599 0.430959 7.382682
-0.903959 0.069273 7.519539
-1.163508 -0.411285 7.705439
-0.225624 1.713664 1.380983
-0.234786 1.683188 2.127371
-0.259812 1.616503 2.588407
-0.345958 1.399945 2.938487
-0.452860 1.135021 3.009348
-0.610314 0.740932 3.484216
-0.661355 0.610482 3.895481
-0.864080 0.110319 3.817589
-1.010650 -0.254630 4.078887
-0.416233 1.196803 5.746495
-0.513386 0.949754 6.409625
-0.568915 0.809704 6.678899
-0.656850 0.590062 6.901249
-0.779033 0.283913 7.302020
-0.865679 0.067402 7.529765
-1.103113 -0.523156 7.892306
-0.435584 1.553348 1.745812
-0.462219 1.456830 2.067654
-0.488140 1.362778 2.389607
-0.528835 1.216496 2.797515
-0.607147 0.939872 3.238152
-0.731579 0.505473 3.575498
-0.638064 0.802933 5.371241
-0.611098 0.886919 6.015549
-0.641713 0.775470 6.421594
-0.708761 0.537669 6.867078
-0.760679 0.356471 7.004184
-0.863309 -0.004844 7.496500
-0.952022 -0.313755 7.681096
-1.127913 -0.923077 7.824124
-0.594773 1.530173 1.697928
-0.615742 1.398435 2.245345
-0.664737 1.109787 2.681892
-0.703494 0.881280 3.035079
-0.737872 0.682821 3.162407
-0.790717 0.375290 3.466091
-0.828231 0.153705 3.825901
-0.964272 -0.623390 3.966505
-0.701562 0.834279 5.584952
-0.728869 0.667744 6.077156
-0.747051 0.555080 6.482940
-0.763926 0.454926 6.665840
-0.812203 0.168128 7.200775
-0.851735 -0.061911 7.427243
-0.953024 -0.644263 7.697524
-1.109172 -1.532776 7.707992
-0.762037 1.309941 1.914061
-0.767511 1.211581 2.235997
-0.782299 0.975613 2.588618
-0.783864 0.939172 2.825209
-0.811200 0.513176 3.300143
-0.827893 0.257167 3.518152
-0.853918 -0.137123 3.774323
-0.907428 -0.925828 3.918925
-0.806000 0.450059 5.714110
-0.806332 0.418872 6.171840
-0.806328 0.392650 6.628267
-0.812545 0.291378 6.812561
-0.830234 0.002495 7.349590
-0.842457 -0.183807 7.489225
-0.881832 -0.773715 7.761462
-0.952603 -1.809310 7.821933
-0.891004 1.125636 1.009188
-0.891761 1.252182 1.876037
-0.884956 1.094638 2.284855
-0.880209 0.972410 2.466925
-0.871397 0.764502 2.963466
-0.857647 0.394121 3.353959
-0.848309 0.137171 3.573686
-0.832113 -0.312577 3.920504
-0.822847 -0.566594 4.146564
-0.808866 -0.958666 4.414054
-0.849126 0.448538 5.972143
-0.842470 0.322221 6.604367
-0.835667 0.132336 6.741894
-0.825038 -0.152351 7.057353
-0.810705 -0.527667 7.554445
-0.796602 -0.938347 7.696988
-0.772305 -1.662809 7.801148
-1.030482 1.184694 1.470072
-1.040464 1.270218 2.048237
-0.996672 0.977378 2.484976
-0.941878 0.606502 2.870270
-0.884112 0.211161 3.119389
-0.858377 0.039517 3.392156
-0.804774 -0.322705 3.790241
-0.872557 0.205760 5.829121
-0.873815 0.224798 6.200170
-0.868306 0.199105 6.657299
-0.819453 -0.129961 7.058466
-0.765730 -0.496561 7.328864
-0.712217 -0.861563 7.604168
-0.614492 -1.535502 7.840606
-1.158368 1.113629 1.235121
-1.132513 1.024094 2.070323
-1.081925 0.824488 2.195359
-1.008536 0.539117 2.636245
-0.950352 0.312992 2.993343
-0.838376 -0.127808 3.333262
-0.761209 -0.430341 3.643869
-0.718734 -0.595155 3.920822
-0.642635 -0.893341 4.237087
-0.884188 0.098907 6.060070
-0.854565 -0.012532 6.469701
-0.780831 -0.297698 7.008319
-0.743926 -0.440322 7.284287
-0.686068 -0.667194 7.515061
-0.507908 -1.372063 7.837599
-1.254198 0.933217 1.831040
-1.177304 0.732056 2.324372
-1.154648 0.672217 2.419592
-1.002295 0.267943 2.892168
-0.862163 -0.105988 3.142467
-0.771466 -0.347346 3.362562
-0.671793 -0.610215 3.815180
-0.881139 -0.023777 5.903963
-0.834626 -0.141675 6.537584
-0.781272 -0.282031 6.811127
-0.664373 -0.591750 7.215972
-0.565333 -0.854413 7.535947
-0.388998 -1.324854 7.859248
-0.230717 -1.750261 7.871948
-1.336817 0.782533 1.332368
-1.346197 0.807426 1.995658
-1.202881 0.519828 2.290660
-1.071730 0.258156 2.730905
-0.930824 -0.024498 3.033049
-0.815852 -0.255387 3.250834
-0.676622 -0.534591 3.559418
-0.551709 -0.783514 4.012700
-0.802988 -0.255355 6.183526
-0.811806 -0.234210 6.553364
-0.701652 -0.453280 7.002796
-0.596801 -0.663584 7.230552
-0.432444 -0.993984 7.503914
-0.250184 -1.361803 7.646315
0.091675 -2.052334 7.843193
-1.493330 0.754172 1.645767
-1.418579 0.641441 2.194671
-1.258467 0.394586 2.632182
-1.041600 0.057693 2.877243
-0.825385 -0.278145 3.127393
-0.700904 -0.469910 3.488790
-0.578168 -0.658934 3.852222
-0.341889 -1.019809 4.964771
-0.608508 -0.599500 5.502669
-0.823379 -0.258764 6.210579
-0.760881 -0.353380 6.619952
-0.554126 -0.672678 7.111911
-0.426752 -0.869921 7.341865
-0.226997 -1.179862 7.618151
-1.547698 0.581042 1.853601
-1.521245 0.549256 2.090132
-1.300080 0.274294 2.613048
-1.049821 -0.039030 2.858253
-0.923663 -0.196955 2.986004
-0.727654 -0.441646 3.290661
-0.517137 -0.703115 3.828670
-0.358897 -0.900802 4.051716
-0.664216 -0.503240 6.170342
-0.647099 -0.521880 6.628177
-0.553682 -0.637688 6.901449
-0.376969 -0.858027 7.217849
-0.117478 -1.182218 7.581574
0.222357 -1.608601 7.771106
0.617832 -2.105217 7.924546
-1.654899 0.463661 1.570436
-1.499197 0.308861 2.063652
-1.271915 0.080531 2.361230
-1.243930 0.053547 2.599724
-0.979605 -0.211758 2.988587
-0.698029 -0.495285 3.241224
-0.478121 -0.716097 3.549043
-0.221375 -0.973666 3.949659
-0.235166 -0.953352 5.084692
-0.442438 -0.738622 5.973791
-0.483538 -0.694183 6.482158
-0.439170 -0.737278 6.804060
-0.363125 -0.811932 7.214584
-0.070281 -1.106246 7.576814
0.250748 -1.429807 7.809942
0.601837 -1.784512 7.913370
-1.780267 0.371662 1.581799
-1.701143 0.307620 1.902842
-1.470977 0.118773 2.338473
-1.376942 0.041636 2.519482
-1.067344 -0.214132 2.763733
-0.758679 -0.469098 3.013083
-0.430235 -0.739281 3.497534
-0.340308 -0.812977 3.684749
-0.548940 -0.627081 6.165867
-0.423678 -0.728522 6.663638
-0.271979 -0.852601 7.026296
-0.091044 -1.001637 7.254882
0.193189 -1.236190 7.529836
0.719581 -1.670804 7.994353
1.137714 -2.018067 7.966335
-1.833428 0.187367 1.542795
-1.748206 0.132794 1.862410
-1.450516 -0.060651 2.381917
-1.301501 -0.157457 2.647628
-1.106688 -0.283988 3.000951
-0.727236 -0.532104 3.336123
-0.395990 -0.748883 3.589809
-0.228540 -0.858446 3.722880
0.395195 -1.263948 4.771750
-0.416931 -0.722365 6.292288
-0.323074 -0.782197 6.701657
-0.198920 -0.862606 6.975273
0.150240 -1.090670 7.335820
0.458156 -1.291990 7.612356
0.764684 -1.492372 7.893751
-1.805026 -0.031421 1.603296
-1.661548 -0.103140 2.009694
-1.521774 -0.172959 2.416774
-1.260943 -0.304667 2.855274
-1.154302 -0.358503 3.037649
-0.799277 -0.539316 3.286185
-0.396254 -0.744312 3.627874
0.004403 -0.948064 3.976491
0.218545 -1.053414 4.965472
-0.120333 -0.875603 5.908140
-0.338145 -0.762314 6.288495
-0.074081 -0.895233 6.827935
0.093502 -0.980487 6.966881
0.386818 -1.128968 7.376711
0.755876 -1.316437 7.746053
1.120759 -1.502747 7.893998
-1.956377 -0.151520 1.527166
-1.981378 -0.138995 2.186283
-1.783913 -0.213866 2.673838
-1.541814 -0.307307 2.882182
-1.248374 -0.420377 3.178734
-0.748258 -0.614039 3.458346
-0.300570 -0.787610 3.658519
0.248055 -0.999724 4.043936
0.387740 -1.049758 5.082153
-0.063775 -0.870625 5.845042
-0.244781 -0.798118 6.315391
-0.139832 -0.837268 6.726553
0.296208 -1.005251 7.175440
0.558324 -1.106008 7.497779
0.984388 -1.271006 7.733350
-2.017227 -0.331578 1.572030
-2.020916 -0.328461 2.088969
-1.975385 -0.338449 2.687765
-1.940139 -0.347122 2.920646
-1.529688 -0.457307 3.382547
-1.095841 -0.574424 3.711504
-0.495416 -0.738930 3.573446
0.154890 -0.915153 3.901349
0.094200 -0.888473 6.378079
0.070471 -0.880478 6.749493
0.305350 -0.942755 7.203914
0.531336 -1.003514 7.435435
0.972715 -1.123075 7.669365
-1.980196 -0.545982 1.384442
-2.142246 -0.517527 2.018909
-2.174588 -0.509735 2.675245
-2.107574 -0.518632 3.132816
-2.072428 -0.523322 3.366668
-1.573527 -0.601511 3.774825
-0.797318 -0.725219 3.893456
-0.180151 -0.824480 3.761895
0.400986 -0.915909 4.149007
0.600151 -0.943256 5.281684
0.155791 -0.869674 5.906405
0.146917 -0.865857 6.507413
0.209590 -0.874585 6.833144
0.583976 -0.932485 7.333717
1.083021 -1.011025 7.659429
1.356126 -1.054304 7.763293
-1.810512 -0.765799 1.521569
-2.094668 -0.750379 1.986216
-2.128229 -0.746193 2.640948
-2.339253 -0.734522 3.041616
-2.276441 -0.735739 3.494814
-2.218674 -0.736719 3.947058
-1.246090 -0.782349 4.170425
-0.176643 -0.834170 3.998321
0.363373 -0.860289 3.923605
0.757373 -0.874181 5.179357
0.270726 -0.847904 5.941444
0.162548 -0.841068 6.363303
0.322073 -0.846720 6.864755
0.652419 -0.860904 7.274151
1.067678 -0.879309 7.642777
1.478049 -0.898351 7.790444
-1.824113 -0.954197 1.722914
-2.109221 -0.968348 2.187149
-2.201746 -0.971284 2.757640
-2.245996 -0.971202 3.407381
-2.295779 -0.972861 3.694158
0.735817 -0.801690 4.009045
1.181922 -0.775267 4.368327
0.387746 -0.811737 6.408632
0.267057 -0.817730 6.604278
0.512108 -0.802199 7.059571
0.794180 -0.785117 7.381754
1.297764 -0.755606 7.707345
1.932826 -0.719403 7.860853
-1.538238 -1.107807 1.632310
-1.983068 -1.176646 2.210296
-1.964118 -1.170680 2.946549
-2.120841 -1.193824 3.428496
-2.117062 -1.191748 3.797396
1.047130 -0.684818 4.013416
-0.100709 -0.858886 6.399142
0.056408 -0.831775 6.896059
0.335780 -0.785835 7.211567
0.479352 -0.761773 7.487575
1.329997 -0.624269 7.852495
-1.482677 -1.289483 1.522886
-1.813601 -1.378684 1.904570
-1.900255 -1.400114 2.476613
-1.913860 -1.401754 2.988856
-1.746702 -1.353370 3.610613
-1.501549 -1.285289 3.817771
-0.960981 -1.136487 3.951378
0.094545 -0.846781 4.004499
0.668591 -0.689281 4.019665
1.045766 -0.580697 5.278452
0.477594 -0.734140 5.862371
0.420997 -0.747575 6.373686
0.620598 -0.690418 6.964884
0.938424 -0.601573 7.375791
1.335426 -0.492105 7.519391
1.687883 -0.395208 7.576080
-1.551516 -1.517984 1.550133
-1.708708 -1.576550 2.180956
-1.613874 -1.536736 2.860826
-1.451258 -1.472290 3.121213
-1.290292 -1.408482 3.382780
-0.821416 -1.224102 3.792827
-0.089624 -0.938528 3.913838
0.463829 -0.722893 3.923904
0.939002 -0.537503 3.992586
1.533637 -0.303803 4.481361
2.009457 -0.118096 4.565493
0.609278 -0.655827 6.386757
0.540767 -0.681319 6.669746
0.805791 -0.576737 6.987816
1.107461 -0.458442 7.172889
1.578173 -0.273708 7.497616
-1.363530 -1.659629 1.412606
-1.314542 -1.631761 2.013471
-1.301421 -1.623352 2.387689
-1.066745 -1.500069 2.958078
-1.085972 -1.509305 3.106604
-0.636055 -1.275977 3.516383
-0.259651 -1.081823 3.621834
0.289395 -0.798270 3.854451
0.790289 -0.539843 4.008521
1.185876 -0.334716 4.362990
1.763318 -0.037051 4.482821
0.654608 -0.601132 5.934505
0.600513 -0.626710 6.444330
0.697976 -0.574733 6.856417
0.949276 -0.444009 7.175440
1.397883 -0.211746 7.496725
1.883541 0.039015 7.690051
-1.040431 -1.711351 1.810332
-0.999401 -1.681270 2.411414
-0.920764 -1.627556 2.730011
-0.705153 -1.483427 2.938127
-0.397826 -1.277584 3.320100
0.001818 -1.011344 3.513299
0.284927 -0.822606 3.678166
0.773826 -0.496215 4.060404
1.082532 -0.291104 4.093854
-0.745284 -1.713273 1.849998
-0.713791 -1.686180 2.085645
-0.594773 -1.586264 2.490759
-0.435911 -1.453156 2.981184
-0.237204 -1.288713 3.192501
0.110926 -1.000799 3.525866
0.373137 -0.784382 3.690497
0.850556 -0.390644 3.931604
1.194557 -0.106020 4.285585
1.455055 0.109061 4.464692
1.285555 -0.027121 5.086919
0.840146 -0.389174 5.899086
0.687692 -0.512115 6.369532
0.735732 -0.470970 6.692968
1.027595 -0.228482 7.190134
1.381319 0.063511 7.421332
1.803451 0.411548 7.614024
-0.603585 -1.849662 1.726650
-0.454282 -1.692264 2.215693
-0.330347 -1.562412 2.480010
-0.149649 -1.374081 2.690203
0.010901 -1.205805 3.043715
0.362898 -0.838869 3.465485
0.598806 -0.593610 3.631317
0.871993 -0.309221 3.889529
1.107015 -0.064837 4.063002
1.451996 0.294986 4.511859
1.298585 0.139630 5.133487
0.862352 -0.308060 5.855627
0.691314 -0.483031 6.237438
0.834713 -0.331180 6.826546
0.998090 -0.160680 7.055895
1.286886 0.140484 7.421600
1.634181 0.500724 7.521068
-0.424646 -1.907496 1.713144
-0.239637 -1.670942 2.146619
-0.076750 -1.463764 2.356515
0.138649 -1.188219 2.882497
0.333568 -0.939972 3.185172
0.527079 -0.693481 3.491431
0.651755 -0.535077 3.624776
0.963031 -0.138927 4.062868
1.172167 0.126473 4.237075
1.488336 0.526512 4.313503
0.807985 -0.322351 6.034745
0.738472 -0.407533 6.454510
0.918986 -0.175979 6.995505
1.063988 0.008724 7.225130
1.292106 0.298758 7.501380
1.712990 0.830705 7.510853
-0.161715 -1.839605 1.536847
-0.184005 -1.872484 1.828871
0.018965 -1.550834 2.205002
0.175079 -1.302357 2.641584
0.343839 -1.035023 2.940297
0.465974 -0.840521 3.296398
0.632075 -0.577318 3.601470
0.813897 -0.290423 3.769132
1.024257 0.041989 4.029612
1.262197 0.418434 4.385476
1.423974 0.674962 4.706886
0.821854 -0.260155 6.191909
0.808009 -0.279185 6.563088
0.937995 -0.071639 7.016042
1.088261 0.166794 7.335820
1.333137 0.553228 7.567934
0.029656 -1.876337 1.662671
0.073077 -1.784659 1.983549
0.238637 -1.442665 2.362865
0.316294 -1.281451 2.630168
0.503445 -0.894456 3.104004
0.578867 -0.737775 3.375430
0.813452 -0.255417 3.665417
0.986085 0.099981 3.926634
1.073530 0.280053 4.064404
1.321207 0.788086 4.231729
0.779717 -0.304201 5.919926
0.752217 -0.355871 6.429731
0.838511 -0.176127 6.793675
0.962330 0.079957 7.112535
1.144217 0.455217 7.478058
1.481664 1.145018 7.441960
0.224665 -1.852254 1.679839
0.306948 -1.624791 2.028630
0.427217 -1.292171 2.550989
0.506771 -1.072059 2.905090
0.614492 -0.776032 3.207265
0.721426 -0.482104 3.513013
0.838579 -0.161985 3.681310
0.955568 0.157728 3.853075
1.060852 0.447301 4.169640
1.171081 0.752980 4.721216
0.765636 -0.332309 6.120451
0.787130 -0.270246 6.443510
0.854565 -0.082941 6.807176
0.998277 0.311517 7.168444
1.156061 0.742715 7.400107
0.454993 -1.692186 1.689367
0.444483 -1.729550 1.984211
0.535139 -1.359641 2.364870
0.604477 -1.074285 2.805676
0.666703 -0.821113 3.021926
0.708063 -0.650743 3.294355
0.849977 -0.075224 3.673017
0.931918 0.256344 3.846455
0.992804 0.504336 4.074920
1.120575 1.022007 4.385416
0.752580 -0.428185 5.994289
0.790685 -0.267173 6.493982
0.816105 -0.158476 6.906211
0.937794 0.334856 7.220667
1.058965 0.826251 7.543773
0.635021 -1.573874 1.432064
0.624628 -1.634319 1.868374
0.657350 -1.396139 2.218669
0.689616 -1.161081 2.571109
0.741177 -0.790372 2.957562
0.777065 -0.533796 3.174380
0.835220 -0.114370 3.657486
0.890216 0.276809 3.917345
0.918060 0.475012 4.054419
1.011969 1.140290 4.401753
0.780744 -0.428069 6.056654
0.802055 -0.265468 6.554050
0.828754 -0.068998 6.916553
0.867696 0.211696 7.234024
0.931996 0.660686 7.236868
0.800503 -1.588403 1.646314
0.802668 -1.453446 2.193439
0.813242 -1.076356 2.573793
0.816371 -0.956302 2.754853
0.825292 -0.640704 3.055151
0.834127 -0.327322 3.359019
0.845801 0.068665 3.613621
0.858797 0.517583 3.962571
0.868956 0.856514 4.138012
0.823499 -0.355608 5.826730
0.818442 -0.461972 6.246253
0.825841 -0.165080 6.780662
0.832515 0.071198 7.006593
0.842153 0.394583 7.187920
0.864238 1.123554 7.505578
0.960500 -1.458804 1.698644
0.957645 -1.440332 2.076958
0.932867 -1.119825 2.371555
0.918673 -0.941505 2.638897
0.894181 -0.625184 2.939281
0.865404 -0.255578 3.330656
0.836886 0.110237 3.727091
0.806869 0.503673 3.987630
0.785545 0.788488 4.073518
0.802768 0.526063 4.608573
0.845098 -0.107152 5.703920
0.861337 -0.348120 6.087598
0.843462 -0.136808 6.671614
0.828984 0.052284 6.809750
0.792919 0.517781 7.257541
0.765894 0.881891 7.307812
1.107802 -1.385342 1.480637
1.116885 -1.446984 1.915411
1.074153 -1.211510 2.263907
1.021755 -0.922985 2.700256
0.965944 -0.611883 2.998924
0.896135 -0.219900 3.247351
0.850864 0.032989 3.465940
0.786205 0.392228 3.864002
0.731820 0.694873 4.177628
0.775456 0.434184 4.710467
0.869864 -0.122180 5.527543
0.912890 -0.384198 6.271279
0.876874 -0.187199 6.629291
0.826388 0.093263 6.941442
0.784793 0.325029 7.168314
0.704692 0.776152 7.393991
1.280195 -1.302108 1.224389
1.284641 -1.326016 1.885669
1.238200 -1.176570 2.289619
1.169284 -0.951361 2.638649
1.077458 -0.648973 2.934953
1.002612 -0.402111 3.148073
0.871567 0.030607 3.484924
0.773306 0.356248 3.651601
0.651846 0.754883 4.141330
0.685739 0.633947 4.711678
0.899440 -0.088728 5.403150
1.026130 -0.520045 6.023440
0.991603 -0.410360 6.427567
0.908336 -0.136693 6.735326
0.800650 0.219075 6.998899
0.693384 0.573373 7.267361
0.432447 1.441114 7.492621
1.408589 -1.168386 1.390322
1.430537 -1.225619 1.825241
1.346018 -1.027414 2.314503
1.285962 -0.887167 2.719859
1.163626 -0.596053 3.016297
1.042113 -0.306958 3.316302
0.910633 0.007512 3.479141
0.757926 0.372082 3.733642
0.563643 0.834737 4.171693
1.114330 -0.504533 5.650220
1.067119 -0.395165 6.054844
1.002469 -0.244756 6.546509
0.910455 -0.025787 6.768412
0.781841 0.279358 7.168433
0.639044 0.619945 7.437918
0.274665 1.495147 7.529200
1.548771 -1.078220 1.645838
1.577265 -1.134621 2.080079
1.502000 -0.998501 2.484202
1.443936 -0.892392 2.663436
1.265854 -0.565544 3.043582
1.023059 -0.119097 3.461701
0.927440 0.057018 3.591208
0.779574 0.328483 3.897738
0.673227 0.522550 4.259576
1.208551 -0.481146 5.671222
1.062120 -0.214166 6.197861
1.006866 -0.115135 6.602829
0.935006 0.015788 6.872832
0.776970 0.305331 7.271994
0.536844 0.747717 7.583506
1.828165 -1.172652 1.720815
1.703780 -0.993486 2.208663
1.647727 -0.913448 2.528778
1.514316 -0.720068 2.878333
1.288732 -0.390643 3.120679
1.158317 -0.201699 3.475917
0.982177 0.054718 3.780068
0.602453 0.609801 4.107440
1.313361 -0.443346 5.487426
1.292741 -0.416245 5.940215
1.226141 -0.321299 6.342254
1.008989 -0.005902 6.820723
0.875641 0.188278 7.042691
0.716260 0.420040 7.354823
0.485040 0.758496 7.488964
1.965420 -0.999275 1.326202
1.887878 -0.912055 2.011503
1.823236 -0.837804 2.329798
1.706815 -0.702185 2.592176
1.481423 -0.439695 3.111205
1.314281 -0.243986 3.322784
1.275346 -0.200904 3.783944
0.965840 0.162691 3.979955
0.636630 0.550323 4.042236
1.375143 -0.330918 5.819978
1.274036 -0.213376 6.086864
1.262663 -0.201371 6.316707
1.013415 0.089488 6.794588
0.860379 0.268510 7.016061
0.616535 0.552939 7.503867
0.324354 0.897307 7.503912
2.027547 -0.747534 1.564865
1.926693 -0.654987 2.108681
1.914758 -0.645720 2.483594
1.683381 -0.428215 2.774836
1.311070 -0.077917 3.186457
1.326689 -0.093518 3.336206
1.203971 0.019244 3.969701
0.610619 0.581133 3.958251
1.412468 -0.187027 5.601985
1.360710 -0.139739 5.919099
1.274840 -0.060616 6.322085
1.128646 0.075888 6.676571
0.956053 0.238112 6.897824
0.750057 0.431480 7.208152
0.349574 0.808527 7.606052
2.029087 -0.488984 1.505710
2.076985 -0.528058 1.939058
1.997960 -0.468725 2.256839
1.785003 -0.307414 2.828148
1.535023 -0.116187 3.121872
1.397262 -0.011320 3.387504
1.197520 0.139767 3.966331
0.617809 0.586415 4.006902
1.480009 -0.084559 5.289779
1.370041 -0.002900 5.914408
1.315859 0.037290 6.231059
1.263643 0.075965 6.547571
1.036921 0.249205 6.853467
0.742480 0.474864 7.115120
0.375057 0.755874 7.558489
-0.234239 1.224629 7.739253
2.121765 -0.278620 1.424727
2.122188 -0.281251 1.942662
2.036426 -0.231311 2.261109
1.854660 -0.124607 2.748503
1.631683 0.008078 2.957074
1.385526 0.153607 3.393867
1.309931 0.197440 3.715099
0.972143 0.398754 3.963589
0.616642 0.609616 4.444472
1.225961 0.241838 5.006834
1.621075 0.000513 5.989835
1.456689 0.098441 6.119878
1.208170 0.245998 6.423328
1.070188 0.326448 6.913654
0.792324 0.492185 7.088038
0.470006 0.683124 7.576618
-0.073616 1.008329 7.710782
1.994036 -0.001630 1.477467
1.995385 -0.004529 1.996458
1.875706 0.049741 2.541320
1.663273 0.148766 2.890287
1.453678 0.246438 3.241345
1.322995 0.306517 3.648342
1.861816 0.042461 5.721594
1.429231 0.245379 6.140598
1.167453 0.367954 6.444537
1.074157 0.411315 6.627267
0.808892 0.534553 7.157877
0.554213 0.653732 7.470284
0.225358 0.809177 7.516664
2.086152 0.171855 1.324374
1.897270 0.235423 1.954908
1.880857 0.239602 2.331912
1.813830 0.261172 2.792443
1.515345 0.364555 3.087210
1.298139 0.439211 3.439765
1.346451 0.421069 3.729658
1.113163 0.500414 4.309059
0.695217 0.645479 4.648672
1.435017 0.377756 6.670950
0.918167 0.558236 6.830443
0.688201 0.636977 7.275636
0.467029 0.713551 7.501455
-0.258721 0.967179 7.676906
1.871082 0.440607 1.590097
1.988051 0.412118 1.941219
1.858362 0.439928 2.486552
1.628799 0.491644 2.835850
1.320828 0.561720 3.132506
1.178903 0.592915 3.540729
1.103351 0.596489 6.982734
0.702436 0.688763 7.108923
0.473116 0.740925 7.334105
-0.062803 0.863338 7.733984
1.907539 0.618973 1.459704
1.851685 0.623589 2.062620
1.836080 0.624056 2.438426
1.490283 0.665391 2.956409
1.261485 0.692707 3.307524
1.065206 0.715380 3.800411
1.203172 0.696712 4.141991
1.407363 0.668647 4.757640
1.069011 0.702508 6.923563
0.661119 0.753196 7.048116
0.468783 0.775908 7.406547
-0.071949 0.843065 7.581312
1.609847 0.830073 1.247866
1.751431 0.826152 1.741147
1.559450 0.826352 2.371416
1.464057 0.826426 2.691316
1.510890 0.824629 2.981467
1.086087 0.828727 3.448145
1.083759 0.827284 3.822778
0.839347 0.828420 4.401750
1.130654 0.813830 7.072826
0.497763 0.822222 7.187809
0.259242 0.823797 7.634138
-0.462143 0.833540 7.719957
1.589620 0.996138 1.490282
1.510292 0.987257 1.953770
1.575869 0.991367 2.388024
1.423541 0.976229 2.793399
1.303887 0.964883 2.974032
1.019399 0.937876 3.410949
0.854464 0.920719 4.043743
0.710177 0.907728 4.086755
0.878836 0.910558 7.161794
0.335978 0.861666 7.327427
0.011638 0.831260 7.728601
-0.572955 0.779133 7.774325
1.522997 1.161880 1.600647
1.480316 1.152664 1.837453
1.318197 1.118165 2.610370
1.281228 1.110058 2.846468
1.053663 1.064575 3.197933
0.911904 1.035485 3.605441
0.993462 1.049561 4.034239
0.724256 0.995657 4.474435
0.772195 0.995757 6.764316
0.235496 0.891161 6.926680
0.040027 0.850970 7.508308
1.491627 1.340162 1.460033
1.336361 1.291597 1.865849
1.288397 1.274627 2.469649
1.142933 1.229023 2.875677
0.921226 1.160613 3.227650
0.808101 1.125696 3.409944
0.966588 1.171575 3.893641
0.570134 1.049888 4.366680
0.609080 1.052189 6.667031
0.078869 0.890471 7.050887
0.108623 0.897957 7.415760
-0.157056 0.816431 7.727570
-0.717823 0.646884 7.771187
1.295987 1.480349 1.518935
1.224744 1.447904 1.979646
1.158224 1.417482 2.439563
1.019828 1.356559 2.843150
0.706024 1.220110 3.363733
0.548963 1.151791 3.630092
1.219175 1.428789 5.886869
1.077793 1.367193 6.149422
0.483961 1.111817 6.472152
0.194169 0.988089 6.420235
0.211394 0.992945 7.006701
0.035219 0.916072 7.361520
-0.301031 0.771123 7.625125
-0.963326 0.487479 7.710889
1.161208 1.617817 1.654549
0.943968 1.494011 2.367442
0.961782 1.503231 2.515966
0.782486 1.401501 3.003970
0.486753 1.234985 3.524953
0.386667 1.178615 3.704772
0.987402 1.501578 6.040835
0.508194 1.234891 6.188778
0.299976 1.118328 6.405401
0.203834 1.063144 6.808102
0.034267 0.967412 7.163318
-0.290084 0.785174 7.647890
-0.686149 0.564308 7.869943
0.964001 1.724079 1.679889
0.855532 1.644723 2.224238
0.824609 1.621720 2.458075
0.610687 1.467624 3.031593
0.469803 1.366686 3.296155
0.285690 1.234747 3.647913
0.673122 1.498678 5.750339
0.395890 1.300705 6.135461
0.161302 1.133293 6.438821
0.039234 1.045648 6.707089
-0.086506 0.954329 7.198356
-0.276537 0.818823 7.421669
0.726708 1.779740 1.763560
0.670363 1.727402 2.225890
0.555631 1.623647 2.631591
0.381381 1.467463 2.982853
0.209509 1.313375 3.336206
0.144167 1.253803 3.659011
-0.190756 0.955381 3.996281
-0.635888 0.561058 4.007936
0.292850 1.374021 5.840058
0.075146 1.179594 6.144749
0.026212 1.134572 6.464149
-0.020843 1.091216 6.783401
-0.202169 0.928270 7.228646
-0.477997 0.682560 7.495498
0.562636 1.867173 1.373548
0.564265 1.865911 1.894924
0.457842 1.748121 2.301252
0.392669 1.675561 2.623300
0.139870 1.399144 3.006074
-0.015860 1.228168 3.361652
-0.149382 1.072591 5.212976
0.060807 1.296728 5.874167
-0.051337 1.172232 6.366600
-0.154023 1.059279 6.637980
-0.319449 0.877258 7.084631
-0.570161 0.603771 7.352416
-0.728446 0.430753 7.582695
-1.067099 0.062885 7.677971
0.354986 1.913206 1.726320
0.310127 1.849362 2.189567
0.218930 1.723117 2.596116
0.080497 1.533240 2.948165
-0.221660 1.121119 3.366258
-0.822611 0.301175 4.241729
-0.092990 1.279894 5.710192
-0.214705 1.112635 6.067004
-0.230632 1.088031 6.523623
-0.267657 1.035746 6.843986
-0.543494 0.659142 7.283483
-0.707496 0.436335 7.377525
0.123518 1.906179 1.436171
0.042907 1.764422 1.843199
-0.035597 1.626283 2.250937
-0.111882 1.491954 2.659010
-0.256282 1.240290 3.098974
-0.357931 1.064544 3.228348
-0.780842 0.329917 4.205692
-0.231453 1.262528 5.709520
-0.290279 1.158230 6.115418
-0.371146 1.015361 6.608189
-0.513947 0.767457 6.918839
-0.655539 0.521605 7.232846
-0.818876 0.237656 7.638745
-1.069733 -0.194308 7.734010
-0.171209 1.682803 1.441356
-0.154839 1.716029 1.737426
-0.198014 1.614377 2.428779
-0.224668 1.554763 2.525624
-0.389723 1.185496 3.137326
-0.473334 1.000147 3.267574
-0.935249 -0.027007 4.322068
-0.386660 1.166562 5.833971
-0.433870 1.058751 6.238894
-0.459669 0.998909 6.557437
-0.596156 0.694598 6.953619
-0.711931 0.436688 7.266499
-0.845492 0.138739 7.671287
-1.032676 -0.273474 7.675870
-0.351958 1.619726 1.846291
-0.374391 1.547320 2.310823
-0.421929 1.400997 2.719132
-0.477432 1.232734 2.987420
-0.594202 0.880906 3.375912
-0.702619 0.556654 3.541312
-0.827994 0.180873 3.798497
-1.052298 -0.488172 3.995294
-0.534912 1.027108 5.805971
-0.571239 0.914120 6.213092
-0.606253 0.805031 6.620481
-0.638289 0.707533 6.805747
-0.742614 0.392536 7.206758
-0.888229 -0.045736 7.653249
-0.508682 1.637148 1.751686
-0.529142 1.538865 2.073171
-0.597228 1.219199 2.737128
-0.622418 1.102093 2.918807
-0.682610 0.822134 3.360666
-0.778791 0.381468 3.699747
-0.686914 0.758790 5.770301
-0.671177 0.824722 6.053476
-0.704733 0.664147 6.546990
-0.756152 0.423728 6.993591
-0.786926 0.279733 7.266842
-0.865622 -0.080688 7.536698
-0.953770 -0.481427 7.676220
-1.196991 -1.584542 7.917104
-0.704453 1.362713 1.184772
-0.689778 1.467453 1.907121
-0.699649 1.368612 2.229338
-0.721357 1.158777 2.723047
-0.749683 0.900120 2.936464
-0.789700 0.531601 3.326364
-0.807952 0.360196 3.598755
-0.845464 0.021667 3.767096
-0.929440 -0.732945 4.052205
-0.766883 0.653275 5.621336
-0.764045 0.657569 6.215576
-0.770122 0.592434 6.535767
-0.805993 0.260343 6.934882
-0.821487 0.113330 7.209035
-0.851736 -0.166023 7.526300
-0.897197 -0.574033 7.666067
-0.997702 -1.473550 7.904143
-0.847655 1.010690 1.046003
-0.842860 1.338708 1.799065
-0.842159 1.296886 2.036312
-0.841386 1.026346 2.616069
-0.841341 0.905781 2.798269
-0.842537 0.393685 3.220062
-0.842351 0.110510 3.668409
-0.843581 -0.229932 3.838367
-0.845476 -0.655474 3.960030
-0.843157 -0.671940 4.572470
-0.835547 0.166525 5.317011
-0.830530 0.564814 6.026880
-0.828891 0.536293 6.483415
-0.829109 0.154005 6.969868
-0.829444 -0.128858 7.285460
-0.829168 -0.274294 7.561658
-0.832161 -0.908757 7.700509
-0.836255 -1.814329 7.943730
-0.982801 1.212190 1.486397
-0.983069 1.239920 2.150368
-0.963261 1.060393 2.417031
-0.931159 0.769752 2.857216
-0.888638 0.372105 3.105578
-0.860919 0.115043 3.324625
-0.827247 -0.195573 3.634335
-0.865779 0.262578 5.989715
-0.860983 0.234046 6.448199
-0.844191 0.083651 6.721660
-0.818633 -0.152417 6.948624
-0.782733 -0.480676 7.355635
-0.738165 -0.893464 7.721759
-0.666513 -1.570347 7.960854
-1.076331 0.999476 1.996535
-1.026015 0.765111 2.350471
-0.981276 0.560241 2.847960
-0.927322 0.305789 3.064742
-0.850244 -0.056078 3.459416
-0.785409 -0.360868 3.770516
-0.733500 -0.583553 5.126496
-0.868123 0.074064 5.763981
-0.895165 0.214454 6.322257
-0.852779 0.018235 6.683266
-0.793254 -0.261022 6.998654
-0.744149 -0.491979 7.228469
-0.657684 -0.899413 7.593646
-0.526003 -1.523434 7.966928
-1.182140 0.911584 1.603141
-1.206318 0.995326 2.182343
-1.125718 0.744058 2.394096
-1.010323 0.385414 2.781338
-0.913314 0.083644 3.086272
-0.842373 -0.135226 3.448087
-0.730042 -0.484049 3.848065
-0.673286 -0.646478 5.111188
-0.832485 -0.135958 5.785581
-0.832660 -0.127641 6.381998
-0.812245 -0.187792 6.703788
-0.736792 -0.419722 7.154824
-0.665010 -0.642968 7.384155
-0.552575 -0.993739 7.659607
-0.372771 -1.556754 7.941289
-1.326085 0.899314 1.764445
-1.237075 0.702290 2.257409
-1.130421 0.462514 2.468927
-1.000916 0.171791 2.769655
-0.906074 -0.039770 3.127927
-0.733394 -0.426609 3.611550
-0.629591 -0.659811 3.834628
-0.625080 -0.656712 5.200284
-0.838832 -0.165452 5.873578
-0.805337 -0.236069 6.420108
-0.778751 -0.293216 6.741614
-0.659650 -0.558017 7.281169
-0.493320 -0.933836 7.418483
-0.362724 -1.228137 7.605980
-0.104280 -1.810505 7.981460
-1.422796 0.760035 1.571613
-1.340685 0.621262 1.980833
-1.248553 0.464048 2.249031
-1.112425 0.233235 2.832753
-0.952942 -0.040164 3.136904
-0.822631 -0.263778 3.356839
-0.594946 -0.654783 3.703465
-0.438655 -0.922571 4.019132
-0.765498 -0.339816 6.250496
-0.731632 -0.395832 6.574469
-0.699038 -0.449649 6.898283
-0.555745 -0.694939 7.216666
-0.301521 -1.132052 7.536228
-0.048311 -1.567342 7.864420
-0.685148 -0.472874 6.377394
-0.726055 -0.414394 6.661858
-0.529250 -0.683822 7.067554
-0.310638 -0.984286 7.342233
-0.040969 -1.355630 7.576290
0.255260 -1.763041 7.908436
-1.541638 0.434195 1.590912
-1.526928 0.420188 1.971680
-1.403625 0.285625 2.239342
-1.187073 0.048297 2.539035
-0.933781 -0.229062 2.929462
-0.683019 -0.503598 3.325014
-0.546401 -0.653640 3.459879
-0.335927 -0.884173 3.774028
-0.201470 -1.023806 5.276750
-0.618183 -0.559489 6.000133
-0.630445 -0.543758 6.373952
-0.494690 -0.691498 6.739004
-0.265595 -0.940711 7.373249
-0.079422 -1.145679 7.471944
0.197723 -1.450806 7.617924
0.596753 -1.889658 7.907752
-1.701594 0.389503 1.700301
-1.519862 0.227401 2.052981
-1.383895 0.106145 2.321357
-1.102294 -0.145883 2.708579
-0.865407 -0.358001 3.013613
-0.630204 -0.568582 3.322265
-0.396714 -0.777598 3.634519
-0.246255 -0.912624 3.771940
-0.059649 -1.072543 5.365271
-0.531873 -0.643834 5.861999
-0.434911 -0.727926 6.501863
-0.350959 -0.801476 6.916310
-0.204529 -0.931644 7.284361
0.036477 -1.148099 7.472647
0.411868 -1.485064 7.800772
0.852202 -1.880812 8.093560
-1.804794 0.266821 1.572541
-1.626292 0.138478 2.064858
-1.459381 0.016834 2.190189
-1.173856 -0.189730 2.716969
-0.917091 -0.376320 3.020193
-0.662139 -0.561565 3.327023
-0.340629 -0.795801 3.584673
-0.157804 -0.927923 3.951434
0.050822 -1.074798 5.167456
-0.351269 -0.777667 5.703100
-0.386560 -0.748225 6.439308
-0.296109 -0.812466 6.851157
-0.104928 -0.951380 7.080473
0.123219 -1.116920 7.401748
0.421172 -1.333796 7.680997
0.862010 -1.655740 7.876066
-1.808974 0.061395 1.769727
-1.598849 -0.058173 2.120076
-1.463311 -0.134471 2.528265
-1.088602 -0.348388 2.999937
-0.742253 -0.546959 3.250081
-0.445106 -0.717538 3.417173
-1.980606 -0.061596 1.670015
-1.801249 -0.137410 2.302245
-1.635502 -0.208838 2.568465
-1.367685 -0.324217 3.007079
-1.001422 -0.483522 3.254383
-0.508222 -0.698238 3.541114
-0.194623 -0.834815 3.711723
0.118561 -0.971194 3.885835
0.374716 -1.077099 5.340622
-0.071561 -0.878418 6.103032
-0.170327 -0.833354 6.526416
0.012947 -0.912022 6.893598
0.230805 -1.006411 7.126481
0.699639 -1.209324 7.677103
1.035066 -1.355937 7.736152
1.536850 -1.574773 7.938652
-1.985478 -0.255543 1.465295
-1.986382 -0.253101 1.985275
-1.859863 -0.291569 2.531088
-1.714800 -0.336588 2.936390
-1.361257 -0.448812 3.318561
-1.141707 -0.519534 3.306786
-0.497535 -0.725578 3.624416
0.012276 -0.888467 3.918770
-0.173156 -0.827717 4.174971
0.048597 -0.892569 5.753513
-0.004442 -0.873373 6.266736
0.066359 -0.893883 6.818212
0.208680 -0.938543 7.096851
0.517833 -1.037285 7.283923
0.958760 -1.177304 7.746763
1.394065 -1.316421 7.990183
-1.861047 -0.485386 1.588448
-2.081019 -0.437823 2.139385
-2.145618 -0.422766 2.572119
-2.022754 -0.445913 3.114648
-1.715199 -0.508136 3.408222
-1.191122 -0.615070 3.683221
-0.472612 -0.763040 3.720931
0.134682 -0.887260 3.963172
0.066632 -0.864142 6.224117
0.139983 -0.877045 6.775862
0.333216 -0.915400 7.143912
0.651187 -0.980195 7.331709
1.059231 -1.062815 7.704504
-2.011785 -0.647480 1.811231
-2.098724 -0.636247 2.386007
-2.136792 -0.629734 3.040587
-2.183461 -0.623779 3.330068
-1.985285 -0.642279 3.814984
-1.343058 -0.708137 3.894642
-0.337925 -0.811286 4.000109
0.338410 -0.881127 3.961177
0.729905 -0.916494 5.217292
0.195058 -0.858721 5.890106
0.000967 -0.836860 6.360584
0.112276 -0.846700 6.772217
0.442222 -0.879084 7.179489
0.991220 -0.934025 7.590431
1.265496 -0.961886 7.691341
-1.838578 -0.852591 1.426826
-1.944843 -0.849806 2.145940
-2.119038 -0.847403 2.775599
-2.329708 -0.845912 3.178049
-2.266650 -0.844091 3.633232
-2.070782 -0.842101 4.116700
-1.288240 -0.841315 4.228973
-0.162402 -0.841143 4.146734
0.550883 -0.841517 3.971995
0.912530 -0.835817 5.379090
0.373495 -0.833402 6.052570
0.224078 -0.831275 6.609472
0.372984 -0.830128 6.884214
0.791300 -0.828519 7.245995
1.071242 -0.827123 7.569220
1.570910 -0.826507 7.669754
-1.762830 -1.054688 1.556592
-1.988092 -1.077827 2.104223
-2.049719 -1.081608 2.897306
-2.124275 -1.088296 3.323610
-2.202816 -1.095440 3.747702
-1.981427 -1.069210 4.089917
-1.259033 -0.987953 4.113400
-0.004023 -0.847158 4.060125
0.671919 -0.771359 4.023324
0.972832 -0.732368 5.331217
0.435911 -0.790035 6.002195
0.384440 -0.792903 6.737699
0.579102 -0.769584 7.103124
0.900407 -0.732751 7.288138
1.266288 -0.690544 7.565453
1.764813 -0.633228 7.894716
-1.669900 -1.232843 1.523431
-1.777900 -1.253355 2.238247
-2.007233 -1.300844 2.780406
-2.025237 -1.302692 3.289786
-2.020843 -1.300254 3.658591
-1.832182 -1.257455 4.138920
-0.934433 -1.062432 4.280764
0.195598 -0.818563 4.058770
0.776835 -0.692603 4.074692
1.020095 -0.635009 5.291815
0.503616 -0.743262 6.189436
0.441801 -0.754601 6.698168
0.719590 -0.693152 7.016088
1.081722 -0.613606 7.291159
1.309894 -0.563239 7.525768
1.888580 -0.436745 7.811406
-1.553120 -1.419491 1.652358
-1.769332 -1.489868 2.199210
-1.858783 -1.517559 2.768372
-1.797268 -1.495004 3.222460
-1.478073 -1.385629 3.733905
-1.078546 -1.250972 3.833936
-0.334998 -1.000649 3.951725
0.440353 -0.740165 3.943271
0.994850 -0.552235 4.332815
1.478281 -0.389479 4.410278
1.798099 -0.281260 4.593395
0.448217 -0.728398 6.139991
0.517929 -0.702693 6.689155
0.877036 -0.579968 7.186285
1.138798 -0.491615 7.282705
-1.448547 -1.597522 1.571741
-1.473773 -1.606191 2.231047
-1.460468 -1.598488 2.606482
-1.272487 -1.510510 3.093375
-1.063789 -1.413665 3.442316
-0.578136 -1.190625 3.717448
-0.115085 -0.978854 3.774288
0.525043 -0.685631 3.961261
0.960803 -0.485653 4.173693
1.347656 -0.308381 4.302152
1.988544 -0.014681 4.518715
0.570564 -0.655876 6.030934
0.559556 -0.658308 6.630943
0.862617 -0.518096 7.040179
1.200424 -0.362581 7.317935
1.413589 -0.264179 7.555176
-1.230438 -1.714904 1.642193
-1.234659 -1.715028 2.160364
-1.150750 -1.664013 2.479650
-0.803582 -1.456230 3.082353
-0.629419 -1.352797 3.208616
-0.287902 -1.149985 3.454328
0.052516 -0.947797 3.705125
0.585262 -0.632078 3.944655
0.997568 -0.387614 4.156541
1.455023 -0.116041 4.465755
1.596523 -0.031176 4.749941
0.594585 -0.616487 6.150026
0.616690 -0.601319 6.612242
0.862563 -0.454653 6.931653
1.223009 -0.240109 7.298204
1.657682 0.018096 7.626247
-0.846217 -1.689221 1.816331
-0.926059 -1.747595 2.024428
-0.755846 -1.618574 2.512987
-0.568596 -1.477561 2.862535
-0.383875 -1.338419 3.214172
-0.022107 -1.067663 3.546900
0.318585 -0.813672 3.658304
0.789652 -0.461364 4.040598
1.172984 -0.175152 4.253945
1.444047 0.027376 4.433500
1.379909 -0.017080 5.097293
0.866748 -0.396392 5.593319
0.719843 -0.502243 6.292736
0.814945 -0.428359 6.931841
1.041434 -0.258298 7.252438
1.300306 -0.064798 7.440303
1.738882 0.262406 7.632558
-0.717081 -1.816080 1.715779
-0.601378 -1.707428 2.119700
-0.427568 -1.545590 2.468363
-0.297628 -1.424577 2.733504
0.015120 -1.134221 3.202324
0.202811 -0.960330 3.416162
0.532429 -0.655143 3.755017
0.820599 -0.388543 4.011770
1.107736 -0.122866 4.273539
1.418593 0.163912 4.399135
1.422791 0.171049 5.010836
0.961153 -0.249968 5.733108
0.758718 -0.432301 6.477598
0.803067 -0.389760 6.799464
0.940976 -0.262090 6.937930
1.247254 0.021745 7.301022
1.617044 0.363829 7.625534
-0.551213 -1.921909 1.642048
-0.447077 -1.800503 2.046326
-0.253340 -1.576538 2.480343
-0.007635 -1.293502 2.862666
0.070330 -1.203328 3.044726
0.348550 -0.882578 3.520995
0.571932 -0.626347 3.686271
