2.119154 -0.584597 4.233605
1.737708 -0.495054 4.914764
1.484629 -0.435725 5.561658
1.127583 -0.352000 6.414950
1.113608 -0.349126 7.419937
1.397287 -0.416151 7.956531
1.447991 -0.428418 8.744298
1.287471 -0.390983 9.626789
1.586563 -0.622566 0.784175
1.626546 -0.636318 1.349539
1.451275 -0.577440 2.166728
1.703384 -0.662883 2.757646
2.113885 -0.801877 3.414376
1.977283 -0.756134 4.392838
1.376816 -0.553464 4.948723
1.217222 -0.500526 7.274858
1.292646 -0.526381 8.138270
1.373253 -0.553917 8.835974
1.033601 -0.439496 9.663793
1.456672 -0.726814 0.716175
1.565737 -0.774825 1.359465
1.393685 -0.699872 2.126821
1.648933 -0.811905 2.886379
1.994286 -0.963395 3.705839
1.851279 -0.901089 4.330074
1.340175 -0.677756 5.078663
1.054025 -0.552949 6.019402
0.704424 -0.400219 6.606037
0.648964 -0.376284 7.366559
1.140752 -0.591869 8.215710
1.291257 -0.658041 8.917813
0.964440 -0.515389 9.747227
1.361210 -0.849404 0.786452
1.423027 -0.884027 1.441926
1.184616 -0.751928 2.015484
1.399750 -0.871690 2.711400
1.799771 -1.094202 3.627784
1.679722 -1.027821 4.210879
1.210225 -0.767499 4.945460
1.018832 -0.661733 6.015354
0.722167 -0.497405 6.835554
0.666038 -0.466575 7.555244
1.000551 -0.652623 8.267813
1.127933 -0.723632 8.891364
0.939782 -0.619624 9.868429
1.237205 -0.935952 1.466979
1.104672 -0.846696 2.247456
1.120352 -0.857605 2.870502
1.472729 -1.096323 3.685376
1.535055 -1.138804 4.358011
1.182619 -0.900914 5.325631
0.852141 -0.677663 5.859813
0.381276 -0.359682 6.837544
0.490492 -0.433882 7.523830
0.955903 -0.749001 8.242184
1.078727 -0.832483 9.087974
1.237307 -1.122408 0.168100
1.210095 -1.100494 1.024857
1.012928 -0.938764 1.574471
1.317870 -1.190524 3.831923
1.507596 -1.346847 4.634786
1.180996 -1.078960 5.574019
1.033409 -0.958873 7.851695
0.910411 -0.858207 8.625841
0.917524 -0.864507 9.498745
0.922712 -1.017867 0.460679
0.936129 -1.031445 1.242679
0.886936 -0.983679 1.949399
0.987422 -1.082431 2.594561
1.214439 -1.305161 3.400472
1.307409 -1.396492 3.937261
1.156557 -1.249329 4.888539
0.840168 -0.939896 5.502737
0.545563 -0.652035 6.546417
0.480935 -0.589177 7.290341
0.737870 -0.841170 8.041216
0.830070 -0.931888 8.828583
0.744517 -0.848550 9.586805
0.773203 -1.042398 0.371275
0.817578 -1.095480 1.213466
0.745165 -1.010245 2.054067
0.876606 -1.166410 2.846536
1.101588 -1.433205 3.398113
1.166990 -1.511118 4.127800
0.930970 -1.232154 5.021836
0.575045 -0.811075 5.739941
0.394307 -0.597589 6.643992
0.490006 -0.711419 7.428474
0.679381 -0.936190 8.212788
0.686442 -0.944996 8.922573
0.563572 -0.799967 9.701844
0.727545 -1.173048 0.811626
0.627906 -1.032420 1.622469
0.841493 -1.336666 3.873070
0.387430 -0.695372 6.945405
0.524527 -0.890134 7.636839
0.638700 -1.052482 8.428964
0.605932 -1.006630 9.263234
0.500451 -1.031615 0.191355
0.482608 -1.001341 1.030143
0.525452 -1.076377 1.915859
0.610981 -1.225337 2.651889
0.727749 -1.428462 3.357196
0.847888 -1.637557 4.215587
0.810010 -1.572339 4.818963
0.563984 -1.146206 5.613359
0.294149 -0.678721 6.345346
0.347011 -0.771222 7.336945
0.526937 -1.083941 8.085668
0.555398 -1.133874 8.782509
0.460975 -0.970560 9.374655
0.332107 -0.914890 0.334402
0.391866 -1.045232 1.181627
0.403814 -1.071792 1.868059
0.331305 -0.915443 2.711562
0.486230 -1.252022 3.523227
0.699033 -1.713996 4.274978
0.607602 -1.516635 5.121100
0.353828 -0.967243 5.806958
0.197680 -0.629569 6.611899
0.281841 -0.812634 7.281256
0.425701 -1.125326 8.191818
0.432131 -1.140067 9.027493
0.273651 -0.797092 9.574694
0.324143 -1.157633 0.644441
0.339141 -1.200750 1.368689
0.282036 -1.040680 2.013469
0.292932 -1.072421 2.884142
0.385341 -1.333416 3.468284
0.485689 -1.616920 4.173428
0.380508 -1.321745 5.075920
0.234402 -0.911365 6.039598
0.143600 -0.656543 6.820772
0.184770 -0.773132 7.336466
0.319330 -1.153005 8.045367
0.319218 -1.153767 8.936834
0.167315 -0.727051 9.894054
0.243545 -1.272397 -0.050786
0.270134 -1.376851 0.710847
0.188576 -1.061512 1.496704
0.187194 -1.057541 2.358689
0.144114 -0.891476 3.084742
0.190944 -1.074370 3.762039
0.270603 -1.384608 4.378265
0.186103 -1.058006 5.262330
0.063788 -0.584422 6.034640
0.114794 -0.783870 6.925032
0.222532 -1.203559 7.818008
0.224079 -1.210555 8.428964
0.184651 -1.058691 9.170381
0.065906 -0.919477 0.101433
0.071978 -0.959412 1.034498
0.078925 -1.003784 1.580852
0.082948 -1.031040 2.513756
0.042619 -0.783101 3.156351
0.072097 -0.967756 4.041065
0.106863 -1.184364 4.619877
0.044073 -0.797899 5.447482
-0.000113 -0.526934 6.424281
0.044173 -0.802410 6.986145
0.105783 -1.185368 7.656831
0.115532 -1.248172 8.635902
0.076834 -1.010470 9.336345
-0.011811 -0.994877 1.855544
-0.009435 -1.033950 2.849575
-0.014017 -0.973713 3.589834
-0.013758 -0.980449 4.132296
-0.012806 -0.999269 5.087134
-0.036551 -0.669082 5.759289
-0.052199 -0.452863 6.447272
-0.021382 -0.892045 7.443881
0.005669 -1.276090 8.059491
0.002305 -1.233406 8.874700
-0.017504 -0.959609 9.728470
-0.101089 -0.941565 0.152058
-0.101717 -0.955556 0.993936
-0.103555 -1.031149 1.680966
-0.103740 -1.025008 2.453029
-0.103835 -1.013640 3.268784
-0.105000 -1.056611 3.959353
-0.105718 -1.075794 4.756854
-0.100491 -0.810094 5.392947
-0.094476 -0.503150 6.184093
-0.101968 -0.850230 6.997233
-0.111708 -1.305241 7.862668
-0.109148 -1.170518 8.409908
-0.105914 -0.992874 9.480350
-0.145812 -0.584584 0.502064
-0.167474 -0.780663 1.355369
-0.188382 -0.969906 2.181170
-0.179027 -0.881810 2.727267
-0.186738 -0.949751 3.529006
-0.189208 -0.969181 4.408813
-0.166222 -0.755211 5.087355
-0.141201 -0.522022 5.895092
-0.170397 -0.787505 6.722468
-0.212967 -1.176439 7.435144
-0.240522 -1.426855 8.252976
-0.218443 -1.221321 8.904896
-0.161141 -0.690315 9.947742
-0.337616 -1.262345 0.863606
-0.282889 -0.989090 1.508905
-0.256281 -0.855343 2.258272
-0.252671 -0.835834 3.025852
-0.272230 -0.931428 3.805232
-0.278311 -0.960202 4.510132
-0.225312 -0.695191 5.322141
-0.177690 -0.457070 6.050620
-0.241465 -0.772550 6.742834
-0.323533 -1.178653 7.566093
-0.300000 -1.060199 8.309968
-0.263579 -0.877715 9.048319
-0.332294 -0.832799 -0.061001
-0.350335 -0.892204 0.902666
-0.357294 -0.914685 1.581945
-0.340876 -0.858290 2.348095
-0.345158 -0.871516 3.194283
-0.366579 -0.942929 3.719074
-0.343297 -0.863046 4.745681
-0.278757 -0.644603 5.472245
-0.246826 -0.536005 6.202575
-0.331206 -0.818919 7.139554
-0.407828 -1.076389 7.591324
-0.439489 -1.181516 8.666082
-0.379512 -0.978326 9.478047
-0.405363 -0.794459 1.789540
-0.382667 -0.736441 2.793899
-0.394867 -0.766305 3.467408
-0.414149 -0.813866 4.201603
-0.320637 -0.578668 4.811463
-0.242185 -0.381006 5.635735
-0.247730 -0.393811 6.646869
-0.382729 -0.731754 7.235194
-0.537229 -1.118401 8.014545
-0.516944 -1.066457 8.993146
-0.397662 -0.766463 9.753890
-0.458026 -0.720028 0.650977
-0.432369 -0.669000 1.304441
-0.460549 -0.723709 2.086965
-0.457976 -0.718058 2.751321
-0.469660 -0.740259 3.619896
-0.483260 -0.766158 4.562931
-0.373692 -0.550314 5.029417
-0.279710 -0.364653 6.013504
-0.398249 -0.597150 6.654200
-0.582705 -0.959112 7.450026
-0.611751 -1.015530 8.227500
-0.550300 -0.893956 9.069249
-0.533329 -0.695525 1.973744
-0.540314 -0.705951 2.912047
-0.564256 -0.743742 3.429929
-0.597899 -0.796601 4.479740
-0.422142 -0.515867 5.039639
-0.299004 -0.318846 5.869559
-0.490950 -0.624269 6.798245
-0.644444 -0.868633 7.374142
-0.670454 -0.909571 8.091696
-0.533993 -0.571490 0.815421
-0.679938 -0.764471 1.367183
-0.583078 -0.635612 2.168312
-0.478705 -0.496835 2.917658
-0.499117 -0.523430 3.583551
-0.665257 -0.742929 4.489871
-0.481751 -0.499437 5.056707
-0.299677 -0.257538 6.076896
-0.515702 -0.543229 6.827655
-0.752877 -0.856965 7.540873
-0.790290 -0.905945 8.414409
-0.687916 -0.769926 8.998417
-0.679953 -0.622016 -0.040688
-0.770031 -0.719962 0.728166
-0.682756 -0.624210 1.411589
-0.623700 -0.559241 2.169794
-0.838207 -0.793025 3.094069
-0.914185 -0.875632 3.754208
-0.837744 -0.791544 4.727041
-0.664179 -0.601517 5.422772
-0.413919 -0.327701 6.128717
-0.571109 -0.498973 6.878643
-0.779506 -0.726236 7.545824
-0.827078 -0.777595 8.567996
-0.714613 -0.654318 9.261382
-0.732337 -0.559965 1.889832
-0.566426 -0.407354 2.691053
-0.533608 -0.374827 7.120810
-0.904652 -0.714750 7.843719
-0.945040 -0.751347 8.657429
-0.726845 -0.550681 9.643466
-0.785055 -0.492228 0.568377
-0.945582 -0.613407 1.474436
-0.746114 -0.461999 1.994072
-1.093759 -0.724970 2.888460
-1.402473 -0.958551 3.568967
-1.285794 -0.869767 4.300462
-0.958214 -0.621179 5.026241
-0.587908 -0.340102 5.977792
-0.478378 -0.256689 6.802281
-0.753095 -0.464420 7.657082
-0.956418 -0.618245 8.132070
-0.880037 -0.453282 1.754222
-1.115563 -0.600157 2.618977
-0.707072 -0.342545 7.158487
-0.905223 -0.466149 7.809051
-0.965076 -0.503156 8.696201
-0.783913 -0.389482 9.501235
-0.952758 -0.388296 0.708443
-1.105282 -0.464818 1.400832
-0.984362 -0.403544 2.196909
-1.308326 -0.566499 2.738363
-1.584997 -0.705564 3.425048
-1.461284 -0.642776 4.457030
-1.219010 -0.520367 5.257022
-0.657791 -0.237409 5.786102
-0.289393 -0.051431 6.656819
-0.665365 -0.240491 7.406913
-1.024655 -0.421170 8.107165
-1.045650 -0.329399 1.323917
-0.815264 -0.236893 2.352908
-1.610084 -0.553943 3.608722
-1.301695 -0.430345 4.464483
-0.980972 -0.301835 5.279540
-0.629538 -0.161116 5.951084
-0.571712 -0.137533 7.048267
-0.874858 -0.258343 7.789136
-1.044926 -0.325988 8.502948
-0.989499 -0.303486 9.320101
-1.549588 -0.369914 3.247563
-1.643339 -0.397218 3.971787
-1.515548 -0.359260 4.745713
-1.279203 -0.289341 5.505345
-0.628098 -0.097323 6.173911
-0.516489 -0.064128 6.954954
-0.794279 -0.145638 7.651900
-0.997685 -0.205131 8.616581
-0.975963 -0.198375 9.470219
-0.768993 -0.073156 0.081641
-0.784008 -0.075820 1.029391
-1.518346 -0.223591 4.951958
-1.270372 -0.172860 5.643520
-0.738652 -0.064398 6.355548
-0.707470 -0.057670 7.289759
-0.840697 -0.084500 7.952201
-1.051337 -0.127006 8.788614
-1.090768 -0.134664 9.670135
-0.921492 -0.014252 0.020221
-0.936503 -0.015417 1.014929
-1.182296 -0.040856 1.613516
-0.963166 -0.017572 2.569619
-1.950687 -0.120139 4.082604
-1.676248 -0.091210 4.709594
-1.341088 -0.055853 5.541769
-0.708257 0.010580 6.308720
-0.497014 0.032920 6.969795
-0.776863 0.004046 7.870985
-1.092749 -0.028616 8.716412
-1.075755 -0.026530 9.481941
-0.994626 0.062098 0.101137
-0.979210 0.062687 0.810814
-1.183824 0.059013 1.663915
-1.095857 0.061012 2.336865
-1.621707 0.051071 3.295122
-1.974224 0.044448 4.040318
-1.521635 0.053669 4.862087
-1.232882 0.059663 5.661213
-0.766305 0.069114 6.371718
-0.604171 0.072669 7.288513
-0.879736 0.067547 8.007945
-1.129845 0.062986 8.878003
-1.048318 0.064790 9.380812
-1.111508 0.167151 0.433832
-1.146360 0.170025 0.937915
-1.203865 0.174777 1.793693
-1.029564 0.161760 2.625072
-2.073411 0.242351 4.147111
-1.800035 0.221737 4.964307
-1.372558 0.189200 5.494169
-0.750916 0.141915 6.341136
-0.552101 0.127031 7.201086
-0.939928 0.157108 8.098843
-1.184035 0.176107 8.830199
-1.062326 0.167085 9.579178
-1.090261 0.261890 0.120838
-1.127673 0.268377 0.948001
-1.217715 0.283590 1.963518
-1.149649 0.272612 2.473196
-1.626668 0.351302 3.201040
-2.095222 0.428601 3.932314
-1.996193 0.412667 4.762820
-0.835266 0.223227 8.043730
-1.162320 0.277248 8.713554
-1.021683 0.254413 9.390928
-1.187798 0.388366 0.502647
-1.351287 0.430515 1.251819
-1.783447 0.542023 3.462661
-2.168176 0.640837 4.335357
-1.969135 0.590135 4.890793
-0.943806 0.329136 8.194829
-1.007622 0.448686 0.676615
-1.334733 0.566438 1.431082
-1.709380 0.701841 3.554164
-2.055010 0.826267 4.370813
-1.882898 0.764711 4.904029
-0.892073 0.410446 8.230651
-1.127585 0.495355 9.077836
-1.301316 0.690803 1.390074
-1.207255 0.647814 2.299160
-0.949372 0.529104 2.886114
-2.007307 1.017866 4.455873
-1.853692 0.947274 5.077719
-0.897069 0.507345 8.219783
-1.061767 0.583625 8.890645
-1.256379 0.824415 1.499023
-1.141309 0.757985 2.299160
-0.992104 0.671554 2.704995
-1.880452 1.187999 4.240446
-1.749677 1.112441 5.018704
-1.543349 0.993735 7.325971
-1.197295 0.793298 8.318566
-1.118790 0.748098 9.124108
-1.129180 0.896273 2.244343
-1.028289 0.825564 2.968811
-1.318995 1.030631 3.571434
-1.698439 1.298396 4.559815
-1.564589 1.204346 5.032608
-1.274742 1.000594 5.866856
-1.108715 0.884080 6.745712
-1.113206 0.887582 7.430559
-1.130703 0.900365 8.358605
-0.991011 0.802307 9.045731
-1.120069 1.065296 0.178813
-1.204758 1.138106 0.904724
-1.071227 1.024283 1.600065
-1.028595 0.988247 2.396123
-0.947666 0.919353 2.988896
-1.190673 1.127687 3.967309
-1.486693 1.381225 4.693886
-1.387247 1.296634 5.548194
-1.154235 1.097690 6.158125
-1.056688 1.014644 6.861240
-1.050166 1.009453 7.590716
-1.040358 1.001530 8.464304
-0.888487 0.872062 9.234859
-1.059788 1.193828 0.268212
-1.173421 1.309736 0.951736
-0.997932 1.131736 1.638909
-0.955892 1.089417 2.364443
-1.054744 1.190397 3.217658
-1.165187 1.303008 3.804798
-1.216973 1.356249 4.842053
-1.138658 1.277002 5.475548
-1.068112 1.205655 6.114093
-1.068889 1.206936 6.967670
-1.055441 1.193787 7.874733
-0.995129 1.132783 8.407403
-0.806646 0.941642 9.214731
-0.751636 1.057161 0.300934
-0.918808 1.263931 1.086914
-0.935778 1.285304 1.765070
-0.907613 1.251133 2.669031
-0.977908 1.338336 3.402315
-1.019095 1.389563 4.038584
-0.996572 1.362248 4.779198
-1.000004 1.367068 5.691883
-1.015351 1.386486 6.443803
-0.963622 1.322993 6.962956
-0.915877 1.264571 7.725148
-0.930584 1.283366 8.736770
-0.737067 1.045129 9.569140
-0.665272 1.141902 0.240446
-0.796532 1.338702 0.917305
-0.812779 1.363579 1.715224
-0.803057 1.349732 2.667182
-0.849146 1.419165 3.362511
-0.887533 1.477067 4.038584
-0.879931 1.466219 4.756046
-0.922052 1.529853 5.636677
-0.928150 1.539468 6.317259
-0.860553 1.438896 7.037822
-0.825178 1.386579 7.849515
-0.810753 1.365580 8.641233
-0.674739 1.162730 9.423523
-0.722259 1.480675 1.911910
-0.694762 1.431379 2.605525
-0.717312 1.473001 3.464405
-0.766790 1.563538 4.408908
-0.691889 1.428141 4.965135
-0.732425 1.502425 5.868813
-0.823796 1.668715 6.530752
-0.788846 1.605898 7.221918
-0.767609 1.568016 7.987289
-0.583516 1.523688 0.875503
-0.622471 1.612514 1.519340
-0.613467 1.592691 2.078183
-0.616540 1.600483 2.916310
-0.632159 1.636547 3.623581
-0.649124 1.675780 4.452401
-0.656234 1.692578 5.156031
-0.682729 1.753315 5.915928
-0.682614 1.753921 6.782596
-0.660395 1.704498 7.658107
-0.658912 1.701930 8.448949
-0.598215 1.565185 9.105214
-0.336863 1.278444 0.300698
-0.444996 1.606509 1.223098
-0.451600 1.627136 1.740240
-0.469609 1.682790 2.684016
-0.466254 1.673279 3.174535
-0.469723 1.684885 4.045723
-0.461672 1.661601 4.865321
-0.478364 1.712987 5.587095
-0.524382 1.853046 6.325338
-0.508624 1.806303 7.019470
-0.486074 1.738976 7.673205
-0.480210 1.722325 8.509918
-0.413158 1.520673 9.321341
-0.327534 1.728781 2.124889
-0.332451 1.750592 2.811078
-0.334299 1.759958 3.740060
-0.336463 1.770343 4.492047
-0.336502 1.771822 5.248785
-0.350296 1.830633 5.807120
-0.379675 1.955365 6.690463
-0.370020 1.916318 7.518444
-0.332849 1.761232 7.966600
-0.146257 1.602349 0.965809
-0.166554 1.745939 1.528191
-0.164319 1.732267 2.215735
-0.167272 1.755709 3.192176
-0.169999 1.776156 3.670656
-0.170660 1.782866 4.402835
-0.174593 1.812642 5.195657
-0.192846 1.943156 6.188408
-0.199995 1.994799 6.759465
-0.187556 1.909851 7.484047
-0.177174 1.839307 8.214252
-0.167548 1.774557 9.120547
-0.000704 1.520190 -0.120670
0.000594 1.502120 0.668818
-0.011211 1.725942 1.459752
-0.011437 1.735163 2.136307
-0.013682 1.784107 3.140384
-0.013989 1.794478 3.769800
-0.013482 1.789754 4.392921
-0.015439 1.832477 5.274891
-0.021012 1.940508 5.967064
-0.024942 2.019565 6.838294
-0.022676 1.982066 7.419482
-0.022622 1.988233 8.379518
-0.014352 1.839750 8.937780
0.146225 1.613426 0.018985
0.155026 1.824737 0.870459
0.150215 1.697767 1.540289
0.152759 1.751708 2.493647
0.152179 1.730346 3.174535
0.151787 1.714363 3.787562
0.151342 1.694157 4.686485
0.155817 1.798462 5.430836
0.162226 1.952077 6.075642
0.162828 1.958284 6.951024
0.160311 1.889853 7.499020
0.161250 1.905512 8.272339
0.158719 1.832471 9.243205
0.251458 1.322339 0.170004
0.288098 1.606478 0.895417
0.295749 1.663537 1.760123
0.306169 1.743299 2.293548
0.304356 1.726649 3.073102
0.306858 1.743947 3.782329
0.290269 1.611102 4.775802
0.302498 1.704069 5.604679
0.340729 2.000610 6.337563
0.336156 1.962895 6.956137
0.323226 1.859450 7.697178
0.325466 1.874562 8.451637
0.326723 1.881325 9.414992
0.423889 1.516577 0.537711
0.456048 1.658573 1.310764
0.461966 1.683900 1.886703
0.468110 1.709813 2.692066
0.479456 1.758822 3.556631
0.484840 1.781580 4.235385
0.458104 1.661202 4.855389
0.476722 1.742553 5.765539
0.523596 1.950124 6.563120
0.522171 1.942616 7.187668
0.516193 1.914425 8.017713
0.513864 1.902515 8.842572
0.474102 1.723900 9.542147
0.572118 1.517859 0.347678
0.647368 1.751553 1.235933
0.622757 1.673537 2.143231
0.628265 1.689914 2.759570
0.604869 1.616142 3.325743
0.609293 1.628820 4.177608
0.631535 1.697228 4.944491
0.653922 1.766220 5.611347
0.682756 1.855082 6.469011
0.689840 1.876157 7.251728
0.683278 1.854850 7.874244
0.668480 1.807480 8.769544
0.617084 1.645804 9.720133
0.670083 1.370964 0.608414
0.789248 1.651070 1.554661
0.776816 1.620944 2.331594
0.790970 1.653818 2.826968
0.784672 1.638020 3.737470
0.773139 1.609961 4.564561
0.799541 1.671538 5.241577
0.846945 1.782715 5.860254
0.883723 1.868475 6.819096
0.839694 1.764012 7.404798
0.840506 1.764954 8.345719
0.577792 0.905669 0.444589
0.832767 1.381194 1.095330
0.917646 1.539071 1.804747
0.914814 1.533169 2.521654
0.940901 1.581294 3.205329
0.965968 1.627437 3.979540
0.890080 1.484941 4.914978
0.914242 1.529603 5.444479
1.059793 1.800686 6.245864
1.039651 1.762453 6.976165
0.997943 1.683885 7.785450
1.001253 1.689276 8.708393
0.954090 1.600763 9.237009
1.003400 1.371711 0.535718
1.140347 1.578580 1.371493
1.057332 1.452426 1.893965
1.077015 1.481577 2.807163
1.106516 1.525640 3.670377
1.092878 1.504638 4.133520
1.084451 1.491235 5.000494
1.140943 1.576204 5.844540
1.232291 1.714011 6.647915
1.213810 1.685656 7.133607
1.168232 1.616003 7.953131
1.134417 1.564235 8.684649
1.057744 1.447360 9.657614
1.195333 1.387525 2.070910
1.191903 1.382529 3.036985
1.218490 1.415890 3.752078
1.187148 1.375583 4.409706
1.225791 1.424202 5.247863
1.341286 1.570691 5.956425
1.341021 1.569976 6.534445
1.299087 1.516079 7.365145
1.292448 1.507049 8.255558
1.274521 1.230389 0.306387
1.486383 1.454400 0.805145
1.368375 1.328988 1.610655
1.376370 1.337062 2.274043
1.381196 1.341558 3.317185
1.355718 1.314218 3.939992
1.260055 1.212626 4.468467
1.332036 1.288279 5.413489
1.480397 1.445022 5.976102
1.456103 1.418832 6.774536
1.445294 1.406771 7.824144
1.388716 1.346616 8.256871
1.335061 1.289251 9.207323
1.484762 1.180409 1.898521
1.451081 1.150705 2.745824
1.485003 1.179741 3.539344
1.539330 1.226456 4.411178
1.419731 1.122210 5.116398
1.527662 1.215535 5.884023
1.692247 1.358189 6.413937
1.650901 1.321797 7.320391
1.596454 1.274118 8.056065
1.555186 1.237876 8.807029
1.402394 1.104793 9.532232
1.582753 1.058497 0.779623
1.642600 1.101995 1.508607
1.612130 1.079311 2.213209
1.624978 1.088286 3.095503
1.620365 1.084546 3.813371
1.627891 1.089601 4.733251
1.493187 0.990570 5.341629
1.555075 1.035604 5.989245
1.761242 1.186278 6.849047
1.699324 1.140458 7.724928
1.605257 1.071258 8.237120
1.562155 1.039142 9.286471
1.432319 0.765753 0.507035
1.749081 0.955851 1.261097
1.722861 0.939871 1.716918
1.632148 0.884977 2.466894
1.612434 0.872682 3.405657
1.686519 0.916843 4.216722
1.782115 0.974001 4.894181
1.770842 0.966862 5.661055
1.724072 0.938465 6.247618
1.760207 0.959825 7.025139
1.745481 0.950548 7.923553
1.671889 0.906003 8.556214
1.600351 0.862565 9.460068
1.497516 0.634410 0.636505
1.781271 0.771595 1.203667
1.773911 0.767631 2.094718
1.714609 0.738531 2.933835
1.735335 0.748329 3.470141
1.944447 0.849184 4.432135
1.975338 0.863942 4.887056
1.672226 0.716696 5.844803
1.654189 0.707555 6.746922
1.814693 0.785119 7.143266
1.761908 0.759135 8.073557
1.750323 0.753110 8.994966
1.480410 0.622132 9.536957
1.569127 0.504638 0.446940
1.843262 0.607745 1.193794
1.818723 0.598051 2.204886
1.774210 0.580941 2.933835
1.538739 0.491861 3.486722
1.822815 0.598640 4.417292
2.166124 0.727878 5.088708
1.829133 0.600463 5.716170
1.774168 0.579361 6.560435
1.865698 0.613562 7.330703
1.765116 0.575314 8.025126
1.758782 0.572513 8.977377
1.497501 0.473665 9.599520
1.659968 0.375977 0.674858
1.877298 0.435981 1.491001
1.887949 0.438648 2.183589
1.813027 0.417563 2.854682
1.405146 0.304052 3.463526
2.286547 0.548213 4.840376
2.174180 0.516565 5.908122
2.029535 0.476094 6.642647
1.864653 0.430074 7.207297
1.794788 0.410266 8.184554
1.859341 0.427846 9.004848
1.523417 0.334298 9.655790
1.720528 0.231973 1.041784
1.968093 0.277069 1.715702
1.852120 0.255579 2.287131
2.048689 0.291213 3.244295
2.438527 0.362476 3.699339
2.515174 0.376163 4.577036
2.264040 0.329918 5.108265
2.048304 0.290022 5.976102
1.903478 0.263117 6.857013
1.764503 0.237410 7.430167
1.812053 0.245746 8.354148
1.785015 0.240530 8.989440
1.646475 0.065106 0.407128
1.789421 0.077562 1.198926
1.838445 0.081712 1.772504
2.224407 0.115288 4.051437
2.406656 0.131234 4.901837
2.244791 0.115825 7.221835
1.784968 0.074480 7.822464
1.741896 0.070296 8.646268
1.436857 0.042689 9.484941
1.653857 -0.085456 0.854971
1.799603 -0.086018 1.476477
1.802014 -0.086408 2.430707
1.566711 -0.086123 2.968365
1.918822 -0.087201 3.776509
2.404344 -0.088605 4.684080
2.229095 -0.088453 5.236491
2.122743 -0.088537 6.007165
1.866660 -0.088329 6.846588
1.707755 -0.088336 7.703919
1.776498 -0.088792 8.470254
1.669068 -0.088853 9.190893
1.631925 -0.233541 0.466846
1.745864 -0.244370 1.100569
1.722033 -0.242422 1.747722
2.098549 -0.278346 4.183526
2.183964 -0.286469 4.671116
1.958005 -0.265861 5.556483
1.532051 -0.226597 6.196434
1.468904 -0.221157 7.230744
1.626101 -0.235954 7.749388
1.661030 -0.239535 8.588283
1.482899 -0.223346 9.426125
1.587055 -0.378645 0.875503
1.820450 -0.422238 1.275505
1.622527 -0.385814 2.260176
1.903348 -0.438398 3.065895
2.238002 -0.500842 3.490200
2.027020 -0.461912 4.287725
1.690123 -0.399498 4.954696
1.724960 -0.407032 7.514572
1.546751 -0.374205 8.325122
1.753612 -0.577765 0.295762
1.821852 -0.597339 1.234168
1.633813 -0.544768 1.907894
1.907891 -0.622631 3.877062
1.429628 -0.490154 8.532954
1.339496 -0.465145 9.308490
1.369486 -0.606994 0.408989
1.508290 -0.660058 1.343416
1.440660 -0.634660 1.945847
1.736968 -0.747497 2.921902
2.103919 -0.887024 3.639378
1.878558 -0.801763 4.192270
1.444365 -0.637422 5.088221
1.095642 -0.505362 5.644886
0.792544 -0.390779 6.592882
0.771885 -0.383298 7.418306
1.162545 -0.531840 8.185550
1.302014 -0.585031 8.827720
1.052116 -0.490561 9.610771
1.421073 -0.784784 1.394166
1.257351 -0.705281 2.244343
1.057664 -0.608181 2.987039
1.420078 -0.785383 3.807988
1.151385 -0.656288 8.280546
1.211837 -0.686202 9.208297
1.236367 -0.842595 0.229092
1.253937 -0.853679 1.218323
1.211167 -0.828112 1.811265
1.371961 -0.925746 2.791016
1.663884 -1.102511 3.529502
1.646492 -1.092246 4.050181
1.393210 -0.939588 4.911783
1.079352 -0.750282 5.689933
0.733019 -0.541348 6.462295
0.634958 -0.482444 7.219610
0.914840 -0.652036 8.177854
1.067303 -0.744485 8.836988
0.980880 -0.692648 9.664920
1.037485 -0.864688 0.571402
1.217113 -0.997228 1.396136
1.071350 -0.890448 2.267502
1.106936 -0.916934 2.888545
1.420979 -1.148286 3.596250
1.455677 -1.174228 4.433298
1.095146 -0.909350 5.059008
0.825986 -0.711773 5.869919
0.432546 -0.422804 6.727423
0.505828 -0.477081 7.473085
0.919379 -0.781754 8.434558
1.122094 -1.098416 0.068944
1.073505 -1.055979 0.838688
0.927824 -0.927966 1.708365
1.229255 -1.195019 3.959114
1.333047 -1.286845 4.495750
1.067802 -1.053413 5.415588
0.953015 -0.953464 7.802005
0.869332 -0.880072 8.565461
0.882686 -0.892231 9.275106
0.894882 -1.074915 0.450313
0.868655 -1.047249 1.012853
0.794670 -0.968858 2.013824
1.007934 -1.196864 2.587382
1.206068 -1.408839 3.363707
1.215613 -1.419400 3.992191
1.072802 -1.267399 4.762579
0.812351 -0.989871 5.633467
0.477111 -0.632503 6.504191
0.402547 -0.553288 7.156988
0.681445 -0.851468 7.909897
0.813936 -0.993476 8.873008
0.674556 -0.845054 9.502158
0.718341 -1.050852 0.371557
0.760093 -1.104754 1.184211
0.709414 -1.040590 2.124485
0.848770 -1.219206 2.864567
1.043823 -1.469012 3.598744
1.093058 -1.532281 4.110883
0.907278 -1.295344 4.925254
0.577287 -0.874185 5.918273
0.363916 -0.601873 6.572524
0.481970 -0.753353 7.454040
0.639785 -0.955480 8.066152
0.652196 -0.971842 8.825955
0.527120 -0.812448 9.563759
0.637548 -1.128191 0.120051
0.603687 -1.076838 0.966119
0.594351 -1.063142 1.823905
0.674018 -1.185992 2.581680
0.825188 -1.418517 3.223167
0.886863 -1.513664 3.864347
0.843913 -1.448487 4.881948
0.667680 -1.178512 5.622048
0.373857 -0.728036 6.363258
0.332633 -0.665280 7.071439
0.547298 -0.995307 7.762994
0.616539 -1.102269 8.676140
0.551406 -1.002784 9.346094
0.483436 -1.093734 0.039889
0.429585 -0.992092 0.818618
0.444783 -1.021773 1.748175
0.465205 -1.061233 2.505157
0.479169 -1.088377 3.212912
0.634389 -1.384018 4.040897
0.648460 -1.411164 4.513042
0.440980 -1.017652 5.329499
0.191349 -0.544030 6.120620
0.244783 -0.646372 7.060356
0.450605 -1.038031 7.742807
0.518524 -1.167850 8.630176
0.455975 -1.049624 9.346094
0.232636 -0.767037 0.529701
0.297431 -0.922474 1.257567
0.369396 -1.095107 2.059749
0.284996 -0.894163 2.571373
0.378221 -1.117560 3.386520
0.542428 -1.510303 4.102341
0.507009 -1.426674 4.985309
0.319087 -0.978753 5.641166
0.178447 -0.643932 6.515558
0.249701 -0.814785 7.240578
0.366659 -1.094749 7.970031
0.418513 -1.219610 8.999547
0.331968 -1.013788 9.743503
0.195943 -0.904991 0.527776
0.223614 -0.994932 1.276065
0.235869 -1.035528 2.166571
0.211736 -0.958861 2.823060
0.286163 -1.199210 3.676248
0.415141 -1.614428 4.206147
0.354231 -1.419735 4.982109
0.167413 -0.820333 5.701981
0.063730 -0.488227 6.514927
0.154627 -0.781649 7.473776
0.284777 -1.200924 8.216579
0.279256 -1.184270 9.017423
0.159370 -0.799873 9.668648
0.224020 -1.408068 0.590172
0.153452 -1.086655 1.354228
0.132964 -0.994159 2.007500
0.113990 -0.909111 2.940528
0.154317 -1.094970 3.658486
0.217792 -1.386625 4.318153
0.147994 -1.068799 5.117306
0.056950 -0.654216 6.149375
0.086583 -0.791295 6.945405
0.162875 -1.141577 7.601413
0.191608 -1.274654 8.457986
0.168304 -1.169412 9.186583
0.091984 -1.428003 0.840498
0.052144 -1.104375 1.556274
0.041398 -1.018884 2.291057
0.036860 -0.983623 2.853464
0.034534 -0.967692 3.784955
0.041928 -1.030087 4.352258
0.027105 -0.911547 5.182067
-0.006031 -0.643344 6.067566
0.013659 -0.807141 6.869538
0.060203 -1.190654 7.666909
0.069171 -1.266371 8.367500
0.052640 -1.133547 9.101829
-0.040598 -1.200920 0.614217
-0.042922 -1.139724 1.160616
-0.047731 -1.011776 2.179675
-0.050203 -0.945885 2.693122
-0.049589 -0.974535 3.610108
-0.048730 -1.008622 4.385583
-0.055250 -0.827697 5.131441
-0.064500 -0.567968 5.932186
-0.057421 -0.781793 6.600232
-0.042361 -1.231912 7.616432
-0.040971 -1.280517 8.311681
-0.167227 -1.419748 0.780423
-0.147800 -1.091422 1.455257
-0.141568 -0.982187 2.252100
-0.140042 -0.952415 2.895971
-0.142992 -0.996388 3.668436
-0.141305 -0.964025 4.297324
-0.133164 -0.821390 5.328293
-0.119367 -0.587275 5.948739
-0.136402 -0.864356 6.962102
-0.155854 -1.185358 7.435144
-0.158629 -1.226259 8.226644
-0.148058 -1.044273 9.089481
-0.259619 -1.201826 0.764786
-0.218573 -0.921324 1.329458
-0.210022 -0.860947 2.146508
-0.213639 -0.883578 2.849142
-0.226917 -0.971112 3.822918
-0.218855 -0.914629 4.435057
-0.189178 -0.710411 5.352751
-0.158467 -0.499201 6.255930
-0.198944 -0.772713 6.818617
-0.256763 -1.163630 7.540910
-0.236018 -1.020249 8.407428
-0.208566 -0.831425 9.224663
-0.173161 -0.362615 0.154979
-0.211840 -0.518810 0.882110
-0.290738 -0.838552 1.698098
-0.285608 -0.816167 2.586803
-0.286734 -0.819608 3.261790
-0.313404 -0.926720 4.112025
-0.286533 -0.816457 4.640249
-0.232232 -0.593920 5.544563
-0.190780 -0.424094 6.202535
-0.267931 -0.736503 7.148298
-0.364028 -1.126406 7.868747
-0.357925 -1.100409 8.552242
-0.294710 -0.841574 9.464556
-0.365119 -0.821096 1.921604
-0.357309 -0.797050 2.708794
-0.357627 -0.797216 3.322782
-0.376390 -0.851576 4.137882
-0.332916 -0.722086 5.063582
-0.264691 -0.519713 5.846317
-0.241236 -0.449509 6.617598
-0.348118 -0.764137 7.306425
-0.484642 -1.166109 8.115157
-0.448198 -1.057754 8.735177
-0.353493 -0.777221 9.517609
-0.440732 -0.779487 1.860655
-0.426259 -0.746652 2.515628
-0.441359 -0.779213 3.556502
-0.463392 -0.827495 4.290081
-0.355888 -0.587684 5.005632
-0.240041 -0.329365 5.674067
-0.251858 -0.354864 6.472087
-0.398163 -0.679580 7.168675
-0.574962 -1.071857 8.136030
-0.564328 -1.047446 8.906603
-0.409482 -0.702305 9.658467
-0.488721 -0.707119 2.117472
-0.474058 -0.680273 2.783722
-0.481112 -0.692304 3.530796
-0.519648 -0.760791 4.272673
-0.397160 -0.540486 5.070302
-0.275784 -0.322111 5.945463
-0.361298 -0.474963 6.538731
-0.534391 -0.784679 7.347965
-0.651028 -0.993286 8.005057
-0.615880 -0.929417 9.021061
-0.379360 -0.504689 9.749711
-0.236950 -0.200382 0.650928
-0.363610 -0.384185 1.447755
-0.554131 -0.661002 2.168312
-0.475385 -0.545990 2.709642
-0.548534 -0.651818 3.622343
-0.646193 -0.793351 4.496965
-0.427774 -0.475037 5.022543
-0.314882 -0.309967 6.058609
-0.490944 -0.565703 6.827655
-0.665228 -0.819011 7.368934
-0.749540 -0.941153 8.191818
-5.190739 -6.177184 -0.156445
-0.628625 -0.634118 1.809859
-0.497613 -0.474502 2.548052
-0.663142 -0.675102 3.295743
-0.865463 -0.920302 4.192113
-0.715425 -0.737701 4.732912
-0.555161 -0.542345 5.794945
-0.251277 -0.172799 6.431450
-0.485760 -0.456984 7.457564
-0.796208 -0.833856 7.843719
-0.796882 -0.834095 8.755355
-0.583868 -0.574874 9.483106
-0.793888 -0.681301 -0.101409
-0.730847 -0.617492 0.831674
-0.718267 -0.604355 1.726202
-0.621026 -0.506377 2.386671
-0.863849 -0.749762 2.972996
-1.025033 -0.911067 3.804136
-0.717446 -0.600908 6.311666
-0.569022 -0.451631 6.842379
-0.858896 -0.741984 7.879216
-0.902513 -0.785407 8.500621
-0.746217 -0.628025 9.389146
-0.738740 -0.515128 0.497689
-0.866461 -0.622304 1.193395
-0.716808 -0.495929 1.882263
-1.031146 -0.760119 2.810026
-1.335381 -1.015869 3.611216
-1.236684 -0.932416 4.270523
-1.001258 -0.733693 5.197274
-0.581477 -0.379934 5.755462
-0.351344 -0.185741 6.542386
-0.644949 -0.432458 7.499094
-0.928466 -0.670897 8.045972
-0.473980 -0.227585 0.287700
-0.462838 -0.219585 0.934664
-0.793997 -0.447559 1.676621
-1.098780 -0.657329 2.456345
-1.499792 -0.933324 3.492127
-0.539165 -0.269113 7.257798
-0.955817 -0.556045 7.980619
-1.023343 -0.602156 8.896524
-0.751756 -0.414531 9.635720
-0.731055 -0.321164 0.275079
-0.658110 -0.279365 1.092798
-0.962344 -0.451822 1.720256
-0.882302 -0.406097 2.314473
-1.218013 -0.596345 3.117288
-1.362962 -0.678328 3.808494
-0.875516 -0.400453 6.171461
-0.652857 -0.273633 7.014860
-0.872342 -0.397909 7.768699
-0.938460 -0.435129 8.463593
-0.837033 -0.377167 9.263372
-1.004196 -0.372824 1.882044
-1.074774 -0.405191 2.353835
-0.703049 -0.231407 7.315559
-0.948262 -0.344337 7.885133
-1.000109 -0.368000 8.488346
-0.854263 -0.300268 9.417754
-0.917757 -0.232158 0.081045
-0.837234 -0.203814 1.006898
-1.489163 -0.429103 3.321914
-1.554188 -0.451383 3.999926
-0.616568 -0.124663 6.998065
-0.887157 -0.218189 7.916171
-1.028314 -0.266898 8.584996
-0.997602 -0.255932 9.299858
-1.055364 -0.185315 0.141283
-0.893678 -0.143762 0.751607
-1.140022 -0.206321 1.624724
-0.883691 -0.140570 2.288749
-1.718468 -0.353240 3.623581
-1.314184 -0.249652 4.397270
-1.011834 -0.172056 5.279540
-0.605677 -0.067941 6.167763
-0.468998 -0.032702 6.953824
-0.837065 -0.126398 7.718072
-0.976138 -0.161647 8.378009
-1.026937 -0.174177 9.447694
-0.919819 -0.065212 0.162342
-0.908698 -0.063087 0.985178
-1.163066 -0.103649 1.816349
-0.819517 -0.048208 2.303619
-1.916183 -0.223913 3.855528
-1.630226 -0.177627 4.603340
-1.318082 -0.127101 5.421301
-0.732767 -0.032683 6.157555
-0.552277 -0.003320 6.991398
-0.815027 -0.045183 7.937082
-1.030361 -0.079549 8.570422
-1.002962 -0.074842 9.305963
-0.948132 0.017456 0.324513
-0.964720 0.016653 1.125759
-1.194630 0.001322 1.855400
-1.058484 0.010837 2.501922
-2.020322 -0.053927 4.005153
-1.565411 -0.022763 4.612815
-1.189705 0.003145 5.534051
-0.763519 0.032438 6.341136
-0.573447 0.045669 7.114397
-0.798455 0.030676 7.855619
-1.107424 0.010050 8.777028
-1.110553 0.010136 9.516123
-1.290921 0.108979 -0.010589
-1.156524 0.106547 1.028691
-1.173746 0.107108 1.512710
-1.479998 0.114009 2.512791
-2.023094 0.125748 3.049621
-2.181197 0.129444 3.897406
-1.891155 0.123587 4.631077
-0.759508 0.100867 7.820021
-1.111267 0.108599 8.487230
-1.149398 0.109771 9.386451
-1.161423 0.214426 0.826368
-1.179300 0.216691 1.400832
-1.564483 0.260926 2.535740
-2.071461 0.318719 2.974407
-2.150595 0.328051 3.809136
-2.092287 0.321743 4.592463
-0.834916 0.180185 7.875784
-1.138101 0.214871 8.445745
-1.133517 0.214772 9.483449
-1.078677 0.305029 0.029965
-1.095879 0.309006 1.100064
-1.168902 0.324274 1.723193
-1.435099 0.379319 2.512791
-1.945246 0.484419 3.081324
-2.195540 0.536297 4.117113
-2.065104 0.509713 4.671052
-0.791496 0.249232 7.880978
-1.157882 0.324858 8.637281
-1.093696 0.312028 9.519966
-1.050276 0.401914 0.474216
-1.205222 0.448842 1.025062
-1.187590 0.443864 1.821377
-1.157774 0.435186 2.550326
-1.713187 0.602961 3.487288
-2.127745 0.728118 4.019238
-1.989926 0.686949 4.884017
-0.892852 0.357705 8.139410
-1.230342 0.459727 8.887219
-0.927200 0.368663 9.577766
-1.179467 0.563034 0.873652
-1.286539 0.606342 1.361987
-1.719427 0.781594 3.709928
-1.990273 0.890860 4.295412
-1.861341 0.839415 5.324673
-1.005797 0.496360 8.284275
-1.115663 0.540984 9.214731
-0.958862 0.582383 0.221806
-1.127732 0.669162 1.034381
-1.204529 0.708859 1.915278
-1.459378 0.839528 2.498868
-1.801407 1.014994 3.492607
-1.895544 1.063501 4.236560
-1.856580 1.043855 4.880629
-1.111090 0.663764 7.908119
-1.193018 0.706074 8.763437
-0.958026 0.586238 9.663793
-1.097984 0.793520 0.782110
-1.278468 0.908242 1.256499
-1.140540 0.821125 2.055563
-1.130109 0.814942 2.962692
-1.489319 1.043198 3.757284
-1.759446 1.214849 4.360325
-1.632753 1.134846 5.131228
-1.327648 0.941591 5.753343
-1.137230 0.821294 6.800364
-1.137561 0.821817 7.455587
-1.176768 0.847131 8.378620
-1.077997 0.784805 9.073922
-1.115660 0.957667 0.049254
-1.246841 1.058681 1.024857
-1.124638 0.965336 1.600065
-1.055176 0.912466 2.297569
-0.950542 0.832752 3.206325
-1.194743 1.020169 3.793287
-1.578972 1.314943 4.500445
-1.477354 1.237537 5.402333
-1.184501 1.013574 6.256306
-1.064643 0.922093 6.965305
-1.086689 0.939317 7.615833
-1.044744 0.907588 8.425480
-0.944347 0.831200 9.488686
-1.010540 1.045531 2.032696
-1.074534 1.104955 2.609142
-1.077548 1.108251 3.543849
-1.178030 1.201379 4.123714
-1.367312 1.376768 5.148188
-1.158557 1.184213 5.616178
-1.093004 1.124204 6.594230
-1.111141 1.141391 7.385680
-1.066875 1.100879 8.065733
-0.955142 1.177766 2.239673
-0.973057 1.197985 2.960437
-1.004625 1.233168 3.489129
-1.089831 1.327704 4.210293
-1.070021 1.306284 4.971441
-1.098942 1.338801 5.930331
-1.110778 1.352370 6.756107
-1.025495 1.258575 7.410581
-0.985417 1.214790 8.205455
-0.907944 1.129592 8.811841
-0.895924 1.330681 2.034179
-0.893437 1.328049 3.046047
-0.934498 1.383234 3.772901
-0.979092 1.443078 4.428762
-0.895823 1.332728 5.277618
-0.868117 1.296177 5.805017
-0.978162 1.443287 6.582828
-0.955935 1.414258 7.445270
-0.904378 1.346035 8.119247
-0.823854 1.239345 8.971873
-0.759098 1.382503 0.677329
-0.828116 1.494795 1.639659
-0.794446 1.440883 2.301570
-0.785027 1.426251 3.073816
-0.841481 1.517968 3.685669
-0.875539 1.573627 4.482136
-0.828645 1.498337 5.140399
-0.866497 1.560132 5.942066
-0.881010 1.584159 6.682890
-0.825098 1.494373 7.445270
-0.850910 1.536891 8.485877
-0.742563 1.362179 9.019818
-0.702132 1.597461 0.048543
-0.750568 1.695679 0.790658
-0.676219 1.546804 1.730298
-0.666394 1.527480 2.240281
-0.674519 1.544676 3.159055
-0.724674 1.646273 3.809450
-0.701651 1.600497 4.458541
-0.707474 1.612993 5.305609
-0.766679 1.732986 6.147473
-0.768203 1.736834 7.004806
-0.721678 1.643700 7.623648
-0.693422 1.587585 8.491584
-0.587957 1.375753 9.107831
-0.568821 1.676395 0.137756
-0.610068 1.782652 0.977977
-0.545340 1.618063 1.609849
-0.538352 1.600872 2.198951
-0.544870 1.618543 3.127057
-0.575165 1.696583 3.740060
-0.570599 1.685782 4.514980
-0.572070 1.690398 5.292055
-0.608410 1.783907 5.935706
-0.611159 1.791930 6.841921
-0.590059 1.738996 7.697718
-0.555351 1.651047 8.311495
-0.514750 1.548508 9.338810
-0.323934 1.409301 0.199443
-0.389653 1.636806 0.914017
-0.395977 1.659563 1.580039
-0.405558 1.694079 2.614530
-0.420290 1.745794 3.269269
-0.433178 1.791245 3.985057
-0.398786 1.673681 4.643536
-0.412337 1.721426 5.365134
-0.466257 1.908530 6.257485
-0.443981 1.832748 6.935602
-0.442349 1.828528 7.905524
-0.431995 1.793917 8.642843
-0.376811 1.604705 9.302732
-0.249236 1.721480 2.205807
-0.252478 1.739538 2.822959
-0.246047 1.707940 3.586364
-0.252103 1.740840 4.346341
-0.260129 1.783829 5.066849
-0.277359 1.874490 5.842684
-0.290452 1.943915 6.685177
-0.291375 1.950404 7.493602
-0.283466 1.910901 8.132821
-0.101081 1.793277 0.266495
-0.109749 1.880953 0.977977
-0.091910 1.709191 1.699275
-0.091878 1.710817 2.187480
-0.095343 1.748133 3.043328
-0.101831 1.814442 3.747377
-0.100836 1.807943 4.561416
-0.105137 1.852824 5.261370
-0.111954 1.922611 6.030431
-0.111184 1.918358 6.857013
-0.103821 1.848949 7.529004
-0.105397 1.867487 8.313206
-0.097337 1.791578 9.064880
0.069330 1.270198 0.291113
0.065368 1.716014 1.231295
0.065365 1.737296 1.737794
0.065445 1.764917 2.602787
0.065482 1.783827 3.150299
0.065638 1.808844 4.139241
0.067744 1.622814 4.868725
0.067144 1.709611 5.475548
0.064948 1.968752 6.287083
0.065503 1.939414 6.955770
0.066238 1.896759 7.746609
0.066970 1.856485 8.587553
0.068325 1.746307 9.287845
0.207942 1.584898 0.457581
0.228272 1.835790 1.434794
0.219663 1.723660 2.176022
0.222656 1.758696 2.692066
0.225514 1.789941 3.618565
0.225092 1.780492 4.432576
0.219706 1.710494 4.865321
0.230645 1.844346 5.615201
0.244672 2.016441 6.489695
0.239836 1.951861 7.217215
0.234410 1.879760 7.964849
0.236831 1.905212 8.949404
0.214284 1.617926 9.636566
0.312274 1.334309 -0.020689
0.335268 1.466138 0.758751
0.374062 1.689747 1.568994
0.380248 1.724152 2.224106
0.386494 1.758526 3.039099
0.393302 1.795946 3.945456
0.373117 1.676978 4.623669
0.379989 1.715380 5.275841
0.419223 1.941898 5.939152
0.416562 1.924604 6.704908
0.417481 1.927772 7.617117
0.413088 1.900862 8.192064
0.407647 1.867021 9.119641
0.446822 1.377396 0.409609
0.515991 1.639012 1.261096
0.536852 1.717238 1.943525
0.535404 1.710657 2.620799
0.529203 1.686112 3.231860
0.539871 1.725264 4.119423
0.495499 1.555284 4.928476
0.528467 1.679252 5.793280
0.597166 1.939569 6.337563
0.595488 1.931759 7.236930
0.572078 1.841914 7.770986
0.569864 1.832307 8.520807
0.529820 1.678768 9.337465
0.637924 1.497961 0.726133
0.721905 1.725698 1.324967
0.678379 1.606692 1.846997
0.702900 1.672160 2.898299
0.701916 1.668866 3.427840
0.691879 1.640773 4.102437
0.713274 1.697731 5.162388
0.746570 1.787749 5.633264
0.797802 1.925926 6.642647
0.778280 1.872093 7.266481
0.754729 1.807147 8.023154
0.748435 1.788973 8.923634
0.656525 1.538181 9.593915
0.722438 1.349582 0.838085
0.870555 1.665220 1.532681
0.830107 1.578301 2.103568
0.833853 1.585515 2.930060
0.853482 1.626703 3.695278
0.850645 1.620062 4.307645
0.847847 1.613232 5.205563
0.894800 1.712819 5.917693
0.927601 1.782172 6.646470
0.903572 1.730264 7.271493
0.910327 1.743935 8.062622
0.926882 1.778315 9.085263
0.749218 1.398374 9.659352
0.842677 1.271556 0.578455
1.041578 1.609267 1.224289
0.999664 1.537288 2.110521
0.987020 1.515215 2.828939
1.017613 1.566501 3.752078
0.997209 1.531378 4.287838
1.010459 1.553151 5.241577
1.055350 1.629030 5.814922
1.116725 1.732620 6.789578
1.098571 1.701181 7.503101
1.083010 1.674180 8.180969
1.067798 1.647726 8.917622
0.902508 1.365914 9.848649
1.100381 1.410139 2.192806
1.128393 1.448989 3.165725
1.130028 1.450912 3.715080
1.098940 1.406598 4.353261
1.154519 1.484395 5.257753
1.262722 1.636586 5.966264
1.289127 1.673271 6.790099
1.269887 1.645530 7.635740
1.198130 1.543858 8.231546
1.154700 1.482043 8.991127
1.301362 1.376381 1.849094
1.289765 1.362449 2.734017
1.300230 1.374063 3.489915
1.338049 1.417245 4.253287
1.231469 1.293796 4.947893
1.279211 1.348491 5.615201
1.453810 1.549425 6.584421
1.402400 1.489686 7.231989
1.338384 1.415408 7.859850
1.317121 1.390334 8.720152
1.212629 1.269173 9.614452
1.462524 1.295180 0.758746
1.446247 1.279044 1.570011
1.385873 1.220466 2.318432
1.394834 1.228641 3.133837
1.414649 1.247289 3.920217
1.373034 1.206875 4.498854
1.413438 1.245458 5.105850
1.552880 1.379269 6.025287
1.577581 1.402715 6.647915
1.543918 1.369772 7.566877
1.500561 1.327575 8.334426
1.334713 0.966913 0.436987
1.643213 1.214210 1.259291
1.604571 1.182883 1.834016
1.551029 1.139616 2.362948
1.528905 1.121381 3.270073
1.496268 1.094752 4.084040
1.494904 1.093344 4.686966
1.607514 1.183253 5.684673
1.635423 1.205394 6.205224
1.626856 1.198049 7.103967
1.592941 1.170417 7.874244
1.539989 1.127529 8.585863
1.448575 1.053674 9.456483
1.672131 1.022851 2.132715
1.630825 0.994782 2.850698
1.630353 0.994069 3.667828
1.608434 0.979036 4.331362
1.598919 0.972318 5.016836
1.714056 1.049142 5.925216
1.756991 1.077669 6.514766
1.745804 1.069747 7.364948
1.664620 1.014966 7.983676
1.641976 0.999347 8.854503
1.425230 0.853459 9.746054
1.688318 0.833356 0.928533
1.758866 0.871717 1.726785
1.699479 0.838853 2.295412
1.658685 0.816127 3.015075
1.611381 0.789810 3.769800
1.813013 0.900094 4.654487
1.855533 0.923190 5.189467
1.838474 0.913368 6.181276
1.834495 0.910814 6.986009
1.692895 0.832808 7.573343
1.700170 0.836464 8.307593
1.669856 0.819447 9.122007
1.540148 0.583175 0.327503
1.792411 0.692845 1.352715
1.746330 0.672492 1.889968
1.734348 0.666850 2.824996
1.819018 0.703595 3.314874
2.078389 0.816474 4.100408
2.191935 0.865698 4.879417
2.042307 0.800039 5.653360
1.930628 0.750945 6.431610
1.845335 0.713452 7.020076
1.797106 0.692022 7.875062
1.834039 0.707726 8.822841
1.665592 0.633843 9.617954
1.707825 0.481623 0.534522
1.889691 0.541810 1.192939
1.822712 0.519253 1.868865
1.794118 0.509441 2.585633
1.621597 0.451731 3.409907
1.904852 0.545614 4.099495
2.294424 0.674856 4.765372
2.156717 0.628620 5.825730
1.982308 0.570395 6.382417
1.888231 0.538822 7.074211
1.893887 0.540278 8.072488
1.865222 0.530430 8.818920
1.621903 0.449185 9.633695
1.744891 0.320748 0.514685
1.962945 0.370964 1.379395
1.841345 0.342537 1.919644
2.158746 0.415194 4.233605
2.355884 0.460595 5.012512
2.127005 0.407251 5.637651
1.918928 0.358644 6.473442
1.856873 0.343842 7.459475
1.830072 0.337383 8.044917
1.906843 0.354782 9.028414
1.598938 0.283088 9.702745
1.669906 0.152491 0.665407
1.955379 0.192487 1.163340
1.878443 0.181244 2.166886
2.198579 0.225441 4.331617
2.367051 0.248946 4.866256
2.179016 0.222028 5.945717
1.945394 0.188854 6.625969
1.829521 0.172248 7.335872
1.896885 0.181364 8.242694
1.793436 0.166492 8.989440
1.405199 0.111544 9.674201
1.570101 -0.001797 -0.110593
1.656558 0.002201 0.874872
1.942520 0.016594 1.243158
1.830800 0.010582 2.061007
2.073305 0.022532 3.006006
2.447339 0.041243 3.770098
2.396468 0.038479 4.209963
2.147439 0.025492 5.008277
1.883140 0.011682 5.925817
1.654350 -0.000245 6.650505
1.615365 -0.002519 7.370737
1.679274 0.000417 8.148121
1.718604 0.002085 8.967804
1.562567 -0.153332 -0.090644
1.626164 -0.156673 0.955160
1.924929 -0.170647 1.609513
1.844339 -0.167267 2.397617
1.686716 -0.160265 2.968040
2.036010 -0.176704 3.982678
2.344468 -0.191053 4.462952
2.079609 -0.179163 5.117054
1.757460 -0.164789 6.128843
1.528871 -0.154585 6.837378
1.603793 -0.158331 7.600007
1.665063 -0.161399 8.233192
1.606438 -0.159003 8.961940
1.754499 -0.311193 0.891553
1.710917 -0.305856 1.727865
1.603296 -0.292127 2.442604
1.177452 -0.236902 3.059616
2.389295 -0.395405 4.612616
2.098822 -0.357816 5.231400
1.654224 -0.300243 6.081737
1.422506 -0.270392 6.905901
1.490809 -0.279636 7.755516
1.630549 -0.298053 8.278532
1.549742 -0.287869 9.119579
1.766071 -0.478050 0.801137
1.674167 -0.457903 1.678221
1.960084 -0.522607 3.844818
1.089921 -0.329669 6.881015
1.261634 -0.368404 7.882757
1.543760 -0.431661 8.595597
1.489896 -0.419979 9.413613
1.852155 -0.680030 0.452419
1.834849 -0.674634 0.817962
1.462470 -0.555573 1.756331
1.810923 -0.668250 3.865404
1.430977 -0.548381 8.622841
1.299928 -0.506594 9.218319
1.660521 -0.807456 0.305661
1.629487 -0.794378 1.098995
1.380518 -0.686971 1.807473
1.647640 -0.803462 3.895947
1.303531 -0.656667 8.640120
1.151609 -0.591241 9.329292
1.581455 -0.953437 0.325459
1.572171 -0.948718 1.048701
1.328005 -0.816146 1.636612
1.562278 -0.944613 3.826623
1.770907 -1.058550 4.759520
1.435013 -0.876193 5.612345
1.187147 -0.742290 7.686183
1.120760 -0.706546 8.502580
1.093851 -0.692286 9.329292
1.436385 -1.046731 0.693211
1.207114 -0.895708 1.509015
1.087012 -0.816688 2.128644
1.012373 -0.767813 2.993002
1.359321 -0.997285 3.690766
0.538354 -0.456697 7.004649
0.704100 -0.566521 7.748514
0.981120 -0.749756 8.332802
1.010496 -0.769491 9.025619
1.094687 -0.978782 1.260056
1.011111 -0.912543 2.168770
0.911003 -0.832993 2.854153
1.142863 -1.018467 3.646153
1.481103 -1.288817 4.371713
1.191766 -1.058208 5.014979
0.718691 -0.681135 6.031527
0.433332 -0.453720 6.712753
0.622476 -0.605137 7.575771
0.916949 -0.840590 8.373061
0.966488 -0.880545 9.176387
0.848312 -0.923587 0.744117
0.990316 -1.059626 1.441089
0.863282 -0.938567 1.962159
0.792367 -0.871274 2.767344
1.068840 -1.135889 3.683556
1.312264 -1.368843 4.440120
1.007592 -1.078156 5.072125
0.639942 -0.727506 6.055841
0.351773 -0.452585 6.690877
0.545995 -0.638673 7.687553
0.796429 -0.878203 8.227500
1.023637 -1.300293 0.805216
0.805882 -1.050586 1.405984
0.800623 -1.045061 2.242083
0.554232 -0.762540 2.958822
1.169713 -1.470324 4.502536
0.935542 -1.201842 5.228514
0.588923 -0.804197 5.916078
0.387853 -0.573908 6.933162
0.510386 -0.715055 7.626595
0.747899 -0.988267 8.352933
0.724436 -0.961890 9.277280
0.759481 -1.187575 0.981361
0.652026 -1.039658 1.480401
0.822361 -1.276251 3.768542
0.996910 -1.517657 4.601047
0.822093 -1.276985 5.371953
0.470446 -0.792284 6.074090
0.396185 -0.690422 6.945405
0.533282 -0.880043 7.616595
0.697770 -1.107709 8.654589
0.635050 -1.021666 9.374097
0.513924 -1.026899 0.383061
0.494184 -0.994082 0.979644
0.498088 -1.001337 1.828961
0.530149 -1.055913 2.473196
0.663532 -1.281461 3.251013
0.817327 -1.541412 4.006019
0.353414 -0.761702 7.306425
0.524963 -1.051407 7.828423
0.594372 -1.169117 8.664634
0.548383 -1.092342 9.648496
0.418281 -1.070236 0.443597
0.480894 -1.202750 1.306480
0.423281 -1.082377 2.170702
0.452774 -1.145019 2.813887
0.556127 -1.363118 3.561170
0.174767 -0.563854 6.645499
0.278701 -0.783295 7.519730
0.448307 -1.140775 8.292533
0.399225 -1.038110 8.904062
0.246747 -0.718361 9.945044
0.321217 -1.106415 0.635287
0.344963 -1.171547 1.329369
0.297382 -1.043597 2.134762
0.296332 -1.041570 2.835579
0.401865 -1.328474 3.721350
0.095214 -0.501186 6.617598
0.207791 -0.807054 7.402863
0.357748 -1.214371 8.357443
0.239291 -1.197400 0.130458
0.260333 -1.276020 0.662669
0.195459 -1.037547 1.558435
0.191912 -1.025528 2.269250
0.140516 -0.836673 3.027905
0.195770 -1.042012 3.703918
0.287240 -1.381252 4.378265
0.188282 -1.016571 5.154568
0.079411 -0.615471 6.081822
0.131619 -0.809831 6.940806
0.218543 -1.132239 7.601413
0.245995 -1.234859 8.327268
0.227947 -1.169522 9.226899
0.030784 -0.647882 0.153651
0.045106 -0.731061 0.816573
0.093905 -1.011435 1.773265
0.091375 -0.998513 2.414192
0.069577 -0.876537 3.383766
0.086288 -0.972906 3.866056
0.105010 -1.081339 4.602084
0.055210 -0.799903 5.634507
0.015608 -0.575668 6.268165
0.067430 -0.872979 7.098901
0.127179 -1.215184 7.807939
0.131525 -1.241843 8.615779
0.086292 -0.986203 9.547370
-0.027821 -0.647585 0.041160
-0.020856 -0.735432 0.949211
0.001922 -1.011913 1.692254
0.000706 -1.000691 2.383803
-0.002487 -0.966619 3.242813
0.006859 -1.082984 4.151449
0.008403 -1.104360 4.743540
-0.016772 -0.806426 5.498402
-0.032119 -0.627092 6.427798
-0.009452 -0.901912 7.104352
0.016436 -1.215312 7.777728
