-29.574206 -1.263920 3.458638
-29.607973 -1.391098 5.061095
-29.568843 -1.243728 5.454829
-29.525429 -1.080226 5.932970
-29.552921 -1.183766 6.542804
-29.147356 -2.087793 1.293945
-29.143891 -2.069370 1.767502
-29.212225 -2.432754 2.349109
-29.281232 -2.799718 2.769849
-29.366509 -3.253198 3.293333
-29.432854 -3.606010 4.727045
-29.399002 -3.425998 5.381134
-29.370327 -3.273514 5.769526
-29.374973 -3.298224 6.273049
-29.414884 -3.510461 6.811524
-29.523167 -4.086284 7.516826
-28.919981 -4.206569 0.990657
-28.918281 -4.191621 1.464676
-28.960059 -4.558980 2.128883
-29.002517 -4.932316 2.547845
-29.042168 -5.280971 3.234943
-29.081801 -5.629474 4.753327
-29.073574 -5.557141 5.331993
-29.046300 -5.317327 5.619891
-29.060517 -5.442342 6.137647
-29.083463 -5.644107 6.763303
-29.127530 -6.031589 7.432169
-28.476190 -6.568235 1.055276
-28.478454 -6.641435 1.786603
-28.486794 -6.910947 2.363744
-28.495615 -7.196043 2.606061
-28.512602 -7.745018 3.308281
-28.522701 -8.071422 5.005272
-28.518014 -7.919980 5.396147
-28.510536 -7.678323 5.683319
-28.513555 -7.775888 6.375064
-28.521112 -8.020137 6.739017
-28.533188 -8.410398 7.407302
-27.916669 -8.812851 1.164781
-27.921136 -8.705664 1.384861
-27.917981 -8.781357 1.951142
-27.906855 -9.048306 2.530828
-27.883928 -9.598421 3.228864
-27.844062 -10.554985 4.724572
-27.867247 -9.998656 5.157890
-27.877741 -9.746837 5.533376
-27.881237 -9.662934 6.107262
-27.876260 -9.782353 6.626181
-27.861267 -10.142098 7.465114
-27.107122 -11.052184 1.289036
-27.109434 -11.033505 1.767695
-27.087943 -11.207132 2.257634
-27.045036 -11.553796 3.023986
-27.000060 -11.917180 3.453831
-26.914226 -12.610674 4.512962
-26.909180 -12.651433 5.019230
-26.988665 -12.009234 5.345666
-26.995503 -11.953983 5.745376
-26.997483 -11.937978 6.507104
-26.208840 -13.044635 1.027922
-26.232881 -12.924531 1.672639
-26.217909 -12.999320 2.156060
-26.166114 -13.258073 2.740481
-26.072801 -13.724229 3.090907
-26.006973 -14.053081 4.779462
-25.997372 -14.101038 5.194851
-26.054257 -13.816858 5.829829
-26.046809 -13.854063 6.245379
-26.020859 -13.983702 6.678818
-25.944077 -14.367276 7.343765
-25.131902 -14.911241 1.231315
-25.108456 -14.993383 1.628041
-25.059962 -15.163279 2.116801
-25.014755 -15.321659 2.695490
-24.917215 -15.663385 3.296049
-24.631067 -16.665887 4.896365
-24.808526 -16.044166 5.228160
-24.884781 -15.777008 5.776166
-24.843461 -15.921769 6.120806
-24.814816 -16.022125 6.729067
-24.676339 -16.507271 7.325970
-23.944376 -16.798473 1.086428
-23.951194 -16.779844 1.648854
-23.923302 -16.856047 2.047153
-23.836103 -17.094285 2.801129
-23.368330 -18.372304 4.406775
-23.418535 -18.235135 4.805031
-23.614283 -17.700324 5.322885
-23.671873 -17.542978 5.797753
-23.634342 -17.645518 6.403037
-23.589611 -17.767727 6.839034
-23.422420 -18.224514 7.525961
-22.524266 -18.616977 1.279442
-22.449892 -18.777739 1.850152
-22.383671 -18.920877 2.596524
-22.269987 -19.166611 3.015326
-22.081990 -19.572973 4.620947
-22.060887 -19.618588 5.036537
-22.124810 -19.480414 5.426490
-22.123666 -19.482885 6.102541
-22.061719 -19.616787 6.450157
-21.937404 -19.885499 7.096542
-20.669012 -20.965728 0.518414
-21.012209 -20.349656 0.817685
-21.073382 -20.239844 1.629447
-21.033783 -20.310926 2.026370
-20.896488 -20.557384 2.352435
-20.769488 -20.785359 2.940328
-20.593571 -21.101143 4.445206
-20.535801 -21.204846 5.131451
-20.610298 -21.071116 5.520365
-20.603168 -21.083913 6.109296
-20.545236 -21.187905 6.629767
-20.394742 -21.458055 7.188397
-19.365427 -21.882379 1.425786
-19.316833 -21.955095 1.735074
-19.219309 -22.101030 2.221002
-19.014327 -22.407766 2.725321
-18.813597 -22.708137 4.306634
-18.734232 -22.826898 4.816091
-18.878808 -22.610553 5.276789
-18.854431 -22.647030 5.688788
-18.800246 -22.728113 6.377332
-17.661072 -23.311843 1.426827
-17.668735 -23.302008 1.732761
-17.563881 -23.436579 2.303952
-17.395413 -23.652794 2.716734
-17.050976 -24.094851 4.316750
-16.969821 -24.199006 4.914818
-17.177242 -23.932796 5.190493
-17.233612 -23.860449 5.847175
-17.088928 -24.046139 6.291401
-16.947301 -24.227906 6.740959
-15.617805 -24.760945 1.134958
-15.629201 -24.748562 1.611370
-15.644549 -24.731885 2.087540
-15.457383 -24.935260 2.497824
-15.282029 -25.125799 3.085739
-14.814829 -25.633459 4.306785
-14.711076 -25.746198 4.733558
-15.095848 -25.328101 5.248113
-15.133009 -25.287722 5.647282
-15.124114 -25.297386 6.233894
-14.987644 -25.445675 6.856000
-14.691908 -25.767022 7.258712
-13.785981 -25.824276 1.289698
-13.799614 -25.811464 1.765708
-13.741239 -25.866322 2.162266
-13.613104 -25.986737 2.567164
-13.357602 -26.226846 3.249300
-13.254500 -26.323735 4.818738
-13.210811 -26.364792 5.143672
-13.258879 -26.319619 5.629058
-13.269110 -26.310004 6.388122
-13.091160 -26.477233 6.750114
-12.795110 -26.755448 7.326963
-11.622558 -26.869257 1.087903
-11.640912 -26.854641 1.734246
-11.503630 -26.963955 2.222039
-11.366598 -27.073068 2.628854
-11.154898 -27.241638 3.047120
-11.046069 -27.328293 4.704291
-11.024918 -27.345134 5.289338
-11.068209 -27.310663 5.688788
-11.026989 -27.343485 6.016399
-10.889664 -27.452831 6.811547
-10.572643 -27.705265 7.389707
-9.561662 -27.698177 1.006310
-9.579918 -27.685687 1.654365
-9.599080 -27.672578 2.132067
-9.449237 -27.775084 2.452148
-9.240520 -27.917867 3.126009
-9.110223 -28.007002 3.626915
-9.160550 -27.972572 5.091379
-9.122823 -27.998380 5.502859
-9.273403 -27.895368 6.057891
-9.011505 -28.074532 6.605544
-7.259513 -28.388489 1.024916
-7.273036 -28.380784 1.504592
-7.212778 -28.415118 2.159493
-7.142038 -28.455425 2.475820
-6.922790 -28.580350 3.151511
-6.919437 -28.582258 5.780845
-6.972041 -28.552284 6.179215
-6.698056 -28.708398 6.729533
-6.259771 -28.958130 7.324441
-5.074167 -28.884046 1.305987
-5.178163 -28.834517 1.698528
-5.114008 -28.865070 2.269943
-4.956497 -28.940085 2.679979
-4.731973 -29.047015 3.359943
-4.420589 -29.195311 4.878849
-4.456868 -29.178033 5.196180
-4.874976 -28.978907 5.629712
-4.672777 -29.075205 6.160422
-4.312327 -29.246869 6.817861
-4.035823 -29.378555 7.382165
-2.920624 -29.179999 1.367263
-3.025048 -29.139466 1.673624
-2.953933 -29.167070 2.158828
-2.790145 -29.230645 2.567363
-2.543563 -29.326359 3.073364
-2.800872 -29.226479 5.582457
-2.788057 -29.231452 6.165695
-2.323981 -29.411589 6.835306
-1.885821 -29.581665 7.608315
-0.436646 -29.347752 1.536343
-0.457614 -29.341530 2.018236
-0.373672 -29.366438 2.249455
-0.229823 -29.409122 3.003847
0.018362 -29.482767 3.514778
0.153446 -29.522850 5.013143
-0.361019 -29.370190 5.262536
-0.239148 -29.406352 6.445873
0.342830 -29.579045 7.051508
0.821935 -29.721212 7.654462
1.748933 -29.301738 1.234536
1.731190 -29.297876 1.716583
1.790295 -29.310740 2.460743
1.958895 -29.347437 2.872257
2.130178 -29.384717 3.201192
2.528782 -29.471475 5.079033
2.332862 -29.428830 6.464395
2.377786 -29.438608 6.796954
3.046057 -29.584062 7.519180
3.963241 -29.111837 1.317353
3.852814 -29.096070 1.623463
3.820734 -29.091490 2.274414
3.981642 -29.114463 2.853934
4.162237 -29.140247 3.094224
3.635589 -29.065053 5.957846
4.341696 -29.165866 6.565665
4.780464 -29.228509 7.507021
6.220965 -28.686297 1.324352
6.193615 -28.684646 1.974864
6.360325 -28.694707 2.552452
6.425703 -28.698652 3.041439
6.683839 -28.714231 3.550251
7.043792 -28.735954 4.892274
6.710909 -28.715862 6.515637
6.726587 -28.716808 7.018343
7.486685 -28.762682 7.847918
8.405173 -28.153421 1.209565
8.287417 -28.154939 1.688548
8.368291 -28.153896 2.087936
8.439560 -28.152977 2.574901
8.511363 -28.152051 2.978002
8.770766 -28.148707 3.486397
8.619177 -28.150658 6.333487
10.645232 -27.385262 1.186132
10.524540 -27.396578 1.750958
10.504874 -27.398421 2.147671
10.680131 -27.381989 2.553793
10.837927 -27.367194 3.135941
10.796806 -27.371049 3.618452
10.776281 -27.372970 6.823390
12.537046 -26.538453 1.559041
12.519373 -26.541446 1.958181
12.580029 -26.531171 2.619831
12.754738 -26.501580 2.948798
13.011066 -26.458165 3.454974
13.349530 -26.400836 4.964537
13.018829 -26.456847 6.581212
13.130914 -26.437862 7.099487
13.817381 -26.321592 7.734142
14.672549 -25.421136 1.476255
14.651943 -25.426393 1.960851
14.722236 -25.408458 2.451384
14.889333 -25.365824 2.865542
15.141692 -25.301436 3.378264
15.657756 -25.169765 5.009725
15.197255 -25.287257 6.849183
15.843380 -25.122402 7.656532
16.498500 -24.274408 1.589751
16.489083 -24.277565 1.818036
16.544441 -24.259008 2.565024
16.712886 -24.202543 2.893743
16.952341 -24.122276 3.493155
16.970846 -24.116071 5.158884
16.777651 -24.180830 6.537372
17.243529 -24.024664 7.216365
17.900934 -23.804296 7.860729
18.276725 -22.967615 1.421505
18.265126 -22.972497 1.733938
18.242657 -22.981954 2.217049
18.387335 -22.921053 2.885078
18.719083 -22.781407 3.403948
19.045124 -22.644162 4.843180
18.815113 -22.740982 5.223287
18.262066 -22.973781 5.898002
18.387073 -22.921160 6.326601
18.843329 -22.729103 6.999818
19.395031 -22.496869 7.619363
20.065836 -21.426012 1.105643
20.051113 -21.433650 1.588082
20.018346 -21.450648 2.326439
20.167357 -21.373342 2.822453
20.494054 -21.203853 3.253204
20.769245 -21.061084 5.093343
20.183427 -21.365002 5.502082
20.184815 -21.364281 6.172514
20.626518 -21.135128 6.844124
21.174313 -20.850934 7.373473
21.752680 -19.710198 1.193131
21.734597 -19.721551 1.759635
21.709577 -19.737259 2.325772
21.866758 -19.638573 2.563174
22.085153 -19.501453 3.155327
22.442020 -19.277393 4.942382
22.323853 -19.351584 5.245823
21.941862 -19.591416 5.591846
21.953555 -19.584074 6.176601
22.304315 -19.363849 6.743664
22.745055 -19.087131 7.251700
23.155365 -18.042617 1.116329
23.144700 -18.050472 1.511307
23.120109 -18.068583 2.162348
23.257057 -17.967717 2.655644
23.399756 -17.862615 2.981166
23.595985 -17.718087 3.664826
23.634472 -17.689739 5.062641
23.412813 -17.852996 5.608589
23.286069 -17.946345 5.991508
23.553719 -17.749214 6.452074
24.361047 -16.332247 0.932941
24.347746 -16.343663 1.496796
24.404051 -16.295337 2.065609
24.466516 -16.241725 2.380181
24.659383 -16.076192 3.054522
24.855492 -15.907878 3.564590
24.894631 -15.874284 4.960246
24.846273 -15.915788 5.447166
24.728072 -16.017236 5.832154
24.875060 -15.891080 6.537268
25.197358 -15.614461 7.023231
25.595645 -14.313656 1.338956
25.649466 -14.259296 1.907465
25.704801 -14.203409 2.307298
25.827448 -14.079536 2.715783
25.937224 -13.968663 3.300664
26.077147 -13.827341 5.199907
26.030246 -13.874710 5.686434
26.108609 -13.795564 6.289751
26.249839 -13.652923 6.914490
26.545483 -13.354327 7.406895
26.642712 -12.326309 0.962044
26.566069 -12.415927 1.524432
26.619695 -12.353221 1.923481
26.663832 -12.301611 2.495505
26.823122 -12.115350 3.257709
26.929886 -11.990510 3.674217
27.315371 -11.539756 4.727388
27.025158 -11.879105 5.082303
26.974716 -11.938086 5.656664
26.983090 -11.928295 6.245379
27.087713 -11.805957 6.504902
27.507707 -10.172213 1.069847
27.498295 -10.185257 1.549737
27.546410 -10.118568 1.949173
27.595076 -10.051116 2.264836
27.690228 -9.919234 2.846405
27.717597 -9.881300 3.510562
27.986799 -9.508181 3.958063
28.161453 -9.266108 4.898395
27.878675 -9.658040 5.511826
27.852414 -9.694437 5.826110
27.982144 -9.514629 6.360104
28.147455 -9.285506 7.092750
28.177764 -8.129646 1.222727
28.168366 -8.144920 1.701884
28.208209 -8.080158 2.186363
28.294063 -7.940610 2.765516
28.382869 -7.796264 3.177655
28.508789 -7.591593 3.862519
28.847021 -7.041830 4.425527
28.874595 -6.997010 4.844074
28.588116 -7.462652 5.186717
28.494819 -7.614296 5.747657
28.515180 -7.581201 6.162789
28.613533 -7.421338 6.873310
28.868365 -7.007132 7.559466
28.697792 -5.915903 1.131564
28.690131 -5.930956 1.611527
28.770371 -5.773286 2.101971
28.802542 -5.710071 2.590423
29.344458 -4.645230 4.855438
29.096327 -5.132794 5.199966
29.026587 -5.269828 5.589669
29.083666 -5.157670 6.108536
29.162287 -5.003183 6.909716
29.367149 -4.600638 7.228360
29.055956 -3.783455 1.127245
29.048038 -3.802342 1.693215
29.116014 -3.640184 2.185029
29.181580 -3.483777 2.681439
29.564474 -2.570380 4.934187
29.343622 -3.097220 5.450891
29.326324 -3.138484 5.767610
29.363260 -3.050370 6.461683
29.489472 -2.749292 6.933571
29.645270 -2.377636 7.519180
29.298496 -1.310201 1.136130
29.294310 -1.323027 1.531424
29.321148 -1.240787 1.846067
29.344154 -1.170284 2.333377
29.421139 -0.934373 3.095570
29.531470 -0.596270 4.607040
29.577940 -0.453868 5.034739
29.465605 -0.798105 5.484912
29.501010 -0.689610 6.088299
29.538061 -0.576069 6.609199
29.313377 0.845513 1.391572
29.308598 0.826122 1.869982
29.329789 0.912110 2.097968
29.370694 1.078084 2.590314
29.656892 2.239357 4.849416
29.528760 1.719455 5.105266
29.462758 1.451650 5.653281
29.489530 1.560280 6.256504
29.537687 1.755684 6.881075
29.654067 2.227905 7.567850
29.170874 3.020909 1.246373
29.168449 3.006561 1.640296
29.181248 3.082288 2.124655
29.224332 3.337185 2.796376
29.237060 3.412486 3.115420
29.425231 4.525763 4.892448
29.319397 3.899621 5.136607
29.291894 3.736913 5.612428
29.294158 3.750310 6.202214
29.330288 3.964063 6.739861
29.398010 4.364726 7.319368
28.832070 5.363910 1.258363
28.830140 5.341709 1.823384
28.845660 5.520309 2.229058
28.859246 5.676649 2.896429
28.883644 5.957392 3.146031
28.964053 6.882681 4.909750
28.908076 6.238553 5.241506
28.892584 6.060294 5.804368
28.893504 6.070888 6.394891
28.913338 6.299123 6.846973
28.949767 6.718319 7.340047
28.374593 8.163270 0.733295
28.366125 7.548821 1.290964
28.364636 7.440780 1.513778
28.365715 7.519159 1.997551
28.368011 7.685799 2.575571
28.372936 8.043213 3.174771
28.377800 8.396282 4.689034
28.378333 8.434982 5.192036
28.374686 8.170361 5.654490
28.376597 8.309090 6.085236
28.378997 8.483297 6.885717
28.383436 8.805404 7.361068
27.691894 10.162051 0.538630
27.729584 9.544364 1.325969
27.725453 9.612056 2.069612
27.720780 9.688630 2.474113
27.698509 10.053606 2.983971
27.677206 10.402686 5.393682
27.682195 10.320915 5.968976
27.674801 10.442077 6.488300
27.658682 10.706233 7.309473
26.749854 12.014304 1.545742
26.737425 12.095518 1.947505
26.724862 12.177616 2.265504
26.672061 12.522649 3.036599
26.631826 12.785573 3.464524
26.626786 12.818498 5.038561
26.591629 13.048235 5.568174
26.619371 12.866942 6.131521
26.597012 13.013049 6.478363
26.567101 13.208510 7.108418
25.878425 13.799280 1.148121
25.883775 13.775255 1.800417
25.844774 13.950363 2.207992
25.763318 14.316090 2.632655
25.687413 14.656890 3.326768
25.638410 14.876901 5.024109
25.644828 14.848086 5.254856
25.686566 14.660684 5.908186
25.681540 14.683248 6.414700
25.638389 14.876987 7.044466
25.526068 15.381291 7.559844
24.794011 15.658532 1.489138
24.800167 15.638123 1.970491
24.721575 15.898692 2.470356
24.591131 16.331178 3.165800
24.510289 16.599208 3.421091
24.515767 16.581042 5.416960
24.572008 16.394573 6.068815
24.533352 16.522736 6.504312
23.563224 17.415863 1.182393
23.570911 17.395989 1.748998
23.473531 17.647737 2.333042
23.341078 17.990159 2.846306
23.180566 18.405117 3.552150
23.126652 18.544495 4.983694
23.145696 18.495259 5.392401
23.215916 18.313724 6.047793
23.172735 18.425356 6.572617
23.080020 18.665045 6.854961
22.869143 19.210209 7.567084
22.037157 19.307523 1.416910
22.042639 19.296243 1.727748
21.880880 19.629133 2.316857
21.725868 19.948141 3.003663
21.565918 20.277309 3.440889
21.503441 20.405882 4.957661
21.526357 20.358720 5.365718
21.611191 20.184135 6.020558
21.546407 20.317456 6.370405
21.466224 20.482468 7.091255
20.581384 20.814136 1.516303
20.535842 20.892348 1.745013
20.349706 21.212014 2.333281
20.121167 21.604502 3.026807
19.940946 21.914010 3.551749
19.926488 21.938838 5.144639
19.941759 21.912610 5.376323
19.996369 21.818824 6.132370
19.979010 21.848635 6.553837
18.938612 22.319074 1.532204
18.832800 22.472603 1.848680
18.677390 22.698096 2.345347
18.419686 23.072013 3.036978
18.207817 23.379428 3.384772
18.187319 23.409167 4.971363
18.216919 23.366218 5.376323
18.256045 23.309446 5.868176
18.242547 23.329030 6.374847
17.041159 23.801646 1.342047
16.992768 23.860818 1.908356
16.813472 24.080063 2.233071
16.524735 24.433134 2.921810
16.238769 24.782816 3.538749
16.066681 24.993247 4.798268
16.191046 24.841171 5.543879
16.274193 24.739497 5.759556
16.275816 24.737511 6.441129
16.140600 24.902854 6.983441
15.750620 25.379727 7.515833
15.388723 24.868677 1.583440
15.261027 25.004022 1.898729
14.943960 25.340080 2.578078
14.561855 25.745071 3.194273
14.354069 25.965300 5.124050
14.399203 25.917462 5.616877
14.516320 25.793330 6.093815
14.386576 25.930844 6.808034
13.485314 25.895856 1.293232
13.422259 25.952761 1.685792
13.150591 26.197936 2.351770
12.729884 26.577614 2.872965
12.319967 26.947556 3.495983
12.097419 27.148399 5.348938
12.359391 26.911974 5.713431
12.350346 26.920136 6.306838
12.179326 27.074478 6.759758
11.841067 27.379749 7.626780
11.499940 26.839294 0.947977
11.513926 26.828456 1.504610
11.290583 27.001513 1.907436
10.916856 27.291094 2.413719
10.479987 27.629600 3.113244
10.264222 27.796783 5.300712
10.229740 27.823500 5.718632
10.298265 27.770403 6.297952
10.104520 27.920526 6.662798
9.330534 27.641459 1.020960
9.343477 27.633042 1.493499
9.197526 27.727949 2.060340
8.873214 27.938842 2.305536
8.413916 28.237513 3.086522
8.017813 28.495091 3.442596
7.998878 28.507402 5.114861
7.981405 28.518763 5.707964
8.042702 28.478903 6.199912
7.848766 28.605015 6.652682
7.252623 28.257338 1.099674
7.261384 28.252526 1.406614
7.028125 28.380620 2.149527
6.130060 28.873795 3.279677
5.348306 29.303096 5.293400
5.777646 29.067322 5.913474
5.844287 29.030725 6.408674
5.630890 29.147913 6.777977
5.289785 29.335231 7.452978
5.078616 28.728679 0.966841
5.177754 28.683686 1.270178
5.103707 28.717291 1.747879
4.948699 28.787639 2.317835
4.006764 29.215126 3.276190
3.548662 29.423029 5.175107
3.339062 29.518154 5.712033
3.573809 29.411615 6.091758
3.478519 29.454862 6.706535
2.845463 28.985338 1.028707
2.866626 28.977799 1.666737
2.790303 29.004987 2.059400
0.811033 29.710072 5.364105
1.062547 29.620473 5.832678
1.120113 29.599966 6.239154
0.959236 29.657275 7.045938
0.488269 29.825050 7.651809
0.892022 29.110475 1.107665
0.997796 29.080640 1.407039
1.013344 29.076253 1.792470
-0.969472 29.635535 5.555533
-0.888100 29.612583 6.136567
-1.002566 29.644869 6.661602
-1.363887 29.746785 7.420434
-1.278893 29.047172 1.255711
-1.253287 29.042155 1.887667
-3.462187 29.474898 5.663000
-3.404303 29.463558 6.068009
-3.411152 29.464899 6.664003
-3.536694 29.489494 7.103087
-4.219906 29.623342 7.744932
-3.676774 28.892481 0.894274
-3.469986 28.867987 1.192753
-3.448829 28.865480 1.744964
-5.698136 29.131905 5.511831
-5.529936 29.111982 5.990141
-5.523655 29.111237 6.672306
-5.724468 28.531391 1.122995
-5.504616 28.521946 1.666623
-5.381540 28.516659 2.127401
-7.961159 28.627471 5.539154
-7.692794 28.615942 6.003829
-7.630447 28.613263 6.407307
-7.829237 28.621802 7.036324
-8.312651 28.642568 7.728268
-7.884251 28.013014 0.904632
-7.767312 28.016900 1.452999
-7.654784 28.020639 1.749766
-7.430898 28.028079 2.204119
-7.395097 28.029268 2.749604
-9.905249 27.945850 5.603855
-9.859800 27.947360 5.921005
-9.868844 27.947059 6.516232
-10.112010 27.261055 1.153809
-9.988441 27.275658 1.784056
-9.869407 27.289725 2.162872
-9.741038 27.304895 2.621718
-9.699363 27.309819 3.168057
-12.297992 27.002717 5.806194
-12.224275 27.011428 6.299757
-12.325500 26.999465 6.913713
-13.003166 26.919380 7.641876
-12.017895 26.476640 1.093442
-11.896681 26.499759 1.723239
-11.779572 26.522095 2.101602
-11.663991 26.544140 2.395435
-11.692767 26.538651 3.331222
-14.077736 26.083755 5.815899
-13.977081 26.102953 6.484511
-14.186079 26.063089 7.028427
-14.790362 25.947832 7.562900
-14.115631 25.449317 0.813828
-14.003921 25.479658 1.364094
-13.892279 25.509980 1.745560
-13.776961 25.541301 2.124821
-13.737662 25.551975 2.755912
-13.791387 25.537382 3.312591
-16.278049 24.861983 5.466803
-16.006554 24.935723 6.022991
-16.027562 24.930017 6.531296
-15.994322 24.311897 0.915697
-15.889493 24.349070 1.300493
-15.773757 24.390110 1.848750
-15.660107 24.430411 2.228651
-15.736236 24.403414 2.537371
-18.081746 23.571684 5.672094
-17.851390 23.653369 5.965158
-17.858722 23.650769 6.564160
-17.944835 22.909402 0.998685
-17.845399 22.954215 1.298222
-17.820863 22.965272 1.932418
-17.882694 22.937406 2.489656
-19.765037 22.089074 5.800832
-19.734009 22.103057 6.031887
-19.843585 22.053673 6.557296
-20.158073 21.911940 7.493131
-19.533742 21.538102 1.055468
-19.513686 21.549032 1.689174
-19.584680 21.510341 2.078906
-21.526567 20.452070 5.288716
-21.379952 20.531971 5.769667
-21.389723 20.526645 6.365884
-21.211103 19.922866 1.068652
-21.194767 19.933468 1.621405
-21.350517 19.832377 1.934234
-21.486406 19.744176 2.586296
-23.278873 18.580755 5.344328
-22.878402 18.840684 5.874448
-22.826834 18.874155 6.280519
-22.937292 18.802460 6.718882
-23.264788 18.589895 7.390309
-22.642330 18.279276 1.129829
-22.718467 18.221314 1.268827
-22.856383 18.116320 1.915677
-22.998278 18.008297 2.315860
-23.736590 17.446231 3.348200
-24.003501 17.243034 4.950518
-24.268077 17.041616 5.494175
-24.190888 17.100378 6.162901
-24.195097 17.097173 6.759198
-24.427033 16.920604 7.411029
-24.056729 16.413127 1.327545
-24.191574 16.292933 1.805892
-24.396455 16.110313 2.294778
-24.805680 15.745551 3.069224
-24.998439 15.573735 3.577386
-25.250579 15.348990 5.091579
-25.580531 15.054888 5.561314
-25.443669 15.176879 6.127674
-25.448137 15.172896 6.722940
-25.678256 14.967780 7.285244
-25.300320 14.425966 1.109622
-25.421934 14.298650 1.754762
-25.615275 14.096244 2.158771
-25.935478 13.761030 2.752817
-26.392016 13.283090 3.290615
-26.694029 12.966918 4.912894
-26.718811 12.940973 5.419718
-26.611326 13.053496 5.811448
-26.540789 13.127339 6.478363
-26.688017 12.973209 7.020529
-27.113233 12.528059 7.553139
-26.317841 12.474059 1.069165
-26.371074 12.409155 1.542266
-26.552631 12.187800 1.859417
-26.846075 11.830031 2.533829
-27.136388 11.476079 3.137790
-27.236423 11.354114 3.640785
-27.532574 10.993043 5.681292
-27.486507 11.049207 6.173503
-27.499176 11.033760 6.681202
-27.695040 10.794961 7.243185
-27.301507 10.277220 1.286930
-27.350275 10.207561 1.677821
-27.560256 9.907627 2.341443
-27.885373 9.443234 2.860679
-28.202193 8.990692 3.481506
-28.347357 8.783340 4.909459
-28.317900 8.825415 5.314143
-28.158096 9.053676 5.864587
-28.212331 8.976207 6.559300
-28.342879 8.789733 7.012975
-28.023483 8.112694 0.961265
-28.014395 8.128102 1.516776
-28.157857 7.884853 1.919046
-28.397951 7.477759 2.424642
-28.675091 7.007853 3.209863
-28.766674 6.852568 3.454120
-28.901880 6.623315 5.562730
-28.801901 6.792835 6.214919
-28.869302 6.678551 6.650407
-29.001998 6.453556 7.476822
-28.622758 5.769046 1.082801
-28.656208 5.700356 1.732249
-28.778764 5.448691 2.142023
-28.935380 5.127083 2.821449
-29.140099 4.706697 3.262055
-29.331411 4.313842 4.892570
-29.405524 4.161652 5.151466
-29.273100 4.433579 5.884567
-29.283160 4.412919 6.395007
-29.340089 4.296018 6.836144
-29.509975 3.947159 7.511129
-28.985185 3.511143 1.251806
-29.051587 3.342285 1.736064
-29.152290 3.086198 2.230689
-29.357962 2.563181 2.839557
-29.518009 2.156185 3.631313
-29.616120 1.906690 4.895721
-29.547921 2.080116 5.553815
-29.490356 2.226501 5.945649
-29.493374 2.218825 6.540760
-29.601222 1.944570 7.190097
-29.189156 1.390338 1.268234
-29.214716 1.309153 1.663390
-29.296212 1.050299 2.241334
-29.406885 0.698770 2.748693
-29.573246 0.170360 3.368996
-29.680037 -0.168839 4.811903
-29.661365 -0.109534 5.306939
-29.544041 0.263115 5.932291
-29.592966 0.107717 6.191726
-29.610386 0.052383 7.066143
-29.775262 -0.471308 7.403814
-29.188826 -0.780289 0.947648
-29.205806 -0.853577 1.678213
-29.270160 -1.131327 1.999641
-29.352805 -1.488022 2.588973
-29.455921 -1.933073 3.197322
-29.557750 -2.372571 4.730130
-29.568894 -2.420671 5.148762
-29.484099 -2.054699 5.688277
-29.486887 -2.066732 6.280192
-29.532177 -2.262207 6.907594
-29.623325 -2.655602 7.490525
-29.033306 -3.306341 1.413921
-29.072749 -3.578634 1.988023
-29.110961 -3.842437 2.570371
-29.177479 -4.301640 3.090239
-29.202364 -4.473434 3.421053
-29.294268 -5.107898 4.983342
-29.198125 -4.444185 5.486205
-29.198419 -4.446218 6.163186
-29.233701 -4.689788 6.526177
-29.273780 -4.966471 7.262704
-28.722172 -5.667857 0.971915
-28.714200 -5.553299 1.446652
-28.719979 -5.636353 1.843860
-28.738628 -5.904340 2.425141
-28.770978 -6.369235 2.940786
-28.801219 -6.803811 3.730246
-28.840369 -7.366422 5.021847
-28.794620 -6.709004 5.437244
-28.790684 -6.652446 5.838517
-28.797276 -6.747182 6.531904
-28.819933 -7.072784 7.001986
-28.203180 -7.844254 1.279427
-28.203964 -7.736329 1.499189
-28.202733 -7.905661 2.155961
-28.200815 -8.169627 2.740455
-28.196737 -8.730928 3.271544
-28.194046 -9.101262 4.611066
-28.194641 -9.019278 5.276018
-28.196568 -8.753866 5.736560
-28.197099 -8.680794 6.222365
-28.195631 -8.882741 6.844397
-28.192806 -9.271558 7.510161
-27.500460 -10.039279 1.036207
-27.510958 -9.917177 1.679246
-27.495091 -10.101708 1.996654
-27.472270 -10.367112 2.579729
-27.423993 -10.928554 3.108173
-27.395297 -11.262265 4.801189
-27.400591 -11.200689 5.292061
-27.428692 -10.873886 5.479329
-27.428491 -10.876214 6.153648
-27.408612 -11.107403 6.602063
-27.377720 -11.466662 7.442481
-26.668529 -11.949771 1.121211
-26.655556 -12.028310 1.685853
-26.628479 -12.192241 2.343765
-26.566677 -12.566401 2.680099
-26.492471 -13.015659 3.290521
-26.453645 -13.250710 4.889205
-26.458308 -13.222480 5.117871
-26.487167 -13.047755 5.680606
-26.487362 -13.046574 6.357249
-26.452374 -13.258393 6.895737
-26.354473 -13.851111 7.513206
-25.667999 -14.020529 1.302576
-25.670741 -14.009289 1.610531
-25.628805 -14.181205 2.098216
-25.542406 -14.535403 2.689479
-25.461642 -14.866496 3.464773
-25.251568 -15.727705 4.639448
-25.284125 -15.594233 4.949095
-25.434712 -14.976890 5.191436
-25.447628 -14.923942 5.593053
-25.430774 -14.993030 6.458293
-25.373117 -15.229398 6.823781
-25.238319 -15.782007 7.618392
-24.535017 -15.922340 1.163770
-24.541516 -15.902383 1.726815
-24.490308 -16.059631 2.386229
-24.374894 -16.414045 2.810061
-24.205937 -16.932878 4.512313
-24.166099 -17.055212 5.115827
-24.264001 -16.754571 5.221076
-24.262058 -16.760538 5.896766
-24.233138 -16.849343 6.590468
-23.311136 -17.623681 1.131101
-23.280969 -17.697113 1.697415
-23.216026 -17.855198 2.272100
-23.109644 -18.114156 2.602788
-22.902506 -18.618375 4.385877
-22.777494 -18.922684 5.012729
-22.910613 -18.598639 5.379783
-22.960357 -18.477551 5.596319
-22.960463 -18.477289 6.273051
-22.835556 -18.781343 6.741299
-22.618926 -19.308669 7.535059
-21.774894 -19.491537 0.976150
-21.740934 -19.557991 1.709638
-21.656782 -19.722663 2.027854
-21.535797 -19.959413 2.611811
-21.073481 -20.864095 4.676652
-21.337030 -20.348367 5.280553
-21.351172 -20.320692 5.508885
-21.350500 -20.322005 6.183927
-21.245252 -20.527962 6.633992
-21.036946 -20.935584 7.493672
-20.215251 -21.139531 1.052053
-20.223475 -21.126020 1.527604
-20.185130 -21.189011 2.092836
-20.038665 -21.429622 2.418139
-19.958707 -21.560974 3.083953
-19.783843 -21.848236 4.756961
-19.752451 -21.899806 5.082478
-19.786409 -21.844019 5.568640
-19.720670 -21.952013 6.084236
-19.665965 -22.041881 6.690702
-19.497334 -22.318904 7.162248
-18.447572 -22.665005 1.102750
-18.398416 -22.732418 1.582449
-18.293938 -22.875698 2.069674
-18.141114 -23.085282 2.739119
-17.811802 -23.536902 4.344538
-17.651319 -23.756988 4.607500
-17.875052 -23.450159 5.234595
-17.914744 -23.395724 5.721853
-17.899759 -23.416274 6.223767
-17.763721 -23.602837 6.673725
-17.475343 -23.998320 7.357595
-16.843342 -23.879427 1.297900
-16.788745 -23.944365 1.692460
-16.675482 -24.079078 2.179191
-16.505785 -24.280914 2.762840
-15.820512 -25.095974 4.332276
-15.934334 -24.960593 4.989155
-16.215716 -24.625918 5.253520
-16.259125 -24.574287 5.739733
-16.260567 -24.572571 6.413423
-16.103679 -24.759173 6.776590
-15.779297 -25.144990 7.372719
-14.615107 -25.395788 1.161796
-14.695094 -25.315120 1.550422
-14.704561 -25.305572 1.857106
-14.527283 -25.484358 2.692491
-14.332489 -25.680809 3.023986
-14.156657 -25.858136 4.601288
-14.136518 -25.878446 5.185926
-14.235944 -25.778173 5.485009
-14.155405 -25.859396 6.085315
-14.071090 -25.944429 6.603343
-13.794700 -26.223170 7.265600
-12.653498 -26.429046 1.028239
-12.816269 -26.287982 1.498528
-12.760220 -26.336556 2.063705
-12.547167 -26.521195 2.388796
-12.345426 -26.696032 2.890386
-12.160061 -26.856676 3.571872
-11.702186 -27.253488 4.535031
-11.829826 -27.142870 5.103249
-12.178763 -26.840466 5.538933
-12.203188 -26.819298 5.765371
-12.152149 -26.863529 6.627847
-10.814902 -27.175500 1.203100
-10.755106 -27.219977 1.852470
-10.543913 -27.377068 2.517493
-10.315855 -27.546705 2.762125
-10.197200 -27.634964 3.434159
-10.169443 -27.655609 4.997586
-10.131983 -27.683472 5.409941
-10.287855 -27.567529 6.052947
-10.168791 -27.656092 6.396218
-9.863577 -27.883119 7.141445
-8.550703 -28.024010 1.338521
-8.560731 -28.017675 1.648055
-8.495952 -28.058594 2.132876
-8.356853 -28.146461 2.712056
-8.123227 -28.294038 3.046447
-7.772056 -28.515866 4.918218
-7.806146 -28.494332 5.234954
-8.197893 -28.246871 5.668066
-8.103811 -28.306300 6.269528
-7.838244 -28.474054 6.822746
-7.509768 -28.681547 7.490472
-6.052447 -28.668599 1.218271
-6.071762 -28.658655 1.782532
-5.916351 -28.738664 2.273080
-5.771907 -28.813026 2.853934
-5.527273 -28.938970 3.189726
-5.516796 -28.944362 5.016140
-5.563710 -28.920209 5.416293
-5.702180 -28.848921 5.801315
-5.417079 -28.995697 6.348240
-5.078271 -29.170123 7.095859
-4.706980 -29.361272 7.593043
-3.835666 -29.104043 0.998112
-3.941507 -29.058645 1.476152
-3.957067 -29.051971 1.871313
-3.904143 -29.074670 2.613498
-3.643569 -29.186436 2.860170
-3.432326 -29.277043 3.715756
-3.481622 -29.255897 5.101474
-3.702069 -29.161342 5.388138
-3.880415 -29.084845 6.027450
-3.471906 -29.260063 6.417809
-3.004004 -29.460757 7.007384
-1.523870 -29.286646 1.316311
-1.538423 -29.281782 1.712204
-1.462074 -29.307299 2.113313
-1.294992 -29.363141 2.522631
-1.056476 -29.442856 3.202204
-1.302912 -29.360491 5.545302
-1.395807 -29.329443 6.200117
-0.989677 -29.465178 6.680215
-0.432464 -29.651408 7.380451
0.409793 -29.321339 1.528428
0.497255 -29.344262 1.758634
0.554953 -29.359384 2.503527
0.727443 -29.404593 2.829953
0.965526 -29.466993 3.513426
1.026399 -29.482947 4.828108
0.464039 -29.335553 5.421352
0.745163 -29.409234 6.190710
1.226297 -29.535337 6.863446
1.886625 -29.708406 7.588640
2.766669 -29.195514 1.311315
2.838217 -29.208243 1.965855
2.909846 -29.220987 2.452052
3.073696 -29.250140 2.947791
3.329435 -29.295643 3.456663
2.877550 -29.215238 5.679330
3.070817 -29.249625 6.378079
3.408241 -29.309661 6.756092
4.050086 -29.423862 7.651026
4.903028 -28.913083 1.360602
4.990408 -28.922073 1.675865
5.051307 -28.928339 2.420630
5.229583 -28.946681 2.743656
5.391506 -28.963341 3.242332
4.800260 -28.902505 5.784862
7.375447 -28.413041 1.135697
7.358480 -28.412700 1.618456
7.330892 -28.412146 2.186363
7.506237 -28.415663 2.596344
7.770286 -28.420959 3.104061
7.621874 -28.417982 3.665162
7.641241 -28.418368 6.614036
9.460990 -27.789045 1.037519
9.448484 -27.789721 1.434525
9.427879 -27.790835 1.916808
9.589801 -27.782078 2.582608
9.754170 -27.773188 3.082112
9.896178 -27.765507 3.758979
9.808757 -27.770232 6.710434
10.049644 -27.757205 7.074404
11.367927 -27.031413 1.498461
11.445795 -27.021410 1.983538
11.611211 -27.000163 2.562839
11.774807 -26.979149 3.061251
11.932111 -26.958943 3.564102
12.179551 -26.927159 4.986214
11.859121 -26.968316 6.519324
11.987392 -26.951840 6.952047
12.824403 -26.844328 7.888042
13.654378 -25.986276 1.067574
13.635228 -25.990351 1.635145
13.705693 -25.975353 2.207992
13.859463 -25.942625 2.876285
14.037630 -25.904705 3.118902
13.899755 -25.934049 3.596607
14.100343 -25.891355 6.678188
14.579119 -25.789455 7.358644
15.536041 -24.905813 1.199141
15.511551 -24.912954 1.853742
15.577543 -24.893708 2.428653
15.754940 -24.841973 2.669773
15.883773 -24.804401 3.517405
16.208875 -24.709589 5.042300
15.732582 -24.848490 6.381436
16.032608 -24.760993 6.934455
16.686724 -24.570231 7.657908
17.565947 -23.519785 1.034180
17.544751 -23.527942 1.687881
17.522564 -23.536479 2.170353
17.691565 -23.471441 2.494483
17.926698 -23.380953 3.174213
17.794459 -23.431843 3.652393
17.662702 -23.482546 5.690659
18.072722 -23.324755 6.757785
18.619732 -23.114246 7.460692
19.158051 -22.201859 1.453842
19.236814 -22.164630 1.768646
19.290606 -22.139204 2.512886
19.446111 -22.065703 2.924628
19.687783 -21.951473 3.348523
19.731106 -21.930995 4.834199
19.495394 -22.042406 5.295837
19.344324 -22.113811 5.766320
19.723894 -21.934402 6.327942
20.096278 -21.758391 6.900758
20.505006 -21.565200 7.768470
20.764959 -20.709960 1.205408
20.746229 -20.720585 1.770792
20.898403 -20.634252 2.262161
21.034385 -20.557106 2.929999
21.260438 -20.428860 3.439768
21.394961 -20.352540 4.848998
21.254316 -20.432332 5.324477
21.097666 -20.521202 5.882827
21.289785 -20.412208 6.415213
21.534568 -20.273336 7.145532
21.940032 -20.043306 7.377608
22.468717 -18.891636 1.047537
22.375714 -18.954930 1.439191
22.434006 -18.915258 2.094299
22.579897 -18.815970 2.501855
22.716935 -18.722707 2.999338
22.924692 -18.581316 3.596763
22.884055 -18.608970 4.983054
22.749136 -18.700790 5.456042
22.691324 -18.740134 5.940667
22.861624 -18.624234 6.559243
23.186625 -18.403051 7.220486
23.808919 -17.170770 1.131690
23.798452 -17.179096 1.525994
23.774388 -17.198237 2.176357
23.902764 -17.096120 2.754798
24.118884 -16.924209 3.087871
24.080794 -16.954506 3.658584
24.684488 -16.474301 4.906368
24.506820 -16.615625 5.110763
24.116399 -16.926182 5.804836
24.146422 -16.902300 6.218365
24.304376 -16.776656 6.840052
24.646329 -16.504651 7.242246
24.933433 -15.432468 1.641295
24.993167 -15.377219 2.039588
25.123185 -15.256964 2.445892
25.240671 -15.148300 3.028277
25.430645 -14.972592 3.538173
25.752563 -14.674846 5.070683
25.349905 -15.047266 5.407239
25.279960 -15.111958 6.064748
25.368106 -15.030431 6.581212
25.751795 -14.675554 7.084190
26.181598 -13.272976 1.239878
26.174134 -13.281098 1.549695
26.226840 -13.223736 2.035426
26.275461 -13.170820 2.523301
26.450359 -12.980472 3.114855
26.602464 -12.814929 4.876135
26.634875 -12.779654 5.290655
26.521961 -12.902542 5.764905
26.624029 -12.791457 6.108876
26.704771 -12.703582 6.629985
26.948213 -12.438635 7.471686
27.097644 -11.283985 1.311998
27.028541 -11.371491 1.617324
27.129133 -11.244109 2.363800
27.232965 -11.112626 2.859163
27.332905 -10.986071 3.358988
27.447026 -10.841557 5.347949
27.420074 -10.875686 5.661739
27.541936 -10.721371 6.368264
27.623088 -10.618607 6.803657
27.864306 -10.313151 7.472000
27.876577 -9.102543 1.442854
27.867451 -9.116290 1.836032
27.911352 -9.050155 2.234726
28.060113 -8.826056 2.734589
28.150201 -8.690342 3.233228
28.287278 -8.483844 3.832502
28.628156 -7.970332 4.660123
28.607144 -8.001984 4.978701
28.249384 -8.540927 5.305610
28.211802 -8.597542 5.791959
28.287736 -8.483151 6.221896
28.399338 -8.315028 6.846291
28.605154 -8.004979 7.602497
28.480339 -6.990614 1.374589
28.472543 -7.004511 1.770459
28.504268 -6.947951 2.427808
28.634551 -6.715685 2.931678
29.085084 -5.912479 4.827362
28.806354 -6.409394 5.344562
28.760045 -6.491951 6.006600
28.818940 -6.386953 6.526762
28.930166 -6.188660 6.980964
29.215066 -5.680745 7.690332
28.925928 -4.844239 1.002228
28.918028 -4.861160 1.569714
28.910429 -4.877435 1.966498
28.943352 -4.806916 2.369123
29.090157 -4.492472 3.139305
29.285935 -4.073130 4.580751
29.302702 -4.037216 5.085847
29.201158 -4.254713 5.377751
29.213654 -4.227948 5.882327
29.259253 -4.130277 6.491310
29.377572 -3.876847 7.227277
29.191246 -2.512233 1.374727
29.187050 -2.523618 1.683918
29.246245 -2.362975 2.259406
29.341141 -2.105449 2.675482
29.691252 -1.155324 4.750044
29.460339 -1.781967 5.256151
29.428153 -1.869310 5.917722
29.509186 -1.649403 6.365884
29.543995 -1.554939 6.977215
29.688884 -1.161742 7.472345
29.352062 -0.346366 1.208491
29.320848 -0.452609 1.515109
29.340354 -0.386215 2.171020
29.388248 -0.223197 2.665359
29.436294 -0.059661 3.078074
29.559006 0.358016 4.774020
29.575948 0.415684 5.102882
29.501590 0.162591 5.565980
29.529605 0.257948 6.257522
29.602751 0.506915 6.534373
29.401943 2.368506 0.635382
29.295813 1.871404 1.024495
29.270991 1.755138 1.588359
29.288067 1.835124 1.988877
29.324013 2.003494 2.483090
29.355855 2.152645 3.154107
29.448203 2.585203 4.765855
29.463049 2.654743 5.008159
29.426347 2.482833 5.573074
29.426422 2.483189 6.251415
29.477592 2.722869 6.616316
29.535565 2.994412 7.354845
29.110318 4.765026 0.503447
29.044783 4.257968 1.064903
29.029915 4.142932 1.543078
29.039902 4.220208 2.028912
29.062598 4.395817 2.437514
29.094154 4.639984 3.201192
29.139260 4.988991 4.714145
29.159755 5.147571 5.054747
29.126024 4.886587 5.518784
29.127937 4.901387 6.108876
29.157724 5.131863 6.558959
29.195509 5.424220 7.207677
28.673316 6.925144 0.500741
28.645693 6.412240 1.147718
28.639586 6.298854 1.540414
28.643282 6.367493 2.197037
28.653010 6.548137 2.520620
28.672981 6.918967 2.948194
28.691904 7.270375 4.547786
28.694087 7.310923 5.049623
28.679951 7.048444 5.511997
28.681483 7.076899 6.013467
28.693290 7.296135 6.548715
28.040854 8.585559 1.369261
28.041490 8.561647 1.934882
28.039146 8.649687 2.165016
28.029632 9.007025 2.845532
28.015155 9.550688 5.370214
28.019283 9.395644 5.758988
28.016349 9.505826 6.365622
28.010636 9.720411 6.906062
27.270862 11.243229 0.530511
27.333384 10.621822 1.481812
27.325080 10.704350 1.880771
27.309339 10.860794 2.630518
27.271612 11.235752 2.971194
27.217617 11.772385 4.683508
27.211517 11.833016 5.013854
27.248933 11.461130 5.553944
27.257381 11.377166 6.129922
27.234134 11.608210 6.579787
26.376475 12.819091 1.282342
26.379849 12.800735 1.761471
26.367138 12.869881 2.331441
26.299605 13.237264 2.753632
26.217463 13.684116 3.365931
26.192829 13.818121 4.957038
26.186450 13.852823 5.461834
26.232550 13.602031 5.837158
26.228198 13.625707 6.342084
26.189365 13.836958 6.882298
26.098511 14.331206 7.483094
25.356683 14.729288 1.521103
25.361076 14.712500 1.915579
25.290666 14.981581 2.327583
25.199244 15.330962 2.925530
25.137326 15.567588 3.612750
25.122105 15.625752 4.932157
25.091066 15.744371 5.537404
25.130779 15.592597 5.927599
25.124976 15.614776 6.433784
25.053839 15.886633 7.169508
24.039930 16.799923 1.051527
24.044158 16.787937 1.448847
24.051100 16.768255 1.931221
23.930877 17.109072 2.609988
23.770238 17.564467 2.874615
23.686108 17.802964 3.479902
23.701723 17.758694 5.660122
23.750084 17.621594 5.965400
23.724341 17.694569 6.752485
22.774173 18.434663 1.260792
22.778698 18.424341 1.571013
22.673144 18.665119 2.323681
22.565695 18.910223 2.828365
22.337930 19.429780 3.277704
22.238090 19.657525 4.803657
22.267765 19.589830 5.387883
22.335374 19.435606 5.868859
22.365631 19.366584 6.362213
22.285703 19.548908 6.993088
22.071565 20.037381 7.420352
21.333443 20.080741 1.527840
21.294784 20.153543 1.926895
21.164414 20.399057 2.339649
20.898633 20.899580 2.866115
20.783476 21.116444 3.556881
20.764749 21.151707 5.060068
20.784170 21.115132 5.378718
20.822666 21.042635 5.959342
20.759267 21.162030 6.395687
19.833299 21.530244 1.357619
19.790493 21.598147 1.839968
19.692427 21.753707 2.159679
19.451907 22.135240 2.933363
19.153944 22.607894 3.471347
19.013602 22.830515 4.821688
19.053065 22.767915 5.405967
19.188864 22.552498 5.784836
19.175703 22.573373 6.292483
19.060820 22.755611 6.835030
18.862382 23.070388 7.597304
18.005761 23.080187 1.373853
17.900126 23.220776 1.945199
17.683045 23.509690 2.620736
17.396698 23.890789 2.969128
17.310019 24.006149 3.650077
17.275471 24.052126 5.738032
17.303452 24.014886 6.054572
17.172020 24.189809 6.593671
16.246270 24.350929 1.361594
16.188354 24.417160 1.671964
16.075451 24.546271 2.245065
15.767124 24.898863 2.758560
15.392989 25.326710 3.204384
15.281981 25.453653 5.393591
15.449338 25.262268 5.770488
15.432762 25.281223 6.276075
15.300429 25.432554 6.904438
15.045143 25.724489 7.576493
14.253830 25.540764 1.131710
14.261100 25.533716 1.437400
14.132402 25.658481 1.921966
13.805107 25.975778 2.687573
13.320055 26.446012 3.051273
13.303423 26.462134 5.626969
13.274544 26.490130 6.045231
13.148835 26.611998 6.848776
12.421213 26.448762 1.487745
12.284198 26.563285 1.972331
11.994642 26.805307 2.388538
11.499063 27.219531 3.181889
11.437097 27.271324 3.418710
11.351335 27.343005 5.185890
11.155727 27.506502 5.543446
11.306587 27.380407 6.198124
11.227234 27.446732 6.810776
10.545975 27.200248 1.115417
10.406104 27.300274 1.849205
10.179284 27.462480 2.256838
9.722376 27.789229 2.863035
9.267099 28.114813 3.398562
9.020113 28.291438 5.251916
9.155574 28.194565 5.733019
9.226431 28.143893 6.313674
9.039298 28.277717 6.768008
8.682661 28.532759 7.725488
8.290571 27.967115 1.480057
8.130161 28.062989 1.793529
7.908039 28.195748 2.540137
7.418177 28.488532 2.977801
6.903032 28.796425 5.011021
6.703296 28.915804 5.543446
6.849181 28.828610 6.022991
6.733591 28.897696 6.459470
6.247667 28.470046 1.240414
6.177979 28.504878 1.800648
6.013211 28.587233 2.116655
4.930363 29.128468 3.430223
4.535134 29.326012 4.971276
4.415273 29.385921 5.493334
4.543933 29.321613 5.799671
4.610451 29.288365 6.294617
4.532986 29.327084 6.997865
4.085075 29.550961 7.602791
4.077393 28.862758 0.981668
4.091311 28.857067 1.455284
4.018191 28.886959 1.933700
2.425671 29.537987 5.880611
2.391437 29.551982 6.303869
2.311700 29.584578 7.008854
2.030628 29.699481 7.578953
2.042340 29.049541 1.463888
2.054532 29.045581 1.767492
0.336115 29.603778 5.184182
0.117135 29.674910 5.718638
0.255548 29.629948 6.023333
0.154811 29.662671 6.636559
-0.353448 29.123274 0.906674
-0.239489 29.096310 1.458114
-0.129911 29.070383 1.755019
-2.343802 29.594194 5.441718
-2.141088 29.546231 6.184104
-2.270481 29.576845 6.620777
-2.497706 29.017303 1.039475
-2.284860 28.983283 1.502964
-2.173236 28.965442 1.800877
-4.403504 29.321903 5.571641
-4.390547 29.319831 6.342587
-4.505446 29.338195 6.868705
-4.823732 29.389066 7.345981
-4.630813 28.754930 0.905369
-4.414628 28.736554 1.451701
-4.290223 28.725979 1.997202
-4.168733 28.715653 2.374373
-6.619696 28.923978 5.794865
-6.572829 28.919994 6.112935
-6.564267 28.919265 6.797749
-6.762049 28.277481 1.325804
-6.550529 28.276919 1.618997
-6.523138 28.276846 2.166742
-6.493655 28.276767 2.631554
-9.013541 28.283459 5.487087
-8.943272 28.283272 5.980880
-8.866956 28.283069 6.473774
-8.845836 27.697606 1.181719
-8.735645 27.705508 1.479280
-8.615057 27.714155 1.940338
-8.478104 27.723977 2.563228
-8.525318 27.720590 3.250780
-10.952775 27.546499 5.727196
-10.893094 27.550779 6.132463
-11.095622 27.536254 6.761477
-11.484560 27.508360 7.433542
-11.024039 26.932599 0.892590
-10.911495 26.949305 1.357929
-10.702036 26.980399 1.650621
-10.551957 27.002677 2.573191
-10.609826 26.994086 3.126549
-13.090629 26.625813 5.840179
-13.003082 26.638809 6.421034
-13.206145 25.932973 0.805040
-13.096356 25.958657 1.271937
-12.883755 26.008392 1.731610
-12.758246 26.037753 2.274222
-12.722286 26.046164 2.820924
-12.775598 26.033692 3.375941
-15.281299 25.447511 5.529014
-15.172790 25.472894 6.288449
-15.204781 25.465410 6.712023
-15.489502 25.398802 7.364124
-14.962941 24.930719 1.123301
-14.857888 24.963556 1.422326
-14.730547 25.003359 2.132560
-14.713221 25.008774 2.433360
-14.777050 24.988823 2.906568
-17.215139 24.226732 5.384785
-16.972123 24.302693 5.765900
-16.888319 24.328887 6.347851
-17.078609 24.269406 6.979663
-17.587905 24.110212 7.406959
-17.042316 23.587960 1.066374
-16.937846 23.630253 1.449755
-16.822079 23.677120 1.996555
-16.806235 23.683534 2.298538
-16.869757 23.657817 2.773046
-18.907211 22.832966 5.705958
-18.826580 22.865609 6.288381
-18.934709 22.821833 6.815576
-19.248298 22.694879 7.205504
-18.753756 22.253410 0.817734
-18.652537 22.303440 1.284593
-18.542715 22.357723 1.831606
-18.622191 22.318439 2.055956
-18.765557 22.247575 2.704260
-20.651958 21.315157 5.630368
-20.510304 21.385174 6.023675
-20.516698 21.382013 6.621319
-20.406761 20.712009 1.140827
-20.395161 20.718968 1.526972
-20.547813 20.627382 2.006450
-22.322682 19.562519 5.568873
-22.187656 19.643529 5.962762
-22.218721 19.624891 6.385410
-21.972254 19.078500 1.218661
-22.032965 19.035620 1.858455
-22.175044 18.935271 2.339917
-22.938448 18.396089 3.281687
-23.547843 17.965680 4.836057
-23.739805 17.830100 5.367461
-23.602693 17.926939 5.847743
-23.552827 17.962159 6.252829
-23.692294 17.863654 7.058298
-24.274922 17.452152 7.610432
-23.528245 17.159812 1.481500
-23.668523 17.042426 1.876353
-23.870135 16.873713 2.534370
-24.297684 16.515935 3.140521
-25.005006 15.924037 5.706643
-24.969548 15.953708 6.023333
-25.051038 15.885515 6.634500
-25.264082 15.707237 7.373797
-24.663096 15.443367 1.225819
-24.796218 15.314148 1.619104
-24.987990 15.127999 2.274377
-25.319337 14.806368 2.868767
-25.802831 14.337051 3.234265
-26.196954 13.954482 4.777201
-26.215549 13.936432 5.372275
-26.076497 14.071406 6.027439
-26.041431 14.105444 6.344433
-26.195632 13.955764 6.886229
-26.685629 13.480133 7.613926
-25.812878 13.489741 0.942567
-25.803309 13.500519 1.411375
-25.991537 13.288488 1.810582
-26.299313 12.941790 2.482473
-26.665419 12.529387 3.178260
-26.785249 12.394402 3.420970
-27.086821 12.054691 5.632982
-27.030089 12.118597 6.212485
-27.108539 12.030226 6.736372
-27.313122 11.799771 7.299514
-26.896517 11.231841 1.240414
-26.945623 11.166306 1.713464
-27.116497 10.938267 2.030993
-27.335887 10.645482 2.615165
-27.720571 10.132106 3.408096
-28.065245 9.672124 4.683387
-28.088621 9.640926 5.188279
-27.922613 9.862469 5.740424
-27.878784 9.920961 6.229584
-27.990842 9.771413 6.943069
-28.311474 9.343517 7.365156
-27.705530 9.136070 1.131815
-27.798091 8.991485 1.865017
-27.950993 8.752648 2.187155
-28.244157 8.294715 3.050148
-28.544600 7.825414 3.587638
-28.684607 7.606717 4.932470
-28.656691 7.650321 5.338496
-28.492107 7.907406 6.064473
-28.564491 7.794338 6.498856
-28.358869 6.944552 1.286656
-28.355012 6.951708 1.510855
-28.529919 6.627109 2.177863
-28.755113 6.209186 2.606965
-29.015464 5.726016 3.315189
-29.179632 5.421344 4.853814
-29.191146 5.399976 5.452717
-29.075946 5.613766 5.746574
-29.040810 5.678972 6.241520
-29.128876 5.515536 6.960885
-29.374224 5.060210 7.477964
-28.800213 4.809878 0.972970
-28.791399 4.829620 1.617020
-28.942973 4.490081 2.199101
-29.134049 4.062053 2.713432
-29.362967 3.549256 3.247752
-29.500959 3.240139 4.870646
-29.525046 3.186181 5.204447
-29.376548 3.518828 5.659783
-29.381622 3.507460 6.255160
-29.429327 3.400596 6.781429
-29.587941 3.045285 7.453580
-29.106723 2.577917 1.446220
-29.137533 2.492331 1.672639
-29.193899 2.335751 2.329831
-29.383765 1.808327 2.937417
-29.570394 1.289894 3.561705
-29.651129 1.065620 5.085263
-29.641010 1.093728 5.316544
-29.537698 1.380712 6.043708
-29.559177 1.321046 6.288577
-29.223474 0.170989 1.041429
-29.217530 0.193021 1.688098
-29.288122 -0.068663 2.264469
-29.410018 -0.520529 2.777572
-29.528240 -0.958777 3.389466
-29.643794 -1.387140 4.928006
-29.630297 -1.337108 5.334723
-29.564164 -1.091956 5.712617
-29.541558 -1.008156 6.290395
-29.601538 -1.230504 6.742780
-29.698911 -1.591466 7.500883
-29.155576 -1.999582 1.028242
-29.152641 -1.984253 1.504882
-29.205743 -2.261605 1.911676
-29.255017 -2.518962 2.581066
-29.343512 -2.981168 3.013472
-29.390744 -3.227860 3.612750
-29.385714 -3.201597 5.591699
-29.390864 -3.228496 6.095106
-29.410639 -3.331781 6.703692
-29.447167 -3.522568 7.334507
-28.890116 -4.393553 1.263619
-28.899168 -4.478232 1.658765
-28.928531 -4.752902 2.151508
-28.967829 -5.120514 2.658018
-29.025306 -5.658176 3.451396
-29.051202 -5.900428 4.962457
-29.036386 -5.761838 5.265095
-29.005490 -5.472830 5.899272
-29.018500 -5.594537 6.416538
-29.039645 -5.792338 7.042231
-28.493064 -6.722039 1.088566
-28.489590 -6.615258 1.308525
-28.491954 -6.687928 1.959088
-28.500811 -6.960187 2.455149
-28.515286 -7.405115 3.232216
-28.527618 -7.784175 3.494293
-28.549293 -8.450432 4.827730
-28.526939 -7.763362 5.472973
-28.520156 -7.554890 6.206118
-28.527685 -7.786330 6.654158
-28.537230 -8.079714 7.300556
-27.865806 -8.798207 1.324929
