-0.212574 2.263301 11.217929
-0.197882 2.137457 11.372344
-0.184300 2.021108 11.472652
-0.181251 1.995042 11.644578
-0.160734 1.819413 12.194587
-0.153813 1.760280 12.704738
-0.144384 1.679421 12.530046
-0.127317 1.533326 12.976971
-0.125445 1.517343 13.152173
-0.119854 1.469647 13.781800
-0.107427 1.363203 13.894628
-0.094021 1.248423 14.180303
-0.095025 1.256966 14.013547
-0.092795 1.237993 14.419893
-0.080692 1.134326 14.536253
-0.078995 1.120000 15.174804
-0.078989 1.119946 15.179978
-0.405388 2.263334 2.837370
-0.395525 2.214582 3.164313
-0.365995 2.068532 3.712165
-0.353413 2.006339 4.094028
-0.370928 2.093034 4.141229
-0.359220 2.035214 4.781785
-0.368184 2.079658 5.197277
-0.355720 2.018054 5.629007
-0.361125 2.044848 5.837802
-0.365474 2.066473 6.357245
-0.379339 2.135179 6.762168
-0.353209 2.005929 7.156850
-0.375203 2.114782 7.138917
-0.359022 2.034809 7.729965
-0.386710 2.171894 7.960005
-0.383337 2.155281 8.380847
-0.402054 2.247927 8.414184
-0.417758 2.325669 8.502342
-0.389084 2.183940 9.469469
-0.383661 2.157120 9.586404
-0.361530 2.047688 10.091356
-0.402327 2.249603 10.083977
-0.423748 2.355617 10.056377
-0.395183 2.214385 10.777562
-0.385150 2.164783 11.059976
-0.372235 2.100939 11.453671
-0.349050 1.986209 11.555876
-0.354009 2.010719 11.395550
-0.340558 1.944233 11.847372
-0.313254 1.809150 12.119932
-0.304888 1.767811 12.462998
-0.277729 1.633457 12.796384
-0.245845 1.475785 13.473384
-0.248417 1.488484 13.309745
-0.227655 1.385735 13.365187
-0.203595 1.266711 13.650027
-0.197509 1.236687 14.172020
-0.176114 1.130829 14.346282
-0.173039 1.115704 14.813312
-0.172294 1.112052 14.992585
-0.171494 1.108175 15.408782
-0.524046 1.984672 3.343237
-0.555647 2.093356 3.338184
-0.550730 2.076485 3.609577
-0.539569 2.038144 3.935712
-0.515987 1.957099 4.372397
-0.533241 2.016489 4.736249
-0.520747 1.973608 5.374651
-0.552026 2.081185 5.363418
-0.567118 2.133148 5.775137
-0.563486 2.120699 6.093858
-0.528513 2.000507 6.744058
-0.591235 2.216222 6.705963
-0.590802 2.214777 7.020695
-0.567138 2.133472 7.610011
-0.588435 2.206730 7.701950
-0.591415 2.217026 8.013317
-0.591129 2.216092 8.378489
-0.568498 2.138353 9.071358
-0.595176 2.230112 9.101390
-0.547354 2.065737 9.824541
-0.577694 2.170081 9.796632
-0.604590 2.262590 9.824045
-0.602122 2.254175 10.344955
-0.592629 2.221549 10.515503
-0.558677 2.104869 11.183031
-0.566360 2.131273 11.022864
-0.518012 1.965047 11.455491
-0.495132 1.886435 12.018139
-0.467248 1.790533 12.010518
-0.455081 1.748735 12.352525
-0.421644 1.633756 12.515295
-0.383577 1.502879 12.849461
-0.374535 1.471830 13.195381
-0.364518 1.437441 13.655296
-0.329726 1.317835 14.053573
-0.298625 1.210901 14.283292
-0.297859 1.208278 14.346438
-0.293944 1.194867 14.753666
-0.266912 1.101881 14.641714
-0.235653 0.994460 15.280346
-0.235642 0.994425 15.286217
-0.751528 2.059643 2.605026
-0.758418 2.077315 3.243195
-0.737696 2.024384 3.361742
-0.721886 1.984025 3.689207
-0.671558 1.855502 4.238630
-0.659800 1.825497 4.565227
-0.717062 1.971809 4.706993
-0.732902 2.012324 5.124130
-0.757322 2.074725 5.224994
-0.718839 1.976463 5.767583
-0.740803 2.032622 6.177869
-0.744951 2.043247 6.441023
-0.791480 2.162149 6.680814
-0.777361 2.126124 7.106313
-0.728824 2.002197 7.862575
-0.750948 2.058738 8.009639
-0.750508 2.057653 8.376745
-0.749695 2.055577 8.384733
-0.745911 2.045952 8.805801
-0.780053 2.133229 9.249325
-0.784290 2.144049 9.202212
-0.780783 2.135139 9.673922
-0.767999 2.102546 10.309354
-0.787201 2.151630 10.557208
-0.749953 2.056526 11.116741
-0.738800 2.027990 10.720031
-0.696331 1.919559 11.393596
-0.695865 1.918368 11.401630
-0.689056 1.900984 11.520886
-0.640402 1.776702 11.737261
-0.607790 1.693453 12.417619
-0.576167 1.612650 12.301406
-0.503522 1.427152 13.258099
-0.516635 1.460611 12.867167
-0.458683 1.312624 13.546631
-0.460058 1.316132 13.495639
-0.408121 1.183512 14.181422
-0.410121 1.188609 14.072856
-0.363200 1.068813 14.821859
-0.360983 1.063185 15.173454
-0.325044 0.971354 15.062878
-0.920088 1.991687 1.952013
-0.894653 1.939869 2.495066
-0.922309 1.996292 2.814429
-0.947892 2.048469 2.922127
-0.926326 2.004522 3.249882
-0.872607 1.895024 3.743369
-0.823077 1.794069 4.237324
-0.840492 1.829595 4.396738
-0.837169 1.822866 4.927949
-0.917124 1.985914 5.012196
-0.840381 1.829484 5.722632
-0.949370 2.051723 5.636356
-0.888983 1.928643 6.287301
-0.894496 1.939908 6.550403
-0.942865 2.038565 6.844762
-0.911415 1.974481 7.381019
-0.944621 2.042202 7.474005
-0.911917 1.975565 8.062756
-0.953220 2.059792 8.098276
-0.960034 2.073713 8.408593
-0.900412 1.952179 8.912985
-0.930922 2.014443 9.466019
-0.941731 2.036476 9.363217
-0.933494 2.019724 9.889721
-0.975769 2.105932 9.918712
-0.949154 2.051686 10.201457
-0.887452 1.925929 10.927466
-0.938961 2.030958 10.842186
-0.896783 1.944999 11.402404
-0.845077 1.839571 11.505458
-0.837095 1.823305 11.624355
-0.771902 1.690396 11.952773
-0.746320 1.638269 12.408851
-0.693651 1.530884 12.573865
-0.631457 1.404096 12.967007
-0.613823 1.368178 13.428586
-0.567741 1.274215 13.485619
-0.519906 1.176680 13.600390
-0.511486 1.159537 13.894502
-0.500097 1.136360 14.418101
-0.499962 1.136085 14.425940
-0.450924 1.036119 14.775302
-0.403128 0.938708 15.358710
-1.041014 1.838020 1.472755
-1.022082 1.806414 1.749607
-1.095346 1.928818 1.906708
-1.109404 1.952330 2.283087
-1.140519 2.004333 2.602104
-1.085548 1.912535 3.039816
-1.088600 1.917649 3.256354
-0.961412 1.705234 4.027171
-0.956158 1.696478 4.297880
-0.940173 1.669800 4.623677
-0.962111 1.706479 5.042428
-0.973614 1.725712 5.254242
-1.033816 1.826301 5.501710
-1.047184 1.848648 5.711288
-1.098877 1.935026 6.010381
-1.023677 1.809455 6.715433
-1.081230 1.905622 7.008208
-1.091555 1.922890 7.267483
-1.121110 1.972273 7.415449
-1.124841 1.978530 7.727763
-1.081794 1.906666 8.369838
-1.099135 1.935656 8.624337
-1.098150 1.934009 8.631451
-1.123647 1.976650 9.239857
-1.122750 1.975152 9.246958
-1.099343 1.936097 9.883254
-1.100999 1.938900 10.352453
-1.111802 1.956939 10.249256
-1.061145 1.872352 10.753537
-1.100619 1.938306 10.889166
-1.089871 1.920360 11.006684
-0.974821 1.728222 11.774670
-0.954649 1.694545 12.058457
-0.919146 1.635218 11.826407
-0.891908 1.589746 12.223493
-0.833492 1.492168 12.328680
-0.734159 1.326295 13.227957
-0.724492 1.310163 13.460077
-0.668734 1.217026 13.571573
-0.617315 1.131128 13.569538
-0.602336 1.106141 14.032794
-0.602193 1.105903 14.037941
-0.538123 0.998914 14.613155
-0.531648 0.988145 15.251745
-0.479896 0.901705 15.429622
-1.213602 1.783962 0.982762
-1.221821 1.795478 1.365264
-1.198506 1.762916 1.856267
-1.247599 1.831567 2.123748
-1.314743 1.925449 2.334444
-1.154339 1.701254 3.105496
-1.225886 1.801290 3.310965
-1.132575 1.670864 3.651544
-1.095048 1.618427 4.035014
-1.184924 1.744084 4.179765
-1.097143 1.621405 4.783198
-1.149453 1.694555 5.089911
-1.153257 1.699909 5.615984
-1.144507 1.687698 5.937188
-1.209660 1.778782 5.923288
-1.112087 1.642425 6.685567
-1.220845 1.794474 6.756983
-1.252751 1.839088 6.906174
-1.142777 1.685405 7.829376
-1.197386 1.761751 7.864523
-1.233579 1.812383 8.369190
-1.227629 1.804094 8.788741
-1.278604 1.875335 8.464095
-1.265241 1.856685 8.937296
-1.219522 1.792820 9.685314
-1.197043 1.761405 9.857859
-1.331279 1.949061 9.742536
-1.268096 1.860763 10.244087
-1.228961 1.806076 10.581771
-1.279256 1.876394 10.662175
-1.215980 1.787974 11.275929
-1.157952 1.706850 11.266190
-1.112433 1.643248 11.773364
-1.107260 1.636019 11.835615
-1.006660 1.495416 12.388467
-0.998584 1.484134 12.507291
-0.929430 1.387467 12.671660
-0.845186 1.269724 13.120935
-0.844840 1.269240 13.127581
-0.748531 1.134660 14.037520
-0.692058 1.055706 13.981545
-0.683452 1.043694 14.274784
-0.626685 0.964331 14.219515
-0.612430 0.944453 14.974589
-0.612995 0.945239 14.923752
-1.423318 1.749703 1.215588
-1.358416 1.673516 1.602166
-1.392705 1.713799 1.925041
-1.392212 1.713247 2.356161
-1.414197 1.739084 2.729692
-1.381293 1.700466 3.056866
-1.402644 1.725548 3.217750
-1.274056 1.574594 3.876399
-1.266516 1.565756 4.146608
-1.183713 1.468557 4.695072
-1.331806 1.642454 4.668225
-1.198802 1.486320 5.436236
-1.262268 1.560862 5.738067
-1.227355 1.519892 6.169720
-1.308941 1.615708 6.410994
-1.318185 1.626579 6.672732
-1.439263 1.768759 6.744671
-1.403458 1.726744 7.224141
-1.395593 1.717531 7.592324
-1.380608 1.699959 8.014603
-1.420760 1.747116 8.159628
-1.431443 1.759679 8.469045
-1.391394 1.712665 8.696364
-1.451110 1.782813 9.138998
-1.397902 1.720354 9.476370
-1.403008 1.726374 9.891661
-1.434699 1.763603 10.139905
-1.397458 1.719889 10.420580
-1.335984 1.647734 10.923353
-1.380466 1.699978 11.111560
-1.379914 1.699331 11.116525
-1.274325 1.575365 11.493508
-1.231594 1.525215 11.944062
-1.182195 1.467199 11.767627
-1.156688 1.437264 12.052526
-1.028621 1.286932 12.889637
-0.971199 1.219498 12.771568
-0.940035 1.182935 13.286913
-0.863518 1.093099 13.511670
-0.790730 1.007638 13.681110
-0.785669 1.001702 13.800766
-0.702997 0.904656 14.317285
-0.701295 0.902661 14.380001
-0.695768 0.896186 14.615404
-0.625239 0.813388 14.964202
-1.453469 1.516634 0.880971
-1.529390 1.592125 1.096982
-1.498011 1.560955 1.587469
-1.577626 1.640117 1.799661
-1.533482 1.596249 2.128708
-1.559028 1.621678 2.713753
-1.465817 1.529038 3.206459
-1.482652 1.545771 3.157340
-1.323147 1.387236 3.873449
-1.350230 1.414170 4.032400
-1.442917 1.506327 4.230897
-1.288392 1.352746 5.000560
-1.466508 1.529818 4.915619
-1.500234 1.563370 5.329270
-1.457310 1.520720 5.759352
-1.471913 1.535266 6.278428
-1.537064 1.600040 6.318440
-1.492393 1.555655 6.799771
-1.492480 1.555759 7.114271
-1.532928 1.595980 7.261875
-1.521800 1.584956 7.989782
-1.577116 1.639955 8.079126
-1.524183 1.587365 8.718802
-1.601995 1.664722 8.695503
-1.648715 1.711177 8.837032
-1.549584 1.612655 9.393163
-1.617528 1.680204 9.422476
-1.613917 1.676640 9.890583
-1.531272 1.594508 10.447539
-1.457358 1.521055 11.006930
-1.463518 1.527177 10.957557
-1.435663 1.499496 11.185503
-1.390898 1.455014 11.580655
-1.367007 1.431275 11.809493
-1.377818 1.442017 11.704173
-1.243500 1.308519 12.367865
-1.238258 1.303311 12.430114
-1.128680 1.194399 12.932197
-1.039240 1.105496 13.212223
-0.946073 1.012895 13.608766
-0.883980 0.951154 13.436323
-0.859235 0.926582 13.957825
-0.856767 0.924132 14.020261
-0.777600 0.845439 14.250081
-0.766645 0.834571 14.658131
-0.691461 0.759837 14.891497
-0.687552 0.755974 15.301348
-1.730824 1.503019 1.150396
-1.720293 1.494298 1.585293
-1.760502 1.527697 1.907942
-1.607560 1.400762 2.724533
-1.742386 1.512703 2.821252
-1.704028 1.480874 3.147948
-1.519346 1.327572 3.653500
-1.606401 1.399846 3.647213
-1.537765 1.342885 4.084256
-1.600857 1.395281 4.394067
-1.453912 1.273320 5.107378
-1.611625 1.404259 5.134080
-1.536423 1.341865 5.935233
-1.528088 1.334961 6.254879
-1.583156 1.380684 6.351395
-1.622281 1.413190 6.812309
-1.567073 1.367382 7.349594
-1.679670 1.460857 7.221339
-1.643996 1.431264 7.700449
-1.677462 1.459058 7.902208
-1.675542 1.457482 8.268444
-1.621590 1.412722 8.909742
-1.706045 1.482838 8.884755
-1.654446 1.440034 9.576043
-1.699437 1.477396 9.769064
-1.652044 1.438063 10.050218
-1.648972 1.435539 10.572703
-1.632025 1.421475 10.688478
-1.706895 1.483636 10.712106
-1.652778 1.438726 11.103573
-1.571286 1.371104 11.773314
-1.558560 1.360544 11.889537
-1.506530 1.317336 11.658061
-1.452477 1.272485 12.165069
-1.354275 1.190966 12.381892
-1.226299 1.084748 12.995717
-1.145232 1.017448 13.048279
-1.118999 0.995689 13.450762
-1.052493 0.940465 13.277506
-0.946461 0.852461 13.789582
-0.866669 0.786218 13.846136
-0.839637 0.763813 14.599438
-0.831212 0.756842 15.065471
-0.753625 0.692430 15.127236
-0.830508 0.756261 15.133860
-1.748687 1.263900 0.982762
-1.734963 1.254485 1.420817
-1.751626 1.265959 1.801342
-1.748863 1.264080 2.234935
-1.915237 1.378466 2.280379
-1.918620 1.380812 2.709215
-1.809476 1.305798 3.201800
-1.762474 1.273489 3.320253
-1.567193 1.139255 3.828300
-1.632101 1.183895 4.141174
-1.526320 1.111195 4.690922
-1.675503 1.213764 4.776363
-1.693884 1.226424 5.248834
-1.624809 1.178957 5.737850
-1.724805 1.247716 5.982986
-1.716072 1.241728 6.302453
-1.788439 1.291498 6.653789
-1.848304 1.332659 6.749619
-1.729871 1.251271 7.506831
-1.750386 1.265388 7.765694
-1.786447 1.290189 7.968203
-1.797823 1.298025 8.280087
-1.728413 1.250338 8.977654
-1.829947 1.320140 8.900041
-1.861926 1.342138 9.152971
-1.822280 1.314911 9.789954
-1.761603 1.273211 10.129253
-1.902755 1.370262 10.288085
-1.892193 1.363004 10.350965
-1.749511 1.264952 11.296461
-1.733716 1.254099 11.415165
-1.677907 1.215751 11.866764
-1.717363 1.242862 11.541967
-1.607528 1.167360 11.757478
-1.556751 1.132471 12.211744
-1.462689 1.067808 12.319438
-1.363611 0.999699 12.484475
-1.310674 0.963333 13.110224
-1.201200 0.888087 13.503548
-1.099508 0.818189 13.843368
-1.029401 0.769979 13.613358
-1.001282 0.750674 14.191273
-0.908729 0.687056 14.479369
-0.897102 0.679088 15.002708
-0.895098 0.677718 15.180653
-0.894083 0.677029 15.358611
-0.811557 0.620294 15.421266
-1.829353 1.123575 1.410220
-1.897060 1.163006 1.893557
-1.995102 1.220080 2.105925
-1.846387 1.133546 2.656209
-1.902206 1.166050 2.974687
-1.792135 1.102006 3.468855
-1.699301 1.047983 3.699378
-1.665508 1.028328 4.027607
-1.714589 1.056912 4.394999
-1.708607 1.053442 4.665236
-1.726137 1.063667 5.139426
-1.902850 1.166523 5.167425
-1.866075 1.145135 5.543985
-1.932945 1.184073 5.899884
-1.753871 1.079883 6.771827
-1.882597 1.154801 6.646454
-1.896496 1.162903 6.907899
-1.912930 1.172480 7.167466
-1.828237 1.123214 7.812607
-1.963496 1.201948 7.987523
-1.922629 1.178186 8.517909
-1.903472 1.167057 8.992019
-1.914741 1.173633 9.354385
-1.959983 1.199955 9.141363
-1.973073 1.207591 9.502359
-1.929216 1.182095 10.191985
-2.032455 1.242181 10.109923
-1.917863 1.175513 10.777131
-1.831704 1.125365 10.766293
-1.755367 1.080956 11.272699
-1.716297 1.058228 11.558049
-1.722704 1.061955 11.509804
-1.646453 1.017601 12.130180
-1.559912 0.967230 12.124748
-1.512381 0.939586 12.580985
-1.395156 0.871371 12.915878
-1.285908 0.807796 13.197154
-1.261842 0.793804 13.545251
-1.175168 0.743356 13.545517
-1.068867 0.681499 13.889356
-1.055163 0.673536 14.183437
-0.957939 0.616960 14.473973
-0.955919 0.615788 14.539176
-0.857626 0.558602 15.121364
-0.858208 0.558939 15.071233
-1.898631 0.942890 1.049168
-2.052838 1.014921 1.154481
-2.095744 1.034976 1.478934
-1.955855 0.969667 2.186759
-2.006898 0.993513 2.294935
-2.062133 1.019325 2.613494
-1.844352 0.917635 3.327829
-1.923263 0.954495 3.377525
-1.861546 0.925685 3.759194
-1.827365 0.909733 4.084908
-1.796890 0.895513 4.409999
-1.917472 0.951843 4.606766
-1.955871 0.969796 5.022776
-1.837356 0.914466 5.620759
-1.768254 0.882211 6.107868
-1.936214 0.960664 6.183272
-2.032386 1.005597 6.478609
-2.028686 1.003882 6.793731
-1.931498 0.958515 7.439145
-2.000271 0.990642 7.531095
-1.993292 0.987398 7.898112
-2.019728 0.999756 8.153598
-2.034597 1.006715 8.463019
-2.039710 1.009119 8.826219
-2.074499 1.025378 9.077972
-2.040860 1.009692 9.658432
-1.930534 0.958185 10.217201
-2.070856 1.023715 9.968761
-2.037556 1.008169 10.140551
-2.025929 1.002763 10.717703
-2.015505 0.997897 10.779500
-1.858866 0.924779 11.837488
-1.872743 0.931256 11.731267
-1.740197 0.869361 12.056060
-1.760227 0.878710 11.893533
-1.587565 0.798094 12.613453
-1.465290 0.740996 12.945870
-1.450533 0.734111 13.120155
-1.369356 0.696190 13.002658
-1.264689 0.647310 13.168941
-1.243190 0.637281 13.458680
-1.108357 0.574337 14.257767
-1.094472 0.567869 14.664049
-1.101438 0.571113 14.439601
-0.999520 0.523527 14.843677
-0.993185 0.520596 15.487077
-2.055481 0.816510 1.293599
-2.047107 0.813413 1.515780
-2.067230 0.820892 1.895281
-2.038637 0.810308 2.382918
-2.018493 0.802857 2.868190
-2.124457 0.842156 2.865535
-2.077866 0.824890 3.193179
-1.974908 0.786716 3.422305
-1.934996 0.771928 3.749872
-1.915537 0.764733 4.284028
-1.863675 0.745515 4.665236
-2.011394 0.800305 4.806397
-2.011962 0.800537 5.332727
-2.015088 0.801708 5.597112
-1.937083 0.772811 6.393651
-1.950362 0.777747 6.655182
-2.091117 0.829943 6.528770
-2.035627 0.809383 7.009288
-1.972402 0.785958 7.544483
-2.165660 0.857631 7.555403
-2.174251 0.860830 7.865969
-2.171560 0.859846 8.230270
-2.159790 0.855499 8.648249
-2.078110 0.825238 9.395318
-2.084303 0.827552 9.810418
-2.118040 0.840057 9.651548
-2.161707 0.856262 9.900030
-2.134436 0.846174 10.531839
-2.084409 0.827632 10.813748
-2.028482 0.806905 11.151502
-2.010110 0.800097 11.268582
-1.959881 0.781482 11.607353
-1.921122 0.767120 11.891273
-1.834766 0.735091 11.828214
-1.759409 0.707169 12.448768
-1.647620 0.665718 12.612137
-1.536808 0.624628 12.776988
-1.483112 0.604740 13.404970
-1.389151 0.569893 13.403750
-1.295188 0.535046 13.402581
-1.171412 0.489160 13.859377
-1.138760 0.477082 14.611179
-1.138559 0.477008 14.617900
-1.048280 0.443522 14.506349
-1.036456 0.439156 14.973690
-1.033005 0.437888 15.266144
-2.260004 0.663743 1.039595
-2.128133 0.628112 1.694701
-2.095576 0.619328 2.182656
-2.180343 0.642260 2.447490
-2.101070 0.620840 2.830832
-2.001605 0.593962 3.269494
-2.034503 0.602864 3.430529
-1.993899 0.591898 3.757243
-2.005391 0.595014 3.972324
-2.036427 0.603423 4.393201
-1.873900 0.559502 5.050707
-1.921642 0.572428 5.466350
-2.161848 0.637376 5.380774
-1.984081 0.589339 6.142871
-1.995085 0.592325 6.406008
-2.063277 0.610780 6.811445
-2.116323 0.625130 6.961165
-2.050052 0.607232 7.496880
-2.173601 0.640637 7.423627
-2.116655 0.625260 7.956553
-2.145273 0.633009 8.212403
-2.284102 0.670557 8.438903
-2.207114 0.649767 9.130831
-2.166028 0.638665 9.303133
-2.135102 0.630326 9.884332
-2.275462 0.668271 9.693230
-2.137253 0.630926 10.358704
-2.220269 0.653377 10.438577
-2.119603 0.626179 10.994820
-2.082150 0.616061 11.221048
-2.072474 0.613447 11.281548
-2.037494 0.603998 11.508201
-1.989049 0.590912 11.846162
-1.842346 0.551259 12.227886
-1.759778 0.528927 12.108550
-1.731941 0.521409 12.338063
-1.581148 0.480655 12.838708
-1.422999 0.437921 13.571428
-1.407787 0.433817 13.803998
-1.394582 0.430256 14.036699
-1.294990 0.403328 14.093708
-1.187842 0.374365 14.323150
-1.171216 0.369890 14.844635
-1.073376 0.343436 14.905307
-1.067933 0.341988 15.486627
-2.115069 0.456886 1.379524
-2.223221 0.477611 1.593898
-2.216783 0.476395 2.026804
-2.329569 0.498007 2.237513
-2.056110 0.445657 3.007064
-2.176325 0.468692 3.212577
-2.146692 0.463019 3.275127
-1.928490 0.421251 3.990584
-2.015137 0.437850 4.038242
-1.977838 0.430728 4.625243
-2.042400 0.443099 4.726495
-2.042010 0.443045 5.253168
-2.093751 0.452972 5.665637
-1.980009 0.431209 6.262266
-2.142961 0.462427 6.392007
-2.252482 0.483405 6.377317
-2.228522 0.478830 6.747468
-2.104806 0.455160 7.448008
-2.179389 0.469450 7.539932
-2.139856 0.461897 8.017410
-2.342276 0.500670 8.025539
-2.341626 0.500560 8.388783
-2.360504 0.504188 8.695924
-2.260398 0.485029 9.086780
-2.287588 0.490249 9.392213
-2.330771 0.498530 9.641376
-2.220997 0.477543 10.658086
-2.276320 0.488150 10.903055
-2.356767 0.503542 10.470709
-2.283740 0.489570 10.861410
-2.216684 0.476741 11.253219
-2.206672 0.474826 11.314998
-2.033518 0.441678 11.804314
-1.863006 0.409038 12.354887
-1.836675 0.404004 12.585295
-1.744535 0.386352 12.524835
-1.622028 0.362895 12.745914
-1.599160 0.358524 12.978512
-1.428123 0.325800 13.940984
-1.437949 0.327676 13.777361
-1.339571 0.308832 13.776739
-1.219064 0.285765 14.177169
-1.195004 0.281183 14.871076
-1.200790 0.282283 14.647471
-1.091437 0.261360 15.226098
-2.278551 0.275192 1.555402
-2.300548 0.277370 1.933495
-2.355079 0.282738 2.043087
-2.299420 0.277285 2.582554
-2.273895 0.274785 2.855213
-2.278037 0.275201 3.072219
-2.037460 0.251558 3.577483
-2.047668 0.252570 3.793679
-1.980058 0.245945 4.438706
-2.112362 0.258966 4.636189
-1.995160 0.247460 5.181806
-2.106704 0.258431 5.171298
-2.093748 0.257179 5.750906
-2.235297 0.271109 5.939926
-2.284745 0.275978 6.092616
-2.256053 0.273171 6.464621
-2.289918 0.276522 6.977922
-2.345360 0.281981 7.126966
-2.263427 0.273945 7.714640
-2.226357 0.270317 8.191505
-2.279699 0.275586 8.748155
-2.359475 0.283436 8.836175
-2.358017 0.283293 8.841746
-2.315915 0.279174 9.420759
-2.372813 0.284778 9.613959
-2.468470 0.294188 9.642133
-2.335756 0.281158 10.250115
-2.345976 0.282181 10.714253
-2.344931 0.282079 10.719828
-2.313639 0.279008 10.890174
-2.211050 0.268941 11.501558
-2.078418 0.255904 11.713498
-2.053824 0.253491 11.885633
-1.988349 0.247071 12.391679
-1.909379 0.239297 12.217851
-1.745656 0.223215 12.772347
-1.608286 0.209719 13.162970
-1.607782 0.209670 13.168709
-1.484863 0.197591 13.449432
-1.468068 0.195948 13.682369
-1.347552 0.184107 14.023697
-1.326498 0.182054 14.486289
-1.217931 0.171387 14.775175
-1.217782 0.171373 14.781001
-1.112463 0.161025 15.072219
-2.164941 0.082350 0.967202
-2.328380 0.084743 1.287214
-2.317101 0.084595 1.720557
-2.518896 0.087537 1.768282
-2.226581 0.083308 2.534924
-2.428877 0.086257 2.578610
-2.187029 0.082762 3.290668
-2.300034 0.084408 3.286427
-2.113705 0.081709 3.680546
-2.266251 0.083936 3.827215
-2.131235 0.081991 4.372860
-2.239852 0.083583 4.625590
-2.327721 0.084875 4.931245
-2.281921 0.084222 5.306745
-2.168876 0.082609 6.158639
-2.274422 0.084158 6.454939
-2.269753 0.084102 6.770918
-2.232725 0.083579 7.196122
-2.254585 0.083908 7.454840
-2.262224 0.084031 7.767573
-2.355602 0.085393 7.804185
-2.339735 0.085192 8.581060
-2.264328 0.084104 8.863661
-2.373483 0.085693 8.841532
-2.397976 0.086062 9.148077
-2.337501 0.085208 9.837135
-2.470516 0.087140 9.702314
-2.384046 0.085896 10.093000
-2.336713 0.085215 10.320058
-2.358151 0.085543 10.731192
-2.278331 0.084398 11.178559
-2.240798 0.083860 11.406527
-2.248461 0.083970 11.358925
-2.113713 0.082016 11.572059
-2.087761 0.081644 11.746004
-1.998574 0.080371 12.420603
-1.849310 0.078214 12.864058
-1.860293 0.078370 12.757325
-1.627598 0.074993 13.080435
-1.585655 0.074402 13.594544
-1.498264 0.073123 13.422377
-1.473587 0.072777 13.768482
-1.348049 0.070966 14.223944
-1.242814 0.069437 14.339273
-1.221035 0.069152 15.147614
-1.219279 0.069137 15.439875
-1.219277 0.069138 15.445254
-1.219276 0.069138 15.450633
-2.403622 -0.113820 1.152171
-2.541960 -0.123296 1.313025
-2.353541 -0.110359 1.861167
-2.351087 -0.110174 2.291959
-2.383379 -0.112373 2.665499
-2.250609 -0.103254 3.157422
-2.336675 -0.109151 3.208684
-2.201374 -0.099866 3.491645
-2.134663 -0.095278 3.873159
-2.116587 -0.094018 4.405323
-2.296304 -0.106334 4.492603
-2.198386 -0.099603 4.980252
-2.290200 -0.105885 5.283951
-2.342699 -0.109467 5.694885
-2.390788 -0.112757 5.848050
-2.220699 -0.101069 6.605049
-2.275695 -0.104821 7.063062
-2.386117 -0.112390 7.047250
-2.336597 -0.108978 7.524065
-2.395500 -0.113009 7.670479
-2.438655 -0.115960 7.870871
-2.373822 -0.111493 8.453473
-2.408357 -0.113850 8.705981
-2.488327 -0.119328 8.793337
-2.379971 -0.111868 9.645232
-2.539961 -0.122844 9.401748
-2.461534 -0.117455 9.736047
-2.473521 -0.118261 10.146928
-2.449254 -0.116593 10.263091
-2.351165 -0.109850 10.763145
-2.339760 -0.109066 10.824928
-2.289721 -0.105625 11.106732
-2.200116 -0.099461 11.665028
-2.151892 -0.096142 12.003678
-2.022986 -0.087298 12.219522
-1.864632 -0.076425 12.717094
-1.820296 -0.073368 13.172254
-1.752294 -0.068720 12.832947
-1.620298 -0.059659 13.168709
-1.484466 -0.050331 13.621125
-1.469082 -0.049267 13.855501
-1.359211 -0.041730 14.027710
-1.338131 -0.040267 14.491644
-1.324240 -0.039294 15.013031
-1.326249 -0.039436 14.905875
-1.320942 -0.039056 15.313098
-2.466729 -0.346097 1.205704
-2.543684 -0.358489 1.474422
-2.448028 -0.343049 2.068143
-2.361371 -0.329067 2.449988
-2.417743 -0.338148 2.557446
-2.320166 -0.322396 3.202032
-2.224628 -0.306981 3.637221
-2.196076 -0.302377 3.699291
-2.182584 -0.300191 3.968789
-2.214229 -0.305275 4.388285
-2.298546 -0.318853 4.694802
-2.183629 -0.300310 5.235997
-2.277644 -0.315451 5.537408
-2.272903 -0.314664 6.110886
-2.383070 -0.332421 6.097651
-2.371657 -0.330557 6.720302
-2.425366 -0.339207 6.869267
-2.279070 -0.315611 7.315014
-2.319045 -0.322046 7.517198
-2.325971 -0.323136 8.186067
-2.418877 -0.338108 8.220638
-2.320244 -0.322182 8.966547
-2.250214 -0.310884 9.248464
-2.440380 -0.341547 8.895779
-2.408643 -0.336394 9.879634
-2.431353 -0.340058 9.777053
-2.478420 -0.347634 10.024057
-2.412203 -0.336928 10.870362
-2.381944 -0.332045 11.041490
-2.399961 -0.334953 10.938788
-2.333703 -0.324258 11.329441
-2.244472 -0.309879 11.262904
-2.159521 -0.296165 11.819586
-2.158849 -0.296057 11.824338
-1.994796 -0.269597 12.315147
-1.955904 -0.263315 12.654093
-1.863344 -0.248399 12.592069
-1.729838 -0.226868 12.922995
-1.615291 -0.208400 13.087496
-1.546068 -0.197205 14.054068
-1.444276 -0.180797 14.110442
-1.435945 -0.179447 14.285956
-1.326090 -0.161730 14.571975
-1.324105 -0.161408 14.634014
-1.216957 -0.144125 14.979982
-1.215107 -0.143822 15.099654
-1.212850 -0.143447 15.391463
-2.381884 -0.537813 1.703596
-2.290702 -0.515204 2.088330
-2.457890 -0.556626 2.190417
-2.346448 -0.528995 2.627600
-2.374921 -0.536044 2.790732
-2.386637 -0.538930 3.216284
-2.367667 -0.534219 3.486967
-2.020763 -0.448231 4.267324
-2.153428 -0.481105 4.205424
-2.119326 -0.472632 4.790625
-2.228204 -0.499600 5.041478
-2.254117 -0.506002 5.509902
-2.300024 -0.517371 5.663354
-2.317524 -0.521686 6.180317
-2.363686 -0.533106 6.638765
-2.272893 -0.510586 7.226514
-2.397834 -0.541547 7.155177
-2.435784 -0.550942 7.357228
-2.422637 -0.547655 8.078631
-2.467940 -0.558887 7.921951
-2.333779 -0.525610 8.776409
-2.384099 -0.538071 8.973109
-2.503850 -0.567746 8.896208
-2.394822 -0.540713 9.339749
-2.412277 -0.545024 9.697831
-2.412033 -0.544945 10.163577
-2.390021 -0.539465 10.791501
-2.408688 -0.544095 10.689200
-2.339739 -0.526995 11.079380
-2.311338 -0.519951 11.250971
-2.267245 -0.509014 11.532663
-2.274518 -0.510818 11.484785
-2.084957 -0.463822 12.139703
-1.980835 -0.438020 12.189539
-1.922687 -0.423592 12.697858
-1.777683 -0.387642 13.198536
-1.781884 -0.388685 13.149697
-1.679758 -0.363378 13.204315
-1.530663 -0.326406 13.938366
-1.551541 -0.331592 13.606037
-1.432937 -0.302191 13.947201
-1.301492 -0.269587 14.805426
-1.295380 -0.268058 15.155692
-1.293825 -0.267663 15.391692
-1.295923 -0.268195 15.109700
-2.279066 -0.717690 1.181931
-2.352392 -0.742496 1.452018
-2.399780 -0.758521 1.774887
-2.257348 -0.710295 2.267515
-2.394358 -0.756659 2.422557
-2.368241 -0.747809 2.694408
-2.227553 -0.700163 3.448006
-2.199334 -0.690609 3.510717
-2.232570 -0.701852 3.670983
-2.119073 -0.663408 4.421911
-2.335002 -0.736489 4.400040
-2.153756 -0.675118 5.105819
-2.180415 -0.684122 5.573528
-2.234536 -0.702422 5.982879
-2.301035 -0.724924 6.080531
-2.236467 -0.703052 6.561207
-2.304981 -0.726236 6.656948
-2.256480 -0.709789 7.440844
-2.360950 -0.745147 7.424218
-2.448830 -0.774888 7.462396
-2.424465 -0.766625 7.881071
-2.292058 -0.721777 8.735944
-2.437759 -0.771097 8.551340
-2.471205 -0.782406 8.802898
-2.417220 -0.764109 9.434108
-2.453236 -0.776305 9.278361
-2.445459 -0.773654 9.744675
-2.435572 -0.770286 10.261443
-2.465255 -0.780318 10.613068
-2.444529 -0.773299 10.727229
-2.340770 -0.738180 10.768642
-2.215597 -0.695784 11.541682
-2.198899 -0.690128 11.657040
-2.112369 -0.660815 12.323812
-2.159697 -0.676849 11.943087
-2.010688 -0.626399 12.377811
-1.891488 -0.586048 12.594011
-1.785173 -0.550062 12.700259
-1.738240 -0.534157 13.209926
-1.643422 -0.502066 13.206734
-1.700548 -0.521379 13.725960
-1.696704 -0.520075 13.787610
-1.468682 -0.442868 14.630069
-1.282800 -0.379961 14.515073
-1.181174 -0.345557 14.746496
-1.172226 -0.342500 15.440548
-1.172273 -0.342514 15.503528
-2.257246 -0.924482 1.296880
-2.273963 -0.931723 1.675180
-2.242134 -0.917885 2.160665
-2.295944 -0.941231 2.479711
-2.481134 -1.021622 2.524910
-2.324431 -0.953582 2.858588
-2.109644 -0.860311 3.567693
-2.165771 -0.884672 3.672700
-2.213985 -0.905586 4.036408
-2.135989 -0.871698 4.726594
-2.112736 -0.861591 5.045995
-2.300962 -0.943300 5.073139
-2.162712 -0.883257 5.718489
-2.331874 -0.956688 5.796127
-2.339404 -0.959946 6.055410
-2.206553 -0.902245 6.751143
-2.189441 -0.894801 7.117962
-2.428944 -0.998777 6.968826
-2.366350 -0.971583 7.495150
-2.374245 -0.974997 7.802775
-2.370934 -0.973544 8.163650
-2.358555 -0.968153 8.577724
-2.459350 -1.011910 8.555521
-2.364088 -0.970540 8.941514
-2.375693 -0.975562 9.298348
-2.335287 -0.957995 9.926024
-2.370080 -0.973086 10.225065
-2.379521 -0.977187 10.176155
-2.337138 -0.958779 10.399606
-2.349038 -0.963925 10.860224
-2.312272 -0.947955 11.083945
-2.131264 -0.869353 11.676381
-2.158042 -0.880956 12.190693
-2.100485 -0.855982 11.907790
-2.001870 -0.813170 11.954828
-1.807148 -0.728600 12.893265
-1.811792 -0.730619 12.843146
-1.725289 -0.693070 12.782692
-1.594310 -0.636192 13.228064
-1.589478 -0.634091 13.290085
-1.459946 -0.577837 13.853876
-1.350897 -0.530483 14.195304
-1.337658 -0.524722 14.543100
-1.335705 -0.523871 14.606456
-1.324432 -0.518953 15.182177
-1.232646 -0.479108 15.187619
-1.231558 -0.478628 15.365568
-2.379356 -1.215239 1.495332
-2.215957 -1.127802 2.041040
-2.220088 -1.129983 2.679474
-2.349320 -1.199112 2.832473
-2.400346 -1.226404 2.939652
-2.231054 -1.135821 3.328105
-2.169601 -1.102929 3.706946
-2.069608 -1.049414 4.195319
-2.100531 -1.065938 4.613250
-2.177623 -1.107167 4.918682
-2.199194 -1.118686 5.385397
-2.209762 -1.124317 5.903381
-2.363479 -1.206559 5.729504
-2.351129 -1.199938 6.044574
-2.205663 -1.122085 6.794523
-2.237351 -1.139028 6.998568
-2.231064 -1.135636 7.668506
-2.343113 -1.195581 7.597393
-2.336690 -1.192129 7.960561
-2.362530 -1.205942 8.213931
-2.417690 -1.235445 8.357855
-2.211423 -1.125059 9.233853
-2.272102 -1.157514 9.372802
-2.310793 -1.178202 9.619694
-2.330329 -1.188638 9.973923
-2.404867 -1.228510 10.055461
-2.324123 -1.185295 10.495399
-2.332655 -1.189861 10.447003
-2.223759 -1.131576 11.106550
-2.231244 -1.135583 11.057932
-2.151179 -1.092725 11.610714
-2.121709 -1.076950 11.835964
-2.040692 -1.033611 11.772692
-1.945879 -0.982852 12.606316
-1.852224 -0.932747 12.656738
-1.728920 -0.866766 13.042372
-1.645318 -0.822045 12.983092
-1.514896 -0.752248 13.542690
-1.525961 -0.758174 13.379838
-1.406145 -0.694054 13.887272
-1.291328 -0.632603 14.513091
-1.291132 -0.632497 14.519315
-1.286087 -0.629791 14.696274
-1.277910 -0.625396 15.157934
-1.276686 -0.624733 15.334980
-1.188282 -0.577435 15.455103
-2.202392 -1.387837 1.413223
-2.294203 -1.448217 1.626255
-2.093945 -1.316463 2.278919
-2.167821 -1.365044 2.541874
-2.107086 -1.325067 3.129816
-2.179160 -1.372473 3.180995
-2.097783 -1.318926 3.613173
-2.043418 -1.283148 3.990599
-2.131023 -1.340761 4.244064
-2.200617 -1.386523 4.549899
-2.081723 -1.308290 5.141233
-2.100892 -1.320890 5.349965
-2.163422 -1.362004 5.703515
-2.151764 -1.354321 6.018787
-2.305884 -1.455693 6.096418
-2.201112 -1.386747 6.734116
-2.124726 -1.336475 7.317786
-2.187568 -1.377807 7.410103
-2.207641 -1.390999 7.664875
-2.123188 -1.335416 8.354006
-2.240967 -1.412893 8.225376
-2.205542 -1.389568 8.748104
-2.309164 -1.457731 8.672836
-2.247096 -1.416891 8.950642
-2.316436 -1.462478 9.439748
-2.161976 -1.360841 10.260804
-2.290848 -1.445620 10.017182
-2.269986 -1.431892 10.132480
-2.162166 -1.360915 11.353475
-2.191821 -1.380431 11.142777
-2.183019 -1.374639 11.204191
-2.047789 -1.285670 11.577337
-1.958007 -1.226578 12.352835
-1.897785 -1.186976 12.126999
-1.868033 -1.167393 12.410099
-1.716561 -1.067723 13.182970
-1.650314 -1.024158 12.956255
-1.549314 -0.957713 13.176196
-1.525931 -0.942316 13.518268
-1.449533 -0.892069 13.403601
-1.321442 -0.807775 14.250359
-1.330769 -0.813920 14.029288
-1.231494 -0.748601 14.427517
-1.298695 -0.792764 15.287568
-1.220755 -0.741518 14.837022
-1.214743 -0.737537 15.411940
-2.166109 -1.629938 1.223792
-2.206425 -1.661469 1.335739
-2.103526 -1.580944 1.982722
-2.170091 -1.633002 2.248187
-1.993292 -1.494667 2.900377
-2.025023 -1.519470 3.270147
-2.134517 -1.605126 3.213698
-1.977307 -1.482115 3.863860
-2.077952 -1.560835 4.064730
-1.975085 -1.480340 4.604322
-2.043623 -1.533940 4.909516
-2.006919 -1.505210 5.283211
-2.059888 -1.546640 5.383552
-2.036440 -1.528267 6.009208
-2.102057 -1.579579 6.359153
-2.112215 -1.587512 6.618472
-1.991589 -1.493129 7.062324
-2.049785 -1.538649 7.156820
-2.197120 -1.653900 7.228132
-2.120868 -1.594219 7.861533
-2.081387 -1.563310 8.385977
-2.192172 -1.649978 8.258344
-2.147777 -1.615222 8.833748
-2.145415 -1.613354 9.245430
-2.220379 -1.671993 9.277053
-2.147030 -1.614596 9.663003
-2.193119 -1.650641 9.855118
-2.203952 -1.659095 10.262050
-2.159376 -1.624211 10.539867
-2.141557 -1.610266 10.655614
-2.077595 -1.560209 11.097318
-2.054588 -1.542204 11.267969
-1.945172 -1.456566 12.203532
-1.926907 -1.442305 11.649447
-1.804635 -1.346638 12.027483
-1.735538 -1.292551 12.752998
-1.680980 -1.249886 12.472480
-1.600515 -1.186889 13.536302
-1.531823 -1.133162 13.368768
-1.445863 -1.065914 13.480558
-1.418954 -1.044839 13.993690
-1.347911 -0.989273 13.826537
-1.251783 -0.914056 14.224463
-1.234351 -0.900389 14.855770
-1.229074 -0.896235 15.373981
-2.030330 -1.810924 1.612726
-1.960829 -1.746541 1.992904
-2.065908 -1.843842 2.148729
-1.965303 -1.750640 2.843713
-1.994662 -1.777808 3.211156
-1.895393 -1.685865 3.489749
-1.846358 -1.640435 3.866636
-1.929154 -1.717109 3.860984
-1.845301 -1.639417 4.604108
-1.995077 -1.778118 4.636125
-1.843458 -1.637669 5.389240
-1.867937 -1.660313 5.851545
-2.064691 -1.842527 5.713579
-1.936610 -1.723876 6.460200
-1.989555 -1.772902 6.555108
-1.932800 -1.720316 7.083478
-2.083581 -1.859947 7.099895
-2.085981 -1.862153 7.407830
-2.033608 -1.813641 7.630656
-2.029277 -1.809592 8.344326
-2.075926 -1.852784 8.486486
-1.998693 -1.781241 8.871850
-2.016993 -1.798173 9.174550
-2.096915 -1.872186 9.151890
-2.052569 -1.831083 9.829784
-2.024874 -1.805427 9.998788
-2.036791 -1.816441 10.404999
-2.043892 -1.823019 10.357682
-1.958557 -1.743962 10.960604
-1.936520 -1.723546 11.130455
-1.877043 -1.668440 11.627541
-1.791656 -1.589361 11.728868
-1.751623 -1.552268 12.117933
-1.730539 -1.532731 12.342738
-1.652328 -1.460301 12.390681
-1.542611 -1.358672 12.827687
-1.522391 -1.339933 13.110616
-1.421830 -1.246784 13.553500
-1.345390 -1.175993 13.607296
-1.339419 -1.170457 13.724644
-1.250994 -1.088552 14.061428
-1.244553 -1.082579 14.235798
-1.164036 -1.008003 14.462882
-1.155105 -0.999711 14.864852
-1.151077 -0.995962 15.210241
-1.803383 -1.897219 1.387749
-1.836455 -1.933375 1.710053
-1.832597 -1.929143 1.928454
-1.850589 -1.948802 2.301699
-1.816034 -1.910974 2.835230
-1.873616 -1.973954 2.888058
-1.715971 -1.801482 3.592049
-1.835493 -1.932210 3.685304
-1.742078 -1.830001 4.224251
-1.817809 -1.912836 4.218557
-1.825633 -1.921367 4.686969
-1.838371 -1.935287 4.896719
-1.810289 -1.904535 5.523148
-1.757085 -1.846313 6.002185
-1.895196 -1.997378 6.026517
-1.875305 -1.975600 6.391774
-1.859003 -1.957748 6.756137
-1.858576 -1.957263 7.065358
-1.860711 -1.959580 7.373508
-1.787279 -1.879221 8.060345
-1.883631 -1.984618 7.932325
-1.861407 -1.960283 8.399298
-1.891145 -1.992776 8.998736
-1.909139 -2.012440 9.299405
-1.846773 -1.944202 9.683957
-1.946000 -2.052747 9.496777
-1.935351 -2.041070 10.010149
-1.934476 -2.040112 10.016045
-1.857659 -1.956059 10.562289
-1.808516 -1.902284 10.947873
-1.788292 -1.880153 11.116859
-1.768842 -1.858869 11.286045
-1.705686 -1.789754 11.892033
-1.705114 -1.789127 11.898011
-1.576425 -1.648327 12.604569
-1.571827 -1.643294 12.665665
-1.474060 -1.536330 13.103532
-1.409993 -1.466257 13.044797
-1.346015 -1.396282 12.985684
-1.258136 -1.300140 13.318589
-1.245936 -1.286782 13.549184
-1.228125 -1.267278 13.948471
-1.154263 -1.186478 14.118075
-1.132865 -1.163017 15.084263
-1.064440 -1.088167 15.202486
-1.066494 -1.090426 14.981819
-1.064362 -1.088081 15.214894
-1.621810 -2.052053 1.595823
-1.689231 -2.140841 1.807433
-1.775268 -2.254151 1.963902
-1.723246 -2.185595 2.549358
-1.707643 -2.165026 2.817521
-1.565527 -1.977798 3.519566
-1.571562 -1.985733 3.732307
-1.533431 -1.935485 4.108075
-1.586771 -2.005737 4.155706
-1.665800 -2.109815 4.352741
-1.564663 -1.976548 5.253163
-1.659590 -2.101586 5.134489
-1.646988 -2.084967 5.449791
-1.630354 -2.063018 6.071508
-1.693570 -2.146262 6.364308
-1.713467 -2.172456 6.566865
-1.644987 -2.082218 7.201286
-1.606510 -2.031506 7.727103
-1.671226 -2.116724 8.062960
-1.728047 -2.191561 8.097811
-1.682982 -2.132165 8.725879
-1.727150 -2.190356 8.462034
-1.679279 -2.127261 9.142829
-1.736914 -2.203171 9.173792
-1.754245 -2.225978 9.473632
-1.773754 -2.251655 9.772048
-1.743513 -2.211810 9.993726
-1.661514 -2.103765 10.648629
-1.720342 -2.181247 10.672252
-1.695180 -2.148093 10.892998
-1.671210 -2.116506 11.114106
-1.659432 -2.100986 11.227119
-1.567105 -1.979360 11.541884
-1.510047 -1.904165 12.202249
-1.410377 -1.772854 12.744425
-1.417344 -1.782036 12.638987
-1.312039 -1.643288 13.407938
-1.278794 -1.599532 12.904089
-1.251300 -1.563287 13.409492
-1.183032 -1.473360 13.574032
-1.105052 -1.370622 14.020911
-1.090978 -1.352052 14.531791
-1.090874 -1.351915 14.536625
-1.024457 -1.264414 14.876818
-1.024393 -1.264329 14.881673
-1.021949 -1.261095 15.112513
-1.477534 -2.229273 1.490462
-1.488390 -2.246307 2.075992
-1.487006 -2.244113 2.293023
-1.564479 -2.365960 2.447855
-1.549754 -2.342780 2.716962
-1.421860 -2.141565 3.419109
-1.426487 -2.148826 3.632951
-1.364938 -2.051981 4.118750
-1.398843 -2.105302 4.221908
-1.380170 -2.075890 4.800614
-1.428690 -2.152185 5.101660
-1.405793 -2.116143 5.471624
-1.341322 -2.014694 6.059565
-1.484836 -2.240438 5.918109
-1.507964 -2.276784 6.372758
-1.464624 -2.208575 6.899273
-1.544526 -2.334262 6.775294
-1.528437 -2.308903 7.492158
-1.597243 -2.417134 7.420720
-1.548185 -2.339925 8.048089
-1.573115 -2.379124 8.243539
-1.590679 -2.406732 8.491751
-1.571069 -2.375850 9.007542
-1.555360 -2.351133 9.120729
-1.563476 -2.363873 9.473632
-1.542142 -2.330271 10.094405
-1.619398 -2.451801 9.906309
-1.551233 -2.344541 10.503256
-1.495964 -2.257570 11.048963
-1.495441 -2.256747 11.054461
-1.470017 -2.216738 11.330897
-1.437378 -2.165372 11.716550
-1.375239 -2.067625 11.816483
-1.374807 -2.066946 11.822031
-1.308427 -1.962465 12.813403
-1.271020 -1.903647 12.533168
-1.178370 -1.757867 13.246819
-1.135508 -1.690465 13.021340
-1.129677 -1.681285 13.138209
-1.044438 -1.547156 13.917567
-0.985612 -1.454617 14.085897
-0.988762 -1.459580 13.979202
-0.973699 -1.435841 14.603646
-0.917306 -1.347128 14.775757
-0.914622 -1.342890 15.007682
-0.912681 -1.339811 15.358609
-1.296627 -2.369082 1.648459
-1.389739 -2.547079 1.698853
-1.346302 -2.464010 2.076857
-1.372857 -2.514748 2.393613
-1.299784 -2.374993 3.139420
-1.315024 -2.404113 3.298831
-1.276845 -2.331113 3.468269
-1.176215 -2.138680 4.171304
-1.293495 -2.362890 4.097613
-1.179519 -2.144935 4.906928
-1.295585 -2.366824 4.828775
-1.242795 -2.265860 5.362723
-1.277524 -2.332222 5.715307
-1.205769 -2.194991 6.410491
-1.328483 -2.429595 6.269109
-1.316281 -2.406236 6.634403
-1.341934 -2.455240 7.084935
-1.376362 -2.521048 7.177673
-1.346496 -2.463909 7.700111
-1.358954 -2.487705 7.952101
-1.365283 -2.499777 8.256784
-1.380328 -2.528518 8.506448
-1.319202 -2.411588 9.401319
-1.394552 -2.555656 9.163172
-1.375120 -2.518493 9.329624
-1.377717 -2.523424 9.734655
-1.357200 -2.484145 10.407060
-1.367000 -2.502888 10.304634
-1.308045 -2.390129 10.957433
-1.289889 -2.355402 11.179279
-1.260619 -2.299414 11.564340
-1.248711 -2.276636 11.732692
-1.210386 -2.203319 12.337168
-1.170501 -2.127082 12.220638
-1.163773 -2.114210 12.335506
-1.108248 -2.008049 12.493606
-1.071640 -1.938001 13.270777
-1.011171 -1.822370 13.655839
-0.978847 -1.760609 13.264472
-0.905614 -1.620540 14.100377
-0.909813 -1.628581 13.937900
-0.860448 -1.534200 14.049890
-0.856335 -1.526323 14.224021
-0.848162 -1.510661 14.679464
-0.843429 -1.501571 15.191432
-0.796483 -1.411804 15.427475
-1.169158 -2.633443 1.328538
-1.142219 -2.569727 1.653874
-1.139751 -2.563850 2.080648
-1.184370 -2.669310 2.289931
-1.086907 -2.438836 2.990242
-1.123889 -2.526237 3.248595
-1.122391 -2.522695 3.256401
-1.054952 -2.363210 3.849509
-1.056845 -2.367636 4.321070
-1.072316 -2.404195 4.478164
-1.007289 -2.250407 5.124576
-1.095572 -2.459111 5.100201
-1.140264 -2.564737 5.346470
-1.059907 -2.374693 6.148767
-1.093152 -2.453250 6.496881
-1.098779 -2.466527 6.754868
-1.112625 -2.499238 6.957767
-1.109354 -2.491440 7.623049
-1.165615 -2.624452 7.499452
-1.099979 -2.469199 8.399721
-1.136593 -2.555751 8.434850
-1.155623 -2.600720 8.631267
-1.175249 -2.647095 8.826683
-1.195464 -2.694865 9.021086
-1.157592 -2.605297 9.404861
-1.155266 -2.599753 9.866217
-1.165082 -2.622922 10.218262
-1.147047 -2.580266 10.441362
-1.133447 -2.548043 11.168620
-1.129212 -2.538079 10.672674
-1.097668 -2.463466 11.113048
-1.086306 -2.436588 11.283447
-1.062185 -2.379527 11.671318
-1.018859 -2.277022 12.496423
-0.979805 -2.184698 12.492618
-0.943288 -2.098379 12.433848
-0.933067 -2.074193 12.662007
-0.887097 -1.965503 12.824968
-0.826396 -1.821945 13.432109
-0.810279 -1.783783 14.050737
-0.772470 -1.694407 13.994968
-0.769977 -1.688502 14.112626
-0.725001 -1.582145 14.450495
-0.721292 -1.573348 14.737486
-0.717959 -1.565424 15.193411
-0.718459 -1.566615 15.086561
-0.678549 -1.472241 15.373398
-0.907154 -2.605057 1.750419
-0.941919 -2.711121 1.962431
-0.931713 -2.679943 2.233079
-0.906627 -2.603316 2.818999
-0.933132 -2.684195 2.872221
-0.909257 -2.611289 3.248384
-0.859022 -2.457947 3.581326
-0.835947 -2.387452 4.217648
-0.884110 -2.534409 4.361630
-0.874424 -2.504811 4.680823
-0.873652 -2.502391 5.200580
-0.863019 -2.469865 5.825576
-0.871767 -2.496535 6.032064
-0.906356 -2.602089 6.021240
-0.890807 -2.554587 6.442510
-0.878307 -2.516350 7.166327
-0.935498 -2.690908 6.936131
-0.876691 -2.511337 7.839496
-0.915298 -2.629116 8.121418
-0.920167 -2.643935 8.426422
-0.935395 -2.690382 8.622436
-0.964776 -2.780038 8.656444
-0.950066 -2.735078 9.226109
-0.953729 -2.746262 9.179741
-0.912961 -2.621727 10.179146
-0.946510 -2.724110 10.153577
-0.915167 -2.628403 10.645687
-0.914670 -2.626813 11.210780
-0.923064 -2.652448 11.056325
-0.931758 -2.679000 10.902042
-0.884208 -2.533777 11.827863
-0.881435 -2.525309 11.889469
-0.855198 -2.445256 11.773904
-0.829688 -2.367333 12.380647
-0.777785 -2.208867 12.979431
-0.792129 -2.252695 12.547871
-0.746335 -2.112891 12.984739
-0.713456 -2.012549 13.037973
-0.696351 -1.960269 13.710903
-0.656893 -1.839802 14.157708
-0.630525 -1.759369 13.880402
-0.626443 -1.746883 14.111969
-0.616469 -1.716326 15.072209
-0.584598 -1.619036 15.303562
-0.585264 -1.621097 15.086122
-0.584572 -1.618956 15.318953
-0.709670 -2.853724 1.426210
-0.727387 -2.930571 1.692882
-0.712799 -2.867201 2.016507
-0.654849 -2.615566 2.717462
-0.631137 -2.512577 3.149967
-0.632554 -2.518689 3.364705
-0.634368 -2.526524 3.578778
-0.604834 -2.398294 3.858951
-0.598377 -2.370257 3.921316
-0.573099 -2.260416 4.668178
-0.598271 -2.369671 4.660499
-0.647623 -2.582902 10.231580
-0.649935 -2.592760 11.252528
-0.691243 -2.772125 10.791648
-0.665500 -2.660284 11.446465
-0.655775 -2.618028 11.724603
-0.633314 -2.520544 11.717399
-0.617820 -2.453208 12.211898
-0.600622 -2.378453 12.871679
-0.561143 -2.207146 12.635330
-0.553264 -2.172892 12.970520
-0.543359 -2.129818 13.471841
-0.526082 -2.054878 13.191400
-0.491537 -1.904825 13.911124
-0.492240 -1.907883 13.859951
-0.466218 -1.794893 14.138217
-0.459453 -1.765377 15.039360
-0.460447 -1.769729 14.819731
-0.459085 -1.763758 15.160685
-0.436330 -1.664970 15.333024
-0.466858 -2.878687 1.468964
-0.465697 -2.870584 1.687106
-0.452386 -2.778203 2.275169
-0.468883 -2.892438 2.484403
-0.461020 -2.837878 2.807067
-0.453748 -2.787410 3.129328
-0.443335 -2.715163 3.505143
-0.430129 -2.623554 3.934905
-0.435453 -2.660397 4.093170
-0.443578 -2.716590 4.453882
-0.436050 -2.664263 5.082007
-0.436852 -2.669675 5.598673
-0.455820 -2.801109 5.535790
-0.435819 -2.662361 6.174009
-0.434347 -2.651999 6.791683
-0.461189 -2.838026 6.560941
-0.434875 -2.655484 7.408626
-0.438365 -2.679595 7.661303
-0.449334 -2.755568 7.750883
-0.473995 -2.926394 7.869550
-0.475856 -2.939203 8.171967
-0.478242 -2.955652 8.473151
-0.465048 -2.864044 9.201768
-0.456657 -2.805728 9.876101
-0.461751 -2.841064 9.720374
-0.470228 -2.899741 9.909451
-0.473984 -2.925666 10.258072
-0.475437 -2.935744 10.210158
-0.442209 -2.705198 11.453645
-0.465254 -2.864955 11.098801
-0.449693 -2.757132 11.141012
-0.436996 -2.669021 11.687166
-0.429101 -2.614213 12.072295
-0.407875 -2.467052 12.446309
-0.405944 -2.453649 12.561269
-0.384245 -2.303181 13.049607
-0.372265 -2.220227 12.880488
-0.363268 -2.157692 13.603939
-0.347845 -2.050811 13.713505
-0.348335 -2.054217 13.663859
-0.332949 -1.947592 13.774169
-0.314657 -1.820725 14.277349
-0.313310 -1.811332 14.507341
-0.311143 -1.796144 15.129806
-0.297217 -1.699708 14.965649
-0.217992 -2.822100 1.621038
-0.221071 -2.873904 1.939959
-0.222585 -2.899385 2.102005
-0.216051 -2.788587 2.740344
-0.221522 -2.880825 2.999431
-0.214967 -2.769955 3.221598
-0.203242 -2.571475 3.867785
-0.212904 -2.734766 3.754268
-0.214569 -2.762606 4.169356
-0.208419 -2.658407 4.649679
-0.212279 -2.723375 5.005906
-0.212558 -2.727760 5.521319
-0.215355 -2.774903 5.673090
-0.214517 -2.760543 5.986004
-0.214815 -2.765201 6.548304
-0.209176 -2.669569 7.128845
-0.218143 -2.820918 7.306760
-0.213879 -2.748745 7.529292
-0.225012 -2.936762 7.596936
-0.214416 -2.757152 8.547223
-0.217379 -2.807071 8.742364
-0.225583 -2.945736 8.614353
-0.218817 -2.830902 9.452176
-0.225236 -2.939335 9.428877
-0.218457 -2.824510 9.919222
-0.218697 -2.828268 10.377817
-0.229816 -3.016344 9.976317
-0.219364 -2.839225 10.841262
-0.219039 -2.833326 11.457375
-0.223315 -2.905841 11.031891
-0.222703 -2.895457 11.090199
-0.208736 -2.658975 11.942623
-0.208251 -2.650746 12.001515
-0.203261 -2.566525 11.883567
-0.201023 -2.528536 12.160578
-0.190221 -2.345612 12.864872
-0.189545 -2.334120 12.979431
-0.180341 -2.178218 13.636971
-0.174427 -2.078307 13.634595
-0.174407 -2.077968 13.639364
-0.167829 -1.966744 13.804212
-0.166852 -1.950065 14.087771
-0.159462 -1.824815 14.703474
-0.159363 -1.823118 14.764337
-0.159131 -1.819078 14.937314
-0.153058 -1.716386 15.108986
-0.158848 -1.813999 15.395466
0.013233 -2.842742 1.599160
0.015101 -2.925688 1.655654
0.011633 -2.772670 2.141980
0.012283 -2.802145 2.513112
0.015551 -2.947411 2.666972
0.008337 -2.628858 3.528691
0.012055 -2.793595 3.417405
0.008217 -2.624332 4.009113
0.005771 -2.516665 4.493196
0.011442 -2.768123 4.418854
0.009188 -2.669407 5.154817
0.014306 -2.896395 5.129929
0.008546 -2.642425 6.037153
0.012000 -2.795473 5.916643
0.011283 -2.764287 6.281977
0.010674 -2.738443 6.949741
0.014024 -2.886823 6.826882
0.013197 -2.850840 7.241768
0.012051 -2.801419 8.062412
0.016019 -2.977057 7.828962
0.013473 -2.865390 8.561061
0.016982 -3.020743 8.379980
0.015119 -2.939231 9.055016
0.016330 -2.993283 9.246648
0.016295 -2.991751 9.252710
0.016659 -3.008523 9.603602
0.015294 -2.949178 10.327572
0.017219 -3.034726 10.407444
0.015276 -2.949302 10.841621
0.012121 -2.810715 11.654145
0.012557 -2.828855 10.943069
0.010041 -2.718368 11.597098
0.009642 -2.700865 11.711488
0.007208 -2.592961 11.757120
0.006304 -2.553308 12.035424
0.002340 -2.378493 12.630562
0.000725 -2.308100 13.350905
-0.000601 -2.248495 12.907408
-0.003894 -2.103267 13.402306
-0.003906 -2.102762 13.408588
-0.004395 -2.081557 13.692258
-0.006986 -1.967002 13.914608
-0.007526 -1.943804 14.367139
-0.009889 -1.839190 14.480858
-0.007950 -1.925995 14.937135
-0.010341 -1.820898 15.501690
0.284467 -2.923008 1.432914
0.269869 -2.796084 2.074540
0.263062 -2.736919 2.398290
0.279620 -2.881173 2.551931
0.286783 -2.943666 2.865274
0.258738 -2.699588 3.356727
0.253785 -2.656562 3.677679
0.249296 -2.617573 3.998081
0.252926 -2.649330 4.412875
0.262631 -2.733952 4.716557
0.267466 -2.776113 4.870859
0.267627 -2.777687 5.386289
0.260735 -2.717812 5.808156
0.263952 -2.745900 6.013010
0.275756 -2.848803 6.305783
0.257815 -2.692803 7.047591
0.270965 -2.807426 7.333699
0.265874 -2.763244 7.802320
0.284228 -2.923031 7.623748
0.289091 -2.965447 7.821224
0.266203 -2.766477 8.877209
