-2.041547 0.955093 2.933430
-2.065432 0.965343 3.397184
-2.082193 0.973794 3.686964
-1.978992 0.841917 4.165276
-2.025971 0.871704 4.804636
-2.196934 1.046544 5.248514
-2.238778 1.076881 5.710111
-2.209356 1.030439 6.097140
-2.276879 1.083292 6.731545
-2.254182 1.044266 7.120764
-2.234068 1.008070 7.511319
-2.239554 0.994242 8.076404
-2.250449 0.986392 8.642887
-2.214654 0.938699 8.864107
-2.051821 0.731928 9.581752
-1.038890 -0.115575 -0.837956
-2.200144 0.936270 0.082988
-2.126969 0.855966 0.460348
-2.062699 0.770031 1.270038
-2.068803 0.766398 1.559318
-2.079040 0.763813 1.935584
-2.098688 0.764392 2.485741
-2.115318 0.767769 2.861773
-2.149402 0.779010 3.498316
-2.178844 0.791539 3.960672
-2.000569 0.607018 4.534700
-2.024024 0.619511 4.825029
-2.363295 0.919069 5.334668
-2.335801 0.878293 5.805666
-2.293530 0.829275 6.105255
-2.272818 0.794715 6.579376
-2.339310 0.839007 7.126845
-2.351285 0.829254 7.775956
-2.345305 0.808301 8.253561
-2.343562 0.791252 8.732492
-2.303851 0.747171 8.952831
-2.052951 0.489729 9.690893
-2.032047 0.586513 -0.120873
-2.185997 0.697828 0.263716
-2.107938 0.626756 0.553810
-2.111567 0.615588 1.020184
-2.125739 0.604962 1.747628
-2.134354 0.603025 2.039922
-2.241078 0.666427 2.762937
-2.182131 0.607811 3.145990
-2.131533 0.553182 3.617841
-2.156920 0.562015 3.996974
-2.043531 0.454301 4.566778
-2.161476 0.534657 5.024696
-2.421542 0.734430 5.285434
-2.390854 0.695644 5.759074
-2.374664 0.665772 6.320923
-2.364740 0.640850 6.884524
-2.361112 0.620906 7.449765
-2.338106 0.590670 7.843253
-2.381569 0.616605 8.133894
-2.301318 0.537449 8.633993
-2.076814 0.427202 -0.352472
-2.235166 0.510370 0.467129
-2.152418 0.448964 0.670739
-2.155197 0.440058 1.050099
-2.168903 0.428613 1.777539
-2.174764 0.426722 1.982826
-2.198679 0.424617 2.622990
-2.221459 0.426697 3.088950
-2.160547 0.374827 3.473608
-2.204341 0.386072 4.114234
-1.979343 0.225835 4.430915
-2.184747 0.351110 4.881517
-2.394251 0.479288 5.326952
-2.370621 0.447449 5.888765
-2.446532 0.480389 6.525631
-2.390579 0.436609 6.742817
-2.408538 0.427721 7.480882
-2.438652 0.442183 7.684397
-2.456942 0.435934 8.337357
-2.357558 0.357382 8.750946
-2.180679 0.226092 9.187301
-1.597412 -0.002161 -0.962652
-1.673076 0.030200 -0.573859
-2.011509 0.208937 -0.089536
-2.181343 0.294803 0.294820
-2.180903 0.279589 0.847158
-2.187120 0.268147 1.399553
-2.202628 0.259616 2.038902
-2.212650 0.257407 2.330128
-2.228426 0.256106 2.708252
-2.257061 0.257389 3.260056
-2.286339 0.261400 3.724619
-2.240574 0.220315 4.283450
-2.005142 0.078263 4.600274
-2.229531 0.190959 5.135872
-2.450510 0.304235 5.578721
-2.417097 0.272438 6.053176
-2.485993 0.296618 6.602275
-2.463295 0.270838 7.078872
-2.445611 0.247859 7.556966
-2.405097 0.216594 7.863227
-2.410457 0.204257 8.430725
-2.306179 0.133913 8.845146
-2.188013 0.045591 9.632547
-1.132639 -0.348879 -0.815435
-1.937493 0.013491 -0.391081
-2.289135 0.159650 0.262360
-2.286902 0.146537 0.727183
-2.198886 0.093621 1.192193
-2.204727 0.086483 1.571215
-2.213836 0.080862 1.950199
-2.232988 0.075382 2.503068
-2.250128 0.073493 2.881811
-2.275677 0.073251 3.347292
-2.318801 0.076660 3.986103
-2.251206 0.037531 4.285149
-2.020873 -0.082127 4.777778
-2.156709 -0.031019 5.236135
-2.477280 0.106459 5.668909
-2.442459 0.077957 6.144141
-2.424628 0.055043 6.707633
-2.427173 0.039289 7.359437
-2.396840 0.014995 7.752840
-2.355413 -0.012224 8.060724
-2.346848 -0.028740 8.543437
-2.254824 -0.084513 9.046863
-1.691315 -0.369219 9.942764
-1.922606 -0.163894 -0.000513
-2.200002 -0.070312 0.299238
-2.197109 -0.085222 0.851577
-2.200251 -0.095752 1.316949
-2.110876 -0.135664 1.609439
-2.218957 -0.110097 2.160565
-2.240285 -0.116174 2.712668
-2.263827 -0.119256 3.177563
-2.187410 -0.154552 3.474288
-2.232553 -0.154144 4.113894
-2.279302 -0.150952 4.665842
-2.053077 -0.248000 5.247690
-2.084635 -0.243839 5.540292
-2.418714 -0.132881 5.970980
-2.384933 -0.157135 6.447000
-2.344066 -0.181835 6.837830
-2.227383 -0.236765 7.332223
-2.301580 -0.221392 7.797427
-2.335345 -0.227716 8.540045
-2.280968 -0.253118 8.762603
-2.130287 -0.325574 9.461699
-1.263919 -0.463024 -1.017165
-1.630201 -0.371911 -0.524216
-2.002095 -0.278995 -0.040362
-2.186947 -0.238458 0.430769
-2.184700 -0.252617 0.983131
-2.187410 -0.261118 1.361481
-2.197530 -0.271751 1.912133
-2.112470 -0.305004 2.291552
-2.231106 -0.284989 2.839018
-2.058484 -0.343085 3.225647
-2.093407 -0.346776 3.778142
-2.320332 -0.293853 4.227468
-2.360423 -0.293874 4.689534
-2.118574 -0.374045 5.181277
-2.063840 -0.398974 5.569642
-2.320791 -0.339511 6.097327
-2.298583 -0.359540 6.659780
-2.244874 -0.382098 6.963120
-2.234502 -0.398870 7.528742
-2.231877 -0.413497 8.095871
-2.188778 -0.433163 8.403186
-2.086879 -0.474156 8.904942
-1.896918 -0.540535 9.430383
-0.917960 -0.629530 -0.833516
-1.878846 -0.457771 -0.229187
-2.362132 -0.371459 0.077916
-2.156489 -0.428641 0.799228
-2.156205 -0.433609 1.003867
-2.061234 -0.463220 1.470404
-1.981559 -0.498317 2.288966
-2.093832 -0.485594 2.665528
-2.009092 -0.509144 2.962214
-2.132744 -0.496259 3.423935
-2.457416 -0.444013 3.869267
-2.402768 -0.467922 4.423883
-2.347252 -0.489970 4.893994
-2.014108 -0.568739 5.484998
-1.971030 -0.588548 5.962223
-2.128089 -0.568970 6.414926
-2.070862 -0.587355 6.718605
-2.166322 -0.584186 7.357391
-2.160100 -0.599007 7.924487
-2.129897 -0.614328 8.318770
-2.087001 -0.630045 8.627036
-1.074502 -0.668611 -0.989999
-1.450934 -0.636229 -0.497220
-1.731715 -0.616849 0.071471
-2.021294 -0.594176 0.544844
-2.018376 -0.605565 1.010341
-1.920651 -0.625998 1.389237
-1.830098 -0.649798 1.945331
-1.840491 -0.657599 2.325381
-1.862100 -0.668244 2.880534
-2.089617 -0.654499 3.423935
-2.417193 -0.626681 3.867918
-2.452667 -0.633461 4.328658
-2.394590 -0.651402 4.798156
-2.252610 -0.681516 5.366590
-1.812412 -0.745426 5.887816
-1.750084 -0.759961 6.192772
-1.898791 -0.751267 6.560123
-1.965403 -0.754535 7.026500
-2.080266 -0.758342 7.753660
-2.047386 -0.771553 8.148141
-2.051331 -0.784623 8.718360
-1.913118 -0.808615 9.047429
-1.522670 -0.867822 9.615912
-1.679538 -0.752241 -0.063067
-2.171687 -0.742066 0.240325
-1.962632 -0.766447 0.961949
-1.762756 -0.780338 1.252519
-1.770210 -0.795219 1.894651
-1.774720 -0.799866 2.098389
-2.138186 -0.821700 3.566860
-2.356465 -0.820501 3.841935
-2.405196 -0.833699 4.474281
-2.231617 -0.847004 4.779251
-2.087286 -0.865498 5.347938
-1.653458 -0.895136 5.956901
-1.514338 -0.911681 6.450730
-1.863380 -0.907396 6.790161
-1.846832 -0.921373 7.358091
-1.936864 -0.931240 7.910886
-1.920242 -0.943198 8.393098
-1.828408 -0.960348 8.983145
-1.629059 -0.979785 9.509677
-0.741651 -0.829159 -0.795299
-1.317225 -0.869952 -0.206860
-1.707605 -0.895406 0.098432
-1.797576 -0.910675 0.567268
-1.692946 -0.920918 1.208680
-1.695943 -0.932089 1.676169
-1.700575 -0.939198 1.968273
-2.046940 -0.986015 3.266166
-2.384284 -1.016323 3.882251
-2.318745 -1.024285 4.349560
-2.151419 -1.025706 4.741335
-1.915339 -1.030404 5.408155
-1.669508 -1.030706 5.908033
-1.540462 -1.038387 6.489280
-1.666920 -1.048818 6.680779
-1.845391 -1.069901 7.220678
-1.819663 -1.080057 7.702069
-1.686121 -1.083545 8.114517
-1.687411 -1.097124 8.687458
-1.616685 -1.109907 9.369326
-0.676265 -0.885004 -0.875238
-1.530129 -1.017963 0.109226
-1.717845 -1.053292 0.582298
-1.613502 -1.051020 1.050106
-1.613768 -1.062203 1.519317
-1.525885 -1.068389 2.254197
-1.970989 -1.154278 3.465060
-2.301939 -1.209337 3.994992
-2.131707 -1.196786 4.386033
-2.079696 -1.203389 4.944755
-1.811397 -1.176590 5.265775
-1.564773 -1.156842 5.766490
-1.161055 -1.124006 6.564719
-1.311036 -1.152074 6.936006
-1.660561 -1.204972 7.274674
-1.621044 -1.209328 7.671347
-1.743523 -1.242406 8.401969
-1.634068 -1.240359 8.906868
-1.433696 -1.227208 9.435426
-0.884255 -1.003290 -0.672948
-0.968508 -1.028621 -0.368432
-1.247556 -1.097787 0.028915
-1.528520 -1.169339 0.508306
-1.423179 -1.160311 1.067049
-1.423937 -1.176095 1.715266
-1.427687 -1.184045 2.011868
-1.772302 -1.293324 3.492659
-2.189840 -1.393021 3.929706
-2.111818 -1.383488 4.225482
-2.049915 -1.381597 4.695499
-1.701441 -1.319284 5.197633
-1.378168 -1.266803 5.884424
-0.764277 -1.151347 6.533252
-0.923025 -1.196397 6.995891
-1.460898 -1.318737 7.306235
-1.504502 -1.335116 7.599462
-1.526087 -1.357748 8.347290
-1.400429 -1.340973 8.764608
-1.408756 -1.356647 9.341193
-0.755590 -1.234686 10.068069
-0.817374 -1.068620 -0.993503
-1.244174 -1.226927 0.241210
-1.426672 -1.291149 0.628167
-1.326328 -1.268315 0.922501
-1.035990 -1.195116 1.484349
-0.754560 -1.126984 2.143638
-2.162602 -1.591482 3.869284
-2.091119 -1.579474 4.252018
-2.125471 -1.601128 4.713587
-1.704464 -1.491817 5.399577
-1.275594 -1.376172 5.923927
-0.663099 -1.206395 6.485107
-0.532520 -1.179711 6.991278
-1.046737 -1.339410 7.217684
-1.411313 -1.461305 7.730550
-1.404380 -1.473342 8.304177
-1.250096 -1.433061 8.546557
-1.176458 -1.427850 9.231779
-0.609631 -1.273129 9.848563
-0.615315 -1.097610 -0.671100
-1.045827 -1.289025 0.207594
-1.224029 -1.366622 0.506734
-1.120107 -1.344382 1.241031
-1.119252 -1.351525 1.536346
-1.031355 -1.333455 2.186600
-1.225080 -1.419126 2.563740
-1.047185 -1.356896 2.866632
-1.250410 -1.448432 3.327935
-1.551475 -1.578119 3.777684
-1.398611 -1.532453 4.346282
-1.353015 -1.531040 4.997934
-1.192414 -1.475879 5.311665
-0.866027 -1.360692 5.827412
-0.463210 -1.218279 6.453977
-0.242611 -1.144788 6.974803
-0.753323 -1.353489 7.291760
-1.107363 -1.505641 7.806601
-1.086531 -1.509813 8.294585
-1.162739 -1.551670 8.764952
-0.363191 -1.053646 -0.912751
-0.942011 -1.365682 0.329023
-1.022838 -1.414768 0.713039
-0.927943 -1.376624 1.006647
-0.924045 -1.391703 1.654636
-0.928198 -1.408354 2.214195
-0.935055 -1.421686 2.597012
-1.220908 -1.573979 3.141231
-1.509376 -1.725036 3.589933
-1.433508 -1.696159 3.886490
-1.291532 -1.644739 4.541525
-1.228499 -1.624454 4.929574
-0.989500 -1.519772 5.339855
-0.689969 -1.393264 6.033142
-0.272710 -1.201159 6.392467
-0.157214 -1.160992 6.988874
-0.461106 -1.314454 7.244883
-0.801951 -1.492590 7.761800
-0.882142 -1.545972 8.321688
-0.866425 -1.551183 8.810767
-0.752470 -1.507184 9.232320
-0.272702 -1.080217 -0.892066
-0.826600 -1.438990 0.260373
-0.904556 -1.493140 0.556098
-0.806254 -1.455174 1.290622
-0.718367 -1.416188 1.763125
-0.805756 -1.475829 2.055865
-0.725555 -1.441431 2.530088
-0.992037 -1.608994 2.900299
-1.353717 -1.837250 3.433159
-1.201506 -1.760384 3.910056
-1.054182 -1.686522 4.391219
-0.844656 -1.583520 5.150240
-0.431429 -1.346444 5.407595
-0.564434 -1.440140 5.959957
-0.276342 -1.286762 6.574285
-0.051418 -1.163183 6.913939
-0.372502 -1.367217 7.438083
-0.711158 -1.583796 8.041219
-0.764300 -1.625661 8.423718
-0.735749 -1.619758 8.824217
-0.640186 -1.577258 9.333992
-0.013816 -0.982519 -0.799058
-0.639211 -1.443231 -0.199254
-0.866829 -1.618485 0.281195
-0.769430 -1.568095 0.927123
-0.600044 -1.461677 1.400297
-0.517140 -1.408961 1.610021
-0.762158 -1.596142 2.076315
-0.525082 -1.447059 2.733800
-0.615164 -1.521884 3.113119
-1.043790 -1.843559 3.729050
-0.901340 -1.756448 4.209464
-0.763558 -1.672768 4.694101
-0.531885 -1.515252 4.927098
-0.421021 -1.458604 5.686851
-0.290024 -1.377545 6.095692
-0.017273 -1.202029 6.713651
0.095894 -1.136479 7.221783
-0.250338 -1.386280 7.371838
-0.396766 -1.505930 7.920047
-0.456917 -1.562250 8.393355
-0.546980 -1.644859 9.042581
-0.430266 -1.571765 9.376656
0.078407 -0.978721 -0.701809
-0.488518 -1.494921 0.368866
-0.634914 -1.626180 0.579501
-0.468749 -1.507402 1.315898
-0.390533 -1.447225 1.524725
-0.389676 -1.469436 2.265600
-0.318409 -1.423525 2.743967
-0.629882 -1.700279 3.110964
-0.941488 -1.974209 3.383106
-0.728224 -1.807546 3.869064
-0.599449 -1.715557 4.441744
-0.390929 -1.550537 4.850256
-0.202610 -1.411177 5.531558
-0.305477 -1.510415 5.905838
-0.054930 -1.318717 6.609249
0.145295 -1.158641 6.949122
-0.145684 -1.425552 7.562159
-0.272711 -1.547983 8.020682
-0.339448 -1.622240 8.582407
-0.354241 -1.638498 8.700396
-0.278283 -1.592336 9.299711
-0.503015 -1.602784 -0.801705
0.018463 -1.107026 -0.355161
0.030442 -1.105216 -0.054504
-0.308284 -1.455861 0.523329
-0.297292 -1.460757 0.998012
-0.289382 -1.471599 1.561479
-0.215705 -1.412269 1.949353
-0.514113 -1.747814 3.265997
-0.666364 -1.909061 3.636040
-0.756042 -2.014912 4.183672
-0.498790 -1.785415 4.860773
-0.091455 -1.401277 5.303797
0.081361 -1.254858 5.993668
0.351176 -0.999286 6.253050
0.236167 -1.130350 6.813293
0.107396 -1.277717 7.459399
-0.071819 -1.464907 7.815702
-0.121511 -1.529219 8.290743
-0.154592 -1.571382 8.587243
-0.162380 -1.601111 9.257413
0.115020 -1.351530 9.923590
0.434220 -0.724582 -0.403132
0.050079 -1.175543 -0.171653
-0.124423 -1.400430 0.490532
-0.184420 -1.477077 0.699465
-0.106067 -1.410228 1.351176
-0.100497 -1.424084 1.914947
-0.368532 -1.777018 3.140873
-0.508296 -1.954507 3.598096
-0.455027 -1.910175 4.072165
-0.219603 -1.666467 4.838746
0.024658 -1.400230 5.261992
0.190755 -1.230377 5.860885
0.374229 -1.027781 6.106097
0.402010 -1.016804 6.691034
0.301268 -1.149692 7.158372
0.132006 -1.360863 7.607009
0.024398 -1.501395 8.066902
0.033883 -1.511375 8.648353
0.057673 -1.498514 9.053015
0.133031 -1.430202 9.568089
0.551127 -0.605954 -0.406834
0.270881 -1.004393 0.002390
0.106304 -1.244595 0.398636
-0.058532 -1.488463 0.878036
0.009799 -1.414203 1.352566
0.014868 -1.422681 1.738736
-0.103477 -1.640438 3.153540
-0.229870 -1.834615 3.701359
-0.295086 -1.934961 3.987919
-0.135641 -1.744217 4.657046
0.142646 -1.385480 5.176975
0.303307 -1.183121 5.596225
0.447252 -1.014559 6.291590
0.483610 -0.981113 6.696329
0.387908 -1.133833 7.253978
0.190435 -1.413226 7.508144
0.198051 -1.429585 8.179126
0.156947 -1.504596 8.654960
0.162244 -1.520612 9.238041
0.230345 -1.448313 9.753916
0.162370 -1.250753 -0.812072
0.234797 -1.154376 -0.335085
0.408949 -0.892375 0.139617
0.316139 -1.061128 0.533650
0.170936 -1.319002 1.013690
0.178366 -1.324307 1.400128
0.239671 -1.258120 2.145742
0.188859 -1.354062 2.440405
0.083561 -1.554386 3.084382
-0.075644 -1.825989 3.363264
-0.081200 -1.856138 3.832221
-0.089619 -1.890931 4.300813
0.058436 -1.668332 4.707506
0.300276 -1.306320 5.407155
0.439120 -1.103395 5.917949
0.522556 -0.990338 6.422360
0.493734 -1.062926 6.993095
0.362133 -1.297288 7.442461
0.291542 -1.424845 7.724483
0.311451 -1.414594 8.216406
0.321373 -1.424669 8.798862
0.342018 -1.409322 9.204184
0.542949 -1.116488 9.961900
0.475422 -0.858462 0.087430
0.393756 -1.033866 0.395018
0.226401 -1.390389 0.968811
0.323923 -1.215453 1.269075
0.334386 -1.229086 1.927825
0.157952 -1.646880 3.343529
0.110037 -1.760022 3.721817
0.060473 -1.876276 4.097977
0.142900 -1.745044 4.673242
0.406100 -1.258470 5.204262
0.521423 -1.073638 5.985376
0.595376 -0.955395 6.491777
0.583372 -0.994464 6.793934
0.471330 -1.236682 7.246339
0.397560 -1.409301 7.798296
0.370850 -1.486108 8.274762
0.431954 -1.393261 8.787017
0.490201 -1.306178 9.302820
0.642349 -1.033364 9.773358
0.615747 -0.635228 0.022822
0.553314 -0.814779 0.512366
0.373049 -1.276448 0.998358
0.421549 -1.189567 1.477609
0.430599 -1.202701 2.046565
0.435861 -1.219431 2.525977
0.554680 -0.964892 3.018845
0.401313 -1.360498 3.478449
0.246493 -1.748207 3.752119
0.243933 -1.783260 4.224696
0.353785 -1.555975 4.811830
0.537563 -1.153293 5.427311
0.643126 -0.931862 5.942135
0.710324 -0.796409 6.359775
0.654945 -0.963423 6.920625
0.564756 -1.201724 7.283407
0.500682 -1.394511 7.924981
0.521860 -1.368571 8.330302
0.532473 -1.378934 8.915183
0.583116 -1.289218 9.432007
0.745660 -0.935439 10.015224
0.703070 -0.482970 0.203401
0.648058 -0.670848 0.421408
0.507664 -1.145056 0.909287
0.521948 -1.151304 1.567378
0.528883 -1.159749 1.957161
0.596007 -0.981449 2.352756
0.600690 -0.997028 2.744257
0.451461 -1.496243 3.200057
0.392514 -1.715189 3.662586
0.454567 -1.566521 4.238199
0.514210 -1.425728 4.818747
0.633584 -1.094232 5.335259
0.719325 -0.874084 5.939319
0.774890 -0.733428 6.356948
0.735586 -0.891916 6.827724
0.661854 -1.162994 7.370112
0.626018 -1.289504 7.565643
0.632471 -1.334964 8.416644
0.653024 -1.295481 8.734057
0.693238 -1.216948 9.338442
0.825872 -0.849173 9.919358
0.735219 -0.426574 0.010192
0.703598 -0.613900 0.499536
0.604909 -1.099257 1.074859
0.638053 -1.006377 1.554064
0.642284 -1.010088 1.764494
0.675158 -0.928024 2.336266
0.707458 -0.858083 3.000567
0.598568 -1.365361 3.364449
0.556849 -1.584117 3.737856
0.583423 -1.528863 4.306306
0.630180 -1.359998 4.619500
0.767585 -0.860922 5.512771
0.835179 -0.604518 5.847759
0.810988 -0.748561 6.229182
0.808005 -0.811724 6.711557
0.758343 -1.072969 7.164143
0.731258 -1.228674 7.537766
0.720460 -1.352762 8.281363
0.758887 -1.231224 8.704087
0.796395 -1.113959 9.129861
0.896477 -0.752424 9.799460
0.785838 -0.266559 0.201866
0.746168 -0.559651 0.419640
0.699938 -0.951163 0.994162
0.722033 -0.853405 1.293221
0.722846 -0.964369 2.039673
0.745523 -0.877183 2.430996
0.784417 -0.699006 2.918386
0.714538 -1.212312 3.282910
0.675665 -1.537251 3.738547
0.698946 -1.487273 4.394107
0.733501 -1.323995 4.795147
0.829412 -0.780600 5.329193
0.878111 -0.528341 5.752205
0.865514 -0.683954 6.222835
0.852289 -0.857202 6.780377
0.837842 -1.037842 7.334105
0.822423 -1.196455 7.705678
0.821747 -1.260987 8.091591
0.849455 -1.201104 8.869219
0.878296 -1.064939 9.204653
0.935164 -0.794397 9.852878
0.806198 0.075638 -0.566320
0.782307 -0.409321 -0.151480
0.769261 -0.795374 0.431518
0.764968 -0.990666 0.824058
0.792244 -0.791635 1.393259
0.803151 -0.798169 1.874110
0.820595 -0.710495 2.354644
0.846584 -0.532713 2.931866
0.840373 -0.751246 3.311596
0.812641 -1.271895 3.668780
0.805715 -1.497069 4.037755
0.819758 -1.427290 4.426942
0.875224 -0.899124 5.221479
0.918687 -0.454235 5.752913
0.934623 -0.423562 6.337196
0.934392 -0.586103 6.805375
0.922904 -0.813032 6.986428
0.908746 -1.193871 7.507017
0.921776 -1.172713 7.996300
0.941668 -1.059267 8.504650
0.953956 -1.050081 8.997732
0.980382 -0.851401 9.531995
0.794497 0.340193 -0.587390
0.814349 -0.139562 0.010686
0.831521 -0.427720 0.592515
0.843465 -0.824708 0.897169
0.857812 -0.725909 1.556123
0.868224 -0.831558 1.944100
0.879648 -0.843577 2.422614
0.887831 -0.365622 3.013017
0.901658 -0.589793 3.485552
0.912038 -1.101265 3.665587
0.927979 -1.146758 4.318738
0.934461 -0.879641 4.729650
0.945909 -0.444779 5.436675
0.959234 -0.408583 6.020401
0.969040 -0.456413 6.412065
0.979749 -0.607013 6.789711
0.992133 -0.958926 7.136017
1.011033 -1.074431 7.879048
1.020899 -1.139786 8.264338
1.029289 -1.012100 8.685267
1.042442 -0.923864 9.288150
1.049727 -0.610969 9.756465
0.815505 0.024151 0.090417
0.861227 -0.363906 0.584030
0.907236 -0.757725 1.068396
0.905597 -0.658057 1.368688
0.926046 -0.762117 1.847121
0.940593 -0.774614 2.415614
0.929947 -0.496372 2.997319
0.943400 -0.519752 3.479214
0.974454 -0.747528 3.947165
0.994611 -0.874403 4.328695
0.992322 -0.714755 4.823882
0.979625 -0.381117 5.524304
0.981196 -0.314452 5.837851
1.003846 -0.393386 6.502492
1.019612 -0.519565 6.700995
1.061744 -0.881755 7.138809
1.082624 -0.967163 7.704634
1.104158 -1.060365 8.269202
1.102939 -0.932650 8.691192
1.109448 -0.843965 9.295136
1.093162 -0.531710 9.764560
0.813469 0.094575 0.229243
0.883511 -0.296661 0.359190
0.967267 -0.680690 1.114268
0.961970 -0.582671 1.594031
0.976926 -0.590479 2.163630
0.987928 -0.600303 2.553434
0.980064 -0.511841 2.857492
0.981279 -0.438443 3.433432
1.017232 -0.569700 3.997857
1.047792 -0.694940 4.379845
1.012525 -0.430792 4.794881
0.989062 -0.196861 5.487358
1.009322 -0.247649 5.971235
1.018168 -0.217370 6.557800
1.069021 -0.463556 6.923087
1.136644 -0.810430 7.269302
1.151286 -0.854347 7.567385
1.177935 -0.891413 8.416644
1.171479 -0.782019 8.929336
1.150121 -0.582259 9.465368
1.103392 -0.255762 9.847155
0.878880 -0.126322 0.282893
0.857646 -0.024553 0.494672
0.942901 -0.307512 0.982515
0.954171 -0.305601 1.465734
0.997001 -0.408668 2.127068
1.053289 -0.606392 2.333013
1.052559 -0.532890 3.085826
1.138088 -0.836009 3.370248
1.305567 -1.440844 3.807058
1.324777 -1.470868 4.276218
1.171775 -0.830954 4.807562
1.045639 -0.294112 5.344576
1.029709 -0.168225 6.031011
1.055803 -0.223386 6.515206
1.107832 -0.379946 6.984653
1.210050 -0.733190 7.420651
1.234337 -0.790409 7.808740
1.247105 -0.784918 8.391581
1.249440 -0.755810 8.797468
1.193353 -0.478980 9.442219
1.091906 -0.022392 10.138483
0.916860 -0.153030 0.123768
0.862220 0.051379 0.791659
1.006521 -0.321040 1.367483
1.011807 -0.321011 1.579651
1.025161 -0.324776 2.061991
1.049698 -0.341280 2.814249
1.067794 -0.358670 3.296135
1.112823 -0.466573 3.591964
1.101174 -0.398314 4.079288
1.095975 -0.341965 4.658519
1.046353 -0.176814 4.978764
1.023472 -0.055683 5.755036
1.009283 0.007574 6.070718
1.131300 -0.316634 6.427623
1.240287 -0.583765 7.060275
1.261598 -0.623405 7.359982
1.297092 -0.690966 7.837631
1.302346 -0.670676 8.331695
1.292823 -0.593824 9.024247
1.247335 -0.418531 9.651868
0.559035 0.710829 -0.660411
0.804734 0.189245 0.035961
1.048898 -0.351110 0.353956
1.135198 -0.525518 0.747911
1.071214 -0.334862 1.497507
1.076757 -0.335049 1.709856
1.056895 -0.250438 2.374340
1.027591 -0.165288 2.680846
1.053981 -0.186599 3.345031
1.103181 -0.287053 3.552252
1.135080 -0.321161 4.213344
1.047020 -0.084362 4.810395
1.002198 0.053276 5.404823
0.976244 0.125914 5.629101
1.021649 0.061269 6.296813
1.161974 -0.244434 6.561885
1.323872 -0.584050 7.089851
1.370692 -0.657929 7.655771
1.365477 -0.622206 8.059599
1.348251 -0.542099 8.750086
1.317592 -0.441505 9.266144
1.212172 -0.167096 9.826844
0.594236 0.569559 -0.819294
0.928228 -0.012726 -0.031749
0.838407 0.178345 0.448848
0.840074 0.181345 0.571403
1.092947 -0.247044 1.418180
1.055886 -0.158548 1.810454
1.070917 -0.162540 2.292038
1.041387 -0.083422 2.777420
1.053840 -0.091559 3.079416
1.131941 -0.204218 3.735587
1.152587 -0.223182 4.126317
1.044922 0.006829 4.722127
1.017176 0.073986 5.033977
1.009675 0.117077 5.619096
1.052866 0.065333 6.194019
1.163187 -0.130632 6.381215
1.328285 -0.397505 7.191502
1.419292 -0.543908 7.652297
1.466375 -0.607894 8.126824
1.460346 -0.576619 8.529640
1.374011 -0.389533 9.060526
1.245106 -0.121941 9.617333
0.654167 0.447487 -0.848967
0.825281 0.255491 0.800185
1.050260 -0.073734 1.193311
1.066644 -0.070395 1.853375
1.075982 -0.071801 2.153099
1.035511 0.007486 2.546194
1.063708 -0.007310 3.207302
1.137336 -0.103995 3.591592
1.163849 -0.124080 4.070514
1.036897 0.096975 4.664215
0.955651 0.239740 5.074161
0.991658 0.205236 5.557482
1.030712 0.166015 6.040207
1.188568 -0.053285 6.586482
1.324008 -0.249973 6.858080
1.371151 -0.301928 7.334176
1.421291 -0.358532 7.809436
1.452396 -0.373572 8.568361
1.381899 -0.250658 8.901761
1.294603 -0.089295 9.526385
0.614497 0.501579 -0.823232
0.799271 0.319624 0.643873
1.053253 0.014043 1.218645
1.064461 0.018047 1.698573
1.079086 0.017640 2.178425
1.039752 0.090460 2.752043
1.057481 0.082608 3.142481
1.143441 -0.010048 3.616881
1.183199 -0.036006 4.275448
1.020702 0.186110 4.599231
0.927486 0.322143 5.008920
0.973337 0.285071 5.582979
1.007483 0.256103 5.975126
1.182482 0.051348 6.521823
1.342813 -0.141612 6.883231
1.424750 -0.218714 7.626961
1.459796 -0.252520 7.923590
1.481660 -0.254957 8.593405
1.401328 -0.138480 8.926892
1.275580 0.040892 9.372054
0.635454 0.514464 0.168929
0.771078 0.375526 0.476200
1.047705 0.093534 1.142642
1.057981 0.099039 1.622576
1.072001 0.100408 2.102445
1.086146 0.098475 2.492157
1.106948 0.092347 2.971742
1.126598 0.084325 3.361138
1.165488 0.064523 4.019971
1.064655 0.193212 4.514804
0.960711 0.322304 4.923249
0.875276 0.437466 5.516930
0.986261 0.331524 5.989275
0.949494 0.383123 6.302835
1.132685 0.196889 6.758733
1.406388 -0.083699 7.373233
1.465199 -0.131941 7.848421
1.437936 -0.090845 8.161703
1.409847 -0.032480 8.940853
1.270832 0.136621 9.386089
0.968193 0.495074 10.079586
0.380839 0.731909 -0.763624
0.884080 0.282376 -0.067091
1.175151 0.019432 0.244887
1.178157 0.035010 0.814182
1.037673 0.179399 1.204570
1.050441 0.185912 1.776679
1.062525 0.187241 2.168576
1.020467 0.251094 2.923672
1.035605 0.246629 3.224916
1.125064 0.172261 3.520286
1.173719 0.150845 4.269834
0.985368 0.340937 4.685050
0.888429 0.451016 5.277621
0.916112 0.434837 5.580500
0.992244 0.387831 6.335747
1.179944 0.223583 6.701358
1.441855 -0.010875 7.048413
1.418398 0.024114 7.450284
1.519076 -0.046306 8.193447
1.477565 -0.000077 8.419081
1.363102 0.130248 9.129512
1.242534 0.263634 9.757465
0.317404 0.764108 -0.696099
0.859668 0.346958 -0.272766
1.169364 0.118953 0.309302
1.170338 0.129891 0.698634
1.098599 0.203875 1.267597
1.030654 0.272225 1.749236
1.052138 0.275085 2.410565
0.986420 0.336352 2.715388
1.014990 0.330914 3.287617
1.121980 0.260395 3.762978
1.142236 0.253375 4.063494
1.029464 0.360420 4.650107
0.906968 0.469873 5.060505
0.874244 0.510657 5.553941
0.923803 0.485909 6.037378
1.210328 0.272124 6.481539
1.368422 0.166144 7.124849
1.432179 0.129927 7.601182
1.500266 0.090251 8.076639
1.481908 0.116937 8.479988
1.342796 0.245893 9.100846
1.179464 0.388838 9.548461
0.426243 0.672116 -0.715994
0.830832 0.411822 -0.210572
1.157221 0.206789 0.370919
1.159194 0.221649 0.939538
1.083187 0.286919 1.419233
1.007050 0.347211 1.721090
1.021347 0.351215 2.202344
0.879111 0.464281 2.781374
1.068786 0.348976 3.254319
1.180350 0.286742 3.728603
1.029625 0.395450 3.952345
1.162379 0.323915 4.605143
1.031743 0.424244 5.013542
0.859487 0.563550 5.798216
0.892531 0.549742 6.101033
1.183825 0.362071 6.455591
1.337205 0.273740 7.010350
1.389899 0.249017 7.398338
1.458885 0.215755 7.874872
1.465299 0.227945 8.455627
1.301191 0.354480 8.986145
1.159237 0.468699 9.612415
0.275935 0.763473 -0.496790
0.705712 0.530244 -0.174152
1.049613 0.347530 0.228671
1.223410 0.267567 0.889726
1.053165 0.373935 1.278829
1.062565 0.381631 1.758993
0.992986 0.436295 2.331783
1.095997 0.388776 2.719003
1.385944 0.240522 3.272819
1.322727 0.286742 3.665835
1.189543 0.377437 4.246856
1.300458 0.322872 4.538116
1.091549 0.456586 5.133423
0.803821 0.635174 5.747250
0.837579 0.624361 6.050109
1.154304 0.458080 6.494862
1.388917 0.338201 6.946010
1.369890 0.362204 7.437385
1.441811 0.334601 7.913847
1.463003 0.340825 8.585057
1.290618 0.452280 9.117627
1.124323 0.560462 9.655976
0.294817 0.747961 -0.394211
0.654969 0.591884 -0.166359
1.011999 0.448714 0.506625
1.194869 0.378921 0.988230
1.105482 0.424558 1.198657
1.115323 0.434846 1.767995
1.038057 0.482058 2.250301
1.235354 0.403243 2.633847
1.632463 0.241087 3.269612
1.377577 0.363834 3.583851
1.319846 0.402292 4.067347
1.381883 0.393630 4.811737
1.074881 0.547372 5.418396
0.735203 0.706708 5.672912
0.733793 0.727210 6.441674
1.020330 0.600512 6.525337
1.393518 0.450934 7.231530
1.465539 0.430856 7.707885
1.467920 0.444812 8.289353
1.445748 0.465247 8.694249
1.282519 0.554760 9.317489
0.931661 0.727573 9.898910
0.243156 0.761132 -0.590153
0.700849 0.608225 -0.084762
0.976917 0.518392 0.315703
1.256475 0.429391 0.799741
1.165159 0.474417 1.278157
1.079110 0.517561 1.757491
0.813483 0.628120 2.334668
1.200915 0.495164 2.621978
1.693060 0.328494 3.075518
1.399284 0.465792 4.313179
1.346903 0.496871 4.797125
1.112999 0.594169 5.303054
0.678000 0.760396 5.656626
0.640797 0.786286 6.152597
1.018248 0.667657 6.867448
1.352852 0.555283 7.213432
1.425873 0.540790 7.689125
1.396500 0.561512 8.091938
1.370882 0.580907 8.495995
1.198379 0.658893 9.117627
0.961442 0.763124 9.856395
0.286656 0.745894 -0.713714
0.748835 0.633419 -0.026456
1.031328 0.564185 0.373720
1.221494 0.518436 0.678135
1.222024 0.530014 1.157254
1.038997 0.597389 1.818062
1.341160 0.524432 2.290950
1.744680 0.422847 2.752664
1.773584 0.428486 3.313429
1.221341 0.593317 3.735909
0.961451 0.676101 4.147724
1.281054 0.595669 4.514531
1.064345 0.675249 5.289051
0.618243 0.808732 5.643881
0.674785 0.804795 6.129320
1.022955 0.718297 6.574792
1.224901 0.679773 7.309066
1.352402 0.648881 7.504236
1.349994 0.663802 8.086375
1.339313 0.678893 8.580883
1.145595 0.746154 9.114830
0.901818 0.832467 9.854988
1.414634 0.530487 -0.951556
0.708654 0.678060 -0.503406
0.592783 0.716421 0.159115
1.079009 0.629705 0.471980
1.174508 0.620589 0.863158
1.274392 0.612716 1.341443
0.794968 0.721615 2.007464
1.897177 0.523733 2.662203
1.836321 0.553254 3.400613
1.677666 0.597746 3.973139
1.910697 0.563544 4.429547
1.562516 0.643197 4.936805
0.830350 0.798484 5.494839
0.582261 0.856819 5.922062
0.447549 0.895192 6.433029
0.695119 0.856087 6.802553
1.194534 0.775950 7.495946
1.257162 0.773103 7.882876
1.339149 0.768624 8.358132
1.296727 0.784406 8.673041
1.099026 0.835507 9.205701
0.410065 0.993641 10.231064
0.660714 0.727010 -0.771928
1.139408 0.686783 -0.273231
1.324097 0.680194 0.295895
1.318945 0.689879 0.680741
1.218513 0.714139 1.243419
1.321685 0.712040 1.628051
0.839449 0.780243 2.293109
1.859158 0.684640 2.937333
1.680307 0.713346 3.327864
1.616460 0.733661 3.891901
1.751311 0.729954 4.353998
1.305945 0.792673 4.956849
0.672001 0.876714 5.594143
0.541294 0.905039 6.189423
0.296030 0.941931 6.620647
0.658642 0.913004 7.063541
1.110133 0.871750 7.394154
1.171766 0.874217 7.780890
1.284315 0.877460 8.433833
1.275097 0.890139 8.926362
0.979689 0.935382 9.479833
0.398104 0.784583 -0.661137
1.082520 0.772730 -0.245371
1.367510 0.777153 0.324599
1.361907 0.786359 0.707466
1.160319 0.805958 1.268099
1.264845 0.813788 1.740389
1.177506 0.829854 2.304501
1.383868 0.828041 2.504506
1.914934 0.827992 3.215071
1.637291 0.846115 3.611011
1.357352 0.862350 3.923825
1.592013 0.865661 4.379150
1.234604 0.888884 4.884333
0.594837 0.924105 5.519430
0.483365 0.945908 6.294401
0.422966 0.955216 6.608062
0.687474 0.957542 7.061679
1.069663 0.957760 7.583761
1.132543 0.964859 7.969167
1.231043 0.975008 8.531722
1.141146 0.991991 9.131289
0.808656 1.011366 9.506749
0.325126 0.818230 -0.497889
0.812936 0.850662 -0.176553
1.099311 0.876744 0.310502
1.290783 0.899899 0.878335
1.190492 0.908024 1.439079
1.293233 0.920187 1.732689
1.400006 0.934604 2.113128
1.712893 0.961384 2.572530
1.831424 0.978318 3.034223
1.478608 0.980198 3.875377
1.200335 0.973464 4.190699
1.544040 1.003583 4.725034
1.371874 1.002165 5.036568
0.634491 0.979849 5.682556
0.502087 0.987103 6.275725
0.452851 0.994113 6.679033
0.717028 1.018236 7.130964
1.070972 1.044337 7.472944
1.078025 1.060461 8.140960
1.047064 1.068380 8.543314
1.020068 1.076529 8.946864
0.776477 1.083536 9.769567
0.577346 0.873510 -0.959553
0.943445 0.938233 -0.285768
1.230555 0.983687 0.019601
1.215910 0.997174 0.668727
1.112600 0.994657 1.140874
1.531946 1.085955 2.634423
1.935570 1.144118 2.822376
1.762693 1.134473 3.383938
1.504689 1.115880 4.045454
1.631338 1.141584 4.417912
1.465160 1.128929 4.815417
0.836401 1.062385 5.534565
0.396013 1.016526 6.069762
0.246113 1.006489 6.486289
0.505472 1.051812 6.941382
0.854671 1.106477 7.286743
0.955314 1.135414 7.940638
1.004478 1.149006 8.237235
1.006323 1.163069 8.818329
0.901633 1.161341 9.331370
0.563205 0.951512 -0.079415
0.840847 1.025580 0.494515
1.127001 1.099162 0.971727
1.223139 1.131393 1.443477
1.225800 1.141207 1.826452
1.232003 1.151788 2.209366
1.635198 1.250243 2.665245
1.949643 1.331428 3.203273
1.588290 1.266919 3.778568
1.326216 1.221883 4.268388
1.459524 1.261915 4.729211
1.200660 1.215647 5.139068
0.594766 1.103924 5.956185
0.348112 1.060703 6.382535
0.420000 1.090081 6.954048
0.654467 1.147484 7.225355
0.820674 1.194677 7.687220
0.910192 1.227712 8.251830
0.991511 1.256796 8.726330
0.965588 1.260920 9.130469
0.500228 1.176518 9.816438
0.221189 0.899796 -0.573792
0.881938 1.103041 -0.335432
1.149601 1.197069 0.236570
1.140528 1.203820 0.621240
1.038357 1.184934 1.094176
1.133115 1.224879 1.567345
0.947126 1.183247 2.133531
1.930993 1.499350 3.035939
1.664629 1.431610 3.516813
1.510598 1.401717 4.172137
1.435377 1.386665 4.473688
1.201010 1.333220 5.147143
0.777782 1.221942 5.763011
0.418730 1.121001 6.019787
0.187519 1.064719 6.539574
0.449071 1.156268 7.085015
0.786756 1.265633 7.430173
0.856646 1.298228 7.906510
0.961329 1.345555 8.559217
1.012420 1.368126 8.856349
0.772801 1.316690 9.675244
0.903293 1.203964 -0.758301
0.419439 1.024979 -0.391642
0.587581 1.102667 0.093412
1.040585 1.291180 0.578113
1.034034 1.298335 0.961791
1.030873 1.306809 1.345485
1.423768 1.497285 2.832514
1.809607 1.656482 3.191334
1.560440 1.576103 3.846370
1.298356 1.482059 4.159821
1.156989 1.443784 4.821259
0.909501 1.357912 5.233290
0.581695 1.243460 5.750889
0.259974 1.131593 6.277126
0.314305 1.164892 6.757902
0.477873 1.242566 7.312778
0.661420 1.330168 7.952815
0.890127 1.425812 8.216091
0.980243 1.475059 8.776967
0.353929 1.054360 -0.778118
0.784513 1.274049 -0.368893
1.035994 1.408735 0.113549
1.112774 1.458385 0.586382
0.924660 1.379403 1.056334
0.921338 1.392489 1.617374
1.103034 1.490626 1.997451
0.845747 1.385295 2.743019
1.677050 1.805260 3.373714
1.608360 1.784218 3.842989
1.460337 1.727213 4.409136
1.216936 1.619713 4.814706
0.999323 1.531790 5.489829
0.586821 1.343157 5.931025
0.197613 1.170778 6.561182
0.152346 1.159424 6.966360
0.467099 1.321267 7.313251
0.643084 1.423417 7.952325
0.876490 1.545899 8.303759
0.874993 1.560335 8.882489
0.762029 1.516598 9.305639
0.612994 1.286641 -0.909483
0.421599 1.182898 -0.529408
0.566788 1.287715 0.133964
0.810873 1.446534 0.615375
0.889374 1.503958 1.001470
0.884645 1.514117 1.474393
1.238187 1.758485 2.693793
1.510731 1.935798 3.230516
1.454582 1.922278 3.958338
1.469635 1.939192 4.247452
1.423466 1.929330 4.891625
1.010029 1.689621 5.143845
0.626854 1.477837 5.755750
0.242886 1.263473 6.290929
0.120559 1.204367 6.796178
0.290816 1.326056 7.529464
0.486725 1.447792 7.706843
0.646093 1.557843 8.252742
0.713934 1.611270 8.724877
0.646127 1.589682 9.412113
0.349515 1.214441 -0.918484
0.652032 1.442155 -0.425328
0.796204 1.557706 0.053335
0.781684 1.561049 0.524435
0.770278 1.569135 1.083733
0.765202 1.581687 1.643041
1.103214 1.855408 2.862683
1.518743 2.156338 3.129243
1.373679 2.070086 3.688038
1.308200 2.034923 4.070959
1.255465 2.013784 4.628245
0.971007 1.832576 5.305409
0.607192 1.593496 5.917805
0.250859 1.360067 6.543020
0.045640 1.227629 6.972392
0.187989 1.344056 7.525971
0.465413 1.547053 7.776179
0.616652 1.669480 8.320309
0.668491 1.717103 8.703026
0.323249 1.301806 -0.843160
0.591851 1.552777 0.032019
0.728093 1.683741 0.595308
0.641438 1.625862 1.065146
0.636501 1.633503 1.448235
0.948087 1.933651 2.757130
1.264660 2.211447 3.202340
1.275387 2.231905 3.577239
1.226986 2.213843 4.304383
1.160137 2.164547 4.515453
0.977583 2.037997 5.354733
0.615310 1.746395 5.701961
0.200205 1.419509 6.335696
-0.063340 1.215934 6.867097
0.126249 1.385199 7.228137
0.337443 1.577783 7.761628
0.554028 1.774659 8.288394
0.601633 1.826097 8.670204
0.437219 1.705109 9.197590
0.137537 1.251525 -0.708788
0.337295 1.458296 -0.399386
0.532299 1.666071 0.081894
0.586647 1.738041 0.641312
0.579972 1.741169 0.934518
0.571483 1.751230 1.491420
0.639813 1.839695 2.133655
0.498296 1.710337 2.432423
1.155441 2.389157 3.408157
1.097359 2.347409 3.873837
1.043176 2.309562 4.341469
0.992918 2.275638 4.810987
0.794670 2.091102 5.129073
0.549297 1.872300 5.813106
0.085884 1.434760 6.369819
-0.152344 1.220886 6.990288
0.102397 1.485849 7.423566
0.334138 1.719171 7.584297
0.471166 1.874813 8.213995
0.464097 1.886858 8.788632
0.300001 1.739932 9.227956
-0.101398 1.105679 -0.650829
0.478147 1.786657 -0.494040
0.710290 2.083996 0.247579
0.566763 1.933492 0.710063
0.493368 1.861702 1.089492
0.422285 1.792675 1.470820
0.482709 1.886341 2.113454
0.483501 1.904200 2.581429
0.550111 1.989087 2.782337
0.819603 2.325488 3.400730
0.897729 2.436093 3.941485
0.838701 2.374880 4.150616
0.728458 2.266870 4.715604
0.567382 2.106487 5.470131
0.383739 1.901104 5.707868
0.093314 1.585105 6.327108
0.132532 1.651136 6.888967
0.363430 1.935634 7.315832
0.339157 1.924883 7.800247
0.374600 1.979960 8.180950
0.292761 1.902852 8.685311
0.150760 1.756478 9.212774
0.300477 1.751773 -1.045784
0.258823 1.732411 -0.100113
0.419252 1.972073 0.378708
0.402887 1.975256 1.019582
0.335924 1.901929 1.486438
0.330988 1.913857 1.953549
0.446983 2.091724 2.414180
0.271325 1.865927 2.803906
0.275391 1.890255 3.271707
0.637378 2.408379 3.786928
0.646001 2.435203 4.160733
0.600697 2.391713 4.629299
0.496510 2.264290 5.022810
0.281060 1.988458 5.528628
0.249784 1.968152 6.094725
0.223179 1.954339 6.662617
0.201274 1.947052 7.232191
0.222366 1.987734 7.524132
0.207627 1.990360 8.095337
0.181885 1.970893 8.492504
0.117118 1.905649 9.085751
-0.174402 1.532245 9.765637
0.169641 1.830431 0.073187
0.264860 1.998732 0.371193
0.252198 1.999183 0.838856
0.242394 2.004285 1.306561
0.235449 2.014036 1.774243
0.230917 2.031643 2.329263
0.230416 2.055796 2.884055
0.179370 1.986152 3.181594
0.288656 2.184400 3.636548
0.400727 2.386954 4.086514
0.413048 2.431683 4.635041
0.319145 2.296691 5.029594
0.174950 2.080523 5.438231
0.092518 1.972434 6.015950
0.066539 1.955777 6.584817
0.081998 1.994107 6.877743
0.114434 2.071856 7.432938
0.105091 2.086287 8.091274
0.074427 2.050347 8.400999
0.014342 1.979286 8.993750
-0.204138 1.649525 9.563349
-0.266635 1.232138 -0.785205
0.039643 1.850496 -0.545498
0.238627 2.283062 0.200323
0.132680 2.102207 0.749984
0.122026 2.105542 1.217200
0.115179 2.111846 1.597171
0.063840 2.034820 2.066632
0.106374 2.134122 2.356955
0.149185 2.252062 2.993536
0.104818 2.184368 3.377662
0.108036 2.215095 3.843990
0.202761 2.421460 4.207560
0.165285 2.371997 4.679714
0.044557 2.168113 5.348212
0.007722 2.111114 5.651877
0.029219 2.187167 6.293723
0.006506 2.171791 6.859361
-0.074281 2.024143 7.092021
-0.087352 2.032648 7.749711
-0.116145 1.991816 8.058343
-0.116455 2.030293 8.806604
-0.180222 1.926026 9.225186
-0.353817 1.212946 -0.908715
-0.181596 1.659514 -0.411129
-0.012273 2.109124 0.249431
-0.020732 2.106727 0.542118
-0.036409 2.108400 1.183803
-0.045344 2.115606 1.651012
-0.052189 2.127855 2.118152
-0.055412 2.138100 2.410774
-0.059265 2.162926 2.964819
-0.021792 2.271111 3.251909
-0.021666 2.294729 3.630308
-0.018318 2.342150 4.268814
-0.128299 2.106821 4.760224
-0.119697 2.161763 5.314831
-0.077490 2.275672 5.509286
-0.100841 2.259410 6.160665
-0.166549 2.125708 6.566183
-0.186519 2.112549 7.135380
-0.206962 2.092959 7.618765
-0.229072 2.064042 8.016097
-0.241220 2.070044 8.589732
-0.462110 1.173285 -0.801256
-0.269065 1.825085 -0.298475
-0.101235 2.388656 0.099217
-0.144512 2.287552 0.560705
-0.222136 2.098172 1.286040
-0.226358 2.100836 1.490850
-0.237531 2.115640 2.131779
-0.243716 2.132575 2.598099
-0.215781 2.236910 2.798601
-0.221380 2.282834 3.610969
-0.221775 2.290758 3.728011
-0.282199 2.157175 4.469062
-0.341414 1.993612 4.778804
-0.308905 2.125781 5.149244
-0.242185 2.385828 5.766588
-0.267026 2.337528 6.155633
-0.289128 2.304834 6.632978
-0.333440 2.223457 7.387998
-0.351179 2.204951 7.869713
-0.367198 2.192009 8.352813
-0.390497 2.135561 8.575564
-0.490500 1.867856 9.207332
-0.396698 1.889586 -0.072405
-0.345211 2.172234 0.490249
-0.354916 2.169973 0.869933
-0.363809 2.171234 1.249642
-0.392575 2.077173 1.543330
-0.406185 2.094688 2.272816
-0.410814 2.105388 2.566086
-0.397688 2.238364 3.289588
-0.377258 2.348016 3.489021
-0.382286 2.393162 4.126753
-0.451842 2.133456 4.529660
-0.475751 2.098042 5.180936
-0.407910 2.420013 5.441874
-0.429209 2.377486 5.917526
-0.470560 2.267692 6.581742
-0.488885 2.238560 7.061967
-0.485602 2.283505 7.354215
-0.503131 2.248875 7.749215
-0.539352 2.153348 8.337154
-0.551248 2.161862 8.910079
-0.628641 1.892561 9.545583
-0.591867 1.384556 -0.780468
-0.555805 1.669173 -0.471270
-0.519290 1.956081 -0.166367
-0.523841 2.040564 0.565289
-0.531127 2.038503 0.857669
-0.544050 2.040398 1.411789
-0.555812 2.049884 1.965857
-0.564821 2.063769 2.432573
-0.571537 2.079031 2.811951
-0.562526 2.196578 3.186390
-0.571686 2.236388 3.825360
-0.590563 2.159362 4.124089
-0.613518 2.123881 4.859747
-0.615332 2.144031 5.064818
-0.603606 2.291943 5.519732
-0.606289 2.346872 5.983835
-0.623879 2.333168 6.633867
-0.639850 2.303259 7.112310
-0.655132 2.250983 7.418662
-0.669004 2.275971 8.160400
-0.682290 2.264332 8.643148
-0.726380 2.029918 8.991942
-0.799228 1.641465 9.560996
-0.651931 1.943011 -1.008058
-0.697213 1.516132 -0.381131
-0.688213 1.801114 0.098774
-0.683588 1.993172 0.483168
-0.694908 1.989021 0.949681
-0.703826 1.989648 1.328979
-0.712487 1.993865 1.708260
-0.726540 2.009150 2.349120
-0.732697 2.019513 2.641009
-0.736720 2.144605 3.189106
-0.745748 2.171939 3.653717
-0.761657 2.105222 4.125449
-0.784507 1.944739 4.607726
-0.782192 2.070855 4.890701
-0.779256 2.345028 5.594598
-0.789696 2.269485 5.808221
-0.806311 2.251319 6.456481
-0.818815 2.205185 6.846305
-0.833241 2.190088 7.411201
-0.845143 2.153329 7.803878
-0.858668 2.151836 8.371717
-0.871646 2.158431 8.940894
-0.912349 1.746127 9.418036
-0.804632 1.279598 -0.974411
-0.816820 1.357480 -0.496529
-0.836070 1.838336 0.078141
-0.845343 2.031519 0.374349
-0.860319 2.024187 1.013385
-0.867179 2.024241 1.304372
-0.879118 1.930202 1.858188
-0.890234 1.941161 2.324254
-0.900407 2.053990 2.699081
-0.911604 2.074746 3.163644
-0.924970 2.106416 3.714781
-0.933160 2.032780 4.099281
-0.945717 1.977796 4.659682
-0.953855 2.103999 4.941399
-0.970574 2.269220 5.567572
-0.979049 2.213590 5.955080
-0.994145 2.196598 6.604085
-0.998426 2.126012 6.821216
-1.013770 2.123220 7.473599
-1.024829 2.101079 7.953881
-1.040464 2.116912 8.609238
-1.049463 2.091017 9.004023
-1.058765 1.793516 9.548382
-0.981779 1.768602 -0.115830
-1.008759 1.956774 0.266611
-1.018922 1.948313 0.729884
-1.020116 1.845661 1.193345
-1.029184 1.847088 1.570591
-1.054728 1.957110 2.206780
-1.064675 1.968055 2.582904
-1.079825 1.990423 3.132749
-1.090592 2.010066 3.508496
-1.100305 1.952103 4.151956
-1.099036 1.797683 4.719631
-1.114788 1.914943 4.913150
-1.157223 2.185994 5.614866
-1.154995 2.109756 5.827512
-1.162127 2.066858 6.301351
-1.178895 2.128191 6.762776
-1.193760 2.122915 7.411879
-1.193821 2.000731 7.906039
-1.208850 2.065213 8.281376
-1.218924 2.051637 8.761452
-1.208206 1.831255 9.195479
-0.896827 0.537381 -0.853068
-1.176634 1.967340 0.517307
-1.165695 1.864231 0.804667
-1.178328 1.861201 1.354682
-1.175275 1.767116 1.906572
-1.185559 1.774474 2.283376
-1.215966 1.886822 2.743238
-1.247214 2.004380 3.200564
-1.248580 1.935553 3.754809
-1.248137 1.867977 4.224333
-1.265433 1.904052 4.686888
-1.296855 2.035344 5.052349
-1.315738 2.080889 5.512838
-1.318899 2.033838 5.984850
-1.323058 1.992328 6.458513
-1.340862 1.993563 7.193922
-1.359569 2.050042 7.568124
-1.367039 2.027218 8.045286
-1.370780 1.994615 8.437157
-1.363834 1.885320 8.936142
-1.330793 1.606732 9.566842
-1.303359 1.774698 0.233645
-1.313792 1.762976 0.786651
-1.297032 1.662411 1.165741
-1.313002 1.663984 1.805032
-1.348586 1.766365 2.179935
-1.387777 1.874718 2.639605
-1.406429 1.895197 3.188374
-1.370602 1.720079 3.575663
-1.364157 1.650764 4.046711
-1.391643 1.696945 4.685546
-1.425603 1.810137 4.878973
-1.476636 1.956884 5.417541
-1.475691 1.908708 5.890118
-1.476196 1.865986 6.364361
-1.512854 1.948045 6.999122
-1.511321 1.905394 7.388874
-1.510776 1.866447 7.779933
-1.541294 1.941070 8.241395
-1.530989 1.846106 8.826168
-1.498899 1.664556 9.435228
-1.449164 1.653897 0.594599
-1.452974 1.650166 0.799228
-1.467107 1.644898 1.438985
-1.472338 1.645260 1.643617
-1.485526 1.649781 2.109250
-1.509664 1.667101 2.835622
-1.549905 1.768629 3.035295
-1.543145 1.702928 3.678822
-1.494942 1.535935 4.071244
-1.489335 1.479431 4.632975
-1.569448 1.690492 4.906116
-1.647738 1.858506 5.705383
-1.633154 1.794878 6.006499
-1.668722 1.857862 6.555346
-1.662361 1.811549 6.945040
-1.657290 1.768851 7.336089
-1.673732 1.769326 7.988450
-1.711111 1.843739 8.450836
-1.686713 1.737567 8.950800
-1.624926 1.528271 9.387574
-1.406816 1.189339 -0.169796
-1.572119 1.541862 0.222770
-1.578959 1.530102 0.689434
-1.586149 1.524222 1.069135
-1.606494 1.522772 1.883923
-1.612688 1.524815 2.089539
-1.625246 1.531137 2.469094
-1.693504 1.643953 3.191083
-1.678352 1.576896 3.749043
-1.648373 1.496383 3.961282
-1.602618 1.353974 4.618986
-1.670113 1.480475 5.077398
-1.779466 1.702866 5.521961
-1.753415 1.631064 5.737814
-1.792567 1.687766 6.288819
-1.788351 1.650247 6.766496
-1.786435 1.617900 7.245043
-1.833956 1.693661 7.795210
-1.845267 1.686198 8.362017
-1.803438 1.566964 8.776023
-1.733360 1.377125 9.300065
-1.694862 1.405236 0.253357
-1.699546 1.395147 0.632328
-1.711362 1.385294 1.272418
-1.718382 1.383798 1.564417
-1.740294 1.388237 2.291392
-1.747614 1.391594 2.496273
-1.825194 1.498771 3.217496
-1.787226 1.418530 3.427390
-1.782863 1.370017 4.247437
-1.752885 1.300019 4.547702
-1.836047 1.426238 5.091319
-1.909899 1.544034 5.458434
-1.904556 1.506476 6.020029
-1.935361 1.544563 6.396945
-1.928613 1.508589 6.874043
-1.932953 1.488672 7.439280
-1.978988 1.550523 7.902595
-1.980994 1.530500 8.382959
-1.939346 1.429126 8.883752
-1.900788 1.333266 9.388074
-1.420032 0.725360 -0.874906
-1.527783 0.856737 -0.098049
-1.804391 1.259168 0.383186
-1.810233 1.248031 0.849198
-1.821034 1.240730 1.402272
-1.836031 1.239850 1.955297
-1.845641 1.241976 2.247218
-1.867043 1.250907 2.799960
-1.938671 1.344395 3.173473
-1.903179 1.273577 3.557020
-1.771252 1.047018 4.131153
-1.867334 1.166710 4.764829
-2.003139 1.358993 5.124062
-2.039239 1.394256 5.587504
-2.016699 1.343035 5.976055
-2.012381 1.312161 6.539433
-2.057538 1.361267 7.003177
-2.061256 1.342604 7.568462
-2.039704 1.296409 7.875414
-2.071364 1.312905 8.616843
-2.043359 1.260461 8.839719
-1.913798 1.031274 9.558907
-1.956718 1.192868 0.688190
-1.840663 1.026692 1.064186
-1.855014 1.020623 1.704171
-1.860890 1.020399 1.907934
-1.944131 1.104462 2.544176
-1.964394 1.112940 3.008138
-1.974296 1.118003 3.211173
-2.009477 1.139248 3.848423
-1.863545 0.926357 4.422750
-1.890603 0.947016 4.801496
-2.093825 1.202327 5.063174
-2.131871 1.234117 5.525002
-2.069352 1.126897 6.184105
-2.124333 1.177419 6.733345
-2.124123 1.155296 7.296831
-2.157413 1.187580 7.585703
-2.175581 1.186046 8.237339
-2.165110 1.157115 8.630711
-2.122225 1.078311 9.218375
-1.940547 0.823190 9.677569
-1.979293 0.960191 0.431789
-1.983695 0.948712 0.897128
-1.991743 0.941259 1.362500
-1.998637 0.938642 1.653814
-2.012611 0.937735 2.119105
-2.037751 0.943056 2.758183
-2.122817 1.023891 3.131142
-2.086620 0.964382 3.687642
-2.049655 0.907023 4.158752
-2.016475 0.853776 4.631774
-2.106013 0.942762 4.913241
-2.235677 1.060922 5.625675
-2.263371 1.081366 5.914357
-2.253518 1.050802 6.474974
-2.238947 1.018005 6.950787
-2.217583 0.980696 7.341503
-2.264764 1.019603 7.717173
-2.296404 1.028614 8.455563
-2.232431 0.940430 8.955201
-2.159102 0.844845 9.371435
-1.184300 0.022695 -0.782556
-1.908924 0.691825 -0.443600
-2.196706 0.946461 0.034638
-2.123801 0.863135 0.495608
-2.058819 0.778730 1.220067
-2.068976 0.773231 1.685086
-2.080144 0.771495 2.063031
-2.021098 0.703759 2.444154
-2.123152 0.779005 3.079444
-2.143948 0.786322 3.456915
-2.179000 0.801412 4.007803
-1.982031 0.606402 4.321700
-2.011454 0.621749 4.701210
-2.284191 0.858021 5.310724
-2.256838 0.817034 5.784528
-2.305760 0.847992 6.247248
-2.296971 0.821559 6.809790
-2.294082 0.800600 7.374325
-2.344581 0.835831 7.750621
-2.313675 0.796917 8.057125
-2.310576 0.778464 8.538016
-2.240543 0.696520 9.039651
-1.906097 0.360797 9.715095
-1.576659 0.243088 -0.897707
-1.723679 0.345567 -0.417616
-2.033028 0.582384 -0.110995
-2.109024 0.623504 0.530697
-2.111446 0.614057 0.908346
-2.116668 0.606837 1.286015
-2.126934 0.601008 1.750687
-2.141436 0.598551 2.215276
-2.164151 0.600013 2.766674
-2.261230 0.666017 3.138931
-2.215899 0.613222 3.694766
-2.105474 0.505723 4.347842
-1.988077 0.397783 4.831460
-2.169722 0.534055 5.103916
-2.361326 0.675736 5.459786
-2.351286 0.648270 6.106608
-2.394997 0.671730 6.482066
-2.375365 0.641785 6.957886
-2.348286 0.608480 7.348609
-2.336860 0.584975 7.827340
-2.343565 0.573238 8.394159
-2.327663 0.548701 8.788899
-2.100787 0.351901 9.331672
-1.587347 0.117205 -0.779550
-1.744387 0.212564 -0.388037
-2.072128 0.428607 -0.168899
-2.233052 0.516953 0.561383
-2.150953 0.455513 0.763536
-2.158643 0.442538 1.402272
-2.167172 0.437568 1.779918
-2.181728 0.434209 2.244500
-2.209042 0.434555 2.882829
-2.224270 0.436615 3.173150
-2.252251 0.442379 3.637093
