2.490692 -0.067583 -3.951566
2.481658 -0.068039 -4.768026
1.959628 -0.054230 -5.586111
2.665455 -0.310386 -1.156851
2.443246 -0.285100 -1.843182
2.459679 -0.287657 -2.576090
2.360905 -0.276907 -3.544958
2.287011 -0.268843 -4.304513
2.208108 -0.260326 -5.298727
2.225127 -0.459165 -2.514741
2.182270 -0.450922 -3.279043
2.239163 -0.463390 -4.155437
2.216830 -0.459465 -5.033009
2.195904 -0.657168 -1.424419
2.107351 -0.631239 -2.144461
2.124876 -0.637039 -2.829048
2.145997 -0.644076 -3.697191
2.132101 -0.640562 -4.518204
1.797461 -0.540673 -5.532079
2.352901 -0.939492 -1.161337
2.051872 -0.819850 -1.844349
2.018243 -0.806980 -2.542527
2.063737 -0.825971 -3.505213
2.134401 -0.854917 -4.272573
1.956971 -0.784397 -4.998680
1.950301 -0.973295 -2.231271
1.960322 -0.979061 -3.131684
2.013088 -1.006219 -4.051494
1.997262 -0.998940 -4.787809
2.214614 -1.364098 -0.873872
1.939444 -1.195373 -1.702343
1.913735 -1.180294 -2.537669
1.873644 -1.156212 -3.259785
1.921951 -1.187039 -4.363287
1.792459 -1.107743 -5.183785
1.851088 -1.382871 -1.231933
1.776561 -1.327947 -2.015074
1.798857 -1.345447 -2.869892
1.839354 -1.376633 -3.767024
1.842843 -1.380207 -4.736113
1.501794 -1.125221 -5.345707
1.976561 -1.768480 -0.925500
1.717774 -1.537823 -1.754483
1.707473 -1.529333 -2.438597
1.740374 -1.559828 -3.377068
1.826183 -1.637801 -4.298678
1.739400 -1.560729 -5.012792
1.713676 -1.835274 -2.329277
1.716630 -1.839452 -3.116357
1.723779 -1.848326 -4.054900
1.738202 -1.864889 -4.899492
1.720052 -2.198506 -1.395680
1.668804 -2.134392 -2.296231
1.686246 -2.157923 -3.077301
1.672756 -2.141612 -3.694611
1.693810 -2.169832 -4.500058
1.548653 -1.985143 -5.420670
1.619741 -2.506469 -1.179258
1.582865 -2.450945 -1.989546
1.596701 -2.473963 -2.818644
1.628899 -2.525811 -3.814814
1.626521 -2.523421 -4.481555
1.532745 -2.379062 -5.120328
1.546539 -2.922718 -1.086295
1.550972 -2.933393 -1.989601
1.562956 -2.958187 -2.820445
1.566871 -2.967440 -3.539497
1.543422 -2.924902 -4.288276
1.492851 -2.830903 -5.060503
1.388773 -3.272352 -1.017331
1.194332 -2.816376 -1.814771
1.165902 -2.750757 -2.342673
1.183899 -2.795969 -3.337579
1.199350 -2.834396 -4.029057
1.201305 -2.841018 -4.747122
0.881060 -2.756705 -1.465458
0.860441 -2.694575 -2.194297
0.889064 -2.786608 -2.893814
0.903224 -2.833974 -3.754517
0.880787 -2.766030 -4.493166
0.788892 -2.479736 -5.301217
0.600884 -2.668393 -2.696438
0.599047 -2.662730 -3.268862
0.585858 -2.607186 -3.997135
0.581296 -2.590845 -4.939716
0.350324 -2.618569 -1.411661
0.336958 -2.522948 -2.051259
0.336468 -2.524789 -2.869088
0.333974 -2.512850 -3.883015
0.325512 -2.453093 -4.489517
0.291879 -2.204159 -5.298727
0.107682 -2.415253 -2.441421
0.108298 -2.443164 -3.175397
0.106301 -2.412500 -3.937925
0.103479 -2.365461 -4.857657
-0.126336 -2.681777 -1.199019
-0.109281 -2.308422 -1.871573
-0.110157 -2.311619 -2.768623
-0.108009 -2.257026 -3.351565
-0.111491 -2.311956 -4.410957
-0.106684 -2.203579 -4.975368
-0.278735 -2.190672 -2.293883
-0.283048 -2.219694 -3.085044
-0.286825 -2.244126 -3.921053
-0.591347 -2.616541 -1.125223
-0.487621 -2.155124 -1.844349
-0.486513 -2.147628 -2.594278
-0.498769 -2.199226 -3.298273
-0.500714 -2.204003 -4.373945
-0.478044 -2.101607 -5.166549
-0.672281 -2.136225 -1.351601
-0.647835 -2.056302 -2.254066
-0.652732 -2.070315 -2.864701
-0.662516 -2.098953 -3.808650
-0.656045 -2.076649 -4.534622
-0.552176 -1.746188 -5.384744
-0.988001 -2.386788 -1.149272
-0.845001 -2.040024 -1.812334
-0.843514 -2.034848 -2.604951
-0.855571 -2.062459 -3.332372
-0.850066 -2.046994 -4.432858
-0.809170 -1.947104 -5.194484
-1.027437 -1.965641 -1.448492
-1.001616 -1.914801 -2.339549
-1.012996 -1.935401 -3.046265
-1.044276 -1.993882 -3.803808
-1.044018 -1.991874 -4.710154
-0.861026 -1.641675 -5.546318
-1.162945 -1.814286 -2.640332
-1.170138 -1.824388 -3.445582
-1.176967 -1.834134 -4.091266
-1.175009 -1.829661 -5.120560
-1.538374 -1.986097 -1.278569
-1.408067 -1.816778 -2.117697
-1.406628 -1.813959 -2.855583
-1.402166 -1.807164 -3.660535
-1.365587 -1.759222 -4.302066
-1.299979 -1.673789 -5.084260
-1.739031 -1.878404 -1.202894
-1.611392 -1.739484 -2.071126
-1.635307 -1.764168 -2.986343
-1.579817 -1.703695 -3.506929
-1.602138 -1.726517 -4.546390
-1.513782 -1.630462 -5.309394
-1.881001 -1.702697 -1.277747
-1.811791 -1.639202 -2.014109
-1.833828 -1.658135 -2.874619
-1.879306 -1.698075 -3.861849
-1.866008 -1.685177 -4.613734
-1.686341 -1.522056 -5.465895
-2.197256 -1.657377 -2.578949
-2.180765 -1.644086 -3.289921
-2.196367 -1.654964 -4.020997
-2.191819 -1.650554 -4.842855
-2.534890 -1.577641 -2.311294
-2.532149 -1.575099 -2.984215
-2.567056 -1.595555 -3.982048
-2.594718 -1.611825 -4.708439
-2.383036 -1.479470 -5.487754
-3.156916 -1.597354 -1.286074
-3.094309 -1.564723 -1.971434
-3.112205 -1.572755 -2.695799
-3.117106 -1.573893 -3.651780
-3.080367 -1.554566 -4.219809
-3.093494 -1.559661 -5.330622
-3.599291 -1.466178 -1.233318
-3.597497 -1.464590 -1.796135
-3.624108 -1.474056 -2.686024
-3.653695 -1.484603 -3.649360
-3.585024 -1.455969 -4.142113
-3.546013 -1.438820 -5.029455
-3.834398 -1.180715 -1.249564
-3.695940 -1.137057 -1.950641
-3.583137 -1.101595 -2.491763
-3.524081 -1.082305 -3.311964
-3.545950 -1.087982 -4.055983
-3.478655 -1.066146 -4.939631
-3.511772 -0.743925 -2.357570
-3.467703 -0.733606 -3.116815
-3.487270 -0.736756 -3.873692
-3.589114 -0.436054 -1.355543
-3.458914 -0.419087 -2.270895
-3.448314 -0.417073 -2.852501
-3.440092 -0.415105 -3.633523
-3.438402 -0.414032 -4.333453
-3.191406 -0.383376 -5.164497
-3.800820 -0.117858 -0.928709
-3.323444 -0.102263 -1.604793
-3.330773 -0.101261 -2.633902
-3.340957 -0.100663 -3.394446
-3.318341 -0.099339 -3.940671
-3.284480 -0.097164 -4.943589
-3.382290 0.192546 -1.280824
-3.249999 0.186094 -2.211668
-3.222776 0.185353 -2.923251
-3.244743 0.187573 -3.748510
-3.205264 0.186188 -4.541533
-2.860995 0.166990 -5.382764
-3.114573 0.464439 -2.102906
-3.028952 0.452707 -3.051475
-2.990859 0.447765 -3.749648
-3.069219 0.720915 -2.573105
-2.961976 0.696318 -3.116131
-2.961519 0.697373 -4.170096
-2.961606 0.698103 -4.815951
-2.942068 0.992511 -2.209936
-2.878800 0.972134 -3.063907
-2.866417 0.969021 -4.013396
-2.859155 0.967242 -4.617446
-2.956487 1.276905 -1.494664
-2.867198 1.239063 -2.093859
-2.801252 1.211528 -2.915751
-2.761643 1.195178 -3.592877
-2.809451 1.217010 -4.559274
-2.586842 1.121265 -5.228694
-2.929190 1.584949 -1.044119
-2.753495 1.490769 -1.748701
-2.705029 1.465531 -2.557277
-2.672459 1.448889 -3.379361
-2.697150 1.463262 -4.177827
-2.639886 1.433059 -4.905840
-2.615465 1.738555 -2.385618
-2.556400 1.700280 -3.145415
-2.544418 1.693185 -3.820304
-2.788634 2.222439 -1.367640
-2.658598 2.119969 -2.120203
-2.642109 2.108091 -2.942837
-2.660055 2.123301 -3.514167
-2.627507 2.098569 -4.334463
-2.474161 1.977539 -5.372431
-2.949299 2.819538 -1.023525
-2.619269 2.505016 -1.581855
-2.594936 2.483187 -2.388455
-2.577596 2.467861 -3.104459
-2.573755 2.465964 -4.113268
-2.710110 3.084258 -1.043147
-2.567618 2.924002 -1.939129
-2.565711 2.923496 -2.718454
-2.572052 2.932305 -3.457839
-2.593274 2.958252 -4.269262
-2.503489 2.856924 -4.814535
-2.457937 3.380906 -2.178311
-2.470827 3.400497 -2.889201
-2.477092 3.411652 -3.858013
-2.462212 3.392354 -4.321971
-2.344019 3.231433 -5.131775
-2.300091 3.803521 -1.456732
-2.288302 3.785935 -2.063013
-2.284625 3.782012 -2.750935
-2.291877 3.796473 -3.530353
-2.297189 3.807864 -4.353455
-2.240270 3.715702 -5.084133
-1.919455 3.942807 -1.186628
-1.891368 3.888310 -2.068593
-1.847081 3.798699 -2.480592
-1.824873 3.756401 -3.452820
-1.853654 3.818825 -4.346544
-1.831932 3.776220 -4.969497
-1.407068 3.680502 -1.343872
-1.416958 3.709100 -2.016786
-1.402104 3.673947 -2.951339
-1.401242 3.675055 -3.794636
-1.394502 3.659504 -4.333339
-1.294623 3.400169 -5.128013
-1.133688 4.018070 -0.807947
-1.031707 3.661001 -1.676895
-1.016606 3.611737 -2.543020
-1.017176 3.617372 -3.264398
-1.016752 3.619841 -4.060874
-0.698526 3.697852 -1.288671
-0.676168 3.585046 -2.075417
-0.673976 3.578174 -2.746834
-0.665276 3.536904 -3.454551
-0.654469 3.484296 -4.167514
-0.625688 3.336403 -5.003154
-0.368081 3.494233 -2.341613
-0.365051 3.474648 -3.110603
-0.358813 3.421397 -3.635911
-0.360390 3.447561 -4.573945
-0.316935 3.038742 -5.292415
-0.062596 3.631591 -1.097584
-0.057473 3.383298 -1.799382
-0.056437 3.386812 -2.702903
-0.055304 3.375361 -3.485413
-0.054096 3.365829 -4.365533
-0.050496 3.175626 -4.873220
0.243435 3.310903 -2.447296
0.240911 3.264954 -3.180942
0.241889 3.265474 -3.987352
0.537750 3.290466 -1.168503
0.515479 3.148748 -1.944115
0.512242 3.123362 -2.750119
0.505051 3.073431 -3.646097
0.496891 3.019283 -4.326725
0.466262 2.827918 -5.200985
0.916137 3.586776 -0.900389
0.814243 3.183406 -1.845630
0.796521 3.111900 -2.328955
0.765597 2.986828 -3.301940
0.760200 2.962386 -4.083879
0.768048 2.989133 -4.958921
1.120500 3.189376 -1.042746
1.066829 3.033506 -1.942843
1.032053 2.932251 -2.659883
1.010313 2.868135 -3.389806
1.012428 2.871548 -4.190984
0.975653 2.764980 -4.936310
1.367980 3.045750 -1.313601
1.311221 2.917230 -2.089756
1.286138 2.859803 -2.689406
1.264527 2.809461 -3.554577
1.263422 2.805166 -4.250880
1.230527 2.729687 -5.215614
1.649760 2.904052 -1.344691
1.608527 2.829461 -2.201281
1.577089 2.772912 -2.748323
1.586338 2.786713 -3.815809
1.601980 2.812488 -4.548968
1.455158 2.553485 -5.180466
2.077334 3.032172 -0.839358
1.899579 2.770657 -1.810923
1.879447 2.739873 -2.488769
1.856619 2.704998 -3.263985
1.877953 2.734228 -4.150698
1.877016 2.731579 -4.771270
2.271252 2.740152 -2.266404
2.254188 2.717611 -3.252935
2.227120 2.683800 -3.860697
2.690125 2.722800 -2.147643
2.673010 2.704029 -2.889515
2.643538 2.672445 -3.812297
2.582478 2.609649 -4.392914
2.490951 2.515512 -5.330478
3.078314 2.601301 -1.024898
3.029454 2.558332 -1.914866
3.026824 2.554704 -2.662057
3.032760 2.558381 -3.369413
3.008690 2.536392 -4.279463
2.971851 2.504201 -4.907155
3.032357 2.131188 -2.216370
3.013289 2.116582 -2.960731
3.013040 2.115068 -3.789057
3.031906 2.126899 -4.659894
2.751942 1.929617 -5.313488
3.179915 1.866536 -1.260437
2.961606 1.737640 -1.797014
2.946199 1.727259 -2.742499
2.916581 1.709181 -3.255440
2.894759 1.695005 -4.261956
2.824395 1.653042 -4.839791
2.861177 1.353229 -1.350880
2.819357 1.332655 -2.000052
2.859844 1.350895 -2.718886
2.831176 1.336335 -3.549952
2.807432 1.323992 -4.490801
2.625364 1.237269 -5.281509
2.701154 0.991420 -2.170474
2.753723 1.009797 -2.998567
2.784288 1.019984 -3.913966
2.741055 0.740080 -2.372818
2.759749 0.744147 -3.310793
2.700271 0.727431 -3.984282
2.702590 0.727150 -4.878677
3.052688 0.538078 -0.810454
2.634670 0.463629 -1.621663
2.631574 0.462246 -2.499593
2.640951 0.463134 -3.294166
2.615254 0.457896 -4.073563
2.525257 0.441480 -4.811771
2.847002 0.254874 -1.151616
2.526211 0.225522 -1.871379
2.529441 0.225013 -2.763283
2.526409 0.224213 -3.359816
2.603789 0.230134 -4.387826
2.465156 0.217280 -5.102869
2.458518 0.007158 -2.289857
2.428554 0.006240 -3.272946
2.429119 0.005771 -3.829307
2.469599 0.004976 -4.866491
1.913087 0.003535 -5.428383
2.472003 -0.225978 -1.120445
2.288934 -0.210042 -2.117697
2.285010 -0.210264 -2.844935
2.308448 -0.213131 -3.722058
2.341632 -0.216845 -4.514494
2.121386 -0.196911 -5.169817
2.209102 -0.388456 -2.452376
2.259559 -0.397909 -3.166306
2.289797 -0.403954 -4.043762
2.374027 -0.657118 -1.312022
2.155438 -0.597071 -1.885829
2.168040 -0.601109 -2.558990
2.170504 -0.602601 -3.556284
2.226642 -0.618874 -4.379027
2.055261 -0.571841 -5.191202
2.098050 -0.770852 -2.324414
2.157409 -0.793426 -3.219544
2.134692 -0.785549 -3.790733
2.261032 -1.071958 -0.929087
2.002848 -0.950455 -1.993736
2.018223 -0.958359 -2.699282
2.030225 -0.964752 -3.502982
2.058215 -0.978766 -4.317906
1.916201 -0.911853 -5.105652
2.020242 -1.187249 -1.454502
1.938377 -1.139740 -2.120405
1.910656 -1.124052 -2.807709
1.921720 -1.131495 -3.848895
1.958974 -1.154215 -4.707163
1.674417 -0.986967 -5.281925
1.864717 -1.336549 -2.470543
1.840076 -1.319498 -3.104391
1.868901 -1.341095 -4.046339
1.849092 -1.327537 -4.728471
1.980362 -1.696811 -1.137968
1.835927 -1.574028 -2.015402
1.787747 -1.533391 -2.637518
1.811953 -1.555275 -3.661826
1.827763 -1.569614 -4.357261
1.743781 -1.498462 -5.299307
1.772847 -1.817521 -1.330656
1.752660 -1.798083 -2.329277
1.748250 -1.794373 -2.978695
1.761198 -1.808671 -3.777174
1.758900 -1.807172 -4.462608
1.556365 -1.600031 -5.362726
1.810237 -2.209739 -1.088647
1.724457 -2.106531 -2.084147
1.720074 -2.102229 -2.782453
1.736553 -2.123771 -3.702756
1.731266 -2.118285 -4.352698
1.664924 -2.038242 -5.146687
1.964743 -2.893397 -0.688459
1.714924 -2.527460 -1.710366
1.679405 -2.476439 -2.415884
1.680595 -2.479584 -3.151559
1.696847 -2.505207 -4.013396
1.709317 -2.525255 -4.868168
1.621584 -2.912133 -1.137408
1.603601 -2.882131 -2.084285
1.600241 -2.877780 -2.782644
1.600439 -2.879675 -3.419647
1.629798 -2.934633 -4.282674
1.575842 -2.839222 -5.033150
1.430160 -3.143202 -0.958030
1.245233 -2.738932 -1.806685
1.240761 -2.730956 -2.530911
1.240539 -2.732220 -3.214298
1.246215 -2.746540 -3.919344
1.271998 -2.805996 -4.917189
0.980535 -2.792471 -1.190493
0.924353 -2.634821 -1.985498
0.939238 -2.679579 -2.752472
0.928722 -2.652137 -3.611541
0.919919 -2.629160 -4.347096
0.875323 -2.503796 -5.111742
0.651050 -2.572808 -2.204251
0.661205 -2.616830 -3.207747
0.657962 -2.606687 -3.910247
0.451479 -2.796881 -1.141862
0.400781 -2.487751 -2.041992
0.402184 -2.499894 -2.657457
0.403494 -2.512509 -3.455048
0.406855 -2.539108 -4.456898
0.396835 -2.480592 -5.194931
0.170758 -2.408363 -1.345556
0.174293 -2.467723 -2.118818
0.173858 -2.471766 -2.948813
0.175689 -2.510340 -3.949037
0.174804 -2.505720 -4.592556
0.143610 -2.067101 -5.482897
-0.039604 -2.312262 -2.362539
-0.040634 -2.337845 -3.087815
-0.040788 -2.309641 -3.894774
-0.042035 -2.331137 -4.970242
-0.265426 -2.471976 -1.247604
-0.234311 -2.177234 -1.952302
-0.240710 -2.230297 -2.827244
-0.242847 -2.244388 -3.609579
-0.244835 -2.256556 -4.459196
-0.226362 -2.082259 -5.087474
-0.508798 -2.580218 -1.031670
-0.416893 -2.111670 -1.686411
-0.416788 -2.107838 -2.544147
-0.422234 -2.132709 -3.229817
-0.431685 -2.176497 -4.227391
-0.417469 -2.101666 -5.070357
-0.633712 -2.147982 -1.351601
-0.599676 -2.030919 -2.009522
-0.611096 -2.066990 -2.994775
-0.631379 -2.133409 -3.795562
-0.624532 -2.108399 -4.499725
-0.542199 -1.828498 -5.385370
-0.797573 -2.048773 -2.540908
-0.803745 -2.063423 -3.108351
-0.810154 -2.077775 -4.096737
-0.808095 -2.070789 -4.908215
-1.096930 -2.249594 -0.950270
-0.949246 -1.945033 -1.942863
-0.957558 -1.960805 -2.670689
-0.963816 -1.972224 -3.475419
-0.951482 -1.945371 -4.427804
-0.887985 -1.814521 -5.097116
-4.322834 -7.048018 -0.358097
-1.186869 -1.933509 -1.467953
-1.129024 -1.838124 -2.275438
-1.137356 -1.850809 -2.886065
-1.156867 -1.881477 -3.624849
-1.186934 -1.928864 -4.632577
-1.046696 -1.699904 -5.482539
-1.340053 -1.823194 -2.365560
-1.334513 -1.814877 -2.955177
-1.348657 -1.832984 -3.801386
-1.388408 -1.885570 -4.850114
-1.132472 -1.537246 -5.582380
-1.556988 -1.756910 -2.520557
-1.548892 -1.747133 -3.045268
-1.550847 -1.748277 -3.913565
-1.540551 -1.735746 -4.679901
-1.799845 -1.706736 -2.235402
-1.800214 -1.706197 -2.980607
-1.810586 -1.714838 -3.972755
-1.775548 -1.680614 -4.869596
-2.122060 -1.675566 -2.201407
-2.143384 -1.691084 -3.279392
-2.159453 -1.702849 -4.020997
-2.502686 -1.646102 -2.468172
-2.525308 -1.660079 -3.170411
-2.574145 -1.691032 -4.049926
-2.595939 -1.704479 -4.712763
-2.269922 -1.489512 -5.565061
-3.155886 -1.694124 -1.088741
-3.121595 -1.674446 -1.967536
-3.139878 -1.683185 -2.700774
-3.158069 -1.691697 -3.549514
-3.172270 -1.698043 -4.411894
-3.091479 -1.653866 -5.082959
-3.754261 -1.594545 -0.972717
-3.614141 -1.534032 -1.620302
-3.582168 -1.519313 -2.369511
-3.571233 -1.513390 -3.212718
-3.562728 -1.508739 -3.904409
-3.563788 -1.507578 -4.971722
-3.596516 -1.189873 -1.287815
-3.571878 -1.180263 -2.305671
-3.540218 -1.168954 -2.905529
-3.536446 -1.166571 -3.712249
-3.575063 -1.178131 -4.537977
-3.336305 -1.098473 -5.313338
-3.454909 -0.824211 -2.142751
-3.458523 -0.824027 -2.939616
-3.493730 -0.831152 -3.891732
-3.390526 -0.805814 -4.519333
-3.021004 -0.716982 -5.466314
-3.771724 -0.537644 -1.184612
-3.400451 -0.483947 -1.817689
-3.386955 -0.481229 -2.461555
-3.361465 -0.476434 -3.421043
-3.325765 -0.470592 -4.072773
-3.295798 -0.465164 -5.075163
-3.336114 -0.177610 -2.383515
-3.321616 -0.175859 -3.207881
-3.338991 -0.175920 -3.927731
-3.191557 0.118735 -2.434519
-3.193397 0.119612 -3.145579
-3.180397 0.120167 -4.070620
-3.095610 0.117587 -4.650194
-3.552203 0.435146 -0.975467
-3.129827 0.384197 -1.685076
-3.105079 0.382167 -2.585207
-3.065605 0.378165 -3.364535
-3.028634 0.374565 -4.253640
-3.001624 0.371882 -4.871321
-3.194159 0.669377 -1.305808
-3.058009 0.641759 -2.114703
-3.052355 0.641355 -2.805832
-2.995329 0.630257 -3.609090
-2.995903 0.631424 -4.559274
-2.762849 0.582982 -5.260208
-2.945556 0.912577 -2.273980
-2.925164 0.907142 -3.051475
-2.890215 0.897105 -3.770546
-2.914552 0.905693 -4.687556
-2.534895 0.788273 -5.315539
-3.070846 1.240971 -1.262612
-2.853066 1.154025 -2.169641
-2.821127 1.141838 -2.800879
-2.840648 1.150736 -3.650845
-2.805172 1.137057 -4.256401
-2.636479 1.069500 -5.043555
-2.964834 1.527992 -1.209961
-2.777004 1.432314 -2.114703
-2.713488 1.400551 -2.936634
-2.718776 1.404087 -3.598650
-2.722574 1.406985 -4.368481
-2.579217 1.333934 -5.291991
-2.928322 1.840606 -1.154331
-2.764728 1.738869 -1.950681
-2.717849 1.710386 -2.694538
-2.671876 1.682606 -3.568466
-2.688991 1.694306 -4.260654
-2.624922 1.654742 -4.893147
-2.718749 2.072013 -2.420189
-2.653401 2.023568 -3.332267
-2.609262 1.990965 -4.060012
-2.724525 2.483153 -2.299996
-2.702584 2.464333 -2.962691
-2.659845 2.426704 -3.734817
-2.625179 2.396687 -4.678325
-2.310790 2.110482 -5.282145
-2.650895 2.885861 -2.408756
-2.661448 2.899211 -3.290060
-2.661750 2.901185 -4.072676
-2.566570 3.351400 -2.023560
-2.577945 3.368900 -3.059286
-2.588275 3.384304 -3.802287
-2.597802 3.398855 -4.619567
-2.445447 3.200853 -5.209789
-2.402528 3.784814 -1.113060
-2.369206 3.735175 -2.052945
-2.365731 3.731815 -2.750935
-2.369821 3.740418 -3.459894
-2.364952 3.734730 -4.121961
-2.356793 3.724572 -5.033639
-2.122103 4.053640 -0.829333
-1.981698 3.787976 -1.584943
-1.945543 3.721865 -2.492388
-1.930033 3.695073 -3.371730
-1.939492 3.715572 -4.096274
-1.914024 3.668745 -4.709147
-1.529493 3.681315 -1.230026
-1.533129 3.693282 -2.076542
-1.526190 3.679930 -2.967782
-1.496796 3.611181 -3.549721
-1.504739 3.633781 -4.476192
-1.412809 3.414080 -5.172612
-1.226521 3.891212 -1.013363
-1.141975 3.625758 -1.625710
-1.125219 3.576503 -2.502015
-1.128528 3.590799 -3.336137
-1.121514 3.572103 -4.145594
-1.089431 3.472493 -4.751373
-0.777586 3.524855 -2.273700
-0.775483 3.521173 -3.246506
-0.768212 3.492549 -3.986997
-0.438113 3.453470 -2.219273
-0.434276 3.430682 -2.978367
-0.439999 3.484730 -3.858160
-0.440864 3.499652 -4.660773
-0.376436 2.993775 -5.382884
-0.143374 3.578104 -1.057849
-0.134677 3.387202 -1.923587
-0.132379 3.347599 -2.528579
-0.131592 3.360947 -3.622360
-0.132014 3.396933 -4.435114
-0.123939 3.209147 -5.143701
0.170471 3.339404 -1.448318
0.171077 3.331339 -2.300606
0.169488 3.289174 -2.793020
0.168814 3.253008 -3.821217
0.169191 3.242335 -4.632088
0.152202 2.904102 -5.323436
0.486735 3.475114 -1.163125
0.446325 3.180831 -1.870059
0.444260 3.158937 -2.748323
0.438055 3.109786 -3.380990
0.435827 3.086080 -4.383660
0.421765 2.982175 -4.968563
0.732019 3.135321 -1.473872
0.739941 3.165848 -2.138959
0.706209 3.017979 -2.880669
0.694894 2.965696 -3.715884
0.689625 2.939957 -4.415956
0.616303 2.624130 -5.245507
0.968651 2.959860 -2.366327
0.945237 2.885991 -3.043016
0.953440 2.908182 -3.862064
1.364054 3.170798 -0.896035
1.271404 2.952463 -1.922048
1.256344 2.915760 -2.529793
1.243216 2.882931 -3.370572
1.243580 2.881034 -4.349558
1.198065 2.774284 -4.850422
1.535015 2.851665 -1.306665
1.540144 2.859309 -2.076632
1.508823 2.799089 -2.947889
1.521377 2.820345 -3.795010
1.531712 2.837432 -4.655896
1.381986 2.558728 -5.323436
1.966786 3.030331 -1.273235
1.841083 2.835639 -1.737272
1.783632 2.745498 -2.512798
1.761450 2.709743 -3.278650
1.812491 2.786221 -4.212909
1.785851 2.743929 -4.850173
2.422785 3.091636 -0.935820
2.222779 2.834917 -1.654947
2.172337 2.768993 -2.434449
2.172801 2.767612 -3.399505
2.189283 2.787048 -4.157206
2.221081 2.825797 -4.987305
2.787377 2.976078 -0.921908
2.642569 2.819469 -1.899542
2.621598 2.795636 -2.619795
2.602024 2.773584 -3.208889
2.577988 2.746161 -4.122361
2.562586 2.728107 -4.967657
3.043874 2.723916 -1.175936
2.920311 2.611835 -1.968454
2.911988 2.603202 -2.594152
2.920288 2.609176 -3.353491
2.929265 2.615571 -4.208049
2.935389 2.619391 -5.077381
2.955263 2.197304 -2.238380
2.973451 2.209179 -3.227671
2.899735 2.153423 -3.848014
2.935256 2.178126 -4.874727
2.543836 1.887069 -5.372431
6.768686 4.204256 -0.361345
2.949300 1.830297 -1.505524
2.890605 1.792964 -2.140896
2.874956 1.782073 -2.973893
2.873988 1.780304 -3.798386
2.828056 1.750950 -4.454189
2.623214 1.623288 -5.139547
3.020067 1.527566 -1.177317
2.727925 1.379098 -1.762570
2.746622 1.387563 -2.567712
2.748478 1.387667 -3.249771
2.758772 1.391770 -4.143821
2.749808 1.386324 -4.906755
2.700238 1.067250 -2.190030
2.750432 1.086190 -2.986154
2.790528 1.100860 -4.005545
2.768912 1.091571 -4.686208
2.435429 0.959267 -5.589882
2.907220 0.846258 -0.947877
2.684996 0.780435 -2.059082
2.695025 0.782752 -2.638671
2.682165 0.778216 -3.422359
2.709615 0.785132 -4.438851
2.562256 0.741876 -5.034650
2.551201 0.515629 -2.185967
2.608765 0.526435 -3.051617
2.639695 0.531808 -3.952408
2.814865 0.318047 -1.131361
2.492974 0.281076 -1.819635
2.489243 0.279943 -2.627393
2.496685 0.280122 -3.372562
2.518936 0.281745 -4.353941
2.349902 0.262299 -5.030864
2.438087 0.053028 -2.376205
2.435649 0.052395 -3.058704
2.450041 0.051866 -4.041482
2.383802 -0.152813 -1.325174
2.372037 -0.152768 -2.177392
2.353203 -0.152249 -3.022060
2.284529 -0.148327 -3.681835
2.348326 -0.153337 -4.740724
1.907523 -0.124960 -5.417630
2.600852 -0.401399 -1.095009
2.241850 -0.346726 -2.023158
2.199368 -0.340583 -2.571291
2.228836 -0.345953 -3.588262
2.283603 -0.355098 -4.379027
2.237351 -0.348570 -5.228083
2.276273 -0.563085 -1.497042
2.127207 -0.526589 -1.984332
2.144469 -0.531700 -3.044326
2.170713 -0.538695 -3.654537
2.248579 -0.558844 -4.647976
1.903279 -0.473394 -5.224912
2.482927 -0.857974 -0.915540
2.136350 -0.738998 -1.863310
2.103781 -0.728318 -2.581958
2.104734 -0.729210 -3.268377
2.176703 -0.755033 -4.315159
2.090598 -0.725731 -5.028726
2.026632 -0.908003 -2.496616
2.023783 -0.907278 -3.151029
2.103765 -0.943971 -4.099569
2.087265 -0.937192 -4.824336
2.074675 -1.139649 -1.421685
1.953870 -1.073999 -2.228427
1.939122 -1.066352 -2.754359
1.964701 -1.081275 -3.718517
1.957047 -1.077632 -4.366061
1.686938 -0.929602 -5.338996
2.303800 -1.543616 -0.733199
1.919381 -1.287140 -1.871573
1.909704 -1.281309 -2.555724
1.884978 -1.265309 -3.178981
1.886144 -1.266886 -4.016955
1.864370 -1.253076 -4.894441
1.873179 -1.514101 -1.165076
1.823323 -1.474734 -2.051184
1.819544 -1.472450 -2.788126
1.810992 -1.466353 -3.581405
1.877324 -1.521208 -4.636149
1.692036 -1.371714 -5.337480
2.161488 -2.082733 -0.896219
1.819614 -1.754269 -1.680874
1.805497 -1.741397 -2.286918
1.813502 -1.750199 -3.169294
1.830473 -1.767577 -3.978248
1.817400 -1.755854 -4.719600
1.903625 -2.198405 -1.139639
1.771612 -2.046872 -1.778667
1.789826 -2.069285 -2.706966
1.772254 -2.049878 -3.334186
1.789043 -2.070464 -4.128881
1.766785 -2.046119 -5.115730
2.003642 -2.776580 -0.772547
1.816506 -2.519069 -1.739417
1.777959 -2.466812 -2.391851
1.770384 -2.457882 -3.254003
1.789991 -2.486740 -4.136075
1.777015 -2.469954 -4.815951
1.664250 -2.810288 -1.378494
1.660651 -2.806329 -2.305137
1.661719 -2.809873 -3.066734
1.668472 -2.822945 -3.787583
1.680329 -2.844601 -4.477845
1.601930 -2.713932 -5.438410
1.441870 -3.000966 -1.002655
1.281022 -2.668176 -1.829973
1.293673 -2.695888 -2.384509
1.295930 -2.702524 -3.172473
1.317475 -2.750102 -4.232756
1.295433 -2.705640 -4.874474
0.998165 -2.619959 -2.195719
1.008537 -2.649524 -3.027353
1.012486 -2.661922 -3.745697
1.017956 -2.678731 -4.603913
0.894269 -2.355176 -5.431257
0.797218 -2.825644 -1.233163
0.735706 -2.609850 -1.873484
0.711552 -2.526431 -2.545053
0.716549 -2.547331 -3.467282
0.747323 -2.660000 -4.370939
0.713781 -2.543443 -5.220572
0.467058 -2.472405 -2.413985
0.464974 -2.464190 -3.010467
0.458948 -2.436030 -3.824411
0.455203 -2.419711 -4.598429
0.373901 -1.990756 -5.511255
0.237417 -2.411412 -2.526333
0.232222 -2.364694 -3.245260
0.231062 -2.361366 -4.253787
0.227441 -2.329192 -4.839478
0.024664 -2.534703 -1.203669
0.021472 -2.261991 -1.895282
0.020782 -2.276740 -2.942639
0.020527 -2.295596 -3.477224
0.019757 -2.304369 -4.541537
0.017588 -2.095842 -5.098177
-0.183791 -2.200046 -2.283211
-0.186986 -2.230687 -3.095707
-0.192403 -2.286728 -3.993102
-0.193448 -2.290477 -4.909525
-0.385064 -2.256869 -1.349874
-0.365960 -2.141537 -2.103104
-0.374229 -2.185177 -3.140360
-0.382119 -2.227714 -3.899738
-0.381725 -2.221500 -4.752794
-0.317634 -1.846538 -5.324182
-0.570555 -2.165615 -1.351601
-0.555306 -2.105257 -2.188551
-0.561133 -2.125232 -2.894902
-0.577213 -2.183109 -3.878422
-0.573802 -2.167857 -4.656846
-0.480185 -1.812585 -5.334945
-0.769526 -2.128195 -1.308111
-0.737542 -2.038198 -2.006963
-0.747196 -2.063008 -2.841526
-0.745613 -2.056797 -3.669867
-0.745422 -2.054219 -4.598697
-0.637535 -1.755705 -5.281126
-1.077796 -2.314955 -0.980780
-0.915560 -1.964680 -2.006963
-0.924415 -1.982352 -2.745437
-0.928230 -1.989220 -3.475419
-0.946370 -2.026835 -4.160727
-0.900688 -1.927652 -4.952748
-1.077228 -1.892791 -2.199232
-1.087054 -1.908521 -3.195739
-1.124552 -1.973057 -4.006300
-1.307331 -1.888164 -1.541552
-1.253677 -1.809824 -2.176483
-1.270473 -1.832962 -2.989060
-1.292502 -1.863382 -3.974335
-1.295629 -1.866897 -4.696509
-1.072760 -1.545049 -5.377992
-1.528805 -1.835380 -1.325174
-1.526201 -1.830993 -2.294267
-1.563081 -1.874146 -3.111750
-1.533701 -1.838128 -3.725558
-1.540125 -1.844515 -4.734688
-1.377992 -1.649503 -5.493902
-1.792425 -1.801202 -2.412434
-1.790363 -1.798301 -3.072031
-1.770707 -1.777566 -3.874915
-1.797920 -1.803622 -4.878334
-2.261456 -1.898408 -0.939263
-2.100177 -1.761729 -1.967017
-2.120923 -1.778071 -2.799899
-2.150905 -1.802212 -3.569508
-2.137599 -1.790332 -4.144592
-2.069840 -1.732442 -5.084118
-2.528421 -1.760974 -2.232247
-2.519233 -1.753378 -3.134979
-2.515035 -1.749456 -3.893381
-3.229786 -1.860677 -0.920306
-3.084485 -1.775670 -1.801398
-3.110261 -1.789709 -2.336979
-3.126475 -1.797661 -3.256797
-3.076185 -1.767726 -3.958704
-3.109901 -1.785669 -4.925535
-3.591905 -1.678065 -1.322589
-3.544291 -1.655002 -1.845976
-3.553009 -1.657576 -2.798290
-3.551955 -1.655750 -3.651788
-3.550977 -1.654217 -4.343545
-3.509453 -1.633618 -5.169228
-3.495877 -1.236744 -2.247159
-3.490051 -1.233777 -2.886925
-3.511665 -1.239890 -3.960990
-3.467873 -1.223761 -4.444274
-3.117843 -1.099041 -5.458756
-3.868583 -1.023167 -0.883032
-3.464737 -0.915159 -1.789911
-3.472118 -0.916321 -2.378160
-3.482220 -0.917893 -3.195049
-3.425782 -0.902089 -3.907167
-3.325263 -0.874562 -4.755709
-3.756175 -0.633429 -1.164141
-3.395774 -0.571626 -1.993404
-3.383878 -0.568847 -2.616651
-3.331225 -0.559257 -3.224383
-3.376220 -0.565597 -4.201895
-3.297209 -0.551655 -4.799247
-3.427129 -0.283034 -1.310147
-3.317195 -0.272924 -2.176221
-3.293424 -0.270068 -2.938261
-3.321988 -0.271353 -3.824095
-3.233759 -0.263492 -4.400588
-2.904668 -0.235916 -5.183808
-3.680365 0.045802 -1.044779
-3.227531 0.040875 -1.671376
-3.257936 0.042399 -2.649473
-3.313598 0.043962 -3.355192
-3.226496 0.043815 -4.244712
-3.149601 0.043450 -4.865971
-3.541955 0.328565 -1.099766
-3.194217 0.297086 -1.786870
-3.132284 0.292090 -2.468953
-3.075407 0.287767 -3.364535
-3.013647 0.282689 -4.023845
-2.982624 0.280640 -4.843104
-3.253685 0.596310 -1.127784
-3.000150 0.550940 -2.129289
-2.939764 0.540506 -2.741776
-2.942547 0.541731 -3.404672
-2.974394 0.548498 -4.235503
-2.825402 0.522044 -5.253442
-3.398926 0.934663 -0.822074
-2.972509 0.818498 -1.792721
-2.869044 0.790835 -2.553483
-2.885122 0.795890 -3.120186
-2.958812 0.817427 -4.188264
-2.922710 0.808049 -4.732386
-2.867225 1.079712 -2.358978
-2.834911 1.068217 -2.948994
-2.873513 1.083947 -3.966444
-2.795514 1.343063 -2.147370
-2.749220 1.321716 -2.894867
-2.757825 1.327014 -3.862064
-2.826134 1.360996 -4.761803
-2.457183 1.183825 -5.294800
-2.949928 1.761229 -1.217116
-2.774072 1.657594 -2.233903
-2.769331 1.655655 -2.902463
-2.734449 1.635727 -3.607762
-2.691935 1.611519 -4.560822
-2.575580 1.542488 -5.086808
-2.962284 2.141166 -1.024917
-2.792332 2.019873 -2.045077
-2.756221 1.994517 -2.556298
-2.779139 2.012598 -3.542877
-2.731879 1.979349 -4.207402
-2.650189 1.921334 -5.040257
-2.775744 2.383855 -2.260416
-2.742388 2.356591 -3.069501
-2.750781 2.365405 -4.002317
-2.721891 2.341496 -4.558958
-2.431610 2.093089 -5.483361
-2.873283 2.969755 -1.093184
-2.738232 2.831813 -1.895745
-2.731271 2.826022 -2.582221
-2.744995 2.842041 -3.463437
-2.747070 2.845778 -4.235842
-2.729607 2.829350 -5.056978
-2.530651 3.110758 -2.270001
-2.442625 3.003740 -2.812237
-2.484216 3.056674 -3.598364
-2.623350 3.230544 -4.695869
-2.517803 3.101557 -5.152145
-2.533934 3.787574 -1.080703
-2.419520 3.618156 -1.642263
-2.438800 3.650071 -2.702410
-2.437144 3.649326 -3.301021
-2.443199 3.660249 -3.940678
-2.439654 3.657295 -4.758365
-2.043046 3.683278 -1.242873
-2.057608 3.711906 -1.981733
-2.031647 3.667484 -2.747391
-2.018889 3.647238 -3.637645
-2.025249 3.660654 -4.251047
-1.914219 3.462247 -5.053629
-1.581583 3.597468 -2.182738
-1.569707 3.574062 -3.210582
-1.568038 3.572066 -3.725694
-1.244867 3.659787 -1.356785
-1.211080 3.562631 -1.873861
-1.206153 3.552384 -2.883102
-1.200822 3.539665 -3.597008
-1.199130 3.537577 -4.291941
-1.139616 3.365667 -5.244560
-0.919611 3.791212 -0.864976
-0.849070 3.505236 -1.747566
-0.854161 3.531187 -2.633730
-0.851171 3.523414 -3.462558
-0.836455 3.466056 -4.123569
-0.801237 3.323538 -4.800191
-0.504597 3.398287 -2.294563
-0.504385 3.403393 -3.073357
-0.505186 3.416771 -4.020786
2.480436 -0.108859 -1.248498
2.549711 -0.112712 -2.153081
2.557613 -0.114018 -3.219039
2.562300 -0.115114 -4.209502
3.227309 -0.398846 -1.690099
2.561362 -0.317004 -2.222072
2.483880 -0.308517 -3.478322
2.501171 -0.311522 -4.447196
2.259765 -0.452202 -0.527802
2.576441 -0.516633 -1.648122
2.579887 -0.518015 -2.380655
2.507549 -0.504556 -3.553440
2.554196 -0.514670 -4.335633
2.500978 -0.726138 -1.639509
2.485727 -0.722673 -2.658498
2.511824 -0.731177 -3.617924
2.482671 -0.941473 -0.798107
2.412678 -0.916093 -1.998065
2.436605 -0.926002 -2.839509
2.466085 -0.938153 -3.797219
2.430629 -1.153603 -1.123636
2.337863 -1.110656 -2.201132
2.349256 -1.116970 -3.093388
2.343264 -1.115225 -4.195744
2.900281 -1.674179 -0.474151
2.379479 -1.374651 -1.467078
2.406975 -1.391604 -2.409111
2.395306 -1.385869 -3.309510
2.349864 -1.360870 -4.493030
2.345834 -1.619240 -1.694444
2.396788 -1.655309 -2.408721
2.360699 -1.631698 -3.480493
2.355304 -1.629024 -4.344376
2.337937 -1.916259 -1.804895
2.374849 -1.947691 -2.637951
2.286780 -1.877106 -3.862638
2.385088 -2.292561 -0.981404
2.357994 -2.268285 -2.070905
2.289557 -2.204184 -3.180317
2.273916 -2.190366 -3.981198
2.763569 -3.114819 -0.593716
2.306853 -2.601510 -1.376649
2.309738 -2.606501 -2.297361
2.286790 -2.582348 -3.236214
2.250830 -2.543533 -4.223773
2.221316 -2.951297 -0.554748
2.019746 -2.685316 -1.472875
2.012784 -2.678002 -2.446375
1.963726 -2.614689 -3.461431
2.000784 -2.665616 -4.260463
1.672477 -2.655426 -1.565548
1.664840 -2.645528 -2.633619
1.641714 -2.610651 -3.549308
1.632908 -2.598818 -4.619306
1.414154 -2.688925 -1.763502
1.417810 -2.697891 -2.629794
1.380813 -2.629984 -3.741129
1.121796 -2.635081 -0.951172
1.121191 -2.636238 -1.947008
1.099448 -2.588010 -3.093442
1.105319 -2.604205 -4.027420
0.881428 -2.583017 -1.162309
0.887778 -2.604710 -2.188400
0.896250 -2.632605 -3.187150
0.900636 -2.648364 -4.131495
0.667247 -2.631144 -1.061010
0.647425 -2.557029 -2.136225
0.648578 -2.564995 -3.038467
0.667316 -2.642634 -3.938615
0.431454 -2.627360 -3.067215
0.426811 -2.604661 -4.049291
0.182517 -2.221123 -1.357593
0.207664 -2.539394 -2.468974
0.205332 -2.521783 -3.475418
0.206809 -2.549224 -4.321409
0.001898 -2.442561 -2.936254
0.001086 -2.497655 -3.914342
-0.206247 -2.541433 -1.141958
-0.206297 -2.531356 -2.113306
-0.200516 -2.450601 -3.046499
-0.202561 -2.462778 -4.261455
-0.398801 -2.449942 -3.135590
-0.395997 -2.426516 -4.303465
-0.585642 -2.401411 -3.248319
-0.589821 -2.414706 -4.300073
-0.831149 -2.511178 -0.962490
-0.830548 -2.506135 -2.054668
-0.817055 -2.462131 -3.195370
-0.821524 -2.473060 -4.073397
-1.008247 -2.377434 -0.986396
-1.012814 -2.385916 -1.966657
-1.021542 -2.404096 -2.980902
-1.029324 -2.420226 -3.909175
-1.042375 -1.998222 -0.726843
-1.238144 -2.371435 -1.736614
-1.265824 -2.422282 -2.777434
-1.253074 -2.395713 -3.840368
-1.518200 -2.421150 -0.829095
-1.460334 -2.326911 -1.904519
-1.450915 -2.310017 -2.949819
-1.455607 -2.315761 -3.907325
-1.750119 -2.353399 -0.774639
-1.729636 -2.323739 -2.005534
-1.770894 -2.377912 -2.717093
-1.687942 -2.264481 -3.957650
-2.116273 -2.412338 -0.823691
-2.048824 -2.333702 -1.870301
-2.063758 -2.349170 -2.784063
-1.992268 -2.265962 -3.926373
-2.449800 -2.381576 -1.047439
-2.402766 -2.334134 -2.075912
-2.365938 -2.296747 -3.059988
-2.320080 -2.250478 -4.162279
-2.857479 -2.360324 -0.524251
-2.732656 -2.255516 -1.553930
-2.736737 -2.257462 -2.412696
-2.729929 -2.250147 -3.446809
-2.754787 -2.269150 -4.343482
-3.338798 -2.296023 -0.735682
-3.255143 -2.236601 -1.822995
-3.231266 -2.218403 -2.862799
-3.272992 -2.245660 -3.655334
-3.362528 -1.973314 -2.103120
-3.397652 -1.992502 -2.959965
-3.380533 -1.980931 -3.895292
-3.380066 -1.631151 -2.210660
-3.415851 -1.647095 -3.079389
-3.399307 -1.637825 -3.938426
-3.375768 -1.303749 -3.281272
-3.431090 -1.323984 -4.075806
-3.361495 -0.999545 -2.156011
-3.381867 -1.004380 -3.080585
-3.353961 -0.994594 -4.232588
-3.476528 -0.734373 -2.322643
-3.411644 -0.719345 -3.362083
-3.381549 -0.711840 -4.286639
-3.433910 -0.442170 -0.460541
-3.290533 -0.422360 -1.585781
-3.405705 -0.436176 -2.360578
-3.340970 -0.426626 -3.402543
-3.304529 -0.420741 -4.439178
-3.323920 -0.160496 -2.737947
-3.355118 -0.160975 -3.592374
-3.249725 0.102074 -2.884008
-3.294975 0.104559 -3.787451
-3.311473 0.372997 -0.919788
-3.184816 0.360011 -2.035071
-3.278570 0.371546 -2.820115
-3.262010 0.371051 -3.997698
-3.287712 0.640257 -1.151149
-3.274541 0.638953 -2.187034
-3.256015 0.636412 -3.078221
-3.240607 0.634626 -4.104981
-5.699704 1.590546 -0.616482
-3.246452 0.909171 -3.233045
-3.283752 0.920707 -4.093461
-2.849741 1.050927 -0.444217
-3.189132 1.177664 -1.651662
-3.170133 1.171954 -2.664042
-3.213477 1.189133 -3.546261
-3.171036 1.174686 -4.532457
-3.098821 1.435999 -1.680913
-3.110182 1.442511 -2.600543
-3.108418 1.443075 -3.625630
-3.074652 1.428676 -4.590829
-3.233246 1.834665 -0.965523
-3.197288 1.815485 -1.767032
-3.163361 1.797826 -2.833723
-3.220783 1.831734 -3.659120
-3.140580 2.114839 -1.831115
-3.155297 2.126379 -2.811683
-3.094073 2.086878 -3.903012
-3.127525 2.499775 -2.107345
-3.134073 2.506630 -2.974317
-3.040486 2.433407 -3.887691
-3.082643 2.889129 -1.178067
-3.064491 2.874470 -2.293971
-3.068757 2.880166 -3.097796
-3.004043 2.821433 -4.081805
-3.166867 3.510009 -0.605247
-3.055263 3.388001 -1.277059
-3.009560 3.340186 -2.435284
-2.990012 3.320903 -3.420328
-2.945063 3.273004 -4.269416
-2.652659 3.479631 -1.617270
-2.695324 3.537586 -2.349828
-2.626993 3.450894 -3.498253
-2.618822 3.442158 -4.266993
-2.450741 3.809863 -0.429472
-2.248475 3.497808 -1.279250
-2.254003 3.509305 -2.305469
-2.205125 3.436176 -3.391099
-2.202669 3.434597 -4.212538
-1.838655 3.461847 -2.191074
-1.862584 3.509208 -2.937831
-1.816506 3.425125 -3.859854
-1.498423 3.448502 -0.994083
-1.506543 3.470347 -1.910838
-1.525375 3.516593 -2.730617
-1.469974 3.392569 -3.847216
-1.186524 3.463994 -1.807728
-1.192820 3.486048 -2.701432
-1.175288 3.438561 -3.636026
-0.915363 3.584211 -1.636206
-0.913458 3.581900 -2.591477
-0.894181 3.511947 -3.666581
-0.574116 3.439267 -1.847293
-0.570122 3.421303 -2.637493
-0.566014 3.404118 -3.633296
-0.313633 3.422636 -1.910252
-0.314258 3.439904 -2.678416
-0.309392 3.399837 -3.666598
-0.022651 3.402155 -2.752151
-0.021028 3.355096 -3.851129
0.245056 3.368321 -1.783398
0.246334 3.368545 -2.823903
0.243679 3.313982 -3.953770
0.494900 3.340297 -1.149923
0.500585 3.371048 -2.062219
0.496471 3.335710 -2.993845
0.497536 3.335636 -3.879160
0.793862 3.346406 -1.127036
0.781828 3.290396 -2.133961
0.786186 3.304587 -2.922083
0.782518 3.283385 -4.037652
1.066403 3.295981 -1.908654
1.061809 3.278295 -2.778700
1.041423 3.211114 -3.868905
1.266127 3.052716 -0.516115
1.371890 3.304753 -1.391978
1.358624 3.269341 -2.433113
1.336699 3.213254 -3.461905
1.310715 3.148004 -4.351043
1.715293 3.325529 -0.503222
1.680573 3.255687 -1.378103
1.655865 3.205160 -2.319114
1.654546 3.199527 -3.411414
1.653693 3.195775 -4.162795
1.983129 3.209476 -1.443245
1.980210 3.202275 -2.398489
1.972132 3.186721 -3.369269
1.945874 3.142032 -4.270872
2.394721 3.250366 -1.382730
2.394512 3.247775 -2.313018
2.344052 3.176531 -3.480511
2.308488 3.126141 -4.417829
2.578202 2.969847 -0.498689
2.647659 3.047863 -1.382730
2.636527 3.032707 -2.432355
2.589447 2.976085 -3.569120
2.629232 3.020213 -4.288358
2.937943 2.864052 -0.545094
2.669214 2.600827 -1.215431
2.605590 2.536693 -2.386897
2.654443 2.582612 -3.264303
2.665494 2.591620 -4.199725
2.651909 2.210749 -2.159454
2.645144 2.203476 -3.177131
2.656793 2.211542 -4.197467
2.624226 1.844445 -2.175632
2.628592 1.846142 -3.157290
2.652020 1.861336 -4.052004
2.628111 1.548102 -1.803159
2.638850 1.553145 -2.819577
2.667992 1.569203 -3.678183
3.171690 1.530756 -0.579902
2.682909 1.294125 -1.209792
2.643753 1.273927 -2.346457
2.607191 1.255018 -3.488139
2.643511 1.271585 -4.286035
2.413616 0.937735 -0.760421
2.580498 1.001275 -1.994428
2.625405 1.017956 -2.689348
2.636513 1.021189 -3.696032
2.633948 0.786228 -0.424858
2.629704 0.783969 -1.406198
2.640383 0.786215 -2.330096
2.642807 0.785915 -3.340774
2.567502 0.762624 -4.266276
2.932259 0.626289 -0.608784
2.683958 0.572611 -1.263472
2.683834 0.571499 -2.361371
2.598432 0.552164 -3.573184
2.640386 0.560391 -4.283878
2.606502 0.359756 -1.566283
2.581618 0.355503 -2.453879
2.484200 0.341054 -3.629789
2.559951 0.350740 -4.408903
2.594699 0.145034 -2.474809
2.536713 0.140862 -3.524926
2.575863 -0.080668 -2.537622
2.576095 -0.081462 -3.409681
2.537701 -0.081106 -4.384288
2.496808 -0.276602 -1.819541
2.539987 -0.282091 -2.600471
2.504745 -0.279273 -3.840909
2.485590 -0.481546 -1.838522
2.525027 -0.489914 -2.629495
2.512313 -0.488435 -3.715124
2.249799 -0.623402 -0.588229
2.506209 -0.695530 -1.721354
2.459933 -0.683653 -2.763234
2.410640 -0.671056 -3.984614
2.498987 -0.915119 -0.920685
2.410635 -0.883690 -1.886924
2.410920 -0.884818 -2.954669
2.461444 -0.904238 -3.849506
2.447611 -1.128142 -1.041625
2.445898 -1.128332 -1.979509
2.449457 -1.130917 -2.881776
2.398764 -1.108685 -4.038836
2.523993 -1.423897 -2.076295
2.430383 -1.372390 -3.236592
2.414607 -1.364280 -3.953335
2.362638 -1.573058 -2.394360
2.424478 -1.615313 -3.265059
2.422507 -1.615345 -4.358679
2.512637 -2.001120 -0.478685
2.444875 -1.948442 -1.384316
2.407831 -1.920320 -2.385876
2.311770 -1.845122 -3.451580
2.278819 -1.820215 -4.518209
2.387337 -2.234235 -0.942615
2.430913 -2.276365 -1.766018
2.352531 -2.204722 -2.886249
2.354942 -2.208346 -3.754510
2.336202 -2.579913 -3.064593
2.306377 -2.548844 -4.090616
2.028759 -2.604878 -2.209393
2.024999 -2.601830 -3.139857
1.982798 -2.549837 -4.341513
1.683298 -2.573487 -2.174768
1.649452 -2.524037 -3.355688
1.669983 -2.557186 -4.232061
1.371556 -2.520144 -3.319619
1.422506 -2.615582 -4.140873
1.149770 -2.599570 -3.080494
1.144081 -2.589227 -4.107545
0.919345 -2.612811 -0.986565
0.897902 -2.555242 -2.161276
0.901870 -2.569546 -3.202852
0.906060 -2.583992 -4.067990
0.669506 -2.543006 -2.309676
0.679416 -2.584521 -3.359436
0.687381 -2.617861 -4.172312
0.455183 -2.543904 -1.548967
0.453989 -2.542628 -2.598080
0.448213 -2.515583 -3.644783
0.244837 -2.623475 -0.850374
0.229779 -2.473293 -2.046278
0.235713 -2.544822 -2.834072
0.231373 -2.509174 -4.012882
0.038375 -2.306351 -2.173031
0.040647 -2.492167 -3.104101
0.039680 -2.482828 -4.047583
-0.187516 -2.980073 -1.473141
-0.153777 -2.430395 -2.488911
-0.157843 -2.483770 -3.277014
-0.155100 -2.425753 -4.398037
-0.365468 -2.527187 -1.632760
-0.368145 -2.539809 -2.569042
-0.368727 -2.537803 -3.532488
-0.573451 -2.476991 -1.735657
-0.561175 -2.419522 -2.891629
-0.575654 -2.478171 -3.848288
-0.771223 -2.451356 -1.733732
-0.774814 -2.460133 -2.608551
-0.773387 -2.452659 -3.592405
-0.935880 -2.318127 -0.373941
-0.980538 -2.425529 -1.679501
-0.975935 -2.411663 -2.697943
-0.987062 -2.436999 -3.576086
-0.976119 -2.407454 -4.628810
-1.335416 -2.676292 -0.425540
-1.217370 -2.437499 -1.458343
-1.218742 -2.438194 -2.413515
-1.212667 -2.423759 -3.486782
-1.202595 -2.401685 -4.416282
-1.493292 -2.430950 -2.352766
-1.479605 -2.406730 -3.374291
-1.439094 -2.338987 -4.388731
-1.757759 -2.411038 -1.057168
-1.740971 -2.386080 -2.143064
-1.736220 -2.377896 -3.091215
-1.721697 -2.356587 -3.907077
-2.115233 -2.448058 -0.893486
-2.054512 -2.376031 -1.918426
-2.049507 -2.368532 -2.924013
-2.025133 -2.338539 -4.018018
-2.360906 -2.360575 -1.815756
-2.385775 -2.383955 -2.684550
-2.369336 -2.366081 -3.543649
-3.057640 -2.577337 -0.667131
-2.837713 -2.390684 -1.396044
-2.779141 -2.339629 -2.397080
-2.774309 -2.334090 -3.260899
-2.756759 -2.317396 -4.408984
-3.262374 -2.351219 -1.987786
-3.251494 -2.341712 -2.915744
-3.248698 -2.337980 -3.877754
-3.365736 -2.042363 -1.714472
-3.355756 -2.034920 -2.546711
-3.296011 -1.996972 -3.606460
-3.171858 -1.553206 -0.488803
-3.329488 -1.628916 -1.476135
-3.306078 -1.616077 -2.413883
-3.248970 -1.586669 -3.449797
-3.291525 -1.606213 -4.294055
-3.248822 -1.278854 -0.388955
-3.380721 -1.329361 -1.389498
-3.445460 -1.353429 -2.352874
-3.372116 -1.323119 -3.429421
-3.367389 -1.319975 -4.358032
-3.308973 -1.029378 -1.547839
-3.386193 -1.052333 -2.343056
-3.350755 -1.039645 -3.617969
-3.393605 -1.051786 -4.483361
-3.801865 -0.856969 -0.519517
-3.319951 -0.747297 -1.360098
-3.371346 -0.757669 -2.299166
-3.388799 -0.760385 -3.244106
-3.367067 -0.754283 -4.217933
-3.351127 -0.474230 -2.423933
-3.365214 -0.475038 -3.389828
-3.360135 -0.473293 -4.234022
-3.298633 -0.189147 -2.129012
-3.301595 -0.187875 -3.348374
-3.389947 -0.191727 -4.313050
-3.640249 0.071558 -1.649073
-3.324581 0.066014 -2.217833
-3.306334 0.066796 -3.188859
-3.347919 0.068855 -4.209145
-3.702750 0.369333 -0.554008
-3.312507 0.331348 -1.343586
-3.230558 0.324511 -2.513984
-3.236515 0.326179 -3.433123
-3.288180 0.332475 -4.352889
-3.200639 0.616124 -2.402816
-3.243791 0.625581 -3.358647
-3.332964 0.643755 -4.144695
-3.254161 0.884786 -2.234713
-3.223440 0.877778 -3.325380
-3.287256 0.896142 -4.103706
-3.625178 1.306477 -0.560638
-3.263289 1.177252 -1.467376
-3.301204 1.192043 -2.295571
-3.221615 1.164719 -3.387383
-3.210340 1.161759 -4.251573
-3.253325 1.452362 -1.572982
-3.187011 1.424336 -2.725497
-3.278969 1.466456 -3.441995
-3.160013 1.414819 -4.612126
-3.206489 1.752155 -1.828083
-3.264024 1.784782 -2.599782
-3.201467 1.752408 -3.832041
-3.298780 2.193570 -1.862059
-3.263978 2.172521 -3.089306
-3.240378 2.158025 -3.809278
-3.610142 2.803578 -0.656360
-3.210544 2.494213 -1.173188
-3.204749 2.491588 -2.173524
-3.184972 2.478151 -3.218271
-3.142757 2.446914 -4.104674
-3.152288 2.920992 -1.541292
-3.172199 2.941444 -2.463879
-3.072942 2.851793 -3.616975
-3.096480 2.875147 -4.334786
-3.174742 3.409668 -1.646801
-3.151516 3.387272 -2.662211
-3.093994 3.327707 -3.589329
-3.070778 3.304964 -4.510503
-2.646921 3.392385 -1.807106
-2.678134 3.434278 -2.530810
-2.603615 3.341298 -3.564656
-2.557867 3.285170 -4.622958
-2.285164 3.464063 -1.507285
-2.242584 3.402582 -2.645588
-2.260810 3.432261 -3.388969
-2.170414 3.298014 -4.558009
-1.887174 3.428033 -1.636122
-1.889778 3.435485 -2.556816
-1.880854 3.422580 -3.690372
-1.858781 3.384733 -4.498775
-1.585878 3.534382 -1.458838
-1.526737 3.405956 -2.489860
-1.495946 3.340678 -3.554585
-1.504535 3.363133 -4.567177
-1.223082 3.447231 -1.817905
-1.239314 3.496245 -2.630267
-1.210626 3.419293 -3.656395
-0.953657 3.473809 -0.849116
-0.936756 3.418050 -2.053879
-0.932378 3.406568 -2.990867
-0.930197 3.402486 -3.804315
-0.619008 3.379630 -3.197604
-0.612998 3.353437 -4.182786
-0.345137 3.380878 -3.310275
-0.345401 3.392850 -4.093461
-0.075970 3.733684 -2.559149
-0.067547 3.363884 -3.333202
-0.065766 3.334434 -4.339580
0.223176 4.089818 -1.647990
0.188149 3.436309 -2.190158
0.184964 3.352712 -3.353718
0.188435 3.398829 -4.113952
0.473481 3.394027 -1.228213
0.476671 3.408285 -2.190158
0.480327 3.426756 -3.046366
0.475428 3.382050 -4.162298
0.760013 3.409718 -2.046951
0.743665 3.330880 -3.030361
0.754974 3.376860 -3.850523
0.939670 3.033837 -0.703347
1.031129 3.323876 -1.937742
1.030719 3.318399 -2.925808
1.042197 3.351740 -3.776297
1.344046 3.391140 -0.937906
1.305322 3.289789 -1.994244
1.308844 3.295362 -2.950028
1.288848 3.241733 -3.926931
1.610850 3.251249 -1.969125
1.618896 3.264521 -2.972140
1.625996 3.275627 -4.058177
1.970128 3.282942 -2.295419
1.978310 3.294015 -3.243149
1.940931 3.229033 -4.292893
2.373986 3.300112 -1.728485
2.356101 3.272643 -2.766418
2.322659 3.223845 -3.723615
2.317702 3.215051 -4.507530
2.520310 2.993742 -0.879144
2.543759 3.019797 -1.684174
2.495943 2.960507 -2.846408
2.480604 2.940637 -3.626710
2.553432 2.537068 -1.831023
2.603684 2.585569 -2.593345
2.627230 2.607075 -3.590414
2.592039 2.230613 -1.740864
2.576034 2.215441 -2.612790
2.588096 2.224375 -3.507814
2.548086 1.846238 -1.686182
2.556727 1.851201 -2.621160
2.601656 1.882170 -3.726355
2.636643 1.613953 -1.548028
2.642827 1.616527 -2.485081
2.568957 1.569839 -3.696866
2.560924 1.563940 -4.497957
2.643015 1.338366 -1.464361
2.641220 1.336328 -2.425229
2.606584 1.317582 -3.485407
2.687269 1.357298 -4.376929
2.243858 0.919904 -0.769009
2.580775 1.056934 -1.789901
2.601841 1.064498 -2.780662
2.633191 1.076302 -3.724344
2.536080 0.797932 -3.239536
2.607663 0.819687 -3.998110
2.525476 0.568290 -0.421460
2.578384 0.579201 -1.463496
2.597722 0.582676 -2.367971
2.571389 0.575801 -3.393575
2.597850 0.580757 -4.409202
2.530344 0.377711 -1.765158
2.583046 0.384881 -2.514349
2.549751 0.379032 -3.490593
2.542095 0.172194 -2.936302
2.535161 0.170905 -3.858769
2.562043 -0.038811 -1.038762
2.583179 -0.039928 -1.916334
2.587553 -0.041028 -3.054162
2.610521 -0.042387 -4.143420
2.469678 -0.247101 -3.216821
2.552053 -0.256241 -4.209502
2.502249 -0.435085 -3.200819
2.542323 -0.442929 -4.157137
2.536066 -0.654774 -2.188515
2.482284 -0.642055 -3.451575
2.536508 -0.656956 -4.374122
2.494860 -0.874034 -1.677641
2.492088 -0.873952 -2.582885
2.408633 -0.845770 -3.736079
2.254021 -0.983387 -0.612802
2.530668 -1.105342 -1.791754
2.508356 -1.096865 -2.999442
2.585127 -1.131306 -3.797158
2.467601 -1.328870 -2.194677
2.454839 -1.322901 -3.004812
2.400417 -1.294853 -4.189966
2.531403 -1.634542 -1.471567
2.519689 -1.628232 -2.462447
2.463742 -1.593284 -3.443901
2.386035 -1.544176 -4.417153
2.486333 -1.931860 -1.897792
2.474175 -1.923635 -2.763421
2.466458 -1.918787 -3.585244
2.518677 -2.278197 -0.826396
2.442878 -2.211049 -1.717805
2.376261 -2.152274 -2.707493
2.403628 -2.178491 -3.623410
2.440188 -2.616124 -0.709128
2.403292 -2.578495 -1.745107
2.374352 -2.549278 -2.745944
2.342677 -2.517079 -3.753514
2.032437 -2.537943 -1.619636
1.984683 -2.480569 -2.870154
2.002449 -2.504066 -3.577238
1.587441 -2.364460 -0.717272
1.761812 -2.626214 -1.715500
1.689168 -2.520210 -2.902325
1.678967 -2.506947 -3.926373
1.390584 -2.498347 -1.815606
1.406731 -2.529692 -2.924608
1.463305 -2.633487 -3.856820
1.153421 -2.526262 -1.037222
1.168932 -2.562037 -1.788062
