44.215689 0.992895 6.073653
43.803618 1.002583 6.376212
43.668100 1.113422 6.935366
44.123558 1.298423 7.436588
44.348826 1.509621 8.195575
44.127636 1.526591 8.408235
44.442710 1.734838 9.097699
45.063887 1.957642 9.655287
45.004804 2.044164 10.062170
44.634256 2.096203 10.519236
44.341016 2.181231 11.068163
44.251334 2.281792 11.554378
44.041041 2.380547 12.109340
44.131930 2.515315 12.627159
44.388524 2.704527 13.272412
44.687057 3.959935 4.116362
44.387409 3.969293 4.440211
44.180063 4.018349 4.843604
44.062404 4.106915 5.328233
44.501613 4.404063 6.162580
43.389637 4.274705 6.673405
43.533857 4.442303 7.242244
43.590870 4.549785 7.640725
43.505399 4.704589 8.373723
43.829167 4.899139 8.885623
44.448445 5.148702 9.348665
44.551199 5.314031 9.947310
44.467796 5.411992 10.438988
44.170037 5.475709 10.989940
44.012965 5.511678 11.290504
43.913346 5.604589 11.776307
43.768948 5.727946 12.432821
43.919215 5.910059 13.057045
44.314906 6.096474 13.466415
44.002392 6.969538 3.191144
43.893742 7.096757 3.853281
43.602129 7.044483 4.004900
43.584212 7.155608 4.486268
43.742039 7.361408 5.137067
43.626558 7.401804 5.449351
43.386066 7.486057 6.100221
43.160133 7.511545 6.490129
43.008127 7.600427 7.048615
43.324133 7.837926 7.630980
43.452443 7.996711 8.124867
43.136765 7.949866 8.329220
43.311138 8.187290 9.089733
43.987267 8.530031 9.652838
44.120544 8.652689 9.991311
43.696822 8.696788 10.707276
43.428043 8.705289 11.081036
43.324450 8.791060 11.565682
43.308311 8.907203 12.065521
43.171806 9.003518 12.635165
43.831408 10.419822 3.453874
43.347513 10.337634 3.877610
43.135714 10.377609 4.368776
42.912507 10.433241 4.940751
42.968737 10.574565 5.421915
42.933955 10.659674 5.818723
42.691427 10.705696 6.382147
42.285566 10.622299 6.679334
42.228656 10.718247 7.154275
42.420413 10.956712 7.815107
42.362815 11.032039 8.208117
42.222688 11.052369 8.508455
42.744175 11.452043 9.304012
43.130931 11.713655 9.753947
43.202393 11.890227 10.353235
43.009568 11.934118 10.830575
42.720511 11.936402 11.290504
42.628754 12.000001 11.689576
42.533192 12.061969 12.088012
42.525289 12.251838 12.864577
42.574444 12.400692 13.387080
42.412663 13.308840 3.192363
42.382287 13.441776 3.766942
42.175162 13.448335 4.176166
41.958010 13.470060 4.663090
41.999007 13.634533 5.228430
41.568461 13.798435 6.664961
41.179535 13.667392 6.874416
41.345347 13.936181 7.615293
41.614567 14.214868 8.203226
41.354289 14.210348 8.667705
41.492552 14.337803 8.908549
41.974188 14.773743 9.716160
42.176255 14.959008 10.064224
42.033923 15.061683 10.728187
41.806087 15.005368 10.930626
41.542159 15.067128 11.660289
41.420526 15.133446 12.144157
41.403562 15.231735 12.558806
41.695852 17.055451 3.282814
41.211088 16.958405 3.969898
41.002395 16.946564 4.377494
40.677213 16.935071 5.038577
40.719537 17.066035 5.436021
40.488145 17.060859 5.917648
40.458873 17.104531 6.144109
40.036130 17.007760 6.697945
39.878633 17.042853 7.169971
40.187514 17.424675 7.927138
40.147927 17.462240 8.153125
39.942381 17.514787 8.794355
40.357476 17.898867 9.330010
40.613399 18.165463 9.771525
40.740541 18.402858 10.382799
40.521845 18.427430 10.948031
40.339648 18.425955 11.336970
40.215784 18.484752 11.824701
40.003399 18.487493 12.294743
39.845220 18.548415 12.864700
39.952817 18.755682 13.405780
39.502004 19.494780 3.036941
39.786241 19.843503 3.586565
39.721746 19.984692 4.246767
39.365747 19.808492 4.486688
39.206689 19.883496 5.141569
39.249435 20.000449 5.454053
39.113217 20.018838 5.851566
38.714538 19.879057 6.325262
38.394352 19.791183 6.792573
38.435905 20.025753 7.526991
38.395898 20.061152 7.750613
38.535227 20.319321 8.330804
38.764609 20.619839 8.842386
38.968514 20.929578 9.448911
39.203452 21.315328 10.250604
39.267798 21.480006 10.680469
39.029586 21.399069 10.972704
38.767983 21.325299 11.347483
38.593720 21.390884 12.005865
38.428042 21.361053 12.303387
38.319483 21.475517 12.975773
38.644741 21.866624 13.576420
38.489902 23.415389 3.447058
37.956480 23.161668 4.050174
37.673759 23.053991 4.459577
37.555461 23.051949 4.774931
37.423507 23.063733 5.173781
36.890605 23.058775 6.608563
36.546146 22.967242 7.240179
36.719094 23.204121 7.562433
36.915177 23.538984 8.149812
36.855986 23.687511 8.808427
36.845077 23.799834 9.214295
37.132864 24.168193 9.664090
37.297916 24.487980 10.285495
37.206631 24.616476 10.964439
36.876917 24.456692 11.327333
36.792073 24.482206 11.643853
36.559072 24.458960 12.200593
36.394079 24.495110 12.771025
36.515568 24.786858 13.417179
36.308138 25.823716 3.358413
35.829404 25.480901 3.700560
35.569719 25.338420 4.022640
35.614612 25.612435 4.749852
35.628451 25.751225 5.144558
35.566276 25.818853 5.541069
35.472217 25.910545 6.107584
35.113604 25.695047 6.493540
34.722096 25.498984 7.037962
34.718729 25.621052 7.431147
34.694834 25.750934 7.909682
34.684154 25.867268 8.306531
34.807483 26.226073 9.067540
34.908062 26.483036 9.576238
35.213804 26.946643 10.125815
35.393622 27.260040 10.576915
35.126282 27.155632 11.041200
34.855829 27.046496 11.499864
34.675648 26.998656 11.883501
34.537346 27.021982 12.366478
34.480272 27.187587 13.055455
34.128187 28.168905 3.133407
33.846738 28.061377 3.717148
33.678386 27.957682 3.951666
33.648960 28.147504 4.598166
33.625604 28.315976 5.163154
33.543599 28.391831 5.645345
33.006079 28.294621 7.075111
32.642820 28.053580 7.530773
32.608567 28.180312 8.008948
32.654581 28.369474 8.413134
32.657838 28.570824 8.989057
32.846530 28.896518 9.336157
32.925333 29.250870 10.116867
33.101332 29.661313 10.751190
33.122371 29.832362 11.182215
32.730971 29.551981 11.613000
32.514502 29.412161 11.895651
32.387939 29.503654 12.565361
32.368561 29.660831 13.084786
32.621858 30.114859 13.599708
31.866260 31.140631 3.385341
31.481813 30.835703 3.891746
31.212161 30.545920 4.046355
31.195614 30.703928 4.520378
31.191022 30.974415 5.250824
31.102801 31.042184 5.731022
30.889145 30.946497 6.207412
30.672749 30.845410 6.678886
30.506088 30.711688 6.894365
30.189979 30.539524 7.518353
30.187368 30.749891 8.083169
30.198182 30.947860 8.569401
30.244734 31.130025 8.891892
30.323684 31.490603 9.575263
30.437087 31.835464 10.099504
30.625688 32.252881 10.558816
30.553065 32.348823 11.060224
30.268935 32.117284 11.418161
29.968250 31.964459 12.040609
29.802179 31.963759 12.605590
29.770518 32.118280 13.121985
29.525594 33.494937 3.207490
29.151467 33.178361 3.801807
28.804757 32.826613 4.213692
28.775274 32.981143 4.687534
28.725930 33.142305 5.248691
28.671424 33.296858 5.812714
28.118410 33.019408 7.144417
27.816333 32.716824 7.512519
27.836640 32.914622 7.909971
27.814265 33.119719 8.478524
27.827269 33.309838 8.884012
27.921927 33.668798 9.397107
28.010979 34.023031 9.919147
28.123731 34.458326 10.548688
27.865035 34.296090 11.094449
27.575918 34.042817 11.533190
27.515039 34.123129 11.943537
27.325268 34.108818 12.592992
27.359648 34.270253 12.853247
27.589330 34.921040 13.574329
26.577131 35.276707 4.042589
26.339253 35.083085 4.530938
26.214391 35.047027 4.925410
26.168623 35.191437 5.402063
26.053186 35.252137 5.964858
25.903665 35.210415 6.440306
25.751752 35.163208 6.913209
25.549726 35.022826 7.378635
25.326432 34.881566 7.922344
25.282041 34.989019 8.315955
25.282239 35.180921 8.719475
25.326293 35.457340 9.135809
25.347893 35.822320 9.823306
25.245989 35.913816 10.399989
25.117382 35.824618 10.696626
25.032381 35.906269 11.188885
24.850831 35.889133 11.836798
24.782824 35.961795 12.246095
24.706460 36.109240 12.844416
24.686275 36.418213 13.571358
24.227335 37.747911 3.420556
23.764936 36.992150 3.861142
23.467267 36.713336 4.521472
23.489900 36.930290 4.826292
23.416336 37.080290 5.386494
23.369439 37.101743 5.609100
23.146937 36.975478 6.251662
23.124380 37.191885 6.732504
22.955671 37.134490 7.289263
22.680411 36.694026 7.568641
22.549426 36.715644 8.120927
22.536515 36.908723 8.521676
22.476498 37.192607 9.271629
22.474059 37.466076 9.777156
22.411338 37.552973 10.180438
22.307519 37.544900 10.572467
22.217764 37.621220 11.062462
22.148550 37.695963 11.469135
22.053288 37.762001 11.962055
21.881393 37.803687 12.710987
21.866186 37.960799 13.055499
20.923204 38.785375 4.173209
20.751604 38.539370 4.493291
20.650806 38.587057 4.972987
20.546102 38.736139 5.622350
20.439985 38.770495 6.103310
20.297210 38.705319 6.581347
20.242297 38.818156 6.974498
20.097537 38.742319 7.444376
19.883817 38.472957 7.899215
19.749715 38.480369 8.452369
19.687760 38.574929 8.846235
19.647121 38.851056 9.429527
19.591087 39.027910 9.924366
19.511799 39.017847 10.229494
19.418942 39.091409 10.716370
19.300603 39.153977 11.289536
19.202251 39.214965 11.779532
19.101360 39.270117 12.270935
19.004352 39.404347 12.866658
18.988438 39.726529 13.419932
17.870777 40.604037 3.698403
17.701822 40.357330 4.107993
17.505733 40.223521 4.763763
17.437868 40.247444 5.073791
17.331502 40.279647 5.553448
17.223473 40.306005 6.033091
17.067487 40.233220 6.594558
17.015416 40.240329 6.819133
16.863344 40.253616 7.466155
16.723170 40.160188 7.937563
16.582166 40.060942 8.405538
16.537166 40.246923 8.812328
16.472800 40.519337 9.401744
16.348397 40.406621 9.784867
16.250837 40.477552 10.273768
16.153184 40.632444 10.862372
16.050789 40.690187 11.355745
15.945549 40.654195 11.750067
15.839732 40.787350 12.346848
15.706824 40.900888 13.032889
15.731532 41.420918 13.545408
14.761995 41.728916 3.662649
14.632561 41.568531 4.070729
14.444889 41.317717 4.646570
14.394152 41.332418 4.873868
14.228237 41.370775 5.608720
14.157316 41.483665 6.006593
14.006676 41.399819 6.570778
13.914538 41.306019 6.878955
13.801481 41.307630 7.358405
13.646825 41.300282 8.005974
13.549382 41.385811 8.492244
13.509792 41.570455 8.819922
13.373477 41.450002 9.291761
13.212651 41.410256 9.937298
13.105399 41.562289 10.522774
13.021954 41.624493 10.929608
12.959159 41.691319 11.253138
12.768972 41.608424 11.985368
12.719844 41.763707 12.327892
12.601706 41.879638 12.928059
12.564760 42.387591 13.525201
11.791989 43.167856 3.196550
11.591121 42.409759 3.638193
11.390714 42.058355 4.302264
11.314753 42.179081 4.694083
11.218452 42.299037 5.172557
11.120807 42.413023 5.653488
10.989751 42.422689 6.219894
10.885201 42.325232 6.613715
10.740939 42.221402 7.174032
10.599169 42.304939 7.827067
10.504977 42.289955 8.222051
10.443073 42.568114 8.640559
10.336571 42.445706 9.028970
10.219664 42.220338 9.405110
10.092623 42.273081 9.978098
9.952896 42.406963 10.650169
9.864363 42.461210 11.059124
9.711277 42.477662 11.723592
9.629295 42.618601 12.152338
9.558930 42.669913 12.481897
9.387711 42.744769 13.256218
7.962513 43.242894 4.136583
7.841558 43.062031 4.622123
7.770101 43.070921 4.932018
7.620235 43.081303 5.580303
7.509151 43.081833 6.059402
7.417484 43.077712 6.453849
7.266499 43.062001 7.101768
7.213918 43.053937 7.326889
7.101972 43.032334 7.805299
6.972918 43.098842 8.375021
6.842955 43.156755 8.946951
6.765019 42.931159 9.238087
6.634549 42.975993 9.809602
6.503239 43.012151 10.383011
6.411299 43.062011 10.789380
6.278522 43.083249 11.366142
6.185414 43.122512 11.775442
6.071525 43.143106 12.270630
5.916622 43.224223 12.954720
5.800710 43.621300 13.533596
4.894540 44.582214 3.252711
4.753678 43.910526 3.943201
4.709508 43.517634 4.182157
4.539644 43.530416 4.913515
4.409304 43.530614 5.475888
4.334835 43.627115 5.785326
4.227450 43.516855 6.262252
4.117222 43.500506 6.739876
4.046139 43.486736 7.048285
3.916853 43.455171 7.610015
3.744673 43.501245 8.347273
3.688676 43.581557 8.578999
3.545397 43.418861 9.217254
3.441800 43.265869 9.683095
3.366340 43.327280 10.001128
3.271451 43.374449 10.404752
3.099608 43.365607 11.147315
2.959622 43.470199 11.738455
2.863963 43.498600 12.147707
2.729858 43.489268 12.727495
2.619555 43.702772 13.177151
1.215130 45.032581 3.272252
1.178005 43.557422 4.131722
1.046303 43.757851 4.601642
0.905285 43.851460 5.162234
0.795142 43.839991 5.640238
0.666318 43.818801 6.203003
0.607730 43.704376 6.508681
0.511662 43.576841 6.981386
0.404707 43.542639 7.456501
0.248466 43.585802 8.106353
0.123482 43.843161 8.520428
0.025247 43.581929 9.065891
-0.070664 43.313116 9.604979
-0.145734 43.479447 9.848113
-0.262310 43.507595 10.334911
-0.378570 43.529431 10.823348
-0.530458 43.514174 11.482250
-0.642462 43.635301 11.905300
-0.775564 43.618965 12.484118
-0.890352 43.612773 12.979541
-1.096536 44.181123 13.594388
-2.053049 44.707410 3.413696
-2.051545 43.525169 4.337099
-2.138483 43.718464 4.554072
-2.246998 43.807517 4.944609
-2.414271 43.779412 5.676676
-2.503405 43.655336 6.152570
-2.609764 43.623657 6.628908
-2.696391 43.593180 7.020552
-2.837416 43.534272 7.665439
-2.959826 43.581674 8.147708
-3.065351 43.741391 8.469977
-3.164570 43.571969 9.024341
-3.205994 43.322238 9.396563
-3.290076 43.373894 9.712810
-3.477444 43.337755 10.536484
-3.560514 43.379800 10.855993
-3.693937 43.369813 11.430140
-3.809528 43.369038 11.921354
-3.924266 43.361904 12.413954
-4.060211 43.444165 12.926255
-4.246390 43.827159 13.415250
-5.369852 43.640698 4.398147
-5.479676 43.622528 4.876579
-5.607069 43.593642 5.440114
-5.669141 43.472018 5.832694
-5.774113 43.436432 6.309977
-5.833167 43.306331 6.699255
-5.952964 43.251490 7.259557
-6.088112 43.178451 7.903908
-6.232074 43.428180 8.230934
-6.346742 43.351153 8.794164
-6.404193 43.074766 9.337249
-6.525054 43.092088 9.822819
-6.644707 43.103246 10.310108
-6.763126 43.108209 10.799040
-6.820558 43.046944 11.106025
-6.908230 42.947185 11.581493
-7.096955 42.971568 12.342634
-7.209062 43.086275 12.684809
-7.350377 43.154661 13.199745
-8.835917 42.870516 4.383626
-8.938688 42.948304 4.690567
-9.101588 42.899175 5.424257
-9.168938 42.874410 5.733983
-9.253505 42.839406 6.128482
-9.371889 42.782701 6.691780
-9.435618 42.748249 7.000647
-9.565674 42.551956 7.811566
-9.711797 42.683893 8.217393
-9.806195 42.731130 8.534036
-9.827001 42.468213 8.995631
-9.880023 42.293491 9.461973
-10.016405 42.283178 10.032052
-10.135691 42.281815 10.519692
-10.281700 42.237567 11.177615
-10.368979 42.260765 11.499728
-10.509977 42.200072 12.160820
-10.644742 42.285094 12.587653
-10.791491 42.342733 13.102536
-11.962428 42.208409 4.352782
-12.163701 42.245319 5.085448
-12.226371 42.110710 5.565705
-12.308874 42.071256 5.960221
-12.372484 42.037646 6.269904
-12.485710 41.970477 6.833810
-12.611727 41.883725 7.482119
-12.743109 41.904031 7.966908
-12.970603 42.085774 8.553382
-12.969359 41.956879 8.770893
-12.929400 41.462511 9.465917
-13.078990 41.566354 9.878584
-13.198872 41.558047 10.367252
-13.234447 41.510087 10.590769
-13.363898 41.473676 11.165796
-13.490179 41.429069 11.742418
-13.589459 41.419733 12.151343
-13.741890 41.472192 12.663930
-13.935548 41.606105 13.199069
-15.548617 42.704073 3.307062
-15.163272 41.589049 4.079193
-15.156992 41.163849 4.910823
-15.256973 41.115560 5.389806
-15.302881 41.091072 5.614400
-15.462361 41.112670 6.179969
-15.555074 41.050057 6.660021
-15.660526 40.969503 7.224822
-15.746979 40.895253 7.704383
-15.863816 40.917705 8.105393
-15.973291 40.802465 8.755353
-15.927097 40.569819 9.047090
-16.002221 40.475504 9.523760
-16.123088 40.462489 10.011526
-16.229249 40.462728 10.416460
-16.368491 40.398906 11.076631
-16.469939 40.388656 11.484674
-16.541391 40.244779 12.047055
-16.677641 40.333190 12.389469
-16.851543 40.322866 13.074352
-18.549573 40.083840 4.454238
-18.507854 39.881585 4.771321
-18.638618 39.805644 5.423510
-18.645226 39.681693 5.734976
-18.836369 39.663630 6.472798
-18.921971 39.590198 6.954739
-19.004240 39.511632 7.436450
-19.055717 39.458038 7.748145
-19.283887 39.636683 8.164663
-19.371213 39.528069 8.734459
-19.208509 39.116423 9.096564
-19.342496 39.079509 9.669996
-19.482881 39.015335 10.329928
-19.531535 38.921465 10.724731
-19.633772 38.905882 11.133105
-19.760956 38.819881 11.795585
-19.848949 38.817594 12.121263
-19.967360 38.716568 12.786643
-20.171325 38.842347 13.237617
-21.309514 38.347067 4.506432
-21.480465 38.356679 5.072829
-21.646876 38.359079 5.642152
-21.703577 38.313203 5.956748
-21.756349 38.131256 6.609234
-21.808093 38.079109 6.922881
-21.884795 37.994667 7.406268
-22.043418 37.951820 8.065533
-22.233641 38.013254 8.564722
-22.203504 37.887164 8.786190
-22.174855 37.570441 9.505216
-22.283261 37.557797 9.912790
-22.318435 37.483947 10.225199
-22.439859 37.422444 10.803999
-22.548444 37.375887 11.299793
-22.605632 37.200581 11.950394
-22.705521 37.141696 12.447955
-22.858179 37.178608 12.880571
-23.215177 37.334075 13.713649
-24.468889 36.532255 4.437984
-24.577546 36.576803 4.661759
-24.599684 36.433057 5.144558
-24.698148 36.346509 5.710433
-24.777419 36.268005 6.191258
-24.839632 36.199970 6.586994
-24.923783 36.097380 7.152498
-25.057970 36.079216 7.638205
-25.255658 36.129755 8.132619
-25.314985 36.027911 8.615749
-25.167499 35.702042 9.071297
-25.200719 35.631435 9.380675
-25.340322 35.529433 10.123740
-25.389062 35.387807 10.686463
-25.555781 35.429005 11.107495
-25.583786 35.322798 11.501865
-25.677110 35.285025 11.911587
-25.852970 35.215416 12.679175
-26.010078 35.212124 13.196423
-27.230888 34.774792 4.438224
-27.187691 34.548301 5.008075
-27.296988 34.582305 5.232329
-27.427045 34.443164 6.054284
-27.485131 34.371749 6.450043
-27.540254 34.297478 6.845699
-27.520162 34.151359 7.236765
-27.579392 34.054054 7.715987
-27.861149 34.139535 8.300830
-27.919581 34.012952 8.868139
-27.650115 33.688915 9.057645
-27.786005 33.581947 9.797738
-27.882485 33.572674 10.117129
-27.998990 33.472906 10.776556
-28.163114 33.524104 11.112884
-28.267937 33.411345 11.777259
-28.283171 33.298623 12.171556
-28.368628 33.248911 12.582714
-28.604162 33.195231 13.458375
-30.285959 33.484630 3.320559
-29.830970 32.970312 3.756529
-29.537156 32.571810 4.257400
-29.631837 32.480389 4.822455
-29.783729 32.462853 5.302242
-29.919080 32.456537 5.699015
-29.909523 32.303019 6.179777
-29.905499 32.129197 6.743001
-29.962247 32.031686 7.222831
-30.091574 31.993555 7.708006
-30.293826 32.014030 8.202046
-30.399588 32.006313 8.521272
-30.200271 31.726210 8.893332
-30.170020 31.507524 9.531969
-30.354841 31.511544 10.031975
-30.461299 31.426577 10.608410
-30.477470 31.320805 11.002848
-30.572873 31.225982 11.581149
-30.661727 31.125200 12.160953
-30.742164 31.119675 12.402603
-32.120898 30.601981 3.872658
-31.971653 30.329332 4.450078
-32.057099 30.229333 5.015940
-32.205434 30.199007 5.496764
-32.175946 30.064771 5.892167
-32.244001 29.952223 6.458030
-32.287493 29.870671 6.853351
-32.343901 29.749841 7.418787
-32.475214 29.681378 7.990112
-32.751381 29.761418 8.407491
-32.620418 29.533511 8.874472
-32.484155 29.303292 9.336157
-32.595683 29.195595 9.994849
-32.611598 29.070428 10.473183
-32.783486 29.098808 10.808003
-32.874903 28.975068 11.472052
-32.876028 28.863187 11.866523
-32.955897 28.803516 12.277134
-33.110936 28.743961 12.877208
-33.428707 28.838542 13.348774
-35.188276 28.445651 3.292432
-34.516598 27.872372 3.911535
-34.345401 27.612128 4.491014
-34.399914 27.537403 4.888775
-34.546900 27.495511 5.371608
-34.669603 27.484657 5.685563
-34.636459 27.334727 6.165561
-34.706898 27.177907 6.902192
-34.739631 27.090824 7.297003
-34.682719 26.951147 7.686069
-34.885818 26.940683 8.178014
-35.001719 26.855357 8.751949
-34.752583 26.651168 8.950369
-34.687920 26.439863 9.586790
-34.872758 26.370759 10.254644
-34.961940 26.292085 10.744370
-35.133738 26.305121 11.079628
-35.127889 26.171999 11.558438
-35.203115 26.083702 12.052574
-35.272994 25.991805 12.548074
-35.423739 25.943375 13.063455
-36.460143 25.276019 3.856237
-36.248634 25.062536 4.264383
-36.340226 24.917497 5.001625
-36.464192 24.899677 5.312534
-36.440722 24.718204 5.965071
-36.475759 24.632991 6.361512
-36.525356 24.488806 7.013371
-36.545502 24.418235 7.324352
-36.567811 24.326943 7.719306
-36.858935 24.344830 8.219562
-36.878186 24.206896 8.788045
-36.709106 24.000592 9.251501
-36.713506 23.900340 9.645931
-36.802432 23.773889 10.306422
-36.888237 23.733783 10.628506
-36.869751 23.533535 11.363041
-36.951194 23.512738 11.602284
-37.014747 23.394175 12.182819
-37.165629 23.337098 12.697430
-37.393494 23.291006 13.320253
-38.705606 22.464519 3.316953
-38.748254 22.402956 3.632596
-38.543141 22.172722 4.217528
-38.320230 21.958646 4.708826
-38.275935 21.819686 5.191714
-38.403880 21.772837 5.587878
-38.441807 21.667648 6.070122
-38.571991 21.578085 6.640613
-38.508778 21.410999 7.204984
-38.521664 21.338427 7.516005
-38.534666 21.244592 7.912173
-38.827512 21.173973 8.672644
-38.736190 21.082003 8.890969
-38.456625 20.854237 9.344439
-38.539606 20.723220 10.003468
-38.711363 20.667379 10.507118
-38.699233 20.584789 10.817307
-38.753748 20.419510 11.566743
-38.814185 20.320130 12.062544
-38.889722 20.290515 12.304248
-39.009874 20.146284 13.076787
-40.707335 19.748019 3.159940
-40.019833 19.374269 3.776013
-39.769786 19.214002 4.099958
-39.745958 19.025922 4.840174
-39.886383 18.933603 5.406651
-40.003048 18.895460 5.719021
-39.931825 18.775699 6.115506
-39.959190 18.646258 6.683379
-39.970783 18.574137 6.994907
-39.987209 18.420464 7.647642
-40.087839 18.334240 8.135957
-40.371739 18.261435 8.813936
-40.269840 18.133216 9.204174
-39.973410 17.947270 9.571592
-39.955413 17.824574 10.051200
-40.126658 17.778212 10.470193
-40.193080 17.679493 10.964118
-40.253503 17.578447 11.459584
-40.300072 17.451753 12.041829
-40.338264 17.321992 12.625476
-40.546758 17.217221 13.333970
-41.345419 16.354854 3.753505
-41.009742 16.133472 4.336927
-41.053100 16.008897 4.903755
-41.175659 15.944444 5.299852
-41.197154 15.854902 5.697346
-41.217855 15.744795 6.180243
-41.335293 15.596444 6.922837
-41.243122 15.480010 7.316339
-41.243886 15.365176 7.798577
-41.335966 15.271121 8.287482
-41.621178 15.261010 8.622796
-41.508851 15.119739 9.099728
-41.187489 14.892302 9.723240
-41.261169 14.813395 10.129738
-41.421235 14.731941 10.635639
-41.365568 14.562734 11.287886
-41.440524 14.523696 11.528541
-41.476459 14.393464 12.111460
-41.503618 14.260434 12.697097
-41.702187 14.139541 13.407892
-42.552652 12.900664 4.046142
-42.180075 12.764080 4.372868
-42.216978 12.616625 5.026592
-42.434606 12.538140 5.510245
-42.450636 12.406635 6.081682
-42.555631 12.329052 6.484291
-42.557609 12.255425 6.799433
-42.454690 12.085606 7.452628
-42.349999 11.996428 7.760930
-42.526878 11.867968 8.429640
-42.809092 11.833884 8.768331
-42.683863 11.701276 9.247649
-42.349222 11.520655 9.788059
-42.408064 11.414101 10.282504
-42.460606 11.306145 10.778604
-42.614648 11.230861 11.205033
-42.546638 11.086081 11.775444
-42.665880 10.963790 12.378359
-42.593888 10.838409 12.863366
-42.973856 10.722892 13.616109
-44.241007 9.961065 3.356865
-43.776928 9.800800 3.874757
-43.401225 9.671494 4.292138
-43.220091 9.561588 4.697931
-43.333466 9.478496 5.097154
-43.347053 9.326495 5.755893
-43.449455 9.241618 6.158741
-43.446122 9.107841 6.732855
-43.341010 9.026287 7.044783
-43.317842 8.851380 7.788461
-43.303693 8.777003 8.103115
-43.271379 8.641395 8.674401
-43.535334 8.544866 9.187018
-43.509749 8.469171 9.503114
-43.167529 8.334148 9.957450
-43.186958 8.160999 10.709296
-43.346674 8.095525 11.049858
-43.270487 7.956274 11.620612
-43.297570 7.842220 12.121130
-43.430720 7.752820 12.554786
-43.512851 7.598344 13.249477
-44.036697 6.155597 3.983979
-43.747912 6.079451 4.308111
-43.859823 5.968085 4.790594
-43.965618 5.856115 5.275588
-44.062548 5.683727 6.021236
-44.056889 5.610575 6.336913
-43.940027 5.478071 6.907032
-44.023014 5.384540 7.312073
-43.991528 5.251654 7.885185
-43.771034 5.180999 8.186692
-43.733731 5.068718 8.670773
-44.088538 4.949482 9.191055
-44.108827 4.774240 9.947820
-43.773087 4.708020 10.228367
-43.808989 4.593035 10.725270
-43.838410 4.477660 11.223755
-43.833013 4.322149 11.894944
-43.877673 4.245814 12.225151
-43.969448 4.105677 12.831507
-44.283059 3.996536 13.307566
-45.553874 2.933255 3.456434
-44.663666 2.932376 3.729376
-44.078216 2.815839 4.408197
-44.180351 2.696865 4.889618
-44.376127 2.570785 5.373319
-44.370430 2.498174 5.687703
-44.350180 2.346641 6.346325
-44.133069 2.270399 6.740268
-44.294027 2.104776 7.404768
-44.271765 2.033432 7.718705
-43.834660 1.957661 8.177134
-43.888783 1.840454 8.665461
-44.115152 1.666653 9.345402
-44.186803 1.606515 9.582692
-44.087863 1.441199 10.324454
-44.127408 1.342948 10.735565
-44.176524 1.263630 11.062257
-44.064456 1.119122 11.718391
-43.957953 0.994463 12.287370
-44.189438 0.893607 12.651664
-44.342713 0.717064 13.365511
-45.445617 -0.377521 3.331146
-45.056531 -0.441612 3.845878
-44.660639 -0.522763 4.437705
-44.457684 -0.588475 4.844101
-44.448609 -0.681133 5.245549
-44.435461 -0.772733 5.645001
-44.413949 -0.883263 6.130501
-44.108113 -1.197224 7.661107
-43.855660 -1.290286 8.214994
-43.920286 -1.373874 8.532059
-44.059418 -1.510591 9.029946
-44.363885 -1.717336 9.724608
-44.375699 -1.855733 10.308516
-44.115100 -1.905615 10.682982
-44.128163 -2.023918 11.180274
-44.037528 -2.123980 11.663861
-44.020091 -2.258326 12.248574
-44.031763 -2.357097 12.663291
-44.191968 -2.526689 13.288570
-44.997792 -3.663986 3.212631
-44.801523 -3.760325 3.802184
-44.501061 -3.812384 4.302595
-44.194711 -3.861469 4.795982
-44.269160 -4.013401 5.366595
-44.252869 -4.084310 5.680642
-44.222708 -4.192984 6.166810
-43.910865 -4.446578 7.527139
-43.557011 -4.498031 8.074934
-43.691676 -4.645003 8.568324
-43.831916 -4.773943 8.980508
-44.051210 -4.944000 9.492021
-44.152676 -5.107313 10.085322
-43.940737 -5.213511 10.731075
-43.865270 -5.291264 11.129318
-43.899052 -5.376269 11.455934
-43.817807 -5.558390 12.299387
-43.936847 -5.667132 12.646286
-43.967938 -5.838947 13.341242
-44.135137 -7.472361 4.215790
-43.926562 -7.506388 4.622853
-43.814652 -7.548331 4.938911
-43.880122 -7.686552 5.425020
-43.837127 -7.812363 5.998698
-43.395353 -8.046932 7.530814
-43.071762 -8.017909 7.825052
-43.077903 -8.178983 8.481263
-43.194595 -8.335783 8.978452
-43.304864 -8.491459 9.479221
-43.690906 -8.741793 10.017515
-43.726526 -8.832140 10.344429
-43.390699 -8.902789 11.065236
-43.305663 -8.973209 11.464326
-43.309903 -9.074976 11.878461
-43.247374 -9.218936 12.551948
-43.310644 -9.365001 13.073207
-43.827948 -9.676578 13.696098
-44.336212 -10.854646 3.330924
-43.480101 -10.629095 3.779124
-43.067140 -10.655272 4.537433
-43.052314 -10.705958 4.764458
-43.188517 -10.922973 5.420638
-43.237688 -11.063881 5.908805
-43.095247 -11.128762 6.394686
-43.132723 -11.265610 6.885041
-42.805197 -11.233218 7.272984
-42.370302 -11.176792 7.734221
-42.405172 -11.290299 8.134954
-42.514284 -11.456631 8.630423
-42.586784 -11.652284 9.301566
-42.788751 -11.838659 9.730670
-42.859726 -12.015034 10.326796
-42.648548 -12.071519 10.887676
-42.650892 -12.175590 11.301953
-42.517367 -12.265542 11.874430
-42.488007 -12.379006 12.376578
-42.587628 -12.505102 12.725458
-42.744807 -12.771893 13.548383
-42.734097 -13.974798 4.053209
-42.343417 -13.893175 4.468516
-42.279000 -14.054198 5.215363
-42.328980 -14.181748 5.617543
-42.195129 -14.220422 6.018920
-41.747815 -14.355200 7.381785
-41.393075 -14.325724 7.932441
-41.402891 -14.455739 8.419522
-41.495713 -14.628500 8.917133
-41.725743 -14.917834 9.610663
-42.192661 -15.240854 9.990922
-42.019144 -15.258476 10.384836
-41.587604 -15.232937 11.094819
-41.559064 -15.348100 11.596089
-41.415187 -15.425945 12.168559
-41.483832 -15.570762 12.602870
-41.658511 -15.749788 12.971330
-42.048769 -16.166298 13.858834
-41.612979 -17.249087 3.166979
-41.750772 -17.460231 3.652018
-41.363298 -17.369613 4.161159
-40.953838 -17.309799 4.833006
-41.015971 -17.407497 5.060990
-40.949995 -17.523149 5.635689
-40.950964 -17.701803 6.298689
-40.881709 -17.792628 6.788122
-40.635864 -17.777371 7.268409
-40.228907 -17.640303 7.647180
-40.130678 -17.734822 8.213665
-40.259673 -17.875247 8.454645
-40.201481 -18.042095 9.202936
-40.439284 -18.322761 9.728312
-40.942101 -18.747209 10.210013
-40.849660 -18.802538 10.617950
-40.355082 -18.677017 11.231131
-40.297878 -18.705187 11.460977
-40.126702 -18.782207 12.121680
-40.183649 -18.932583 12.557109
-40.268701 -19.151827 13.187526
-40.549178 -20.521888 3.300525
-40.072501 -20.387787 3.993339
-39.800680 -20.267856 4.234032
-39.581436 -20.255282 4.727106
-39.664929 -20.498453 5.386081
-39.598673 -20.590541 5.875692
-39.153769 -20.644448 7.158388
-38.809975 -20.563100 7.712659
-38.801762 -20.694880 8.200896
-38.689930 -20.777381 8.768232
-38.849712 -21.007141 9.192458
-39.046895 -21.315822 9.805280
-39.596240 -21.834601 10.300638
-39.376293 -21.843906 10.873156
-38.854300 -21.602974 11.297641
-38.749448 -21.643865 11.700057
-38.720248 -21.741362 12.117994
-38.641561 -21.931675 12.986995
-38.808534 -22.206362 13.553162
-38.275247 -23.591100 4.165134
-37.924498 -23.403097 4.494799
-37.847878 -23.512800 5.070765
-37.867660 -23.649689 5.474273
-37.793109 -23.735650 5.965230
-37.201917 -23.738313 7.588948
-37.048059 -23.730308 7.982452
-37.119851 -23.912561 8.395525
-36.998787 -23.984545 8.966811
-37.212647 -24.290473 9.405210
-37.346105 -24.529750 9.840446
-37.410772 -24.792824 10.543125
-37.285715 -24.838730 11.038151
-37.007119 -24.750127 11.502975
-36.947320 -24.852861 12.009696
-36.808433 -24.886273 12.500739
-36.811655 -25.046408 13.027182
-37.246980 -25.595597 13.673745
-37.032902 -26.688282 3.423239
-36.311643 -26.174678 3.957492
-36.050105 -26.030646 4.283400
-36.015273 -26.235247 5.027622
-36.098016 -26.442098 5.429602
-36.017764 -26.522694 5.920413
-35.496510 -26.437333 7.201615
-35.240472 -26.373155 7.761263
-35.264376 -26.581700 8.343344
-35.248416 -26.696536 8.750386
-35.330710 -26.966046 9.349929
-35.179372 -27.302020 10.851685
-35.072739 -27.329577 11.254766
-34.960141 -27.438930 11.931726
-35.008057 -27.595845 12.280784
-34.855579 -27.696455 13.048842
-34.936407 -27.920375 13.509963
-34.891994 -29.118696 3.284355
-34.631265 -28.978707 3.708673
-34.355533 -28.850155 4.214104
-34.088570 -28.847103 5.056634
-34.222964 -29.133384 5.460780
-34.085158 -29.120852 5.863825
-33.538440 -29.020236 7.314760
-33.220643 -28.861725 7.867203
-33.172128 -28.885820 8.092017
-33.158163 -29.099789 8.758968
-33.393419 -29.509777 9.201288
-33.406527 -29.698860 9.709503
-33.674174 -30.184293 10.267982
-33.564475 -30.299340 10.952495
-33.173959 -30.021908 11.390930
-33.046582 -29.955993 11.605427
-32.897066 -30.054976 12.370199
-32.804340 -30.061616 12.685240
-32.792742 -30.295457 13.402444
-32.218019 -31.626043 3.204435
-32.191104 -31.809943 3.781507
-31.955011 -31.629062 4.111041
-31.597878 -31.421440 4.783607
-31.634283 -31.652876 5.269721
-31.560343 -31.709783 5.672471
-31.284691 -31.536314 6.156724
-31.395155 -31.933838 6.827917
-31.347654 -31.959398 7.057641
-30.864499 -31.540060 7.602311
-30.749099 -31.984701 9.169525
-30.945649 -32.409868 9.619499
-31.033522 -32.760208 10.243414
-31.078710 -33.020771 10.776350
-30.852549 -32.872688 11.158468
-30.542935 -32.642228 11.608424
-30.353471 -32.648366 12.271977
-30.183455 -32.646194 12.847153
-30.284385 -32.884396 13.130647
-29.487362 -33.941411 4.122608
-29.288979 -33.849119 4.618741
-29.175595 -33.810714 4.936350
-29.104305 -33.981291 5.598290
-29.043895 -34.133133 6.176530
-28.906020 -34.092754 6.577753
-28.639255 -33.888834 7.055431
-28.462635 -33.748782 7.359729
-28.422387 -33.968521 8.026459
-28.415734 -34.169066 8.526504
-28.425748 -34.360268 8.944285
-28.442051 -34.639656 9.548730
-28.212398 -34.927577 11.060161
-28.049262 -34.844358 11.450759
-27.861271 -34.838554 12.114734
-27.845909 -34.999096 12.551220
-27.697906 -35.061933 13.233973
-27.924783 -35.634228 13.774559
-26.629297 -36.101691 3.847614
-26.359232 -35.932574 4.519735
-26.343568 -36.180194 5.092230
-26.345554 -36.294802 5.322232
-26.226870 -36.357145 5.900836
-25.725409 -36.228711 7.533457
-25.585820 -36.164278 7.928477
-25.484449 -36.751488 9.529295
-25.345530 -37.197958 10.980611
-25.234510 -37.190944 11.386455
-25.052721 -37.089021 11.863570
-24.912754 -37.069917 12.353968
-24.831473 -37.216746 12.966036
-24.874080 -37.619907 13.640245
-24.076568 -38.077984 3.372088
-23.801676 -38.027685 4.362089
-23.713827 -37.964201 4.593680
-23.559783 -38.044731 5.342887
-23.552877 -38.157750 5.572149
-23.346551 -38.025374 6.145987
-23.281439 -38.255483 6.813325
-23.229471 -38.269587 7.042712
-22.895070 -37.842643 7.592897
-22.676377 -38.342454 9.345952
-22.830533 -38.891603 9.722447
-22.757094 -39.068756 10.327792
-22.779165 -39.423319 10.875197
-22.581934 -39.311084 11.449326
-22.293753 -38.921725 11.885144
-22.154153 -38.726001 12.083544
-22.002244 -38.772423 12.763364
-22.020743 -39.020709 13.134734
-21.360275 -40.568278 3.535090
-20.960396 -39.662047 3.809954
-20.754953 -39.436815 4.308129
-20.685800 -39.690079 4.964536
-20.614968 -39.825879 5.453302
-20.488028 -39.867895 6.030198
-20.071890 -39.653298 7.398129
-19.944249 -39.570085 7.791881
-19.738136 -40.139513 9.472942
-19.590954 -40.661009 10.843970
-19.427894 -40.539638 11.324608
-19.263524 -40.412497 11.801988
-19.109945 -40.452053 12.483201
-19.056255 -40.601195 12.922302
-19.004616 -40.829804 13.471112
-17.923364 -41.450822 4.215923
-17.705693 -41.109928 4.718647
-17.682843 -41.224196 4.948048
-17.554701 -41.263928 5.526987
-17.384567 -41.303164 6.279737
-17.311480 -41.315520 6.597809
-17.097790 -41.042399 7.163777
-16.971060 -40.854832 7.469302
-16.890977 -41.146907 8.145685
-16.869627 -41.432488 8.570505
-16.816768 -41.523150 8.896747
-16.725343 -41.791976 9.592865
-16.646781 -41.870454 10.011506
-16.618530 -42.318825 10.656605
-16.488800 -42.373323 11.259521
-16.285109 -41.954927 11.612959
-16.105873 -41.716295 12.076437
-15.971737 -41.749495 12.672581
-15.881598 -41.880830 13.201522
-14.678029 -42.906237 3.307439
-14.379326 -42.495535 4.231753
-14.230613 -42.437044 4.813139
-14.100112 -42.468031 5.391664
-14.006856 -42.585877 5.884538
-13.934569 -42.494845 6.115164
-13.854050 -42.900678 6.793185
-13.455695 -42.112180 7.825960
-13.225209 -42.654382 9.252461
-13.225869 -43.219661 9.718985
-13.117075 -43.654700 10.541028
-13.028279 -43.716680 10.968624
-12.813983 -43.267169 11.503172
-12.692686 -43.123688 11.897860
-12.609246 -43.084731 12.218966
-12.395770 -42.885135 12.957534
-12.308408 -43.101700 13.507402
-11.504418 -44.380235 3.480191
-11.315540 -43.512210 3.841297
-11.159411 -43.349573 4.426395
-11.008094 -43.379891 5.090537
-10.967261 -43.487046 5.320874
-10.793565 -43.503299 6.073657
-10.708202 -43.406492 6.389481
-10.608191 -43.899921 7.072946
-10.310086 -43.083507 7.928812
-10.235308 -43.265353 8.343205
-10.127458 -43.531705 8.942977
-10.026333 -43.887997 9.560383
-9.689389 -44.042295 11.084075
-9.579593 -43.894630 11.478345
-9.448161 -43.731032 11.957104
-9.310710 -43.744773 12.553260
-9.215990 -43.778454 12.976583
-9.089905 -44.249924 13.760448
-8.080090 -44.631419 3.921006
-8.041006 -44.538651 4.071032
-7.906114 -44.159020 4.576965
-7.772401 -44.174038 5.156528
-7.678781 -44.179399 5.561283
-7.528613 -44.278943 6.228657
-7.409124 -44.668836 6.821654
-7.347218 -44.462825 7.047503
-7.207541 -43.746186 7.506854
-7.087394 -43.522876 7.980385
-6.968018 -43.985490 8.587401
-6.847581 -44.538093 9.216939
-6.735063 -44.691584 9.732723
-6.627077 -45.136270 10.287052
-6.530665 -45.187444 10.712984
-6.342578 -44.690590 11.424914
-6.223031 -44.518464 11.906064
-6.146540 -44.467836 12.225793
-5.986304 -44.353342 12.893893
-5.889191 -44.474543 13.336814
-4.659475 -44.918889 4.212504
-4.574094 -44.527255 4.629239
-4.437263 -44.631438 5.206782
-4.320171 -44.728185 5.700074
-4.226115 -44.720833 6.106816
-4.128742 -44.809138 6.516065
-3.982071 -44.581115 7.177063
-3.940694 -44.269216 7.394089
-3.808691 -44.232243 7.968218
-3.663229 -44.485526 8.564605
-3.516223 -44.729463 9.168808
-3.422740 -45.093155 9.527288
-3.292849 -45.332848 10.058164
-3.147096 -45.454053 10.672103
-3.018641 -45.269082 11.249192
-2.930208 -44.794483 11.689332
-2.818081 -44.709061 12.183679
-2.699540 -44.715630 12.694354
-2.600605 -44.733314 13.119056
-0.980124 -45.839364 3.646290
-0.975978 -45.148554 3.995767
-0.912444 -44.852856 4.410289
-0.789016 -44.749786 4.989262
-0.684821 -44.841543 5.392181
-0.520806 -44.919197 6.058486
-0.448315 -44.904837 6.376354
-0.348591 -44.778288 6.864907
-0.223533 -44.533334 7.518998
-0.184703 -44.415547 7.742123
-0.019005 -44.345222 8.486701
0.089282 -44.607702 8.825203
0.282089 -45.032045 9.448556
0.397819 -45.175244 9.876257
0.579584 -45.483790 10.507847
0.682181 -45.517023 10.932011
0.788196 -44.993245 11.638281
0.841325 -44.835900 11.941744
0.996639 -44.800123 12.625188
1.114607 -44.791442 13.135416
1.293693 -45.163503 13.725014
2.314121 -45.296739 3.803205
2.354048 -45.098337 4.129770
2.435458 -44.793705 4.716496
2.586400 -44.874103 5.293308
2.658655 -44.860663 5.610552
2.750956 -44.736598 6.100479
2.975370 -45.084430 6.777236
3.036388 -44.320569 7.641163
3.142629 -44.377052 8.047236
3.306939 -44.614240 8.556591
3.508302 -44.820763 9.247458
3.636372 -45.067694 9.595320
3.879488 -45.449489 10.324536
3.981667 -45.364659 10.825302
4.036108 -44.966895 11.371356
4.074125 -44.694137 11.748706
4.153973 -44.610583 12.153706
4.271771 -44.599507 12.662329
4.405310 -44.561053 13.259433
6.098182 -45.441485 3.580959
6.026436 -44.954017 3.836517
6.125209 -44.641050 4.603703
6.211417 -44.521817 5.098268
6.302447 -44.498650 5.503670
6.476477 -44.548031 6.172198
6.507961 -44.536416 6.316507
6.551934 -44.195875 6.886855
6.601064 -43.953410 7.367155
6.702724 -43.897398 7.854171
6.848087 -43.919638 8.434189
7.041425 -44.245667 8.868529
7.315370 -44.619968 9.583639
7.469126 -44.726550 10.102696
7.605209 -44.842724 10.537258
7.715677 -44.729566 11.125935
7.687492 -44.380201 11.405844
7.748013 -44.180026 11.885485
7.880985 -44.142068 12.482359
8.041556 -44.189192 13.097408
8.261251 -44.552924 13.598630
9.262014 -44.692353 3.179164
9.270349 -44.296746 3.782877
9.286163 -43.992163 4.285916
9.344784 -43.876036 4.691713
9.577971 -44.013672 5.442362
9.665774 -43.980531 5.847387
9.871000 -43.544681 7.310245
9.899642 -43.294677 7.786877
10.047589 -43.426109 8.199601
10.244375 -43.512102 8.876510
10.441626 -43.709940 9.394217
10.653817 -43.884429 10.006349
10.853490 -44.194322 10.372522
10.904855 -44.001839 10.858770
10.896050 -43.600389 11.401145
10.941218 -43.396784 11.878197
11.042861 -43.392420 12.298088
11.170350 -43.339180 12.893553
11.355759 -43.482819 13.441134
12.714087 -43.643251 4.220657
12.764875 -43.523348 4.629772
12.693387 -43.124875 5.040064
12.834722 -43.064283 5.703819
12.958773 -43.113884 6.107717
13.075703 -43.047231 6.685583
12.997987 -42.745292 6.903442
13.018071 -42.370844 7.633770
13.050768 -42.220613 8.024132
13.107591 -42.171526 8.333978
13.547825 -42.661836 9.220953
13.854728 -43.144205 9.594935
14.093587 -43.281198 10.300511
14.187778 -43.303855 10.633272
14.137699 -42.926730 11.091038
14.070796 -42.566103 11.453650
14.168029 -42.405388 12.117221
14.279860 -42.368833 12.622617
14.476212 -42.502469 13.166082
14.877418 -43.093163 13.724340
16.284753 -42.856829 3.447878
16.135239 -42.284723 4.058010
16.110625 -42.082098 4.381632
16.120954 -41.860899 4.876068
16.288046 -41.888987 5.452271
16.399680 -41.940783 5.769250
16.626412 -42.032729 6.440321
16.719590 -41.964555 6.934181
16.551186 -41.467899 7.317351
16.525174 -41.230555 7.707125
16.672446 -41.221337 8.284900
16.977644 -41.447743 8.976971
17.265907 -41.679749 9.593257
17.413225 -41.786278 9.932990
17.597850 -41.831383 10.540696
17.592912 -41.672824 10.848287
17.521226 -41.278146 11.388562
17.573095 -41.177689 11.792119
17.694041 -41.112326 12.385559
17.861463 -41.123234 12.998365
18.107941 -41.344544 13.478120
19.360909 -41.237294 4.040250
19.394862 -41.111786 4.456234
19.281071 -40.604989 5.224550
19.343908 -40.565369 5.545197
19.476006 -40.595768 5.954183
19.583370 -40.512844 6.537554
19.631218 -40.339028 7.116650
19.563817 -39.991714 7.681628
19.504909 -39.769027 7.986865
19.649307 -39.744747 8.568026
20.079536 -40.108003 9.283911
20.426745 -40.414254 9.831123
20.637291 -40.588791 10.189003
20.645160 -40.390575 10.679764
20.470469 -39.964343 11.039005
20.527066 -39.839911 11.534732
20.597889 -39.663423 12.203523
20.694349 -39.631923 12.627376
20.860545 -39.625912 13.245127
22.259443 -39.735653 3.297051
22.129223 -39.363722 3.814957
21.975589 -38.997711 4.236781
22.057112 -38.949601 4.642786
22.289242 -39.034878 5.221146
22.411881 -38.940284 5.889666
22.558704 -38.943968 6.386099
22.794853 -39.130227 6.715846
22.767450 -38.871620 7.293556
22.550270 -38.370480 7.847594
22.694073 -38.336814 8.430693
22.883239 -38.392502 8.937890
23.232420 -38.715089 9.302855
23.499193 -38.797307 10.008562
23.587900 -38.819799 10.255819
23.517908 -38.543882 10.731740
23.327434 -38.087587 11.261262
23.434494 -38.034308 11.768708
23.530866 -37.999769 12.190614
23.637353 -37.911219 12.787762
23.869026 -37.939958 13.511495
25.196616 -37.833356 3.885964
25.180434 -37.606915 4.478199
25.041516 -37.211338 5.153812
25.133164 -37.265102 5.298073
25.284475 -37.263883 5.792452
25.379661 -37.167921 6.374501
25.681749 -37.273062 7.055221
25.673896 -37.122067 7.459668
25.261769 -36.523478 7.826917
25.402479 -36.479998 8.407232
25.873822 -36.797288 9.033032
26.139152 -36.884765 9.644791
26.373949 -37.028009 9.998708
26.488567 -36.978702 10.510961
26.253620 -36.584501 10.871102
26.102000 -36.191802 11.497309
26.191552 -36.177066 11.829807
26.294534 -36.085640 12.424232
26.527664 -36.129283 13.056333
26.884740 -36.359938 13.558082
28.197636 -35.528083 4.110270
28.169093 -35.424297 4.346919
27.955138 -35.083745 4.762669
28.238531 -35.086783 5.603077
28.288187 -35.031770 5.922792
28.263730 -34.905801 6.240568
28.586384 -34.970862 7.006136
28.544244 -34.856410 7.235124
28.324883 -34.464336 7.794631
28.462349 -34.409204 8.378043
28.812905 -34.550910 8.989315
29.061864 -34.679536 9.336530
29.337904 -34.718847 10.042264
29.441529 -34.682577 10.465629
29.190981 -34.239906 11.088710
28.992383 -33.931013 11.452219
29.091404 -33.835767 12.044890
29.176262 -33.810307 12.378410
29.340910 -33.743699 13.078965
29.714298 -33.971348 13.491865
30.420295 -33.237318 3.685647
30.599671 -33.212643 4.263105
30.772913 -33.181930 4.843639
30.593085 -32.934902 5.166004
30.691369 -32.815822 5.832483
30.835439 -32.786819 6.326742
30.865248 -32.741916 6.558020
30.935408 -32.625359 7.138425
31.007846 -32.484510 7.805684
31.039276 -32.414786 8.123759
31.169097 -32.345926 8.710826
31.454431 -32.373908 9.406422
31.709885 -32.480904 9.757418
31.826983 -32.371321 10.444383
31.604289 -32.126495 10.641004
31.318540 -31.703692 11.253641
31.330231 -31.592380 11.655098
31.419398 -31.488783 12.245040
31.657089 -31.576449 12.611059
31.892167 -31.581570 13.243612
32.899295 -30.636717 4.982201
32.990965 -30.512845 5.647314
33.144666 -30.457677 6.227126
33.161394 -30.429024 6.369725
33.242759 -30.272539 7.123424
33.199623 -30.127929 7.522634
33.316821 -30.095275 7.931707
33.449587 -29.998647 8.604445
33.645401 -29.993758 9.113578
33.922788 -30.018090 9.725098
34.186953 -30.081327 10.166835
33.956410 -29.784711 10.628741
33.470116 -29.368198 10.868928
33.561656 -29.241524 11.543550
33.727386 -29.237034 11.975704
33.807263 -29.174934 12.394364
34.044613 -29.165074 13.025305
34.518212 -29.280592 13.809726
35.656173 -28.353123 3.888389
35.558747 -28.159031 4.391301
35.198399 -27.807707 4.893723
35.376668 -27.711678 5.644591
35.402437 -27.665161 5.874009
35.539710 -27.614221 6.366996
35.585721 -27.508969 6.858830
35.546770 -27.330668 7.432886
35.591929 -27.178422 8.096894
35.691644 -27.174420 8.332767
35.900140 -27.091521 9.102015
36.173663 -27.137999 9.536222
36.447035 -27.135132 10.152859
36.190662 -26.928354 10.350400
35.760870 -26.531848 10.866223
35.671069 -26.350458 11.338990
35.833510 -26.285007 11.941515
36.074851 -26.261020 12.565374
36.226307 -26.209884 13.090527
36.636509 -26.320609 13.589767
37.512963 -25.496024 3.946766
37.400494 -25.309742 4.448427
37.113205 -25.014021 5.034649
37.326734 -25.039103 5.350494
37.384391 -24.917877 5.929829
37.420117 -24.830835 6.334836
37.458442 -24.722554 6.826845
37.491182 -24.611531 7.318646
37.518332 -24.497781 7.810165
37.626381 -24.445409 8.221124
37.831936 -24.326122 9.078794
38.109320 -24.329403 9.602192
38.381097 -24.374035 9.955146
38.110014 -24.140879 10.331200
37.649992 -23.754070 10.935186
37.548890 -23.603019 11.322829
37.530248 -23.467665 11.809243
37.780227 -23.476505 12.258220
38.092359 -23.420323 13.078285
38.502498 -23.473234 13.666681
39.156744 -21.870810 5.240738
39.277327 -21.840167 5.557452
39.327932 -21.694284 6.223211
39.435938 -21.679620 6.455688
39.387081 -21.451017 7.292804
39.216055 -21.284241 7.685740
39.409214 -21.301738 7.926367
39.609323 -21.190686 8.693097
39.797475 -21.160760 9.115632
40.071325 -21.095894 9.815979
40.066852 -21.036027 10.048588
39.674228 -20.723156 10.670269
39.478663 -20.593845 10.873661
39.444443 -20.415208 11.534175
39.604345 -20.371605 11.966051
39.753021 -20.301000 12.488028
39.887199 -20.201925 13.100727
40.599060 -19.284075 5.384533
40.621213 -19.214327 5.700415
40.650762 -19.104522 6.190540
40.681438 -18.952646 6.854741
40.697145 -18.838394 7.344488
40.611702 -18.692446 7.828155
40.710915 -18.604327 8.323055
40.996172 -18.615425 8.661304
41.274532 -18.558783 9.268111
41.356918 -18.462638 9.773295
41.246660 -18.329917 10.169327
40.937541 -18.117333 10.625387
40.813018 -17.960543 11.100950
40.784436 -17.853481 11.501622
40.831433 -17.725314 12.090537
40.973782 -17.644991 12.611497
41.183825 -17.538975 13.328905
41.934610 -15.915624 5.123931
42.075285 -15.749265 5.963526
42.084118 -15.696493 6.193943
42.100446 -15.562529 6.772754
42.105840 -15.488224 7.090122
42.011774 -15.329271 7.663061
42.106525 -15.254409 8.072438
42.485077 -15.199928 8.681052
42.660222 -15.098685 9.281864
42.636895 -14.974839 9.778399
42.595522 -14.805025 10.449810
42.280512 -14.662723 10.731122
42.052819 -14.518643 11.107521
42.006625 -14.391437 11.595213
42.051179 -14.282305 12.098092
42.175031 -14.167063 12.706204
42.495039 -14.109509 13.268970
43.070691 -12.892250 4.736466
42.901246 -12.728125 5.318498
43.011631 -12.671221 5.637344
43.026243 -12.537485 6.217270
43.130706 -12.438053 6.713216
43.030707 -12.286354 7.290363
43.027803 -12.231277 7.523024
43.017084 -12.113855 8.015911
43.284724 -11.975027 8.792641
43.564091 -11.938818 9.140251
43.625699 -11.808804 9.736845
43.579977 -11.663652 10.323656
43.239308 -11.500482 10.783126
43.000796 -11.372764 11.162241
42.954710 -11.270387 11.566550
42.967872 -11.113263 12.245125
43.106075 -11.032812 12.683549
43.323236 -10.939697 13.230575
44.410589 -9.650650 3.325641
44.239083 -9.539620 3.745536
43.876382 -9.352428 4.428619
43.598897 -9.195143 5.011780
43.704729 -9.149996 5.241798
43.812950 -9.044320 5.733103
44.012551 -8.863851 6.577119
43.906438 -8.761840 6.980280
43.601844 -8.687006 7.199473
43.677944 -8.537979 7.866482
43.648208 -8.401845 8.442275
44.014063 -8.309065 8.965074
44.380306 -8.234605 9.409165
44.327725 -8.094567 9.994046
44.096716 -8.007211 10.291969
43.744213 -7.873859 10.746804
43.694293 -7.776317 11.149709
43.590442 -7.594685 11.896267
43.725566 -7.504326 12.330739
43.841004 -7.391576 12.854924
44.145628 -7.283977 13.420816
44.199335 -6.339361 3.250673
44.316283 -6.267727 3.561878
44.340772 -6.134217 4.138599
44.156702 -5.998975 4.719236
44.162675 -5.905927 5.120986
44.163938 -5.772871 5.695350
44.459696 -5.679871 6.101837
44.148989 -5.566694 6.585066
43.632468 -5.456258 7.052956
43.999480 -5.301533 7.727097
44.073872 -5.207631 8.133700
44.037338 -5.094724 8.620444
44.408921 -5.015425 8.969086
44.831450 -4.831138 9.771781
44.884036 -4.734162 10.191281
44.634426 -4.644082 10.575856
44.244525 -4.497462 11.202091
44.182790 -4.403879 11.604991
44.116849 -4.310428 12.007255
44.097760 -4.153501 12.684309
44.476709 -4.000274 13.352189
44.667908 -2.903830 3.965278
44.477542 -2.762029 4.632963
44.378144 -2.695402 4.949670
44.368775 -2.523024 5.694764
44.656937 -2.408796 6.100262
44.342609 -2.338722 6.496244
43.815637 -2.247049 7.048978
44.083368 -2.113257 7.544847
44.337214 -1.958838 8.133700
44.118229 -1.924311 8.348028
44.449492 -1.740944 9.038328
44.977020 -1.556626 9.673887
44.912658 -1.446240 10.168523
44.657489 -1.375310 10.550452
44.371096 -1.267510 11.100514
44.318645 -1.197957 11.415743
44.232445 -1.090886 11.902650
44.221020 -0.954860 12.491827
44.377229 -0.778208 13.205689
