-8.660192 -1.391945 -8.679735
-8.521261 -1.366005 -8.123806
-8.118038 -1.257514 -5.630214
-8.576560 -1.343558 -7.476463
-8.525974 -1.314455 -6.752999
-8.361878 -1.296542 -6.433656
-3.566825 -0.990477 -2.863853
-3.630006 -0.971536 -2.301954
-3.517978 -0.959449 -2.087716
-3.193023 -0.927285 -1.543040
-2.773983 -0.888283 -0.906254
-2.266831 -0.852192 -0.430102
-1.765544 -0.815846 0.058368
-1.671475 -0.790478 0.641653
-2.082637 -0.786925 1.125346
-2.299821 -0.776509 1.607154
-2.218799 -0.758311 2.012751
-2.059285 -0.727136 2.687942
-1.690466 -0.697588 3.121724
-8.601891 -2.087882 -9.707128
-8.564081 -2.064403 -9.199539
-8.494177 -2.046630 -8.936805
-8.000180 -1.888606 -6.225406
-8.415957 -1.993929 -7.777889
-8.373269 -1.981926 -7.587145
-8.382446 -1.966572 -7.155421
-8.040376 -1.828359 -4.519103
-3.562709 -1.254761 -2.578118
-3.428824 -1.215814 -1.945574
-3.313623 -1.188404 -1.562118
-2.904188 -1.128402 -1.185579
-2.594571 -1.069385 -0.541211
-2.095895 -0.998754 -0.147121
-1.799990 -0.950430 0.255751
-2.013682 -0.945859 1.005142
-2.226053 -0.954596 1.399872
-2.343002 -0.952665 1.794969
-2.176893 -0.911993 2.378149
-7.880454 -2.538915 -7.498153
-8.441031 -2.717660 -9.406424
-8.390971 -2.686003 -8.826940
-7.847314 -2.486229 -6.287526
-8.273169 -2.628721 -7.911945
-7.906017 -2.464145 -5.423868
-8.239228 -2.598433 -7.289056
-8.253214 -2.584541 -6.858319
-3.364804 -1.502914 -2.652370
-3.343187 -1.483980 -2.264942
-3.220684 -1.439765 -1.713585
-2.907675 -1.356530 -1.079968
-2.509575 -1.270106 -0.780747
-2.113648 -1.170533 -0.128115
-1.825148 -1.094077 0.449072
-1.926189 -1.107744 0.588621
-2.234316 -1.147285 1.069917
-2.261792 -1.127192 1.728431
-2.092772 -1.076329 2.224820
-1.917378 -1.030785 2.551297
-1.283828 -0.883893 3.271287
-7.651591 -3.183425 -7.533926
-7.677986 -3.176532 -7.171876
-8.092286 -3.363359 -9.032978
-8.068351 -3.336926 -8.525529
-7.553409 -3.092762 -5.906684
-8.057788 -3.297306 -7.586745
-8.054868 -3.276791 -7.082716
-7.977673 -3.239498 -6.672466
-3.231522 -1.777237 -2.689099
-3.203521 -1.747795 -2.133339
-3.095137 -1.706257 -1.834082
-2.788134 -1.596996 -1.201142
-2.491720 -1.493597 -0.643581
-2.202107 -1.398479 -0.249895
-1.822735 -1.271580 0.324641
-1.829577 -1.261128 0.640052
-2.134000 -1.326108 1.121287
-2.163880 -1.308569 1.780108
-2.085539 -1.274569 2.098079
-1.829677 -1.184348 2.604118
-1.299586 -1.014002 3.228716
-7.363465 -3.725261 -7.376061
-7.864355 -3.977612 -9.212604
-7.856717 -3.957454 -8.777228
-7.746522 -3.898774 -8.294164
-7.734963 -3.874332 -7.786735
-7.716642 -3.844598 -7.207403
-7.694218 -3.831823 -7.088274
-7.594529 -3.773849 -6.529171
-2.668151 -1.893272 -3.486995
-3.096888 -2.018934 -2.802548
-3.175050 -2.034384 -2.491421
-3.060828 -1.974932 -2.025019
-2.761638 -1.846263 -1.479152
-2.469181 -1.716219 -0.838872
-2.185815 -1.595906 -0.360608
-1.999905 -1.517032 -0.048347
-1.631728 -1.365906 0.443267
-1.837316 -1.416312 1.017571
-2.136253 -1.507352 1.409343
-2.161548 -1.496944 1.894873
-2.004596 -1.421002 2.392146
-1.586684 -1.243827 3.090902
-7.075335 -4.279001 -7.450252
-7.102975 -4.276282 -7.086532
-7.463404 -4.510303 -8.874167
-7.445524 -4.481338 -8.364870
-7.434690 -4.455549 -7.856627
-7.444477 -4.441990 -7.422575
-7.408848 -4.418189 -7.229677
-7.389364 -4.382619 -6.577604
-2.928515 -2.237309 -2.654338
-2.911732 -2.213765 -2.264614
-2.800610 -2.138034 -1.626659
-2.516468 -1.985425 -0.989993
-2.241228 -1.843421 -0.514408
-1.993541 -1.676737 0.856171
-2.104659 -1.706198 1.339553
-2.129917 -1.697401 1.824898
-1.881358 -1.569719 2.240898
-1.657659 -1.442055 2.924356
-0.973589 -1.114800 3.484105
-7.130105 -5.181545 -9.578258
-6.711355 -4.841686 -7.013838
-7.102415 -5.125673 -8.631956
-7.048117 -5.084516 -8.367150
-7.012380 -5.036811 -7.713384
-7.024987 -5.025085 -7.279922
-7.004587 -5.008768 -7.160562
-6.925575 -4.944559 -6.674781
-2.072994 -2.147982 -3.511398
-2.405473 -2.315507 -3.168012
-2.817084 -2.515565 -2.572230
-2.712810 -2.438337 -2.105769
-2.524364 -2.311387 -1.556245
-2.255240 -2.140051 -1.003179
-1.992156 -1.979032 -0.613007
-1.853605 -1.833051 1.015301
-1.959208 -1.873914 1.411495
-1.975789 -1.869564 1.724084
-1.842867 -1.767943 2.392543
-6.737656 -5.720149 -9.661728
-6.306515 -5.314259 -6.877017
-6.726553 -5.673580 -8.787172
-6.619282 -5.578759 -8.231410
-6.640080 -5.576050 -7.870316
-6.639889 -5.553166 -7.364389
-6.585966 -5.502857 -7.026246
-6.503354 -5.423939 -6.467221
-2.068791 -2.400782 -3.425081
-2.472004 -2.647543 -3.076640
-2.620044 -2.722000 -2.589895
-2.517721 -2.626888 -1.956080
-2.259346 -2.441778 -1.579450
-2.087500 -2.304903 -1.023151
-1.840826 -2.111380 -0.290246
-1.796567 -2.021112 1.075951
-1.974328 -2.126943 1.295298
-2.005153 -2.121491 1.862453
-1.708750 -1.901963 2.453960
-6.317093 -6.201217 -10.054440
-5.900954 -5.758145 -7.342852
-6.273007 -6.119591 -9.033547
-6.300353 -6.126538 -8.742844
-5.889535 -5.688469 -6.051940
-6.210071 -6.011415 -7.752776
-6.235250 -6.013506 -7.394055
-6.263449 -6.017939 -7.036550
-5.882448 -5.603041 -4.358531
-1.887970 -2.530438 -3.296032
-2.270514 -2.799569 -2.866338
-2.419820 -2.897550 -2.549330
-2.328174 -2.806242 -2.084762
-2.079129 -2.580078 -1.286803
-1.919421 -2.445009 -0.985870
-1.683715 -2.244246 -0.511686
-1.563492 -2.084717 0.938435
-1.975631 -2.382577 1.234118
-2.170127 -2.499551 1.872599
-1.718751 -2.137916 2.297877
-1.285184 -1.780951 2.909371
-0.613738 -1.246190 3.474537
-5.847156 -6.729419 -9.919417
-5.741048 -6.606675 -9.363915
-5.739927 -6.583560 -8.926272
-5.731099 -6.549937 -8.416735
-5.665966 -6.470987 -8.004402
-5.710013 -6.499360 -7.788162
-5.694471 -6.452567 -7.136565
-5.742845 -6.485027 -6.924786
-2.112923 -3.042640 -2.894994
-2.097043 -2.996152 -2.255426
-1.939805 -2.823932 -1.623595
-1.789553 -2.670471 -1.239650
-1.642261 -2.519440 -0.851554
-1.577464 -2.428761 -0.201160
-1.698445 -2.468234 1.153860
-1.941895 -2.666123 1.536349
-1.964754 -2.666752 1.927524
-1.495376 -2.208675 2.704875
-5.274348 -7.076768 -9.619716
-4.982156 -6.638676 -7.130363
-5.229932 -6.992585 -8.917447
-5.234599 -6.973726 -8.481111
-5.253442 -6.973582 -8.118768
-5.227461 -6.907230 -7.392915
-4.986153 -6.526735 -4.992825
-5.215491 -6.856967 -6.695887
-1.871760 -3.165437 -2.548075
-1.864892 -3.132692 -2.076227
-1.792572 -3.032305 -1.608219
-1.584820 -2.796310 -1.228363
-1.382210 -2.556007 -0.671021
-1.459088 -2.614183 -0.274761
-1.469265 -2.603304 0.119823
-0.805911 -1.869702 0.965684
-1.816410 -2.876668 1.712648
-1.696557 -2.735260 2.028676
-1.251328 -2.240686 2.636825
-0.875026 -1.821698 3.168914
-4.676750 -7.503624 -9.673363
-4.666220 -7.460317 -9.163744
-4.425774 -7.012733 -6.601552
-4.635045 -7.380296 -8.462884
-4.644998 -7.366553 -8.027929
-4.650181 -7.342682 -7.521213
-4.421191 -6.905692 -4.901198
-4.626261 -7.263005 -6.677036
-1.602174 -3.308310 -2.526426
-1.597897 -3.269909 -1.970525
-1.471708 -3.087514 -1.506060
-1.350343 -2.905657 -0.951478
-1.169057 -2.655159 -0.477596
-0.830685 -2.163739 0.806956
-1.567707 -3.016946 1.649926
-1.470304 -2.868581 2.135468
-1.068791 -2.339997 2.745439
-0.611207 -1.741012 3.383343
-4.099085 -7.832284 -10.014714
-4.088785 -7.783966 -9.503822
-4.101126 -7.777631 -9.139307
-3.883645 -7.288587 -6.428733
-3.852631 -7.216823 -6.011441
-4.128439 -7.730808 -7.833793
-4.116623 -7.666290 -7.109497
-4.093046 -7.615123 -6.843766
-1.355693 -3.431356 -2.708118
-1.352742 -3.390464 -2.150407
-1.296027 -3.284066 -1.764946
-1.183354 -3.103363 -1.465579
-1.074689 -2.916967 -0.992527
-0.914197 -2.650613 -0.429822
-0.908186 -2.546271 1.026184
-0.990347 -2.567953 2.481877
-0.809887 -2.264817 3.169961
-0.273643 -1.466160 3.661755
-3.533464 -8.144149 -9.795040
-3.520207 -8.078678 -9.210047
-3.484100 -7.992807 -8.869610
-3.319203 -7.520324 -6.226273
-3.345658 -7.532571 -5.789101
-3.507609 -7.924673 -7.410312
-3.486487 -7.869317 -7.141708
-3.511956 -7.885441 -6.779549
-1.096868 -3.509635 -2.542827
-1.098745 -3.465472 -1.901581
-0.999193 -3.276060 -1.604447
-0.902274 -3.084563 -1.219068
-0.764476 -2.798854 -0.488974
-0.502240 -2.262587 0.799482
-1.105469 -3.215048 1.645305
-2.884820 -8.316275 -9.538205
-2.741112 -7.815452 -7.045573
-2.918303 -8.327816 -8.878904
-2.884525 -8.224791 -8.466301
-2.891795 -8.196178 -7.956127
-2.750277 -7.688646 -5.332332
-2.780789 -7.713255 -4.897729
-2.893502 -8.078270 -6.525008
-0.829752 -3.573017 -2.417515
-0.832906 -3.546368 -2.028302
-0.751355 -3.335467 -1.478325
-0.625189 -3.048835 -1.095048
-0.505532 -2.760226 -0.533830
-0.372726 -2.383568 0.753421
-0.773546 -3.111044 1.695603
-0.623451 -2.766261 2.196249
-0.482157 -2.431061 2.792932
-0.219567 -1.840997 3.513928
-2.273177 -8.579414 -9.787669
-2.270063 -8.513353 -9.204651
-2.252144 -8.442650 -8.939082
-2.250312 -8.372458 -8.283327
-2.268628 -8.381193 -7.920498
-2.288375 -8.393567 -7.558826
-2.265377 -8.288314 -7.073127
-2.227241 -7.937418 -4.506978
-0.557157 -3.648277 -2.722546
-0.565738 -3.596867 -1.998429
-0.538085 -3.473426 -1.445538
-0.429731 -3.185559 -1.234006
-0.333599 -2.884522 -0.590708
-0.168215 -2.314041 1.041009
-0.469331 -2.977918 1.812025
-0.463114 -2.905411 2.383119
-0.337518 -2.553890 2.806482
-0.082587 -1.853597 3.533856
-1.518918 -8.152458 -7.557577
-1.625758 -8.712743 -9.390260
-1.599378 -8.561610 -8.834290
-1.618268 -8.584683 -8.543747
-1.624110 -8.522058 -7.889706
-1.638296 -8.503668 -7.382646
-1.632419 -8.461454 -7.189697
-1.649783 -8.453145 -6.683891
-0.281326 -3.664926 -2.524458
-0.289757 -3.632669 -2.050624
-0.265467 -3.519854 -1.751777
-0.191847 -3.201156 -1.033819
-0.114380 -2.900783 -0.561259
0.021799 -2.317053 0.719986
-0.268960 -3.098215 1.746527
-0.284565 -3.108955 2.053833
-0.138831 -2.568624 2.742740
0.037968 -1.938699 3.371556
-0.880567 -8.845393 -9.833586
-0.869054 -8.726472 -9.423936
-0.879629 -8.686691 -8.914031
-0.866367 -8.197598 -6.348181
-0.888258 -8.606245 -8.212579
-0.903994 -8.601495 -7.777604
-0.910537 -8.173716 -5.064483
-0.939105 -8.608438 -6.911381
0.031733 -3.695530 -2.787466
0.017384 -3.650054 -2.146140
0.050361 -3.428520 -1.681037
0.066779 -3.320546 -1.463262
0.114773 -3.004378 -0.823519
0.104587 -2.996623 -0.514105
0.145328 -2.695380 0.224358
0.286278 -2.014011 0.633334
0.195060 -2.314442 1.204383
0.047478 -2.906775 1.496314
-0.001317 -3.024441 2.057757
0.080970 -2.566200 2.656053
-0.221622 -8.322085 -7.698830
-0.223676 -8.742647 -9.338874
-0.241101 -8.237086 -6.845826
-0.252297 -8.712291 -8.466301
-0.263815 -8.173301 -5.993503
-0.299756 -8.295511 -5.543529
-0.300711 -8.740715 -7.311631
-0.327206 -8.263961 -4.696876
0.303485 -3.682352 -2.776975
0.290599 -3.648784 -2.303991
0.297172 -3.531506 -2.003931
0.298097 -3.408595 -1.533134
0.320037 -3.086280 -0.810104
0.315358 -2.976691 -0.246052
0.284660 -2.881510 0.942020
0.268395 -2.802944 1.684853
0.235749 -2.918217 2.076379
0.273140 -2.548936 2.583524
0.438646 -8.880148 -9.839820
0.431272 -8.739860 -9.356517
0.416066 -8.722424 -8.918586
0.356789 -8.236244 -6.351935
0.391467 -8.590063 -7.996114
0.376431 -8.607048 -7.633426
0.352768 -8.725294 -7.250734
0.340801 -8.607625 -6.692460
0.572902 -3.637539 -2.614984
0.554535 -3.602130 -2.056532
0.552093 -3.486549 -1.754411
0.545411 -3.261552 -1.115284
0.554769 -2.952097 -0.726727
0.559052 -2.747311 -0.419086
0.565453 -2.345108 0.238277
0.576475 -2.048242 0.556975
0.526635 -2.455346 1.038148
0.491925 -2.668908 1.517047
0.476020 -2.593677 2.092242
0.474235 -2.416559 2.503445
0.486474 -1.872080 3.298867
1.178169 -8.800730 -9.800426
1.152949 -8.718324 -9.144991
1.139632 -8.627405 -8.806654
1.120250 -8.600377 -8.297016
1.106672 -8.615368 -7.934466
1.093162 -8.634262 -7.573071
0.991385 -8.147367 -4.953231
1.052272 -8.512776 -6.508425
0.876704 -3.579776 -2.657290
0.849059 -3.536677 -1.931129
0.843366 -3.430139 -1.797539
0.810968 -3.101175 -0.991985
0.794359 -2.793266 -0.601751
0.771642 -2.588826 -0.032638
0.756693 -2.089906 0.282402
0.731010 -2.000338 0.948939
0.722817 -2.508903 1.249247
0.704659 -2.527327 1.733844
0.684895 -2.352014 2.229392
0.655275 -2.201747 2.990437
0.641304 -1.621518 3.266272
1.810201 -8.604822 -9.506096
1.800994 -8.627530 -9.214308
1.660384 -8.119991 -6.578769
1.759532 -8.510717 -8.367150
1.742919 -8.508867 -7.931900
1.723858 -8.431520 -7.592859
1.696138 -8.394325 -6.939308
1.681108 -8.410868 -6.506710
1.132044 -3.060188 -3.395118
1.122349 -3.128509 -2.993197
1.133393 -3.583691 -2.315045
1.109214 -3.463904 -1.931129
1.073940 -3.245333 -1.464457
1.034377 -2.934789 -1.080402
1.004195 -2.825332 -0.515774
0.948911 -2.324959 -0.120698
0.898406 -1.929295 0.371215
0.893694 -2.139855 0.944538
0.907037 -2.448334 1.249247
0.887379 -2.472171 1.819752
0.843652 -2.205786 2.407996
0.808622 -2.047585 2.996896
0.732409 -1.401866 3.635495
2.453138 -8.423259 -9.436449
2.276650 -7.925321 -6.871241
2.433277 -8.455485 -8.782910
2.390492 -8.318855 -8.226845
2.228331 -7.912111 -5.659979
2.348294 -8.296656 -7.213115
2.349261 -8.354252 -7.000350
2.296439 -8.149854 -6.461484
1.346793 -2.867962 -3.417432
1.410340 -3.417838 -2.809105
1.403145 -3.488037 -2.330427
1.369956 -3.370324 -1.947544
1.314554 -3.152295 -1.397427
1.255166 -2.848110 -1.099042
1.102588 -2.251549 0.432067
1.051497 -2.067758 1.010777
1.067131 -2.283237 1.491966
1.054912 -2.302461 1.891557
1.002216 -2.151923 2.649779
3.113693 -8.329823 -9.845771
3.056883 -8.179490 -9.291052
3.044551 -8.186947 -8.927411
3.019325 -8.163391 -8.419014
2.807894 -7.671269 -5.945757
2.965590 -8.074087 -7.573429
2.985501 -8.209620 -7.265249
2.938450 -8.101162 -6.708454
1.687181 -3.406227 -2.885864
1.649783 -3.366191 -2.163172
1.585629 -3.155612 -1.784371
1.518392 -2.946572 -1.316601
1.429480 -2.645777 -0.845881
1.295928 -2.155942 -0.369525
1.140382 -1.574584 0.119457
1.117520 -1.587762 0.789671
1.219767 -2.087452 1.181372
1.231235 -2.201764 1.578789
1.193324 -2.135895 2.157985
1.112967 -1.877677 2.666136
0.987665 -1.431932 3.196997
3.774854 -8.043120 -9.819416
3.485272 -7.456903 -7.280457
3.720326 -7.960213 -9.117708
3.675628 -7.902036 -8.462884
3.629651 -7.810044 -8.050976
3.622068 -7.831020 -7.688830
3.411450 -7.493118 -5.122255
3.596125 -7.857057 -6.822078
1.919838 -3.155996 -2.767139
1.897864 -3.135715 -2.377489
1.829651 -3.012840 -1.655635
1.723353 -2.719565 -1.359149
1.610136 -2.426477 -0.886513
1.440545 -1.948547 -0.495174
1.262425 -1.477795 0.169907
1.221029 -1.388849 0.490975
1.357386 -1.882001 1.062408
1.404301 -2.097441 1.631488
1.363061 -2.030105 2.124478
1.260592 -1.785407 2.719629
1.098835 -1.359832 3.339328
4.345552 -7.694318 -10.003361
4.035538 -7.195249 -7.364800
4.278718 -7.632046 -8.982340
4.288222 -7.677291 -8.764442
4.197053 -7.523231 -8.061260
4.208863 -7.573970 -7.845218
4.186441 -7.569569 -7.338141
4.175135 -7.585094 -6.905391
4.101367 -7.435490 -6.585366
1.923979 -2.392575 -3.396472
2.142920 -3.002090 -2.695001
2.129574 -2.991441 -2.473286
2.069900 -2.883003 -2.088842
1.957279 -2.677925 -1.367587
1.751471 -2.209229 -0.986713
1.546467 -1.850481 0.471457
1.450879 -1.690801 1.227154
1.521200 -1.886324 1.450003
1.472828 -1.825395 2.030737
1.390734 -1.673572 2.533234
1.273703 -1.428081 2.959629
4.633731 -6.882099 -7.574880
4.896699 -7.254080 -9.362208
4.579056 -6.838912 -6.795563
4.855498 -7.245432 -8.489654
4.785441 -7.147025 -8.005259
4.801573 -7.197069 -7.789874
4.760229 -7.169725 -7.137137
4.525983 -6.913626 -4.646674
2.336300 -2.730356 -2.726965
2.301553 -2.708204 -2.168477
2.225600 -2.603993 -1.613691
2.071318 -2.329929 -1.231508
1.824985 -1.880639 -0.761100
1.667639 -1.616326 -0.189935
1.336208 -1.000291 0.305334
1.327052 -1.009061 0.626861
1.587539 -1.558894 1.021487
1.620425 -1.679504 1.682491
1.613878 -1.714788 2.258745
1.475871 -1.483692 2.768425
1.205891 -1.008246 3.486660
5.121854 -6.509728 -7.514887
5.101654 -6.513465 -7.004604
5.376003 -6.839061 -8.794401
5.357590 -6.840278 -8.359169
5.342115 -6.846303 -7.925059
5.318827 -6.844579 -7.419153
5.249721 -6.765024 -6.934732
5.012318 -6.546908 -4.516794
2.533722 -2.550816 -2.750634
2.440906 -2.442940 -2.114031
2.311052 -2.260985 -1.647220
2.136705 -1.998864 -1.263891
1.846903 -1.570114 -0.531776
1.626259 -1.232157 -0.131782
1.351018 -0.816961 0.454429
1.396729 -0.909969 0.685631
1.694547 -1.447200 1.253030
1.689094 -1.467630 1.656081
1.581740 -1.332014 2.244295
6.002482 -6.451300 -9.570873
6.006306 -6.475391 -9.280746
5.942466 -6.408159 -8.944774
5.910156 -6.395957 -8.437247
5.907195 -6.415151 -8.076631
5.894515 -6.425442 -7.644275
5.817375 -6.349195 -7.161134
5.822465 -6.379431 -6.803241
2.663763 -2.249651 -2.600832
2.621977 -2.233018 -1.957626
2.488070 -2.065639 -1.660493
2.280683 -1.818006 -1.021015
1.969092 -1.414490 -0.546688
1.716108 -1.099112 0.027751
1.298966 -0.538729 0.350791
1.804920 -1.312233 1.409638
1.802488 -1.329228 1.724829
1.685037 -1.203578 2.312654
1.512323 -0.990334 2.736795
1.058331 -0.417036 3.654144
6.068702 -5.639356 -7.520656
6.438960 -5.987073 -9.138171
6.385837 -5.938994 -8.875306
5.995230 -5.626943 -6.236965
6.352545 -5.950142 -8.008273
6.354096 -5.973090 -7.649400
6.271581 -5.902774 -7.166847
6.278942 -5.932580 -6.809520
2.753615 -1.967991 -2.533487
2.721855 -1.957921 -2.058609
2.639434 -1.877060 -1.757381
2.417451 -1.644058 -1.205016
2.011485 -1.186157 -0.735598
1.708367 -0.925612 0.998969
1.769266 -1.016880 1.312682
1.831583 -1.125146 1.886755
1.705016 -0.998110 2.300594
1.521252 -0.818857 2.989805
1.083269 -0.327698 3.544828
6.965896 -5.552266 -9.896479
6.855707 -5.464855 -9.415689
6.816946 -5.452471 -8.907198
6.828323 -5.479815 -8.618302
6.350300 -5.133380 -5.926945
6.358532 -5.165262 -5.494340
6.724838 -5.442313 -7.342706
6.695693 -5.443541 -6.765561
2.837982 -1.690323 -2.740140
2.867476 -1.751368 -2.173060
2.709146 -1.604445 -1.876303
2.460818 -1.388065 -1.151063
2.091892 -1.033944 -0.677163
1.634305 -0.647649 0.888770
1.632062 -0.657840 1.119782
1.839548 -0.892856 1.515909
1.774264 -0.866780 2.275923
1.643110 -0.759168 2.782216
1.237619 -0.371155 3.325356
7.360486 -4.935147 -10.086210
6.840576 -4.615816 -7.376350
7.271411 -4.908211 -9.067673
6.825671 -4.650137 -6.431042
6.769627 -4.618219 -6.088959
6.778761 -4.647928 -5.655645
7.117115 -4.866274 -7.209117
7.115449 -4.886441 -6.777551
6.682580 -4.627104 -4.390979
2.646843 -1.141904 -3.440558
2.897843 -1.391578 -2.842814
3.024035 -1.518141 -2.521587
2.900318 -1.446207 -1.795868
2.653105 -1.248948 -1.413741
2.250871 -0.924731 -0.857108
1.703847 -0.474429 -0.287267
1.622119 -0.414493 -0.055629
1.307820 -0.173485 0.625373
1.303889 -0.190755 1.038689
1.755044 -0.609741 1.518646
1.761629 -0.649121 2.189512
1.696638 -0.617343 2.690682
1.404815 -0.379374 3.039698
7.677161 -4.376675 -9.657471
7.651475 -4.377937 -9.221123
7.630353 -4.382588 -8.785751
7.520613 -4.322807 -8.302719
7.104937 -4.134601 -5.662869
7.473019 -4.334826 -7.289056
7.140620 -4.202145 -4.800421
7.007155 -4.120741 -4.397352
2.716725 -0.941375 -3.361131
3.014619 -1.177663 -3.103776
3.116054 -1.289180 -2.357929
3.015468 -1.227745 -2.055937
2.738432 -1.049359 -1.418758
2.313262 -0.755725 -0.861852
1.734384 -0.347059 -0.291750
1.554247 -0.273772 1.027612
1.796905 -0.487685 1.691565
1.799957 -0.500896 1.922877
1.734940 -0.483934 2.600168
1.428939 -0.274330 3.037614
7.982330 -3.700925 -9.876698
7.462950 -3.487826 -7.310502
7.931186 -3.707654 -9.002256
7.912869 -3.715527 -8.566517
7.850968 -3.688306 -8.301579
7.409356 -3.530836 -5.587438
7.804439 -3.704176 -7.287343
7.452030 -3.596204 -4.724569
7.879702 -3.794181 -6.332742
8.247146 -4.041643 -5.978774
2.700602 -0.660856 -3.365939
3.170710 -0.977045 -2.922327
3.205409 -1.028046 -2.268973
3.016283 -0.922060 -1.971420
2.642135 -0.714523 -1.334865
2.113879 -0.402481 -0.862873
1.590178 -0.093974 -0.376018
1.326695 0.053825 0.035319
1.233085 0.074375 0.898462
1.487129 -0.095949 1.126005
1.828675 -0.328988 1.522771
1.756819 -0.313857 2.199757
1.522030 -0.192790 2.804917
1.201601 -0.010474 3.247415
8.270630 -3.112733 -10.004496
8.182735 -3.094052 -9.348265
8.198203 -3.114712 -9.056868
8.179819 -3.123560 -8.620862
8.047155 -3.076870 -8.063545
8.040198 -3.091745 -7.628570
8.053457 -3.114187 -7.267933
8.055607 -3.133793 -6.835491
8.162761 -3.206823 -6.458435
8.360216 -3.328457 -6.066691
2.732002 -0.458194 -3.255377
3.218511 -0.739186 -2.728213
3.276981 -0.787304 -2.328829
3.069589 -0.697089 -1.861004
2.695022 -0.514300 -1.481100
2.130954 -0.249605 -0.661428
1.592071 0.023351 -0.348638
1.317223 0.147977 0.152636
1.047463 0.261898 0.841307
1.224804 0.157766 1.073417
1.763396 -0.156491 1.731594
1.778965 -0.189751 2.316840
1.533418 -0.081387 2.834380
1.191524 0.088991 3.098393
7.932026 -2.291211 -7.394829
8.413560 -2.432158 -9.013351
8.452275 -2.457721 -8.796831
8.331513 -2.425515 -8.314410
8.306248 -2.435441 -7.807564
8.335863 -2.459963 -7.520928
8.336839 -2.478092 -7.089554
8.134607 -2.413068 -6.551824
2.681153 -0.193843 -3.396668
2.905865 -0.314953 -2.804039
3.236194 -0.477969 -2.298674
3.129754 -0.441042 -2.081487
2.826753 -0.329687 -1.615152
2.249996 -0.103964 -1.062668
1.678001 0.115355 -0.404140
1.484625 0.133500 1.182617
1.581428 0.078744 1.500841
1.688317 0.008824 2.082622
1.523696 0.058812 2.592048
1.268401 0.151024 3.024203
8.611844 -1.801041 -9.523430
8.628717 -1.818531 -9.231347
8.591097 -1.825766 -8.723801
8.451465 -1.799632 -8.168057
8.033135 -1.754372 -5.675004
8.445581 -1.832164 -7.301614
8.087706 -1.807615 -4.813685
8.275648 -1.806230 -6.478121
2.782169 -0.029013 -3.387780
2.942440 -0.097510 -3.060678
3.268432 -0.237319 -2.383213
3.143365 -0.212895 -1.910892
2.740514 -0.092041 -1.446812
2.248363 0.059405 -0.975151
1.570478 0.271168 -0.404785
1.375032 0.278879 1.096736
1.575743 0.186230 1.678512
1.683109 0.132950 2.082967
1.511094 0.175677 2.503620
1.259113 0.238503 3.113904
8.177462 -1.013725 -7.771283
8.733566 -1.087612 -9.533375
8.731669 -1.101314 -9.168858
8.676406 -1.109802 -8.587006
8.555045 -1.097517 -8.103817
8.568521 -1.115010 -7.743071
8.166564 -1.111846 -5.178568
8.591244 -1.151616 -6.952164
8.426945 -1.121914 -6.633805
2.760497 0.197171 -3.226136
3.299956 0.038514 -2.700713
3.271824 0.030460 -2.308620
3.049328 0.069252 -1.840750
2.728445 0.126484 -1.199036
2.131527 0.260999 -0.725961
1.544888 0.402664 -0.504254
1.253741 0.408302 1.267297
1.457953 0.340237 1.671878
1.569266 0.295936 2.077371
1.495547 0.295195 2.581645
1.053127 0.380670 3.297724
8.249754 -0.423165 -7.414171
8.811864 -0.453249 -9.250087
8.775398 -0.466196 -8.741991
8.188649 -0.461590 -6.125972
8.612409 -0.477826 -7.678265
8.680841 -0.495453 -7.537171
8.685593 -0.512846 -7.105223
8.458984 -0.495795 -6.493610
2.754238 0.404826 -3.403908
3.014055 0.342291 -2.982839
3.370510 0.259221 -2.476296
3.134345 0.277023 -1.839717
2.725803 0.338757 -1.546310
2.207078 0.403351 -0.813727
1.509321 0.512797 -0.417262
1.119647 0.521177 1.181179
1.322246 0.476236 1.409716
1.535760 0.419250 1.901854
1.469745 0.404912 2.584072
1.114096 0.444718 3.203343
8.820329 0.206932 -9.608359
8.819648 0.193185 -9.243840
8.803423 0.178334 -8.807626
8.198980 0.139132 -6.117876
8.673744 0.156959 -7.888566
8.154593 0.111495 -5.267206
8.503739 0.146198 -7.139027
8.514996 0.128637 -6.706581
3.120610 0.565225 -3.448359
3.271246 0.527648 -2.869665
3.336545 0.502560 -2.386696
3.114422 0.511179 -2.005672
2.686531 0.531530 -1.370501
2.176114 0.569914 -0.985027
1.467684 0.621856 -0.414836
1.072699 0.612540 0.912809
1.286626 0.568127 1.498478
1.504774 0.526866 1.989444
1.336756 0.521596 2.588672
8.193134 0.876847 -7.770705
8.197238 0.860180 -7.331010
8.732241 0.915505 -9.093830
8.222449 0.826640 -6.455576
8.145073 0.812485 -6.037477
8.270119 0.792848 -5.585899
8.729680 0.852616 -7.424823
8.610379 0.834148 -6.869161
8.458858 0.828053 -6.623775
2.741562 0.818380 -3.206259
3.209525 0.792319 -2.773932
3.277862 0.772686 -2.291131
3.052586 0.759782 -1.824417
2.630179 0.747807 -1.273341
2.019333 0.746043 -0.888821
1.312314 0.745870 -0.493329
0.923094 0.693663 1.106196
1.246336 0.661617 1.777247
1.266032 0.645685 2.188806
1.096051 0.629865 2.702280
0.825995 0.619062 3.138051
8.666613 1.594046 -9.921586
8.116002 1.467686 -7.355559
8.627278 1.558882 -9.046061
8.616159 1.541813 -8.609768
8.067046 1.416324 -6.064666
8.547425 1.511678 -7.909094
8.503329 1.484656 -7.255943
8.165796 1.372578 -4.766103
8.351012 1.448131 -6.504509
2.796857 1.036946 -3.488003
3.138288 1.026308 -2.722249
3.213354 1.015309 -2.324530
2.993241 0.989140 -1.943485
2.577320 0.952630 -1.566142
1.959093 0.895305 -0.924327
1.252815 0.839247 -0.440867
0.970384 0.763862 1.155289
1.084720 0.754514 1.564950
1.112773 0.733706 2.155809
1.043640 0.710835 2.663512
0.781731 0.676987 3.188672
8.534759 2.232436 -9.954530
7.961381 2.055815 -7.240580
8.458672 2.183829 -8.932250
8.432215 2.161060 -8.422433
8.368013 2.142710 -8.156068
8.353257 2.121474 -7.647136
8.331106 2.096556 -7.066267
8.026327 1.965579 -4.647828
8.518652 2.098083 -6.474353
8.688183 2.091255 -5.723379
3.149782 1.265537 -2.667023
3.131643 1.251627 -2.362227
2.906361 1.201867 -1.812443
2.495582 1.134895 -1.435046
1.885430 1.032304 -0.792540
1.584434 0.981911 -0.481284
1.312247 0.880385 1.272216
1.035868 0.825602 1.781945
1.074065 0.804702 2.460487
0.898205 0.769444 2.795328
0.557936 0.698690 3.509877
7.789762 2.704027 -7.346895
8.298734 2.879711 -9.108612
7.834548 2.682551 -6.543580
8.224454 2.836811 -8.403628
8.191322 2.807327 -7.820687
8.102471 2.772546 -7.406453
8.114593 2.758322 -6.970771
8.009503 2.714403 -6.408693
2.886268 1.511278 -3.343035
2.749792 1.460990 -2.788149
3.016112 1.498261 -2.291792
2.897458 1.454991 -1.821082
2.688937 1.396010 -1.436503
2.189253 1.272179 -0.969202
1.401699 1.087048 -0.493163
0.744014 0.882883 1.190370
0.753154 0.875777 1.424978
0.879808 0.879914 2.013558
0.923435 0.862906 2.694597
8.178125 3.536816 -9.903842
8.029546 3.472073 -9.347980
8.000824 3.443726 -8.837139
7.584903 3.225684 -6.343271
7.516623 3.189549 -5.925209
7.988735 3.386060 -7.456792
8.058495 3.400652 -7.315045
7.964968 3.354597 -6.830069
2.916419 1.731002 -2.626371
2.889672 1.701225 -2.064563
2.779604 1.654178 -1.676089
2.481198 1.552889 -1.291990
1.896700 1.362141 -0.734579
0.393048 0.848813 1.275707
0.800242 0.947134 1.768112
0.829427 0.935768 2.272561
0.694245 0.865822 3.059621
0.260618 0.718991 3.608688
7.359579 3.840527 -7.595642
7.759573 4.060789 -9.382693
7.785077 4.058542 -9.091556
7.745887 4.020622 -8.510155
7.687079 3.988146 -8.245105
7.753351 3.988478 -7.641997
7.778818 3.983473 -7.282608
7.715806 3.946509 -6.944750
2.797120 1.960416 -2.933998
2.761271 1.917672 -2.201836
2.651142 1.857740 -1.727519
2.455985 1.773152 -1.424494
2.072337 1.604847 -0.778633
0.046275 0.772079 1.238330
0.725676 1.004613 1.723701
0.755199 0.995222 2.229574
0.703991 0.952022 2.831382
0.202917 0.736508 3.567902
7.032389 4.430599 -7.640903
7.380221 4.661022 -9.279664
7.406181 4.660938 -8.986608
6.995631 4.359587 -6.346159
7.315819 4.583393 -8.135798
7.411011 4.608695 -7.676733
7.384016 4.568936 -7.023724
7.045838 4.311387 -4.624743
2.712031 2.213242 -2.781797
2.778628 2.220678 -2.213885
2.678121 2.161282 -1.913075
2.484401 2.047905 -1.359813
2.025963 1.803890 -0.634403
0.080336 0.812685 1.376987
0.654652 1.056705 1.950629
0.693600 1.050197 2.543700
0.530576 0.963814 2.792291
0.121520 0.750323 3.337669
6.697651 4.942892 -7.694796
7.046486 5.211923 -9.406018
7.024039 5.177278 -8.894670
7.037920 5.169291 -8.530084
6.984343 5.127802 -8.263361
7.049175 5.137933 -7.658512
7.062169 5.126453 -7.224546
7.017686 5.090052 -6.957868
2.537688 2.399509 -2.678631
2.610149 2.422801 -2.279689
2.601020 2.404389 -1.971676
2.499973 2.312965 -1.163615
2.324212 2.205295 -0.946830
0.658087 1.151577 1.873682
0.684008 1.148254 2.286202
0.560852 1.049379 2.980476
0.146322 0.805703 3.254276
6.662093 5.830261 -9.711667
6.623943 5.778163 -9.129645
6.266147 5.421142 -6.567233
6.530982 5.673881 -8.210296
6.551908 5.671520 -7.848641
6.470732 5.594894 -7.363536
6.232234 5.321130 -4.867949
6.448978 5.548476 -6.663894
2.035469 2.436056 -3.480947
2.095404 2.454214 -2.993564
2.411991 2.647993 -2.573087
2.479180 2.667556 -2.009262
2.472157 2.645139 -1.619833
2.384715 2.557347 -0.981731
2.056050 2.311177 -0.427894
0.373614 1.093287 1.477223
0.484621 1.145247 1.976500
0.365613 1.033672 2.670866
0.150648 0.869260 3.108001
-0.446757 0.432946 3.869468
6.192100 6.280759 -9.598421
6.173240 6.241519 -9.088713
6.173560 6.220870 -8.652720
6.101381 6.144499 -8.241681
6.134003 6.156258 -7.952707
6.134726 6.132534 -7.445958
6.053765 6.042202 -6.887524
6.105120 6.072321 -6.674751
2.290341 2.881974 -2.599569
2.280273 2.855402 -2.210138
2.269804 2.812384 -1.484181
2.268787 2.788859 -1.010088
2.192680 2.710626 -0.624554
0.142580 0.993267 1.624624
0.335082 1.116384 2.209077
0.357273 1.118325 2.532034
0.160938 0.939059 3.056119
-0.334173 0.518855 3.713048
5.314617 6.346566 -7.491806
5.654154 6.748516 -9.180506
5.353284 6.337531 -6.618565
5.577411 6.629991 -8.260794
5.335511 6.277272 -5.767731
5.611295 6.620505 -7.465060
5.556394 6.548368 -7.053118
5.595319 6.569772 -6.766989
2.040150 3.044408 -2.369615
2.107352 3.086469 -1.974920
2.105161 3.073065 -1.753869
2.103783 3.043154 -1.197234
2.108325 3.018724 -0.640349
0.050040 1.002112 1.430846
0.235473 1.139371 2.107818
0.256967 1.142613 2.432571
0.082383 0.948942 3.048012
-0.384576 0.486446 3.614951
5.172558 7.208233 -9.776329
5.146574 7.148127 -9.194994
5.105009 7.088846 -8.931112
5.089039 7.039518 -8.350048
5.099192 7.026402 -7.915936
5.122298 7.031312 -7.555977
4.863561 6.608273 -4.937333
5.077124 6.928035 -6.567315
1.746486 3.127085 -2.571772
1.877227 3.245424 -2.171028
1.873921 3.211129 -1.615641
1.943586 3.259725 -1.140849
1.880866 3.166351 -0.671819
1.826442 3.072436 -0.031932
0.133396 1.150810 1.809574
0.182993 1.161260 2.583861
0.010493 0.951666 3.020872
-0.413543 0.459420 3.680112
4.533659 7.532586 -9.500980
4.545671 7.525637 -9.136750
4.569872 7.538599 -8.846252
4.277295 7.004791 -6.157484
4.517865 7.416929 -7.927909
4.570007 7.441927 -7.253864
4.550155 7.405111 -7.061629
4.448656 7.252795 -6.669338
1.197366 2.949539 -3.571380
1.186161 2.906168 -3.091410
1.550968 3.336222 -2.571035
1.608771 3.370057 -1.924493
1.610463 3.338351 -1.367959
1.674582 3.405868 -1.143791
1.684988 3.380166 -0.504628
1.634912 3.288097 -0.032838
0.061455 1.163018 2.165632
0.101125 1.177101 2.759622
3.981099 7.901401 -10.039686
3.952767 7.815424 -9.383546
3.983684 7.846385 -9.164881
3.772624 7.352378 -6.454999
3.928144 7.697575 -8.172053
4.003940 7.783663 -7.787432
4.026668 7.793039 -7.427666
3.971161 7.668690 -6.797818
3.894181 7.538382 -6.550963
0.862468 2.851847 -3.451572
1.191331 3.296436 -2.839469
1.244394 3.342411 -2.357657
1.356898 3.475998 -1.873080
1.415660 3.536386 -1.480421
1.420481 3.517416 -1.092471
1.433229 3.493258 -0.453290
-0.003741 1.237048 1.534495
0.040697 1.250721 2.307158
-0.086736 1.021177 2.921455
-0.236514 0.782464 3.181340
3.099533 7.622389 -7.721301
3.116558 7.618916 -7.282768
3.136314 7.620385 -6.845537
3.158785 7.626771 -6.409681
3.134994 7.552596 -5.992635
3.359274 8.090052 -7.815591
3.364553 8.055037 -7.237356
3.335551 7.972066 -6.826074
0.625418 2.891865 -3.227909
0.918683 3.371465 -2.703353
1.017894 3.509936 -2.216045
1.071662 3.562113 -1.653967
1.075827 3.546091 -1.348954
1.084640 3.525424 -0.876040
1.047152 3.422751 -0.404036
-0.096894 1.234901 1.679288
-0.068720 1.246237 2.182391
-0.123267 1.096173 2.877907
-0.344426 0.676208 3.241855
2.538031 7.846229 -7.799012
2.709668 8.359931 -9.488475
2.723023 8.356080 -9.124529
2.595564 7.852378 -6.488186
2.701933 8.236457 -8.278193
2.748785 8.282535 -7.675024
2.766040 8.280918 -7.242764
2.755081 8.240681 -7.050800
2.683520 8.041148 -6.511965
0.412002 2.930623 -3.235935
0.668607 3.451209 -2.964678
0.756043 3.593594 -2.476566
0.802232 3.656717 -2.081984
0.855834 3.706133 -1.354605
0.819440 3.602248 -1.053361
0.745945 3.404729 -0.583692
-0.234694 1.132019 1.581708
-0.192446 1.153171 2.356212
-0.215150 1.075634 2.688063
-0.357478 0.734142 3.133891
2.013339 8.584868 -9.940899
2.025306 8.577658 -9.576554
1.926912 8.032164 -6.939957
2.036884 8.499340 -8.559686
2.019051 8.415556 -8.222280
2.034016 8.408847 -7.788162
2.047875 8.391474 -7.282206
2.031897 8.304674 -6.870641
2.022561 8.251239 -6.604858
0.171227 2.964576 -3.346274
0.349723 3.403093 -2.997417
0.428609 3.533837 -2.256000
0.504043 3.701115 -1.940538
0.517152 3.667411 -1.301113
0.458866 3.461769 -0.833465
0.394903 3.267768 -0.615186
-0.332068 1.106506 1.458990
-0.302152 1.122443 2.053504
-0.309219 1.048763 2.564160
-0.401130 0.716913 3.372156
1.321888 8.154537 -7.415903
1.413249 8.710244 -9.252358
1.422147 8.672697 -8.744833
1.407380 8.567815 -8.335224
1.424639 8.578268 -7.974366
1.400906 8.135769 -5.264888
1.426950 8.453962 -6.984785
1.418373 8.369789 -6.572753
0.010233 3.181042 -3.548441
0.131005 3.512055 -2.954135
0.197108 3.660405 -2.383067
0.237019 3.721090 -1.821992
0.213848 3.613556 -1.606367
0.148553 3.295761 -0.888105
0.047656 2.901263 -0.501356
-0.437895 0.984438 1.497333
-0.385513 1.095550 1.998135
-0.382611 1.025270 2.598210
-0.415384 0.856516 3.027922
0.658745 8.243897 -7.457178
0.703924 8.786860 -9.219704
0.717127 8.769746 -8.784331
0.708777 8.626794 -8.228272
0.724573 8.622308 -7.793869
0.742694 8.656215 -7.506678
0.740061 8.581036 -7.168561
0.758018 8.560348 -6.590465
-0.263493 3.053809 -3.342453
-0.238371 3.131473 -3.110046
-0.120933 3.569386 -2.428379
-0.108917 3.539398 -1.954231
-0.116213 3.417314 -1.483608
-0.140005 3.200271 -0.927904
-0.252512 2.604658 -0.628924
-0.537879 0.846960 1.464671
-0.474460 1.059404 1.962739
-0.445843 1.086879 2.557247
-0.485029 0.817961 2.993731
0.025807 8.850741 -10.049900
0.048744 8.243941 -7.339386
0.052694 8.802901 -9.176813
0.085706 8.251590 -6.394091
0.069534 8.645037 -8.185753
0.086215 8.625289 -7.678550
0.101903 8.661488 -7.391774
0.120054 8.653606 -6.887134
0.134255 8.013937 -4.292185
-0.511658 2.816778 -3.226040
-0.423197 3.384157 -2.870570
-0.383038 3.547616 -2.382328
-0.379412 3.415719 -1.828915
-0.396158 3.202985 -1.530409
-0.559672 1.013829 1.773119
-0.541540 1.031624 2.188056
-0.535701 0.954600 2.609091
-0.559011 0.597855 3.235158
-0.582782 8.626458 -6.847191
-0.687172 3.428341 -2.731040
-0.673737 3.402029 -2.340328
-0.667455 3.175845 -1.874494
-0.660696 2.955283 -1.403476
-0.667424 2.337038 -0.763241
-0.676233 0.646711 1.241088
-0.633273 1.067019 1.822661
-0.616648 1.086743 2.236914
-0.598236 0.929101 2.933339
-0.609874 0.270471 3.496951
-1.323214 8.748145 -9.693510
-1.214169 8.211386 -7.132381
-1.193387 8.112188 -6.642371
-1.180536 8.145444 -6.281171
-1.164742 8.169751 -5.847424
-1.245171 8.641014 -7.690112
-1.221314 8.518114 -7.133137
-1.206907 8.448072 -6.794214
-0.933793 3.269261 -2.738405
-0.908520 3.229631 -2.092682
-0.882406 3.004132 -1.538986
-0.855094 2.588854 -1.070254
-0.819687 1.978224 -0.507089
-0.739238 1.090958 1.080225
-0.716585 0.804630 1.504714
-0.703001 1.026390 2.001322
-0.691159 1.043825 2.326028
-1.881498 8.043671 -7.415037
-2.008552 8.592354 -9.251790
-1.990774 8.579879 -8.817283
-1.827776 7.996045 -6.129441
-1.814256 8.023623 -5.696673
-1.931865 8.478841 -7.542300
-1.779334 7.996627 -4.850022
-1.882850 8.308134 -6.720617
-1.197485 2.938402 -3.465651
-1.199478 3.105551 -3.056774
-1.190836 3.261479 -2.398374
-1.160080 3.137647 -1.928920
-1.099031 2.721302 -1.467923
-1.031360 2.212983 -1.086162
-0.936117 1.507602 -0.521097
-0.807718 0.825722 0.983434
-0.779848 0.743414 1.491358
-0.770805 0.870789 2.081538
-0.754896 0.901246 2.585262
-0.710350 0.633389 3.020872
-2.478603 7.855555 -7.759439
-2.463320 7.863612 -7.322634
-2.617300 8.358469 -9.015627
-2.599215 8.350442 -8.581315
-2.571713 8.269314 -8.244819
-2.395687 7.853380 -5.605359
-2.523623 8.232998 -7.160277
-2.525986 8.291114 -6.948742
-2.462741 8.019086 -6.576671
-1.446635 3.186630 -2.770591
-1.402064 3.056687 -2.218042
-1.348898 2.842585 -1.836724
-1.278667 2.533846 -1.454889
-1.145221 1.929328 -0.813387
-0.984278 1.138409 -0.330381
-0.839459 0.675076 1.271660
-0.841900 0.795152 1.772418
-0.835111 0.807338 2.006896
-0.794263 0.765359 2.875801
-0.714640 0.398854 3.231263
-3.035789 7.680066 -7.403779
-3.249111 8.222409 -9.312533
-3.221970 8.193673 -8.804501
-2.981615 7.653101 -6.189570
-3.171064 8.112225 -8.033057
-3.155574 8.117577 -7.599848
-3.118003 8.033420 -7.188840
-3.069025 7.927199 -6.630080
-1.633248 2.958769 -2.464394
-1.564043 2.746687 -2.083150
-1.466934 2.438774 -1.616158
-1.346230 2.039536 -1.144437
-1.141735 1.354413 -0.402804
-0.915989 0.703016 1.106898
-0.876732 0.627194 1.616127
-0.893289 0.740635 1.937856
-0.881539 0.771456 2.442728
-0.794593 0.525847 3.058938
-3.966001 7.990820 -9.939520
-3.884115 7.826972 -9.311265
-3.890491 7.870579 -9.092124
-3.853316 7.830379 -8.509870
-3.796749 7.723083 -8.024690
-3.828918 7.851741 -7.712883
-3.799698 7.834095 -7.133994
-3.569723 7.455164 -4.663697
-1.889250 2.828408 -2.755589
-1.834268 2.714380 -2.368627
-1.743507 2.506670 -1.899104
-1.540662 2.014890 -1.089183
-1.290931 1.349681 -0.611323
-1.042505 0.690227 -0.116145
-0.825362 0.133331 0.486231
-0.779813 0.050811 0.910590
-0.935061 0.535030 1.227716
-0.986801 0.752030 1.816717
-0.978725 0.776576 2.232370
-0.904928 0.623385 2.750532
-0.666794 0.022325 3.495169
-4.228565 7.152245 -7.627931
-4.448867 7.505936 -9.267135
-4.448376 7.532447 -8.976080
-4.428948 7.528915 -8.540331
-4.114948 7.051710 -5.920578
-4.387794 7.523143 -7.599278
-4.375564 7.535920 -7.167032
-4.110582 7.164752 -4.624166
-2.091777 2.678116 -2.715273
-2.018921 2.562456 -2.159409
-1.909603 2.362414 -1.604293
-1.688407 1.895293 -1.137511
-1.393410 1.250037 -0.749611
-1.086475 0.612568 0.010909
-0.840318 0.066148 0.250441
-0.780507 -0.006032 0.946534
-0.967590 0.473623 1.442149
-1.039420 0.678446 1.849935
-1.031231 0.715883 2.443433
-5.113835 7.211922 -9.670809
-5.089703 7.201746 -9.233050
-5.058440 7.158556 -9.040373
-5.027258 7.140787 -8.532361
-4.675726 6.691426 -5.913052
-4.951179 7.065797 -7.687688
-4.984823 7.165276 -7.233655
-4.680901 6.804879 -4.618394
-2.297542 2.494730 -2.627362
-2.226190 2.391828 -2.241645
-2.062893 2.115914 -1.863160
-1.841443 1.751937 -1.222671
-1.483515 1.132763 -0.572794
-1.142152 0.517813 -0.257898
-0.835057 0.004426 0.522451
-0.775433 -0.066221 1.036214
-1.003043 0.392994 1.440040
-1.138498 0.679284 1.842639
-1.133387 0.717088 2.433999
-5.654753 6.837810 -9.779731
-5.642531 6.844198 -9.415213
-5.543346 6.726613 -8.859357
-5.548798 6.755724 -8.568793
-5.496944 6.719799 -7.915936
-5.506993 6.755928 -7.628898
-5.160730 6.393178 -5.011320
-5.448088 6.717058 -6.859745
-2.467581 2.313062 -2.500429
-2.384341 2.214700 -2.029403
-2.206796 1.954825 -1.734777
-1.902715 1.525340 -1.008911
-1.508247 0.935555 -0.530064
-1.175823 0.432430 -0.213097
-0.785649 -0.148441 0.295897
-0.769252 -0.125363 0.990663
-1.083554 0.399753 1.391665
-1.240414 0.669773 1.704517
-1.183428 0.627993 2.389384
-1.023640 0.405952 2.822469
-6.079850 6.335400 -9.462891
-6.084277 6.359844 -9.171131
-6.049422 6.345054 -8.662105
-5.962068 6.257883 -8.177762
-5.948459 6.267082 -7.742501
-5.962132 6.303652 -7.456222
-5.598092 5.978428 -4.836720
-5.823546 6.173404 -6.560712
-2.162964 1.434523 -3.416701
-2.263111 1.584958 -3.174372
-2.582314 2.048744 -2.650017
-2.475253 1.950321 -1.923530
-2.215432 1.623739 -1.545974
-1.830586 1.139723 -0.991241
-1.449930 0.662468 -0.418995
-1.174788 0.380975 0.997139
-1.227606 0.489499 1.585884
-1.345144 0.673539 1.988437
-1.227745 0.553179 2.588733
-0.933988 0.185302 3.037086
-6.644995 5.886475 -9.793906
-6.148212 5.464239 -7.254162
-6.143193 5.483568 -6.816364
-6.141920 5.507098 -6.379944
-6.420057 5.730777 -8.024119
-6.434678 5.764047 -7.734794
-6.438237 5.788796 -7.373518
-6.109249 5.567959 -4.664851
-2.748834 1.836499 -2.773932
-2.703650 1.821895 -2.127241
-2.558463 1.668182 -1.914442
-2.193943 1.288005 -1.279779
-1.707669 0.764458 -0.719340
-1.297701 0.319052 -0.316979
-0.883367 -0.115073 0.369576
-0.875336 -0.100258 0.788633
-1.132349 0.227014 1.375535
-1.394819 0.544581 1.684029
-1.397790 0.586738 2.361071
-7.039274 5.338968 -9.650091
-7.029788 5.348930 -9.285288
-6.970810 5.305075 -9.020178
-6.531021 5.016920 -6.307458
-6.837238 5.226574 -8.025548
-6.475405 5.007385 -5.455007
-6.833140 5.264636 -7.228820
-6.842482 5.292811 -6.868875
-2.944950 1.690467 -2.681895
-2.845623 1.613372 -2.296685
-2.596404 1.397878 -1.747817
-2.277172 1.118588 -1.106419
-1.828768 0.703898 -0.629374
-1.315400 0.221522 -0.227247
-0.872062 -0.181852 0.369930
-0.866415 -0.170047 0.698309
-1.217758 0.210232 1.372542
-1.433007 0.447250 1.862104
-1.437069 0.472917 2.272613
-7.294973 4.741164 -8.798960
-6.848521 4.498085 -6.082019
-7.219777 4.731584 -7.705961
-7.241159 4.763918 -7.416872
-7.237380 4.782142 -6.982959
-7.001676 4.605148 -6.534397
-2.972483 1.399951 -2.505527
-2.847697 1.330461 -1.777517
-2.592816 1.138298 -1.308016
-2.120459 0.753860 -1.011589
-1.632293 0.382748 -0.174567
-1.168035 0.002049 0.059007
-0.927235 -0.167302 0.749631
-1.154064 0.040151 1.070070
-1.535958 0.382415 1.467589
-1.616367 0.474739 1.961760
-1.478798 0.396813 2.737666
-1.109801 0.107241 3.186927
-7.717840 4.227286 -9.528829
-7.248426 4.002625 -7.035765
-7.723663 4.262260 -8.868967
-7.578652 4.186414 -8.237117
-7.582785 4.206399 -7.872597
-7.201694 4.049298 -5.305870
-7.141354 4.025030 -4.886454
-7.443091 4.157154 -6.752695
-3.068139 1.178005 -2.517459
-2.959812 1.117389 -2.130364
-2.764168 1.001250 -1.574272
-2.413167 0.772358 -1.017196
-1.831506 0.368178 -0.627835
-1.248241 -0.028156 -0.045093
-0.751455 -0.356586 0.647441
-0.992088 -0.154235 1.240560
-1.561307 0.277185 1.629681
-1.648160 0.359113 2.034625
-1.574217 0.320624 2.360816
-1.268836 0.127581 2.976380
-8.086643 3.661117 -9.792205
-8.015601 3.629149 -9.525987
-7.954578 3.617451 -8.941359
-7.493331 3.447048 -6.373880
-7.857516 3.592139 -8.162919
-7.816759 3.592861 -7.579716
-7.828604 3.616214 -7.217113
-7.858048 3.647117 -6.928779
-3.152681 0.941921 -2.570486
-3.130302 0.941774 -2.262534
-2.920042 0.840589 -1.622972
-2.648929 0.686881 -1.323099
-2.108361 0.386432 -0.589040
-1.503287 0.027586 -0.276527
-0.893719 -0.313505 0.499441
-0.976721 -0.243937 0.915960
-1.489913 0.093728 1.403140
-1.833351 0.314899 1.620751
-1.765341 0.306884 2.385703
-8.342245 2.998317 -9.751376
-7.727005 2.791861 -7.209944
-8.208328 2.965938 -8.901503
-8.227246 2.987944 -8.609768
-7.663230 2.814110 -5.915368
-8.070801 2.953314 -7.541421
-8.100247 2.980575 -7.252518
-8.117192 3.004498 -6.891699
-3.323505 0.731768 -2.778058
-3.192732 0.688623 -2.220424
-3.064555 0.650480 -1.575918
-2.689469 0.475233 -1.192984
-2.133807 0.215392 -0.631039
-1.499614 -0.091331 -0.229621
-0.956805 -0.347005 0.275775
-1.042998 -0.281555 0.782582
-1.579276 0.009109 1.182486
-1.857440 0.179178 1.845894
-1.779921 0.157111 2.259334
-8.568837 2.301730 -9.778030
-8.503020 2.298476 -9.195278
-7.912008 2.159630 -6.652203
-7.923325 2.182056 -6.215870
-7.939835 2.206552 -5.781016
-8.400220 2.320355 -7.623487
-8.399919 2.337883 -7.190382
-8.314413 2.319590 -6.778408
-3.263873 0.418750 -2.573800
-3.235951 0.423357 -2.179637
-3.101425 0.397933 -1.449148
-2.717840 0.252622 -1.152972
-2.053262 -0.000837 -0.681558
-1.389569 -0.242329 0.074587
-0.831152 -0.454388 0.493079
-1.109942 -0.319604 0.993606
-1.856922 0.006228 1.468449
-1.956749 0.059965 1.782008
-1.887323 0.058950 2.456050
-1.546273 -0.056070 3.067256
-8.139677 1.562285 -7.537675
-8.142001 1.580363 -7.100951
-8.529053 1.641465 -8.743381
-8.552990 1.660759 -8.453769
-8.544012 1.675057 -8.019383
-8.557058 1.693602 -7.659081
-8.510996 1.704386 -7.008332
-8.079091 1.661506 -4.537579
-3.492437 0.235254 -2.779820
-3.351152 0.214496 -2.141307
-3.129119 0.164027 -1.587895
-2.734793 0.047157 -1.291832
-2.137294 -0.115123 -0.469869
-1.465792 -0.321660 -0.155267
-0.890372 -0.485698 0.440769
-1.178793 -0.368204 1.031429
-1.946288 -0.102557 1.417822
-2.047004 -0.060717 1.644531
-1.971873 -0.061988 2.230350
-1.530151 -0.178103 2.935235
-8.823859 1.010381 -9.808079
-8.747052 1.001745 -9.544455
-8.725369 1.013361 -9.108044
-8.709212 1.026296 -8.672626
-8.604487 1.016499 -8.262220
-8.547959 1.027988 -7.608573
-8.566645 1.046558 -7.248521
-8.604414 1.066935 -6.962715
-2.863696 -0.201922 -3.313535
-3.403492 -0.048859 -2.787310
-3.465691 -0.014852 -2.305036
-3.330864 -0.023124 -1.664845
-3.118877 -0.060234 -1.279100
-2.515116 -0.183716 -0.638621
-1.827495 -0.337277 -0.242180
-1.241320 -0.468850 0.078615
-1.437124 -0.390957 0.845691
-1.929221 -0.254664 1.241858
-2.131295 -0.192942 1.552742
-2.054979 -0.189011 2.136958
-1.783391 -0.239281 2.560929
-1.242993 -0.344116 3.280700
-8.239579 0.260086 -7.786881
-8.801079 0.282845 -9.549285
-8.740442 0.295356 -8.966974
-8.261922 0.313724 -6.476066
-8.641628 0.309055 -8.193173
-8.621182 0.325166 -7.685404
-8.624300 0.342218 -7.251947
-8.632938 0.360106 -6.819795
-8.482207 0.345342 -6.573326
-3.050070 -0.407406 -3.469820
-3.486680 -0.311118 -2.782127
-3.557044 -0.284666 -2.384960
-3.434284 -0.289650 -1.999866
-3.205547 -0.301972 -1.361804
-2.799517 -0.355718 -1.063859
-2.091112 -0.441245 -0.328156
-1.495025 -0.521380 0.076987
-1.497834 -0.495109 0.753168
-1.998521 -0.399697 1.148776
-2.212961 -0.343488 1.720065
-2.127108 -0.345018 2.040583
-1.949872 -0.357577 2.456133
-1.585631 -0.396063 2.978162
-8.803374 -0.371573 -9.568601
-8.803384 -0.357779 -9.204083
-8.265998 -0.300890 -6.494534
-8.645102 -0.333638 -8.210867
-8.642573 -0.317383 -7.775606
-8.678376 -0.303443 -7.487581
-8.278851 -0.234875 -4.778792
-8.122674 -0.232851 -4.374755
-3.012877 -0.633196 -3.485822
-3.554459 -0.560871 -2.790081
-3.626464 -0.539739 -2.393237
-3.399509 -0.541458 -1.929246
-3.181677 -0.545419 -1.545011
-2.765769 -0.563018 -1.076605
-2.151441 -0.584006 -0.252402
-1.651491 -0.614423 0.065909
-1.656027 -0.588616 0.737734
-1.959003 -0.554439 0.960893
-2.171354 -0.518083 1.445043
-2.194458 -0.494332 2.020862
-2.021630 -0.490056 2.521789
-1.563381 -0.505651 3.138185
-8.759301 -1.035352 -9.599841
-8.760246 -1.021630 -9.236174
-8.226235 -0.924462 -6.528002
-8.603700 -0.985700 -8.244819
-8.636626 -0.974521 -7.956412
-8.638807 -0.958166 -7.523208
-8.615886 -0.936589 -6.945320
-8.406461 -0.918197 -6.406110
-3.052727 -0.855874 -3.438383
-3.505500 -0.829008 -2.837085
-3.689313 -0.818454 -2.602325
-3.555649 -0.798952 -2.052265
-3.237053 -0.787718 -1.676098
-2.916828 -0.769824 -1.122871
-2.401656 -0.743716 -0.303938
-1.800421 -0.737434 0.010321
-1.705986 -0.712973 0.682245
-2.012448 -0.698380 0.994003
-2.221356 -0.684748 1.304232
-2.152877 -0.656925 2.058964
-2.070503 -0.645562 2.380533
-1.716626 -0.622617 3.075987
-8.677859 -1.763695 -10.064653
-8.592456 -1.732746 -9.409147
-8.083508 -1.598998 -6.843516
-8.115215 -1.587627 -6.482126
-8.039464 -1.566418 -6.065823
-8.467887 -1.658835 -7.691971
-8.100560 -1.538109 -5.200224
-8.487281 -1.627536 -6.826930
-7.985597 -1.498294 -4.366643
-3.534368 -1.123061 -2.945472
-3.602017 -1.109843 -2.466555
-3.480570 -1.086613 -2.084105
-3.157027 -1.042628 -1.538736
-2.741558 -0.991757 -0.986889
-2.333439 -0.937702 -0.336732
-1.734444 -0.882575 -0.022970
-1.638827 -0.856930 0.472741
-2.152574 -0.869179 1.130340
-2.270395 -0.859370 1.614943
-2.090569 -0.830856 2.025625
-2.026009 -0.804157 2.608548
-1.657648 -0.761180 3.041595
-8.534397 -2.397916 -9.751943
-7.995655 -2.217748 -7.117676
-8.426310 -2.352428 -8.978356
-8.399887 -2.329129 -8.469719
-8.364378 -2.301743 -7.889136
-7.992536 -2.151792 -5.399351
-8.425896 -2.286192 -7.242195
-8.300256 -2.243567 -6.611898
-3.512184 -1.378818 -2.522503
-3.495280 -1.364715 -2.218164
-3.272875 -1.310924 -1.670782
-2.961406 -1.247062 -1.205126
-2.555648 -1.165750 -0.647898
-2.157677 -1.091759 -0.252504
-1.768491 -1.005399 0.501544
-1.978096 -1.017808 0.990158
-2.279229 -1.057290 1.123990
-2.311299 -1.033580 1.870620
-2.136770 -0.992055 2.282153
-1.874271 -0.933772 2.791649
-1.133397 -0.799448 3.438006
-8.289749 -3.009001 -9.595297
-8.255900 -2.981687 -9.085586
-7.809682 -2.785096 -6.596073
-8.166411 -2.931643 -8.311559
-8.183928 -2.921594 -7.949572
-7.798085 -2.732882 -5.312508
-8.076684 -2.859133 -6.957615
-8.094996 -2.846544 -6.525294
-3.394658 -1.630570 -2.421728
-3.473360 -1.633056 -2.027925
-3.263455 -1.571181 -1.648734
-2.860280 -1.462634 -1.186867
-2.465158 -1.318090 0.253313
-2.285034 -1.252043 0.913824
-2.299363 -1.239802 1.313962
-2.317642 -1.228455 1.713966
-2.161679 -1.167462 2.384364
-8.071250 -3.726233 -9.836137
