0.594264 -2.584043 2.913856
0.581861 -2.530110 3.459875
0.528039 -2.296078 4.543764
0.374284 -2.591509 1.434986
0.381076 -2.638537 2.394180
0.381005 -2.638047 3.092961
0.368010 -2.548070 4.015982
0.155697 -2.838805 0.314565
0.142924 -2.605918 1.181840
0.145182 -2.647093 2.141325
0.146658 -2.674000 2.933037
0.142913 -2.605730 3.607586
0.129365 -2.358701 4.596850
-0.098400 -2.796005 1.543978
-0.097161 -2.760792 2.335460
-0.094623 -2.688675 3.090966
-0.094845 -2.694995 3.982035
-0.385853 -3.269297 0.124354
-0.346444 -2.935387 1.035250
-0.343070 -2.906800 1.643598
-0.341947 -2.897284 2.410109
-0.344396 -2.918035 3.355496
-0.339616 -2.877534 4.215454
-0.694082 -3.321303 0.310065
-0.641082 -3.067689 1.144996
-0.636142 -3.044050 1.813139
-0.642190 -3.072991 2.730615
-0.656432 -3.141139 3.572642
-0.636230 -3.044471 4.318598
-1.047902 -3.436672 0.287867
-1.022514 -3.353412 1.030707
-1.013297 -3.323184 2.085363
-0.997607 -3.271728 2.803942
-1.007690 -3.304795 3.518337
-0.978265 -3.208295 4.469237
-1.428611 -3.587161 1.204915
-1.445247 -3.628935 2.194516
-1.443656 -3.624939 2.870846
-1.414145 -3.550838 3.680127
-1.311697 -3.293597 4.592909
-1.871064 -3.695460 0.162097
-1.742193 -3.440933 1.062000
-1.729537 -3.415936 1.666377
-1.726839 -3.410606 2.466106
-1.723461 -3.403934 3.340560
-1.689441 -3.336744 3.864034
-1.937394 -3.115303 0.369377
-1.884539 -3.030314 1.420335
-1.859053 -2.989333 2.010510
-1.838044 -2.955550 2.934317
-1.840295 -2.959170 3.567577
-1.638909 -2.635344 4.477659
-2.263710 -2.981888 0.389120
-2.058552 -2.711642 0.981774
-2.010920 -2.648898 1.605770
-1.976821 -2.603981 2.429648
-1.939035 -2.554208 3.269216
-1.892108 -2.492393 4.263756
-2.156005 -2.394325 1.516563
-2.147029 -2.384357 2.256307
-2.096558 -2.328308 2.982210
-2.589680 -2.417766 0.288249
-2.248830 -2.099543 0.865139
-2.209344 -2.062678 1.534960
-2.128236 -1.986955 2.315917
-2.099623 -1.960241 3.171302
-2.073300 -1.935666 4.116055
-2.439769 -1.901638 0.343771
-2.299544 -1.792342 1.350606
-2.246637 -1.751105 2.088325
-2.192747 -1.709101 2.956971
-2.169209 -1.690754 3.499072
-1.912914 -1.490990 4.267294
-2.463231 -1.611856 0.386952
-2.328127 -1.523449 1.092484
-2.282472 -1.493574 2.168726
-2.325662 -1.521836 2.946469
-2.313610 -1.513950 3.656701
-1.979960 -1.295620 4.413506
-2.594319 -1.387920 0.188249
-2.384421 -1.275627 0.978861
-2.347513 -1.255882 1.876623
-2.301158 -1.231083 2.683710
-2.305352 -1.233327 3.383822
-2.138754 -1.144199 4.492676
-2.731383 -1.159628 0.209029
-2.491743 -1.057887 1.084089
-2.452050 -1.041035 1.908226
-2.417302 -1.026283 2.555460
-2.409172 -1.022831 3.415463
-2.235700 -0.949183 4.299090
-2.893769 -0.939965 0.250344
-2.572955 -0.835757 1.020953
-2.546244 -0.827081 1.654298
-2.524748 -0.820099 2.606497
-2.497360 -0.811202 3.510374
-2.332557 -0.757670 4.285750
-2.889012 -0.680842 0.323993
-2.632886 -0.620482 1.010430
-2.584653 -0.609115 1.729127
-2.569510 -0.605546 2.755769
-2.581894 -0.608465 3.529189
-2.360675 -0.556331 4.267294
-2.716333 -0.389226 0.420507
-2.710447 -0.388383 1.283167
-2.701907 -0.387159 2.200275
-2.627059 -0.376434 2.945467
-2.536918 -0.363518 3.643915
-2.034762 -0.291563 4.557138
-3.212404 -0.169551 -0.083067
-2.744987 -0.144881 0.735857
-2.746974 -0.144985 1.619558
-2.785501 -0.147019 2.365447
-2.855954 -0.150737 3.320112
-2.741138 -0.144677 4.200290
-2.966253 0.096541 0.282189
-2.907836 0.094640 1.162212
-2.841407 0.092478 1.983479
-2.797228 0.091040 2.871085
-2.801532 0.091180 3.790813
-2.493900 0.081168 4.441746
-3.343522 0.395523 -0.062055
-2.956466 0.349736 0.888300
-2.959963 0.350150 1.725044
-2.900492 0.343115 2.462432
-2.848300 0.336941 3.118913
-2.804707 0.331784 4.000679
-3.149385 0.666074 0.415326
-3.065832 0.648403 1.134590
-3.072942 0.649907 1.936812
-3.077353 0.650839 2.813845
-3.058010 0.646749 3.485984
-2.813877 0.595116 4.249612
-3.266697 0.992549 1.302032
-3.289659 0.999525 2.325589
-3.297503 1.001909 3.134321
-3.224629 0.979767 3.682749
-2.797222 0.849904 4.657938
-3.744444 1.521658 0.050792
-3.524219 1.432164 0.961189
-3.526559 1.433114 1.728825
-3.467345 1.409051 2.389118
-3.415948 1.388164 3.310640
-3.412776 1.386875 4.046105
-3.499256 1.764606 0.407690
-3.354240 1.691477 1.054599
-3.284122 1.656118 1.652528
-3.270701 1.649350 2.693136
-3.266198 1.647079 3.540874
-3.087525 1.556978 4.049539
-3.073029 1.911717 0.421236
-2.963536 1.843601 1.330382
-2.936580 1.826832 1.775903
-2.914192 1.812905 2.616285
-2.924179 1.819118 3.665178
-2.677275 1.665520 4.471836
-2.589232 1.955212 1.453315
-2.577543 1.946385 2.192553
-2.569300 1.940161 3.121745
-2.569954 2.290056 0.185795
-2.319123 2.066543 1.052028
-2.265464 2.018728 1.806264
-2.190497 1.951926 2.661216
-2.173750 1.937003 3.336742
-2.075552 1.849499 4.058367
-2.068280 2.199963 0.459256
-1.974643 2.100366 1.110597
-1.944750 2.068569 1.910078
-1.975934 2.101738 3.012163
-1.906868 2.028275 3.591335
-1.635313 1.739430 4.378862
-1.697472 2.166296 1.651088
-1.709122 2.181163 2.472039
-1.677348 2.140613 3.141568
-1.631727 2.082392 4.211122
-1.666003 2.574828 0.041697
-1.455886 2.250090 1.011085
-1.416447 2.189135 1.773561
-1.417326 2.190495 2.673161
-1.419807 2.194328 3.373274
-1.321736 2.042759 4.105644
-1.322770 2.461815 0.472454
-1.237039 2.302259 1.297872
-1.217984 2.266797 2.092682
-1.213744 2.258905 2.750542
-1.204098 2.240953 3.709663
-1.033122 1.922750 4.347909
-3.309742 7.767629 -0.322499
-1.055774 2.477794 0.347370
-1.004906 2.358414 1.299549
-1.007829 2.365272 2.050446
-1.005793 2.360494 2.771664
-0.995246 2.335740 3.656825
-0.824257 1.934449 4.529996
-0.830315 2.564000 0.505258
-0.757371 2.338748 1.133471
-0.751792 2.321521 1.940519
-0.797622 2.463044 3.077839
-0.630203 2.670179 0.367945
-0.601279 2.547627 1.413893
-0.592718 2.511355 2.219377
-0.561271 2.378113 2.812371
-0.538627 2.282168 3.728723
-0.462486 1.959560 4.627182
-0.371676 2.668806 0.463156
-0.344049 2.470433 1.460782
-0.345180 2.478558 2.170781
-0.340583 2.445551 2.821153
-0.324289 2.328549 3.792445
-0.254595 1.828114 4.483411
-0.149910 2.612558 1.392799
-0.149111 2.598640 2.175744
-0.140654 2.451247 2.971261
-0.136225 2.374072 3.811247
0.086903 2.729472 1.736289
0.084084 2.640936 2.416807
0.078863 2.476955 3.257135
0.076960 2.417189 4.203693
0.337301 2.800875 0.577062
0.324828 2.697302 1.389200
0.314056 2.607853 2.153252
0.317597 2.637260 2.977077
0.316186 2.625543 3.710672
0.268494 2.229516 4.459535
0.686913 3.219733 0.176169
0.611743 2.867392 1.077770
0.594346 2.785848 1.562942
0.592126 2.775442 2.720573
0.573887 2.689952 3.213118
0.551274 2.583958 4.179503
0.917692 3.008189 0.499368
0.900434 2.951619 1.209012
0.905166 2.967130 2.147670
0.890987 2.920650 2.925490
0.872369 2.859622 3.899024
0.737460 2.417389 4.502337
1.358359 3.379915 0.256684
1.298557 3.231113 1.082945
1.290766 3.211729 1.837805
1.270266 3.160718 2.607677
1.233995 3.070467 3.291739
1.226420 3.051620 4.340387
1.650582 3.243956 1.314839
1.623989 3.191691 2.203277
1.624662 3.193014 2.957432
1.607789 3.159853 3.676127
1.484481 2.917510 4.636494
1.830821 2.961240 1.733487
1.826670 2.954527 2.489092
1.831873 2.962943 3.276630
1.767282 2.858471 4.080870
2.211051 2.956613 0.102538
1.981465 2.649611 1.129389
1.983264 2.652017 1.845084
1.995684 2.668625 2.623179
1.967438 2.630854 3.304263
1.859152 2.486055 4.034722
2.318640 2.577577 0.123782
2.109535 2.345120 0.977850
2.095487 2.329503 1.780736
2.056136 2.285757 2.515362
1.997761 2.220863 3.340692
1.899962 2.112142 4.158001
2.323892 2.188594 0.187022
2.151943 2.026656 1.045704
2.105936 1.983328 1.980903
2.039912 1.921148 2.564913
2.054465 1.934854 3.460820
1.944832 1.831604 4.218946
2.241933 1.750183 0.429901
2.157787 1.684494 1.262139
2.129984 1.662790 2.159606
2.137667 1.668787 3.046888
2.099413 1.638924 3.645082
1.807363 1.410933 4.432591
2.611302 1.701915 0.114517
2.242450 1.461515 0.874192
2.180877 1.421385 1.678610
2.131684 1.389324 2.454749
2.138791 1.393956 3.250863
2.066770 1.347016 4.187730
2.304473 1.245090 0.442963
2.253906 1.217769 1.246741
2.223117 1.201134 2.158813
2.266981 1.224834 2.919495
2.212732 1.195523 3.669749
1.841367 0.994877 4.661169
2.634280 1.131753 0.157181
2.304330 0.989998 1.121436
2.279627 0.979385 1.747535
2.276653 0.978107 2.586523
2.311532 0.993092 3.403112
2.122895 0.912049 4.365991
2.318422 0.759745 1.335528
2.344291 0.768222 2.417141
2.313395 0.758097 3.026154
2.266719 0.742801 3.885524
2.745067 0.633871 0.199355
2.388875 0.551622 0.879285
2.416113 0.557912 1.715782
2.434574 0.562175 2.521389
2.344463 0.541367 3.295221
2.106429 0.486402 4.155882
2.617778 0.382136 0.537530
2.409702 0.351762 1.197781
2.342625 0.341970 1.986721
2.292187 0.334608 2.789511
2.332558 0.340501 3.856157
1.921111 0.280439 4.439925
2.439274 0.137143 1.430881
2.452903 0.137909 2.247713
2.405719 0.135256 3.028095
2.398859 0.134871 4.055248
2.915224 -0.097503 -0.073256
2.474872 -0.082775 0.857548
2.506123 -0.083820 1.778141
2.550576 -0.085307 2.570971
2.473297 -0.082722 3.214794
2.372053 -0.079336 4.015390
2.845816 -0.350797 0.209575
2.559599 -0.315515 0.971474
2.541195 -0.313247 1.839228
2.500863 -0.308275 2.828103
2.470379 -0.304518 3.384135
2.296724 -0.283112 4.397881
2.690300 -0.561146 1.556493
2.602887 -0.542913 2.278300
2.547071 -0.531271 3.236131
2.600855 -0.542490 4.082004
2.939271 -0.891178 0.594158
2.782733 -0.843716 1.109875
2.766349 -0.838749 1.939015
2.788834 -0.845566 2.736212
2.736527 -0.829707 3.594852
2.478350 -0.751428 4.388157
3.235739 -1.313541 0.175241
2.896109 -1.175669 0.822375
2.894346 -1.174953 1.562179
2.917405 -1.184314 2.500035
2.924361 -1.187137 3.263093
2.897372 -1.176182 4.011280
3.203660 -1.638317 0.699073
3.197721 -1.635279 1.367990
3.133717 -1.602548 2.000209
3.142456 -1.607017 2.920151
3.154786 -1.613323 3.655539
2.981973 -1.524948 4.427851
3.520950 -2.181792 0.162097
3.167766 -1.962938 0.860672
3.173288 -1.966360 1.763009
3.167623 -1.962850 2.523897
3.151632 -1.952940 3.257203
3.072580 -1.903956 3.866554
2.998855 -2.242129 0.440317
2.745836 -2.052956 0.939825
2.758073 -2.062105 1.983533
2.771601 -2.072220 2.666148
2.739599 -2.048294 3.417387
2.590237 -1.936621 4.073485
2.526269 -2.266599 0.413417
2.411062 -2.163234 1.308044
2.420463 -2.171668 2.139248
2.408103 -2.160579 3.005554
2.407325 -2.159881 3.832193
2.133674 -1.914358 4.388613
2.250037 -2.404981 0.352333
2.196958 -2.348246 1.350438
2.101896 -2.246638 2.138652
1.991471 -2.128609 2.746678
2.016281 -2.155127 3.765655
1.769305 -1.891144 4.388157
1.961788 -2.490277 0.509437
1.830175 -2.323208 1.097976
1.810822 -2.298641 2.136571
1.780631 -2.260318 2.917889
1.780164 -2.259725 3.508723
1.590962 -2.019553 4.443775
1.536474 -2.364928 0.514114
1.491187 -2.295223 1.251625
1.539516 -2.369610 2.131642
1.529986 -2.354942 2.997038
1.463509 -2.252621 3.621678
1.227672 -1.889622 4.739286
1.251059 -2.356030 1.412066
1.264467 -2.381280 2.476842
1.293691 -2.436316 3.307703
1.251509 -2.356878 3.953004
1.134374 -2.689057 0.366275
1.003827 -2.379592 1.108712
1.013077 -2.401519 1.752462
1.004671 -2.381591 2.685440
1.001990 -2.375238 3.536011
0.959717 -2.275028 4.434003
0.875366 -2.654920 0.535444
0.833603 -2.528254 1.254058
0.818843 -2.483487 1.931789
0.827828 -2.510739 2.808470
0.802197 -2.433001 3.633353
0.675152 -2.047685 4.556274
0.575397 -2.487080 1.670213
0.582954 -2.519744 2.706551
0.575637 -2.488115 3.261428
0.541559 -2.340818 4.055248
0.386558 -2.744184 0.588317
0.370790 -2.632250 1.127636
0.368766 -2.617877 2.004323
0.371325 -2.636043 3.050825
0.373201 -2.649362 3.771473
0.313747 -2.227297 4.491478
0.146414 -2.622268 1.635350
0.148766 -2.664398 2.436313
0.149118 -2.670711 3.208818
0.147165 -2.635730 4.158423
-0.104157 -2.918935 0.554634
-0.095899 -2.687513 1.316412
-0.095868 -2.686630 1.896466
-0.098376 -2.756927 2.662820
-0.095830 -2.685571 3.632206
-0.082522 -2.312636 4.397881
-0.325434 -2.776073 0.503949
-0.316188 -2.697197 1.357641
-0.314344 -2.681472 2.117510
-0.314063 -2.679076 2.857474
-0.313114 -2.670977 3.653261
-0.266513 -2.273453 4.616281
-0.591684 -2.803824 1.352365
-0.595388 -2.821378 2.265054
-0.610907 -2.894916 2.995845
-0.907624 -2.961974 1.542370
-0.918837 -2.998566 2.302365
-0.929163 -3.032266 3.146623
-1.410774 -3.546635 0.102197
-1.276715 -3.209616 0.970160
-1.258075 -3.162755 1.674930
-1.266199 -3.183179 2.523356
-1.280334 -3.218714 3.340688
-1.284830 -3.230016 3.985008
-1.757276 -3.447721 0.469468
-1.753998 -3.441289 1.245744
-1.769875 -3.472440 2.041568
-1.733714 -3.401494 2.753969
-1.722975 -3.380424 3.651894
-1.666439 -3.269501 4.369661
-2.156766 -3.478158 0.243472
-2.020470 -3.258357 1.134216
-2.019732 -3.257167 1.748104
-2.013215 -3.246657 2.425232
-2.004563 -3.232704 3.207678
-1.930586 -3.113404 4.089828
-2.128516 -2.828352 1.318328
-2.126659 -2.825884 2.298865
-2.126224 -2.825306 3.002528
-2.113083 -2.807845 3.866460
-1.819910 -2.418279 4.677193
-2.459407 -2.753708 0.153807
-2.283612 -2.556876 0.929499
-2.253215 -2.522842 1.758744
-2.216919 -2.482203 2.561065
-2.177218 -2.437752 3.399761
-2.067884 -2.315334 4.034722
-2.343403 -2.202663 1.360822
-2.314498 -2.175494 2.133065
-2.250842 -2.115661 3.059039
-2.785966 -2.187004 0.061768
-2.438246 -1.914042 0.781253
-2.399514 -1.883636 1.606962
-2.379099 -1.867611 2.518646
-2.322343 -1.823057 3.227869
-2.257792 -1.772384 4.197227
-2.700101 -1.749412 0.197283
-2.395784 -1.552243 0.996022
-2.405059 -1.558253 1.940276
-2.352282 -1.524058 2.575409
-2.300284 -1.490368 3.393954
-2.139738 -1.386350 4.253652
-2.483115 -1.334659 0.419689
-2.438046 -1.310434 1.418918
-2.423082 -1.302391 2.135792
-2.381533 -1.280059 2.941667
-2.519737 -1.076139 1.335735
-2.494608 -1.065407 2.338485
-2.483635 -1.060720 3.217272
-2.484985 -1.061296 4.034658
-2.915518 -0.952046 0.135515
-2.571388 -0.839672 1.010430
-2.521642 -0.823428 1.665906
-2.464941 -0.804912 2.430481
-2.490684 -0.813319 3.447103
-2.374202 -0.775282 4.237950
-2.650393 -0.621549 0.652190
-2.669725 -0.626082 1.398813
-2.653389 -0.622251 2.126658
-2.629231 -0.616586 2.899572
-2.935873 -0.427510 0.062709
-2.649710 -0.385840 0.916314
-2.654347 -0.386515 1.770126
-2.602921 -0.379026 2.618724
-2.593701 -0.377684 3.457649
-2.452678 -0.357149 4.293593
-2.746976 -0.144944 1.619558
-2.763844 -0.145834 2.419512
-2.708977 -0.142939 3.057409
-2.603484 -0.137373 4.087257
-2.965528 0.100962 0.188127
-2.781881 0.094710 1.134491
-2.753762 0.093753 1.724656
-2.696654 0.091808 2.508417
-2.733809 0.093073 3.330871
-2.543507 0.086594 4.211388
-2.769302 0.323254 1.281503
-2.779664 0.324464 2.091037
-2.776267 0.324067 3.145978
-2.907799 0.627459 1.589213
-2.916824 0.629406 2.269614
-2.886861 0.622941 3.238325
-2.804664 0.605204 4.186749
-3.198224 0.969356 0.093143
-2.971130 0.900526 0.989546
-3.005378 0.910906 1.926408
-3.004408 0.910612 2.730615
-3.012386 0.913030 3.452504
-2.883163 0.873864 4.118309
-3.242343 1.298238 0.247399
-3.137613 1.256304 0.992761
-3.149126 1.260913 1.955144
-3.171150 1.269732 2.741972
-3.127606 1.252297 3.401198
-3.060948 1.225607 4.412925
-3.541408 1.790475 0.335896
-3.395593 1.716754 0.991859
-3.370366 1.703999 1.617447
-3.368293 1.702951 2.489852
-3.308812 1.672879 3.257203
-3.273307 1.654928 4.130872
-3.303024 2.062577 0.418161
-3.211215 2.005247 1.197100
-3.150363 1.967247 1.887163
-3.099117 1.935247 2.559718
-3.094666 1.932467 3.438230
-2.947212 1.840390 4.423675
-2.781133 2.066501 1.320946
-2.802340 2.082260 2.374068
-2.806289 2.085194 3.130194
-2.662732 2.373826 0.185181
-2.451231 2.185272 1.140497
-2.453255 2.187077 1.846297
-2.432061 2.168182 2.638722
-2.435407 2.171165 3.609457
-2.253858 2.009315 4.180938
-2.096782 2.226495 1.784232
-2.075979 2.204405 2.570822
-2.043029 2.169416 3.257117
-1.952567 2.073358 3.987609
-1.753077 2.238842 0.366991
-1.718903 2.195199 1.281503
-1.774005 2.265569 2.160304
-1.740330 2.222562 2.858735
-1.699985 2.171039 3.837751
-1.444157 1.844322 4.642271
-1.740657 2.678073 0.415598
-1.502798 2.312117 1.103702
-1.459238 2.245099 1.664829
-1.456847 2.241420 2.510038
-1.453492 2.236258 3.411065
-1.362364 2.096054 4.259109
-1.289650 2.396847 0.620635
-1.253066 2.328854 1.465678
-1.230320 2.286580 2.059676
-1.272382 2.364754 3.027800
-1.219300 2.868402 0.031232
-1.048324 2.466182 1.000555
-1.039569 2.445587 1.771271
-1.035232 2.435383 2.480044
-1.020310 2.400279 3.309982
-0.939993 2.211333 4.291234
-0.866017 2.656358 0.409463
-0.808747 2.480691 1.160743
-0.787328 2.414990 1.935530
-0.774029 2.374198 2.861662
-0.766703 2.351727 3.492180
-0.668697 2.051111 4.566946
-0.592624 2.505056 1.584671
-0.576113 2.435261 2.170781
-0.575651 2.433308 3.223309
-0.570049 2.409630 4.036884
-0.404986 2.815207 0.429901
-0.363937 2.529863 1.046048
-0.359142 2.496532 2.074236
-0.358359 2.491085 2.785808
-0.343658 2.388898 3.657966
-0.299059 2.078869 4.508621
-0.139324 2.570427 1.584671
-0.138641 2.557839 2.326437
-0.134819 2.487326 3.106930
-0.128816 2.376573 3.832470
0.091771 2.940594 0.135958
0.081234 2.602963 0.981397
0.082366 2.639210 1.941082
0.081499 2.611448 2.725904
0.076234 2.442733 3.441452
0.069128 2.215051 4.193228
0.310761 2.623498 1.391899
0.308571 2.605012 2.089984
0.308778 2.606757 2.894647
0.533457 2.609558 1.296196
0.533161 2.608110 2.330975
0.525266 2.569487 2.863011
0.830381 2.773972 1.487617
0.806709 2.694895 2.342928
0.781373 2.610257 3.204678
0.781716 2.611402 4.021541
1.269117 3.172599 0.134274
1.144420 2.860875 1.052716
1.137779 2.844273 1.888490
1.125172 2.812757 2.591692
1.091651 2.728960 3.365955
1.062032 2.654918 4.325734
1.561515 3.070811 0.495441
1.524873 2.998751 1.303750
1.489029 2.928262 1.815203
1.459618 2.870425 2.808327
1.432409 2.816916 3.587711
1.364438 2.683246 4.541507
1.928954 3.118564 1.375531
1.896619 3.066288 2.191542
1.897274 3.067347 2.945200
1.880223 3.039780 3.714850
1.614881 2.610798 4.619014
2.121892 2.816602 1.617917
2.101911 2.790079 2.404992
2.073199 2.751966 3.124000
2.025984 2.689294 3.902418
2.403732 2.669890 0.236463
2.226888 2.473465 0.931953
2.210300 2.455040 1.668987
2.201638 2.445418 2.740634
2.179603 2.420943 3.275312
2.096873 2.329053 4.305382
2.433537 2.292530 0.341521
2.300260 2.166976 1.185842
2.301745 2.168375 1.862760
2.325787 2.191024 2.810166
2.280703 2.148552 3.569241
2.058142 1.938887 4.265599
2.705619 2.127406 0.061932
2.356861 1.853180 0.699756
2.316459 1.821412 1.517052
2.285859 1.797352 2.253115
2.225774 1.750107 3.280312
2.208415 1.736458 4.097728
2.468037 1.607186 0.512443
2.358514 1.535864 1.322645
2.304738 1.500845 2.125281
2.257803 1.470281 2.815372
2.268103 1.476989 3.832183
2.001380 1.303299 4.604528
2.772802 1.477878 0.145653
2.363875 1.259924 0.958435
2.276435 1.213319 1.711366
2.286307 1.218581 2.769879
2.278053 1.214182 3.291001
2.154115 1.148124 4.179816
2.324356 0.998228 1.713574
2.303833 0.989415 2.255401
2.315650 0.994490 3.157804
2.274186 0.976682 4.026299
2.512700 0.817749 0.221342
2.337349 0.760682 1.122881
2.346200 0.763562 1.981624
2.337967 0.760883 2.672912
2.439866 0.794045 3.675599
2.138867 0.696086 4.491478
2.405181 0.573348 1.546417
2.383992 0.568297 2.141799
2.366489 0.564125 3.004960
2.327592 0.554853 3.959788
1.830425 0.436338 4.577328
2.399625 0.348236 1.601405
2.380100 0.345402 2.218789
2.448160 0.355279 3.204208
2.422606 0.351571 4.007693
2.937464 0.160327 -0.062750
2.471665 0.134904 0.815207
2.493006 0.136068 1.524262
2.496303 0.136248 2.542547
2.410772 0.131580 3.390651
2.264763 0.123611 4.209178
2.668087 -0.092590 0.473988
2.459741 -0.085360 1.228780
2.462129 -0.085443 1.907506
2.429367 -0.084306 2.632240
2.385173 -0.082772 3.639089
2.051349 -0.071187 4.308221
2.480304 -0.296620 1.556001
2.476915 -0.296214 2.457910
2.432433 -0.290895 3.216857
2.418900 -0.289276 3.891152
2.640784 -0.546704 0.621038
2.509663 -0.519559 1.278426
2.546566 -0.527198 2.133540
2.546063 -0.527094 2.896513
2.518487 -0.521385 3.738959
2.095771 -0.433873 4.417502
2.816864 -0.853210 0.334663
2.564420 -0.776747 0.990025
2.599310 -0.787315 1.947840
2.520182 -0.763347 2.660895
2.470952 -0.748436 3.578239
2.364341 -0.716144 4.219492
2.667518 -1.056203 1.446673
2.658377 -1.052583 2.277007
2.630086 -1.041381 3.248846
2.607903 -1.032598 4.055747
2.855509 -1.434582 0.540270
2.782243 -1.397774 1.291516
2.795854 -1.404612 2.177489
2.807263 -1.410344 2.761828
2.819619 -1.416551 3.798109
2.563644 -1.287951 4.409570
3.285562 -2.038901 0.010206
2.975354 -1.846397 0.865826
2.949931 -1.830621 1.506612
2.950908 -1.831227 2.478779
2.949495 -1.830350 3.132258
2.954589 -1.833511 3.995320
3.014723 -2.263480 0.480955
2.967067 -2.227699 1.178995
2.976141 -2.234512 2.030617
2.980094 -2.237480 2.873999
2.976083 -2.234469 3.679656
2.770038 -2.079769 4.330845
2.583211 -2.290410 1.641765
2.606640 -2.311183 2.250353
2.586177 -2.293040 2.946570
2.510606 -2.672859 0.143648
2.243557 -2.388552 0.881346
2.226525 -2.370420 1.640061
2.238308 -2.382964 2.429648
2.223227 -2.366908 3.443490
2.094565 -2.229932 4.313791
1.973387 -2.515117 0.623382
1.927199 -2.456248 1.520544
1.927816 -2.457035 2.073408
1.921188 -2.448588 3.036220
1.876218 -2.391272 3.893960
1.570893 -2.002131 4.650303
1.814073 -2.747057 0.124354
1.600198 -2.423185 0.963321
1.620172 -2.453432 1.926035
1.585768 -2.401335 2.570402
1.551051 -2.348762 3.376884
1.473444 -2.231242 4.240010
1.287892 -2.393877 1.431278
1.319152 -2.451982 2.281443
1.320009 -2.453573 3.337068
1.295677 -2.408347 4.105669
1.110158 -2.591940 0.472147
1.039695 -2.427427 1.360279
1.044468 -2.438570 2.172937
1.042083 -2.433003 2.850627
1.038430 -2.424474 3.636889
0.890463 -2.079008 4.597933
0.897927 -2.751129 0.408399
0.825079 -2.527933 1.159243
0.824518 -2.526216 1.771271
0.843249 -2.583602 2.792515
0.827542 -2.535481 3.411065
0.730121 -2.236994 4.296718
0.598047 -2.519270 1.319820
0.591506 -2.491714 2.315875
0.603926 -2.544035 3.086405
0.600378 -2.529089 4.013402
0.445978 -2.984006 0.167006
0.381056 -2.549617 0.929244
0.384455 -2.572359 1.625855
0.380095 -2.543187 2.484847
0.372987 -2.495630 3.487700
0.352021 -2.355344 4.325811
0.149048 -2.716142 0.515450
0.144404 -2.631514 1.202161
0.144886 -2.640298 2.014862
0.144647 -2.635933 2.755769
0.143703 -2.618739 3.744699
0.122289 -2.228504 4.558253
-0.080991 -2.597917 1.583649
-0.080718 -2.589146 2.388266
-0.081450 -2.612626 3.075857
-0.080761 -2.590525 3.939533
-0.354496 -3.021070 -0.031293
-0.309358 -2.636395 0.990666
-0.308735 -2.631086 1.581604
-0.302666 -2.579364 2.493798
-0.308933 -2.632771 3.221426
-0.303191 -2.583841 4.034505
-0.578428 -2.758346 0.346245
-0.562791 -2.683781 1.398813
-0.569007 -2.713420 2.071384
-0.571590 -2.725741 3.019982
-0.565052 -2.694561 3.530603
-0.500106 -2.384856 4.588055
-0.810243 -2.736428 1.688738
-0.815248 -2.753332 2.476112
-0.833695 -2.815630 3.334577
-0.810457 -2.737151 4.050507
-1.130739 -2.853679 0.458656
-1.136529 -2.868292 1.188173
-1.139625 -2.876106 1.991433
-1.145288 -2.890397 2.994571
-1.159368 -2.925932 3.714900
-1.015158 -2.561983 4.518417
-1.548781 -3.102738 0.278507
-1.512579 -3.030214 1.230534
-1.516210 -3.037488 2.006819
-1.510543 -3.026136 2.619732
-1.528139 -3.061387 3.427715
-1.488936 -2.982849 4.293310
-2.102387 -3.423176 0.182972
-2.002877 -3.261150 0.878815
-1.987965 -3.236869 1.544800
-1.943974 -3.165243 2.339469
-1.942718 -3.163197 3.308447
-1.976927 -3.218897 4.212044
-2.281886 -3.055538 1.278070
-2.293558 -3.071168 2.229558
-2.301192 -3.081390 3.111518
-2.493842 -2.793032 0.440317
-2.426895 -2.718054 1.427780
-2.379679 -2.665173 2.059285
-2.364206 -2.647844 2.856472
-2.344067 -2.625289 3.668250
-2.142406 -2.399435 4.369665
-2.823276 -2.642843 0.183709
-2.537174 -2.375025 0.804522
-2.478972 -2.320543 1.478594
-2.443860 -2.287674 2.476606
-2.458864 -2.301720 3.390856
-2.365184 -2.214027 4.125374
-2.733808 -2.174902 0.350479
-2.567972 -2.042970 1.057574
-2.520813 -2.005452 2.036838
-2.474533 -1.968634 2.697637
-2.443059 -1.943594 3.444349
-2.243282 -1.784660 4.388613
-2.601543 -1.714005 1.343572
-2.574611 -1.696261 2.253280
-2.504847 -1.650298 3.192348
-2.573184 -1.387610 1.559895
-2.538552 -1.368934 2.275528
-2.485171 -1.340148 3.185906
-2.450838 -1.321634 4.100375
-2.949837 -1.283033 0.010383
-2.545378 -1.107113 0.829915
-2.418505 -1.051930 1.877837
-2.409489 -1.048009 2.576549
-2.435732 -1.059423 3.284648
-2.362873 -1.027733 4.037098
-2.676527 -0.887434 0.482639
-2.553262 -0.846564 1.337466
-2.566549 -0.850970 2.191176
-2.538924 -0.841810 2.890914
-3.057801 -0.723351 0.176864
-2.580235 -0.610378 0.864220
-2.554100 -0.604196 1.593172
-2.569396 -0.607814 2.385186
-2.572057 -0.608443 3.126577
-2.500068 -0.591414 3.963185
-2.792389 -0.398306 0.545588
-2.657897 -0.379122 1.179550
-2.646365 -0.377477 2.087285
-2.627299 -0.374758 2.945467
-2.577885 -0.367709 3.810416
-2.175151 -0.310263 4.475870
-2.620809 -0.156308 1.614261
-2.524741 -0.150579 2.201097
-2.454183 -0.146370 3.013623
-2.374798 -0.141636 3.821859
-2.918805 0.081264 0.491849
-2.711401 0.075490 1.262957
-2.681785 0.074665 1.780655
-2.659351 0.074040 2.690784
-2.616293 0.072842 3.415463
-2.374722 0.066116 4.272751
-2.750290 0.324020 0.441245
-2.700439 0.318147 1.452316
-2.680149 0.315757 2.096461
-2.694113 0.317402 3.057409
-2.737344 0.554240 1.417998
-2.735811 0.553930 2.396946
-2.737016 0.554174 3.114482
-2.684406 0.543521 3.903315
-3.012327 0.892821 0.072827
-2.833106 0.839702 1.003886
-2.837004 0.840857 1.799347
-2.830127 0.838819 2.554939
-2.810450 0.832987 3.556485
-2.606864 0.772646 4.192479
-2.993367 1.187154 0.508769
-2.916251 1.156570 1.249051
-2.914905 1.156036 1.832765
-2.950647 1.170211 2.863983
-2.902856 1.151258 3.454758
-2.682241 1.063763 4.333412
-3.014963 1.513508 1.551956
-3.026987 1.519544 2.307981
-3.006459 1.509239 3.047432
-3.274202 2.015089 0.459569
-3.243587 1.996247 1.124751
-3.233244 1.989881 2.026569
-3.189644 1.963048 2.790185
-3.112007 1.915267 3.499820
-3.018482 1.857707 4.373788
-3.249475 2.404553 0.213324
-3.036611 2.247037 0.900449
-3.022123 2.236316 1.792543
-3.002324 2.221666 2.646816
-2.940357 2.175812 3.261520
-2.816934 2.084480 4.013304
-2.594363 2.312796 1.599431
-2.550186 2.273414 2.378769
-2.540520 2.264797 3.221115
-2.376984 2.527336 0.453857
-2.236357 2.377814 1.307185
-2.223235 2.363863 2.014751
-2.208844 2.348561 2.860237
-2.194494 2.333304 3.772381
-1.939598 2.062284 4.297066
-2.222077 2.790687 0.195469
-1.933371 2.428104 0.958303
-1.901293 2.387817 1.648676
-1.848338 2.321311 2.406975
-1.836647 2.306629 3.470533
-1.789387 2.247275 4.218182
-1.650152 2.500528 0.563994
-1.559998 2.363914 1.091066
-1.562684 2.367985 1.868132
-1.572036 2.382156 2.940747
-1.518034 2.300326 3.562131
-1.357197 2.056604 4.606301
-1.373245 2.519626 0.461056
-1.324053 2.429369 1.387401
-1.312188 2.407600 1.967606
-1.295057 2.376167 2.973235
-1.263148 2.317620 3.657972
-1.049725 1.926032 4.443884
-1.051171 2.421677 1.339197
-1.046353 2.410576 2.174341
-1.040786 2.397752 3.075857
-0.827795 2.487064 1.508809
-0.814893 2.448299 2.219377
-0.810545 2.435237 3.111504
-0.772058 2.319605 3.975912
-0.660531 2.816252 0.261797
-0.600311 2.559499 0.970219
-0.584663 2.492783 1.839228
-0.571993 2.438763 2.616594
-0.573166 2.443762 3.616872
-0.518451 2.210478 4.456698
-0.359770 2.491850 1.417546
-0.357544 2.476434 2.574282
-0.361248 2.502091 3.252954
-0.345018 2.389680 3.925451
-0.140380 2.641795 0.537530
-0.137177 2.581528 1.193160
-0.135376 2.547630 2.146858
-0.132303 2.489807 2.808761
-0.125111 2.354447 3.598949
-0.101767 1.915141 4.453466
0.073791 2.892215 0.324627
0.067218 2.634615 1.202161
0.065422 2.564226 1.934283
0.064617 2.532664 2.667762
0.063772 2.499545 3.511098
0.056552 2.216553 4.203884
3.376218 -0.142793 1.860653
3.306874 -0.139861 2.955049
3.353705 -0.141841 3.855928
3.571949 -0.445395 1.208572
3.548856 -0.442515 2.049040
3.495349 -0.435844 3.106777
3.477373 -0.433602 4.137817
4.035151 -0.838447 0.643359
3.805555 -0.790740 1.366742
3.744389 -0.778031 2.391717
3.740215 -0.777164 3.319776
3.695343 -0.767840 4.365564
3.327973 -0.982266 0.519443
3.683000 -1.087053 1.418373
3.605605 -1.064210 2.574005
3.686715 -1.088150 3.406394
3.633927 -1.072569 4.403252
3.295749 -1.262933 1.672225
3.262170 -1.250065 2.651987
3.334196 -1.277666 3.597761
3.284941 -1.258791 4.609912
3.010337 -1.444000 1.682409
3.074399 -1.474730 2.588325
3.060953 -1.468280 3.653765
2.845233 -1.655698 1.664915
2.861210 -1.664996 2.645581
2.861146 -1.664958 3.671834
2.632376 -1.842690 0.892343
2.565157 -1.795636 1.956175
2.578004 -1.804629 2.968643
2.631054 -1.841765 3.900537
2.611522 -2.151788 0.532182
2.314578 -1.907119 1.520163
2.350055 -1.936350 2.495411
2.357793 -1.942725 3.567282
2.398670 -1.976407 4.409562
2.114372 -2.046360 1.817004
2.192707 -2.122175 2.705899
2.194772 -2.124174 3.817207
1.983914 -2.260892 0.799665
1.980983 -2.257551 2.014991
1.969714 -2.244709 3.133079
1.985235 -2.262397 3.791873
1.712285 -2.308604 3.394706
1.719965 -2.318957 4.275661
1.520783 -2.427317 0.551047
1.554965 -2.481876 1.422903
1.524270 -2.432883 2.539330
1.523353 -2.431420 3.656292
1.560738 -2.491089 4.449426
1.335506 -2.579473 1.920643
1.351352 -2.610080 2.725185
1.360006 -2.626794 3.707220
1.157268 -2.763161 0.830693
1.162774 -2.776307 1.923737
1.160307 -2.770417 3.081357
1.159460 -2.768394 3.902759
0.924667 -2.821606 3.184825
0.937574 -2.860991 4.041655
0.725417 -3.027357 1.715500
0.706943 -2.950260 2.757556
0.711129 -2.967732 3.577611
0.502393 -3.247538 0.980248
0.490208 -3.168768 2.041818
0.491663 -3.178173 2.842864
0.484890 -3.134392 3.944530
0.271877 -3.353790 0.512562
0.266298 -3.284971 1.654652
0.266853 -3.291817 2.516238
0.267070 -3.294500 3.443575
0.262698 -3.240571 4.541882
-0.025044 -3.518608 0.800019
-0.024601 -3.456346 1.796187
-0.024545 -3.448443 2.705054
-0.023946 -3.364322 3.914665
-0.331616 -3.707016 1.033716
-0.324707 -3.629783 2.154563
-0.325627 -3.640067 3.106058
-0.323717 -3.618721 4.144265
-0.625602 -3.828158 1.456570
-0.617395 -3.777937 2.529959
-0.627041 -3.836964 3.353651
-0.624794 -3.823213 4.296510
-0.990736 -3.995211 0.921879
-0.972714 -3.922535 1.944832
-0.977192 -3.940592 2.849768
-0.984328 -3.969369 3.699538
-1.215141 -3.610948 2.065634
-1.203497 -3.576345 3.067170
-1.179038 -3.503661 4.108313
-1.618697 -3.777692 0.474250
-1.423658 -3.322512 1.308060
-1.414227 -3.300502 2.376714
-1.433879 -3.346367 3.225869
-1.416570 -3.305970 4.177567
-1.509658 -2.845572 0.334615
-1.631929 -3.076041 1.374088
-1.601274 -3.018259 2.418252
-1.617454 -3.048757 3.479893
-1.588714 -2.994585 4.426934
-1.788146 -2.802112 1.793652
-1.750956 -2.743834 3.039439
-1.775544 -2.782365 3.950966
-2.883588 -3.794204 -0.045960
-2.149709 -2.828572 0.647954
-1.937320 -2.549112 1.337401
-1.922618 -2.529767 2.344980
-1.925918 -2.534109 3.255391
-1.957284 -2.575380 4.335386
-2.044263 -2.272878 1.940835
-2.038699 -2.266692 2.946989
-2.045494 -2.274246 3.886651
-2.191826 -2.089696 1.022143
-2.169267 -2.068188 2.106207
-2.139307 -2.039625 3.145915
-2.135614 -2.036103 4.238274
-2.500440 -2.018364 1.518276
-2.406093 -1.942207 2.361194
-2.344699 -1.892649 3.291033
-2.271151 -1.833281 4.431948
-2.440948 -1.664923 2.603124
-2.421270 -1.651500 3.710039
-2.285691 -1.304181 0.663631
-2.622888 -1.496580 1.751457
-2.606769 -1.487383 2.931010
-2.598497 -1.482663 3.933791
-2.705667 -1.268836 1.125551
-2.694786 -1.263733 2.238776
-2.691423 -1.262156 3.174474
-2.776431 -1.302021 3.945722
-2.791185 -1.045287 0.597328
-2.845054 -1.065461 1.345937
-2.799207 -1.048292 2.580245
-2.816428 -1.054741 3.552003
-2.812987 -1.053452 4.322020
-2.953738 -0.843181 0.979552
-3.027571 -0.864257 1.763771
-2.934273 -0.837624 3.016936
-2.989147 -0.853289 3.811572
-3.089948 -0.613356 2.346932
-3.142047 -0.623698 3.193648
-3.066748 -0.608751 4.347695
-3.273317 -0.404710 0.949458
-3.234339 -0.399891 1.897903
-3.189174 -0.394307 2.773057
-3.145293 -0.388881 3.785397
-4.121505 -0.150853 1.654655
-3.413313 -0.124932 2.198637
-3.356992 -0.122870 3.279536
-3.319844 -0.121511 4.305788
-1.049754 0.047587 -1.407517
-3.564523 0.161587 1.640256
-3.539360 0.160446 2.737863
-3.584110 0.162475 3.625842
-3.654200 0.436601 2.202130
-3.662194 0.437556 3.162702
-3.689536 0.440823 4.047410
-4.238023 0.888593 0.530395
-3.941433 0.826406 1.282046
-3.888232 0.815252 2.422277
-3.947647 0.827709 3.234301
-3.822289 0.801425 4.449789
-3.668773 1.081101 1.598121
-3.649351 1.075378 2.521583
-3.635986 1.071440 3.568317
-3.620360 1.066835 4.365564
-3.314508 1.248695 1.781525
-3.317791 1.249932 2.807214
-3.364297 1.267452 3.684440
-3.107827 1.495935 1.044065
-3.100752 1.492530 1.837070
-3.021853 1.454552 2.981365
-3.062908 1.474314 3.970588
-4.684369 2.692504 0.243514
-2.861843 1.644944 2.296261
-2.844800 1.635148 3.276486
-2.819850 1.620807 4.363163
-2.611815 1.818032 1.530049
-2.495752 1.737243 2.736890
-2.497179 1.738236 3.688514
-2.560435 1.782268 4.457961
-2.380843 1.967813 0.867236
-2.317951 1.915832 2.004649
-2.366739 1.956156 2.804709
-2.321950 1.919137 3.951549
-2.091038 2.030830 3.350567
-2.148353 2.086495 4.093367
-2.012087 2.263678 2.466497
-1.958616 2.203521 3.738288
-1.918707 2.158621 4.535642
-1.689623 2.242679 2.645439
-1.732453 2.299528 3.625160
-1.533797 2.434390 0.927725
-1.520515 2.413309 1.772244
-1.462050 2.320515 2.994398
-1.516074 2.406261 3.819531
-1.335092 2.538009 3.093714
-1.331933 2.532003 4.018255
-1.126747 2.648599 1.557705
-1.103962 2.595040 2.533356
-1.083019 2.545810 3.566471
-0.925846 2.776808 1.006705
-0.912522 2.736845 1.901739
-0.914917 2.744030 2.940535
-0.917108 2.750600 3.893746
-0.760767 3.093326 0.356041
-0.732041 2.976525 1.415287
-0.734132 2.985026 2.412796
-0.709916 2.886563 3.334985
-0.681101 2.769396 4.570116
-0.490899 3.045442 0.877556
-0.473810 2.939431 2.087411
-0.474289 2.942400 2.993084
-0.479173 2.972702 3.871735
-0.256251 3.299701 0.382657
-0.245482 3.161025 1.349085
-0.234927 3.025114 2.526408
-0.227325 2.927222 3.529084
-0.228036 2.936374 4.518671
0.013124 3.315990 1.110113
0.013029 3.291859 2.026327
0.012603 3.184457 2.935460
0.012676 3.202827 3.762065
0.332808 4.025021 0.515457
0.281815 3.408308 1.326793
0.274984 3.325692 2.343813
0.270135 3.267043 3.446086
0.274357 3.318114 4.195951
0.570570 3.585216 1.617198
0.564677 3.548188 2.595227
0.546624 3.434747 3.804315
0.931871 3.824787 0.966745
0.898644 3.688410 2.175476
0.900787 3.697202 2.897013
0.882602 3.622566 4.006825
1.452185 4.250585 0.597488
1.211384 3.545754 1.312538
1.217122 3.562548 2.335950
1.220823 3.573381 3.214921
1.201747 3.517547 4.381387
1.386617 3.253452 1.511783
1.391572 3.265079 2.568449
1.410203 3.308794 3.437236
1.365241 3.203298 4.554822
1.618447 3.044399 0.842800
1.568556 2.950551 1.963101
1.597696 3.005364 2.758232
1.565057 2.943968 3.927670
1.760391 2.793486 3.135170
1.723459 2.734880 4.256178
1.786376 2.385887 1.713468
1.771513 2.366035 2.753986
1.855255 2.477881 3.523325
1.987502 2.250892 0.881189
1.924790 2.179869 2.132696
1.986496 2.249753 2.931010
1.944331 2.202000 3.939673
2.042942 1.930676 2.483593
2.116023 1.999741 3.280610
2.106737 1.990966 4.324340
2.165873 1.771085 1.775838
2.146204 1.755002 2.749442
2.170914 1.775207 3.612831
2.387327 1.649132 0.865486
2.283935 1.577711 1.909202
2.259486 1.560821 2.983985
2.310778 1.596253 3.933827
2.353340 1.359806 3.309510
2.406137 1.390313 4.288453
2.570912 1.223387 1.569751
2.488443 1.184143 2.720573
2.496642 1.188045 3.737654
2.584081 0.974957 1.157762
2.540200 0.958401 2.228002
2.610072 0.984763 3.090894
2.550397 0.962248 4.204399
2.364440 0.683414 0.414669
2.712486 0.784013 1.489966
2.700931 0.780673 2.635044
2.687706 0.776851 3.633626
2.872023 0.581935 1.067529
2.757823 0.558796 2.099038
2.730463 0.553252 3.181936
2.805583 0.568473 4.098245
3.117485 0.371807 0.469328
2.830948 0.337633 1.559367
2.890178 0.344697 2.425229
2.831256 0.337670 3.547692
2.832292 0.337794 4.479996
3.039241 0.135509 0.848965
2.978134 0.132784 2.077062
2.990286 0.133326 3.112387
2.937851 0.130988 3.929313
3.434703 -0.120874 0.601198
3.195754 -0.112465 1.418306
3.199033 -0.112580 2.353331
3.099607 -0.109081 3.342817
3.057573 -0.107602 4.484986
3.421959 -0.421817 0.842800
3.334330 -0.411015 1.841749
3.293688 -0.406005 2.774758
3.269184 -0.402984 3.723137
3.376057 -0.671460 2.346671
3.381343 -0.672511 3.410788
3.429579 -0.682105 4.247243
3.591966 -1.028310 1.761495
3.623092 -1.037220 2.622869
3.592742 -1.028532 3.651784
3.579484 -1.340431 2.104619
3.671842 -1.375016 2.869098
3.654464 -1.368509 3.872597
3.212117 -1.509246 2.419254
3.298108 -1.549650 3.373856
3.232541 -1.518842 4.259037
2.926878 -1.671056 1.740864
3.031967 -1.731055 2.582474
3.003857 -1.715006 3.617969
2.692817 -1.854124 1.092007
2.649111 -1.824031 2.161656
2.711106 -1.866717 3.165957
2.714811 -1.869268 4.219406
2.575148 -2.076016 0.453631
2.522896 -2.033891 1.375768
2.478068 -1.997752 2.555149
2.449173 -1.974458 3.448542
2.438301 -1.965693 4.416726
1.899542 -1.803438 0.694967
2.252553 -2.138589 1.806664
2.238211 -2.124972 2.913693
2.220625 -2.108276 3.876324
1.935664 -2.198693 1.209792
2.003407 -2.275641 2.083646
2.004715 -2.277127 3.148825
2.006322 -2.278952 3.958961
2.106514 -2.792296 1.543722
1.825322 -2.419561 2.234843
1.839375 -2.438189 3.407317
1.795557 -2.380105 4.484344
1.545047 -2.420700 2.690529
1.549441 -2.427583 3.705343
1.383530 -2.609118 0.802065
1.369264 -2.582216 1.798045
1.364561 -2.573346 2.958865
1.354482 -2.554339 4.004855
1.163206 -2.699168 0.975621
1.169025 -2.712671 2.078958
1.197972 -2.779842 3.169495
1.145116 -2.657192 4.254915
0.913025 -2.690453 0.541791
0.932493 -2.747820 1.566427
0.948836 -2.795980 2.532807
0.935866 -2.757761 3.521444
0.915508 -2.697771 4.580500
0.729112 -2.927254 1.832447
0.724540 -2.908897 2.941354
0.730749 -2.933827 4.000301
0.494576 -2.975339 2.276190
0.502490 -3.022949 3.136045
0.492381 -2.962136 3.982572
0.264923 -3.163741 1.621177
0.260461 -3.110459 2.810545
0.257799 -3.078670 3.623829
0.002626 -3.339974 1.048591
0.002604 -3.311646 2.045133
0.002548 -3.241102 3.080541
0.002576 -3.276762 3.943502
-0.259688 -3.335246 0.361344
-0.269999 -3.467674 1.454496
-0.260750 -3.348891 2.582050
-0.263675 -3.386459 3.405419
-0.577951 -3.565658 1.807728
-0.576704 -3.557960 2.713546
-0.574321 -3.543262 3.783717
-0.913567 -3.711449 2.104619
-0.919822 -3.736863 3.002367
-0.915113 -3.717733 4.105061
-1.286040 -3.943369 0.513439
-1.281058 -3.928094 1.565420
-1.289568 -3.954186 2.421357
-1.287315 -3.947278 3.274377
-1.254433 -3.846454 4.503537
-1.491506 -3.534353 1.428488
-1.500979 -3.556803 2.438943
-1.505058 -3.566467 3.404167
-1.465741 -3.473299 4.552322
-1.653183 -3.202445 1.758272
-1.660952 -3.217496 2.742120
-1.675468 -3.245614 3.669285
-1.820610 -2.882541 2.069072
-1.797556 -2.846041 3.179449
-1.842434 -2.917094 4.143470
-1.968098 -2.656356 0.524570
-1.973434 -2.663558 1.603352
-2.012495 -2.716278 2.520596
-1.989815 -2.685668 3.410326
-1.985090 -2.679290 4.264774
-2.060290 -2.344659 1.765416
-2.100884 -2.390856 2.785524
-2.144474 -2.440463 3.618124
-2.181820 -2.121247 1.122840
-2.173812 -2.113462 2.083646
-2.239289 -2.177121 2.960647
-2.221454 -2.159781 4.012143
-2.719013 -2.246484 0.578241
-2.372381 -1.960092 1.242663
-2.353072 -1.944139 2.323885
-2.359699 -1.949614 3.386662
-2.369374 -1.957608 4.264131
-2.492507 -1.715091 2.627615
-2.495020 -1.716819 3.649936
-2.350691 -1.373043 1.984009
-2.595291 -1.515914 2.840258
-2.590616 -1.513184 3.822898
-2.674004 -1.286443 0.903130
-2.761521 -1.328546 1.920182
-2.763777 -1.329632 2.815033
-2.683162 -1.290848 3.895321
-2.784454 -1.074072 1.135898
-2.814849 -1.085796 2.124992
-2.814593 -1.085697 3.200506
-2.889354 -1.114536 3.932512
-2.906638 -0.861660 1.082842
-2.911593 -0.863128 2.143764
-2.977731 -0.882735 3.012207
-2.935401 -0.870186 4.046048
-3.034306 -0.642157 2.259990
-3.004470 -0.635843 3.355687
-3.008012 -0.636592 4.174279
-3.105221 -0.389183 1.815296
-3.108739 -0.389624 2.699349
-3.041835 -0.381239 3.616215
-3.295488 -0.156604 0.878734
-3.227518 -0.153374 2.120527
-3.197001 -0.151923 3.044061
-3.153668 -0.149864 4.075514
-3.965142 0.166954 0.686637
-3.342808 0.140751 1.450980
-3.297776 0.138854 2.446375
-3.332555 0.140319 3.271675
-3.337840 0.140541 4.244272
-3.455852 0.401374 0.630113
-3.493790 0.405780 1.562780
-3.426812 0.398001 2.625285
-3.445181 0.400135 3.508085
-3.434144 0.398853 4.290997
-3.553828 0.711001 1.846977
-3.640106 0.728262 2.557331
-3.621049 0.724450 3.626194
-3.808327 1.074555 2.028107
-3.778737 1.066206 3.006520
-3.723060 1.050496 4.061989
-3.587142 1.345879 0.559974
-3.642782 1.366755 1.565395
-3.648425 1.368872 2.486102
-3.655907 1.371679 3.303157
-3.549675 1.331821 4.481411
-3.036474 1.424674 0.472434
-3.208876 1.505562 1.561434
-3.265606 1.532179 2.554509
-3.308593 1.552348 3.501331
-3.261782 1.530385 4.413290
-2.954869 1.694926 1.859078
-2.994435 1.717622 2.694833
-3.054505 1.752078 3.750674
-2.705859 1.850536 1.000781
-2.665135 1.822685 2.200952
-2.669995 1.826009 3.021183
-2.612709 1.786830 4.134360
-2.577422 2.096164 0.351886
-2.417546 1.966140 1.563996
-2.438428 1.983123 2.518070
-2.482567 2.019020 3.363632
-2.438575 1.983242 4.206467
-2.197196 2.078112 1.811772
-2.204958 2.085454 2.677105
-2.212891 2.092957 3.678183
-1.937322 2.182405 3.259878
-1.970182 2.219422 4.096391
-1.717017 2.267771 0.265597
-1.770259 2.338092 1.412541
-1.796422 2.372646 2.389976
-1.786666 2.359762 3.536723
-1.750737 2.312307 4.494155
-1.580623 2.444174 1.758338
-1.569266 2.426613 2.870315
-1.532855 2.370309 3.972383
-1.325089 2.466127 3.381989
-1.337008 2.488310 4.222874
-1.129149 2.581332 1.794818
-1.140953 2.608318 2.763199
-1.135892 2.596748 3.850692
-0.930325 2.744995 3.080844
-0.916812 2.705123 4.119008
-0.711267 2.781941 1.720341
-0.708710 2.771939 2.721667
-0.706093 2.761703 3.798762
-0.489754 2.856356 3.161303
-0.491845 2.868556 4.112848
-0.262698 2.948796 1.623650
-0.264281 2.966571 2.611288
-0.264882 2.973318 3.704415
-0.017716 3.094228 1.059581
-0.017282 3.018306 2.195442
-0.017551 3.065318 2.975627
-0.017302 3.021832 4.090357
0.225592 3.045039 0.482561
0.239999 3.239505 1.425755
0.233848 3.156486 2.606627
0.233669 3.154065 3.397037
0.231171 3.120341 4.427034
0.524708 3.362703 0.955297
0.523318 3.353795 1.819703
0.515132 3.301330 2.862761
0.502222 3.218594 4.005123
0.850241 3.512143 0.967461
0.817019 3.374914 2.115146
0.824305 3.405010 2.929615
0.818602 3.381451 3.883361
1.208282 3.664529 0.559323
1.178173 3.573212 1.341840
1.163537 3.528825 2.398489
1.162336 3.525182 3.407585
1.148345 3.482749 4.288373
1.490698 3.558462 1.029058
1.481831 3.537296 1.925416
1.504856 3.592258 2.792082
1.481194 3.535774 4.006513
2.273513 4.371665 -0.104061
1.785285 3.432868 0.599100
1.683875 3.237870 1.356571
1.677689 3.225975 2.324093
1.662618 3.196995 3.416877
1.664203 3.200044 4.314409
1.764696 2.853006 1.148710
1.780039 2.877811 1.920490
1.780299 2.878231 2.968914
1.824437 2.949589 3.834957
1.759660 2.388394 0.230710
1.885433 2.559106 1.610883
1.926646 2.615045 2.370031
1.888077 2.562695 3.415086
1.859196 2.523494 4.496015
2.098855 2.400977 0.954072
2.055852 2.351783 1.976792
2.070732 2.368806 3.048738
2.050670 2.345856 4.040157
2.197270 2.148571 1.536139
2.107449 2.060741 2.623837
2.064462 2.018706 3.764730
2.208590 1.833934 3.324715
2.240520 1.860447 4.192697
2.379877 1.673661 1.545689
2.355959 1.656840 2.589009
2.349652 1.652405 3.645914
2.406792 1.409634 1.156274
2.408873 1.410854 2.161419
2.477528 1.451064 3.083336
2.510245 1.470226 4.203064
2.516254 1.223922 2.444192
2.585050 1.257385 3.475029
2.597263 1.005885 1.166675
2.626331 1.017143 2.017847
2.601112 1.007376 3.171535
2.725818 1.055673 4.071384
2.707489 0.804563 1.703076
2.627138 0.780686 2.843127
2.707186 0.804473 3.550469
3.300778 0.691930 0.694206
2.721396 0.570476 1.390877
2.749517 0.576371 2.261300
2.749840 0.576439 3.270295
2.703842 0.566796 4.430861
2.820875 0.365202 1.082075
2.788217 0.360974 2.180189
2.772909 0.358993 3.231332
2.777229 0.359552 4.045144
2.820013 0.127572 1.926223
2.925549 0.132347 2.756269
2.850876 0.128969 3.788379
3.217332 -0.111650 0.405740
2.931119 -0.101718 1.554424
3.001416 -0.104157 2.387919
2.940921 -0.102058 3.508365
2.953258 -0.102486 4.397638
3.091750 -0.332737 1.089240
3.057538 -0.329055 2.110899
3.081099 -0.331591 3.032837
3.061520 -0.329484 4.074056
3.215698 -0.631723 1.776285
3.163596 -0.621488 2.742207
3.155605 -0.619918 3.720921
3.283873 -0.904112 2.299166
3.242046 -0.892596 3.348844
3.282160 -0.903640 4.207700
3.476728 -1.296508 0.994083
3.444025 -1.284313 1.923905
3.380366 -1.260574 3.010748
3.390838 -1.264479 3.938750
3.532006 -1.619900 1.932745
3.599101 -1.650672 2.758145
3.568679 -1.636719 3.880218
3.209612 -1.829256 0.432821
3.204484 -1.826333 1.394858
3.199899 -1.823720 2.489860
3.224879 -1.837957 3.407585
3.195297 -1.821097 4.424879
2.838516 -1.908194 3.333797
2.864902 -1.925932 4.222368
2.565847 -2.041103 1.916783
2.612101 -2.077897 2.873011
2.616803 -2.081638 3.896918
2.235396 -2.091589 0.329557
2.337847 -2.187450 1.408017
2.338674 -2.188223 2.423390
2.329814 -2.179933 3.554014
2.372185 -2.219578 4.462823
2.135148 -2.353690 0.914073
2.064665 -2.275992 1.970029
2.098420 -2.313202 2.960647
2.136655 -2.355351 3.834101
1.789553 -2.324583 1.696152
1.813847 -2.356139 2.702223
1.859242 -2.415106 3.507981
1.578232 -2.430640 1.221612
1.582394 -2.437051 2.213667
1.607981 -2.476457 3.075902
1.626555 -2.505063 4.034295
1.389128 -2.578607 2.524604
1.373019 -2.548704 3.824075
1.184031 -2.695430 2.180595
1.175084 -2.675062 3.169144
1.166700 -2.655977 4.143954
0.970406 -2.818186 0.800858
0.929848 -2.700399 2.055528
0.959701 -2.787098 2.855244
0.930421 -2.702065 4.028637
0.735809 -2.863608 1.634004
0.739787 -2.879088 2.551359
0.750109 -2.919261 3.531323
0.508463 -2.936101 2.530660
0.522866 -3.019269 3.216187
0.496936 -2.869537 4.192697
0.271275 -2.986437 0.891532
0.270690 -2.980000 2.046022
0.268322 -2.953932 3.114853
0.267383 -2.943593 3.797575
0.025894 -3.143598 1.633036
0.025300 -3.071483 2.724347
0.025034 -3.039209 3.698846
-0.213430 -3.199213 1.185768
-0.211401 -3.168793 2.274841
-0.213479 -3.199952 3.103446
-0.212289 -3.182109 4.141694
-0.529123 -3.455197 0.790756
-0.504691 -3.295656 1.983603
-0.501021 -3.271690 2.955049
-0.513035 -3.350147 3.753514
-0.828386 -3.617351 0.392215
-0.808566 -3.530799 1.427758
-0.802354 -3.503675 2.366533
-0.789971 -3.449603 3.293764
-0.796866 -3.479709 4.436601
-1.139138 -3.606843 1.221327
-1.145170 -3.625940 2.085881
-1.111712 -3.520002 3.310612
-1.131081 -3.581332 4.171188
-1.513622 -3.682653 2.105908
-1.512847 -3.680766 3.159864
-1.537094 -3.739759 4.006379
-1.771564 -3.508125 1.672855
-1.779618 -3.524075 2.640704
-1.760746 -3.486702 3.617292
-2.023991 -3.304081 0.388697
-1.955208 -3.191797 1.322677
-1.972257 -3.219629 2.305550
-1.940674 -3.168070 3.397436
-1.913952 -3.124448 4.298535
-2.068318 -2.837959 1.021476
-2.058321 -2.824243 2.053879
-2.040654 -2.800001 3.121443
-2.053699 -2.817899 3.941938
-2.211198 -2.557508 1.499443
-2.196916 -2.540989 2.582050
-2.200039 -2.544601 3.587229
-2.285530 -2.261827 1.023701
-2.240382 -2.217147 2.045373
-2.285263 -2.261563 2.922911
-2.304074 -2.280179 4.056498
-2.367409 -1.987210 1.847929
-2.388842 -2.005201 2.740584
-2.431701 -2.041177 3.685166
-2.514999 -1.791704 3.224028
-2.487972 -1.772450 4.326085
-2.611408 -1.555285 1.770434
-2.537295 -1.511145 2.995489
-2.581465 -1.537452 3.892417
-2.855498 -1.410052 2.474841
-2.641520 -1.304389 3.498006
-2.644790 -1.306003 4.328338
-2.696281 -1.065206 1.079272
-2.776799 -1.097016 1.844538
-2.763534 -1.091776 2.863265
-2.739384 -1.082235 3.998857
-2.886510 -0.882708 1.468460
-2.863323 -0.875617 2.489273
-2.793362 -0.854223 3.741129
-2.949076 -0.640320 2.346558
-2.991106 -0.649446 3.226513
-2.933330 -0.636901 4.242403
-2.954700 -0.400634 1.004062
-3.015438 -0.408870 2.052647
-3.031362 -0.411029 2.916004
-2.970983 -0.402842 3.913103
-3.134076 -0.185108 1.572763
-3.271773 -0.193241 2.588086
-3.238361 -0.191267 3.797727
-3.122427 0.085262 2.198116
-3.128349 0.085424 3.020170
-3.159227 0.086267 4.065215
-3.276908 0.356213 1.724960
-3.259217 0.354290 2.737947
-3.300750 0.358805 3.641062
-3.355530 0.624189 2.428482
-3.415929 0.635424 3.249677
-3.365376 0.626021 4.403450
-3.451532 0.951293 2.257987
-3.527041 0.972104 3.016704
-3.456537 0.952672 4.129440
-3.775289 1.374442 0.765213
-3.649924 1.328801 1.794004
-3.647518 1.327925 2.753529
-3.622104 1.318673 3.857357
-3.598257 1.645752 1.532823
-3.612825 1.652416 2.422277
-3.597463 1.645389 3.465954
