-1.913731 -1.651664 4.171927
-1.913152 -1.651262 4.760122
-1.821346 -1.579255 4.676809
-1.857115 -1.607375 5.437909
-1.916099 -1.653665 5.785611
-2.004697 -1.723153 5.830759
-2.078379 -1.780974 6.231458
-2.145788 -1.833871 6.575283
-2.060618 -1.767074 6.555603
-1.991366 -1.712802 7.007470
-2.042351 -1.752841 7.603114
-1.943664 -1.675438 7.530784
-1.990455 -1.712183 8.073619
-1.973734 -1.699093 8.336810
-1.947949 -1.678861 8.234652
-1.886995 -1.631094 8.642292
-1.967588 -1.694353 9.244367
-1.806330 -1.567887 9.265225
-1.630369 -1.626589 0.269386
-1.705631 -1.694335 0.392829
-1.646246 -1.640960 1.140054
-1.726527 -1.713229 1.316246
-1.733479 -1.719503 1.496516
-1.771983 -1.754226 2.238063
-1.685184 -1.676088 2.032840
-1.689093 -1.679613 2.100840
-1.715204 -1.703150 2.506549
-1.728347 -1.714996 2.686896
-1.766248 -1.749150 3.147813
-1.798984 -1.778644 3.495760
-1.866948 -1.839870 4.122356
-1.762956 -1.746255 3.869272
-1.722869 -1.710206 4.176949
-1.834682 -1.810917 5.029642
-1.747098 -1.732084 4.946024
-1.716343 -1.704434 5.255886
-1.926762 -1.893887 6.083352
-1.934870 -1.901146 5.681325
-1.867653 -1.840699 6.181327
-1.973140 -1.935689 6.747427
-1.870865 -1.843630 6.615150
-1.935256 -1.901648 7.319275
-1.747590 -1.732735 7.159270
-1.785608 -1.767003 7.701376
-1.800174 -1.780118 7.767031
-1.861124 -1.835029 8.365600
-1.889593 -1.860691 8.797268
-1.864768 -1.838368 9.006847
-1.846771 -1.822221 9.530833
-1.663981 -1.657704 9.440822
-1.519232 -1.527464 9.780551
-1.378352 -1.589425 0.329660
-1.518752 -1.734025 0.452795
-1.596057 -1.813683 0.913559
-1.603907 -1.821796 1.206868
-1.604280 -1.822182 1.218949
-1.621510 -1.839972 1.680667
-1.574952 -1.792072 2.147925
-1.611535 -1.829805 2.720711
-1.600512 -1.818437 2.562138
-1.634354 -1.853335 3.021762
-1.630703 -1.849570 2.975708
-1.659624 -1.879388 3.322409
-1.639666 -1.858888 3.850859
-1.676805 -1.897170 4.197306
-1.690681 -1.911472 4.319328
-1.685063 -1.905740 4.850458
-1.603442 -1.821676 4.766458
-1.573171 -1.790533 5.076464
-1.690032 -1.910913 5.403720
-1.801203 -2.025427 5.671767
-1.760767 -1.983805 5.870611
-1.847121 -2.072828 6.794241
-1.761238 -1.984376 6.718407
-1.823651 -2.048721 7.422610
-1.703638 -1.925103 7.181216
-1.728098 -1.950342 7.665913
-1.686774 -1.907800 7.816458
-1.719599 -1.941653 8.303644
-1.668155 -1.888685 8.400385
-1.735671 -1.958275 9.001614
-1.690265 -1.911556 9.414201
-1.641684 -1.861536 9.514662
-1.267877 -1.677476 0.169294
-1.403992 -1.837989 0.810720
-1.473710 -1.920192 1.043202
-1.470157 -1.915986 0.884771
-1.478785 -1.926194 1.232567
-1.504662 -1.956771 1.917152
-1.495290 -1.945700 1.702830
-1.529247 -1.985801 2.386570
-1.458985 -1.902971 2.293318
-1.520160 -1.975178 3.202814
-1.516576 -1.970949 3.157018
-1.570248 -2.034281 3.783454
-1.598475 -2.067584 4.073080
-1.541328 -2.000232 4.154860
-1.467057 -1.912678 4.068404
-1.515896 -1.970295 4.528221
-1.513507 -1.967537 5.061585
-1.430398 -1.869559 4.921915
-1.535513 -1.993548 5.719305
-1.600156 -2.069742 5.708065
-1.622416 -2.096045 6.298760
-1.695689 -2.182418 6.340775
-1.679984 -2.163940 6.653081
-1.575347 -2.040621 6.825303
-1.533878 -1.991756 6.973255
-1.564556 -2.027975 7.514397
-1.642066 -2.119382 7.915310
-1.627415 -2.102141 8.178175
-1.686570 -2.171934 8.774915
-1.627383 -2.102172 8.816426
-1.532071 -1.989846 9.002621
-1.516195 -1.971189 9.527812
-1.201459 -1.849984 0.495710
-1.206239 -1.856585 0.846809
-1.383017 -2.099202 0.848550
-1.325402 -2.020137 0.918614
-1.274708 -1.950605 1.271478
-1.340611 -2.041080 1.502444
-1.373987 -2.086980 2.299183
-1.366229 -2.076314 2.141648
-1.316423 -2.007982 2.329380
-1.353429 -2.058844 2.958599
-1.350452 -2.054753 2.913191
-1.409540 -2.135942 3.708732
-1.387894 -2.106203 3.439525
-1.403840 -2.128191 4.304900
-1.357879 -2.065128 4.444261
-1.394052 -2.114814 4.791407
-1.331234 -2.028598 4.764042
-1.345576 -2.048359 5.412236
-1.326534 -2.022206 5.253909
-1.412652 -2.140423 5.468409
-1.471810 -2.221667 5.925249
-1.462473 -2.208897 6.292880
-1.456251 -2.200401 6.662000
-1.492307 -2.249913 6.895042
-1.519267 -2.286978 7.432373
-1.407876 -2.134109 7.498226
-1.409629 -2.136516 7.508497
-1.403760 -2.128500 7.826952
-1.474600 -2.225806 8.537465
-1.420710 -2.151851 8.579214
-1.480287 -2.233688 9.179969
-1.395279 -2.117042 9.369593
-1.323224 -2.018183 9.617083
-0.977616 -1.748457 0.232200
-1.251654 -2.177043 0.756381
-1.255623 -2.183280 0.991927
-1.223886 -2.133756 1.793882
-1.210102 -2.112145 1.355775
-1.222695 -2.131890 1.760535
-1.185015 -2.073023 2.173005
-1.210509 -2.112956 2.689970
-1.199252 -2.095326 2.475563
-1.228011 -2.140362 2.991937
-1.239290 -2.158023 3.170823
-1.302223 -2.256544 4.020954
-1.236130 -2.153174 3.878478
-1.237236 -2.154987 4.522085
-1.217768 -2.124517 4.308029
-1.196810 -2.091791 4.672852
-1.214871 -2.120125 5.377118
-1.241567 -2.161901 5.612216
-1.342564 -2.319881 5.992041
-1.343870 -2.321925 6.002480
-1.343391 -2.321231 6.426066
-1.300063 -2.253490 6.516586
-1.332364 -2.304030 6.750191
-1.330260 -2.300788 7.120956
-1.313733 -2.274979 7.381517
-1.325624 -2.293629 7.810631
-1.341390 -2.318338 8.240843
-1.311321 -2.271339 8.393507
-1.353072 -2.336695 8.937360
-1.211749 -2.115687 8.789069
-1.236349 -2.154211 9.225522
-1.006455 -2.080261 0.739673
-1.055442 -2.169541 0.805654
-1.067804 -2.192161 1.436580
-1.077856 -2.210530 1.785984
-1.021893 -2.108509 1.522990
-1.036415 -2.135040 1.986398
-1.038909 -2.139594 2.055068
-1.060614 -2.179224 2.574001
-1.078090 -2.211122 2.923502
-1.091244 -2.235127 3.160305
-1.143287 -2.330083 3.956373
-1.120694 -2.288863 3.633105
-1.075837 -2.207223 4.348406
-1.067934 -2.192807 4.248321
-1.091616 -2.236006 4.541370
-1.064490 -2.186686 5.320909
-1.013047 -2.092938 5.296785
-1.166044 -2.371826 5.828363
-1.149465 -2.341591 5.673173
-1.146605 -2.336442 6.098458
-1.167270 -2.374126 6.278071
-1.162322 -2.365162 6.649146
-1.167286 -2.374271 7.077408
-1.167926 -2.375491 7.451234
-1.147036 -2.337454 7.658933
-1.151757 -2.346112 8.035248
-1.176759 -2.391745 8.524191
-1.124150 -2.295871 8.511928
-1.162591 -2.366004 9.057193
-1.121859 -2.291828 9.414201
-1.093663 -2.240506 9.830375
-0.985068 -2.042605 9.798678
-0.904091 -2.233280 0.679052
-0.906147 -2.237750 0.859938
-0.927866 -2.284803 1.883816
-0.920504 -2.268867 1.615049
-0.930294 -2.290058 1.964081
-0.894240 -2.212262 2.152545
-0.909351 -2.244948 2.558623
-0.941051 -2.313491 3.244658
-0.927717 -2.284663 2.976146
-0.967405 -2.370455 3.716818
-0.910321 -2.247193 3.461989
-0.876745 -2.174855 4.291885
-0.915220 -2.257897 4.231634
-0.974646 -2.386305 5.028550
-0.893091 -2.210271 5.078665
-0.866910 -2.153790 5.279362
-0.950348 -2.333893 5.251919
-0.990922 -2.421552 5.709373
-0.972012 -2.380775 5.964862
-1.017930 -2.479970 6.421281
-1.002016 -2.445661 6.678773
-0.987187 -2.413695 6.937481
-0.960485 -2.356081 7.085493
-0.954069 -2.342284 7.402448
-0.992302 -2.424922 8.056180
-1.008384 -2.459656 8.177739
-0.960003 -2.355271 8.472578
-0.952824 -2.339818 8.738191
-0.988389 -2.416680 9.284507
-0.962865 -2.361653 9.698975
-0.885754 -2.195216 9.779403
-0.592314 -1.919703 0.643436
-0.736756 -2.305565 1.040346
-0.738497 -2.310241 1.164692
-0.739540 -2.313040 1.232787
-0.755015 -2.354520 1.975044
-0.714821 -2.247126 1.768858
-0.735723 -2.303101 2.512921
-0.750302 -2.342119 2.918237
-0.750719 -2.343236 2.928986
-0.767542 -2.388249 3.332481
-0.749080 -2.339011 3.693171
-0.712124 -2.240300 3.661516
-0.686408 -2.171656 3.855878
-0.733567 -2.297654 4.077416
-0.770543 -2.396539 4.705848
-0.705815 -2.223678 4.808644
-0.698596 -2.204482 5.233478
-0.788601 -2.445018 5.953941
-0.823636 -2.538588 5.942223
-0.785833 -2.437616 5.919421
-0.823903 -2.539388 6.376685
-0.836158 -2.572227 6.913296
-0.808580 -2.498589 7.005726
-0.842816 -2.590169 7.712181
-0.792922 -2.456885 7.584075
-0.826503 -2.546703 8.237798
-0.769538 -2.394523 8.055127
-0.774825 -2.408717 8.432333
-0.768764 -2.392583 8.698576
-0.723717 -2.272318 8.942239
-0.784136 -2.433844 9.716680
-0.317365 -1.470012 0.103590
-0.403829 -1.758303 0.298023
-0.549015 -2.242393 0.643466
-0.607326 -2.436811 0.761854
-0.582629 -2.354579 1.169086
-0.594750 -2.395167 1.910354
-0.590621 -2.381351 1.696466
-0.572823 -2.322145 2.220740
-0.586681 -2.368471 2.737836
-0.590425 -2.380982 2.860971
-0.605916 -2.432736 3.320657
-0.604282 -2.427278 3.275324
-0.560458 -2.281272 3.649619
-0.567791 -2.305762 3.829535
-0.599112 -2.410344 4.515071
-0.605297 -2.430993 4.637977
-0.558099 -2.273702 4.853170
-0.569141 -2.310684 5.560038
-0.611913 -2.453326 5.774235
-0.633582 -2.525532 5.651578
-0.599922 -2.413418 6.042084
-0.639872 -2.546737 6.612317
-0.620569 -2.482320 6.343651
-0.643364 -2.558484 7.049744
-0.607764 -2.439788 6.974787
-0.644374 -2.561946 7.432721
-0.641273 -2.551684 7.750507
-0.649394 -2.578864 8.181004
-0.633271 -2.525150 8.333755
-0.595409 -2.398988 8.574565
-0.624462 -2.495989 9.178000
-0.604146 -2.428286 9.277447
-0.329870 -1.977542 0.405680
-0.397805 -2.275308 0.695101
-0.422426 -2.383299 1.041005
-0.429378 -2.413961 1.670134
-0.411573 -2.336036 1.969009
-0.412687 -2.340940 2.036141
-0.415863 -2.354913 2.215901
-0.421624 -2.380248 2.508087
-0.438046 -2.452418 3.192955
-0.427587 -2.406723 3.609557
-0.427916 -2.408167 3.620313
-0.407951 -2.320711 3.701168
-0.389854 -2.241457 3.839086
-0.436088 -2.444256 4.510249
-0.432778 -2.429902 4.987918
-0.416234 -2.357453 5.130141
-0.407553 -2.319516 5.442469
-0.448706 -2.499956 5.825421
-0.457751 -2.539647 6.003954
-0.482232 -2.647060 6.460857
-0.482790 -2.649505 6.470858
-0.480981 -2.641698 6.839824
-0.480358 -2.639086 7.210166
-0.452647 -2.517639 7.135334
-0.482702 -2.649588 7.954667
-0.465990 -2.576392 8.050075
-0.461225 -2.555594 8.313683
-0.427709 -2.408793 8.497561
-0.449249 -2.503269 8.788063
-0.425157 -2.397798 9.087750
-0.445610 -2.487589 9.636863
-0.383899 -2.217226 9.751806
-0.245698 -2.310165 1.110281
-0.264336 -2.428107 1.511005
-0.266555 -2.442235 1.746932
-0.248925 -2.330745 1.539077
-0.254318 -2.365054 2.057708
-0.255848 -2.374779 2.181585
-0.261507 -2.410716 2.586743
-0.262546 -2.417312 2.654175
-0.275805 -2.501421 3.395095
-0.241661 -2.285623 3.261463
-0.239532 -2.272461 3.906906
-0.239767 -2.273949 3.917066
-0.278835 -2.521201 4.811094
-0.262140 -2.415699 4.783151
-0.247035 -2.320509 5.338237
-0.250990 -2.345553 5.461191
-0.270325 -2.467764 5.563128
-0.272544 -2.481818 5.629304
-0.303474 -2.677627 6.477379
-0.288706 -2.584327 6.511786
-0.296950 -2.636683 7.105281
-0.270505 -2.469486 6.861762
-0.275023 -2.498247 7.346859
-0.280971 -2.536049 7.833073
-0.276189 -2.505790 7.731146
-0.265598 -2.439074 8.192631
-0.276990 -2.511303 8.738629
-0.286477 -2.571324 8.916529
-0.279214 -2.525643 9.384903
-0.266638 -2.446346 9.744655
-0.087986 -2.303147 0.434477
-0.088616 -2.310433 0.784243
-0.089470 -2.320168 1.077420
-0.091143 -2.339117 1.483321
-0.095281 -2.385722 2.170585
-0.094564 -2.377658 2.068712
-0.099578 -2.433977 2.698534
-0.097717 -2.413092 2.484354
-0.092471 -2.355007 2.899509
-0.097334 -2.409517 3.360911
-0.090562 -2.334270 3.553754
-0.096472 -2.400428 4.015424
-0.101428 -2.455879 4.363545
-0.100757 -2.448372 4.318124
-0.086685 -2.291919 4.587793
-0.076678 -2.180897 5.087945
-0.079849 -2.216338 5.268989
-0.108192 -2.532313 5.801799
-0.099674 -2.437506 5.834359
-0.112911 -2.585371 6.461593
-0.110679 -2.560443 6.360477
-0.107236 -2.522313 6.619383
-0.105357 -2.501635 6.935594
-0.118355 -2.647036 7.812373
-0.104583 -2.493849 7.993372
-0.109085 -2.544360 8.482636
-0.100898 -2.453237 8.524554
-0.106302 -2.513793 9.016194
-0.094707 -2.384642 8.947300
-0.086975 -2.298833 9.306297
0.067653 -2.326666 1.215693
0.065557 -2.422243 1.109772
0.067465 -2.335862 1.407059
0.067190 -2.349199 1.643738
0.066868 -2.364701 1.880286
0.065777 -2.416656 2.510724
0.068259 -2.302609 2.361729
0.066347 -2.392846 3.218877
0.065710 -2.422760 3.454959
0.069522 -2.248929 3.662015
0.068797 -2.282904 3.899396
0.067832 -2.327985 4.192913
0.066795 -2.376389 4.485900
0.066547 -2.387995 4.553230
0.067828 -2.331828 5.334269
0.070413 -2.213254 5.251937
0.065117 -2.457816 5.919294
0.061527 -2.623006 6.187430
0.061757 -2.612305 6.142517
0.062057 -2.599773 6.512223
0.063811 -2.519773 6.603626
0.064611 -2.483995 6.863954
0.065024 -2.466112 7.180985
0.063930 -2.517936 7.723705
0.066949 -2.380497 7.960364
0.063418 -2.543759 8.476077
0.062982 -2.564917 8.853853
0.067874 -2.340902 8.816284
0.067761 -2.347128 9.141283
0.068265 -2.325736 9.670995
0.212914 -1.992801 0.343836
0.227833 -2.306861 0.974413
0.228552 -2.321524 1.325494
0.233444 -2.424712 1.389153
0.230462 -2.360907 1.970549
0.230308 -2.357705 1.926521
0.231185 -2.375884 2.164205
0.232166 -2.396247 2.401712
0.229096 -2.330893 2.761809
0.229444 -2.338139 2.830558
0.233774 -2.428445 3.574871
0.228802 -2.323514 3.544275
0.231572 -2.381401 3.951211
0.233763 -2.427234 4.244808
0.231434 -2.377608 4.552790
0.231322 -2.374437 5.087905
0.223739 -2.214007 5.306408
0.231264 -2.372479 5.578742
0.236566 -2.484365 5.624046
0.238431 -2.523481 5.802237
0.244249 -2.644938 6.729729
0.246476 -2.691712 6.906777
0.238914 -2.531775 7.080682
0.234483 -2.438179 7.117142
0.237697 -2.505151 7.715825
0.234914 -2.446170 7.866874
0.232999 -2.405434 8.074931
0.232878 -2.402402 8.396530
0.232052 -2.384561 8.662936
0.225963 -2.255640 8.906259
0.346243 -1.972582 0.117882
0.382672 -2.288471 1.034189
0.383537 -2.295873 1.216575
0.394743 -2.393247 1.168866
0.388250 -2.336383 1.919476
0.385778 -2.315111 1.591521
0.393230 -2.379324 2.446992
0.391052 -2.360536 2.232178
0.384597 -2.304171 2.702739
0.376851 -2.236699 3.006339
0.386878 -2.323377 3.694560
0.371323 -2.188420 3.435626
0.379672 -2.260622 3.955491
0.380834 -2.270680 4.022382
0.390525 -2.354544 4.540470
0.395333 -2.396164 4.775903
0.379181 -2.255652 5.105226
0.380174 -2.263951 5.644443
0.386150 -2.316010 5.408322
0.394682 -2.389913 5.756612
0.389616 -2.345748 6.014107
0.413818 -2.555456 6.866130
0.401377 -2.447403 6.845980
0.401110 -2.444848 7.219139
0.392227 -2.367631 7.312573
0.388948 -2.338989 7.575679
0.387924 -2.329896 7.896307
0.384741 -2.301888 8.474233
0.393655 -2.379178 8.709985
0.396489 -2.403561 9.090165
0.375323 -2.219655 9.166657
0.377806 -2.240826 9.811275
0.497727 -2.043296 0.232463
0.534532 -2.242506 0.468685
0.536977 -2.255544 0.988530
0.537052 -2.255948 1.000000
0.542636 -2.285942 1.632282
0.544064 -2.293628 1.756524
0.553004 -2.341792 2.387643
0.553192 -2.342805 2.399074
0.538203 -2.261567 2.588970
0.508757 -2.101970 2.961016
0.515045 -2.135910 3.256413
0.521943 -2.173145 3.551399
0.537231 -2.255709 4.128516
0.516419 -2.143044 4.042128
0.505327 -2.082884 4.296371
0.514369 -2.131731 4.591902
0.531851 -2.226196 5.113176
0.504884 -2.080060 5.390602
0.540695 -2.273807 5.834382
0.563495 -2.397232 5.936405
0.555813 -2.355538 6.195303
0.573905 -2.453348 6.599687
0.567438 -2.418227 6.860447
0.575720 -2.462868 7.402886
0.547332 -2.309214 7.216651
0.536525 -2.250498 7.734518
0.554719 -2.348762 8.395651
0.541367 -2.276421 8.492969
0.531466 -2.222749 8.647284
0.528700 -2.207666 8.915542
0.548530 -2.314815 9.523616
0.585713 -1.811046 0.234844
0.610526 -1.907994 0.245597
0.663607 -2.115198 0.936059
0.688019 -2.210597 0.887496
0.689076 -2.214692 1.011691
0.692163 -2.226671 1.305211
0.696075 -2.241874 1.598572
0.703921 -2.272396 2.060789
0.663124 -2.112873 2.484632
0.641406 -2.027977 2.619029
0.647488 -2.051674 2.857803
0.652485 -2.071149 3.039560
0.668607 -2.133992 3.561357
0.652288 -2.070157 3.813330
0.652497 -2.070793 4.464840
0.667855 -2.130701 4.816489
0.665805 -2.122703 4.771113
0.671483 -2.144851 4.895698
0.639628 -2.020277 5.284837
0.657701 -2.090795 5.636452
0.710839 -2.298276 6.133765
0.724861 -2.352999 6.369177
0.739416 -2.409804 6.604064
0.734228 -2.389444 6.920044
0.710031 -2.294786 7.320488
0.702937 -2.266992 7.583824
0.713597 -2.308507 8.073612
0.682085 -2.185402 8.000859
0.685639 -2.199179 8.380485
0.667418 -2.127959 8.478361
0.711753 -2.300952 9.311841
0.655991 -2.083084 9.276503
0.704666 -1.767593 0.059350
0.737474 -1.867446 0.585172
0.838987 -2.176605 1.324612
0.868653 -2.267026 1.218510
0.841157 -2.183186 1.459958
0.842324 -2.186729 1.527617
0.830848 -2.151564 2.393068
0.795457 -2.043756 2.242019
0.767721 -1.959210 2.374480
0.793913 -2.038842 3.180605
0.794295 -2.040003 3.190803
0.799026 -2.054389 3.314469
0.777706 -1.989368 3.564694
0.759710 -1.934464 3.873439
0.803524 -2.067776 4.736351
0.788645 -2.022502 4.462843
0.824523 -2.131683 5.096392
0.797995 -2.050831 5.182376
0.763004 -1.944106 5.630683
0.812009 -2.093277 6.322540
0.890633 -2.332815 6.510349
0.874582 -2.283860 6.713491
0.836188 -2.166884 6.635751
0.825063 -2.132925 6.896943
0.824488 -2.131087 7.272485
0.851892 -2.214445 7.931533
0.771917 -1.970784 7.772635
0.769803 -1.964269 8.096325
0.774641 -1.978925 8.478062
0.811624 -2.091469 9.144538
0.821248 -2.120709 9.527956
0.750926 -1.906434 9.492717
0.932579 -1.995785 0.236707
0.937072 -2.006808 0.872500
0.944053 -2.024028 1.337874
0.987435 -2.131539 1.626994
0.950371 -2.039636 1.644957
0.957723 -2.057810 1.939885
0.932705 -1.995701 2.356371
0.901716 -1.918830 2.547910
0.906312 -1.930202 2.673689
0.918042 -1.959229 2.969892
0.893907 -1.899329 3.277926
0.883014 -1.872219 3.815991
0.902929 -1.921533 4.169737
0.917451 -1.957495 4.409147
0.925405 -1.977192 4.534704
0.933585 -1.997451 4.660156
0.965943 -2.077594 5.125101
0.973978 -2.097407 5.722353
0.925771 -1.977815 6.061201
0.895306 -1.902261 6.152622
0.984231 -2.122721 6.288536
0.980425 -2.113215 6.663095
0.995931 -2.151558 7.208286
0.967001 -2.079810 7.303401
0.914304 -1.949107 7.539860
0.936726 -2.004596 8.091284
0.902376 -1.919420 8.132785
0.922477 -1.969166 8.629926
0.938546 -2.008926 9.069505
0.934468 -1.998766 9.339891
0.865414 -1.827532 9.417566
0.816384 -1.705868 9.932019
0.946857 -1.653402 0.427363
0.993012 -1.747017 0.666204
1.035407 -1.833074 0.447760
1.083682 -1.930962 0.854782
1.132557 -2.030087 1.145567
1.108768 -1.981690 1.954029
1.053508 -1.869625 1.575086
1.017731 -1.796982 1.877668
1.027576 -1.816910 2.174243
1.002124 -1.765192 2.651072
0.969146 -1.698237 2.901693
1.003267 -1.767369 3.542309
1.025133 -1.811682 3.896147
1.029619 -1.820773 3.964696
1.041951 -1.845765 4.147065
1.084980 -1.932983 4.726607
1.095019 -1.953333 4.851453
1.148758 -2.062356 4.957596
1.125716 -2.015563 5.213840
1.065615 -1.893561 5.546866
1.001806 -1.764043 5.826522
1.067322 -1.896880 6.462694
1.099103 -1.961384 6.335370
1.111926 -1.987259 7.244209
1.043118 -1.847673 7.053315
1.079430 -1.921249 7.715068
1.068396 -1.898818 7.980468
1.019776 -1.800168 7.962356
1.058074 -1.877780 8.571346
1.059375 -1.880368 8.896800
1.027567 -1.815812 8.995704
1.016657 -1.793590 9.527924
0.912126 -1.581454 9.755103
1.124213 -1.701876 1.460475
1.116401 -1.688457 1.129271
1.135268 -1.720882 1.825542
1.137624 -1.724935 1.893928
1.151236 -1.748351 2.247233
1.188148 -1.811877 2.997185
1.195306 -1.824198 3.121182
1.130018 -1.711688 2.858200
1.107342 -1.672531 3.337019
1.130688 -1.712727 3.690119
1.147838 -1.742258 3.928644
1.203995 -1.838968 4.621379
1.293954 -1.994065 4.484579
1.374513 -2.132818 5.337467
1.320652 -2.039973 5.311685
1.272543 -1.957034 5.341985
1.223929 -1.873160 5.846406
1.117770 -1.690099 6.265263
1.141572 -1.731045 6.870445
1.176749 -1.791705 6.742037
1.182456 -1.801482 7.175927
1.200079 -1.831793 7.667862
1.153452 -1.751408 7.706363
1.106837 -1.671046 7.744939
1.138823 -1.726108 8.298298
1.167088 -1.774764 8.795302
1.121268 -1.695771 8.837520
1.114564 -1.684176 9.108646
1.014700 -1.511977 9.447742
0.959958 -1.417529 10.022773
1.095984 -1.431768 0.042219
1.208543 -1.600689 0.464397
1.271306 -1.694842 0.986080
1.215019 -1.610350 0.943407
1.290373 -1.723376 1.690318
1.233468 -1.637955 1.650402
1.239938 -1.647646 1.832448
1.207270 -1.598537 2.364976
1.158328 -1.525049 2.499416
1.174547 -1.549359 2.796987
1.203936 -1.593418 3.265790
1.220768 -1.618657 3.505283
1.230052 -1.632577 3.630385
1.173163 -1.547092 4.299761
1.268623 -1.690419 4.108161
1.442427 -1.951251 4.764701
1.460913 -1.978980 4.944050
1.474008 -1.998622 5.067065
1.397735 -1.884080 5.398407
1.323809 -1.773059 5.733502
1.313567 -1.757638 6.106648
1.222407 -1.620713 6.700625
1.170211 -1.542352 6.736159
1.213031 -1.606596 7.033220
1.222078 -1.620122 7.470455
1.235170 -1.639721 7.908888
1.199539 -1.586259 7.691340
1.264316 -1.683410 8.416257
1.213456 -1.607053 8.457662
1.246434 -1.656498 8.956523
1.195807 -1.580490 8.998560
1.095796 -1.430305 9.393762
0.998900 -1.284793 9.794161
1.256307 -1.440009 0.722264
1.320400 -1.523366 0.902345
1.332069 -1.538492 1.370389
1.338000 -1.546186 1.552773
1.268495 -1.455800 1.283125
1.279987 -1.470709 1.638096
1.299679 -1.496271 2.107209
1.260500 -1.445256 2.527867
1.289890 -1.483435 2.997411
1.298631 -1.494792 3.123037
1.399606 -1.626091 3.634878
1.321650 -1.524701 3.431210
1.327104 -1.531708 4.199105
1.432500 -1.668839 4.008891
1.604018 -1.891909 4.495783
1.629386 -1.924884 4.731018
1.629839 -1.925412 5.265051
1.557704 -1.831581 5.183356
1.474782 -1.723671 5.516544
1.394309 -1.618945 5.852359
1.257115 -1.440428 6.214611
1.199506 -1.365433 6.674005
1.209891 -1.378934 6.741666
1.266168 -1.452104 7.096326
1.247140 -1.427320 7.362130
1.291452 -1.484895 7.973165
1.299724 -1.495613 8.356050
1.357795 -1.571123 8.651601
1.232547 -1.408186 8.666693
1.271009 -1.458163 9.167704
1.258055 -1.441250 9.703603
1.062894 -1.187367 9.701016
1.155339 -1.112169 0.139500
1.156529 -1.113471 0.382502
1.297716 -1.271008 0.909164
1.432609 -1.421568 0.970631
1.442350 -1.432404 1.324003
1.391068 -1.375119 1.740553
1.322515 -1.298605 1.700208
1.335983 -1.313607 1.998304
1.368979 -1.350375 2.582966
1.303246 -1.277003 2.603284
1.345186 -1.323754 3.188439
1.458432 -1.450103 3.721539
1.636557 -1.648879 4.156307
1.839530 -1.875373 4.750209
1.796073 -1.826845 4.946198
1.731804 -1.755107 4.974978
1.696959 -1.716186 5.229077
1.738096 -1.762023 5.990792
1.580201 -1.585750 6.295107
1.447287 -1.437346 6.738982
1.359607 -1.339448 7.028452
1.306071 -1.279642 7.493648
1.329839 -1.306159 7.618984
1.370531 -1.351521 8.174402
1.369257 -1.350064 8.501385
1.383482 -1.365901 8.886751
1.272290 -1.241776 9.018464
1.318890 -1.293738 9.522348
1.112489 -1.063322 9.842619
1.227052 -1.033550 0.270070
1.448277 -1.249682 0.794858
1.443842 -1.245374 0.518798
1.391431 -1.194078 1.337186
1.384522 -1.187348 1.117815
1.413968 -1.216048 1.876220
1.420360 -1.222283 2.001894
1.437235 -1.238743 2.299740
1.456518 -1.257558 2.597299
1.390098 -1.192644 2.675210
1.527802 -1.327131 3.477174
1.724195 -1.518997 3.992582
1.821235 -1.613804 4.213188
1.835600 -1.627829 4.336119
1.815384 -1.608033 4.757232
1.936650 -1.726451 5.608595
1.859723 -1.651280 5.584168
1.766054 -1.559714 5.918994
1.567820 -1.365985 6.052930
1.436576 -1.237641 6.981383
1.425470 -1.226720 7.676877
1.463777 -1.264136 7.859738
1.485249 -1.285076 8.300613
1.445433 -1.246151 8.456132
1.474047 -1.274070 8.899282
1.408855 -1.210360 8.941941
1.304029 -1.107904 9.132317
1.217905 -0.882208 0.065136
1.447546 -1.077849 0.365739
1.525745 -1.144462 0.549275
1.457944 -1.086653 0.966729
1.465102 -1.092730 1.209529
1.492410 -1.115938 1.854672
1.499234 -1.121741 1.982148
1.503182 -1.125098 2.052152
1.479393 -1.104758 2.820801
1.391290 -1.029703 2.670611
1.576254 -1.187267 3.064480
1.620380 -1.224822 3.534280
1.564022 -1.176783 3.731800
1.842809 -1.414287 4.154984
0.489312 -0.260945 5.035082
0.599803 -0.355068 5.270843
0.664786 -0.410399 5.703469
0.517735 -0.285097 5.756904
1.210590 -0.875300 7.407110
1.592931 -1.201049 7.712783
1.668325 -1.265291 7.695239
1.629824 -1.232437 8.219640
1.573256 -1.184199 8.644370
1.564355 -1.176560 9.234162
1.613303 -1.218251 9.416228
1.616155 -1.220680 9.426713
1.412490 -1.047105 9.861054
1.195646 -0.736359 0.037261
1.439919 -0.916829 0.512291
1.689338 -1.101107 0.919305
1.620225 -1.050003 1.278647
1.549771 -0.997918 1.525471
1.564479 -1.008761 1.825041
1.568289 -1.011571 1.894625
1.492032 -0.955212 1.971379
1.514740 -0.971961 2.329345
1.470750 -0.939412 2.812250
1.598429 -1.033655 4.055862
1.896936 -1.254207 4.474482
1.947539 -1.291621 4.242517
1.971367 -1.309213 4.422063
2.063007 -1.376878 5.051064
1.985666 -1.319723 5.080425
2.021654 -1.346256 5.786487
1.787979 -1.173570 5.861911
1.181318 -0.725131 7.390876
1.377617 -0.870179 7.522942
1.453395 -0.926118 8.198388
1.379146 -0.871246 8.238383
1.438719 -0.915221 8.800395
1.488018 -0.951635 8.984227
1.435000 -0.912420 9.406518
1.242540 -0.654421 -0.022806
1.327379 -0.708673 0.281752
1.667742 -0.926404 0.575718
1.592990 -0.878545 0.991013
1.540495 -0.844897 1.755526
1.625117 -0.899035 1.759486
1.541617 -0.845613 1.776260
1.570860 -0.864283 2.247880
1.504655 -0.821906 2.497747
1.445429 -0.783988 2.807176
1.716911 -0.957593 3.793075
2.065360 -1.180463 4.495143
2.058719 -1.176219 4.448922
2.052147 -1.172018 4.402686
2.037975 -1.162911 4.881377
1.983929 -1.128318 5.079605
1.877880 -1.060438 5.469202
1.745258 -0.975571 5.691719
1.073299 -0.545521 7.480153
1.459727 -0.792705 7.992112
1.536594 -0.841857 8.291537
1.551929 -0.851637 8.678365
1.522877 -0.833031 8.893153
1.462245 -0.794233 8.993118
1.389576 -0.747711 9.358336
1.303326 -0.692505 9.668345
1.546614 -0.714204 0.182591
1.637217 -0.763930 0.503866
1.554066 -0.718251 0.748010
1.573088 -0.728649 1.337031
1.573564 -0.728910 1.348310
1.506579 -0.692094 1.770038
1.521217 -0.700112 2.012928
1.487607 -0.681599 2.727945
1.504433 -0.690824 2.913081
1.783439 -0.843955 3.843153
2.067085 -0.999697 3.981102
2.107430 -1.021828 4.274476
2.064336 -0.998139 4.584481
2.033789 -0.981336 4.952753
1.968500 -0.945474 5.095928
1.827896 -0.868249 5.316497
1.720778 -0.809398 5.711807
1.533420 -0.706484 6.133672
0.797970 -0.302545 7.323464
1.242758 -0.546727 8.021210
1.413442 -0.640455 7.974396
1.409388 -0.638203 8.304128
1.376345 -0.620041 8.518573
1.429051 -0.648943 9.024994
1.383571 -0.623956 9.183418
1.138140 -0.397313 0.228702
1.419527 -0.527761 0.821380
1.685811 -0.651272 0.536934
1.601517 -0.612157 0.839665
1.613211 -0.617553 1.198285
1.626418 -0.623655 1.498971
1.555697 -0.590829 1.863910
1.522353 -0.575307 2.637367
1.508593 -0.568938 2.475384
1.557342 -0.591504 3.008990
1.849415 -0.726881 3.939917
2.143531 -0.863267 4.077333
2.063389 -0.826095 4.159735
1.919294 -0.759250 4.429601
1.933813 -0.765932 5.084851
1.897915 -0.749260 5.399910
1.743623 -0.677694 5.565355
1.695771 -0.655450 6.251769
1.396396 -0.516622 6.156191
1.221569 -0.435508 6.645344
0.925359 -0.298114 6.989182
0.692106 -0.189927 7.194120
0.781597 -0.231400 7.564333
1.034551 -0.348688 7.818658
1.345135 -0.492714 7.922335
1.526218 -0.576641 8.573128
1.356532 -0.497943 8.644815
1.449643 -0.541075 9.269791
1.349006 -0.494406 9.254760
1.369904 -0.504046 9.916250
1.162259 -0.320387 0.246879
1.442318 -0.428153 0.257178
1.737581 -0.541714 1.015745
1.639364 -0.503931 0.858176
1.656432 -0.510464 1.329813
1.578108 -0.480302 1.633830
1.510917 -0.454415 2.056093
1.465290 -0.436813 2.655628
1.466156 -0.437145 2.665176
1.576311 -0.479520 2.838862
1.917500 -0.610715 4.107619
2.145676 -0.698497 4.369709
2.104660 -0.682735 4.095737
1.955629 -0.625367 4.364097
2.031406 -0.654452 5.359948
1.776988 -0.556578 5.007461
1.714000 -0.532289 5.689135
1.568511 -0.476288 5.914282
1.449733 -0.430556 6.258369
1.204847 -0.336309 6.453475
0.911326 -0.223331 6.853322
0.684425 -0.136000 7.115840
0.775210 -0.170906 7.485164
0.976232 -0.248230 7.885092
1.238845 -0.349265 8.133613
1.431385 -0.423330 8.464868
1.468336 -0.437515 8.912787
1.346768 -0.390741 8.836982
1.389505 -0.407153 9.287373
1.312257 -0.377400 9.655504
1.562561 -0.360762 0.141313
1.275946 -0.271857 0.095375
1.467388 -0.331233 0.223503
1.763443 -0.423027 0.809316
1.690071 -0.400223 1.401543
1.584957 -0.367633 1.186470
1.506383 -0.343232 1.551576
1.513491 -0.345428 1.679693
1.483466 -0.336048 2.571960
1.489833 -0.338018 2.641989
1.681054 -0.397336 2.634512
1.983166 -0.490979 3.622582
2.100360 -0.527274 4.431338
2.045577 -0.510261 4.687336
1.830822 -0.443653 4.561689
1.769176 -0.424439 5.803859
1.455859 -0.327255 5.704707
1.422440 -0.316833 6.460264
1.252885 -0.264228 6.577447
0.884343 -0.149898 6.683550
0.680062 -0.086501 7.067062
0.788364 -0.120065 7.498714
1.011293 -0.189184 7.960163
1.332542 -0.288805 8.385131
1.424090 -0.317181 8.688360
1.372913 -0.301295 8.847031
1.488438 -0.337104 9.207976
1.420867 -0.316136 9.309716
1.232623 -0.257717 9.654249
1.398062 -0.201225 0.735160
1.506647 -0.226268 1.094503
1.525618 -0.230617 1.514315
1.425938 -0.207608 1.473891
1.446914 -0.212424 1.836623
1.472681 -0.218347 2.199030
1.372020 -0.195110 2.161046
1.407364 -0.203240 2.582901
1.706778 -0.272296 3.527648
2.007107 -0.341579 4.257763
1.974261 -0.334012 4.041540
2.010765 -0.342380 4.870078
1.591568 -0.245572 5.284577
1.305393 -0.179464 5.842504
1.301861 -0.178617 6.285682
0.976245 -0.103390 7.026775
0.631707 -0.023832 7.257293
0.887685 -0.082886 7.840811
1.127990 -0.138354 7.974270
1.251964 -0.166945 8.397511
1.255217 -0.167696 8.408302
1.407581 -0.202814 9.211863
1.280144 -0.173398 9.137595
1.197809 -0.154363 9.507372
1.070801 -0.125004 10.032743
1.203286 -0.074904 0.247800
1.499158 -0.122814 0.199612
1.605775 -0.140040 0.733354
1.411903 -0.108639 0.867350
1.418073 -0.109624 1.054756
1.430848 -0.111671 1.358927
1.487671 -0.120809 2.246154
1.479374 -0.119473 2.140514
1.427438 -0.111025 2.685362
1.422899 -0.110294 2.637902
1.712660 -0.157153 3.461756
1.955739 -0.196489 3.790839
2.043816 -0.210709 4.373011
1.940058 -0.193869 4.932661
1.586548 -0.136574 5.696760
1.286900 -0.088055 5.711143
1.171859 -0.069398 6.117620
1.117856 -0.060639 6.327968
0.849436 -0.017136 6.907782
0.595014 0.024074 7.112419
0.755107 -0.001832 7.338808
0.966001 -0.035951 7.741273
1.217686 -0.076667 8.256653
1.292647 -0.088787 8.502834
1.445612 -0.113521 8.982120
1.261935 -0.083775 9.056362
1.270777 -0.085183 9.393392
1.325631 -0.094032 9.848726
1.205623 0.006961 0.251942
1.312757 -0.002953 0.732837
1.521021 -0.022268 1.031064
1.525948 -0.022717 1.159529
1.429425 -0.013750 1.234127
1.441207 -0.014826 1.479821
1.375515 -0.008689 2.024347
1.425517 -0.013289 2.621243
1.426668 -0.013395 2.633338
1.800995 -0.048051 4.049481
2.008364 -0.067302 4.088646
1.813351 -0.049192 4.130911
1.755558 -0.043766 4.983301
1.498489 -0.019845 5.735207
1.286002 -0.000086 6.162556
1.010909 0.025465 6.300436
0.764301 0.048380 6.559617
0.610393 0.062714 7.184410
0.660644 0.058062 7.377322
0.792124 0.045862 7.483763
1.058827 0.021140 8.064097
1.282413 0.000408 8.460170
1.136754 0.013923 8.325146
1.193577 0.008683 8.839344
1.254508 0.003039 9.025592
1.282820 0.000438 9.420011
1.151026 0.012711 9.942488
1.303899 0.084693 0.402554
1.406858 0.082042 0.589482
1.435917 0.081348 1.420290
1.425675 0.081597 1.199444
1.443484 0.081162 1.562605
1.383779 0.082749 2.166531
1.425703 0.081698 2.647029
1.456792 0.080915 2.951716
1.097399 0.090243 3.329307
1.914095 0.069162 4.133169
1.863455 0.070495 4.448603
1.718183 0.074278 4.783246
1.544645 0.078781 4.947396
1.417116 0.082109 5.347274
1.258953 0.086219 5.575284
1.263865 0.086127 6.076728
0.986825 0.093307 6.211872
0.853806 0.096801 6.946711
0.565633 0.104265 7.030488
0.502163 0.105919 7.186484
0.910261 0.095408 7.924345
1.061202 0.091513 8.084916
1.135338 0.089611 8.331836
1.138508 0.089530 8.342215
1.272959 0.086103 9.089875
1.296183 0.085506 9.158922
1.274312 0.086111 9.704751
1.132425 0.089797 9.900745
1.093440 0.164148 -0.021743
1.193385 0.168336 0.166807
1.396979 0.176866 0.528283
1.411591 0.177514 1.065711
1.416672 0.177735 1.193967
1.322563 0.173813 1.326877
1.357178 0.175301 1.924190
1.379920 0.176272 2.228233
1.411538 0.177618 2.590433
1.435631 0.178642 2.834536
1.635747 0.187059 3.668293
1.859162 0.196402 3.824188
1.813435 0.194518 4.194318
1.645462 0.187517 4.409489
1.439160 0.178976 5.501491
1.074004 0.163738 5.710128
0.957394 0.158896 6.118600
0.889749 0.156112 6.710080
0.676056 0.147212 7.092392
0.566687 0.142642 7.067694
0.759993 0.150741 7.413649
0.940891 0.158317 7.696227
1.134864 0.166466 8.358589
1.097651 0.164927 8.576050
1.214713 0.169842 8.940568
1.084686 0.164405 8.864223
1.071201 0.163862 9.142778
1.180465 0.247874 0.321889
1.284432 0.259237 0.625578
1.300918 0.261074 1.164728
1.331758 0.264480 1.762010
1.348271 0.266299 2.007427
1.336959 0.265053 1.842994
1.268845 0.257653 2.272041
1.300878 0.261173 2.635316
1.509157 0.283961 3.592203
1.862392 0.322522 3.966189
1.857020 0.321978 4.567072
1.606060 0.294580 4.264406
1.551516 0.288726 5.628707
1.164617 0.246526 5.721764
0.965184 0.224804 6.210944
0.712659 0.197303 6.874230
0.645826 0.190050 7.415581
0.809571 0.207929 7.640407
1.009175 0.229728 7.981469
1.022834 0.231246 8.377007
0.967711 0.225244 8.536462
1.122467 0.242160 9.021400
1.071099 0.236568 9.182524
1.081422 0.237718 9.521442
0.973699 0.226007 10.107578
1.258527 0.343609 0.035771
0.963648 0.291284 0.238469
1.266244 0.345027 0.718399
1.266541 0.345081 0.730775
1.284994 0.348395 1.271000
1.300166 0.351109 1.576422
1.322714 0.355137 1.940198
1.359968 0.361784 2.420577
1.278819 0.347394 2.617678
1.230190 0.338798 3.109971
1.140385 0.322864 3.192590
0.960025 0.290862 3.346817
1.283735 0.348334 3.557951
1.773723 0.435351 4.210503
1.715163 0.424975 4.469066
1.532538 0.392568 4.572256
1.467282 0.380999 4.776006
1.242332 0.341101 5.193305
1.035728 0.304464 5.676843
1.029808 0.303445 6.124663
0.853163 0.272100 6.238548
0.608291 0.228654 6.496001
0.439125 0.198668 7.060118
0.567528 0.221467 7.167005
0.727522 0.249881 7.392606
0.810738 0.264674 7.702203
1.114050 0.318560 8.396859
0.987479 0.296088 8.318434
0.968712 0.292777 8.595811
1.128106 0.321126 9.406764
1.141012 0.323441 9.745354
0.917731 0.283807 9.704667
0.938852 0.361889 0.049089
0.938894 0.361905 0.120715
1.134936 0.411982 0.427036
1.153464 0.416764 1.145814
1.269849 0.446511 1.564291
1.287993 0.451166 1.869298
1.314005 0.457834 2.232575
1.209394 0.431117 2.135333
1.122769 0.409009 2.273069
1.176821 0.422853 2.873942
1.372352 0.472838 3.715225
1.622516 0.536741 4.104136
1.686985 0.553231 4.519073
1.602739 0.531727 4.604389
1.423289 0.485916 4.707305
1.179512 0.423694 5.005087
0.961273 0.368002 5.426480
0.926868 0.359241 5.754154
0.880505 0.347455 6.462246
0.655826 0.290111 6.782192
0.484637 0.246410 6.901347
0.576447 0.269879 7.274213
0.673039 0.294540 7.260168
0.944132 0.363805 7.900853
1.066367 0.395045 8.326300
1.012311 0.381255 8.485023
1.051529 0.391277 8.614373
1.039164 0.388164 9.219479
0.918296 0.357322 9.472998
0.823325 0.389020 0.516401
1.204251 0.511463 0.520374
1.115582 0.482984 0.827086
1.125383 0.486157 1.132019
1.144391 0.492298 1.554461
1.158358 0.496805 1.800226
1.196516 0.509110 2.339457
1.127813 0.487050 2.652871
1.145498 0.492748 2.839943
1.082364 0.472478 3.155744
0.739381 0.362258 3.510819
1.633694 0.649787 4.415437
1.672477 0.662271 4.656396
1.477048 0.599452 4.643024
1.475856 0.599109 5.193895
1.144937 0.492724 4.967414
0.975033 0.438160 5.625051
0.850367 0.398114 5.973680
0.809851 0.385110 6.244134
0.453853 0.270692 6.403637
0.438984 0.265970 7.186721
0.548658 0.301227 7.232847
0.688581 0.346215 7.398218
0.892664 0.411844 7.799754
0.944345 0.428470 7.988415
0.957315 0.432668 8.383256
1.030564 0.456254 8.956581
0.943440 0.428253 8.998421
0.979084 0.439763 9.725448
0.864545 0.402966 9.981804
0.794186 0.444424 0.482903
1.076042 0.556919 0.666299
0.984721 0.520481 0.738935
0.995424 0.524780 1.104805
1.109368 0.570288 1.582949
1.146824 0.585280 2.181903
1.063936 0.552213 2.318872
0.981696 0.519403 2.456743
0.997748 0.525823 2.645334
1.292072 0.643356 3.654799
1.539198 0.742011 4.102330
1.601001 0.766706 4.517496
1.529522 0.738192 4.660869
1.178838 0.598296 5.367758
0.853142 0.468378 6.131133
0.724747 0.417161 6.425150
0.468933 0.315083 6.564903
0.372202 0.276513 6.984701
0.478717 0.319023 7.030959
0.733354 0.420690 7.675391
0.887900 0.482382 7.896218
0.906507 0.489813 7.965490
1.004149 0.528831 8.655447
0.972474 0.516182 8.547181
0.995909 0.525589 9.269342
0.804450 0.449184 9.284174
0.707885 0.410671 9.597621
0.940965 0.584752 0.422824
0.962555 0.595218 1.261948
0.954481 0.591311 1.037414
0.971194 0.599396 1.462644
0.987005 0.607037 1.769534
0.928512 0.578895 2.261105
0.862776 0.547250 2.577674
0.985172 0.606244 2.934552
1.288087 0.752261 3.999315
1.452607 0.831511 3.865092
1.500919 0.854814 4.222634
1.438583 0.824798 4.422611
1.112584 0.667807 5.242156
0.736501 0.486658 5.705698
0.631290 0.436003 6.116848
0.305985 0.279299 6.335470
0.323249 0.287657 6.854552
0.481252 0.363800 7.143480
0.685859 0.462409 7.608678
0.805240 0.519931 7.712018
0.932083 0.581077 8.197257
0.963964 0.596472 8.651294
0.984011 0.606135 8.721170
0.920524 0.575582 9.148787
0.771017 0.503565 9.282778
0.550195 0.447999 0.213165
0.904107 0.648675 0.693913
0.998676 0.702311 0.995894
0.929896 0.663358 1.481787
0.948565 0.673971 1.845821
0.852624 0.619568 1.684654
0.816087 0.598918 2.472710
0.841166 0.613160 2.779155
0.975359 0.689275 3.270867
1.315829 0.882346 3.943471
1.324493 0.887263 4.011288
1.406259 0.933664 4.600547
1.357445 0.906012 4.859209
1.254713 0.847809 5.312698
1.010457 0.709348 5.439285
0.916296 0.656004 5.902502
0.685698 0.525291 6.095088
0.589002 0.470506 6.508154
0.300400 0.306887 6.405109
0.305045 0.309557 6.862602
0.484586 0.411373 7.270924
0.598552 0.475990 7.375534
0.814051 0.598201 7.895291
0.846517 0.616617 8.023834
0.939255 0.669246 8.713563
0.925988 0.661747 8.990496
0.846222 0.616530 9.031756
0.842789 0.614633 9.639615
0.581410 0.466459 9.689484
0.601398 0.539479 0.071133
0.601965 0.539870 0.262139
0.776570 0.655343 0.806294
0.776834 0.655519 0.817879
0.866864 0.715056 1.063033
0.896914 0.734983 1.783133
0.904021 0.739691 1.912646
0.835870 0.694659 2.167750
0.769731 0.650958 2.424502
0.876479 0.721552 2.722858
0.804359 0.673887 2.862715
0.779020 0.657187 3.478457
1.088272 0.861670 3.979827
1.299159 1.001111 4.310366
1.332469 1.023152 4.553313
1.260083 0.975306 4.639396
1.131740 0.890485 4.918423
0.942830 0.765635 5.337196
0.861844 0.712141 5.860726
0.651716 0.573250 6.114195
0.513399 0.481826 6.289187
0.283057 0.329564 6.427840
0.288160 0.332976 6.886985
0.422014 0.421483 7.116184
0.584009 0.528604 7.462266
0.721646 0.619612 7.685543
0.795006 0.668134 7.993509
0.852450 0.706158 8.566351
0.807057 0.676163 8.725958
0.844003 0.700625 9.182524
0.739648 0.631659 9.435873
0.647673 0.570906 10.023447
0.560547 0.583490 0.326585
0.724567 0.710456 0.753461
0.885548 0.835043 0.879526
0.831270 0.793104 1.604701
0.752917 0.732471 1.623794
0.680208 0.676218 1.761891
0.719451 0.706645 2.428674
0.746781 0.727827 2.797906
0.772782 0.747975 3.107452
0.606391 0.619206 3.023960
0.718631 0.706095 3.382980
1.167217 1.053279 3.859290
1.202761 1.080812 4.162704
1.155191 1.044022 4.421768
1.203606 1.081521 4.781291
1.041273 0.955897 4.768952
0.791503 0.762654 5.263985
0.656170 0.657984 5.928357
0.457341 0.504141 6.183192
0.326463 0.402876 6.359038
0.353849 0.424120 6.937182
0.255759 0.348205 6.851710
0.394528 0.455619 7.141127
0.600420 0.615001 7.726212
0.679098 0.675886 7.710625
0.776558 0.751343 8.137174
0.923711 0.865272 8.738237
0.791163 0.762710 8.869998
0.659013 0.660457 9.002688
0.705578 0.696561 9.792154
0.536771 0.565955 10.084310
0.520051 0.620191 0.352736
0.519144 0.619370 0.186485
0.673508 0.756503 0.673280
0.763320 0.836319 1.274869
0.685219 0.766950 1.172327
0.621199 0.710124 1.485484
0.643384 0.729872 1.972680
0.647164 0.733235 2.043692
0.685028 0.766918 2.648788
0.615708 0.705364 2.729365
0.521920 0.622139 3.418851
0.740259 0.816032 3.334851
1.021623 1.065957 3.894340
1.122551 1.155611 4.123729
1.077318 1.115465 4.382932
1.064578 1.104197 4.876500
0.823395 0.890097 5.826933
0.386514 0.502126 5.963879
0.271720 0.400202 6.199152
0.306149 0.430837 6.838136
0.280869 0.408413 7.115879
0.367097 0.484994 7.163241
0.621706 0.711153 7.661848
0.636579 0.724368 7.732915
0.702831 0.783234 8.041191
0.798894 0.868585 8.466441
0.772379 0.845089 9.011023
0.692861 0.774500 9.322817
0.600368 0.692383 9.577785
0.536783 0.635975 10.227693
0.547144 0.723754 0.206060
0.476807 0.652389 0.158231
0.482940 0.658672 0.767372
0.556976 0.733804 0.954817
0.637238 0.815270 1.318688
0.655949 0.834302 1.804036
0.586406 0.763749 1.821796
0.598451 0.775994 2.070841
0.535401 0.712040 2.208798
0.573522 0.750776 2.815573
0.504487 0.680739 2.837026
0.537325 0.714098 3.265928
0.714055 0.893439 3.667672
0.929368 1.111889 3.697669
0.997139 1.180711 4.349766
1.032366 1.216481 4.651415
0.888320 1.070337 4.638072
0.578597 0.756198 5.548292
0.289146 0.462581 6.021102
0.200792 0.372978 6.378348
0.136260 0.307554 6.860935
0.382720 0.557657 7.427548
0.498270 0.674873 7.267968
0.603449 0.781638 7.815297
0.666254 0.845387 8.123072
0.690059 0.869584 8.576512
0.599336 0.777533 8.497957
0.654910 0.833973 9.072482
0.537984 0.715358 9.205307
0.478926 0.655479 9.578479
0.337391 0.511946 10.203263
0.366181 0.607454 0.158326
0.435269 0.687857 0.648783
0.507177 0.771527 1.016435
0.572619 0.847639 1.025471
0.528071 0.795900 1.695939
0.476236 0.735650 2.012733
0.482552 0.743010 2.144541
0.581981 0.858711 2.742807
0.521779 0.788704 2.824634
0.526586 0.794302 2.896644
0.567201 0.841598 3.443701
0.679502 0.972262 3.975083
0.879793 1.205207 4.002729
0.904082 1.233482 4.247956
0.918687 1.250546 4.975108
0.835360 1.153620 4.830355
0.709134 1.006881 5.423885
0.470348 0.729190 5.631628
0.329696 0.565656 6.063251
0.302458 0.534007 6.336181
0.213532 0.430617 6.633404
0.116936 0.318299 6.872816
0.335388 0.572418 7.378261
0.557529 0.830783 7.489982
0.591471 0.870278 7.678297
0.586032 0.863989 8.012492
0.643186 0.930528 8.643680
0.609081 0.890845 8.476701
0.650522 0.939132 9.317559
0.490063 0.752505 9.214152
0.456794 0.713894 9.979391
0.324952 0.632430 0.392208
0.452999 0.803787 0.997369
0.570644 0.961147 0.884378
0.457574 0.809931 1.200098
0.481366 0.841842 1.925796
0.492238 0.856414 2.175470
0.501396 0.868687 2.364696
0.445360 0.793737 2.443835
0.425402 0.767120 3.120404
0.438497 0.784658 3.310383
0.575683 0.968196 3.534329
0.718795 1.159668 3.812926
0.745183 1.195003 4.116437
0.720268 1.161718 4.494048
0.704856 1.141154 4.932135
0.725488 1.168774 5.118823
0.556933 0.943315 5.244580
0.336866 0.648959 5.450798
0.257127 0.542334 5.802090
0.237645 0.516364 6.579981
0.198219 0.463643 6.735225
0.217452 0.489386 6.867388
0.255322 0.540073 7.119950
0.448831 0.798979 7.559104
0.538035 0.918325 7.721560
0.523086 0.898360 7.997213
0.542296 0.924111 8.451730
0.543125 0.925258 8.788876
0.477822 0.837940 9.099323
0.464004 0.819521 9.650779
0.361184 0.682027 10.061399
0.285824 0.653207 0.531871
0.340674 0.737053 0.542324
0.403586 0.833290 1.088511
0.410872 0.844468 1.398117
0.409631 0.842565 1.350710
0.367847 0.778749 1.785341
0.381919 0.800307 2.155251
0.395836 0.821620 2.465236
0.411678 0.845876 2.774912
0.382397 0.801173 3.214481
0.415589 0.851974 3.702871
0.484062 0.956664 3.879358
0.621849 1.167330 4.215702
0.648554 1.208191 4.520577
0.725432 1.325737 4.749166
0.678307 1.253712 4.836745
0.499904 0.981060 5.274149
0.378956 0.796231 5.701041
0.254437 0.605938 6.074757
0.186010 0.501385 6.431945
0.073228 0.328985 6.428295
0.109781 0.384951 7.132462
0.260456 0.615307 7.396336
0.474238 0.942135 7.687321
0.476087 0.944963 7.699353
0.481465 0.953235 8.094399
0.532283 1.030954 8.401930
0.574849 1.096095 8.974588
0.516515 1.006965 9.285956
0.414900 0.851645 9.361337
0.306978 0.686718 9.709141
0.236489 0.669926 0.337137
0.235870 0.668770 0.049584
0.285884 0.758925 0.480453
0.337518 0.851979 0.789007
0.292766 0.771403 1.043013
0.304919 0.793374 1.592804
0.324654 0.829011 2.201581
0.332213 0.842653 2.392653
0.335225 0.848091 2.464538
0.358145 0.889448 2.952844
0.310513 0.803650 2.975724
0.286139 0.759807 3.417450
0.349728 0.874386 3.655708
0.479000 1.107316 4.113646
0.523640 1.187717 4.052285
0.569901 1.271136 4.650411
0.511035 1.165164 5.108178
0.358339 0.890101 5.056821
0.302817 0.790155 5.523709
0.185130 0.578206 5.835969
0.109978 0.442865 6.069582
0.049090 0.333237 6.427345
0.106294 0.436352 6.923904
0.253912 0.702316 7.306985
0.372291 0.915577 7.444993
0.389459 0.946521 7.574340
0.409994 0.983586 8.086535
0.463639 1.080270 8.451700
0.427828 1.015778 8.551108
0.420841 1.003279 9.155721
0.379814 0.929430 9.527263
0.285117 0.758899 9.876029
0.190863 0.685130 0.408143
0.065198 0.417511 0.666737
0.114078 0.521704 1.160078
0.281376 0.878012 0.977837
0.244036 0.798532 1.291962
0.304351 0.927118 2.013061
0.258804 0.830088 1.913032
0.270455 0.854967 2.282817
0.291658 0.900218 2.830674
0.260610 0.834130 3.090589
0.204376 0.714448 3.663779
0.250495 0.812689 3.721684
0.356583 1.038707 4.061484
0.439006 1.214361 4.646159
0.444080 1.225181 4.715869
0.388207 1.106240 5.115285
0.324858 0.971355 5.400538
0.262771 0.839161 5.688931
0.133627 0.564092 5.700401
0.095254 0.482447 6.236485
0.055109 0.397020 6.716905
0.056266 0.399485 6.728283
0.171470 0.644909 6.993853
0.294392 0.906780 7.313621
0.344073 1.012667 7.740063
0.363435 1.053993 8.252452
0.357291 1.040898 8.204418
0.364456 1.056225 8.599600
0.317207 0.955637 8.908532
0.297096 0.912883 9.398729
0.222546 0.754161 9.806886
0.181458 0.792053 0.575944
0.223376 0.899768 1.120362
0.194297 0.825202 1.552701
0.193347 0.822754 1.503502
0.204189 0.850680 1.991304
0.214471 0.877148 2.359381
0.224474 0.902887 2.667540
0.240431 0.943932 3.094219
0.214794 0.878168 3.354131
0.195764 0.829389 3.734973
0.238138 0.938192 3.851025
0.303417 1.105872 4.379768
0.321695 1.152854 4.685027
0.301631 1.101397 4.948628
0.226997 0.909799 4.935097
0.193109 0.822919 5.519046
0.145030 0.699561 5.868950
0.043967 0.440145 6.002144
0.028564 0.400658 6.276696
0.065052 0.494411 6.711373
0.185546 0.803831 7.214309
0.285484 1.060432 7.470362
0.322553 1.155665 7.834911
0.270434 1.021840 7.695419
0.267470 1.014297 8.029620
0.306236 1.113948 8.719787
0.259205 0.993198 8.642149
0.225971 0.907953 9.010823
0.187161 0.808384 9.322941
0.146010 0.702856 9.910202
0.066700 0.607253 0.154421
0.096685 0.702693 0.166060
0.008596 0.422435 0.664369
0.039052 0.519390 0.734676
0.161653 0.909680 1.034571
0.138180 0.835083 1.527752
0.147286 0.864180 2.016926
0.157442 0.896608 2.445929
0.154712 0.887894 2.338671
0.169983 0.936625 2.886192
0.152359 0.880619 3.266161
0.127289 0.800860 3.409278
0.139157 0.838706 3.719819
0.152080 0.879909 4.029890
0.213041 1.074093 4.679237
0.201875 1.038499 4.454279
0.155152 0.889853 4.736509
0.158846 0.901755 5.361889
0.092989 0.692243 5.791604
0.035046 0.507833 5.844383
0.008851 0.424584 6.383321
0.010302 0.429308 6.840581
0.033680 0.503789 7.153195
0.112459 0.754489 6.968999
0.174717 0.952740 7.371204
0.220075 1.097235 7.914272
0.229137 1.126183 8.365967
0.230027 1.129019 8.375651
0.230021 1.129077 8.710335
0.214652 1.080275 9.195922
0.152828 0.883501 9.209962
0.143883 0.855222 10.034165
0.074709 0.813355 0.768539
0.102120 0.926934 1.254490
0.077616 0.825497 1.151749
0.110999 0.963881 1.933224
0.084162 0.852754 1.713790
0.088946 0.872648 2.024379
0.099434 0.916212 2.572916
0.112507 0.970477 3.120443
0.097705 0.909315 3.440903
0.069653 0.793182 3.285267
0.089976 0.877483 3.953525
0.121797 1.009239 4.188243
0.142450 1.094866 4.732598
0.099036 0.915241 4.837463
0.091646 0.884772 5.224135
0.071740 0.802422 5.313925
0.037200 0.659573 5.603676
-0.016607 0.437015 5.977763
-0.013678 0.449290 6.495769
-0.022453 0.413062 6.772837
0.050121 0.713395 6.773992
0.135813 1.068195 7.391093
0.155682 1.150510 7.697877
0.168301 1.202788 7.885988
0.150545 1.129337 7.984189
0.161935 1.176723 8.821387
0.140450 1.087822 8.863530
0.119714 1.002123 9.233865
0.076098 0.821649 9.309174
0.034560 0.649875 9.717850
-0.016122 0.610586 0.107379
-0.032905 0.512023 0.118381
-0.014311 0.621534 0.851479
0.021398 0.831413 1.214977
0.020677 0.827134 1.106250
0.039684 0.938889 1.410665
0.029033 0.876589 2.022981
0.030636 0.886061 2.152923
0.038526 0.932629 2.699616
0.028187 0.872063 3.078010
0.027294 0.866795 3.029086
0.030839 0.887696 3.218672
0.045054 0.971463 3.883985
0.046713 0.981235 3.954063
0.037765 0.928814 4.276698
0.031126 0.889981 4.660636
0.036571 0.922039 4.850019
0.018629 0.816886 5.374162
-0.013979 0.625390 5.423014
-0.048642 0.422013 5.916199
-0.074538 0.270018 6.151387
-0.043298 0.453830 6.952296
0.003545 0.728902 6.830914
0.051732 1.012047 7.150365
0.076416 1.157247 7.693498
0.057971 1.048906 7.672049
0.084407 1.204397 8.214329
