1.660278 -0.551568 1.593588
1.660234 -0.761206 1.970861
1.635971 -0.582635 2.538023
1.626423 -0.601451 2.920851
1.602629 -0.436196 3.494750
1.590514 -0.357592 3.796872
1.583499 -0.618854 4.521535
1.592283 -0.945367 4.785431
1.597423 -1.292771 5.220011
1.587422 -1.347389 5.683557
1.544586 -0.825601 6.314825
1.500035 -0.327420 7.051073
1.487229 -0.289953 7.452165
1.472891 -0.272050 7.944345
1.474739 -0.554547 8.382981
1.485425 -0.904776 8.619854
1.472721 -1.054259 9.352206
1.463969 -1.000413 9.575718
1.449558 -1.028496 10.152990
1.426066 -0.849106 10.690502
1.615433 0.286963 1.307114
1.675998 -0.212530 1.507272
1.698085 -0.532213 2.240592
1.663313 -0.350977 2.632358
1.653665 -0.376708 3.106053
1.646370 -0.401582 3.490225
1.611468 -0.239537 3.978859
1.601141 -0.297680 4.632769
1.635682 -0.632495 4.986782
1.669713 -0.980546 5.422792
1.551569 -0.341749 6.643408
1.509821 -0.078232 6.893329
1.505049 -0.197541 7.639344
1.516682 -0.362214 8.007780
1.542203 -0.627529 8.355420
1.554832 -0.798490 8.717931
1.541351 -0.853569 9.471614
1.528631 -0.841049 9.873128
1.516747 -0.853448 10.363972
1.479367 -0.701868 10.992772
1.494696 0.915492 0.709200
1.584411 0.418948 1.373732
1.684345 -0.076438 1.663749
1.761719 -0.479200 2.038094
1.708486 -0.308085 2.607292
1.682235 -0.226265 2.907959
1.674281 -0.262069 3.471753
1.647428 -0.200720 3.953630
1.600276 -0.047678 4.446280
1.618689 -0.191922 4.912926
1.702979 -0.622219 5.254691
1.574240 -0.196932 6.541796
1.512007 0.021733 7.061945
1.513980 -0.025513 7.359927
1.541438 -0.233298 7.998706
1.611524 -0.608360 8.417685
1.618455 -0.700399 8.887728
1.603557 -0.683543 9.289123
1.610861 -0.765877 9.670119
1.601610 -0.797676 10.249047
1.549145 -0.626300 10.788714
1.600804 0.351911 1.500274
1.589970 0.334049 2.070389
1.731442 -0.156086 2.350379
1.694936 -0.089572 2.918423
1.661317 -0.024368 3.399368
1.658248 -0.067193 3.964102
1.657466 -0.100736 4.349680
1.657590 -0.128866 4.645716
1.688850 -0.283111 5.198182
1.663006 -0.243711 5.682403
1.582619 -0.044819 6.373412
1.533050 0.062075 6.967682
1.509449 0.110160 7.280639
1.519807 0.031511 7.757748
1.619302 -0.334316 8.180258
1.696588 -0.644880 8.790295
1.674123 -0.592189 9.014293
1.693827 -0.708935 9.570962
1.654156 -0.626803 10.083066
1.583401 -0.436956 10.533380
1.435693 -0.018809 11.240406
1.528410 0.571729 1.584738
1.560285 0.469402 1.880725
1.738519 -0.014138 2.339934
1.698658 0.064255 2.638639
1.695243 0.031174 3.201245
1.657608 0.097139 3.591865
1.660057 0.035989 4.333635
1.662415 0.008206 4.628287
1.706019 -0.142610 5.179431
1.678654 -0.115969 5.751225
1.574161 0.122956 6.083237
1.512059 0.242360 6.585445
1.528583 0.158779 7.150899
1.504743 0.189147 7.552432
1.599645 -0.089441 8.081939
1.733880 -0.465316 8.585697
1.747617 -0.521525 8.876689
1.744220 -0.562119 9.540021
1.697769 -0.482815 10.050678
1.648016 -0.388872 10.476181
1.545176 -0.184622 11.219872
1.732593 0.120783 2.518529
1.686729 0.183959 2.995852
1.687388 0.159037 3.379389
1.645182 0.220168 3.769983
1.650187 0.180955 4.243284
1.703744 0.038925 4.795526
1.714062 -0.010871 5.266582
1.685122 0.012365 5.838101
1.561551 0.241253 6.170318
1.490256 0.354213 6.672458
1.514144 0.271266 7.237383
1.536928 0.196122 7.711653
1.655448 -0.075401 8.238198
1.766122 -0.319825 8.581562
1.801878 -0.426094 9.136332
1.740409 -0.327913 9.556418
1.701458 -0.291656 10.244617
1.644955 -0.203889 10.671129
1.222285 1.174683 0.798036
1.512573 0.626062 2.051788
1.716876 0.257571 2.601375
1.666507 0.315916 3.079551
1.668724 0.296610 3.374509
1.625930 0.332773 4.033912
1.631692 0.307566 4.329100
1.699881 0.160311 4.970674
1.706235 0.138903 5.175611
1.678430 0.150076 5.836711
1.548996 0.333238 6.438052
1.460948 0.462330 6.762250
1.446252 0.451203 7.433230
1.578721 0.207762 7.874781
1.758526 -0.108373 8.204216
1.851248 -0.290847 8.741304
1.838344 -0.295175 9.227727
1.769612 -0.203299 9.648763
1.711514 -0.133923 10.161088
1.656677 -0.070138 10.676664
1.181423 1.190064 0.760948
1.344895 0.931853 1.423904
1.515577 0.672479 1.897488
1.689680 0.417020 2.185684
1.631519 0.479722 2.573389
1.635744 0.447534 3.136042
1.646301 0.402394 3.787429
1.657773 0.364351 4.259903
1.666534 0.338425 4.553880
1.686702 0.284173 5.114489
1.648908 0.314123 5.597225
1.502888 0.489023 6.196892
1.403472 0.612093 6.519817
1.433342 0.548319 6.995716
1.479770 0.453198 7.649798
1.567878 0.313572 8.016852
1.773583 0.012338 8.344677
1.824285 -0.084124 8.900432
1.870419 -0.170057 9.366797
1.814506 -0.120280 9.964034
1.675264 0.056455 10.323062
1.570238 0.172981 10.952606
1.016127 1.359695 0.715582
1.462830 0.818986 1.105461
1.586281 0.650332 1.669619
1.585336 0.623854 2.324563
1.652034 0.533238 2.617387
1.590371 0.592902 2.919121
1.539731 0.620735 3.669405
1.545204 0.605663 3.874732
1.563640 0.560333 4.437221
1.583040 0.517656 4.909850
1.615583 0.452077 5.560018
1.444095 0.635657 5.980038
1.339841 0.740680 6.391678
1.387610 0.657018 7.046869
1.404053 0.629046 7.252786
1.573112 0.412057 7.693605
1.771596 0.149598 8.394007
1.811204 0.087145 8.773081
1.799322 0.080583 9.259950
1.791225 0.069532 9.747946
1.711788 0.144929 10.171445
1.671901 0.162599 10.863371
0.968293 1.364532 0.898043
1.244896 1.067483 1.466421
1.456076 0.842729 1.847514
1.669379 0.619511 2.133951
1.530505 0.742566 2.525583
1.543484 0.701069 3.267488
1.551311 0.681908 3.562710
1.573966 0.634267 4.214311
1.595048 0.595079 4.687063
1.619983 0.552108 5.158595
1.578168 0.575101 5.641381
1.392768 0.743311 6.062250
1.280834 0.838771 6.474536
1.328258 0.769801 7.040213
1.381215 0.695373 7.604706
1.570309 0.490364 8.043501
1.762799 0.282192 8.476772
1.808006 0.222610 8.856040
1.867211 0.145743 9.322512
1.791060 0.201879 9.831591
1.636888 0.338023 10.278448
1.582992 0.368316 10.883695
0.778796 1.506637 0.769123
1.310625 1.050704 0.975952
1.611588 0.776910 1.534596
1.612085 0.759642 2.006109
1.540304 0.803189 2.481629
1.474883 0.838107 3.048514
1.488747 0.809509 3.521590
1.434340 0.835030 4.091498
1.448222 0.812787 4.386302
1.479235 0.766541 4.948515
1.497845 0.740331 5.242732
1.551735 0.668515 5.980528
1.431690 0.755170 6.388822
1.256120 0.881609 6.994314
1.304740 0.823663 7.468334
1.488394 0.659453 7.729070
1.727558 0.432749 8.428496
1.777013 0.377520 8.806820
1.841739 0.306294 9.272378
1.774145 0.342003 9.868409
1.759100 0.340389 10.268665
1.582783 0.476220 10.628916
0.804348 1.457272 0.718709
1.125822 1.213538 1.286391
1.452922 0.975157 1.575473
1.539380 0.893127 2.222529
1.464052 0.932921 2.609033
1.389213 0.975293 2.907959
1.414764 0.932743 3.648427
1.350504 0.964645 4.039496
1.621521 0.760261 4.485262
1.639687 0.737822 4.777298
1.529877 0.789373 5.534500
1.643447 0.697658 5.903352
1.442738 0.821035 6.412782
1.247177 0.940608 6.928324
1.219151 0.943886 7.417963
1.508766 0.730227 7.751809
1.662600 0.604646 8.291886
1.715887 0.554740 8.671143
1.799255 0.477955 9.225666
1.808574 0.452279 9.800446
1.713173 0.504901 10.223231
1.557744 0.595667 10.761054
1.030349 1.319507 0.578519
1.284066 1.159123 0.965548
1.454650 1.041786 1.526255
1.459191 1.021373 2.087748
1.376179 1.063220 2.297108
1.398744 1.023800 3.126806
1.324019 1.057897 3.428187
1.337434 1.040717 3.723680
1.621315 0.860776 4.172218
1.657364 0.822076 4.730222
1.606857 0.836386 5.210123
1.733042 0.748236 5.667690
1.443845 0.897819 6.276988
1.142190 1.060030 6.717070
1.219580 0.994149 7.371281
0.927976 1.150114 7.823258
1.139273 1.018430 8.086028
1.718824 0.668565 8.448792
1.720837 0.649208 9.023575
1.729914 0.625691 9.599491
1.628911 0.671276 10.022765
1.499278 0.724345 10.737886
0.748762 1.480658 0.577920
1.102622 1.290951 1.145974
1.372148 1.150720 1.438333
1.556901 1.043794 1.994198
1.389062 1.108337 2.561840
1.401225 1.090753 2.945454
1.159981 1.187942 3.615966
1.360474 1.078989 3.986100
1.827124 0.843923 4.238055
1.515557 0.975020 4.920474
1.466166 0.984454 5.402094
1.859845 0.782476 5.735429
1.551465 0.916977 6.254704
1.103886 1.110014 7.080019
1.142324 1.082272 7.376517
1.043378 1.112311 7.974786
1.203674 1.020330 8.431055
1.619078 0.808588 8.737271
1.730099 0.734949 9.380184
1.695327 0.742421 9.691924
1.574812 0.790972 10.026900
1.460140 0.822444 10.830194
0.806828 1.448444 1.182256
1.089609 1.321777 1.745043
1.379571 1.192561 2.299368
1.385228 1.184304 2.505848
1.219373 1.232142 3.078105
1.516643 1.105612 3.443721
1.926608 0.927883 4.058132
1.946928 0.911444 4.348845
1.449903 1.081895 5.139632
1.535526 1.023523 5.992866
1.405135 1.059731 6.490577
0.911380 1.235618 7.052475
1.056624 1.168132 7.424330
1.337897 1.040417 8.042916
1.476943 0.978138 8.319491
1.587472 0.916181 8.964077
1.673766 0.868874 9.430976
1.691835 0.844958 10.006663
1.570256 0.882464 10.342986
1.348640 0.947084 11.083787
0.496862 1.584707 0.521001
0.972122 1.427271 1.088491
1.262104 1.327708 1.557694
1.365584 1.283604 2.026003
1.282637 1.294742 2.500305
1.304758 1.272219 3.059921
1.510747 1.202990 3.340745
1.932369 1.060214 3.953264
1.959811 1.041347 4.329067
1.704235 1.105775 4.733952
1.583147 1.120354 5.485320
1.804970 1.046825 5.751873
1.595921 1.089571 6.432277
0.969293 1.264618 6.825590
0.940702 1.259157 7.315429
0.823120 1.279625 7.823580
1.025208 1.201432 8.459617
1.486140 1.053179 8.854319
1.557787 1.021066 9.233910
1.574852 0.999614 9.808686
1.486986 1.011171 10.319592
1.291761 1.056381 10.769353
0.856107 1.518196 0.470976
1.146486 1.446360 0.855286
1.343890 1.389285 1.411724
1.255246 1.392317 1.971381
1.265851 1.379452 2.352304
1.640390 1.257086 3.912300
1.961441 1.179728 4.263179
1.790511 1.207158 4.569143
1.665552 1.212613 5.315779
1.872260 1.166568 5.406940
1.751728 1.173461 6.068665
1.157549 1.277842 6.808762
0.825649 1.335298 7.252581
0.720425 1.340779 7.849488
0.993271 1.271114 8.288214
1.462947 1.161256 8.682903
1.439298 1.155111 9.081337
1.456068 1.135516 9.656880
1.518144 1.114344 9.947328
1.281643 1.143617 10.681619
0.427058 1.614449 0.729806
1.022040 1.534636 0.933991
1.420908 1.474556 1.309717
1.233846 1.480081 1.956364
1.050158 1.489900 2.431714
1.528835 1.389896 3.896213
1.854988 1.339592 4.246206
1.706644 1.342491 4.812837
1.547320 1.351451 5.209065
1.817210 1.300923 5.822040
1.558059 1.324261 6.148116
0.945684 1.382653 6.800875
0.721733 1.396337 7.318222
0.602128 1.397311 7.824630
0.797763 1.357910 8.369741
1.339449 1.284894 8.568459
1.350330 1.267753 9.141830
1.312965 1.263865 9.452329
1.396411 1.230351 10.291789
0.090778 1.651084 0.784031
0.692584 1.613861 1.255311
0.896554 1.597705 1.544521
1.110042 1.574003 2.095684
1.123731 1.563109 2.473903
1.160217 1.541653 3.204723
1.610316 1.503665 3.928404
1.855686 1.479275 4.457579
1.493771 1.482655 4.869333
1.136110 1.485669 5.288166
1.587017 1.456034 5.705142
1.459725 1.445463 6.280085
0.833420 1.455340 6.845313
0.595394 1.453279 7.272833
0.439334 1.435490 8.154387
0.722906 1.412098 8.590532
1.154391 1.391191 8.716953
1.248091 1.374677 9.182378
1.268945 1.358147 9.756152
1.256868 1.347728 10.155128
1.097529 1.337119 10.778898
0.557562 1.666014 1.225348
0.763799 1.664235 1.604839
1.076217 1.664660 2.065593
0.990701 1.650630 2.448394
1.128177 1.636503 3.174675
1.810048 1.635365 4.255873
1.555215 1.611407 4.743650
1.217070 1.581100 5.336618
1.449632 1.583532 5.602225
1.322342 1.562479 6.178207
0.709318 1.519049 6.832121
0.501224 1.493764 7.439684
0.369079 1.476832 7.857540
0.552463 1.471996 8.313985
1.070136 1.477945 8.885636
1.148403 1.470859 9.264135
1.132669 1.459287 9.663409
1.218227 1.452521 10.041295
1.199529 1.430542 10.816697
0.515061 1.722374 1.092871
0.721414 1.735355 1.560613
0.936146 1.747092 2.111687
0.860950 1.722270 2.671058
0.980710 1.726988 3.044799
1.430025 1.732872 4.876201
1.196034 1.687515 5.458699
1.363911 1.693741 5.996676
1.231698 1.663689 6.486466
0.713420 1.583476 7.041051
0.496155 1.541982 7.559348
0.351287 1.514798 7.887349
0.534750 1.525259 8.342447
0.971354 1.561322 9.019792
1.051186 1.560913 9.398031
1.114842 1.560912 9.687810
1.166538 1.549153 10.350274
1.066314 1.524905 10.774843
0.269968 1.753030 0.540356
0.275040 1.735919 1.191553
0.476343 1.770094 1.482468
0.786158 1.819844 2.032226
0.793971 1.815830 2.234824
0.815758 1.807383 2.701443
1.637319 1.929825 4.499060
1.412188 1.864052 5.160763
1.154339 1.800912 5.481886
1.018876 1.758828 5.969899
0.902006 1.718089 6.549679
0.586153 1.637024 7.076344
0.388645 1.578568 7.683869
0.392380 1.563212 8.262136
0.674336 1.610367 8.695142
0.828633 1.635203 8.966829
0.964978 1.645935 9.608638
1.125207 1.672140 9.875940
1.043372 1.640731 10.385179
-0.162307 1.682223 0.593385
0.415882 1.843309 0.980293
0.716425 1.914511 1.621055
0.725550 1.908942 1.911753
0.657119 1.870151 2.558078
0.688634 1.863711 3.113176
1.505922 2.058386 4.818809
1.282724 1.953844 6.155651
0.888210 1.818733 6.775729
0.597494 1.714625 7.392137
0.190284 1.580149 7.857364
0.181139 1.563429 8.348486
0.553194 1.662353 8.763500
0.760228 1.708705 9.299507
0.954467 1.753864 9.743757
1.019791 1.765068 10.032927
0.849957 1.699295 10.566837
-0.300810 1.661898 0.634450
0.450148 1.941235 1.107309
0.647198 2.004503 1.573419
0.573507 1.959349 2.132054
0.489353 1.920412 2.339377
0.529258 1.914530 3.071257
0.635486 1.950213 3.268799
1.401225 2.210195 4.598485
1.264558 2.142808 5.076820
1.144030 2.079064 5.645783
1.031196 2.018191 6.219290
0.821132 1.921351 6.724777
0.433466 1.754060 7.268016
0.037568 1.585861 7.732623
0.028568 1.567926 8.224399
0.424219 1.704996 8.818032
0.664407 1.791373 9.070435
0.779986 1.820263 9.624128
0.993101 1.887954 10.153267
0.290008 1.969623 1.217437
0.474521 2.053810 1.418994
0.399529 2.002826 1.888417
0.338176 1.953097 2.536072
0.354116 1.952002 2.828629
1.206317 2.317457 4.527967
1.103527 2.244773 5.263506
1.147381 2.254964 5.634218
1.016592 2.178884 6.030780
0.749245 2.027052 6.720299
0.274304 1.780331 7.188685
-0.092712 1.583906 7.740291
-0.052513 1.580530 8.498273
0.282393 1.734589 8.822863
0.531761 1.846347 9.161630
0.608580 1.872483 9.538630
0.852903 1.970715 10.240966
-0.383782 1.690346 0.825838
0.246422 2.027587 1.846548
0.261892 2.024663 2.225379
0.199077 1.972904 2.696630
1.070342 2.412774 4.940489
1.025051 2.374183 5.320439
1.026105 2.351819 6.046178
0.819713 2.217752 6.457789
0.519382 2.030725 6.802234
0.289827 1.871094 7.592187
-0.071703 1.644353 8.057389
-0.090554 1.620641 8.457127
0.264298 1.812919 8.956509
0.505348 1.943631 9.292637
0.635465 1.999770 9.929394
0.568285 1.944301 10.436988
-0.022453 1.990755 1.216060
0.230914 2.159277 1.502441
0.083850 2.040204 1.972837
0.023075 1.981770 2.443575
0.038385 1.982795 2.735132
0.844195 2.483653 4.697526
0.791419 2.436736 4.991700
0.769385 2.402751 5.545703
0.775794 2.382941 6.273954
0.595185 2.239260 6.775199
0.326429 2.035803 7.211161
-0.179524 1.663718 7.704296
-0.344950 1.529951 8.228234
0.070786 1.805980 8.712820
0.298767 1.954920 9.051279
0.403630 2.010228 9.602256
0.514657 2.069925 10.151567
0.375688 1.954460 10.684306
-0.263794 1.919022 1.159192
-0.093517 2.041263 1.711668
-0.078766 2.040095 2.090193
-0.056834 2.041793 2.556408
-0.019859 2.049794 3.197866
0.648638 2.549457 4.811308
0.627486 2.512187 5.363777
0.602279 2.474534 5.832028
0.516413 2.382714 6.402125
0.273797 2.162125 6.920388
-0.101639 1.826267 7.567868
-0.318310 1.623443 8.194484
-0.045855 1.842038 8.431593
0.347352 2.152819 8.905809
0.307761 2.111991 9.126273
0.333870 2.113487 9.696034
0.309470 2.068939 10.377115
0.071850 1.857298 10.760775
-0.421455 1.889980 1.196452
-0.261585 2.026317 1.748392
-0.171581 2.097254 2.210829
-0.153482 2.100625 2.587911
-0.203890 2.036302 2.970281
0.419918 2.557783 5.397705
0.388755 2.512414 5.780233
0.310204 2.413197 6.349491
0.145270 2.234787 6.764663
-0.086522 1.989712 7.200652
0.002192 2.052632 7.839015
0.071083 2.102779 8.301205
0.157908 2.167296 8.849406
0.220196 2.214354 9.222514
0.246921 2.218914 9.790191
0.125259 2.078794 10.318551
-1.248973 1.090256 0.626354
-0.193264 2.300403 1.468227
-0.241299 2.224104 1.932586
-0.285783 2.151903 2.399102
-0.326693 2.083830 2.867713
-0.304987 2.093523 3.244496
-0.140449 2.265011 3.780905
-0.356696 1.985183 4.364567
-0.276309 2.071891 4.557390
0.171476 2.572431 5.216271
0.126406 2.510379 5.426185
0.117686 2.476595 5.982259
0.006929 2.313789 6.742351
-0.127702 2.133530 7.248785
-0.154374 2.089229 7.552415
-0.080323 2.153424 8.101131
-0.001435 2.223384 8.648465
0.005804 2.211657 9.128202
-0.060109 2.116329 9.543636
-0.075312 2.085341 9.852435
-0.105571 2.024506 10.447224
-0.609723 1.958909 1.065291
-0.357746 2.279785 1.610961
-0.399033 2.201489 2.075636
-0.441221 2.125911 2.455079
-0.476607 2.055532 2.923799
-0.450135 2.070354 3.388042
-0.303499 2.251002 3.836628
-0.394151 2.108279 4.228078
-0.279153 2.233121 4.942460
-0.013946 2.582236 5.271383
-0.029800 2.538706 5.739867
-0.059883 2.483556 6.037521
-0.157691 2.313875 6.797886
-0.240739 2.185024 7.115564
-0.254045 2.148596 7.506466
-0.242741 2.137849 8.072553
-0.250502 2.108935 8.465717
-0.173937 2.188674 9.014152
-0.136671 2.209457 9.669474
-0.191883 2.114169 10.087972
-0.244463 2.022368 10.509304
-0.977876 1.560303 1.043206
-0.862890 1.729458 1.421383
-0.687684 1.988736 1.968496
-0.624093 2.078288 2.253686
-0.607211 2.086308 2.629130
-0.579173 2.103497 3.179023
-0.541786 2.131496 3.815669
-0.482968 2.222662 3.920881
-0.491025 2.175587 4.564467
-0.449221 2.215517 5.112301
-0.359726 2.339084 5.560541
-0.326818 2.373634 5.932464
-0.428656 2.175361 6.519434
-0.442045 2.132917 6.908142
-0.323007 2.296135 7.526031
-0.321085 2.274256 8.002409
-0.326872 2.244192 8.393366
-0.330632 2.217399 8.785495
-0.308860 2.223322 9.353724
-0.282841 2.236173 9.923019
-0.341274 2.122594 10.256258
-1.385347 0.943935 0.498303
-0.929181 1.833009 0.882994
-0.731816 2.189099 1.517166
-0.760137 2.104087 1.981293
-0.785983 2.023894 2.447570
-0.777091 2.029401 2.648581
-0.736562 2.060870 3.460623
-0.725403 2.070931 3.661344
-0.658976 2.181406 4.028215
-0.612085 2.231156 4.749351
-0.591825 2.254188 5.035760
-0.594701 2.214337 5.593870
-0.645352 2.083305 6.080066
-0.664719 2.026152 6.381376
-0.519371 2.279940 6.986752
-0.518532 2.252579 7.462054
-0.505961 2.243308 8.025433
-0.499481 2.227068 8.503464
-0.490395 2.215962 8.982731
-0.478695 2.210018 9.463165
-0.486335 2.175915 9.771207
-0.490145 2.126708 10.451869
-1.459085 0.827712 0.457491
-1.072784 1.749702 1.021348
-0.912910 2.120943 1.395497
-0.928278 2.035599 2.036129
-0.954212 1.949342 2.330152
-0.930782 1.967197 2.882977
-0.904522 1.992140 3.435400
-0.875436 2.024167 3.987316
-0.868974 2.031788 4.103076
-0.788850 2.179118 4.818177
-0.764458 2.212393 5.193615
-0.756774 2.184040 5.841003
-0.815008 2.022065 6.069176
-0.735958 2.179839 6.605495
-0.661656 2.332394 7.051614
-0.658103 2.306276 7.528186
-0.672225 2.221943 8.197360
-0.672007 2.193585 8.591161
-0.652430 2.200695 9.159463
-0.657887 2.164372 9.468923
-0.652876 2.147719 9.866105
-0.651868 2.100167 10.548231
-1.244194 1.559744 0.976874
-1.101684 1.947281 1.787477
-1.114649 1.861814 2.254710
-1.107013 1.867824 2.457127
-1.077126 1.897460 3.183456
-1.068114 1.907958 3.385633
-1.017157 2.031099 3.841724
-0.979976 2.084751 4.564516
-0.968938 2.101929 4.765626
-0.926869 2.171607 5.486781
-0.990111 1.928012 5.898620
-0.959735 1.983671 6.361720
-0.876483 2.221914 6.707575
-0.849779 2.274005 7.080628
-0.859260 2.181436 7.746263
-0.858131 2.148762 8.137810
-0.827446 2.213727 8.511407
-0.837253 2.127450 9.097862
-0.824202 2.125112 9.579648
-0.792839 2.166066 10.235706
-0.876711 1.858220 10.618058
-1.364288 1.450860 1.175795
-1.270445 1.843757 1.459743
-1.255845 1.851408 1.922027
-1.261343 1.766648 2.388180
-1.237750 1.792998 3.025899
-1.226376 1.808170 3.314043
-1.199657 1.848930 3.950880
-1.161873 1.974942 4.316811
-1.131825 2.031306 4.950707
-1.117540 2.060028 5.236962
-1.140038 1.906384 5.633763
-1.126279 1.886395 6.282150
-1.058338 2.141950 6.713656
-1.041367 2.183082 6.998974
-1.033829 2.156915 7.473152
-1.028407 2.085373 8.226452
-1.003166 2.153234 8.598539
-1.003689 2.111812 8.903714
-0.991120 2.108002 9.383016
-0.970718 2.128813 9.949922
-0.988766 1.967537 10.565529
-1.471827 1.432691 0.936894
-1.418847 1.732846 1.398415
-1.399604 1.745412 2.035448
-1.400808 1.658487 2.414803
-1.382395 1.682602 2.965527
-1.366130 1.708710 3.428583
-1.355643 1.727661 3.716879
-1.318496 1.875609 4.344642
-1.307165 1.901108 4.631677
-1.281162 1.964749 5.265406
-1.290957 1.810100 5.662658
-1.274483 1.855993 6.037027
-1.232736 2.039935 6.656555
-1.223617 2.010464 7.130846
-1.196732 2.098879 7.676003
-1.199271 2.035437 7.892627
-1.188101 2.020660 8.369824
-1.149515 2.160930 9.087178
-1.153667 2.044962 9.500940
-1.144818 2.029921 9.895191
-1.154872 1.846298 10.424036
-1.574368 1.309213 1.320702
-1.553701 1.515263 1.693701
-1.537853 1.530884 2.244127
-1.526556 1.454306 2.799311
-1.520530 1.464664 3.000396
-1.501567 1.592045 3.457214
-1.479688 1.731421 3.998327
-1.465105 1.770653 4.458665
-1.453086 1.806381 4.831737
-1.429406 1.885250 5.551068
-1.427978 1.645311 6.048755
-1.416500 1.770900 6.235237
-1.391393 2.033560 6.665482
-1.376858 2.018785 7.224300
-1.368127 1.981969 7.611893
-1.349654 1.996682 8.259964
-1.343559 1.953073 8.563758
-1.327510 1.965199 9.128009
-1.307675 2.004771 9.779728
-1.300891 1.972855 10.087010
-1.299088 1.770186 10.529235
-1.679705 1.172614 1.256164
-1.673962 1.381076 1.715559
-1.659516 1.398211 2.264610
-1.647566 1.418438 2.726038
-1.633588 1.449413 3.274495
-1.622036 1.481270 3.735276
-1.616288 1.610582 4.100211
-1.603697 1.544192 4.481479
-1.588489 1.608655 5.115017
-1.576149 1.552009 5.498776
-1.559873 1.521888 6.058285
-1.560565 1.758928 6.316403
-1.551972 1.937834 6.844726
-1.538254 1.912189 7.315990
-1.524681 1.892171 7.788658
-1.511256 1.877807 8.262663
-1.497983 1.869127 8.737938
-1.484863 1.866157 9.214413
-1.470181 1.888545 9.778379
-1.460788 1.856976 10.084309
-1.440459 1.676238 10.611988
-1.795046 1.336413 1.635881
-1.783902 1.350480 2.100158
-1.765750 1.262644 2.391934
-1.755633 1.285334 2.855003
-1.742716 1.325293 3.492320
-1.734078 1.360623 3.954626
-1.737718 1.500165 4.407426
-1.721389 1.429249 4.703876
-1.700221 1.399787 5.350125
-1.672917 1.237307 5.661693
-1.675855 1.432379 6.372940
-1.696259 1.670826 6.630872
-1.692665 1.728324 7.002686
-1.676400 1.720951 7.563292
-1.662066 1.689444 7.952429
-1.647270 1.695471 8.515798
-1.633359 1.709469 9.080402
-1.620478 1.712062 9.559704
-1.608233 1.720421 10.040088
-1.895677 1.188193 1.809278
-1.868128 1.103543 2.189505
-1.859432 1.124785 2.654382
-1.849211 1.162659 3.293587
-1.844144 1.189603 3.669180
-1.859569 1.317686 4.036366
-1.833968 1.279496 4.680758
-1.832553 1.300328 4.881298
-1.809580 1.275582 5.528022
-1.788730 1.237477 6.002463
-1.828322 1.483418 6.349557
-1.849043 1.648620 6.793526
-1.831191 1.625315 7.266778
-1.815107 1.623044 7.827770
-1.801523 1.645446 8.476421
-1.784123 1.588941 8.694745
-1.773269 1.625328 9.345967
-1.738477 1.497356 9.674743
-1.746944 1.603449 10.133581
-1.679603 1.356403 10.774597
-1.992952 1.019567 1.520388
-1.954659 0.941222 2.074449
-1.947377 0.961809 2.539037
-1.914811 0.886409 2.921405
-1.937996 1.012296 3.380179
-1.962697 1.143192 3.836288
-1.961308 1.175438 4.211579
-1.933273 1.133053 4.768804
-1.906911 1.088076 5.240893
-1.855006 0.964348 5.814369
-1.888520 1.133806 6.350840
-1.951844 1.404986 6.868341
-1.929062 1.355553 7.169392
-1.940113 1.447767 7.714123
-1.925609 1.452883 8.276156
-1.908187 1.430920 8.666731
-1.897366 1.449084 9.231284
-1.876457 1.398152 9.451279
-1.868673 1.427098 10.018142
-2.066391 0.857978 1.748642
-2.022859 0.786035 2.303184
-2.018971 0.804810 2.680315
-2.016843 0.821489 2.969961
-2.014857 0.858673 3.521289
-2.051545 1.003682 4.150805
-2.019018 0.954323 4.622276
-1.952854 0.817373 5.106286
-1.924239 0.778669 5.582424
-1.933128 0.837795 6.046827
-2.052718 1.191679 6.554486
-2.093640 1.313650 6.739621
-2.077695 1.321404 7.386082
-2.055508 1.292925 7.775169
-2.041828 1.300225 8.338212
-2.030965 1.315038 8.902524
-2.009638 1.282471 9.209014
-2.003134 1.308939 9.775681
-1.989199 1.302642 10.170693
-1.917425 1.161193 10.788206
-1.382308 -0.951676 0.711451
-1.959416 0.330636 1.476223
-2.122195 0.707921 1.933948
-2.074487 0.641815 2.489892
-2.072756 0.662480 2.867966
-2.072710 0.692357 3.333134
-2.075644 0.734198 3.885152
-2.079520 0.766786 4.262371
-2.087917 0.820232 4.813330
-2.057162 0.790713 5.374962
-1.937473 0.556010 5.701186
-1.996557 0.717094 6.241942
-2.179071 1.127649 6.561654
-2.158696 1.120147 7.120770
-2.133296 1.090871 7.508605
-2.109478 1.065054 7.897695
-2.139116 1.163456 8.442046
-2.135475 1.197530 9.091557
-2.118207 1.185892 9.483491
-2.067035 1.108903 9.985386
-2.060238 1.125404 10.466800
-1.202211 -1.237522 0.598441
-1.592878 -0.539558 0.899790
-2.079931 0.340220 1.450496
-2.173700 0.529053 1.910786
-2.120814 0.462484 2.378281
-2.120272 0.482249 2.755381
-2.123397 0.522783 3.394155
-2.130187 0.564884 3.945091
-2.133627 0.581972 4.146990
-2.150174 0.650605 4.871104
-2.158604 0.681147 5.159503
-2.031962 0.497215 5.832466
-2.043823 0.533817 6.122228
-2.213707 0.853244 6.542992
-2.228190 0.894259 6.829847
-2.219654 0.919727 7.564643
-2.194144 0.896677 7.955132
-2.176737 0.892580 8.433362
-2.218185 0.994844 8.979036
-2.165266 0.934805 9.566457
-2.149511 0.929032 9.961744
-2.135691 0.926693 10.358051
-1.937490 0.612961 10.940262
-2.155906 0.254442 1.594658
-2.152374 0.271665 2.058743
-2.152148 0.297886 2.610020
-2.100527 0.253964 3.254408
-2.161500 0.356110 3.536966
-2.172840 0.399068 4.087076
-2.183060 0.431986 4.462431
-2.201647 0.485416 5.011424
-2.107438 0.371968 5.496207
-2.073029 0.344924 5.972091
-2.211225 0.566562 6.407542
-2.290271 0.698622 6.766354
-2.314842 0.752230 7.138647
-2.291587 0.741336 7.613580
-2.271538 0.735164 8.089879
-2.278333 0.780531 8.826993
-2.258000 0.769925 9.219812
-2.248905 0.779851 9.700119
-2.243092 0.794594 10.181488
-2.139838 0.674406 10.799044
-2.232532 0.154407 1.642354
-2.230807 0.172310 2.106288
-2.169134 0.117143 2.574529
-2.171926 0.133064 2.864555
-2.179179 0.161962 3.329043
-2.197381 0.215505 4.054733
-2.206979 0.239713 4.344039
-2.165715 0.213463 4.904483
-2.183537 0.251482 5.281051
-2.077376 0.139030 5.681507
-2.122616 0.225660 6.408301
-2.325645 0.480616 6.567331
-2.360205 0.542689 7.027320
-2.335372 0.532869 7.503203
-2.322329 0.541245 8.066920
-2.314346 0.555862 8.631963
-2.292057 0.545594 9.025353
-2.302997 0.587121 9.678187
-2.287126 0.584749 10.072833
-2.237860 -0.028376 1.609649
-2.168215 -0.078821 2.163559
-2.172125 -0.056494 2.627765
-2.176456 -0.040614 2.917089
-2.191162 -0.000236 3.555369
-2.200153 0.020464 3.844281
-2.217607 0.056793 4.307290
-2.173956 0.033542 4.867010
-2.130461 0.007093 5.341381
-2.015877 -0.095994 5.742277
-2.124162 0.037561 6.281495
-2.360805 0.296133 6.613975
-2.400605 0.355495 7.073206
-2.375372 0.348024 7.548440
-2.382513 0.384393 8.284251
-2.357015 0.373356 8.675845
-2.323389 0.350528 8.982112
-2.314035 0.359729 9.462429
-2.320953 0.389258 10.030297
-2.265570 0.355114 10.622493
-2.152679 -0.273166 1.759272
-2.153139 -0.265458 1.960065
-2.158278 -0.240919 2.510369
-2.094028 -0.277210 3.066045
-2.182603 -0.182701 3.522653
-2.207785 -0.137409 4.158903
-2.142337 -0.187364 4.367947
-2.183052 -0.125224 5.091793
-2.139430 -0.146372 5.565071
-2.011460 -0.247540 5.877843
-2.191217 -0.076744 6.227050
-2.381315 0.106139 6.658582
-2.435020 0.173167 7.202721
-2.420097 0.180425 7.763029
-2.411117 0.192960 8.324723
-2.384919 0.184117 8.714992
-2.361591 0.177840 9.106402
-2.379999 0.217738 9.758143
-2.378270 0.233679 10.238149
-2.219626 0.110271 10.681143
-1.250054 -1.137098 0.599703
-1.646269 -0.832335 0.894812
-1.882315 -0.637889 1.449038
-2.043145 -0.505540 1.822664
-2.126552 -0.430789 2.195992
-2.136291 -0.404803 2.746510
-2.149191 -0.379449 3.209371
-2.162818 -0.356536 3.584676
-2.107799 -0.378472 4.142430
-2.128450 -0.350325 4.518000
-2.243771 -0.246198 5.056941
-2.125411 -0.314780 5.628468
-2.013574 -0.378355 6.204535
-2.263329 -0.190103 6.277305
-2.486487 -0.003590 6.880089
-2.378998 -0.066883 7.369464
-2.355590 -0.068105 7.844976
-2.325016 -0.077560 8.235246
-2.348070 -0.035296 8.972990
-2.312831 -0.051083 9.279221
-2.400787 0.032885 9.823902
-2.385862 0.035198 10.217915
-1.150453 -1.233211 0.721844
-1.741775 -0.858097 0.925276
-2.078291 -0.633499 1.386651
-2.166512 -0.558089 2.021143
-2.085980 -0.598919 2.312060
-2.094271 -0.581678 2.687140
-2.118737 -0.543123 3.411199
-2.140170 -0.514902 3.872891
-2.071107 -0.548438 4.168365
-2.033760 -0.548087 4.902460
-2.140164 -0.472856 5.179286
-2.086831 -0.493680 5.565071
-2.045052 -0.504444 6.039662
-2.279597 -0.338710 6.646830
-2.406446 -0.248171 7.003361
-2.390468 -0.240106 7.563292
-2.368918 -0.238251 8.038219
-2.268619 -0.284821 8.533604
-2.340302 -0.225390 8.991910
-2.348221 -0.202264 9.557003
-2.315497 -0.212787 9.863764
-2.317395 -0.196129 10.344537
-1.993765 -0.379174 10.924576
-1.048327 -1.330217 0.463876
-1.664423 -0.999477 0.935626
-2.018729 -0.800787 1.483314
-2.109542 -0.745438 1.767719
-2.029208 -0.769741 2.319228
-2.041650 -0.749187 2.780629
-2.070689 -0.712082 3.503567
-2.090262 -0.690569 3.876978
-2.018616 -0.718306 4.171436
-1.974554 -0.721099 4.817074
-2.108874 -0.635646 5.354548
-2.055400 -0.651274 5.739554
-1.837960 -0.747518 6.240218
-2.066980 -0.616637 6.673999
-2.366221 -0.455663 6.913918
-2.361713 -0.438163 7.559242
-2.340195 -0.434657 8.033153
-2.222270 -0.482673 8.440800
-2.312289 -0.419760 8.984815
-2.321824 -0.397546 9.548898
-2.321525 -0.383001 10.027596
-2.204283 -0.433044 10.357829
-1.667303 -1.081940 1.439747
-1.946134 -0.961266 1.635984
-1.951323 -0.948020 2.011966
-1.970567 -0.918663 2.737297
-1.892953 -0.939371 3.118696
-1.911008 -0.920815 3.494996
-1.955093 -0.881216 4.220572
-1.989606 -0.853325 4.683340
-2.013600 -0.834934 4.971244
-2.056147 -0.803759 5.433133
-1.910575 -0.851935 5.832466
-1.880939 -0.847478 6.396620
-2.110634 -0.742614 6.742934
-2.263582 -0.666471 7.187311
-2.251660 -0.654780 7.749306
-2.232876 -0.648432 8.226114
-2.234570 -0.631051 8.790792
-2.195230 -0.638217 9.096847
-2.242796 -0.596751 9.837063
-2.120683 -0.637272 10.168377
-1.987470 -0.671294 10.874483
-1.100506 -1.392494 0.498198
-1.286652 -1.319452 0.973170
-1.574080 -1.211734 1.529904
-1.862276 -1.114099 1.726487
-1.873798 -1.094599 2.278265
-1.885834 -1.079952 2.655064
-1.823449 -1.078868 3.387358
-1.750366 -1.091170 3.771951
-1.883698 -1.033004 4.316098
-1.906677 -1.017376 4.605281
-1.939580 -0.996086 4.981462
-1.975857 -0.973730 5.357270
-2.055290 -0.927635 6.080482
-1.818151 -0.991380 6.497396
-1.892290 -0.951903 7.048786
-2.122368 -0.871102 7.305253
-2.127309 -0.850855 7.956353
-2.111646 -0.842119 8.435380
-2.163006 -0.817492 8.722467
-2.207365 -0.782113 9.462429
-2.209040 -0.767774 9.943842
-2.123524 -0.780561 10.449935
-1.077620 -1.444010 0.914917
-1.468003 -1.342984 1.295213
-1.670134 -1.280707 1.847655
-1.776805 -1.245473 2.223644
-1.796564 -1.225426 2.775511
-1.726468 -1.226009 3.333361
-1.646520 -1.236183 3.630537
-1.678560 -1.215704 4.096408
-1.626440 -1.211996 4.658936
-1.758434 -1.171129 5.026749
-2.096737 -1.080786 5.455987
-2.073938 -1.067936 6.102499
-1.736158 -1.134045 6.533257
-1.813797 -1.100606 7.084913
-2.091084 -1.021937 7.601495
-2.042461 -1.024648 7.906223
-2.011479 -1.020812 8.298804
-2.050944 -0.990905 9.039628
-2.090906 -0.976027 9.240325
-2.147488 -0.942144 9.981671
-2.061763 -0.947785 10.488185
-0.657614 -1.581776 0.557764
-1.051844 -1.516569 0.855632
-1.352615 -1.455281 1.500999
-1.559722 -1.412544 1.964731
-1.676512 -1.380471 2.515147
-1.594231 -1.381775 2.898834
-1.520762 -1.379337 3.371930
-1.551363 -1.362077 3.836995
-1.594661 -1.340578 4.389193
-1.431497 -1.353221 4.785638
-2.011722 -1.247720 5.569336
-1.991773 -1.232786 6.214886
-1.822486 -1.250970 6.442627
-1.692507 -1.256190 6.934235
-1.792223 -1.224198 7.571098
-1.855690 -1.204688 7.945607
-1.971353 -1.170469 8.579651
-1.912827 -1.172873 8.799057
-1.926862 -1.155180 9.366603
-2.045448 -1.122964 9.912761
-1.882804 -1.129478 10.528556
-0.427298 -1.637479 0.511608
-1.225650 -1.570052 1.160997
-1.529792 -1.540893 1.535230
-1.540486 -1.527517 1.999673
-1.357103 -1.525985 2.472375
-1.378650 -1.511880 2.938742
-1.317556 -1.497933 3.587155
-1.537452 -1.476711 3.862861
-1.383940 -1.470670 4.432437
-1.419363 -1.458134 4.809982
-2.072713 -1.404247 5.294162
-1.996438 -1.403228 5.504704
-1.965251 -1.389910 6.062194
-1.731825 -1.390704 6.563605
-1.532229 -1.384442 7.245991
-1.510522 -1.372646 7.726307
-1.659353 -1.355971 7.997349
-1.663382 -1.340181 8.565111
-1.675477 -1.323856 9.134098
-1.793109 -1.301535 9.682364
-1.663220 -1.300532 10.014146
-0.091662 -1.656415 0.750857
-0.794231 -1.657253 1.222454
-1.100314 -1.652950 1.598724
-1.207408 -1.647155 1.887387
-1.230606 -1.630070 2.529313
-1.244473 -1.622405 2.819775
-1.171319 -1.608079 3.291818
-1.599778 -1.574273 4.835421
-1.928439 -1.573719 5.090640
-1.871516 -1.562171 5.472640
-1.876313 -1.539976 6.288410
-1.646314 -1.521776 6.790124
-1.309773 -1.503285 7.226328
-1.303955 -1.487651 7.794407
-1.552288 -1.485599 8.047034
-1.622356 -1.476759 8.420668
-1.651533 -1.459472 9.074240
-1.633547 -1.448357 9.468212
-1.562220 -1.430802 10.059738
-1.499664 -1.413321 10.654861
-0.855117 -1.735569 1.290980
-1.258498 -1.769031 1.574849
-1.178611 -1.743228 2.216989
-1.091422 -1.726243 2.510791
-1.021201 -1.703708 3.069883
-0.965274 -1.680154 3.719382
-1.179394 -1.696907 3.906824
-1.046443 -1.662817 4.653095
-1.283306 -1.677232 5.010361
-1.819668 -1.723336 5.329193
-1.788607 -1.704892 5.885188
-1.666912 -1.676741 6.457113
-1.441423 -1.639827 6.961544
-0.928085 -1.571951 7.521364
-1.009711 -1.567475 7.988406
-1.340178 -1.597207 8.136566
-1.348638 -1.582454 8.705320
-1.425480 -1.580016 9.080339
-1.466923 -1.566219 9.737173
-1.380519 -1.543466 10.243953
-1.248343 -1.510470 10.953253
-0.610721 -1.782966 1.231731
-0.920952 -1.822955 1.869885
-0.934684 -1.815013 2.247679
-0.858229 -1.787722 2.717944
-0.885307 -1.779802 3.184295
-0.911172 -1.774108 3.562434
-0.963062 -1.765942 4.203764
-1.193984 -1.798944 4.562325
-1.605290 -1.870994 4.723408
-1.685568 -1.866029 5.439654
-1.634713 -1.845921 5.822818
-1.490191 -1.807969 6.220978
-1.278824 -1.752244 6.811175
-0.770694 -1.642203 7.369042
-0.850622 -1.644098 7.836040
-1.242056 -1.703084 8.334254
-1.201609 -1.687039 8.640872
-1.392078 -1.710209 9.082387
-1.474158 -1.702462 9.910825
-1.233899 -1.650323 10.178526
-1.030714 -1.589710 10.999424
0.302194 -1.633018 0.685258
-0.473832 -1.829278 0.979947
-0.778955 -1.889134 1.708579
-0.791798 -1.881827 2.087105
-0.711500 -1.849849 2.469709
-0.827805 -1.869943 2.843776
-0.760371 -1.838829 3.315862
-0.816405 -1.832975 4.045994
-0.922694 -1.857987 4.152517
-1.359847 -1.958738 4.665677
-1.515098 -1.984558 5.200502
-1.474545 -1.960593 5.670379
-1.427578 -1.937333 6.055439
-1.123047 -1.840008 6.658677
-0.894604 -1.767868 7.080451
-0.510099 -1.648510 7.717273
-0.515171 -1.633568 8.293525
-1.061536 -1.769577 8.577769
-1.115040 -1.762669 9.321615
-1.196768 -1.773648 9.695694
-1.167694 -1.757256 10.004618
-0.995196 -1.696768 10.536007
-0.039318 -1.760465 1.043826
-0.329602 -1.852301 1.422978
-0.531917 -1.910516 1.887051
-0.452735 -1.871377 2.269812
-0.569975 -1.899480 2.733070
-0.510003 -1.861984 3.293915
-1.011973 -1.997788 4.743310
-1.229812 -2.067235 5.009562
-1.199767 -2.040449 5.566630
-1.177130 -2.016234 6.125522
-0.962813 -1.925746 6.628372
-0.661588 -1.803845 7.152937
-0.280162 -1.636080 8.279822
-0.796858 -1.813335 8.478872
-0.923253 -1.839592 9.117750
-0.929038 -1.827630 9.601233
-0.900800 -1.808648 9.911104
-0.753550 -1.738519 10.531195
0.658218 -1.521983 0.614334
-0.172214 -1.876181 1.264586
-0.455754 -1.992545 1.639247
-0.385182 -1.944093 2.196646
-0.303368 -1.901080 2.403579
-0.344549 -1.897665 3.136185
-0.364301 -1.897827 3.427508
-0.316475 -1.859432 3.990821
-0.523362 -1.944309 4.265144
-1.012445 -2.154506 4.594969
-1.089576 -2.167687 5.313621
-0.762014 -2.010288 5.647553
-0.730839 -1.982011 6.123251
-0.614769 -1.915054 6.614909
-0.703319 -1.889847 8.786608
-0.671133 -1.866104 9.095744
-0.748253 -1.889528 9.472259
-0.797927 -1.892113 10.132166
-0.530338 -1.757656 10.601136
0.778190 -1.458298 0.807364
-0.102112 -1.935484 1.099506
-0.469594 -2.118626 1.736049
-0.221740 -1.969616 2.123382
-0.147657 -1.919452 2.419437
-0.178220 -1.918945 2.976696
-0.389976 -2.018972 3.519915
-0.259488 -1.929101 4.089853
-0.293402 -1.935983 4.469664
-0.765216 -2.186353 4.798853
-0.631174 -2.099932 5.195285
-0.543426 -2.028068 5.944785
-0.494371 -1.991507 6.247953
-0.373197 -1.911885 6.654339
-0.279281 -1.808674 8.299114
-0.295202 -1.799509 8.874624
-0.436724 -1.869214 9.146205
-0.481562 -1.873297 9.809072
-0.543554 -1.898478 10.099559
-0.412705 -1.806726 10.723368
0.137239 -1.879444 1.243489
-0.203781 -2.096908 1.529592
-0.054015 -1.981796 2.001610
0.081855 -1.869976 2.655010
0.059839 -1.872099 3.036696
-0.287911 -2.060983 4.330378
-0.597068 -2.246664 4.939185
-0.471757 -2.150281 5.336176
-0.195381 -1.949610 5.848923
-0.000495 -1.784529 6.929135
0.074952 -1.679975 8.586210
-0.042855 -1.752242 8.772129
-0.275282 -1.895685 9.112609
-0.336933 -1.912071 9.863168
-0.396969 -1.942480 10.153565
-0.255383 -1.830704 10.689729
0.375308 -1.800985 1.125724
0.202462 -1.918787 1.680788
0.184173 -1.916967 2.149132
0.239816 -1.856328 2.621841
0.212978 -1.861268 3.090911
-0.142448 -2.089164 4.643514
-0.394794 -2.283434 4.814787
-0.469486 -2.317594 5.534828
-0.192069 -2.085721 5.871390
0.115972 -1.816568 6.580124
0.142580 -1.781682 6.975058
0.222921 -1.663340 8.540488
0.157894 -1.701640 8.921894
-0.062532 -1.864714 9.261388
-0.166383 -1.927821 9.814894
-0.106700 -1.862658 10.325422
0.042130 -1.728876 10.775105
0.451059 -1.832251 1.111028
0.212756 -2.031999 1.751824
0.350591 -1.894718 1.961537
0.329780 -1.896662 2.431158
0.367334 -1.836989 3.082623
0.039644 -2.089623 4.551921
-0.195546 -2.303963 4.725277
-0.031593 -2.128209 5.307270
0.217424 -1.878433 5.733082
0.205177 -1.861974 6.479217
0.372967 -1.688496 6.904333
0.386975 -1.620423 8.369981
0.311871 -1.673269 8.841657
0.232799 -1.729882 9.312246
0.149770 -1.790253 9.781684
0.029081 -1.879448 10.425597
0.042202 -1.855314 10.740872
1.208828 -1.123455 0.904940
0.603222 -1.789933 1.017992
0.389132 -2.008222 1.482726
0.561942 -1.786528 2.223385
0.539355 -1.792409 2.693014
0.518347 -1.800155 3.073991
0.433859 -1.882115 3.360027
0.427063 -1.847569 4.391982
-0.026567 -2.326555 4.973074
0.137208 -2.128441 5.380947
0.355101 -1.866052 5.894442
0.360123 -1.837290 6.463385
0.513246 -1.650323 6.887368
0.522446 -1.580496 8.349872
0.531130 -1.554510 8.751190
0.364178 -1.713937 9.378493
0.315930 -1.755497 9.670464
0.220052 -1.839096 10.225875
0.183614 -1.855915 10.803662
1.111639 -1.256411 1.061941
1.045353 -1.334075 1.267461
0.727063 -1.730590 1.730741
0.757071 -1.657961 2.469474
0.742673 -1.663656 2.762153
0.711648 -1.679186 3.320541
0.453057 -1.968073 4.435179
0.265230 -2.178647 5.228300
0.230683 -2.207078 5.602827
0.355651 -2.016714 6.190858
0.683456 -1.570037 6.564144
0.788989 -1.400381 7.258222
0.898551 -1.229127 7.870492
0.907970 -1.198619 8.273524
0.749805 -1.394380 8.532048
0.539711 -1.642436 9.141346
0.496193 -1.686364 9.432992
0.395455 -1.789479 10.076447
0.406372 -1.761048 10.389765
0.529318 -1.566472 11.130139
1.383814 -0.912694 0.633424
0.943964 -1.581607 1.021017
0.813382 -1.748738 1.755981
0.859401 -1.666081 1.965158
0.889442 -1.590613 2.525593
0.910433 -1.524683 3.177267
0.899040 -1.532221 3.380214
0.960104 -1.398486 4.131818
0.826661 -1.588945 4.495299
0.484973 -2.112083 4.727306
0.532762 -1.999445 5.472715
0.650810 -1.789245 5.973201
0.721031 -1.658794 6.377599
0.770584 -1.551539 6.962490
0.815483 -1.451355 7.551638
0.992624 -1.155766 7.911795
1.010300 -1.112264 8.223774
0.783079 -1.442322 8.729332
0.633009 -1.641041 9.442993
0.656914 -1.592299 9.666052
0.524547 -1.772522 10.198061
0.571010 -1.678287 10.621714
1.542495 -0.615882 0.851568
1.202365 -1.231981 1.325985
1.003187 -1.586958 1.703079
0.981896 -1.594549 2.262442
1.015830 -1.512880 2.560578
1.035483 -1.442576 3.126608
0.973560 -1.543048 3.412927
1.110130 -1.234421 4.269798
0.687966 -1.993553 4.953683
0.620325 -2.105394 5.230683
0.707562 -1.900892 5.903855
0.904929 -1.501316 6.348046
0.991378 -1.302460 6.950161
1.027793 -1.198864 7.542950
1.088682 -1.064409 7.871192
1.083126 -1.046134 8.363536
0.858181 -1.453896 8.672086
0.759576 -1.592459 9.494371
0.767825 -1.558569 9.806889
0.739539 -1.578284 10.385351
0.732225 -1.568570 10.788209
1.280562 -1.225010 0.597149
1.312433 -1.129651 0.893597
1.332374 -1.037199 1.549981
1.201623 -1.317375 1.928633
1.151384 -1.414844 2.220368
1.131871 -1.427742 2.692196
1.136047 -1.366161 3.436056
1.172028 -1.227256 4.219532
1.093456 -1.367021 4.857837
0.841820 -1.941165 5.084782
0.777265 -2.067286 5.447079
0.839111 -1.869340 6.207612
1.032597 -1.377486 6.756807
1.107792 -1.165340 7.271806
1.180282 -0.959120 7.792767
1.173738 -0.940282 8.283683
1.068690 -1.168686 8.540404
0.935499 -1.444805 9.059469
0.875509 -1.546818 9.614311
0.860460 -1.548143 10.102014
0.880609 -1.465236 10.614318
0.957622 -1.259439 10.976902
1.458876 -0.827379 1.078788
1.375732 -1.021075 1.731076
1.264785 -1.314723 2.195420
1.274258 -1.237300 2.760091
1.289197 -1.158652 3.149067
1.130006 -1.524963 4.450542
1.010257 -1.847413 4.888117
1.038940 -1.711321 5.462753
1.064967 -1.582917 6.040938
1.125388 -1.357053 6.549367
1.245176 -0.949374 7.094345
1.338745 -0.628904 7.543374
1.300803 -0.701716 8.020918
1.200111 -0.966633 8.460632
1.075527 -1.313300 8.786648
1.016911 -1.433760 9.432302
0.980892 -1.509294 9.811630
0.973890 -1.495606 10.212903
0.998087 -1.360848 10.927978
1.532437 -0.706040 0.694467
1.434814 -1.093895 0.813079
1.489579 -0.803038 1.380193
1.521688 -0.615177 1.862580
1.414448 -1.012944 2.237567
1.373718 -1.126164 2.707321
1.344211 -1.162028 3.446808
1.350996 -1.088865 3.838108
1.301877 -1.226931 4.391450
1.194573 -1.638698 4.647631
1.166332 -1.690775 5.201881
1.169134 -1.634106 5.592267
1.207000 -1.409663 6.186192
1.271021 -1.085390 6.713019
1.321706 -0.837691 7.052063
1.302362 -0.839859 7.721437
1.270134 -0.917610 8.195458
1.191260 -1.191746 8.630538
1.169857 -1.245935 8.923278
1.120821 -1.372995 9.568826
1.099006 -1.395896 10.146791
1.119773 -1.271421 10.484472
1.519502 -0.885017 1.151835
1.505532 -0.889950 1.627029
1.515358 -0.795173 1.837224
1.483887 -0.906583 2.309643
1.464604 -0.928825 2.873529
1.456771 -0.865710 3.532741
1.438293 -0.897960 4.007878
1.381930 -1.208824 4.190184
1.314455 -1.543380 4.632558
1.266413 -1.713929 5.350932
1.284683 -1.550478 5.665569
1.325547 -1.215763 6.185295
1.376280 -0.802444 6.817216
1.388980 -0.607727 7.519482
1.367845 -0.670665 7.907595
1.320452 -0.866055 8.454392
1.277519 -1.097873 8.622920
1.218024 -1.338339 9.338095
1.220735 -1.284143 9.563311
1.200640 -1.308766 10.142314
1.188399 -1.266839 10.834411
1.599757 -0.655637 1.004666
1.567798 -0.860753 1.565871
1.559262 -0.774624 2.131361
1.550325 -0.784837 2.427321
1.532844 -0.810183 2.990436
1.525512 -0.738047 3.470708
1.523624 -0.658509 3.774173
1.470408 -1.107233 4.392602
1.433871 -1.439826 4.744912
1.414074 -1.496994 5.298680
1.399920 -1.109547 6.957795
1.440913 -0.465414 7.361681
1.432695 -0.429978 7.766067
1.398046 -0.708820 8.208011
1.351984 -1.107220 8.713788
1.323807 -1.237145 9.358745
1.310799 -1.299332 9.650008
1.300005 -1.229528 10.249736
1.288396 -1.168598 10.853026
1.613607 -0.549290 2.261737
1.595548 -0.478381 2.920154
1.585300 -0.600205 3.299910
1.574222 -0.426294 3.698854
1.561260 -0.462964 4.174776
1.544934 -0.920516 4.789750
1.536138 -1.357775 5.128324
1.525024 -1.201911 5.529289
1.513823 -1.050057 5.933570
1.494337 -0.741617 6.635210
1.479427 -0.417069 7.168758
1.468939 -0.479073 7.555062
1.459615 -0.741718 7.906316
1.445013 -0.942099 8.448455
1.429241 -0.953680 9.026294
1.414128 -1.071213 9.583989
1.400775 -1.078301 10.073075
1.389050 -0.972799 10.498290
1.374088 -0.797024 11.039363
1.630352 0.210653 1.192654
1.662729 -0.512621 2.220157
1.645121 -0.429261 2.607934
1.634233 -0.454196 3.081295
1.613384 -0.391540 3.650545
1.577884 -0.130595 4.148747
1.583779 -0.380352 4.696362
1.617815 -0.924659 5.116869
1.619637 -1.066859 5.484633
1.603105 -1.026090 5.963228
1.542435 -0.510513 6.602066
1.512059 -0.258519 6.940697
1.504083 -0.348164 7.505407
1.507714 -0.511935 7.873039
1.519334 -0.793434 8.308746
1.520016 -1.035324 9.022543
1.508430 -0.998794 9.333620
1.495482 -1.004021 9.821955
1.474925 -0.897312 10.245997
1.453478 -0.838856 10.849894
1.606488 0.343503 1.232343
1.659093 -0.063473 1.793283
1.698481 -0.375562 2.257763
1.672428 -0.298774 2.734236
1.663884 -0.325917 3.206824
1.639586 -0.260094 3.686170
1.618613 -0.184807 3.988307
1.593634 -0.145167 4.650539
1.638814 -0.488254 5.093302
1.686361 -0.815069 5.352252
1.562380 -0.288857 6.647597
1.511408 -0.040474 6.986432
1.510906 -0.130989 7.551731
1.544779 -0.391290 7.902296
1.579254 -0.654474 8.248547
1.582367 -0.779766 8.893593
1.585016 -0.858244 9.272345
1.573292 -0.883466 9.848108
1.562899 -0.916794 10.424840
1.516688 -0.700585 10.786294
1.542711 0.567858 1.456156
1.752581 -0.321537 2.027995
1.692144 -0.156677 2.686090
1.687996 -0.173010 2.980507
1.681531 -0.209907 3.542499
1.652818 -0.150172 4.022743
1.625447 -0.095930 4.504857
1.648966 -0.239904 4.968369
1.698614 -0.485139 5.417672
1.651461 -0.374089 6.089564
1.580544 -0.151852 6.602209
1.512110 0.049970 7.210803
1.541931 -0.108375 7.580235
1.569739 -0.238739 7.768868
1.627225 -0.513352 8.204944
1.661311 -0.697378 8.654608
1.651821 -0.733594 9.317787
1.639852 -0.740618 9.805779
1.632117 -0.774188 10.382886
1.571118 -0.584046 10.832959
1.705326 0.006818 2.205888
1.665789 0.073885 2.774686
1.694623 -0.049192 3.244130
1.692252 -0.104497 3.985593
1.659864 -0.035950 4.289333
1.661283 -0.072359 4.674297
1.664666 -0.121914 5.148050
1.637205 -0.082870 5.633006
1.582071 0.020269 6.311555
1.528418 0.126226 6.905298
1.535529 0.080667 7.202373
1.551039 -0.011762 7.767555
1.595622 -0.172018 8.135178
1.703144 -0.504235 8.374690
1.720623 -0.594281 8.843306
1.678951 -0.523402 9.440579
1.681096 -0.592962 10.195689
1.626927 -0.456689 10.445775
1.528344 -0.225491 11.101356
1.236488 1.281577 0.990890
1.431355 0.818210 1.288500
1.624314 0.347478 1.758546
1.778441 -0.040424 2.309364
1.695331 0.128065 2.611772
1.692985 0.095219 3.174398
1.693431 0.062106 3.647382
1.655766 0.115136 4.128140
1.660646 0.071917 4.601445
1.751563 -0.177552 5.230691
1.717322 -0.120320 5.534847
1.645985 0.014307 5.941663
1.587486 0.095246 6.709384
1.517411 0.232566 7.034257
1.532148 0.172892 7.419712
1.636543 -0.100426 7.948696
1.743825 -0.379850 8.470911
1.759282 -0.434760 8.762063
1.745983 -0.437580 9.249276
1.740731 -0.464757 9.825740
1.726413 -0.459428 10.227017
1.660845 -0.364842 11.030535
1.307026 1.015359 1.529709
1.679451 0.275521 2.461373
1.678801 0.264985 2.666203
1.679534 0.231446 3.228092
1.685000 0.184103 3.878684
1.642816 0.239454 4.269798
1.695942 0.125217 4.554576
1.711512 0.059352 5.203391
1.675352 0.103483 5.596529
1.549108 0.306998 6.105972
1.481319 0.392930 6.787148
1.504345 0.323291 7.261888
1.530005 0.248848 7.735762
1.642045 0.027469 7.995235
1.772321 -0.242516 8.516419
1.798665 -0.312757 8.894926
1.793244 -0.335680 9.469527
1.752289 -0.299500 10.155746
1.676162 -0.173399 10.403959
1.540388 0.039427 11.057542
1.127866 1.305816 0.593074
1.498647 0.710148 1.167128
1.381188 0.861041 1.742732
1.378264 0.846111 2.131468
1.706035 0.331179 2.405736
1.654188 0.373284 3.150687
1.658597 0.347402 3.534135
1.559154 0.470642 4.111811
1.573484 0.420598 4.675399
1.689139 0.234476 4.860868
1.705710 0.185627 5.331844
1.612140 0.308469 5.737549
1.479769 0.476403 6.428615
1.451724 0.494870 6.917916
1.475431 0.439386 7.303190
1.616057 0.202348 7.743672
1.773223 -0.068528 8.355372
1.866098 -0.232905 8.803122
1.953680 -0.384654 9.160030
1.881184 -0.294674 9.578468
1.784696 -0.182463 10.286560
1.664750 -0.021477 10.736157
-0.414030 2.084538 1.712199
-0.472576 1.983854 2.089852
-0.376541 2.092623 2.622458
-0.438442 1.975765 3.234371
0.263537 2.892830 4.634668
0.189890 2.755881 5.320087
0.096556 2.609252 5.638524
-0.073593 2.352528 6.002853
-0.189184 2.169973 6.416817
-0.139774 2.201223 7.195746
0.088762 2.504468 7.555897
0.149030 2.551579 8.322248
0.122657 2.496833 8.684265
0.151811 2.518029 9.087549
0.065174 2.365352 9.721668
-0.062696 2.172027 10.003453
