-0.193370 0.217468 1.664408
0.046553 0.029136 1.571446
0.262548 -0.140358 2.034929
-0.514430 0.412561 0.900886
-0.284935 0.256422 1.529562
-0.122836 0.146102 1.615250
0.271821 -0.122470 2.028142
0.111074 -0.004855 1.944687
0.527339 -0.247192 2.240144
0.297294 -0.091584 1.807999
0.207877 -0.030869 1.858971
0.552914 -0.175049 2.274664
-1.080209 0.419739 0.908064
-0.790674 0.321813 0.632626
-0.521856 0.230968 1.253888
-0.243026 0.136698 1.401730
-1.102160 0.342087 0.678709
0.218994 -0.003958 1.692223
-1.123929 0.265606 0.726792
0.101109 0.053191 1.887149
-0.861669 -0.411237 0.709222
-0.425242 -0.173170 0.854389
-0.996868 -0.575899 0.466808
-0.664870 -0.363681 0.843787
-0.802554 -0.523293 0.867971
-0.394822 -0.224977 0.592640
-0.603763 -0.447869 0.453182
-0.538709 -0.529756 0.733129
-0.503518 -0.559616 0.554985
-0.407856 -0.510440 0.579875
-0.372835 -0.539793 0.745779
-0.424389 -0.743548 0.773127
-0.299730 -0.490779 1.365291
-0.372303 -0.773151 0.863840
-0.340770 -0.696024 1.373091
-0.266296 -0.514104 1.456233
-0.201055 -0.452309 1.768380
-0.261503 -0.828669 1.223356
-0.214716 -0.642437 1.425298
-0.124750 -0.284278 2.004793
-0.189460 -0.761376 1.583025
-0.122548 -0.389242 1.980901
-0.154170 -0.871336 1.589902
-0.121368 -0.591311 1.920814
-0.107385 -1.152016 0.829623
-0.098511 -0.967733 1.323451
-0.093973 -0.873689 1.461391
-0.075654 -0.494287 1.856757
-0.027098 -1.167771 1.204975
-0.026792 -1.183703 1.572782
-0.030721 -0.997797 1.834622
-0.041458 -0.486266 1.638025
0.063671 -1.261051 1.044155
0.057088 -1.189760 1.708122
0.039242 -0.995001 1.792044
0.004245 -0.613164 2.069394
0.181160 -1.444614 0.787820
0.151933 -1.264014 1.334418
0.119772 -1.064958 1.298165
0.090136 -0.881711 1.618249
0.030505 -0.512905 2.075858
0.369668 -1.816684 0.691026
0.256988 -1.332387 0.831959
0.213662 -1.146260 1.146107
0.194426 -1.063708 1.518509
0.466120 -1.687471 0.441082
0.408805 -1.501606 0.804731
0.380286 -1.409110 0.937270
0.324326 -1.227625 1.249894
0.273197 -1.061883 1.803096
0.578368 -1.651403 0.247373
0.507441 -1.466605 0.552239
0.473122 -1.377211 0.801014
0.404507 -1.198440 1.113351
0.338173 -1.025629 1.489211
0.649077 -1.518139 0.481438
0.650122 -1.520421 0.668865
0.660193 -1.542222 1.434045
0.493151 -1.183021 1.525185
0.364760 -0.906904 1.435541
0.346028 -0.866793 2.346076
0.799797 -1.556274 0.252323
0.754363 -1.474018 0.786503
0.753929 -1.473224 0.742475
0.615670 -1.222724 1.229862
0.430494 -0.887175 1.614749
0.961948 -1.581438 0.484173
0.853076 -1.413192 0.441692
0.712066 -1.195474 1.711695
0.546285 -0.939278 1.623922
0.501703 -0.870431 1.938968
1.065643 -1.512533 0.387128
1.006118 -1.432868 0.459305
1.014337 -1.443955 1.106645
0.906855 -1.300154 1.591232
0.663059 -0.973811 1.449592
0.561695 -0.838209 2.006283
0.518071 -0.779869 2.383649
1.102372 -1.363314 0.650075
1.103949 -1.365167 0.779868
1.109238 -1.371365 1.082360
0.854860 -1.075082 1.344196
0.748073 -0.950771 2.014732
1.260398 -1.359001 0.667720
1.268970 -1.367796 1.140023
1.194322 -1.291648 0.926740
1.058311 -1.152970 1.119704
0.926811 -1.018906 1.432272
1.278614 -1.204951 0.835875
1.277886 -1.204300 0.792464
1.296318 -1.220750 1.497335
1.156725 -1.096762 1.753073
1.008076 -0.964705 1.778962
1.590541 -1.292810 0.270197
1.434021 -1.172028 0.571354
1.364713 -1.118585 1.104846
1.368382 -1.121430 1.233903
1.307127 -1.074198 1.713715
1.076114 -0.895903 1.861493
1.513634 -1.071654 0.727777
1.521408 -1.076874 1.086263
1.440312 -1.022788 1.161508
1.193136 -0.857923 1.244967
0.828012 -0.614478 2.315641
1.580517 -0.960978 0.261839
1.597989 -0.971036 1.250668
1.596535 -0.970202 1.206995
1.427422 -0.873743 1.343799
1.124083 -0.700781 2.222811
1.644386 -0.848653 0.420746
1.562761 -0.809415 0.953953
1.486147 -0.772579 1.375387
1.300242 -0.683092 1.223821
1.526053 -0.665464 1.113388
1.650805 -0.585536 0.531296
1.667624 -0.591008 1.235252
1.565379 -0.558080 1.021068
1.288124 -0.468861 1.277104
1.782687 -0.497003 0.446297
1.693750 -0.474899 0.922017
1.613194 -0.454881 1.401107
1.425277 -0.408105 1.540710
1.162055 -0.342608 2.040445
0.977454 -0.296658 2.186888
1.713756 -0.354570 0.348165
1.736890 -0.358730 1.341357
1.632321 -0.340277 1.186740
1.635556 -0.235482 0.593896
1.641522 -0.236176 0.896907
0.906814 -0.153814 2.164647
1.752004 -0.115117 0.785041
1.750034 -0.115037 0.683818
1.755450 -0.115253 0.928089
1.559457 -0.108162 1.063515
1.185763 -0.094671 1.678943
0.901204 -0.084381 1.947377
0.823067 -0.081575 2.266320
1.754793 0.003286 0.736905
1.651506 0.000072 0.522086
1.661227 0.000338 0.998946
0.747036 -0.028389 2.525630
1.550561 0.102886 0.689143
1.650325 0.112841 0.702735
1.661182 0.113891 1.120611
1.275510 0.075378 1.440916
0.908225 0.038680 2.007974
1.545893 0.210464 0.961097
1.173332 0.147078 1.542677
0.894727 0.099686 1.868426
0.698743 0.066364 1.894302
1.326356 0.268008 0.634208
1.053796 0.201969 1.330472
0.890462 0.162379 1.947377
0.604137 0.093057 2.040527
1.401427 0.379195 0.540746
1.140590 0.298492 1.468899
0.876569 0.216846 1.913012
1.460618 0.520348 0.413059
1.381276 0.489010 1.126723
1.378222 0.487814 1.024383
1.114349 0.383758 1.459705
0.853787 0.281010 1.844738
1.422684 0.619392 0.532292
1.246922 0.535788 0.841321
1.263176 0.543469 1.381618
1.071371 0.452292 1.051587
0.820914 0.333147 1.611046
0.563177 0.210566 1.881607
0.328467 0.098907 2.461060
1.288370 0.665296 0.295920
1.300054 0.671796 1.068505
1.302187 0.672989 1.142187
1.059345 0.536393 1.638963
0.810886 0.396660 1.908368
0.614851 0.342355 1.924477
0.371980 0.182672 2.078775
1.438305 1.015786 0.985663
1.197539 0.834945 0.950235
0.967815 0.662357 1.325915
0.742358 0.492974 1.709554
1.285754 1.040663 0.700025
0.914129 0.720147 1.076885
0.704517 0.539326 1.636604
0.567006 0.420707 1.961199
0.259726 0.155728 1.879966
1.211636 1.127802 0.760538
1.079635 0.996967 1.244512
0.803364 0.723221 1.510435
0.587075 0.508941 1.419750
0.427654 0.413975 1.777586
0.236631 0.193823 1.930993
0.746369 0.906491 1.360860
0.682466 0.821543 1.202391
0.521906 0.607963 1.884719
0.342469 0.369368 1.917787
0.052870 -0.015737 2.209091
0.364547 0.459116 1.609416
0.471415 0.731660 1.261485
0.388204 0.583840 1.881670
0.189134 0.230458 1.797837
-0.043860 -0.183229 2.210883
0.674892 1.296444 1.010509
0.420665 0.762828 1.281013
0.338268 0.589858 1.483360
0.259397 0.424267 1.809154
0.051668 -0.011764 2.098563
0.585099 1.344283 1.150374
0.366298 0.788888 1.245675
0.300320 0.621325 1.687702
0.370063 0.996800 1.060899
0.280838 0.715229 1.204162
0.225333 0.539992 1.586864
0.166148 0.353223 1.672008
-0.009162 -0.200031 2.027595
0.272392 0.919512 0.905743
0.181406 0.537982 1.171853
0.141665 0.371161 1.799988
0.194396 0.841354 1.062452
0.148841 0.571221 1.687871
0.102124 0.294348 2.022351
0.051790 -0.003779 1.995201
0.140104 0.851067 1.029430
0.110117 0.561537 1.294550
0.093567 0.401283 2.042843
0.081323 0.850871 0.699621
0.081739 0.861813 1.129887
0.078347 0.764469 1.206496
0.071478 0.567475 1.287499
0.061540 0.281986 1.616917
0.045366 -0.182744 2.212573
0.016408 1.051189 0.461024
0.022972 0.855871 0.775220
0.026309 0.756250 0.791961
0.028960 0.678669 1.468377
0.038783 0.385659 1.618063
0.044769 0.207793 2.009046
0.057831 -0.181941 2.173459
-0.025652 0.754784 0.715385
-0.026973 0.768033 1.207429
-0.007872 0.582296 1.529540
0.012756 0.381414 1.492643
-0.047605 0.576850 1.452473
0.019051 0.192553 1.668631
0.068362 -0.091710 1.884501
-0.130853 0.750092 0.985479
-0.132806 0.758140 1.239631
-0.084805 0.562444 1.202176
-0.038415 0.373378 1.345893
0.027906 0.103165 1.802212
0.143006 -0.365956 2.095292
-0.211822 0.827978 0.693573
-0.183972 0.741392 1.069038
-0.095792 0.467012 1.395619
-0.038379 0.288379 1.662746
-0.230523 0.718796 0.694840
-0.128467 0.462514 1.471087
-0.020045 0.190100 1.620969
0.153473 -0.245804 2.157075
-0.280100 0.701726 0.734062
-0.240881 0.620215 1.108911
-0.117327 0.363279 1.495483
-0.032281 0.186386 1.579023
0.171413 -0.237223 2.113455
-0.327379 0.677981 0.562223
-0.331727 0.685673 0.995516
-0.240465 0.525765 1.437434
-0.041474 0.176938 1.409303
-0.371293 0.658915 0.773284
-0.268161 0.502050 1.212754
-0.054365 0.176776 1.485587
-0.415094 0.629711 0.656083
-0.356772 0.553219 0.852857
-0.248368 0.411074 1.476747
-0.065470 0.171106 1.444824
-0.215832 0.320388 1.591798
0.101703 -0.036556 2.001495
0.305123 -0.265264 1.911145
-0.499107 0.568261 0.773284
-0.372755 0.442886 1.453883
-0.087747 0.159906 1.425514
0.184624 -0.110485 1.767145
0.527715 -0.451096 2.061381
-0.464015 0.469014 0.914241
-0.098728 0.153534 1.428851
0.047773 0.027001 1.574086
0.336905 -0.222714 1.918688
-0.569605 0.491782 0.532337
-0.193583 0.209802 1.551371
0.106235 -0.015067 2.015455
0.490986 -0.303667 2.311629
-0.688512 0.507405 0.729163
-0.610969 0.457211 1.043598
-0.362951 0.296590 1.187333
-0.127149 0.143909 1.639081
0.192835 -0.063304 1.982909
-0.719199 0.457866 0.553531
-0.551946 0.365144 0.990849
-0.388605 0.274586 1.373921
-0.041985 0.082353 1.467140
0.286884 -0.100002 1.935054
-1.023230 0.533547 0.675948
-0.756263 0.409214 0.934544
0.385615 -0.122603 1.905549
0.406300 -0.100953 1.646116
0.207794 -0.009735 1.896663
-1.108806 0.309728 0.465658
0.227012 0.000452 1.524456
-1.128317 0.240279 0.653862
0.222953 0.015233 1.601335
0.391014 0.014395 2.120098
-0.163455 0.056120 1.165135
0.200437 0.046228 1.936768
-0.082285 0.048209 1.543691
0.109006 0.064291 1.637181
-0.894759 -0.729854 0.715519
-0.595845 -0.462926 0.676162
-0.562336 -0.501627 0.612656
-0.596289 -0.615315 0.806854
-0.399218 -0.529586 1.039575
-0.424437 -0.669790 1.741822
-0.370424 -0.683145 1.423016
-0.352139 -0.785392 0.966174
-0.320665 -0.702076 1.296098
-0.292600 -0.627752 1.733803
-0.304599 -0.833418 1.638231
-0.250196 -0.652466 1.842602
-0.103715 -0.165443 1.703660
-0.274301 -0.946498 1.601785
-0.206284 -0.655507 1.632235
-0.117051 -0.273704 1.789766
-0.188198 -0.873095 1.746025
-0.140312 -0.565561 1.537058
-0.127464 -0.886493 1.789461
-0.102091 -0.588924 1.821499
-0.073650 -1.067603 1.258934
-0.073894 -1.078461 1.511358
-0.070147 -0.895398 1.832893
-0.061863 -0.493528 1.811039
0.008506 -1.258828 0.908954
0.004741 -1.181080 1.513259
-0.009402 -0.885346 1.600358
-0.026708 -0.524380 2.237166
0.095036 -1.249246 0.609163
0.097042 -1.266749 1.268449
0.086298 -1.175562 1.462923
0.053141 -0.893965 1.788300
0.008315 -0.513148 2.066908
0.290706 -1.828913 0.558356
0.200407 -1.347905 1.047255
0.164344 -1.155779 1.186119
0.147768 -1.067550 1.440994
0.339990 -1.512194 0.294730
0.315455 -1.417947 0.601039
0.318233 -1.428781 1.081695
0.245072 -1.147544 1.341778
0.197691 -0.965435 1.602248
0.126740 -0.692720 1.932196
0.507568 -1.677123 0.583938
0.444371 -1.488540 0.658771
0.415840 -1.403498 1.082150
0.383101 -1.305768 0.982649
0.330151 -1.147943 1.767623
0.231224 -0.852656 1.561321
0.140365 -0.581568 1.831126
0.586030 -1.550566 0.864397
0.511552 -1.370693 1.058043
0.439433 -1.196545 1.371752
0.367536 -1.022922 1.630841
0.731526 -1.593075 0.635228
0.688743 -1.506735 0.825112
0.647363 -1.423240 1.074391
0.520551 -1.167291 1.448932
0.387798 -0.899287 1.475833
0.839528 -1.536716 0.486751
0.789425 -1.451110 0.558217
0.796515 -1.463319 1.148823
0.655731 -1.222823 1.639402
0.448465 -0.868611 1.436467
0.940739 -1.476434 0.441757
0.887597 -1.398266 0.802986
0.890266 -1.402221 0.989917
0.729064 -1.165001 1.362907
0.504813 -0.834934 1.393857
1.103996 -1.490922 0.756685
1.039427 -1.408569 0.428708
1.047473 -1.418910 1.077638
0.926928 -1.265263 1.215758
0.688466 -0.961324 1.540838
0.565655 -0.804773 1.566595
0.538071 -0.769720 2.419595
1.200338 -1.407632 0.330199
1.141610 -1.342613 1.036262
1.143167 -1.344347 1.108444
1.076557 -1.270507 1.126479
0.878957 -1.051473 1.268432
0.765404 -0.925665 1.879482
0.704245 -0.857883 2.018613
1.367934 -1.389267 0.260341
1.232619 -1.259008 1.022994
1.235661 -1.261953 1.151840
1.162594 -1.191566 1.111357
1.029193 -1.063106 1.481164
1.461562 -1.295522 0.643694
1.390063 -1.235474 0.947365
1.310567 -1.168658 0.792689
1.257495 -1.124148 1.619005
1.189206 -1.066786 1.813494
1.463773 -1.130826 0.231581
1.475761 -1.139651 1.105079
1.398730 -1.083512 1.236601
1.243580 -0.970434 1.431379
1.264580 -0.985789 1.908069
1.709309 -1.137451 0.650529
1.544435 -1.033640 0.897177
1.471699 -0.987872 1.316631
1.481231 -0.993898 1.560702
1.323742 -0.894739 1.816662
1.147039 -0.783442 1.667682
1.604557 -0.921286 0.388024
1.615147 -0.927039 1.033843
1.536882 -0.884985 1.339559
1.441591 -0.833730 1.127607
1.134988 -0.668966 2.124268
1.672195 -0.812934 0.931906
1.574855 -0.768881 0.603734
1.586793 -0.774327 1.136550
1.413515 -0.695980 1.390163
1.722458 -0.694769 0.852589
1.555815 -0.632931 1.477810
1.212353 -0.505420 2.067324
1.664571 -0.546108 0.555142
1.669887 -0.547705 0.856793
1.687317 -0.552904 1.388560
1.516710 -0.502481 1.816888
1.344565 -0.451593 2.134503
1.803299 -0.453052 0.932354
1.703261 -0.430844 0.835425
1.614296 -0.411126 1.142278
1.442821 -0.373117 1.688637
1.071289 -0.290694 2.020226
0.912609 -0.255521 2.523237
1.623756 -0.297076 0.441241
1.627948 -0.297733 0.743378
1.653769 -0.301689 1.507586
1.352693 -0.256269 1.418582
1.173800 -0.229316 1.793810
1.650871 -0.187578 1.007976
1.651276 -0.187613 1.021520
1.662114 -0.188528 1.323943
1.264380 -0.155816 1.354345
0.990553 -0.133334 1.854985
0.934343 -0.128759 2.468986
1.649928 -0.074109 0.529538
1.767596 -0.075772 1.234353
1.490661 -0.072030 1.726577
1.185585 -0.067858 1.641261
0.920619 -0.064286 2.207577
0.822037 -0.062942 2.230459
1.560612 0.034695 0.990782
1.664506 0.040436 1.118128
1.663082 0.040361 1.075017
1.283855 0.019328 1.571894
1.002116 0.003706 1.898251
0.919238 -0.000902 2.157221
1.544531 0.140787 0.461569
1.558333 0.142457 1.113360
1.461651 0.130385 1.188576
1.164656 0.093318 1.213253
0.998765 0.072560 1.886451
0.821469 0.050407 2.210897
1.085446 0.841515 0.824569
0.969052 0.732767 0.902943
0.689968 0.472167 1.389869
0.726451 0.506324 1.508428
0.586737 0.375923 1.872677
0.938263 0.820973 0.846275
0.844962 0.721038 1.090524
0.693253 0.558436 1.288395
0.558482 0.414209 1.875660
0.553637 0.409019 1.889430
0.284236 0.120150 2.003899
-0.168805 -0.365739 1.992033
0.826578 0.817308 0.997092
0.550924 0.478150 1.379687
0.602107 0.541201 1.439884
0.517952 0.437862 1.909404
0.269311 0.131806 2.023001
-0.205602 -0.452796 2.193979
0.833152 0.979013 0.777556
0.655709 0.723376 0.922522
0.474184 0.462002 1.295966
0.520683 0.529054 1.355399
0.442986 0.417519 2.048052
0.252649 0.143204 2.043741
-0.125241 -0.401270 2.258250
0.760609 1.026749 0.791247
0.580094 0.724883 1.217373
0.486670 0.568441 1.133783
0.384047 0.397075 1.722553
0.364166 0.364004 2.016865
0.223773 0.128911 1.893531
-0.101635 -0.415686 2.045736
0.685025 1.056186 0.824705
0.542772 0.779569 0.970455
0.484900 0.667004 0.992679
0.391922 0.486596 1.580621
0.415319 0.532204 1.698281
0.220150 0.152845 2.093876
-0.069319 -0.410152 2.248702
0.580436 1.041954 0.739342
0.489353 0.828145 1.155541
0.405856 0.631763 1.128973
0.315698 0.420342 1.775647
0.289265 0.358508 2.128116
0.193982 0.134263 1.944901
-0.042270 -0.421235 2.035946
0.501264 1.067105 0.763670
0.357768 0.650945 1.144090
0.326974 0.561508 1.108711
0.271572 0.401263 1.640404
0.249437 0.337148 1.771495
0.120603 -0.036739 1.887306
-0.154481 -0.834933 2.248172
0.364512 0.866493 0.988413
0.314778 0.682274 1.128057
0.281794 0.559999 1.151716
0.213736 0.308628 1.862013
0.196277 0.244071 1.993885
0.077961 -0.194627 2.008326
0.295640 0.826847 0.895038
0.276869 0.733700 0.860155
0.224614 0.475467 1.344659
0.221317 0.459965 1.806142
0.190276 0.306201 1.893149
0.076742 -0.256327 2.147462
0.247124 0.955049 0.904134
0.219215 0.733106 1.102417
0.173541 0.369085 1.149907
0.159541 0.259333 1.791871
0.169521 0.339722 2.074422
0.135354 0.066957 1.953337
0.067455 -0.473824 2.154011
0.186876 1.066619 0.731497
0.174777 0.852293 0.704882
0.155203 0.507201 0.915206
0.148403 0.390972 1.556653
0.140811 0.259654 2.032788
0.121844 -0.074606 2.258212
0.097837 -0.499773 2.219601
0.116861 0.735473 0.932482
0.120058 0.480360 1.191896
0.121682 0.347487 1.442003
0.120605 0.429314 1.501256
0.122563 0.268777 1.811442
0.128719 -0.216789 2.111401
0.136943 -0.852315 2.046389
0.046469 1.014475 0.648404
0.069231 0.725724 0.961351
0.101170 0.321058 1.291858
0.097124 0.371586 1.409948
0.112172 0.178908 2.004503
0.136162 -0.124671 2.168458
0.176862 -0.638012 2.083840
-0.001368 0.865828 0.917378
0.007754 0.804888 0.822432
0.063101 0.433061 1.091940
0.074245 0.357452 1.448278
0.106831 0.137312 2.103517
0.138579 -0.075552 2.087411
0.210032 -0.554922 2.168488
-0.105980 1.068695 0.545360
-0.071555 0.912336 0.624249
-0.028054 0.714316 0.987486
0.052415 0.348681 1.259531
0.061652 0.306262 1.556916
0.076707 0.237336 1.913606
0.155129 -0.119028 2.198259
0.246674 -0.534399 2.158399
-0.137536 0.914834 0.606501
-0.053303 0.628062 1.145275
0.042951 0.300878 1.359138
0.054702 0.260588 1.655979
0.082477 0.165719 2.072131
0.159820 -0.097092 2.175079
0.279699 -0.504184 2.132942
-0.190909 0.864922 0.474337
-0.084625 0.582475 1.014397
-0.006201 0.374266 1.216071
0.030950 0.275305 1.632420
0.034067 0.266792 1.869498
0.204977 -0.186813 2.170012
0.375945 -0.640349 2.254125
-0.145596 0.622146 0.920480
-0.039595 0.390136 1.180773
-0.036860 0.384145 1.193078
-0.042652 0.396458 1.595860
0.135206 0.007007 2.221897
0.298942 -0.351129 2.346885
-0.270763 0.764253 0.607583
-0.101470 0.451879 1.042836
-0.082927 0.417647 1.114887
-0.031799 0.323092 1.531306
0.044929 0.181257 2.067683
0.304081 -0.296565 2.267800
-0.379986 0.841789 0.609231
-0.220804 0.588294 1.148956
-0.025625 0.277892 1.197652
-0.035479 0.293440 1.376612
-0.027968 0.281180 1.839413
0.230287 -0.129694 2.139868
0.471595 -0.513585 2.390415
-0.327384 0.657770 0.950810
-0.128557 0.387711 0.938542
-0.081699 0.323846 1.297210
-0.108513 0.360056 1.642065
0.251592 -0.129404 2.182833
0.521899 -0.496575 2.207042
-0.360866 0.621261 0.980836
-0.257932 0.499742 1.063729
-0.073367 0.281753 1.385934
-0.025089 0.224452 1.968734
0.056463 0.128195 1.997224
0.370062 -0.241932 2.076071
-0.475891 0.671385 0.789763
-0.313802 0.504278 1.214106
-0.119763 0.304445 1.311172
-0.006233 0.187393 1.623505
0.021735 0.158324 2.147111
0.317405 -0.146075 2.103525
0.738762 -0.579957 2.206712
-0.690737 0.789461 0.589268
-0.491630 0.610633 1.067640
-0.147941 0.302242 1.292091
-0.006978 0.175730 1.437455
-0.065318 0.227922 1.721579
0.252301 -0.057173 2.126819
0.613273 -0.380998 2.210421
-1.017357 0.951908 0.789693
-0.677746 0.687538 0.942280
-0.527396 0.570465 1.080678
-0.213392 0.326046 1.185648
-0.154319 0.279908 1.541781
-0.310087 0.400908 2.033272
-0.000659 0.159941 2.373363
0.429810 -0.174953 2.122918
-0.300738 0.355148 0.623536
-0.213670 0.296391 0.813494
0.465380 -0.161516 1.508281
0.598455 -0.251434 2.056631
0.802284 -0.388813 2.105853
-0.516790 0.445375 1.048061
-0.456295 0.410272 1.176801
-0.216254 0.271161 1.271157
-0.129632 0.220895 1.461270
0.087607 0.094828 1.952750
0.558401 -0.178019 2.153114
-0.858281 0.554947 0.636843
-0.625976 0.442647 0.892185
-0.151126 0.213171 1.235442
0.051831 0.114973 1.668471
0.033395 0.123715 2.072642
0.389162 -0.048069 1.969135
-1.022739 0.553792 0.995964
-0.565692 0.367171 1.272535
-0.168316 0.204942 1.441434
-0.129663 0.189051 1.739803
0.237953 0.038898 2.085318
0.659845 -0.133277 2.107207
-0.836848 0.409126 0.798505
-0.602715 0.331884 0.829955
-0.245781 0.214043 1.101203
0.028569 0.123337 1.652475
0.093966 0.101628 2.011196
0.468767 -0.021963 1.906729
-0.923699 0.358940 1.310602
-0.606984 0.280538 1.073323
-0.183646 0.175475 1.465939
0.031407 0.122017 1.898600
0.297881 0.056022 1.776778
-1.241337 0.348589 0.770825
-1.010112 0.307641 0.577042
-0.691596 0.250998 0.948976
-0.204203 0.164428 1.233575
0.048020 0.119501 1.726852
-0.063291 0.139248 1.725211
0.503396 0.038705 1.756018
-0.984367 0.232397 1.272719
-0.501964 0.180695 1.329880
-0.200390 0.148411 1.261351
0.023248 0.124294 1.694358
0.328765 0.091502 1.859782
-1.196060 0.171987 0.914645
-0.639205 0.150638 1.306076
-0.185310 0.133352 1.308301
0.007711 0.125866 1.680707
0.404941 0.110612 2.028307
-1.060923 0.093943 1.173954
-0.551863 0.109514 1.063267
-0.053561 0.124530 1.577965
-0.044182 0.124730 1.816301
0.351436 0.136756 1.936950
-1.381918 -0.008307 0.809587
-1.116272 0.017751 0.672060
-0.741464 0.054351 0.934772
-0.583824 0.069755 1.015549
-0.087230 0.118186 1.528427
-0.047595 0.121958 1.825935
0.196494 0.145840 1.868547
-1.387404 -0.104610 0.793045
-1.037958 -0.045914 0.606933
-0.246346 0.086505 1.667413
-0.152250 0.102304 1.634276
-0.983376 -0.113315 0.693997
-0.272305 0.062534 1.410879
0.000438 0.129965 1.737216
-1.238575 -0.258298 0.813475
-0.951312 -0.167625 0.736681
-0.251694 0.052859 1.458936
0.016410 0.137333 1.787181
-0.893181 -0.215233 0.821483
-0.774827 -0.168729 0.844148
-0.342721 0.001003 1.067466
-0.082645 0.103175 1.166115
-0.094895 0.098203 1.572798
-0.875998 -0.276044 0.618332
-0.475749 -0.086110 1.003957
-0.006578 0.136663 1.125915
0.056726 0.166673 1.259051
-0.913299 -0.369725 0.702168
-0.142353 0.064549 1.495584
0.206437 0.261027 1.841458
-0.947030 -0.471359 0.573646
-0.758072 -0.347195 0.770127
-0.269191 -0.025832 1.004181
0.065209 0.194003 1.116991
0.108323 0.222025 1.874000
-0.894987 -0.522629 0.611463
-0.594814 -0.294151 0.874967
-0.207510 0.000775 0.931675
0.065539 0.208616 1.150137
-0.753302 -0.492140 0.651567
-0.723710 -0.466235 0.721299
-0.325951 -0.117759 1.059791
-0.025984 0.145112 1.170256
-0.011435 0.157530 1.863159
-0.780280 -0.608124 0.493117
-0.659852 -0.486676 0.795245
-0.333720 -0.157474 1.015392
0.036068 0.215742 1.366464
0.023846 0.203191 1.771659
-0.606323 -0.506976 0.848949
-0.623427 -0.526696 0.802097
-0.204519 -0.043144 0.928166
-0.016664 0.173550 1.254324
-0.025052 0.163515 1.887013
-0.660784 -0.671722 0.779177
-0.402290 -0.326543 0.938303
-0.264732 -0.143062 1.365428
-0.401577 -0.325977 1.575675
-0.564383 -0.639687 0.940640
-0.299803 -0.230819 0.997040
-0.362368 -0.328083 1.849605
-0.695827 -0.997463 0.697923
-0.586971 -0.800683 0.892786
-0.451927 -0.556450 0.983817
-0.316871 -0.312195 1.078038
-0.352644 -0.377125 1.363139
-0.287448 -0.259539 1.837396
-0.542102 -0.862824 0.845611
-0.383544 -0.523281 1.110550
-0.293114 -0.329479 1.085452
-0.322614 -0.393129 1.592774
-0.255407 -0.249378 1.900588
-0.589844 -1.189947 0.702666
-0.416267 -0.735559 0.749586
-0.304740 -0.443725 0.900429
-0.261661 -0.331821 1.765003
-0.280140 -0.380320 1.882920
-0.429232 -0.969077 0.976853
-0.315227 -0.597070 0.853604
-0.289742 -0.514663 1.432633
-0.320449 -0.615371 1.878643
-0.205379 -0.239906 1.767650
-0.405383 -1.185270 0.835714
-0.315124 -0.797304 0.932885
-0.242928 -0.487452 1.308412
-0.293285 -0.704689 1.742732
-0.244086 -0.493450 1.944825
-0.376441 -1.545263 0.846503
-0.270201 -0.884870 1.015478
-0.224788 -0.603140 1.330903
-0.269838 -0.884057 1.647771
-0.201940 -0.462641 2.037432
-0.209849 -0.916961 0.987277
-0.203436 -0.846643 1.115452
-0.209504 -0.915699 1.619113
-0.197830 -0.787731 1.864131
-0.143377 -0.187464 2.168113
-0.157472 -1.402637 0.757746
-0.148642 -1.005157 0.850826
-0.146534 -0.919275 1.422834
-0.151495 -1.146882 1.633146
-0.143994 -0.811350 1.841061
-0.129959 -0.179339 1.979252
-0.062257 -1.205073 1.122756
-0.067256 -1.111493 1.085554
-0.069884 -1.057157 1.818179
-0.074923 -0.962799 1.783036
-0.095831 -0.569553 1.890629
0.053852 -1.481936 0.833721
-0.003136 -1.014489 1.267051
0.024256 -1.237904 1.481163
0.015557 -1.165708 1.829499
-0.057516 -0.567097 2.126389
0.166228 -1.529385 0.937975
0.084921 -1.107415 1.090750
0.098864 -1.179185 1.373128
0.107045 -1.220548 1.930742
0.043965 -0.893417 1.920874
-0.070093 -0.301732 2.001338
0.260752 -1.513449 0.942643
0.253298 -1.484832 0.792760
0.195074 -1.259002 1.206932
0.159903 -1.121958 1.891756
0.135948 -1.029025 2.076496
0.089980 -0.851321 1.996090
0.395175 -1.552071 1.028848
0.326335 -1.349977 1.000168
0.250921 -1.127833 1.635852
0.237987 -1.089531 1.926528
0.460573 -1.426928 0.804777
0.346357 -1.153709 1.333945
0.329450 -1.113065 1.625705
0.530715 -1.342240 1.106966
0.443253 -1.167238 1.461833
0.423754 -1.127875 1.969894
0.723297 -1.473705 0.958180
0.639029 -1.330753 1.253086
0.509498 -1.111003 1.722309
0.551485 -1.182084 1.780047
0.773015 -1.349268 1.111617
0.577254 -1.063810 1.532897
0.587125 -1.077937 1.926469
0.780441 -1.188925 1.351208
0.660921 -1.037771 1.707015
0.729067 -1.123707 1.927211
1.021738 -1.309466 1.126779
0.848164 -1.118618 1.593830
0.840217 -1.109651 2.042156
0.656932 -0.908224 2.352692
0.452750 -0.684174 2.066389
1.121095 -1.244818 1.101349
1.065070 -1.191161 1.445646
1.054120 -1.180483 1.893790
0.855575 -0.990791 2.202208
0.530145 -0.680011 2.426289
0.180145 -0.346077 2.052362
1.082525 -1.066519 0.971101
1.021645 -1.015623 1.317735
1.146715 -1.119691 1.645265
1.070973 -1.056487 1.828508
1.174692 -1.006574 0.922865
1.232167 -1.048065 1.204041
1.260720 -1.068394 1.974884
1.230724 -1.046547 2.260531
0.986522 -0.869655 2.409845
0.572005 -0.569648 2.092433
1.296421 -0.942440 1.230636
1.311346 -0.951511 1.405086
1.145095 -0.849396 1.977384
1.315935 -0.954059 2.026244
0.956519 -0.733755 2.185856
0.343398 -0.358020 2.278317
1.382740 -0.867718 0.974342
1.334100 -0.842005 1.482689
1.557137 -0.958807 1.856916
1.367819 -0.859543 1.832151
1.071254 -0.703946 2.037737
0.644205 -0.479985 2.100203
1.483479 -0.790866 1.709992
1.316915 -0.717566 1.626034
1.280264 -0.701316 1.912697
1.495428 -0.672350 0.961722
1.556648 -0.694186 1.458966
1.571531 -0.699392 1.848043
1.400258 -0.637796 1.764238
1.085083 -0.524225 2.186757
0.632996 -0.361529 2.249196
1.629329 -0.591940 1.201270
1.467332 -0.545936 1.714038
1.262417 -0.488000 1.687745
1.024159 -0.420446 2.159778
1.483088 -0.441703 0.921977
1.490770 -0.443176 1.316287
1.533974 -0.452158 1.651694
1.325311 -0.408189 1.625562
0.907363 -0.319877 2.225992
1.415504 -0.324769 0.887650
1.479190 -0.333458 1.386967
1.494236 -0.335411 1.777797
1.139354 -0.286038 1.599557
1.540872 -0.232529 0.902875
1.438128 -0.225402 1.084888
1.511328 -0.230331 1.364285
1.258590 -0.212793 1.832997
0.988050 -0.194250 1.704050
1.445105 -0.126581 1.299446
1.220498 -0.126373 1.713312
1.006444 -0.126326 1.689991
1.230437 -0.042583 1.285123
1.279574 -0.039188 1.403441
1.026716 -0.056262 1.878196
0.959828 -0.060777 2.007300
0.715819 -0.077406 2.045853
1.309937 0.053716 1.139853
1.295724 0.051836 1.372925
0.954533 0.004882 2.021387
0.977783 0.008081 1.975958
0.470018 -0.062105 2.100340
1.280333 0.140753 0.976230
1.350114 0.155566 1.259112
1.159374 0.115497 1.617588
0.885657 0.058005 2.153356
1.206364 0.209190 0.886071
1.032968 0.160531 1.631076
0.993839 0.149598 1.923084
0.814865 0.099138 2.065475
1.144662 0.277013 0.969594
1.183161 0.290975 1.308516
1.055689 0.245357 1.771574
0.824125 0.162261 2.027804
1.171523 0.376549 1.079560
1.107143 0.348327 1.206559
1.009682 0.305688 1.612962
0.973016 0.289701 1.903356
0.639896 0.143518 2.174628
0.089080 -0.098339 2.261649
1.219707 0.496006 0.925098
1.165316 0.467489 0.830546
1.009782 0.386268 1.352888
0.971639 0.366417 1.644213
0.672251 0.209839 2.077272
0.377039 0.055360 2.295539
1.164775 0.566718 0.963217
0.948409 0.434018 1.214478
0.937486 0.427413 1.447513
0.824271 0.358119 1.912675
0.616277 0.230466 1.949605
0.204640 -0.022170 2.017835
1.195571 0.697133 0.806010
0.987625 0.548994 1.055747
0.904600 0.489887 1.240757
0.865603 0.462313 1.753062
0.666705 0.320531 1.788530
0.858640 0.544448 1.055231
0.730767 0.439129 1.358835
0.793493 0.490890 1.418740
0.643654 0.367587 2.003685
0.294118 0.079420 2.236311
-0.079589 -0.228861 2.088163
1.012542 0.788760 0.781147
0.734049 0.524078 1.266531
0.815425 0.601491 1.269318
0.738492 0.528511 1.678721
0.450659 0.254869 2.011089
0.078330 -0.099252 2.144159
0.880700 0.772040 0.981312
0.897958 0.790804 0.935806
0.682726 0.556690 1.305711
0.650925 0.522346 1.820512
0.464238 0.319281 2.139763
0.117298 -0.058343 2.273162
0.916028 0.948026 0.719920
0.850500 0.865794 0.905194
0.562292 0.503771 1.121417
0.533844 0.468197 1.416599
0.505768 0.433219 1.933750
0.242055 0.101820 1.883730
-0.134649 -0.371476 1.975574
0.706390 0.801553 0.961465
0.616122 0.670744 1.041875
0.539731 0.560160 1.288325
0.547550 0.571750 1.687827
0.288111 0.195939 2.140888
0.013405 -0.202245 2.217189
0.777048 1.061918 0.724179
0.597081 0.758898 1.148726
0.455564 0.520445 1.239933
0.400198 0.427580 1.874496
0.305521 0.268111 2.018245
0.043631 -0.173192 2.151435
-0.188337 -0.564306 1.943115
0.561409 0.834631 0.869193
0.349927 0.414680 1.312335
0.440457 0.594641 1.359752
0.406292 0.527204 1.934440
0.175574 0.068769 2.062766
-0.068957 -0.417243 2.034991
0.498307 0.864630 0.883484
0.365961 0.548158 1.091244
0.358355 0.530392 1.550948
0.342657 0.493108 1.845009
0.155777 0.046231 2.138436
0.026869 -0.262423 1.912664
0.456673 0.951509 0.780370
0.317728 0.542613 0.939341
0.292235 0.467958 1.294797
0.276462 0.422357 2.037432
0.159482 0.078269 2.318759
0.003433 -0.381325 2.173326
0.438677 1.160065 0.655643
0.316887 0.701759 1.093491
0.253568 0.463213 1.128811
0.209924 0.299514 1.663208
0.238064 0.405866 1.886623
0.136950 0.025015 2.001216
0.005096 -0.471635 2.139180
0.347577 1.144144 0.733937
0.282794 0.805892 0.938815
0.212245 0.437624 1.208779
0.209696 0.424758 1.446381
0.240850 0.588250 1.775503
0.149528 0.111434 2.068385
0.052871 -0.393567 2.207662
0.246537 0.978439 0.659968
0.215246 0.722288 0.915993
0.180382 0.436975 1.235154
0.178709 0.423953 1.473232
0.166161 0.322176 1.888966
0.111042 -0.129679 2.128274
0.030727 -0.788464 2.353482
0.165200 0.727806 0.929504
0.155594 0.546485 0.844595
0.147848 0.403964 1.318304
0.143613 0.328249 1.897798
0.141666 0.292106 1.969208
0.104804 -0.399599 2.242496
0.110768 0.920821 0.805784
0.115542 0.632942 1.120666
0.119711 0.386662 1.155940
0.121342 0.276889 1.796530
0.119852 0.358631 2.077674
0.126494 -0.035007 2.195973
0.134203 -0.489403 2.215769
0.022746 1.141281 0.627813
0.054074 0.797436 0.832717
0.079461 0.519085 0.925136
0.097822 0.315670 1.519204
0.093131 0.366563 1.637652
0.118265 0.089156 2.188392
0.151398 -0.273880 2.251027
0.198357 -0.787742 2.170150
-0.033133 1.046148 0.593344
0.009489 0.769136 0.682355
0.040129 0.569280 1.048048
0.064297 0.412121 1.131814
0.075776 0.336721 1.488961
0.081945 0.295948 1.786281
0.146718 -0.125133 1.964784
0.234107 -0.693305 2.231182
-0.095680 1.003961 0.660875
-0.020320 0.667752 0.866696
0.002212 0.567019 1.054965
0.036825 0.412614 1.137381
0.066810 0.278186 1.612835
0.081919 0.210260 1.969201
0.168264 -0.174768 2.088874
0.280833 -0.676713 2.233114
-0.185128 1.038783 0.578400
-0.119291 0.823049 0.774008
-0.088896 0.723328 0.961809
0.011176 0.395517 1.173809
0.005733 0.413110 1.351926
0.053626 0.255686 1.886764
0.125296 0.021046 1.929200
0.318811 -0.612908 2.376671
-0.140296 0.721473 0.950351
-0.063773 0.521122 0.925367
0.019895 0.301374 1.578810
0.044842 0.235687 1.935557
0.078980 0.146328 1.903156
0.294461 -0.418237 2.224391
-0.267267 0.878983 0.617877
-0.209389 0.753649 0.863814
-0.041747 0.391147 0.967783
0.067558 0.154426 1.458074
0.060361 0.169441 2.086651
0.175708 -0.080008 2.191635
0.403643 -0.572939 2.398133
-0.389922 0.969671 0.596061
-0.265413 0.743519 0.850550
-0.173000 0.575702 0.990901
-0.065545 0.380541 1.192614
-0.042497 0.338321 1.714589
0.062297 0.147986 1.920972
0.253007 -0.198207 2.041894
-0.396174 0.849017 0.585576
-0.238560 0.603979 0.901166
-0.000869 0.234505 1.294281
0.039237 0.171967 1.653481
0.060603 0.138426 2.177131
0.226058 -0.118540 2.118753
0.569584 -0.652257 2.284068
-0.453763 0.817560 0.792137
-0.377353 0.715406 0.815348
-0.137575 0.394820 0.919986
0.038130 0.159614 1.471200
-0.007630 0.220475 1.981356
0.139723 0.023474 2.026289
0.340996 -0.245578 2.029262
-0.465242 0.742072 0.899141
-0.460076 0.735990 0.913502
-0.123117 0.339721 1.030498
-0.012851 0.209767 1.566643
-0.064636 0.270499 1.849206
0.094182 0.083733 1.890835
0.485626 -0.376715 2.213672
-0.637891 0.824241 0.803919
-0.464247 0.648764 0.835460
-0.306651 0.489416 1.035138
-0.172377 0.353663 1.178220
-0.119249 0.299795 1.535496
-0.006593 0.185799 1.847401
0.313929 -0.138203 2.089479
0.908545 -0.739115 2.233094
-0.447176 0.563026 1.188549
-0.219934 0.362512 1.118365
-0.072702 0.232397 1.489287
-0.131389 0.284051 1.773704
0.210769 -0.018029 2.013061
0.619979 -0.379158 1.990268
-0.768068 0.748825 0.749592
-0.540065 0.573693 1.060322
-0.485048 0.531411 1.187632
-0.170425 0.289894 1.292556
-0.091522 0.229251 1.481814
0.106953 0.076699 1.972539
0.443134 -0.181398 2.154490
-0.608719 0.555670 0.787479
-0.415213 0.427065 1.210881
-0.105216 0.221216 1.486017
-0.147870 0.249472 1.604443
0.084375 0.095199 1.931554
0.438444 -0.139760 1.887600
-0.640938 0.509723 1.003185
-0.579647 0.474821 1.131950
-0.157197 0.234603 1.190657
-0.069365 0.184584 1.381964
-0.084035 0.192757 1.785155
0.416151 -0.091741 2.041916
-0.801082 0.526719 0.749630
-0.677752 0.467135 0.995420
-0.210480 0.241714 1.112144
-0.061942 0.169945 1.423869
0.030481 0.125199 1.842858
0.522015 -0.111958 2.042734
-0.816397 0.462409 1.199179
-0.565494 0.362133 1.068040
-0.102654 0.176860 1.580443
-0.065514 0.161893 1.878551
0.245733 0.037437 1.877557
-0.967451 0.436246 0.974364
-0.472814 0.280857 1.087259
-0.230552 0.204673 1.350053
-0.189762 0.191748 1.648281
0.304321 0.036439 2.008846
-0.811021 0.330703 0.899141
-0.593893 0.276938 1.098368
-0.084401 0.150823 1.445889
-0.163773 0.170428 1.505403
0.108421 0.102998 1.833888
-0.938245 0.293187 0.910489
-0.694981 0.250420 0.943478
-0.175976 0.159074 1.288208
-0.045641 0.136073 1.541570
0.052306 0.118787 1.735803
-1.023827 0.229009 0.996322
-0.444506 0.171171 1.228212
-0.073775 0.134111 1.506373
-0.124376 0.139112 1.625846
0.331501 0.093578 1.866685
-0.642918 0.145913 1.513938
-0.034692 0.127141 1.819825
0.391695 0.113993 2.003008
-1.001264 0.088750 0.666772
-0.656493 0.101683 0.873588
-0.249249 0.116927 1.205581
-0.090932 0.122869 1.291205
0.074532 0.128915 1.831529
-0.866007 0.034784 0.915782
-0.644194 0.058347 1.114228
-0.280146 0.097121 1.161288
-0.148338 0.111074 1.412161
0.042116 0.131231 1.784824
-0.892677 -0.029984 0.867698
-0.768255 -0.007925 0.889210
-0.162554 0.099389 1.184349
0.059662 0.138640 1.617560
-0.079564 0.113888 1.780598
-0.831686 -0.076770 0.973272
-0.308085 0.053379 1.340971
0.200329 0.179669 1.924767
-0.753359 -0.110505 0.901798
-0.571409 -0.051802 1.042284
-0.199811 0.068243 0.923255
0.163302 0.185308 1.431631
0.117462 0.170373 1.777577
-0.827141 -0.195754 0.740915
-0.470043 -0.052630 1.234692
-0.166338 0.069351 0.998616
0.132732 0.189139 1.614460
-0.902998 -0.296281 0.764628
-0.925946 -0.307360 0.719421
-0.363047 -0.035352 1.235124
-0.089566 0.096929 1.167525
-0.073594 0.104465 1.634366
-0.890651 -0.363318 0.743950
-0.202799 0.029453 1.363012
0.122298 0.214995 1.874712
-0.941165 -0.474173 0.580664
-0.807931 -0.385581 0.659765
-0.493416 -0.176480 0.927215
-0.160648 0.044830 1.035166
0.055504 0.188400 1.530168
-0.834078 -0.490259 0.733956
-0.733444 -0.411775 0.756888
-0.221031 -0.012259 1.110897
0.044221 0.194640 1.104685
0.013207 0.170184 1.680613
-0.712423 -0.461751 0.742741
-0.347357 -0.138659 0.796765
-0.065028 0.111094 1.073604
-0.164033 0.023275 1.466512
-0.744114 -0.575776 0.781678
-0.626082 -0.456023 1.085025
-0.352778 -0.178309 0.964069
-0.089928 0.088580 1.240420
-0.098628 0.079416 1.871310
-0.754292 -0.683596 0.644097
-0.672057 -0.587931 0.663865
-0.326958 -0.186613 1.000756
-0.198542 -0.037414 1.370030
-0.287445 -0.141064 1.758337
-0.767318 -0.828450 0.649480
-0.601511 -0.603419 0.737265
-0.293069 -0.184776 0.850457
-0.298213 -0.192006 1.255346
-0.287125 -0.177375 1.941749
-0.533992 -0.605710 1.024203
-0.290135 -0.221455 1.023293
-0.346308 -0.310123 1.250431
-0.368192 -0.344991 1.817929
-0.641822 -0.916133 0.668220
-0.476969 -0.612973 0.873880
-0.317091 -0.318799 0.859726
-0.305907 -0.298573 1.323636
-0.254850 -0.205118 1.963854
-0.568874 -0.939919 0.703464
-0.389284 -0.547367 0.860035
-0.342982 -0.446485 1.273113
-0.335192 -0.430046 1.955440
-0.258607 -0.262517 1.876417
-0.559458 -1.121939 0.833916
-0.398754 -0.697041 0.825860
-0.285167 -0.397112 1.203922
-0.342762 -0.549729 1.536003
-0.264303 -0.342729 1.963750
-0.514042 -1.272661 0.826135
-0.330544 -0.661617 0.941874
-0.316873 -0.616455 1.237179
-0.346063 -0.714243 1.683940
-0.231825 -0.334162 2.017781
-0.347732 -0.957822 0.845611
-0.290840 -0.708417 1.101272
-0.305946 -0.775574 1.606950
-0.257488 -0.563116 1.807943
-0.326371 -1.269996 0.732249
-0.239792 -0.716770 1.119814
-0.245573 -0.755090 1.683254
-0.276652 -0.954122 1.729912
-0.164877 -0.239454 2.043042
-0.208543 -1.018328 0.808902
-0.198783 -0.899618 1.440805
-0.219349 -1.156494 1.595050
-0.180149 -0.670481 2.097234
-0.134329 -0.099850 2.123200
-0.150522 -1.438367 0.898354
-0.144076 -1.051691 0.769505
-0.142945 -0.995459 1.283378
-0.145587 -1.159848 1.610375
-0.135234 -0.554432 2.125005
-0.063003 -1.108832 0.885500
-0.072939 -0.930773 1.630028
-0.061368 -1.132348 1.676237
-0.087263 -0.677793 2.119040
0.010259 -1.080728 1.145223
0.015788 -1.123202 1.484544
0.006666 -1.049886 2.053169
-0.031621 -0.749233 1.986507
0.142834 -1.418623 0.934499
0.090524 -1.145096 1.021899
0.080754 -1.093050 1.535600
0.106365 -1.226144 1.920172
0.256715 -1.453408 1.048785
0.218130 -1.308857 0.906947
0.189400 -1.200503 1.314140
0.208032 -1.269694 1.813695
0.167986 -1.119350 1.894465
0.726404 -1.473860 0.955524
0.641769 -1.330803 1.250859
0.587990 -1.239749 1.652841
0.791562 -1.358127 1.081421
0.801356 -1.372085 1.255472
0.726023 -1.263716 1.494745
0.667675 -1.179644 1.896764
0.810633 -1.212640 1.492516
0.845890 -1.256672 1.389636
0.705514 -1.081232 2.020010
0.683162 -1.053316 2.088710
0.234453 -0.493517 2.398941
1.051409 -1.327849 1.068642
1.009847 -1.282779 0.974120
0.830018 -1.087183 1.660894
0.842855 -1.100909 2.052437
0.819095 -1.075079 2.119768
0.414417 -0.635590 2.412336
1.130594 -1.241599 1.094275
1.189173 -1.296899 1.154973
1.156237 -1.265647 1.441083
1.081199 -1.194571 1.840128
1.089339 -1.059738 0.970879
1.169038 -1.125197 1.195179
1.196080 -1.147082 1.966034
1.214265 -1.162063 1.921809
0.933877 -0.931276 2.183154
0.402917 -0.494356 2.435389
1.392927 -1.150712 1.274723
1.375642 -1.138062 1.937636
1.227065 -1.031906 1.854979
0.931282 -0.820383 2.116575
0.685043 -0.644418 2.048891
1.288248 -0.928389 0.850940
1.240130 -0.899016 1.358949
1.402878 -0.997428 1.845836
1.244332 -0.901114 2.414544
0.935698 -0.714073 2.462717
0.448388 -0.418772 2.485548
1.518766 -0.924190 1.326440
1.475852 -0.901882 1.830391
1.178596 -0.748698 2.033664
1.067148 -0.691287 2.057716
0.639453 -0.470887 2.340499
1.537208 -0.811708 1.192668
1.460033 -0.777568 1.971786
1.400462 -0.751490 1.881145
1.094334 -0.617211 2.086912
0.625877 -0.411806 2.208416
1.661335 -0.730933 1.259989
1.701305 -0.745163 1.595144
1.301802 -0.601587 1.748380
0.986685 -0.488136 2.392676
0.812507 -0.425680 2.094611
1.448852 -0.533112 1.131610
1.725126 -0.609742 1.233831
1.652146 -0.589361 1.575801
1.328434 -0.499452 1.776280
1.005342 -0.409630 2.202045
0.656215 -0.312724 2.253321
1.437620 -0.423648 1.419008
1.572668 -0.451285 1.583674
1.038026 -0.341486 1.969912
1.606712 -0.342288 0.956188
1.396180 -0.314149 0.925126
1.398719 -0.314264 1.538683
1.210603 -0.288981 1.893644
1.089984 -0.272926 1.695877
1.471283 -0.229038 0.823032
1.378788 -0.222318 1.607235
1.373253 -0.221929 1.617515
0.799763 -0.181870 2.066846
1.501197 -0.123657 0.792760
1.300560 -0.123893 1.148149
1.131052 -0.124013 1.669015
1.124447 -0.124021 1.681428
0.906011 -0.124266 2.100073
0.543897 -0.124826 2.374715
1.360447 -0.023091 0.847164
1.399147 -0.020019 1.186217
1.139665 -0.039536 1.878216
0.954670 -0.053579 2.018206
1.489301 0.079392 0.818802
1.331847 0.057536 0.895970
1.252685 0.046662 1.244214
1.177991 0.036408 1.592346
0.871704 -0.005943 2.184805
0.659391 -0.035458 2.165436
1.183020 0.127881 1.360964
1.231831 0.138529 1.478466
1.044964 0.098066 1.837196
1.530393 0.304232 0.899322
1.387662 0.263552 0.755959
1.163127 0.199798 1.170947
1.089387 0.178941 1.520684
0.876484 0.118500 1.940465
0.669093 0.059546 2.142462
0.176044 -0.080743 2.274271
1.226294 0.314508 0.812128
1.031377 0.243349 1.392708
1.045429 0.248648 1.789216
0.813990 0.163989 2.046750
0.528517 0.059502 2.204378
-0.064602 -0.157655 2.355479
1.084256 0.337064 1.045816
1.107858 0.347384 0.999572
0.837487 0.229250 1.755266
0.857504 0.238087 1.929757
0.661522 0.152231 1.908256
0.109483 -0.089552 1.991120
1.100585 0.442233 0.954499
1.066435 0.424100 1.023703
0.942585 0.358424 1.488543
0.852515 0.310690 1.895826
0.557450 0.153855 2.109560
0.157513 -0.058837 2.120856
1.130917 0.556458 0.822010
0.913979 0.421251 1.074052
0.848481 0.380547 1.424653
0.810560 0.357113 1.937959
0.654520 0.259750 1.858222
0.218636 -0.012078 1.985330
1.112544 0.649083 0.976230
1.010014 0.574904 0.997543
0.748459 0.385916 1.590973
0.886196 0.485626 1.697247
0.590168 0.271549 1.966153
0.078308 -0.098756 2.109330
1.063226 0.724413 0.775761
0.824087 0.524488 0.921613
0.595508 0.333685 1.683585
0.656450 0.384785 1.964755
0.559952 0.304095 1.990986
0.051636 -0.121023 1.972304
1.024276 0.808037 0.743908
0.752298 0.547082 1.006379
0.746852 0.541860 1.020028
0.690066 0.487526 1.373208
0.614512 0.415204 1.784865
0.371780 0.182301 2.002471
-0.063316 -0.235214 2.319518
0.805107 0.697755 0.966895
0.779015 0.669094 1.036644
0.629704 0.504972 1.233452
0.659581 0.538016 1.573632
0.431485 0.287366 2.009702
0.066282 -0.114220 2.201628
0.916311 0.955200 0.710508
0.763756 0.762249 0.738282
0.564850 0.510869 1.109054
0.440619 0.354072 1.697180
0.490486 0.417313 1.977418
0.302299 0.179237 1.912212
-0.109281 -0.341249 2.123051
0.745345 0.864805 1.034533
0.619392 0.681019 1.231933
0.480009 0.477518 1.267482
0.435570 0.413001 1.845469
0.279312 0.185046 2.169730
0.056126 -0.140911 2.065928
0.756083 1.038743 0.778903
0.622252 0.811013 1.252769
0.441249 0.502425 1.073323
0.384255 0.405756 1.709865
0.364565 0.372411 2.004158
0.104747 -0.070266 2.135921
-0.125268 -0.462398 1.927301
0.523944 0.765573 1.010928
0.467468 0.652620 1.032888
0.379282 0.476517 1.397165
0.332228 0.382911 2.033041
0.222806 0.164067 2.074283
-0.047060 -0.375671 2.167367
0.436001 0.733378 0.940412
0.376124 0.586851 1.020518
0.358789 0.544691 1.314580
0.318405 0.446424 1.949209
0.226008 0.220237 1.988763
-0.035833 -0.420594 2.262070
0.479015 1.023644 0.850498
0.410737 0.821400 0.822165
0.308412 0.518775 1.195910
0.284298 0.447759 1.549805
0.270868 0.408571 2.067258
0.173647 0.120821 2.227948
0.009214 -0.366266 2.140678
0.406953 1.056209 0.644739
0.333689 0.776541 0.955014
0.247103 0.445797 1.163926
0.266226 0.519316 1.446228
0.262839 0.507021 1.903538
0.155926 0.098185 1.851850
0.025693 -0.399538 1.986785
0.285787 0.830835 0.894127
0.239917 0.588454 0.926919
0.184455 0.296815 1.696914
0.193717 0.346433 2.038202
0.159251 0.164552 2.184935
0.063673 -0.340794 2.097573
0.222443 0.844932 0.903016
0.197306 0.622692 1.102275
0.179470 0.464817 1.185885
0.163880 0.328123 1.661116
0.169599 0.379212 1.779613
0.115028 -0.103693 2.077259
0.047197 -0.704809 2.177363
0.176860 1.008203 0.634123
0.170514 0.881043 0.655894
0.143505 0.343314 1.220485
0.149123 0.456029 1.221502
0.144999 0.377525 1.802115
0.135551 0.190682 2.173018
0.111474 -0.293421 2.025249
0.107116 1.041056 0.796219
0.112851 0.728665 0.945998
0.114630 0.633382 0.911742
0.120412 0.309571 1.515714
0.120509 0.299732 1.752285
0.124984 0.053072 2.018359
0.131187 -0.281610 2.018116
0.054381 0.767748 0.886693
0.068530 0.618541 0.744623
0.096285 0.322676 1.291626
0.089044 0.398212 1.577065
0.106827 0.208554 1.948639
0.138393 -0.125539 1.948701
0.212198 -0.907634 2.191633
-0.045236 1.047751 0.589720
-0.018953 0.888778 0.670927
0.053271 0.451558 1.059044
0.095586 0.194818 1.550274
0.062772 0.392961 1.597485
0.098641 0.175295 2.029766
0.192317 -0.391252 2.292159
-0.099166 0.993232 0.679248
-0.056093 0.806122 0.816719
0.055154 0.322973 1.097712
0.058058 0.309988 1.335382
0.054705 0.323527 1.961760
0.082855 0.201340 1.988369
0.211507 -0.357289 2.247031
-0.166018 0.979999 0.686735
-0.082130 0.703895 0.998952
-0.003828 0.446702 0.865285
0.073505 0.191642 1.578572
0.032268 0.326973 1.740648
0.112548 0.062711 2.065589
0.218476 -0.285519 2.125671
-0.242808 0.987797 0.645457
-0.150936 0.747585 0.899509
-0.031482 0.435608 0.884285
0.041411 0.244622 1.479012
0.023940 0.289906 1.821230
0.111560 0.061017 1.862373
0.295680 -0.420011 2.000078
-0.221063 0.776893 1.023746
-0.117411 0.553360 1.057502
0.026467 0.242933 1.272325
-0.018943 0.340655 1.497102
0.061469 0.166750 2.092741
0.240080 -0.218350 2.048791
0.507132 -0.794335 2.213523
-0.276322 0.763225 1.016435
-0.204191 0.632423 0.873129
-0.038498 0.331549 1.085379
0.029725 0.207205 1.787494
0.062040 0.148288 2.144063
0.281181 -0.249440 2.161409
0.530036 -0.701023 2.079148
-0.423971 0.889667 0.499699
-0.225987 0.582660 1.155398
-0.079198 0.355453 1.024920
-0.054461 0.316949 1.322577
-0.079640 0.355708 1.665764
0.233092 -0.128862 2.144614
0.463898 -0.486228 2.104798
-0.578629 0.984581 0.626911
-0.411020 0.760476 0.714914
-0.199401 0.477331 1.149369
0.023963 0.178581 1.425743
-0.022866 0.241007 1.710134
0.089689 0.090323 2.082987
0.326052 -0.225711 2.206470
-0.585954 0.872393 0.585871
-0.432079 0.693891 1.005926
-0.192507 0.416313 1.051402
-0.063864 0.267071 1.421140
-0.074908 0.279641 1.824260
0.163797 0.003062 1.882052
0.520338 -0.410115 2.084804
-0.658526 0.842575 0.755475
-0.553903 0.737287 0.611733
-0.349001 0.530774 0.927379
-0.039904 0.219289 1.320688
-0.115827 0.295633 1.546205
0.018593 0.159956 2.143125
0.297059 -0.120425 2.039991
0.702869 -0.529124 2.081089
-0.467850 0.578499 0.727916
-0.316116 0.445236 1.094644
-0.172560 0.319254 1.238842
-0.139368 0.289997 1.537358
0.139136 0.045478 2.045869
-0.613637 0.628188 0.690294
-0.599774 0.617484 0.926499
-0.131545 0.259365 1.386633
0.018504 0.144603 1.532651
-0.139512 0.265265 1.802122
0.317535 -0.084212 2.057593
-0.741224 0.640619 0.712156
-0.508077 0.486720 0.801500
-0.348554 0.381386 0.941075
-0.027696 0.169328 1.667070
-0.171468 0.264163 1.769513
0.132852 0.063310 1.824921
0.587975 -0.237124 2.024863
-0.732005 0.557927 0.818524
-0.489003 0.420843 0.908983
-0.378711 0.358631 0.931834
-0.043207 0.169112 1.658635
-0.219463 0.268498 1.702495
0.282239 -0.014555 1.955391
-0.992580 0.612348 0.786207
-0.740657 0.492421 0.874532
-0.532154 0.393024 1.296885
-0.207794 0.238731 1.120292
0.052905 0.114442 1.672236
0.034158 0.123202 2.075933
0.525970 -0.110843 2.050406
-1.178268 0.600843 0.712301
-0.768652 0.439064 1.088787
-0.621683 0.381040 1.169523
-0.340628 0.270165 1.097502
-0.075970 0.165607 1.420357
0.158596 0.072856 1.914185
0.637811 -0.116295 2.054946
-0.899988 0.414926 0.691955
-0.563188 0.309073 1.122506
-0.267968 0.216373 1.276041
-0.087766 0.159770 1.420122
0.009537 0.129077 1.837687
0.472191 -0.016135 1.913426
-0.793134 0.321554 1.352676
-0.296728 0.201592 1.247209
-0.021418 0.134917 1.572563
-0.012044 0.132562 1.811367
0.460040 0.018412 1.888078
-1.253231 0.339940 0.754673
-0.924733 0.284445 0.733956
-0.545607 0.220208 1.224703
-0.302872 0.179182 1.260926
-0.024101 0.131962 1.585716
0.074345 0.115175 2.004594
0.611445 0.024436 1.978685
-1.383725 0.262432 0.763106
-0.899971 0.215069 0.809651
-0.612857 0.186854 1.125725
-0.398878 0.165920 1.102833
0.039037 0.122833 1.727794
-0.073355 0.133833 1.726384
-0.972739 0.152849 1.113758
-0.638700 0.143744 1.099517
-0.271957 0.133725 1.147774
-0.138607 0.129997 1.399986
0.293279 0.118072 1.805304
-0.909518 0.088655 0.830358
-0.653447 0.099213 1.087797
-0.286738 0.114448 1.136127
0.029045 0.127443 1.522766
0.130292 0.131501 1.943971
-1.380696 -0.025295 0.811376
-0.930932 0.024369 0.798960
-0.294563 0.094354 1.563437
-0.169883 0.108111 1.588164
-0.719452 -0.002328 0.979002
-0.658532 0.008776 0.884158
-0.233862 0.085874 1.049455
-0.071076 0.115336 1.361624
0.090390 0.144474 1.902133
-1.048152 -0.136086 0.575231
-0.183231 0.083514 1.588164
0.057793 0.144715 1.856076
-0.841028 -0.144094 0.734984
-0.308284 0.031340 1.133798
-0.043708 0.118505 1.231949
-0.116530 0.094394 1.517164
-0.819940 -0.199180 0.752096
-0.202247 0.053536 1.352720
0.114827 0.183205 1.800542
-0.929115 -0.318662 0.707615
-0.512307 -0.112520 0.926291
-0.096464 0.093139 1.154838
-0.000731 0.140336 1.575802
-0.846034 -0.340733 0.629711
-0.126997 0.072452 1.531009
0.009567 0.150962 1.618740
-0.783644 -0.373459 0.913274
