24.971142 30.495254 0.291870
24.972397 30.522654 2.474383
24.963572 30.510769 2.699056
25.093720 30.731381 3.289494
25.374291 31.199485 3.917050
-15.021270 26.198590 2.529791
-15.255774 26.160605 2.913509
-15.735144 26.082957 3.526226
-16.077730 26.027466 3.722505
-16.578973 25.946275 4.206319
-16.639019 25.936546 7.321400
-16.741268 25.919984 7.763198
-17.062138 25.868009 8.215967
-16.976972 24.920726 2.136791
-17.157188 24.876236 2.809035
-17.385979 24.819753 3.194329
-17.801176 24.717253 3.716414
-18.378901 24.574628 4.146498
-18.661568 24.504843 7.028606
-18.810413 24.468097 7.566901
-18.996817 24.422079 7.967596
-19.573230 24.279778 8.534468
-18.974432 23.432759 2.313130
-19.094276 23.392396 2.892997
-19.473663 23.264619 3.553465
-19.720746 23.181403 3.798205
-20.334107 22.974825 4.321335
-20.682506 22.857484 7.150623
-20.781414 22.824171 7.591079
-21.090355 22.720121 8.042035
-21.609215 22.545371 8.511686
-20.761093 21.826642 2.559459
-20.898166 21.767534 3.372603
-21.238811 21.620643 3.797654
-21.685326 21.428101 4.034926
-22.210978 21.201434 4.229741
-22.434101 21.105218 7.251699
-22.613066 21.028046 7.650994
-23.120821 20.809096 8.117000
-22.630530 19.962469 2.053491
-22.395823 20.087638 2.756061
-22.627102 19.964296 3.372603
-22.878652 19.830144 3.848884
-23.231110 19.642177 4.135812
-23.936203 19.266151 4.325251
-24.286337 19.079422 6.771708
-24.145521 19.154519 7.349592
-24.357139 19.041662 7.845151
-24.723914 18.846060 8.259353
-24.111323 18.078268 2.429114
-23.837287 18.255095 3.039055
-23.819078 18.266844 3.576829
-24.264921 17.979152 4.271908
-24.934820 17.546884 4.453767
-25.810284 16.981968 7.052524
-25.709707 17.046867 7.489204
-25.985282 16.869045 8.176273
-25.585598 15.882812 2.144711
-25.375014 16.047188 2.845130
-25.291526 16.112356 3.433897
-25.490248 15.957237 4.045048
-25.955097 15.594386 4.458662
-26.830021 14.911438 4.591206
-27.143977 14.666367 7.515219
-27.473821 14.408898 7.925520
-27.800731 14.153718 8.342592
-26.503199 14.011413 2.822205
-26.362805 14.140775 3.462100
-26.460724 14.050549 4.262070
-26.726029 13.806089 4.679607
-28.251459 12.400511 7.289163
-28.327839 12.330132 7.731811
-28.700451 11.986796 8.101168
-27.771469 11.548811 2.345694
-27.530957 11.810554 3.095398
-27.435923 11.913978 3.821723
-27.449847 11.898823 4.439743
-29.224992 9.966963 6.738945
-29.179736 10.016212 7.505555
-29.431885 9.741803 7.819004
-28.578188 9.272913 2.197920
-28.430761 9.462923 3.128741
-28.311110 9.617135 3.765794
-28.324369 9.600045 4.384135
-29.922696 7.540032 7.541986
-30.039524 7.389457 7.706823
-29.244342 6.897754 2.021336
-29.130349 7.072540 2.810959
-29.009530 7.257791 3.592407
-28.946561 7.354342 4.173651
-29.049649 7.196275 4.688201
-30.503329 4.967323 7.325175
-30.534709 4.919206 7.672847
-30.786772 4.532715 8.181485
-29.575861 4.716973 2.495598
-29.526280 4.808746 3.459301
-29.579624 4.710004 4.029062
-29.604281 4.664364 4.508140
-29.947963 4.028205 4.960812
-30.741619 2.559138 6.813629
-30.729683 2.581232 7.438681
-30.971509 2.133609 8.038169
-29.953298 2.073320 1.921467
-29.881537 2.236920 2.944172
-29.781984 2.463880 3.492872
-29.869669 2.263974 4.239612
-30.049263 1.854534 4.606102
-30.458537 0.921467 4.777567
-30.883466 -0.047294 7.216008
-30.943740 -0.184708 7.754263
-31.129000 -0.607066 8.027941
-30.025648 -0.383924 2.120279
-29.976017 -0.239858 3.001075
-29.959084 -0.190704 3.679343
-29.977493 -0.244144 4.161077
-30.134828 -0.700864 4.389810
-30.502016 -1.766750 4.750431
-30.731016 -2.431504 7.156932
-30.810357 -2.661821 7.887690
-29.824799 -2.929964 2.584386
-29.814051 -2.886240 3.266005
-29.849200 -3.029243 3.698107
-29.949968 -3.439204 4.210565
-30.065526 -3.909334 4.446499
-30.301724 -4.870273 4.775344
-30.392349 -5.238976 7.452423
-30.513786 -5.733026 8.052448
-29.504374 -5.502662 2.796492
-29.514782 -5.567667 3.281733
-29.537880 -5.711929 3.714421
-29.626581 -6.265924 4.270421
-29.708378 -6.776795 4.367248
-29.851186 -7.668713 4.751130
-29.837877 -7.585600 6.954886
-29.869623 -7.783879 7.588847
-29.957204 -8.330877 8.054819
-28.999760 -7.683376 2.735921
-29.000601 -7.693491 3.129813
-29.024420 -7.979948 3.599717
-29.070996 -8.540083 4.155140
-29.106669 -8.969103 4.300427
-29.174266 -9.782042 4.730157
-29.185999 -9.923162 6.931244
-29.191331 -9.987298 7.513732
-29.226006 -10.404307 7.924019
-28.194898 -10.213999 2.119468
-28.194598 -10.258268 2.747537
-28.192253 -10.604938 3.307194
-28.190327 -10.889706 3.779912
-28.186904 -11.395648 4.248087
-28.183411 -11.912099 4.345371
-28.178253 -12.674803 4.685580
-28.179099 -12.549313 7.258688
-28.177788 -12.743057 7.656796
-27.272961 -12.410584 2.563318
-27.249618 -12.673593 3.173887
-27.211891 -13.098666 3.684183
-27.159419 -13.689879 4.101051
-27.116642 -14.171868 4.341710
-27.061558 -14.792510 4.635632
-27.072193 -14.672649 7.207978
-27.054992 -14.866463 7.605589
-26.171321 -14.598508 2.580523
-26.131290 -14.831783 2.957346
-26.049388 -15.309060 3.558153
-25.987144 -15.671784 3.983041
-25.896231 -16.201567 4.314010
-25.805677 -16.729268 4.653986
-25.804759 -16.734604 6.799131
-25.785822 -16.844953 7.473675
-25.692152 -17.390809 7.933776
-24.861399 -16.732982 2.211218
-24.800952 -16.966300 2.966529
-24.728780 -17.244882 3.435474
-24.642119 -17.579388 3.622070
-24.550129 -17.934466 4.047854
-24.415563 -18.453883 4.380164
-24.224452 -19.191566 4.720244
-24.364531 -18.650859 6.656329
-24.301816 -18.892934 7.378486
-24.185456 -19.342079 7.879141
-23.398579 -18.741141 2.076577
-23.402363 -18.730284 2.615297
-23.305903 -19.007018 3.083903
-23.128961 -19.514645 3.778957
-22.986852 -19.922341 3.921151
-22.838062 -20.349202 4.305105
-22.598249 -21.037200 4.789561
-22.736633 -20.640186 6.778243
-22.714771 -20.702905 7.357965
-22.561653 -21.142183 7.858955
-21.750151 -20.652206 2.143035
-21.790061 -20.562412 2.732997
-21.649524 -20.878605 3.289521
-21.486632 -21.245099 3.565300
-21.258622 -21.758100 4.123861
-21.040937 -22.247873 4.457130
-20.809810 -22.767889 4.656065
-21.015635 -22.304797 6.684938
-20.933172 -22.490330 7.311096
-20.781089 -22.832503 7.852469
-19.702735 -22.680796 2.377415
-19.683051 -22.716020 3.005748
-19.596402 -22.871084 3.294414
-19.346960 -23.317475 3.756681
-19.083789 -23.788437 4.085127
-18.821627 -24.257591 4.422601
-18.560541 -24.724821 4.769098
-18.916985 -24.086937 7.032762
-18.865041 -24.179893 7.470708
-18.639426 -24.583645 7.735319
-17.868349 -24.091280 2.520967
-17.782598 -24.219012 2.953814
-17.542479 -24.576686 3.465673
-17.270277 -24.982149 3.698437
-17.016725 -25.359831 4.081472
-16.764990 -25.734808 4.471625
-16.999003 -25.386224 7.086614
-16.787786 -25.700846 7.624919
-15.764528 -25.556389 2.864525
-15.563811 -25.807877 3.194659
-15.330475 -26.100235 3.620277
-15.079597 -26.414573 3.908117
-14.730259 -26.852276 4.482436
-14.340911 -27.340109 4.782118
-14.822682 -26.736470 6.960709
-14.781625 -26.787913 7.539310
-14.493756 -27.148597 7.801328
-13.598848 -26.789863 2.378121
-13.609421 -26.778628 2.916743
-13.448870 -26.949219 3.296544
-13.039161 -27.384549 3.708606
-12.765017 -27.675837 3.995661
-12.419264 -28.043211 4.476011
-12.741008 -27.701344 6.988615
-12.542460 -27.912307 7.567139
-12.102290 -28.380003 7.744240
-11.403421 -27.776873 2.484658
-11.456969 -27.728569 2.933358
-11.137101 -28.017110 3.442943
-10.815337 -28.307362 3.581621
-10.436979 -28.648666 4.054566
-10.101673 -28.951133 4.442552
-10.596685 -28.504597 6.569532
-10.443237 -28.643017 7.191320
-10.163021 -28.895790 7.726961
-9.753259 -29.265422 7.950574
-8.933222 -28.630534 2.137406
-8.830291 -28.707748 2.712299
-8.597093 -28.882683 3.182220
-8.280980 -29.119818 3.838839
-7.936103 -29.378531 3.980923
-7.490557 -29.712761 4.552530
-7.076955 -30.023028 4.659037
-8.013595 -29.320396 7.146803
-7.712474 -29.546284 7.675906
-7.308670 -29.849201 7.798590
-6.670478 -29.197188 2.124538
-6.704670 -29.175666 2.804584
-6.412089 -29.359818 3.361178
-6.026390 -29.602578 3.728816
-5.570089 -29.889776 4.053281
-5.070642 -30.204130 4.480602
-4.500165 -30.563190 4.871479
-5.713562 -29.799471 6.644741
-5.540426 -29.908443 7.261864
-5.300401 -30.059515 7.605896
-4.833579 -30.353334 8.055238
-4.208458 -29.665929 2.372657
-4.247491 -29.645640 3.051900
-3.992221 -29.778326 3.518867
-3.416684 -30.077484 4.019443
-2.910465 -30.340612 4.205230
-2.387872 -30.612251 4.636890
-3.348015 -30.113175 6.846834
-3.089545 -30.247525 7.417589
-2.838898 -30.377809 7.761907
-1.856740 -29.865376 2.000863
-1.891912 -29.850641 2.681377
-1.752569 -29.909015 3.109786
-1.358341 -30.074167 3.616028
-0.890206 -30.270279 4.078644
-0.395238 -30.477633 4.407950
0.145954 -30.704351 4.840544
-0.881571 -30.273894 6.567072
-0.904419 -30.264322 6.952076
-0.511893 -30.428760 7.570039
-0.169535 -30.572182 7.871650
0.528443 -29.889241 2.047368
0.411644 -29.851293 2.780891
0.635437 -29.924001 3.155246
1.041564 -30.055946 3.660615
1.523899 -30.212651 4.122343
2.166982 -30.421581 4.494517
2.674916 -30.586603 4.834279
1.355680 -30.157996 6.471986
1.592646 -30.234984 6.947052
1.868584 -30.324632 7.517341
2.350863 -30.481319 7.867263
2.995257 -29.748040 2.252672
2.954867 -29.738501 2.931492
3.236408 -29.804986 3.396629
3.543322 -29.877464 3.722920
3.847778 -29.949360 4.052864
4.388499 -30.077050 4.613633
3.774655 -29.932090 6.581599
3.929431 -29.968640 7.101847
4.383986 -30.075982 7.580946
4.833363 -30.182101 8.068731
5.465812 -29.321286 2.092512
5.568100 -29.335792 2.807360
5.911654 -29.384513 3.362895
6.224995 -29.428950 3.690344
6.503703 -29.468475 4.163480
7.001091 -29.539013 4.632738
6.993988 -29.538006 5.026808
6.747002 -29.502978 6.026014
6.512966 -29.469787 6.645027
6.711135 -29.497890 7.028450
7.040246 -29.544564 7.461003
7.453968 -29.603236 7.854462
7.917895 -28.781228 2.392139
7.904257 -28.780421 2.928384
8.249226 -28.800831 3.483694
8.618503 -28.822679 3.901827
8.844190 -28.836031 4.284223
9.691770 -28.886179 4.556216
8.723831 -28.828909 6.106193
8.937405 -28.841544 6.718853
9.142057 -28.853652 7.333152
9.471420 -28.873139 7.768177
9.841436 -28.895031 8.071290
10.362863 -28.033432 2.385066
10.236135 -28.036334 2.743644
10.639476 -28.027096 3.388897
10.978687 -28.019328 3.949645
11.204268 -28.014162 4.332302
11.965772 -27.996723 4.654495
10.944499 -28.020109 6.111060
11.110294 -28.016312 6.631257
11.358516 -28.010627 7.106495
11.690710 -28.003019 7.539734
12.153599 -27.992419 8.027192
12.513505 -27.108360 2.240012
12.500588 -27.109711 2.775320
12.760601 -27.082506 3.381649
13.128490 -27.044015 3.797095
13.459394 -27.009393 4.359382
13.885750 -26.964785 4.501565
14.032647 -26.949415 5.170111
13.507168 -27.004393 6.078517
13.406804 -27.014893 6.739034
13.562537 -26.998599 7.257625
13.844247 -26.969124 7.595673
14.257723 -26.925863 7.986093
14.937512 -26.854739 8.255014
14.674006 -25.989999 2.372300
14.770067 -25.971840 3.085171
15.052610 -25.918430 3.550055
15.329965 -25.866000 4.018163
15.634933 -25.808350 4.347979
16.467803 -25.650910 4.619448
15.213090 -25.888091 6.445049
15.324450 -25.867040 6.870640
15.785705 -25.779847 7.341985
16.063884 -25.727261 7.681682
16.648887 -25.616676 8.217222
16.929037 -24.650506 2.094186
16.863149 -24.668670 2.915090
16.898597 -24.658897 3.161959
17.279128 -24.553985 3.805920
17.578948 -24.471325 4.132366
17.726959 -24.430518 4.794822
18.103290 -24.326764 5.078549
17.461000 -24.503841 6.783652
17.691796 -24.440211 7.025370
17.925087 -24.375892 7.498065
18.326310 -24.265276 7.885341
19.071441 -24.059844 8.338638
19.068093 -23.017813 3.333838
19.391952 -22.895766 3.514831
19.756511 -22.758380 4.164701
19.782587 -22.748550 7.107355
20.342795 -22.537434 7.400012
20.522941 -22.469545 7.786543
20.952311 -22.307735 8.275459
21.021904 -21.316070 2.441262
20.982172 -21.334890 3.120934
21.165015 -21.248280 3.640395
21.399888 -21.137024 3.877753
21.574099 -21.054502 4.400833
22.387391 -20.669258 4.765214
21.593347 -21.045382 7.577033
22.171810 -20.771373 7.738550
22.628182 -20.555196 8.320979
22.517977 -19.713389 2.578051
22.576243 -19.680289 3.059616
22.704048 -19.607683 3.488077
22.996614 -19.441480 4.047155
22.905654 -19.493152 4.859832
23.125073 -19.368500 7.645374
23.681471 -19.052416 8.035266
24.118127 -18.804356 8.387533
24.128026 -17.638483 2.571669
24.251571 -17.552441 3.376043
24.624440 -17.292760 3.737797
24.880017 -17.114766 4.065711
24.721428 -17.225213 4.928568
25.067895 -16.983917 7.622853
25.334561 -16.798200 8.054792
25.820137 -16.460026 8.363049
25.635130 -15.469582 2.454929
25.732191 -15.389230 3.029544
25.973447 -15.189506 3.732838
26.041066 -15.133528 4.075192
26.054491 -15.122413 4.699792
26.676273 -14.607670 7.466445
26.721637 -14.570115 8.037820
27.143579 -14.220811 8.488168
26.897374 -13.236600 2.629704
26.884916 -13.248768 3.167019
27.151780 -12.988113 3.584828
27.392437 -12.753055 4.149990
27.279438 -12.863424 4.875433
27.715148 -12.437851 7.272998
27.823904 -12.331625 8.029120
28.152218 -12.010950 8.291211
27.943627 -10.908516 2.163091
27.917146 -10.939084 2.845405
27.939896 -10.912821 3.471185
28.125570 -10.698481 3.940788
28.329499 -10.463068 4.271908
28.509206 -10.255617 4.748204
27.616127 -11.286571 6.617444
28.504011 -10.261610 7.933059
28.833925 -9.880763 8.052953
28.726632 -8.604665 2.488956
28.716918 -8.617938 3.026029
28.836774 -8.454171 3.546769
28.889024 -8.382778 3.887311
29.064980 -8.142357 4.592051
29.616112 -7.389312 4.817847
28.591990 -8.788630 6.646904
28.923052 -8.336279 7.064674
29.410084 -7.670817 7.358638
29.470127 -7.588777 7.561703
29.636660 -7.361232 8.138024
29.319007 -6.093797 2.290916
29.354984 -6.034008 3.150511
29.474671 -5.835110 3.528402
29.692612 -5.472935 4.039662
29.677151 -5.498623 7.745138
29.959338 -5.029682 7.722295
30.219375 -4.597551 8.302703
29.779216 -3.557737 2.691584
29.857532 -3.399658 3.354466
29.921299 -3.270948 3.784574
30.045140 -3.020980 4.255848
29.866656 -3.381235 6.825033
29.993905 -3.124391 7.157874
30.240362 -2.626930 7.588403
30.424987 -2.254273 7.980204
30.587536 -1.926176 8.515342
29.959812 -1.125229 2.457313
29.942995 -1.167618 3.136114
30.048653 -0.901286 3.603315
30.184115 -0.559828 4.022896
30.234608 -0.432551 4.455611
30.463283 0.143868 4.735431
30.215175 -0.481528 7.068244
30.368848 -0.094168 7.223893
30.457979 0.130505 7.933803
30.560522 0.388985 8.280046
29.982225 1.464141 2.819397
29.984627 1.472051 3.211546
30.092465 1.827188 3.628711
30.164507 2.064439 4.243669
30.238698 2.308765 4.485365
30.459439 3.035715 4.813653
30.112726 1.893922 6.812747
30.144260 1.997769 7.239406
30.279223 2.442234 7.716516
30.386515 2.795571 8.015534
30.545308 3.318510 8.465472
29.736858 3.777748 2.433416
29.727241 3.733349 3.111892
29.794347 4.043186 3.436118
29.854231 4.319680 3.906356
29.942553 4.727472 4.421678
30.140444 5.641152 4.651356
29.868683 4.386413 6.475196
29.892440 4.496106 6.903539
29.962920 4.821521 7.333659
30.023114 5.099443 7.905492
30.101089 5.459462 8.208083
29.356657 6.429122 2.232182
29.351036 6.386524 2.913566
29.352000 6.393836 3.305733
29.396310 6.729639 3.866128
29.432681 7.005282 4.339263
29.525297 7.707178 4.569525
29.468379 7.275832 6.060385
29.449753 7.134683 6.862645
29.457780 7.195519 7.200750
29.506949 7.568152 7.727481
29.567074 8.023807 8.217449
28.649124 8.862584 2.868261
28.655210 9.011513 3.298320
28.669062 9.350469 3.859367
28.680435 9.628761 4.333172
28.707198 10.283620 4.470501
28.683856 9.712518 6.766031
28.688323 9.821818 7.196431
28.699921 10.105635 7.537788
28.713261 10.432063 7.975951
28.743018 11.160185 8.343519
27.906484 11.016669 2.557921
27.906087 11.028371 2.952371
27.894426 11.372732 3.513212
27.880103 11.795685 4.028051
27.864845 12.246275 4.407429
27.881249 11.761784 6.428968
27.874192 11.970191 7.045052
27.872133 12.030968 7.385222
27.857961 12.449471 7.778297
27.837826 13.044096 8.324054
26.894851 13.382625 2.549579
26.874020 13.561341 3.217080
26.857068 13.706779 3.651122
26.808222 14.125851 4.168076
26.742128 14.692913 4.357696
26.808268 14.125441 6.433144
26.778635 14.379677 7.143911
26.761295 14.528444 7.440918
26.723228 14.855037 7.881888
25.498620 16.007436 2.482452
25.496747 16.016269 3.255027
25.419777 16.379453 3.676163
25.348159 16.717385 3.867205
25.279434 17.041663 4.440674
25.344117 16.736446 6.367471
25.337779 16.766350 7.077409
25.306819 16.912435 7.372369
25.220053 17.321840 7.767137
25.143493 17.683089 8.305958
24.172863 18.055092 2.215475
24.224546 17.878012 2.862026
24.167309 18.074114 3.386146
24.048448 18.481358 3.901988
23.970554 18.748234 4.381332
23.796300 19.345266 4.669004
24.025043 18.561537 6.738481
23.929961 18.887308 7.404567
23.863173 19.116135 7.888470
23.772340 19.427346 8.100878
22.508129 19.989493 2.278602
22.452034 20.132091 3.090115
22.367179 20.347801 3.471609
22.232192 20.690951 3.896800
22.098764 21.030137 4.327105
21.864657 21.625259 4.854255
22.179429 20.825074 6.208168
22.167515 20.855359 6.919726
22.061581 21.124652 7.493710
21.975015 21.344710 7.977537
21.873547 21.602651 8.327008
20.654411 22.042145 2.564066
20.600701 22.151317 3.142532
20.522997 22.309259 3.433960
20.336193 22.688961 3.954238
20.199081 22.967658 4.293761
19.955250 23.463274 4.872343
20.353038 22.654716 6.365165
20.300554 22.761395 7.031185
20.233282 22.898133 7.558699
20.149024 23.069398 7.949650
19.946551 23.480949 8.214398
18.727691 23.718637 2.816898
18.622496 23.893911 3.344105
18.431909 24.211466 3.771386
18.243526 24.525348 4.203803
18.012426 24.910405 4.592659
18.361483 24.328804 6.712813
18.350993 24.346283 7.192774
18.226433 24.553822 7.907486
17.990817 24.946404 8.403125
16.573939 25.347049 2.347733
16.533759 25.402826 2.838243
16.414264 25.568706 3.368717
16.184921 25.887075 4.036606
16.034348 26.096098 4.285381
15.874295 26.318281 4.774103
16.248301 25.799088 6.980248
16.079431 26.033510 7.556886
15.941804 26.224562 7.811163
15.699698 26.560649 8.214866
14.532310 26.526292 2.742143
14.343669 26.747769 3.218574
14.249833 26.857938 3.656252
13.976919 27.178356 4.181147
13.685592 27.520394 4.569766
14.067084 27.072493 6.644373
14.022943 27.124318 7.218460
13.837462 27.342084 7.797433
13.626960 27.589227 8.010696
12.225228 27.703736 2.331940
12.217361 27.711559 3.111354
11.991485 27.936225 3.446802
11.728961 28.197342 3.879284
11.469531 28.455382 4.316919
11.728504 28.197793 7.022374
11.619651 28.306062 7.553224
11.419656 28.504986 7.903995
11.094351 28.828547 8.406128
9.870013 28.632890 2.733332
9.604164 28.856592 3.305081
9.493518 28.949696 3.745464
9.121342 29.262869 3.986163
8.694844 29.621751 4.567909
9.214503 29.184474 6.695668
9.267256 29.140083 7.223286
9.014514 29.352757 7.666186
8.765246 29.562506 8.113813
8.380436 29.886309 8.482647
7.349764 29.355778 2.245862
7.083157 29.542427 2.961992
6.820702 29.726169 3.300569
6.613003 29.871577 3.930796
6.329456 30.070086 4.132834
6.658733 29.839558 6.756266
6.453765 29.983054 7.477327
6.332363 30.068046 8.011683
6.029820 30.279854 8.324961
4.989122 29.912064 2.527820
4.931639 29.946222 3.018980
4.535753 30.181466 3.397806
4.338194 30.298859 3.789889
3.931409 30.540579 4.418637
4.334482 30.301062 6.941107
4.162110 30.403489 7.567841
4.036374 30.478203 7.869114
3.641675 30.712742 8.372185
2.318224 30.219212 2.074560
2.484316 30.139801 2.723169
2.094356 30.326245 3.239956
1.858312 30.439100 3.483689
1.349799 30.682224 4.056111
1.576055 30.574046 6.967493
1.315111 30.698806 7.548943
1.142688 30.781243 7.944278
0.607998 31.036883 8.502556
-0.207129 30.317767 2.878526
-0.638519 30.481859 3.255456
-0.854331 30.563949 3.646405
-1.147918 30.675624 3.989779
-1.096724 30.656147 7.282928
-1.235114 30.708788 7.583636
-1.709232 30.889132 8.180540
-2.861527 30.165184 2.607477
-3.034956 30.213969 2.900614
-3.366397 30.307201 3.473865
-3.721856 30.407190 3.907959
-4.208249 30.544010 4.393216
-3.795192 30.427817 6.775323
-3.861470 30.446460 7.585144
-4.218834 30.546984 7.893366
-4.747411 30.695670 8.356639
-5.184501 29.798634 2.364274
-5.584753 29.876379 3.025592
-5.867170 29.931236 3.506616
-6.176144 29.991251 3.847067
-6.672817 30.087726 4.331609
-6.524027 30.058822 6.812438
-6.500031 30.054161 7.436260
-6.688821 30.090831 7.832482
-7.508866 29.346645 2.380049
-7.436728 29.338125 2.832075
-8.006194 29.405383 3.393869
-8.460713 29.459066 3.779010
-8.632580 29.479364 4.080447
-8.798456 29.498953 7.385150
-8.901260 29.511095 7.827287
-9.223892 29.549200 8.280309
-10.058919 28.549607 2.469626
-10.182443 28.552992 3.051486
-10.586883 28.564075 3.335746
-10.957827 28.574241 3.769374
-11.289973 28.583340 7.124535
-11.577434 28.591217 7.942400
-11.810331 28.597600 8.201457
-12.198501 27.637015 2.386697
-12.294797 27.631735 2.730328
-12.726300 27.608078 3.247189
-13.183216 27.583028 3.627027
-13.496377 27.565859 3.969154
-13.619314 27.559117 7.167733
-13.813610 27.548465 7.563402
-14.049427 27.535536 8.056258
-14.596075 27.505567 8.523336
-14.335811 26.560219 2.639836
-14.682383 26.512635 3.209426
-15.137959 26.450086 3.589432
-15.536765 26.395331 3.882642
-16.118041 26.315521 6.870131
-16.048352 26.325089 7.404148
-16.285867 26.292478 7.901127
-16.653455 26.242010 8.220571
-16.515368 25.271995 2.298890
-16.640562 25.244044 2.882700
-16.925480 25.180434 3.363098
-17.342273 25.087383 3.889435
-17.922759 24.957786 4.324513
-17.973691 24.946412 7.199867
-18.208730 24.893938 7.691845
-18.481950 24.832940 8.282179
-19.017781 24.713313 8.518189
-18.604996 23.729205 2.508056
-18.804267 23.665591 3.035171
-19.183496 23.544527 3.696993
-19.647398 23.396433 3.935494
-20.295222 23.189624 4.321222
-20.369932 23.165772 6.812886
-20.258188 23.201444 7.250216
-20.574208 23.100559 7.935476
-20.926601 22.988062 8.253327
-20.267725 22.301569 2.239172
-20.175564 22.338735 2.832594
-20.598319 22.168248 3.579765
-20.969798 22.018439 3.863961
-21.420159 21.836819 4.103645
-21.857318 21.660521 6.879748
-21.960327 21.618980 7.555241
-22.263788 21.496601 8.006454
-22.162852 20.392010 2.717258
-22.145022 20.401164 3.255381
-22.495744 20.221098 3.911214
-22.926135 20.000129 4.144505
-23.510651 19.700030 4.286016
-23.839683 19.531097 7.340688
-23.970397 19.463987 7.642432
-24.501214 19.191458 8.202235
-23.790691 18.470592 2.165296
-23.658767 18.552889 3.045698
-23.950899 18.370647 4.001498
-24.570299 17.984245 4.462555
-25.275509 17.544313 4.511448
-25.484469 17.413954 6.902859
-25.383873 17.476709 7.339205
-25.702083 17.278199 7.885876
-24.991093 16.627433 2.440590
-24.931151 16.672079 3.263339
-25.109274 16.539404 4.015687
-25.400609 16.322404 4.436404
-25.995393 15.879380 4.523167
-26.784187 15.291846 7.007735
-26.834546 15.254336 7.589219
-27.205317 14.978168 8.095296
-26.341320 14.446263 2.747597
-26.092293 14.666122 3.349420
-26.128261 14.634366 4.199627
-26.398252 14.395997 4.614494
-28.053732 12.934411 7.258466
-27.994454 12.986746 7.552397
-28.475996 12.561604 8.206763
-27.362236 12.303553 2.739793
-27.171949 12.501924 3.433420
-27.131069 12.544540 4.105768
-29.014734 10.580839 7.217497
-29.024840 10.570303 7.704616
-29.375865 10.204364 8.074035
-28.380342 9.755108 2.594544
-28.244092 9.925698 3.377795
-28.153622 10.038968 4.101229
-28.271659 9.891180 4.615953
-28.656720 9.409067 4.883976
-29.760295 8.027342 6.916771
-29.800014 7.977611 7.497379
-30.145147 7.545490 8.194223
-28.998053 7.671236 2.526244
-28.876098 7.849447 3.311605
-28.795480 7.967251 4.037016
-28.854648 7.880790 4.603870
-29.232922 7.328020 4.962680
-30.255599 5.833589 6.861496
-30.370604 5.665533 7.729576
-30.580354 5.359026 8.045684
-29.540035 5.204981 2.152534
-29.450553 5.362769 3.175211
-29.370139 5.504567 3.672915
-29.408566 5.436805 4.383436
-29.586571 5.122918 4.801658
-30.654018 3.240613 7.371856
-30.839440 2.913646 7.921428
-29.856673 2.574760 2.208760
-29.793256 2.714924 3.086640
-29.793704 2.713931 3.851804
-29.794132 2.712983 4.241731
-30.071906 2.099047 4.599330
-30.528576 1.089715 4.726334
-30.818665 0.448554 7.357013
-30.954408 0.148535 7.808082
-29.933310 0.412103 2.617629
-29.936023 0.404661 3.384452
-29.956013 0.349836 3.864172
-30.146946 -0.173803 4.411858
-30.400905 -0.870291 4.496503
-30.751406 -1.831547 4.684746
-30.817663 -2.013265 7.215263
-30.838226 -2.069661 7.797039
-30.980673 -2.460325 7.973857
-29.877801 -2.151905 2.521906
-29.902396 -2.242248 3.235905
-29.940356 -2.381687 3.663933
-30.013884 -2.651776 4.132366
-30.177114 -3.251361 4.404577
-30.422703 -4.153468 4.635416
-30.524876 -4.528786 7.546820
-30.622456 -4.887220 7.858746
-29.576614 -4.994089 2.524837
-29.578150 -5.002822 3.293599
-29.612458 -5.197767 3.811592
-29.681234 -5.588560 4.087842
-29.773962 -6.115450 4.411847
-29.911744 -6.898340 4.598573
-29.971237 -7.236398 7.410831
-30.028001 -7.558938 7.859688
-29.063563 -7.415298 2.708822
-29.077344 -7.565310 3.139271
-29.105700 -7.873987 3.842999
-29.147018 -8.323751 4.216250
-29.203974 -8.943745 4.498064
-29.268850 -9.649941 4.742597
-29.277634 -9.745579 7.082805
-29.283286 -9.807112 7.664396
-29.325534 -10.266994 7.936224
-28.342907 -9.806932 2.136351
-28.343711 -9.907259 2.854298
-28.344905 -10.056165 3.284920
-28.347440 -10.372148 3.613185
-28.351941 -10.933401 4.171435
-28.356663 -11.522169 4.598530
-28.362211 -12.213743 4.607361
-28.360526 -12.003957 7.226501
-28.363172 -12.333880 7.675086
-27.443156 -12.055528 2.426389
-27.438081 -12.123621 2.909071
-27.402053 -12.606966 3.507002
-27.374678 -12.974225 3.929655
-27.334721 -13.510302 4.257958
-27.292356 -14.078679 4.452085
-27.277485 -14.278159 6.739572
-27.265666 -14.436712 7.510015
-27.241346 -14.762989 7.961114
-26.344983 -14.331528 2.132833
-26.337982 -14.375706 2.761973
-26.292341 -14.663726 3.231972
-26.225555 -15.085189 3.745631
-26.168122 -15.447628 4.173604
-26.078768 -16.011513 4.365512
-25.959260 -16.765688 4.707942
-26.016997 -16.401313 6.795435
-26.013930 -16.420667 7.281920
-25.947948 -16.837053 7.922780
-25.031991 -16.535141 2.735217
-25.022730 -16.572686 2.985481
-24.912665 -17.018930 3.351226
-24.790282 -17.515115 3.816343
-24.681879 -17.954618 4.197294
-24.519798 -18.611754 4.582498
-24.547502 -18.499423 7.152593
-24.533339 -18.556843 7.498354
-23.528161 -18.658761 2.123101
-23.523217 -18.673390 2.519228
-23.438317 -18.924625 3.133553
-23.346313 -19.196880 3.607479
-23.155794 -19.760665 4.026238
-23.000491 -20.220236 4.268508
-22.079876 -20.325709 2.598419
-21.965209 -20.596084 3.068955
-21.874122 -20.810858 3.451401
-21.653682 -21.330637 4.011327
-21.485117 -21.728101 4.158864
-21.220394 -22.352295 4.546536
-21.387370 -21.958574 7.164550
-21.275879 -22.221461 7.516473
-20.076122 -22.338602 1.964501
-20.107436 -22.280393 2.791560
-19.955649 -22.562539 3.117930
-19.738337 -22.966484 3.488236
-19.496831 -23.415399 3.958598
-19.241838 -23.889386 4.294108
-18.963028 -24.407644 4.734040
-19.334281 -23.717547 6.670396
-19.280140 -23.818184 7.340630
-19.038435 -24.267470 7.931996
-18.260587 -23.778780 2.273406
-18.160676 -23.932700 2.938277
-17.956684 -24.246967 3.356926
-17.678469 -24.675580 3.822112
-17.443397 -25.037729 3.966627
-17.168600 -25.461076 4.448031
-17.349841 -25.181855 7.010804
-17.291615 -25.271555 7.448134
-16.940872 -25.811905 7.858424
-16.103735 -25.391984 2.678201
-15.925903 -25.622358 3.147792
-15.732439 -25.872985 3.477469
-15.454621 -26.232890 3.852960
-15.113675 -26.674573 4.423439
-14.765721 -27.125337 4.623371
-15.317920 -26.409976 6.975685
-15.198157 -26.565125 7.365671
-14.831855 -27.039657 7.911193
-13.977542 -26.599194 1.843076
-14.040922 -26.529860 2.437066
-13.919036 -26.663193 3.102305
-13.705108 -26.897213 3.429643
-13.398073 -27.233087 3.801920
-13.034610 -27.630687 4.131475
-12.613662 -28.091172 4.421230
-13.122677 -27.534345 6.824123
-13.141614 -27.513629 7.210233
-12.796583 -27.891066 7.793491
-11.940815 -27.480688 2.186992
-11.970694 -27.452946 2.868028
-11.551818 -27.841860 3.413069
-11.177736 -28.189185 3.877510
-10.822028 -28.519450 4.114973
-10.491960 -28.825909 4.502494
-11.019318 -28.336269 6.532624
-10.898936 -28.448039 7.291188
-10.591370 -28.733605 7.687345
-10.087801 -29.201155 7.961573
-9.648695 -28.371535 2.208058
-9.393005 -28.572720 2.909498
-9.296898 -28.648341 3.107280
-9.028453 -28.859562 3.671153
-8.561924 -29.226643 4.089362
-8.098297 -29.591441 4.519051
-8.648205 -29.158751 7.024691
-8.457624 -29.308706 7.506083
-8.023311 -29.650439 7.954135
-7.011659 -29.139992 2.228428
-6.953548 -29.177682 3.086872
-6.713417 -29.333431 3.553643
-6.333207 -29.580036 3.921958
-5.882821 -29.872157 4.247449
-5.360945 -30.210647 4.533035
-4.957362 -30.472411 4.782118
-6.117965 -29.719640 6.647623
-5.872093 -29.879112 7.218225
-5.709650 -29.984473 7.605896
-5.285390 -30.259648 7.959298
-4.548049 -29.628297 2.430956
-4.561107 -29.621300 2.969456
-4.257031 -29.784240 3.529910
-3.779459 -30.040150 3.851037
-3.303620 -30.295131 4.181243
-2.876270 -30.524129 4.426379
-2.357623 -30.802049 4.868872
-3.733021 -30.065031 6.831745
-3.557472 -30.159100 7.219562
-3.265512 -30.315548 7.657809
-2.619708 -30.661606 8.022535
-2.309303 -29.816076 2.285522
-2.166293 -29.878269 3.092240
-1.901706 -29.993334 3.561608
-1.612687 -30.119025 3.892113
-1.118402 -30.333984 4.217938
-0.625992 -30.548127 4.552824
-0.055203 -30.796357 4.848628
-1.364714 -30.226863 6.627596
-1.218664 -30.290378 7.152178
-0.914308 -30.422739 7.588525
-0.408541 -30.642691 8.034070
0.055191 -29.869158 2.667998
0.332541 -29.963399 3.133656
0.656673 -30.073537 3.693177
1.004621 -30.191767 4.115338
1.380587 -30.319517 4.400611
1.887082 -30.491620 4.735461
1.174642 -30.249536 6.277683
1.199782 -30.258078 6.756699
1.348707 -30.308681 7.281046
1.746272 -30.443771 7.673452
2.548400 -29.762729 2.125280
2.509965 -29.753150 2.803877
2.845657 -29.836803 3.357626
3.204663 -29.926265 3.773940
3.507613 -30.001759 4.103910
3.943600 -30.110405 4.479971
3.430988 -29.982662 6.631125
3.584525 -30.020923 7.151204
3.950108 -30.112024 7.674994
4.353215 -30.212476 8.068373
4.838415 -29.422508 2.050830
4.996039 -29.448158 2.853359
5.143742 -29.472194 3.280809
5.371479 -29.509254 3.656929
5.871858 -29.590683 4.115026
6.505139 -29.693739 4.625204
6.755702 -29.734514 4.872094
5.833380 -29.584419 6.500072
6.037080 -29.617567 7.109713
6.274985 -29.656282 7.584164
6.640291 -29.715730 7.880819
7.281001 -28.930695 2.123444
7.184920 -28.923062 2.711602
7.475142 -28.946115 3.172787
7.954294 -28.984174 3.765989
8.071932 -28.993518 3.963111
8.712588 -29.044405 4.467728
9.018019 -29.068666 4.804423
8.089773 -28.994933 6.432808
8.113910 -28.996849 6.905596
8.584357 -29.034217 7.606706
9.132429 -29.077751 7.815033
9.770074 -29.128400 7.988438
9.558629 -28.238179 2.760870
9.849424 -28.237410 3.222756
10.243831 -28.236368 3.868360
10.501358 -28.235687 4.105371
11.036896 -28.234272 4.428152
11.308755 -28.233554 4.906636
10.463151 -28.235786 6.485655
10.759187 -28.235004 7.048946
11.137044 -28.234005 7.571456
11.418019 -28.233262 7.914202
12.057225 -28.231574 8.087984
12.198131 -27.249654 2.230957
12.241171 -27.245645 2.854753
12.499875 -27.221553 3.460887
12.866959 -27.187367 3.876337
13.175921 -27.158594 4.204121
13.846777 -27.096119 4.571471
12.789996 -27.194532 6.160636
12.952505 -27.179398 6.675937
13.150235 -27.160984 7.054945
13.436621 -27.134313 7.619264
14.028752 -27.079169 7.919775
14.414639 -26.152062 2.445423
14.593624 -26.120396 3.106234
14.930889 -26.060728 3.663580
15.048615 -26.039900 3.862180
15.375778 -25.982020 4.425702
16.124520 -25.849556 4.748505
14.902520 -26.065745 6.433764
15.108157 -26.029364 7.041279
15.477324 -25.964052 7.331972
15.891323 -25.890809 7.949262
16.299079 -25.818670 8.115044
16.681795 -24.835779 2.346373
16.530272 -24.875651 2.844645
16.834294 -24.795649 3.539517
17.106365 -24.724054 4.005785
17.456971 -24.631794 4.424988
18.140238 -24.451996 4.652318
17.182798 -24.703939 6.802782
17.722859 -24.561824 7.227845
17.825459 -24.534825 7.885221
18.268362 -24.418277 8.139874
18.611541 -23.393394 2.230666
18.572554 -23.407195 2.909158
18.764989 -23.339070 3.426165
18.981039 -23.262585 3.802747
19.325517 -23.140635 4.221591
19.846739 -22.956115 4.780177
19.813281 -22.967957 7.030646
19.790778 -22.975923 7.872624
20.053416 -22.882945 7.986360
20.407332 -21.818828 2.141670
20.372157 -21.834621 2.822341
20.560569 -21.750026 3.341015
20.821206 -21.633004 3.809446
21.204314 -21.460994 4.321615
21.216848 -21.455365 4.946306
20.920907 -21.588237 6.851546
21.140586 -21.489604 7.096330
21.485833 -21.334593 7.618546
21.907244 -21.145386 8.103457
22.210388 -20.014080 2.433258
22.247238 -19.993698 3.060407
22.548434 -19.827113 3.619133
22.748917 -19.716230 4.000688
22.992704 -19.581397 4.475660
23.658640 -19.213083 4.801187
23.046426 -19.551681 7.527759
23.372362 -19.371414 7.825826
23.773506 -19.149550 8.312150
23.895496 -18.035496 2.625687
23.926819 -18.014604 3.250572
24.235699 -17.808591 3.666276
24.424708 -17.682528 4.046676
24.337762 -17.740517 4.861101
24.809872 -17.425632 7.612580
24.968864 -17.319589 7.999120
25.499321 -16.965791 8.402658
25.358124 -15.944407 2.704223
25.496659 -15.834226 3.366843
25.676618 -15.691101 3.745591
25.744417 -15.637178 4.086197
25.757128 -15.627068 4.709025
26.384859 -15.127816 7.466807
26.394853 -15.119868 7.943621
26.858305 -14.751274 8.484863
26.586452 -13.694843 2.661099
26.754809 -13.534145 3.411393
26.881113 -13.413587 3.698170
27.199389 -13.109790 4.441399
27.282578 -13.030386 4.640766
26.178125 -14.084588 6.830776
27.279305 -13.033506 7.808992
27.740712 -12.593091 8.201823
28.201583 -12.153186 8.376965
27.747904 -11.324270 2.404610
27.699542 -11.378685 2.850145
27.871797 -11.184864 3.458511
28.038135 -10.997701 4.069158
28.221176 -10.791744 4.540657
28.690238 -10.263957 4.770300
28.370875 -10.623299 7.483165
28.705963 -10.246260 7.597810
28.643371 -9.050246 2.171088
28.549489 -9.173330 2.672943
28.605209 -9.100276 3.388691
28.725298 -8.942830 3.909263
28.829218 -8.806584 4.198474
28.900939 -8.712551 5.003340
28.965788 -8.627526 7.754633
29.326178 -8.155031 8.055584
29.200886 -6.651539 2.306344
29.178061 -6.687859 2.985658
29.331538 -6.443633 3.452160
29.602505 -6.012450 3.910976
29.601727 -6.013686 4.303326
29.894966 -5.547061 4.863570
29.457912 -6.242533 6.913401
29.826732 -5.655636 7.387026
29.905526 -5.530251 7.909590
30.053291 -5.295116 8.253473
29.661534 -4.200538 2.532783
29.653491 -4.216039 3.068033
29.875695 -3.787756 3.664272
29.940464 -3.662919 4.095796
29.977256 -3.591998 7.136242
30.274387 -3.019298 7.524022
30.362604 -2.849267 7.912497
30.552902 -2.482480 8.310719
29.966886 -1.630114 2.042380
29.919066 -1.744069 2.778639
29.965796 -1.632708 3.351695
30.075965 -1.370170 3.821450
30.238123 -0.983740 4.335680
30.377649 -0.651241 4.764142
30.291429 -0.856704 6.016257
30.165680 -1.156369 6.682466
30.332011 -0.759992 7.296538
30.372473 -0.663569 7.728435
30.515735 -0.322168 8.029743
29.975318 0.789624 2.666614
29.969719 0.772398 3.203562
30.084580 1.125799 3.619929
30.181481 1.423942 3.949912
30.299901 1.788294 4.610018
30.502354 2.411194 4.753580
30.090120 1.142851 6.484236
30.154230 1.340105 7.093800
30.340454 1.913073 7.618554
30.413221 2.136960 7.869934
30.554885 2.572829 8.362169
29.827218 3.303940 2.592431
29.836212 3.341926 3.221417
29.902401 3.621453 3.693377
29.987233 3.979715 4.118045
30.071079 4.333810 4.547856
30.214353 4.938879 4.837109
30.001342 4.039309 6.704315
30.027032 4.147802 7.137432
30.082950 4.383957 7.618554
30.158352 4.702391 8.058896
30.295286 5.280686 8.376514
29.384937 5.897708 2.224915
29.406852 6.051977 3.033061
29.424061 6.173118 3.231149
29.487204 6.617601 3.976715
29.503777 6.734269 4.177523
29.598840 7.403439 4.550948
29.530559 6.922805 6.802575
29.526824 6.896516 7.188154
29.573615 7.225893 7.853251
29.631749 7.635120 8.248722
28.802347 8.308465 2.437632
28.809666 8.432598 3.010500
28.833063 8.829387 3.661085
28.843226 9.001738 3.950984
28.867756 9.417762 4.468423
28.916600 10.246089 4.512796
28.846500 9.057298 6.293967
28.850805 9.130321 6.861706
28.870648 9.466840 7.522760
28.889875 9.792914 7.959085
28.908907 10.115679 8.169382
28.021642 10.745484 2.600180
28.017524 10.922957 3.263689
28.007666 11.347844 3.773835
28.002439 11.573138 4.156577
27.992037 12.021469 4.535150
28.003498 11.527371 6.548764
27.998728 11.732985 7.163275
27.995225 11.883921 7.686579
27.987701 12.208230 7.893480
27.974988 12.756177 8.344000
27.020330 13.151817 2.226176
27.015897 13.193352 2.854308
27.000149 13.340920 3.285186
26.964203 13.677766 3.848216
26.940362 13.901174 4.231356
26.874373 14.519547 4.512298
26.931173 13.987262 6.668886
26.919530 14.096364 7.099811
26.893724 14.338184 7.809581
26.859375 14.660064 8.018012
25.814707 15.468173 2.238193
25.844070 15.314846 2.739830
25.805383 15.516856 3.261767
25.698935 16.072706 3.815272
25.646498 16.346517 4.293682
25.529447 16.957738 4.579704
25.708035 16.025173 6.604060
25.651861 16.318503 7.404566
25.615626 16.507711 7.792501
25.529183 16.959101 8.052433
25.375099 17.763697 8.383178
24.427244 17.648023 2.803203
24.447664 17.574616 3.251125
24.341875 17.954912 3.907633
24.258273 18.255448 4.243186
24.091237 18.855917 4.528215
24.247094 18.295626 6.601340
24.215839 18.407981 7.266209
24.200031 18.464806 7.607378
24.064219 18.953031 8.191761
22.829982 19.708527 2.351564
22.747171 19.931497 3.114244
22.677053 20.120292 3.642747
22.597816 20.333642 4.029769
22.422380 20.806011 4.506987
22.255032 21.256605 4.752727
22.581505 20.377555 6.385216
22.571406 20.404745 7.094225
22.487565 20.630491 7.574191
22.374232 20.935645 8.013508
22.214863 21.364751 8.277823
21.077650 21.643269 2.019361
21.070959 21.657569 2.796884
20.960874 21.892860 3.415621
20.923483 21.972778 3.759391
20.709012 22.431183 4.231925
20.496697 22.884977 4.713582
20.806803 22.222160 6.735821
20.682892 22.487004 7.311157
20.639053 22.580703 7.746271
20.463257 22.956444 8.146843
19.230311 23.279881 2.511234
19.183298 23.361854 3.236002
18.997890 23.685140 3.663068
18.771524 24.079843 4.045358
18.616510 24.350132 4.389636
18.858711 23.927815 6.424708
18.799292 24.031419 7.093807
18.701507 24.201922 7.486606
18.582945 24.408651 7.975330
17.088827 24.871830 2.804557
16.921382 25.111010 3.281634
16.645882 25.504535 3.895052
16.386431 25.875137 4.280245
16.239355 26.085221 4.531749
16.574757 25.606127 6.610148
16.535135 25.662722 7.185274
16.396802 25.860319 7.671210
16.106602 26.274842 8.263725
14.816391 26.399968 2.675555
14.629659 26.624881 3.153938
14.487141 26.796538 3.922642
14.232413 27.103350 4.214247
13.945147 27.449353 4.605826
14.378329 26.927595 6.731091
14.248255 27.084264 7.355414
14.152933 27.199076 7.887072
13.945507 27.448915 8.102121
12.876772 27.349170 2.663774
12.733000 27.497988 3.192532
12.458289 27.782340 3.857313
12.120596 28.131886 4.098656
11.746630 28.518978 4.441868
12.308775 27.937099 6.526244
12.322092 27.923313 7.147364
12.091818 28.161669 7.589052
11.865060 28.396386 8.034376
11.390852 28.887238 8.550655
10.126183 28.583104 2.332080
10.246664 28.479288 2.834584
10.027394 28.668228 3.310932
9.746813 28.910000 3.740041
9.363087 29.240651 4.219055
9.195479 29.385076 4.613603
9.639241 29.002690 6.920143
9.593474 29.042126 7.262061
9.240430 29.346339 7.987762
8.892868 29.645827 8.256759
7.838697 29.225320 2.607077
7.670460 29.347263 3.137141
7.412631 29.534147 3.473960
6.999067 29.833913 3.952007
6.746387 30.017065 4.298345
7.153354 29.722077 6.962537
6.953816 29.866709 7.682389
6.616613 30.111126 8.087082
6.208811 30.406716 8.456734
5.206827 29.875425 2.340718
5.099772 29.940104 2.924436
4.947084 30.032353 3.219642
4.776261 30.135559 3.753152
4.296479 30.425430 4.328203
4.152165 30.512619 4.629901
4.383878 30.372623 6.895986
4.369463 30.381331 7.377157
4.321521 30.410296 7.718903
3.966788 30.624615 8.121669
2.801526 30.171887 2.422801
2.741348 30.201811 2.912353
2.482782 30.330390 3.390920
2.074197 30.533569 3.772304
1.651020 30.744005 4.399378
2.035436 30.552841 6.777029
1.812901 30.663502 7.497298
1.682141 30.728525 7.797628
1.191431 30.972544 8.491779
0.283400 30.319187 2.506587
-0.067880 30.459424 2.932131
-0.306345 30.554623 3.557966
-0.517036 30.638733 3.948336
-0.903978 30.793207 4.481263
-0.499019 30.631538 6.853697
-0.685190 30.705860 7.478861
-0.904938 30.793587 7.967631
-1.372353 30.980186 8.332899
-2.046075 30.181392 2.572684
-2.325692 30.266909 3.048547
-2.682467 30.376024 3.476775
-3.035143 30.483886 3.910160
-3.517901 30.631531 4.394701
-3.202074 30.534937 7.195690
-3.257655 30.551935 7.539350
-3.526684 30.634214 8.124211
-4.550232 29.900196 1.981737
-4.705468 29.933759 2.801219
-5.073636 30.013360 3.229068
-5.468361 30.098703 3.517942
-5.829557 30.176797 3.956352
-6.049158 30.224276 4.353500
-5.727440 30.154715 6.928757
-5.968520 30.206838 7.653039
-6.243411 30.266272 8.008531
-7.029207 29.434512 2.247295
-7.211848 29.458589 2.923872
-7.474978 29.493276 3.168906
-7.814417 29.538023 3.747244
-8.265620 29.597504 4.137262
-8.155224 29.582948 7.113929
-8.441605 29.620701 7.701202
-8.720918 29.657522 8.058869
-9.380108 28.735339 2.280541
-9.506817 28.741293 2.862915
-9.938155 28.761563 3.383310
-10.199960 28.773867 3.630112
-10.708739 28.797776 4.112170
-10.822329 28.803112 7.088414
-11.066333 28.814578 7.816006
-11.211045 28.821378 8.121178
-11.714265 28.845026 8.494640
-11.694702 27.850501 2.372412
-11.990272 27.839580 2.848672
-12.421589 27.823642 3.369887
-12.846513 27.807941 3.898051
-13.245625 27.793193 4.194468
-13.214389 27.794345 7.121713
-13.321901 27.790372 7.796862
-13.691058 27.776731 8.344636
-14.206186 26.668233 2.416706
-14.358114 26.648681 2.852872
-14.730703 26.600733 3.279024
-15.153085 26.546377 3.803870
-15.602507 26.488542 4.191904
-15.658351 26.481352 7.064003
-15.899263 26.450349 7.787739
-16.220192 26.409049 8.238068
-16.673639 26.350696 8.513646
-16.265518 25.434837 2.303884
-16.526140 25.379375 2.921766
-16.808067 25.319379 3.398350
-17.169259 25.242515 3.827858
-17.748723 25.119203 4.258412
-17.750773 25.118764 7.030727
-17.944395 25.077559 7.659903
-18.262517 25.009861 8.110030
-18.754113 24.905247 8.481855
-18.691052 23.894135 2.386806
-18.673529 23.899402 2.928553
-18.867195 23.841185 3.457654
-19.406709 23.679007 4.024942
-19.921523 23.524253 4.365004
-20.079941 22.475987 2.820974
-20.270481 22.401100 3.346115
-20.564488 22.285549 3.678728
-21.067330 22.087920 4.007805
-21.780053 21.807804 4.342739
-21.842102 21.783415 6.591666
-21.868138 21.773182 7.547563
-22.003721 21.719894 7.850374
-22.515397 21.518794 8.316630
-21.801091 20.761567 2.663688
-21.783542 20.770221 3.201482
-22.040019 20.643726 3.673475
-22.572429 20.381139 4.090191
-23.162431 20.090149 4.231965
-23.622417 19.863280 7.342705
-23.795813 19.777760 7.741933
-24.168768 19.593817 8.154705
-23.368369 18.952255 2.770227
-23.230002 19.035073 3.269383
-23.447908 18.904645 3.881771
-23.955233 18.600988 4.296131
-24.638694 18.191904 4.481336
-25.095583 17.918433 6.977279
-25.112214 17.908477 7.697789
-25.507910 17.671634 8.203711
-24.803536 16.977350 2.628701
-24.650132 17.087636 3.271079
-24.717008 17.039557 3.984657
-24.995827 16.839104 4.171455
-25.798519 16.262023 4.482872
-26.565193 15.710834 7.114041
-26.577838 15.701742 7.600752
-26.989687 15.405651 8.203632
-26.151888 14.846601 2.323754
-25.839994 15.112437 2.986008
-25.800500 15.146098 3.662695
-25.884189 15.074767 4.232595
-26.503278 14.547099 4.633611
-27.832175 13.414440 6.829818
-27.710132 13.518460 7.407490
-27.960893 13.304729 7.860436
-28.483260 12.859500 8.386733
-27.349544 12.574704 2.459757
-27.058531 12.867547 3.119263
-26.921200 13.005742 3.756710
-26.936689 12.990155 4.375396
-27.287925 12.636708 4.831523
-28.823455 11.091514 6.768729
-28.743281 11.172191 7.440166
-29.038572 10.875041 8.083647
-29.395088 10.516282 8.222749
-28.263796 10.184721 2.188033
-28.110247 10.370096 3.118210
-27.950756 10.562644 3.665239
-27.965256 10.545138 4.282827
-29.689149 8.463921 7.385116
-29.812005 8.315601 7.783784
-30.134671 7.926054 8.154131
-28.944351 7.897968 2.934766
-28.722621 8.216199 3.447519
-28.719397 8.220825 4.207815
-28.857029 8.023291 4.812608
-30.261885 6.007015 4.688395
-30.318533 5.925708 7.033895
-30.380545 5.836706 7.712425
-30.592289 5.532806 8.263872
-29.521501 5.430803 2.439533
-29.413259 5.617493 3.224273
-29.357443 5.713762 3.807736
-29.394308 5.650176 4.515007
-29.617115 5.265888 4.881072
-30.603012 3.565448 7.296182
-30.814024 3.201503 7.937525
-29.894119 2.945750 2.170029
-29.755053 3.238278 2.778663
-29.757286 3.233580 3.544359
-29.827705 3.085450 4.203262
-29.937462 2.854573 4.439961
-30.457740 1.760151 4.744616
-30.854309 0.925952 7.138964
-30.977627 0.666548 7.729835
-31.156250 0.290807 8.143924
-30.020385 0.501876 2.104057
-29.946285 0.698181 2.892581
-29.908610 0.797991 3.478893
-30.027562 0.482859 4.035087
-30.148677 0.161996 4.221947
-30.448227 -0.631579 4.490495
-30.809719 -1.589254 4.680962
-29.926859 -1.870660 2.477704
-29.929534 -1.880030 3.246455
-29.969355 -2.019502 3.675579
-30.031591 -2.237483 4.054252
-30.178728 -2.752824 4.376376
-30.397108 -3.517689 4.560435
-30.592346 -4.201508 7.423080
-30.669905 -4.473159 8.012431
-29.699383 -4.427765 2.677021
-29.684552 -4.353272 3.121715
-29.696297 -4.412268 3.602208
-29.805699 -4.961831 4.151062
-29.944046 -5.656784 4.377421
-30.072137 -6.300220 4.522156
-30.119490 -6.538102 6.901929
-30.131884 -6.600362 7.481772
-30.239918 -7.143049 7.942620
-29.234007 -6.871067 2.131919
-29.235824 -6.886958 2.905096
-29.243065 -6.950239 3.389094
-29.275384 -7.232681 3.860434
-29.332823 -7.734653 4.326739
-29.391558 -8.247955 4.424020
-29.488190 -9.092436 4.714790
-29.484341 -9.058820 7.245683
-29.516872 -9.343111 7.836499
-28.482665 -9.463657 2.054006
-28.480528 -9.368404 2.647980
-28.485773 -9.602319 3.403587
-28.492864 -9.918513 3.733715
-28.503005 -10.370730 4.106592
-28.515025 -10.906778 4.437145
-28.535233 -11.807889 4.821946
-28.533219 -11.718206 7.251628
-28.538593 -11.957833 7.745296
-27.702765 -11.383004 2.128045
-27.692962 -11.569036 2.792969
-27.685047 -11.719246 3.224784
-27.660952 -12.176536 3.593893
-27.626800 -12.824691 4.105333
-27.613250 -13.081849 4.353442
-27.575845 -13.791747 4.598497
-27.584423 -13.628921 7.080646
-27.559676 -14.098571 7.817054
-26.638777 -13.858932 2.679843
-26.610929 -14.063702 3.201836
-26.560830 -14.432100 3.622498
-26.514248 -14.774629 3.813097
-26.427187 -15.414819 4.331093
-26.331423 -16.119002 4.576468
-26.377747 -15.778349 7.147054
-26.345238 -16.017394 7.638366
-25.297340 -16.079486 2.244237
-25.268829 -16.203132 2.817635
-25.203693 -16.485617 3.286251
-25.101140 -16.930377 3.655788
-24.999274 -17.372158 4.032403
-24.886225 -17.862439 4.509952
-24.726872 -18.553534 4.757535
-24.832470 -18.095559 6.649930
-24.817347 -18.161146 7.229058
-24.753530 -18.437909 7.581407
-23.864521 -18.231630 2.137211
-23.851202 -18.273571 2.766665
-23.746289 -18.603937 3.328430
-23.650586 -18.905300 3.660094
-23.529516 -19.286544 3.945054
-23.366504 -19.799861 4.279511
-23.177659 -20.394524 4.574607
-23.341668 -19.878060 6.751799
-23.280234 -20.071512 7.380117
-23.167217 -20.427397 7.690090
-22.216538 -20.252597 2.277775
-22.222260 -20.238735 2.816127
-22.111559 -20.506908 3.286421
-21.990947 -20.799093 3.617049
-21.776724 -21.318052 4.179426
-21.612546 -21.715774 4.327946
-21.565365 -21.830066 6.887888
-21.542482 -21.885501 7.230701
-21.382483 -22.273101 7.632010
-20.553291 -21.862497 2.206744
-20.443875 -22.075939 2.961900
-20.363002 -22.233701 3.250128
-20.129746 -22.688724 3.712567
-19.898733 -23.139372 4.184175
-19.718110 -23.491719 4.476379
-19.771377 -23.387804 6.800132
-19.700656 -23.525762 7.331502
-19.468484 -23.978670 7.690090
-18.668806 -23.508070 2.079379
-18.660429 -23.521553 2.850772
-18.462699 -23.839816 3.267204
-18.221791 -24.227580 3.637711
-17.936836 -24.686240 3.965170
-17.716932 -25.040195 4.494033
-17.444212 -25.479162 4.599916
-17.775963 -24.945175 7.050738
-17.769269 -24.955948 7.299516
-17.548122 -25.311904 7.699719
-16.412085 -25.158829 2.541461
-16.371807 -25.212113 3.025190
-16.095187 -25.578072 3.391853
-15.853279 -25.898107 3.673172
-15.547963 -26.302028 4.144986
-15.309356 -26.617697 4.436973
-15.538134 -26.315028 7.128250
-15.365456 -26.543474 7.706290
-14.228787 -26.486677 1.927194
-14.310135 -26.395727 2.665736
-14.209018 -26.508778 3.098058
-13.996755 -26.746093 3.427503
-13.656334 -27.126692 3.894273
-13.261286 -27.568366 4.320843
-12.845390 -28.033348 4.615577
-13.416671 -27.394637 6.835044
-13.403510 -27.409351 7.316518
