1.356612 0.157001 0.577469
1.640035 0.279047 1.161140
1.836969 0.363938 1.656729
1.754098 0.328671 1.913642
1.768416 0.335136 2.249505
1.799811 0.349161 2.832772
1.821622 0.358838 3.168154
1.866027 0.378439 3.750414
1.979342 0.427243 3.993093
1.927338 0.405371 4.419524
1.962083 0.420589 4.753607
1.937829 0.410773 5.346565
1.910999 0.399775 5.859160
2.139118 0.497843 6.162461
2.303757 0.568875 6.640775
2.279562 0.558925 7.070124
2.307858 0.571217 7.238177
2.289997 0.563983 7.668967
2.234372 0.540823 8.366041
2.318155 0.577135 8.778278
2.316716 0.576943 9.212723
2.301319 0.570690 9.566947
2.289011 0.565762 9.922164
2.053945 0.465596 10.519690
0.896778 0.035282 0.174902
1.162737 0.177478 0.685818
1.609496 0.415889 1.101244
1.791265 0.512971 1.350210
1.715080 0.472816 1.771966
1.727678 0.479869 2.107563
1.667741 0.448540 2.696911
1.780883 0.509229 3.108245
1.798016 0.518613 3.360713
1.843198 0.543274 3.942397
1.888289 0.567801 4.441036
1.913278 0.581369 4.692656
1.879591 0.563943 5.203048
1.754332 0.497669 5.646883
1.884526 0.567350 5.967071
2.226367 0.749988 6.497814
2.201596 0.737230 6.926742
1.899834 0.574071 4.559167
2.209428 0.742010 7.524989
2.195110 0.734822 7.956673
2.232469 0.755413 8.633777
2.265784 0.773330 8.801450
2.264538 0.773108 9.235578
2.340958 0.814591 9.995402
2.123733 0.699123 10.239470
0.638384 -0.052371 0.366447
0.975932 0.165976 0.709531
1.567961 0.548645 1.039727
1.740612 0.660405 1.289026
1.675743 0.619230 1.958496
1.692794 0.630689 2.377229
1.709297 0.641705 2.713196
1.733358 0.657691 3.131436
1.755486 0.672339 3.466941
1.780116 0.688603 3.802197
1.912365 0.774617 4.373135
1.876683 0.752119 4.882527
1.819629 0.715558 5.146843
1.699849 0.638681 5.590787
1.844134 0.732375 6.075898
2.136971 0.921788 6.361759
2.112089 0.906179 6.790900
2.173971 0.946581 7.203243
2.157238 0.936236 7.634016
2.130589 0.919402 7.984662
2.136344 0.923669 8.499325
2.261924 1.005465 9.154648
2.230598 0.985527 9.426859
2.218179 0.977886 9.781173
2.046114 0.867206 10.187501
1.831133 0.926968 1.048075
1.685357 0.814578 1.633872
1.629266 0.771843 2.307887
1.648271 0.787057 2.725445
1.686065 0.817123 3.390009
1.593343 0.742496 1.000349
1.679936 0.810125 1.415577
1.853460 0.948259 4.545397
1.891965 0.978593 4.959671
1.716920 0.843540 5.578252
1.657601 0.797744 5.761938
2.009196 1.070734 6.035919
2.082042 1.127883 6.610602
2.072395 1.120981 7.120650
2.133347 1.168720 7.531690
2.120467 1.159220 7.961984
2.083862 1.131136 8.230020
2.106182 1.149121 8.824301
2.166542 1.196306 9.152748
2.136732 1.173496 9.423372
2.114460 1.157021 10.125991
1.955171 1.033948 10.533324
1.605730 0.949250 1.424593
1.538127 0.887313 1.679656
1.559702 0.907992 2.344655
1.577623 0.925002 2.761545
1.590085 0.936783 3.013215
1.623598 0.968351 3.594382
1.651646 0.994685 4.010228
1.749729 1.085392 4.332779
1.790890 1.123898 4.828570
1.683046 1.025134 5.267913
1.553735 0.906305 5.463402
1.696912 1.038932 6.112163
1.943697 1.266415 6.315010
1.911066 1.236793 6.661341
1.692067 1.032548 4.537020
1.947939 1.271771 7.502095
1.972693 1.295388 8.176973
1.952845 1.277541 8.527623
1.993532 1.315308 8.775738
1.991995 1.314422 9.208913
2.009155 1.330851 9.724393
1.589243 1.142103 1.182052
1.597033 1.151059 1.596658
1.474669 1.019656 2.102723
1.486190 1.032533 2.436568
1.507141 1.055805 2.935245
1.528044 1.078915 3.351055
1.619741 1.178424 3.757379
1.646786 1.208162 4.171307
1.689733 1.255279 4.748603
1.635853 1.197361 4.928053
1.484710 1.035045 5.546612
1.508733 1.061307 5.797701
1.828336 1.406839 6.232940
1.864605 1.446421 6.561999
1.845697 1.426577 6.989385
1.907413 1.493839 7.480634
1.918346 1.506421 8.072022
1.911249 1.499330 8.502309
1.894863 1.482106 8.852544
1.907217 1.496120 9.366297
1.896359 1.484866 9.718682
1.887762 1.476054 10.072046
1.699743 1.273799 10.586850
1.176025 0.874528 0.924431
1.487375 1.274389 1.250466
1.498613 1.289653 1.831032
1.384746 1.144092 2.174666
1.404749 1.170603 2.757677
1.411633 1.179681 2.927834
1.522820 1.323753 3.917424
1.543042 1.350177 4.249169
1.565062 1.378908 4.580607
1.540324 1.347916 5.087981
1.398018 1.166158 5.624962
1.488321 1.282459 5.943630
1.701738 1.556636 6.228804
1.751350 1.620995 6.720475
1.744482 1.612928 7.229285
1.782657 1.662378 7.557688
1.702100 1.559581 7.925498
1.705375 1.564531 8.438263
1.772896 1.651861 8.929630
1.820292 1.713137 9.257541
1.762645 1.639858 9.714558
1.721657 1.588072 10.256095
1.209686 1.142474 1.175062
1.382679 1.408831 1.748847
1.335647 1.337229 2.087377
1.344801 1.351824 2.421954
1.316811 1.310129 3.180392
1.389465 1.422270 3.588928
1.423630 1.475774 4.250771
1.330593 1.329119 1.871113
1.459109 1.531168 4.834647
1.336819 1.344564 5.452809
1.368772 1.394272 5.869439
1.558105 1.685228 6.156888
1.586948 1.730024 6.487645
1.587158 1.731319 7.079341
1.637415 1.809235 7.571637
1.619554 1.782407 7.920742
1.594107 1.743808 8.189680
1.619158 1.783354 8.866187
1.650595 1.831995 9.114422
1.651562 1.834192 9.548228
1.625604 1.795390 10.170718
1.515791 1.627584 10.579249
0.347592 -0.178022 0.215291
1.256485 1.513510 1.550098
1.167422 1.348651 1.892021
1.176452 1.366224 2.309822
1.187666 1.387856 2.727379
1.203971 1.419102 3.227089
1.206191 1.419641 1.335075
1.297356 1.594677 4.301387
1.328128 1.652957 4.879738
1.211824 1.437689 5.333103
1.244448 1.499259 5.831854
1.258560 1.520907 3.417522
1.275564 1.553294 3.833079
1.472964 1.926017 6.942272
1.454627 1.892600 7.289930
1.453018 1.890581 7.801406
1.430490 1.849225 8.070195
1.425516 1.840803 8.502823
1.477979 1.939229 8.995267
1.496992 1.975691 9.591301
1.444578 1.879008 9.970131
1.414768 1.824643 10.514614
1.127566 1.601842 1.260423
1.133545 1.616597 1.760404
1.098940 1.538427 2.100570
1.111371 1.568086 2.683711
1.117911 1.583570 2.937319
1.135531 1.625064 3.519603
1.141398 1.638829 3.690648
1.163690 1.690975 4.271915
1.185710 1.742318 4.770356
1.162140 1.689331 5.117137
1.095641 1.538276 5.396502
1.128519 1.614572 5.979272
1.273288 1.945609 6.348721
1.300746 2.009166 6.762059
1.324134 2.063253 7.093493
1.321760 2.058984 7.605553
1.315482 2.045630 8.037781
1.304174 2.020626 8.390018
1.294203 1.998673 8.743355
1.340038 2.104325 9.236968
1.341397 2.108400 9.672663
1.284383 1.979809 10.323145
1.174805 1.731032 10.843872
1.084571 1.977781 1.331885
1.022429 1.795931 1.590045
0.965374 1.629953 2.180366
0.970935 1.647227 2.516508
0.981009 1.678219 3.017010
0.991067 1.708935 3.434858
1.000200 1.736697 3.769248
1.012914 1.775211 4.185407
1.030085 1.827048 4.683015
1.039579 1.855641 4.934415
0.957137 1.614467 5.306709
0.982918 1.691835 5.888711
1.102830 2.045384 6.339499
1.115898 2.084475 6.589320
1.134055 2.138740 6.920071
1.131225 2.131852 7.431152
0.987117 1.702378 5.246079
1.132366 2.138064 8.457274
1.124433 2.115741 8.809702
1.148943 2.188669 9.140079
1.155981 2.210785 9.655888
1.113775 2.087619 9.954567
1.076575 1.980376 10.689533
0.913869 2.056834 1.127006
0.869855 1.882610 1.792741
0.823938 1.699237 2.053268
0.831007 1.729779 2.635162
0.843354 1.782140 3.386380
0.848311 1.802976 3.638347
0.863295 1.865593 4.300426
0.867586 1.883452 4.469843
0.878890 1.930373 4.884855
0.821991 1.703941 5.421279
0.833016 1.749446 5.756024
0.919445 2.097800 6.126333
0.962253 2.271432 6.603440
0.958948 2.260058 7.112823
0.957331 2.255466 7.623618
0.973078 2.319907 7.953239
0.950630 2.231770 8.486770
0.968227 2.303642 8.816575
0.958421 2.265281 9.087810
0.958578 2.267526 9.522251
0.936543 2.180775 9.982834
0.914018 2.093380 10.799090
0.752244 2.231317 1.349174
0.706572 1.948927 1.771929
0.693298 1.868534 2.191144
0.678727 1.778661 2.365344
0.682308 1.803354 2.781439
0.687555 1.838894 3.279452
0.694981 1.888491 3.859058
0.714399 2.010936 4.099726
0.703894 1.947378 4.442307
0.712615 2.004566 4.938251
0.694439 1.895128 5.624718
0.698121 1.919044 5.793331
0.740971 2.188868 6.258073
0.766974 2.353250 6.652535
0.762447 2.327447 7.079865
0.771867 2.388051 7.408568
0.771261 2.387161 7.918437
0.769044 2.375778 8.348558
0.767615 2.369316 8.779857
0.763989 2.348699 9.131210
0.770329 2.391613 9.727407
0.759491 2.327109 10.269320
0.727558 2.130311 10.678700
0.536496 1.986748 1.295383
0.537087 1.999881 1.709811
0.530480 1.914083 2.046733
0.531164 1.926470 2.297670
0.533212 1.961448 2.876844
0.528181 1.899152 3.381564
0.529981 1.927733 3.714711
0.539826 2.066696 4.119544
0.535409 2.011779 4.544117
0.538625 2.060639 4.958073
0.533455 1.993482 5.220922
0.522684 1.852303 5.663135
0.542167 2.123218 6.130228
0.560240 2.372855 6.428827
0.559722 2.373041 7.018372
0.558802 2.366763 7.528202
0.556093 2.334174 7.876952
0.552437 2.287702 8.145518
0.559817 2.394185 8.637339
0.561872 2.429442 9.231904
0.558933 2.392757 9.503241
0.557583 2.378725 9.856633
0.550023 2.285786 10.669775
0.379381 1.511041 0.496854
0.376195 1.914134 0.829023
0.372820 2.324123 1.316763
0.373683 2.140849 1.817859
0.374903 1.948198 1.995060
0.374381 1.969073 2.410596
0.373597 2.005862 2.989982
0.373237 2.024573 3.240850
0.372617 2.059191 3.655467
0.371964 2.098383 4.069677
0.375680 1.845950 1.946104
0.371262 2.091213 4.908836
0.370204 2.166457 5.486046
0.371814 1.904932 5.778839
0.374815 1.755651 3.628532
0.366855 2.470856 6.786776
0.366827 2.431292 7.133419
0.366775 2.394962 7.481269
0.366698 2.361884 7.830295
0.365803 2.402166 8.505480
0.364771 2.494860 8.915608
0.364382 2.494915 9.348347
0.364176 2.479440 9.701145
0.364161 2.413564 10.242694
0.364989 2.236461 10.733175
0.297031 1.039171 0.320343
0.232382 1.740920 0.909280
0.203337 2.053142 1.483719
0.202323 2.061759 1.734787
0.199866 2.083743 2.231600
0.206432 2.007720 2.652422
0.211937 1.942492 3.157403
0.209905 1.962248 3.409175
0.206210 1.998578 3.825061
0.193058 2.138525 4.230123
0.196626 2.094469 4.737406
0.192632 2.134897 5.069305
0.174917 2.322431 5.713168
0.186875 2.187190 6.155121
0.191999 2.128492 6.420623
0.164640 2.422573 6.961934
0.169240 2.369601 7.228015
0.160192 2.463784 7.719620
0.162691 2.432979 8.068535
0.159774 2.459050 8.662051
0.159657 2.456057 9.094463
0.152162 2.534853 9.422977
0.163940 2.403021 9.719000
0.190840 1.160042 0.031592
0.120378 1.554042 0.621534
0.066227 1.856606 1.118985
0.029493 2.061899 1.447847
0.026532 2.076453 1.862859
0.024351 2.087448 2.113826
0.035641 2.020830 2.698596
0.031390 2.043068 3.031962
0.044033 1.970075 3.373216
0.019962 2.103617 3.779935
0.010932 2.151946 4.276134
0.016305 2.118642 4.865348
-0.025933 2.355059 5.171890
-0.038172 2.421493 5.664587
-0.027521 2.360125 5.928023
0.027407 2.047755 6.485407
0.012123 2.131321 6.982114
-0.027686 2.354953 7.114931
-0.041579 2.431116 7.526299
-0.039118 2.415042 7.955640
-0.040689 2.421266 8.467424
-0.036801 2.397554 8.817954
-0.057411 2.511163 9.308488
-0.037986 2.399777 9.684730
-0.026864 2.334322 10.226532
0.065110 1.267854 0.201831
0.012514 1.462766 0.705684
-0.067051 1.758840 1.119185
-0.171523 2.148930 1.277430
-0.150269 2.067725 1.775131
-0.154266 2.081521 2.106145
-0.134523 2.006242 2.524785
-0.144954 2.043236 3.102456
-0.126233 1.972056 3.441921
-0.179255 2.175193 2.038802
-0.275103 2.523137 5.044247
-0.192123 2.220444 2.861957
-0.257174 2.452881 5.969518
-0.190787 2.203626 6.262961
-0.183179 2.173688 6.690867
-0.231556 2.352930 7.165763
-0.247820 2.412603 7.493954
-0.257150 2.445152 8.166150
-0.250479 2.418994 8.514992
-0.239784 2.378069 8.783675
-0.264784 2.470129 9.192647
-0.276636 2.512379 9.786874
-0.229667 2.335068 10.271669
-0.192873 1.647011 0.859049
-0.266215 1.844240 1.353430
-0.302721 1.942625 1.517665
-0.319081 1.984337 2.508749
-0.330648 2.014364 3.003762
-0.337314 2.031762 3.252381
-0.482278 2.421014 4.454978
-0.567937 2.651872 4.838373
-0.555770 2.617645 5.337286
-0.533479 2.556641 5.595726
-0.499675 2.463383 6.275334
-0.406563 2.210806 6.488689
-0.373236 2.119025 7.097166
-0.423327 2.254010 7.326487
-0.456851 2.343477 7.817280
-0.464907 2.363748 8.409056
-0.496833 2.449102 8.817208
-0.496634 2.447447 9.247730
-0.483984 2.412509 9.517182
-0.445728 2.307987 9.893567
-0.390674 2.157502 10.461855
-0.062658 1.078977 0.348633
-0.271439 1.536316 0.769586
-0.398375 1.814206 1.101594
-0.487365 2.008459 1.595169
-0.454779 1.935848 2.097440
-0.422883 1.864925 2.519723
-0.431794 1.883766 2.850867
-0.439283 1.899666 3.099580
-0.662948 2.387467 4.537960
-0.798502 2.684539 4.747109
-0.774391 2.630891 5.083082
-0.715232 2.500107 5.514938
-0.574644 2.196078 3.417073
-0.608842 2.264522 6.471118
-0.493380 2.009529 7.195047
-0.459111 1.934090 7.297166
-0.593958 2.228725 7.915317
-0.637125 2.322409 8.405248
-0.634766 2.316300 8.835091
-0.658614 2.368111 9.080522
-0.659491 2.369104 9.511479
-0.631164 2.305763 10.049828
-0.556756 2.141392 10.536514
-0.544795 1.773358 0.979849
-0.646224 1.954197 1.309477
-0.604292 1.878414 1.728299
-0.573579 1.822081 2.483705
-0.543895 1.767897 3.072168
-0.602140 1.871640 3.316703
-0.675941 2.002610 3.887414
-0.976544 2.538486 4.902558
-0.959721 2.507471 5.402793
-0.946213 2.482383 5.904756
-0.826769 2.268023 6.278508
-0.771027 2.167340 6.803311
-0.560047 1.789149 7.222719
-0.535145 1.744107 7.492303
-0.774560 2.171621 7.910862
-0.777785 2.176446 8.423948
-0.766133 2.154954 8.775298
-0.803565 2.221310 9.104750
-0.757541 2.138135 9.562708
-0.761460 2.144343 9.998722
-0.624077 1.896979 10.869275
-0.185392 0.970703 0.261332
-0.467456 1.386789 0.766232
-0.639941 1.641062 1.180215
-0.814915 1.899024 1.587483
-0.768406 1.829611 2.005972
-0.724516 1.764067 2.426457
-0.736066 1.780604 2.759901
-0.756392 1.809849 3.257614
-0.930995 2.070296 1.772758
-1.190204 2.448361 4.922691
-1.146532 2.383528 5.100638
-1.128667 2.356319 5.602667
-1.045146 2.232300 5.959697
-0.915714 2.040264 6.417296
-0.805815 1.876825 7.044811
-0.793947 1.858591 7.477443
-0.821329 1.898660 7.727696
-0.878394 1.982209 8.223054
-0.928830 2.056093 8.635494
-0.992598 2.149555 9.128256
-0.971704 2.118237 9.399797
-0.986875 2.139832 9.916445
-0.869153 1.964619 10.676347
-0.922931 1.742642 1.693304
-0.866201 1.672937 1.948356
-0.888559 1.699326 2.611369
-0.832252 1.630251 2.786685
-1.097584 1.952611 4.169051
-1.276946 2.170832 4.886439
-1.254850 2.143110 5.389569
-1.299690 2.197223 5.879580
-1.206951 2.083357 6.238533
-0.982810 1.808940 6.551720
-0.859952 1.657873 7.182799
-0.713023 1.477725 7.572698
-0.878981 1.680159 7.869081
-1.130298 1.986732 8.303976
-1.114394 1.966793 8.655564
-1.186451 2.054172 9.147630
-1.126861 1.980685 9.605379
-1.098102 1.944646 10.229588
-0.910481 1.714695 10.665069
-0.902196 1.504220 0.728423
-1.124910 1.735285 1.632317
-0.932122 1.533591 2.141115
-0.947873 1.549477 2.556520
-0.966779 1.568653 2.971654
-1.190581 1.803961 1.480600
-1.548810 2.173633 4.468104
-1.344315 1.959271 5.331987
-1.332592 1.946286 5.917857
-1.172054 1.778290 6.374592
-1.073747 1.675307 6.737923
-1.099544 1.700551 8.014310
-1.227541 1.833514 8.405632
-1.265320 1.872587 8.653015
-1.263151 1.869764 9.085661
-1.292609 1.899708 9.682411
-1.216935 1.820306 10.060848
-1.025754 1.620280 10.576356
-0.653987 1.088563 0.108893
-0.654790 1.088660 0.614816
-0.883162 1.287532 0.865037
-1.266428 1.621305 1.271038
-1.128099 1.500065 1.773906
-1.073476 1.451729 2.359168
-1.088382 1.464332 2.692566
-1.034926 1.417207 3.115626
-1.407592 1.740977 4.157895
-1.591157 1.900606 4.546194
-1.561174 1.873859 5.048027
-1.444581 1.771753 5.402648
-1.265061 1.614647 5.856772
-1.164117 1.526081 6.301071
-1.088671 1.459552 6.914108
-0.849008 1.249953 7.402673
-0.552735 0.990850 8.002485
-0.765921 1.176320 8.384406
-1.235324 1.585648 8.428017
-1.332949 1.670101 9.004986
-1.333718 1.670253 9.440422
-1.338295 1.673724 9.876890
-1.313975 1.652188 10.150665
-1.064626 1.280907 1.248229
-1.230633 1.404564 1.495430
-1.166041 1.355777 1.999153
-1.106677 1.310895 2.501666
-1.119018 1.319829 2.751206
-1.525720 1.622015 4.037388
-1.614942 1.687526 5.018062
-1.339088 1.480309 6.154519
-1.087375 1.291762 6.714643
-0.972373 1.204331 8.119809
-0.964585 1.198026 8.557473
-1.321636 1.464404 8.720926
-1.428623 1.543630 9.296526
-1.493033 1.591348 9.625051
-1.482167 1.582841 9.977840
-1.390917 1.513894 10.711642
-0.651897 0.862293 0.198301
-1.169787 1.181625 1.119051
-1.262272 1.238474 1.451106
-1.193124 1.195176 1.954755
-1.214596 1.207927 2.455109
-1.147229 1.165902 2.796185
-1.252099 1.230415 3.124022
-1.610242 1.450550 4.420519
-1.735016 1.527300 4.818347
-1.447541 1.348218 6.035133
-1.167201 1.174330 6.511375
-1.052838 1.102028 7.998959
-0.975410 1.053567 8.540834
-1.302935 1.255764 8.892247
-1.550356 1.408401 9.259411
-1.584208 1.429164 9.424440
-1.724929 1.515505 10.078943
-1.534014 1.397087 10.402240
-0.811024 0.850691 0.075557
-0.812899 0.850964 0.751106
-0.906946 0.898458 1.088622
-1.360001 1.128563 1.412688
-1.376084 1.136240 1.912029
-1.297379 1.095950 2.168262
-1.327044 1.110451 2.751206
-1.264311 1.078116 3.175784
-1.698808 1.298138 4.139361
-1.915667 1.408043 4.529257
-1.614629 1.254385 5.070358
-1.585402 1.239007 5.579501
-1.451954 1.170768 5.940705
-1.269393 1.077281 6.569007
-1.144375 1.013323 6.937752
-0.847192 0.861760 7.345436
-0.875324 0.875369 8.038599
-1.009105 0.943177 8.272868
-1.334383 1.108343 8.546206
-1.538116 1.211403 9.104759
-1.626481 1.255930 9.518540
-1.737716 1.312008 10.012965
-1.604231 1.243896 10.230529
-1.229293 1.052451 10.968860
-1.626893 1.086439 1.147684
-1.461101 1.017972 1.816505
-1.289963 0.947633 2.159853
-1.306523 0.954082 2.495113
-1.331015 0.963695 2.913137
-1.635748 1.089721 1.499040
-2.106836 1.279586 4.422033
-1.720089 1.120690 5.137000
-1.679773 1.103784 5.563786
-1.632532 1.084124 5.909909
-1.301928 0.948586 6.221055
-1.116606 0.872163 6.855165
-0.912334 0.788144 7.329046
-0.834920 0.755867 7.957812
-1.048214 0.842989 8.089434
-1.384552 0.980305 8.363546
-1.485761 1.021221 8.861932
-1.556763 1.049943 9.194124
-1.668064 1.094990 9.689995
-1.785391 1.142504 10.184245
-1.551991 1.046448 10.783651
-0.463692 0.553987 0.404194
-1.238183 0.795484 1.243399
-1.340363 0.827213 1.494120
-1.266839 0.803657 2.084061
-1.292465 0.811200 2.587293
-1.318703 0.819013 3.007002
-1.692591 0.934978 4.068405
-2.027660 1.039363 4.531909
-1.979577 1.023922 4.955344
-1.820639 0.973943 5.229889
-1.708350 0.938244 5.836030
-1.404234 0.842580 6.396067
-1.161309 0.766301 6.698017
-0.948891 0.699403 7.171642
-0.944875 0.697652 7.697688
-1.102201 0.746568 8.017579
-1.499536 0.870373 8.542328
-1.552622 0.886743 8.794187
-1.551178 0.885878 9.233476
-1.739880 0.944541 9.625811
-1.880950 0.988128 10.203750
-1.689279 0.927783 10.612362
-0.905848 0.599931 1.011765
-1.301697 0.687427 1.259020
-1.418023 0.712669 1.842617
-1.233816 0.671605 2.105657
-1.255490 0.676020 2.527433
-1.287428 0.682634 3.032292
-1.678914 0.768334 4.180779
-1.935458 0.824673 4.738686
-1.824318 0.799408 5.429046
-1.591972 0.747496 5.887638
-1.378037 0.699582 6.435258
-1.268002 0.674703 6.972466
-0.958122 0.605576 7.466586
-0.909697 0.594591 7.742185
-1.279047 0.676107 8.107321
-1.556204 0.737179 8.486094
-1.683540 0.764861 9.068866
-1.741390 0.777450 9.320571
-1.725952 0.773700 9.678136
-1.661193 0.758844 10.226745
-1.438502 0.708860 10.915042
-0.647754 0.483873 0.198420
-1.243235 0.565936 0.623163
-1.052640 0.539084 1.133947
-0.967778 0.526871 1.645102
-1.274349 0.569096 1.889140
-1.293910 0.571422 2.310382
-1.328905 0.575735 2.898140
-1.440438 0.593370 0.479971
-1.380138 0.582217 3.572451
-1.410175 0.586070 3.909239
-2.051447 0.674461 4.347695
-2.097774 0.680501 4.760154
-2.236423 0.699410 5.077823
-1.921251 0.655201 5.707435
-1.505794 0.597159 6.280703
-1.168648 0.550115 6.681777
-1.060280 0.534620 7.222811
-1.024919 0.529399 7.580857
-1.220381 0.556020 8.068534
-1.597923 0.607968 8.427256
-1.688771 0.620168 8.844514
-1.784163 0.632998 9.260738
-1.747722 0.627704 9.535210
-1.796828 0.633954 10.140287
-1.671032 0.616263 10.442634
-0.992556 0.443539 1.049917
-1.198012 0.454341 1.302913
-1.507712 0.470668 1.633013
-1.337422 0.460915 2.313316
-1.367252 0.462061 2.819327
-1.384875 0.462777 3.074941
-1.803558 0.484073 4.385613
-2.128959 0.501346 4.601553
-2.100126 0.499270 5.188801
-1.710136 0.477602 6.003862
-1.295573 0.454828 6.582858
-1.155411 0.446970 6.953754
-1.163640 0.446865 7.561329
-1.114434 0.443978 7.834779
-1.458646 0.462280 8.029828
-1.697143 0.474502 8.675408
-1.772153 0.478228 9.008617
-1.889800 0.484097 9.505715
-1.854582 0.481960 9.779455
-1.811222 0.479066 10.409063
-1.539570 0.464014 10.930931
-0.520222 0.374657 0.100543
-1.141887 0.354068 1.629185
-1.347930 0.347551 1.793908
-1.370831 0.346389 2.299300
-1.400402 0.345021 2.804345
-1.343636 0.346240 3.400294
-1.251230 0.349010 3.496630
-1.702642 0.334562 4.047521
-2.053264 0.323305 4.514666
-2.072471 0.322560 4.683015
-2.144153 0.319825 5.260347
-1.904146 0.326834 5.715851
-1.459336 0.340216 6.124562
-1.173180 0.348398 6.861378
-1.051020 0.351761 7.320702
-1.000340 0.353080 7.596111
-1.295809 0.343525 8.065921
-1.676830 0.331425 8.425316
-1.787254 0.327562 8.925780
-1.884495 0.324182 9.342440
-1.808209 0.326441 9.452742
-1.877859 0.323670 10.140931
-1.676739 0.329516 10.552575
-0.655570 0.315955 1.037303
-0.961330 0.280021 1.374952
-1.375612 0.231298 1.870551
-1.188365 0.252877 2.136003
-1.325226 0.236324 2.805956
-1.336767 0.234823 2.978679
-1.163688 0.254669 3.334077
-1.115566 0.259732 3.936311
-1.660323 0.195841 4.392492
-2.003305 0.155528 4.776701
-2.142621 0.139004 5.097746
-1.102241 0.258615 6.887699
-1.094310 0.259063 7.415341
-1.385877 0.224662 7.886072
-1.648613 0.193776 8.184585
-1.798876 0.176056 8.417625
-1.946322 0.158274 9.082275
-1.948060 0.157675 9.520812
-1.954863 0.156485 9.960372
-1.731277 0.182242 10.287323
-1.409794 0.219055 11.003927
-0.682976 0.258001 1.177198
-0.983204 0.196387 1.427370
-1.284990 0.134458 1.673511
-1.216242 0.147893 2.351949
-1.225497 0.145843 2.523284
-1.269203 0.136289 3.197353
-1.204902 0.149041 3.628151
-0.950319 0.200679 4.080117
-1.365419 0.115610 4.295664
-2.003896 -0.015332 4.730190
-2.130635 -0.041463 4.967663
-2.107935 -0.037362 5.557320
-1.585370 0.069021 6.059545
-1.082710 0.171246 6.658314
-1.138970 0.159431 6.998366
-1.101784 0.166707 7.355868
-1.404385 0.104330 7.908567
-1.629930 0.058095 8.039151
-1.811203 0.020668 8.436006
-1.919278 -0.001885 8.934124
-1.938559 -0.006305 9.454308
-1.923937 -0.003642 9.810962
-1.787304 0.023692 10.467158
-1.427207 0.096813 11.017937
-0.019729 0.400407 0.464058
-0.512437 0.257672 1.330590
-0.909511 0.142905 1.747183
-1.218750 0.053365 2.243492
-1.231847 0.049354 2.499044
-1.172543 0.065877 3.096918
-1.184824 0.062179 3.268812
-1.144580 0.073131 3.953385
-1.089692 0.088536 4.387880
-1.480875 -0.024187 4.433058
-1.937275 -0.156233 5.052714
-1.777774 -0.110547 5.329503
-1.452497 -0.017294 5.803061
-1.158231 0.066863 6.452776
-1.103420 0.082396 6.725050
-1.202404 0.053330 7.317245
-1.342335 0.012802 7.554217
-1.641822 -0.073978 8.102327
-1.803229 -0.120766 8.416658
-1.873330 -0.141270 8.750438
-1.927717 -0.157577 9.435669
-1.820057 -0.126922 9.817012
-1.695430 -0.091305 10.118260
-1.659148 -0.081448 10.753577
-0.710806 0.145739 0.878788
-0.998927 0.035238 1.303079
-1.197976 -0.041225 1.724275
-1.214670 -0.048014 2.150424
-1.147208 -0.022732 2.666291
-1.162711 -0.028905 2.924969
-1.204514 -0.045450 3.519329
-1.239784 -0.059336 3.945283
-1.093664 -0.003932 4.391826
-1.221388 -0.053053 4.720602
-1.649291 -0.216995 5.176279
-1.495004 -0.158309 5.455095
-1.307549 -0.087368 6.169067
-1.055390 0.008774 6.386575
-1.119876 -0.016275 6.811154
-1.188723 -0.042989 7.234946
-1.383831 -0.118090 7.806178
-1.614131 -0.206295 8.020356
-1.786724 -0.272626 8.417303
-1.780912 -0.270826 8.855159
-1.798197 -0.277932 9.376678
-1.841795 -0.295173 9.981636
-1.721768 -0.249600 10.283123
-1.487382 -0.160622 10.888888
-0.630852 0.127822 0.894904
-1.002758 -0.052721 1.483742
-1.286146 -0.190259 1.897184
-1.206386 -0.151924 2.156978
-1.222273 -0.159950 2.496424
-1.261874 -0.179785 3.170851
-1.189926 -0.145233 3.434089
-1.140206 -0.121691 3.950758
-1.162650 -0.132807 4.206784
-1.309838 -0.204606 4.786653
-1.375622 -0.237025 5.375530
-1.338632 -0.219560 5.810760
-1.182916 -0.144413 6.011075
-1.075681 -0.093063 6.550116
-1.126486 -0.117986 6.890656
-1.105067 -0.108063 7.332534
-1.353421 -0.228621 7.719072
-1.693400 -0.393489 8.080307
-1.772370 -0.432117 8.497584
-1.819149 -0.455436 9.183502
-1.803472 -0.448207 9.540684
-1.790828 -0.442447 9.898863
-1.646634 -0.373249 10.474627
-1.336938 -0.224030 11.110540
-0.812531 -0.029116 0.977436
-1.074847 -0.185114 1.228497
-1.265319 -0.298894 1.897184
-1.192595 -0.256077 2.240543
-1.217109 -0.271160 2.747296
-1.241963 -0.286357 3.169870
-1.179080 -0.249386 3.516706
-1.118895 -0.214019 3.865051
-1.239865 -0.286270 4.278529
-1.295909 -0.320159 4.868000
-1.322532 -0.336230 5.122360
-1.314763 -0.332334 5.807822
-1.176671 -0.250646 6.091733
-1.075114 -0.190916 6.630694
-1.136713 -0.227930 7.054827
-1.202321 -0.267323 7.478143
-1.356291 -0.359155 7.881182
-1.652859 -0.535428 8.074815
-1.759014 -0.599059 8.656426
-1.755974 -0.597711 9.094312
-1.757295 -0.598954 9.533277
-1.762997 -0.602799 9.973264
-1.569228 -0.488101 10.300140
-1.251017 -0.299757 10.850762
-0.313521 0.256267 0.475406
-0.903791 -0.162114 1.671181
-1.241055 -0.400772 1.996577
-1.094821 -0.297924 2.430500
-1.115602 -0.313076 2.855386
-1.135038 -0.327183 3.195993
-1.075544 -0.285530 3.544731
-1.126463 -0.322252 4.221878
-1.236952 -0.400683 4.551321
-1.276826 -0.429322 4.974144
-1.239541 -0.403456 5.409575
-1.135380 -0.330448 5.944824
-0.945764 -0.196989 6.415643
-1.002444 -0.237507 6.842272
-1.143347 -0.337513 7.250359
-1.367973 -0.496651 7.636599
-1.595716 -0.657987 8.017617
-1.652430 -0.698427 8.352793
-1.756870 -0.772861 8.934445
-1.565841 -0.638238 9.254471
-1.523206 -0.608809 9.886494
-1.575880 -0.646305 10.139606
-1.447959 -0.556558 10.719046
-0.721292 -0.098202 1.050927
-0.883924 -0.235845 1.559151
-1.125197 -0.439645 1.973432
-1.137422 -0.450347 2.314270
-1.075625 -0.398680 2.661038
-1.035159 -0.365385 3.346183
-1.056691 -0.383931 3.688000
-1.074453 -0.399201 3.945505
-1.203503 -0.508730 4.611477
-1.225981 -0.527972 4.867673
-1.181958 -0.491290 5.219894
-1.091533 -0.415818 5.839182
-0.998620 -0.338158 6.379004
-0.944199 -0.292522 6.568711
-1.096397 -0.421453 7.146709
-1.305980 -0.598518 7.534341
-1.518504 -0.778055 7.916752
-1.570996 -0.822683 8.252757
-1.578921 -0.829974 8.774827
-1.592351 -0.841906 9.297997
-1.595560 -0.845129 9.739631
-1.496050 -0.761630 10.041908
-1.392437 -0.675097 10.704757
-0.281568 0.270264 0.492021
-0.784348 -0.232848 1.264461
-0.861923 -0.310757 1.606410
-1.080619 -0.529485 1.854107
-0.959020 -0.408810 2.458384
-0.977228 -0.427537 2.885672
-0.994264 -0.444986 3.228462
-1.079063 -0.529993 3.478678
-1.051901 -0.503738 4.165437
-1.090083 -0.542518 4.675054
-1.181416 -0.634044 4.919933
-1.140988 -0.594115 5.272232
-0.987821 -0.441950 5.906026
-0.902457 -0.357384 6.447320
-0.922160 -0.377283 6.621470
-1.042587 -0.498074 7.031194
-1.257746 -0.713661 7.586454
-1.454722 -0.910867 7.968484
-1.479266 -0.935596 8.139101
-1.554550 -1.011418 8.639679
-1.579281 -1.036885 9.244007
-1.484427 -0.942533 9.543423
-1.435786 -0.894654 10.093677
-1.340488 -0.800321 10.756709
-0.821711 -0.368485 0.864966
-0.891406 -0.451568 1.290551
-0.768742 -0.306871 1.639898
-0.910854 -0.475775 2.144166
-0.925137 -0.493273 2.570665
-0.942456 -0.514366 2.996888
-0.954401 -0.528862 3.254442
-1.045621 -0.637526 3.755294
-1.012614 -0.599181 4.273389
-1.035997 -0.627331 4.614096
-1.081298 -0.681773 5.205826
-1.038780 -0.631824 5.475189
-0.885157 -0.450647 5.942466
-0.888741 -0.455857 6.637955
-1.226564 -0.857398 7.855917
-1.396709 -1.059193 8.152020
-1.390557 -1.052520 8.590145
-1.375512 -1.035209 8.946690
-1.463684 -1.140380 9.528768
-1.454349 -1.129829 9.886621
-1.308376 -0.957511 10.213304
-1.145459 -0.765527 10.820039
-0.438651 0.056017 0.374259
-0.901690 -0.597922 0.630871
-0.906752 -0.605990 1.225537
-0.796497 -0.450916 1.574023
-0.919126 -0.624518 1.909389
-0.930379 -0.641062 2.335241
-0.947432 -0.665923 2.844883
-0.964657 -0.690895 3.270124
-0.931271 -0.644579 3.787868
-0.896994 -0.596876 4.223430
-0.975136 -0.707682 4.554439
-1.003275 -0.748057 4.979022
-1.027816 -0.783223 5.319328
-0.889088 -0.588144 5.784955
-0.833506 -0.510798 6.494828
-0.849691 -0.533912 6.668944
-0.956815 -0.685876 7.162457
-1.106221 -0.897222 7.466575
-1.275883 -1.137409 7.932273
-1.289430 -1.157470 8.537158
-1.321508 -1.203138 8.790315
-1.309251 -1.186394 9.148268
-1.310537 -1.188896 9.589916
-1.258783 -1.116576 10.057441
-1.180157 -1.006630 10.718721
-0.441726 0.020966 0.418581
-0.851611 -0.667850 0.672318
-0.803356 -0.587559 1.098654
-0.709157 -0.430414 1.699865
-0.867462 -0.696706 1.944885
-0.877516 -0.714336 2.368747
-0.898490 -0.750747 3.044420
-0.860311 -0.687237 3.391554
-0.776586 -0.547403 3.833569
-0.899077 -0.753829 4.238939
-0.963506 -0.862463 4.483306
-0.937027 -0.818753 4.916811
-0.969387 -0.873988 5.422652
-0.853263 -0.679929 5.971145
-0.778156 -0.554443 6.341714
-0.820131 -0.625833 6.851495
-0.915881 -0.787500 7.342158
-0.998340 -0.926545 7.661959
-1.115564 -1.123646 7.793699
-1.194262 -1.257128 8.542975
-1.163094 -1.205118 8.733217
-1.211316 -1.286834 9.150205
-1.243463 -1.342031 9.837640
-1.198911 -1.268028 10.303799
-1.073418 -1.057704 10.550086
-0.575533 -0.296135 1.151103
-0.751022 -0.660085 1.316927
-0.846141 -0.858385 1.904921
-0.811066 -0.786600 2.335241
-0.821390 -0.808866 2.758220
-0.793081 -0.751273 3.272528
-0.674834 -0.507021 3.637358
-0.774487 -0.714168 3.960163
-0.929955 -1.037449 4.519464
-0.907535 -0.991889 4.951285
-0.973438 -1.129279 5.358507
-0.988105 -1.160190 5.610804
-0.804536 -0.781033 6.187434
-0.710507 -0.587354 6.743321
-0.784679 -0.741879 7.151035
-0.689796 -0.546274 7.629877
-0.810661 -0.797502 8.016279
-1.045875 -1.285177 8.169690
-1.091845 -1.381458 8.668950
-1.090018 -1.378577 9.106939
-1.081738 -1.362159 9.463319
-1.102118 -1.405635 10.068721
-1.013743 -1.223372 10.478756
-0.583754 -0.431378 0.900057
-0.731804 -0.817485 1.488603
-0.774074 -0.928569 1.994411
-0.740906 -0.842842 2.172287
-0.748778 -0.864358 2.597993
-0.724593 -0.802818 3.114661
-0.631307 -0.561799 3.650604
-0.785275 -0.962578 3.957073
-0.949453 -1.390482 4.504792
-0.888235 -1.232131 4.781665
-0.902723 -1.270616 5.119510
-0.829177 -1.083055 6.524768
-0.717883 -0.795350 7.099714
-0.633719 -0.577682 7.495862
-0.745084 -0.868406 8.053715
-0.945823 -1.390522 8.291724
-0.958693 -1.424384 8.462173
-0.976715 -1.472928 9.150528
-0.997994 -1.528843 9.403111
-1.014597 -1.573493 10.009324
-0.914663 -1.315165 10.529353
-0.721827 -0.815905 11.221871
-0.629710 -0.770229 1.075902
-0.714868 -1.063977 1.325486
-0.717497 -1.074110 1.664681
-0.668301 -0.906810 2.264939
-0.676000 -0.934930 2.773649
-0.652741 -0.855768 3.037026
-0.746757 -1.180739 3.521294
-0.838210 -1.496337 3.831612
-0.851674 -1.544262 4.332088
-0.781121 -1.303016 4.784265
-0.767466 -1.257437 5.216980
-0.890358 -1.681092 5.499777
-0.789452 -1.334970 5.807993
-0.652059 -0.864798 6.572483
-0.640104 -0.824823 6.930204
-0.629073 -0.788034 7.289150
-0.705686 -1.052831 7.677208
-0.815406 -1.431702 8.123056
-0.849681 -1.551483 8.706402
-0.843277 -1.530602 9.063015
-0.859533 -1.587333 9.314768
-0.877650 -1.651867 10.002563
-0.814607 -1.436055 10.329938
-0.696936 -1.033666 11.074823
-0.600002 -1.012618 0.769151
-0.660170 -1.316017 1.269760
-0.623153 -1.132730 1.697712
-0.585741 -0.946717 1.961646
-0.591088 -0.976193 2.554646
-0.557999 -0.812996 3.077383
-0.618983 -1.118878 3.227780
-0.727176 -1.663199 3.854939
-0.679843 -1.429159 4.473268
-0.671357 -1.389048 4.987664
-0.724664 -1.658381 5.545967
-0.697266 -1.523313 5.992188
-0.593455 -1.006151 6.505613
-0.568263 -0.882180 6.963458
-0.599074 -1.037854 7.286755
-0.614220 -1.115594 7.710257
-0.671985 -1.406807 8.175984
-0.685599 -1.476483 8.512349
-0.699797 -1.549071 8.848073
-0.729738 -1.701959 9.513308
-0.722653 -1.667767 9.788966
-0.686272 -1.487958 10.281352
-0.613277 -1.125183 10.831791
-0.516629 -1.057620 0.771775
-0.505633 -0.967782 1.283416
-0.494390 -0.873259 1.460007
-0.519730 -1.093900 2.046855
-0.520951 -1.106298 2.303785
-0.501875 -0.948927 2.993598
-0.538689 -1.264706 3.228688
-0.600383 -1.793785 3.607896
-0.606302 -1.848747 4.189231
-0.598595 -1.785688 4.534332
-0.590179 -1.715949 4.798332
-0.607407 -1.865999 5.203048
-0.604651 -1.847080 5.797476
-0.529530 -1.209815 6.238353
-0.492602 -0.899288 6.811306
-0.515738 -1.101056 7.388042
-0.488561 -0.872345 7.785491
-0.498069 -0.956723 8.212284
-0.574535 -1.610532 8.428549
-0.580724 -1.665266 8.681865
-0.593557 -1.778568 9.182214
-0.584515 -1.705678 9.729310
-0.562650 -1.523007 10.222379
-0.532843 -1.273491 10.830479
-0.400070 -0.295422 0.516773
-0.426124 -1.097198 0.770135
-0.435805 -1.408587 1.355348
-0.429360 -1.226030 1.868737
-0.426125 -1.129905 1.962287
-0.434291 -1.418087 3.387043
-0.448183 -1.852436 3.771321
-0.452204 -1.983958 4.095032
-0.443707 -1.739298 4.625462
-0.441972 -1.700427 5.137742
-0.449932 -1.953939 5.527862
-0.444363 -1.791717 5.807366
-0.426546 -1.262156 6.316767
-0.416219 -0.965126 6.973993
-0.421992 -1.154731 7.465368
-0.414112 -0.925218 7.862620
-0.423483 -1.223961 8.331821
-0.435734 -1.607505 8.689843
-0.433073 -1.529327 8.798992
-0.440183 -1.761616 9.360558
-0.439352 -1.746119 9.718989
-0.434151 -1.605496 10.377213
-0.420900 -1.214082 10.845202
-0.378637 -0.228445 0.369894
-0.322310 -1.256301 1.814457
-0.326546 -1.171369 2.159600
-0.299273 -1.658548 3.483919
-0.280463 -2.001951 3.957184
-0.284196 -1.927811 4.219110
-0.296108 -1.694953 4.835324
-0.307473 -1.472190 5.459648
-0.323230 -1.156717 6.718482
-0.335567 -0.919688 7.110105
-0.334431 -0.930590 7.723503
-0.326291 -1.078645 7.961425
-0.304624 -1.475866 8.407330
-0.297309 -1.610000 8.556740
-0.290863 -1.721974 9.057847
-0.286908 -1.784291 9.746403
-0.292377 -1.675665 10.130551
-0.301506 -1.496812 10.626468
-0.316433 -0.556899 0.343788
-0.260421 -0.955695 0.770211
-0.272470 -0.865972 1.283826
-0.256480 -0.977856 1.707886
-0.227808 -1.182341 1.873121
-0.222594 -1.215325 2.548833
-0.218485 -1.242027 2.972534
-0.175319 -1.550525 3.122595
-0.114264 -1.985211 3.590854
-0.131020 -1.860078 4.359854
-0.136437 -1.817917 4.870548
-0.113537 -1.978938 5.356515
-0.118824 -1.938245 5.785909
-0.168021 -1.583506 6.097175
-0.236232 -1.090029 6.781580
-0.266420 -0.870494 7.259318
-0.270973 -0.835495 7.620615
-0.232073 -1.111863 8.009054
-0.163144 -1.603279 8.433910
-0.166157 -1.579345 8.792504
-0.152522 -1.674367 9.212410
-0.142859 -1.739147 9.903421
-0.160358 -1.611723 10.206822
-0.181267 -1.458036 10.788361
-0.112466 -1.269109 0.940404
-0.045409 -1.564761 1.107219
-0.085293 -1.386090 1.701603
-0.126920 -1.201059 1.966221
-0.096559 -1.332498 2.636776
-0.110585 -1.268423 3.151219
-0.065025 -1.469457 3.225321
0.052866 -1.988890 3.603690
0.085599 -2.131554 4.091734
0.027830 -1.874779 4.457083
-0.004982 -1.727982 4.898352
0.055844 -1.994513 5.455357
0.022881 -1.847367 5.817997
-0.062691 -1.466182 6.563114
-0.140015 -1.123165 6.885729
-0.159476 -1.034600 7.515791
-0.195392 -0.875022 7.727438
-0.147023 -1.086421 8.304368
-0.040461 -1.555948 8.644835
-0.023517 -1.629452 8.982500
0.002988 -1.744533 9.484964
0.004874 -1.751064 9.927969
-0.018316 -1.647011 10.314716
-0.094143 -1.309338 10.950483
0.024969 -1.388839 1.711714
0.002194 -1.314165 2.221477
0.040782 -1.436569 2.720959
-0.005626 -1.285724 3.323955
0.060037 -1.495858 3.562045
0.274132 -2.182783 3.751589
0.291668 -2.237355 4.326793
0.122875 -1.694376 4.643254
0.056087 -1.478029 5.264814
0.158139 -1.804844 5.560478
0.154590 -1.791647 6.156809
0.032387 -1.397473 6.738456
-0.042262 -1.156837 7.044323
-0.082303 -1.027124 7.420289
-0.082134 -1.026070 7.948942
0.007407 -1.312186 8.416821
0.081958 -1.550944 8.628925
0.116000 -1.658741 9.130845
0.174783 -1.846312 9.524903
0.177198 -1.852736 9.965214
0.020332 -1.084383 0.884148
0.100234 -1.279556 1.389603
0.144961 -1.388281 1.893706
0.113473 -1.310070 2.238473
0.164489 -1.434062 2.823235
0.166814 -1.439562 2.912469
0.186866 -1.487243 3.584809
0.380366 -1.962510 3.712144
0.386217 -1.974304 4.797227
0.281856 -1.717325 5.001755
0.348505 -1.879776 5.569891
0.324904 -1.821141 5.834748
0.205187 -1.525572 6.395631
0.088602 -1.237676 6.965871
0.012251 -1.048688 7.526985
-0.036850 -0.927109 7.905903
0.032765 -1.097238 8.311601
0.221324 -1.559660 8.733127
0.257462 -1.647479 9.151564
0.309244 -1.774397 9.297674
0.334928 -1.835884 9.985178
0.157254 -1.169275 0.975176
0.342090 -1.532158 1.305226
0.300384 -1.449621 1.562301
0.221100 -1.292502 2.159375
0.227274 -1.304137 2.414944
0.738503 -2.306474 4.004880
0.586655 -2.006595 4.622854
0.600257 -2.032851 4.873023
0.544773 -1.922528 5.477175
0.398370 -1.633479 6.033612
0.338900 -1.515620 6.483971
0.230615 -1.301877 6.871378
0.145215 -1.132636 7.514864
0.041585 -0.928028 7.912180
0.109449 -1.061032 8.149444
0.335317 -1.504431 8.573065
0.377894 -1.587342 8.991897
0.475690 -1.778742 9.468852
0.503822 -1.833576 9.719636
0.474307 -1.774440 10.267351
0.284382 -1.399424 11.008814
0.361475 -1.318953 0.789617
0.416611 -1.407131 1.041609
0.422394 -1.415710 1.461432
0.430614 -1.428207 1.881116
0.396036 -1.371491 2.556107
0.512944 -1.558817 2.879447
0.420590 -1.409805 3.229552
0.937477 -2.239048 4.061332
0.860694 -2.114784 4.573936
0.823807 -2.055064 4.833524
0.758594 -1.949241 5.434779
0.580847 -1.662794 5.905721
0.503556 -1.537965 6.270331
0.443021 -1.439774 6.804488
0.302519 -1.213606 7.025793
0.212785 -1.068159 7.755340
0.144951 -0.958502 8.134697
0.408082 -1.380642 8.559727
0.499051 -1.526297 8.874235
0.571340 -1.641477 9.457504
0.582412 -1.659123 9.543423
0.683056 -1.819595 10.288805
0.538917 -1.587073 10.809253
0.050431 -0.721046 0.134649
0.230289 -0.961669 0.561783
0.177219 -0.889456 1.243168
0.364244 -1.139711 1.659353
0.494209 -1.313426 2.073379
0.442207 -1.243280 2.332596
0.523525 -1.351488 2.914748
0.601906 -1.456010 3.327090
0.870892 -1.816007 3.877659
1.090387 -2.109501 4.503852
1.000986 -1.988924 4.938127
0.908008 -1.863665 5.294254
0.949580 -1.918687 5.789131
0.787245 -1.700609 6.000909
0.733020 -1.626825 6.696074
0.650134 -1.515086 7.064803
0.334435 -1.090930 7.509938
0.286565 -1.025769 8.140889
0.435287 -1.224944 8.356017
0.559346 -1.390633 8.839293
0.745157 -1.639199 9.295417
0.793639 -1.703734 9.628899
0.856574 -1.787532 10.043847
0.704994 -1.583295 10.644699
0.639675 -1.315972 0.743445
0.776853 -1.471105 1.162112
0.650937 -1.327718 1.506336
0.669234 -1.347573 2.179012
0.684669 -1.364520 2.599641
0.827393 -1.526189 2.840395
0.658852 -1.334063 3.448204
1.357658 -2.126452 4.023472
1.261190 -2.016261 4.535926
1.234988 -1.985836 5.040315
1.191023 -1.935578 5.302034
1.179742 -1.921973 5.891314
1.009127 -1.727917 6.186602
0.849048 -1.545703 6.568251
0.774669 -1.459137 8.145079
0.692469 -1.365323 8.523035
0.908171 -1.609419 9.063712
0.960557 -1.668425 9.397741
0.978371 -1.687935 9.919902
0.943242 -1.647798 10.113911
0.727809 -1.402305 10.826813
0.894128 -1.400281 1.051707
0.833972 -1.341707 1.642099
0.777435 -1.286713 2.152024
0.787139 -1.295724 2.408537
0.881850 -1.386164 2.907631
0.823336 -1.329576 3.170642
1.306758 -1.793395 3.956390
1.494182 -1.972906 4.511674
1.379322 -1.862029 4.866698
1.433503 -1.913406 5.441524
1.333698 -1.816897 5.882392
1.147676 -1.637672 6.178582
1.003359 -1.498130 6.808988
0.833942 -1.333451 8.244151
0.815540 -1.315311 8.602945
1.010428 -1.502325 8.896439
1.109438 -1.596795 9.478728
1.114566 -1.601175 9.919580
1.091951 -1.579087 10.196884
0.875067 -1.369564 10.994465
0.543042 -0.941200 1.019329
0.936006 -1.259117 1.265627
0.943961 -1.265167 1.604133
0.801867 -1.149609 2.034578
0.896347 -1.225631 2.452418
1.702348 -1.876349 4.129416
1.652822 -1.835852 4.470183
1.595241 -1.788057 5.481200
1.546086 -1.747949 5.745280
1.287779 -1.538237 6.219964
1.132749 -1.411972 6.851236
0.897417 -1.220749 7.425428
0.477568 -0.880351 7.795052
0.544038 -0.933680 8.222810
0.993902 -1.297585 8.543780
1.096494 -1.379982 9.129542
1.158764 -1.430015 9.465952
1.239561 -1.494958 9.883919
1.133174 -1.408049 10.542963
0.118331 -0.552078 0.248997
0.618149 -0.890542 0.844349
0.709749 -0.952139 1.351742
0.962152 -1.123209 1.515122
0.978336 -1.133642 2.019671
0.992264 -1.142724 2.357502
1.008666 -1.153486 2.695172
1.372293 -1.401641 1.363840
1.800268 -1.688656 4.452444
1.766392 -1.665125 4.955760
1.728902 -1.639229 5.379617
1.675789 -1.602908 5.642251
1.563007 -1.525910 6.084265
1.302695 -1.348688 6.645006
1.143259 -1.239826 7.280073
0.708243 -0.944194 7.729509
0.697076 -0.936135 8.173855
1.094558 -1.205444 8.513970
1.252280 -1.312023 8.910949
1.397205 -1.410011 9.222588
1.400395 -1.411699 9.661758
1.345584 -1.373917 10.209422
1.137852 -1.232321 10.813784
0.685076 -0.837321 0.623306
0.862901 -0.937890 0.964289
1.132188 -1.090289 1.379229
1.237555 -1.149487 1.960902
1.077991 -1.058572 2.307113
1.099338 -1.070253 2.727662
1.216927 -1.136476 3.223376
1.315370 -1.192177 3.385544
1.957327 -1.555116 4.730447
1.915620 -1.531010 5.152624
1.868145 -1.503713 5.495165
1.748024 -1.435087 5.935277
1.570054 -1.333439 6.559087
1.388134 -1.229628 7.108090
1.113851 -1.073457 7.599581
1.185953 -1.113943 8.019384
1.517171 -1.301551 8.375410
1.495774 -1.289041 8.729915
1.545408 -1.316951 8.980775
1.528972 -1.307255 9.336482
1.503863 -1.292272 10.046415
1.308995 -1.181340 10.374202
0.572079 -0.691366 0.209290
0.847809 -0.817025 0.803270
0.941151 -0.859593 0.974760
1.225013 -0.989070 1.473350
1.323800 -1.034053 1.724044
1.261204 -1.004728 2.397210
1.179392 -0.967094 2.574294
1.396766 -1.066056 3.146629
2.069165 -1.372501 4.583876
2.043056 -1.359969 5.168469
2.014580 -1.346432 5.673784
1.879465 -1.284213 6.033371
1.645707 -1.176891 6.329960
1.478925 -1.099824 7.043019
1.459397 -1.090453 7.478442
1.592954 -1.151373 7.711421
1.611916 -1.159461 8.311555
1.605719 -1.156192 8.748534
1.675113 -1.187636 9.081716
1.713973 -1.204834 9.683743
1.595576 -1.150328 9.983814
1.411355 -1.065575 10.394218
1.289419 -0.881075 0.891659
1.501350 -0.956877 1.806177
1.425218 -0.928929 2.228422
1.353525 -0.902586 2.652635
1.374483 -0.909847 2.988609
1.485864 -0.949910 3.233814
1.438901 -0.932354 3.825470
1.376052 -0.909286 4.170702
1.783475 -1.056411 4.462479
2.118189 -1.177070 4.921192
2.096058 -1.168504 5.506907
1.763012 -1.050258 3.153717
1.816548 -1.066691 6.226529
1.615157 -0.993308 6.772121
1.591885 -0.984474 7.205658
1.680715 -1.016136 7.703714
1.712224 -1.027375 7.872231
1.750915 -1.040722 8.553696
1.637563 -0.999352 8.930266
1.656415 -1.005675 9.451095
1.623250 -0.993414 9.726070
1.582067 -0.977911 10.356904
1.144853 -0.819179 10.933205
0.776429 -0.611354 0.275843
0.970322 -0.662880 0.532927
1.071654 -0.689539 0.956109
1.480810 -0.798001 1.787794
1.502989 -0.803456 2.289547
1.420172 -0.781104 2.548597
1.560344 -0.817913 3.209275
1.682914 -0.850332 3.536137
1.631255 -0.836067 4.044804
1.577353 -0.821279 4.472835
1.685528 -0.852402 2.060991
2.154096 -0.974540 5.242102
2.102106 -0.960340 5.585949
1.957644 -0.921438 5.946004
1.733905 -0.861276 6.407148
1.624728 -0.831633 6.939574
1.792698 -0.876107 7.338240
1.759506 -0.866918 7.690547
1.762483 -0.867231 8.208503
1.737171 -0.860143 8.563216
1.864398 -0.893571 9.142891
1.809179 -0.878650 9.334879
1.740424 -0.859787 9.880706
1.564656 -0.812403 10.373233
0.233067 -0.439304 0.508065
1.021256 -0.583361 0.676959
1.420987 -0.656117 1.093585
1.532826 -0.676123 1.593618
1.542117 -0.677592 1.847010
1.565431 -0.681399 2.348727
1.584696 -0.684617 2.684629
1.533566 -0.674646 3.359006
1.652441 -0.696173 3.603690
1.682633 -0.701391 3.938761
1.733130 -0.710174 4.438412
1.656685 -0.698224 2.207247
2.016454 -0.761350 5.163245
1.985466 -0.755215 5.672452
1.741918 -0.710310 6.049514
1.736331 -0.708742 6.646937
1.875684 -0.734025 6.881641
1.995138 -0.755277 7.542181
1.930982 -0.743368 7.729938
1.934508 -0.743541 8.246594
1.867355 -0.730686 8.868544
1.943395 -0.744295 9.201482
1.907048 -0.737394 9.475609
1.785932 -0.714563 10.211351
1.494007 -0.660750 10.649934
0.965736 -0.486359 0.120340
1.165699 -0.505357 0.631178
1.367770 -0.524791 0.886672
1.580187 -0.544936 1.470946
1.592009 -0.545781 1.809475
1.606834 -0.546918 2.147884
1.639660 -0.549583 2.734401
1.668783 -0.552037 3.155025
1.808875 -0.565225 3.649080
1.824130 -0.566557 3.817956
1.864907 -0.570150 4.233566
1.919755 -0.575039 4.730832
1.970538 -0.579607 5.145329
1.950516 -0.577124 5.737245
1.717296 -0.554013 6.197450
1.855389 -0.567238 6.433178
2.022905 -0.583181 6.831173
2.127195 -0.592810 7.407803
1.995863 -0.579696 7.777324
2.097258 -0.589116 8.272548
1.992632 -0.578523 8.728596
1.952271 -0.574349 9.000968
1.973078 -0.575905 9.520462
1.959116 -0.574225 9.876936
1.799731 -0.558196 10.450261
1.918596 -0.410066 1.376686
1.726727 -0.407768 1.636403
1.647741 -0.406464 2.143032
1.665526 -0.406352 2.480328
1.786085 -0.407352 2.810857
1.822535 -0.407294 3.311775
1.865619 -0.407308 3.812167
1.798750 -0.406278 4.157583
1.952381 -0.407491 4.646775
1.758236 -0.407470 2.346268
1.947323 -0.406751 5.410754
1.733900 -0.403893 6.036137
1.885017 -0.405231 6.356687
2.249911 -0.408827 6.723106
2.224531 -0.408168 7.152634
2.121934 -0.406586 7.684376
2.188623 -0.407006 8.015645
2.195991 -0.406623 8.530644
2.191483 -0.406184 8.965189
2.211942 -0.405939 9.482428
2.100730 -0.404402 9.862189
2.015087 -0.403063 10.326662
1.234151 -0.301336 0.614816
1.537496 -0.278966 0.950745
1.744045 -0.263640 1.283864
1.766941 -0.261373 1.950752
1.679113 -0.267530 2.209340
1.702345 -0.265462 2.629035
1.736245 -0.262543 3.131127
1.876130 -0.251923 3.623984
1.906934 -0.249380 3.959114
1.949455 -0.245911 4.376175
1.772457 -0.260861 2.074009
2.048288 -0.237971 5.208752
1.895556 -0.248757 5.569891
1.882337 -0.249181 6.166639
2.244365 -0.222513 6.534573
2.217083 -0.224109 6.965242
2.164281 -0.227709 7.233867
2.145044 -0.228718 7.667127
2.165055 -0.226724 8.265204
2.103789 -0.231009 8.455551
2.233497 -0.221053 9.033404
2.158296 -0.226035 9.575881
2.069664 -0.232065 10.039955
1.964203 -0.239392 10.423367
0.660298 -0.293120 0.262608
1.155478 -0.216385 0.604780
1.655017 -0.138911 1.020947
1.761465 -0.122178 1.355219
1.679585 -0.134356 1.860600
1.707572 -0.129505 2.445733
1.816089 -0.112607 2.610684
1.855489 -0.105996 3.193596
1.875348 -0.102701 3.446341
1.927472 -0.094128 4.028228
1.952848 -0.089982 4.280466
2.106103 -0.065887 4.767157
2.048551 -0.074456 5.112652
1.844320 -0.105336 5.816708
1.966941 -0.086269 5.972208
2.252532 -0.041695 6.519598
2.322552 -0.030513 6.932467
2.284857 -0.036014 7.281605
2.250389 -0.041015 7.631939
2.286699 -0.034795 8.309706
2.322688 -0.029088 8.478020
2.336412 -0.026501 8.993842
2.261231 -0.037612 9.534678
2.227211 -0.042613 9.809135
1.994600 -0.077895 10.489155
1.559804 -0.023406 0.757898
1.862254 0.050392 1.337651
1.875461 0.053978 1.755880
1.695156 0.010622 2.100981
1.804649 0.037374 2.350138
1.833888 0.044918 2.849207
1.863188 0.052400 3.265409
1.896941 0.060960 3.681252
1.951509 0.074714 4.261193
1.986761 0.083561 4.593828
2.111679 0.114040 4.832088
1.980048 0.082637 5.353305
1.951621 0.076223 5.864299
2.180370 0.131836 6.084265
2.353307 0.174168 6.561364
2.230956 0.144942 7.006687
2.239773 0.147627 7.600072
2.224701 0.144375 8.031587
2.275329 0.156868 8.280099
2.345054 0.174062 8.609628
2.341331 0.173560 9.042473
2.327356 0.170899 9.826183
2.180836 0.135608 10.042973
1.955683 0.081699 10.724179
1.557783 0.109012 0.884516
1.759928 0.177041 1.465957
1.765194 0.178961 1.637049
1.781186 0.184696 2.055941
1.810821 0.195141 2.639699
1.826350 0.200565 2.893033
1.874839 0.217381 3.558342
1.903508 0.227268 3.893525
1.943167 0.240902 4.310659
1.987201 0.255996 4.727303
2.035604 0.272547 5.143407
1.879033 0.220546 5.421922
1.946187 0.243436 5.921150
2.219503 0.335190 6.468931
2.192690 0.326647 6.899233
2.221175 0.336316 7.067883
2.339265 0.376357 7.724876
2.310079 0.366947 8.075599
2.284021 0.358582 8.427447
2.371161 0.388060 8.839534
2.370389 0.388214 9.273980
2.229862 0.341918 9.921643
1.543856 0.240561 0.943603
1.827683 0.363215 1.356006
1.840251 0.369037 1.773262
1.754825 0.332413 1.947525
1.773398 0.340821 2.365619
1.811727 0.357982 3.030934
1.835112 0.368381 3.365864
1.854542 0.376997 3.618193
1.897570 0.396018 4.117254
1.929793 0.410225 4.451310
2.083414 0.476947 5.018808
1.951119 0.420397 5.459849
2.016510 0.449048 5.957349
2.233310 0.542644 6.177256
2.320187 0.580626 6.751902
2.193114 0.526251 7.117591
2.249749 0.550969 7.448666
