1.996855 -0.441069 7.601630
1.794661 -0.313066 8.058557
1.853121 -0.359070 10.179585
1.763296 -0.304247 10.894384
0.975380 0.201098 11.037379
1.578687 0.019235 1.845102
1.431245 0.091849 2.275191
1.262092 0.174525 2.936546
1.276390 0.165307 3.473540
1.372676 0.114625 4.059982
1.646213 -0.024815 4.518243
1.676942 -0.042267 5.045086
1.790600 -0.101648 5.619146
2.032295 -0.225334 6.151351
2.201027 -0.312084 6.629758
2.091376 -0.259274 7.266718
2.151063 -0.291242 7.776559
2.136862 -0.285825 8.237376
2.206921 -0.322994 8.741721
2.358563 -0.400580 9.071198
2.320127 -0.383256 9.610312
2.243710 -0.346321 10.019214
2.054354 -0.252691 10.472535
1.730579 -0.089952 10.544136
1.138050 0.207392 10.802902
1.167447 0.332698 1.409482
1.374662 0.251215 1.977184
1.299349 0.278334 2.464888
1.308030 0.273062 3.005304
1.271647 0.284757 3.631496
1.503125 0.194033 4.182517
1.611096 0.150545 4.764790
1.580295 0.161449 5.016198
1.779104 0.082978 5.642629
2.102656 -0.043958 6.447531
2.199539 -0.082646 6.877116
2.174624 -0.074769 7.342542
2.280711 -0.116960 7.765165
2.265884 -0.113713 8.442622
2.381970 -0.159714 8.858970
2.418091 -0.174890 9.228139
2.295624 -0.129723 9.723677
2.216697 -0.100939 10.133494
2.056861 -0.040986 10.501581
1.681315 0.102412 10.661441
1.013271 0.358044 10.793936
1.553509 0.331817 2.008676
1.315032 0.395126 2.384256
1.297135 0.398593 2.781326
1.310794 0.393022 3.318724
1.360802 0.377122 3.993913
1.706958 0.282037 4.365693
1.638545 0.298131 5.067620
1.692642 0.282430 5.367271
1.904608 0.222842 5.986805
2.162235 0.150433 6.735112
2.221711 0.132541 7.245619
2.201809 0.136331 7.706200
2.359130 0.092544 8.039599
2.347598 0.094079 8.496305
2.344613 0.092551 9.167681
2.425852 0.069561 9.448924
2.302692 0.101213 9.942666
2.262730 0.110920 10.264625
1.797793 0.235751 10.593564
1.246824 0.384002 10.890930
0.290870 0.642944 10.912763
1.420647 0.496587 2.151565
1.288826 0.516885 2.723474
1.164699 0.535885 3.294938
1.323234 0.507432 3.793722
1.540744 0.469345 4.198909
1.555473 0.464299 4.950526
1.426296 0.484663 5.372214
1.693419 0.437771 5.904144
2.137968 0.360622 6.528788
2.283629 0.334139 7.087052
2.262337 0.336168 7.546205
2.289101 0.329642 8.136169
2.279254 0.329752 8.591559
2.404859 0.307150 9.004265
2.487446 0.292258 9.284522
2.489911 0.290310 9.734206
2.318954 0.317925 10.096829
1.983560 0.372838 10.592159
1.460074 0.460482 10.797088
0.575179 0.609630 10.851284
1.375864 0.634856 2.133728
1.186443 0.645429 2.793040
1.202161 0.642564 3.328712
1.309320 0.633356 3.914166
1.476536 0.620400 4.407791
1.562951 0.613086 4.846673
1.653553 0.605498 5.283095
1.958163 0.582669 5.953119
2.136656 0.568258 6.652633
2.244144 0.559568 7.077657
2.263868 0.556236 7.671540
2.337831 0.550275 7.958550
2.326188 0.548791 8.632611
2.363657 0.545019 9.001589
2.362450 0.543575 9.454610
2.366245 0.541799 9.905951
2.154237 0.554599 10.357056
1.934729 0.568619 10.596217
1.404379 0.603743 10.802914
0.547147 0.661753 10.769344
1.310674 0.771804 1.943094
1.231743 0.767489 2.427432
1.102284 0.761161 2.999099
1.259939 0.764846 3.499442
1.454237 0.769320 4.136009
1.485358 0.768605 4.663995
1.487960 0.767392 5.051231
1.753432 0.774626 5.587687
2.052198 0.781810 6.476260
2.205450 0.785881 6.817038
2.221296 0.784419 7.412695
2.293349 0.785902 7.701203
2.321636 0.784881 8.291442
2.401478 0.785913 8.792801
2.350650 0.783095 9.116489
2.177583 0.775252 9.697166
2.134100 0.772685 10.020557
1.962638 0.765614 10.387817
1.651635 0.754357 10.587443
1.028357 0.732569 10.757097
1.292335 0.904513 2.027503
1.187746 0.889461 2.370081
1.057853 0.870267 2.942940
1.267440 0.896701 3.357113
1.404092 0.912392 4.083069
1.381755 0.907335 4.699854
1.435045 0.913392 5.001064
1.597532 0.932562 5.712941
2.040027 0.989198 6.343434
2.095664 0.994846 6.857618
2.157386 1.001312 7.368804
2.137525 0.997111 7.830110
2.210838 1.005134 8.335916
2.419413 1.032002 8.582580
2.328284 1.017778 9.208117
2.322046 1.016141 9.446845
2.324978 1.014997 9.899357
1.984176 0.968051 10.395066
1.584997 0.914493 10.553789
1.056754 0.843616 10.764785
0.255625 0.812336 0.418026
1.188124 1.026839 2.039487
1.111475 1.007072 2.524844
1.176767 1.020929 2.975261
1.252115 1.035895 3.791891
1.516316 1.097143 4.113926
1.309619 1.045808 4.852135
1.328929 1.049804 5.015053
1.573158 1.104820 5.777067
2.092944 1.225161 6.456348
2.057011 1.214319 7.140458
2.169756 1.240221 7.345956
2.105739 1.223226 7.892303
2.178334 1.238616 8.397586
2.254206 1.255537 8.683787
2.212824 1.243161 9.439508
2.167797 1.231415 9.763585
2.164791 1.229883 10.001810
1.793065 1.140131 10.585032
1.490648 1.068054 10.786930
0.744191 0.891858 10.789393
1.432907 1.273161 1.828898
1.089241 1.150668 2.378170
1.124220 1.161832 2.688435
1.163514 1.173197 3.367324
1.365077 1.242424 3.780265
1.338857 1.231026 4.398560
1.239814 1.194278 4.963208
1.277346 1.205568 5.489754
1.788547 1.383221 5.952291
2.083301 1.484236 6.617457
2.011485 1.457090 7.167114
1.989817 1.447843 7.629982
1.973071 1.440327 8.091393
2.044181 1.464240 8.380231
1.998487 1.445509 9.139876
2.036912 1.457668 9.510242
1.993322 1.441220 9.835740
1.755587 1.355931 10.371182
1.623446 1.309352 10.436072
1.098096 1.123286 10.942711
0.714692 1.136826 1.355501
1.016214 1.274446 2.119326
0.946699 1.240275 2.602580
1.059812 1.291626 2.963514
1.278813 1.391588 3.516546
1.155417 1.331180 4.307088
1.405202 1.446353 4.624733
1.189755 1.343792 5.220117
1.477798 1.476300 5.668760
1.882161 1.662320 6.298627
1.810882 1.627085 6.847182
1.910141 1.671749 7.271208
1.891943 1.661571 7.730280
1.918613 1.671811 8.319517
1.950276 1.685188 8.689451
1.951068 1.683080 9.358174
1.991103 1.700372 9.724118
1.870245 1.643044 10.002478
1.596730 1.514124 10.411554
1.244291 1.348576 10.784211
0.715120 1.101780 10.867135
0.736744 1.284970 1.295304
1.071260 1.480877 1.972545
0.905942 1.380185 2.629643
0.917518 1.384964 3.165215
1.101226 1.492396 3.576989
1.076492 1.475305 4.193774
1.267540 1.587119 4.599033
1.225667 1.560424 5.070378
1.529008 1.738186 5.655657
1.596305 1.774726 6.526971
1.729098 1.852219 6.866404
1.748397 1.862212 7.240864
1.692204 1.826734 7.784693
1.794871 1.886040 8.202565
1.749622 1.857073 8.742442
1.860307 1.921159 9.154872
1.748437 1.852837 9.646803
1.676530 1.808568 10.053585
1.564270 1.740847 10.332391
1.297165 1.581539 10.528947
0.661626 1.202639 10.957977
0.379210 1.189549 0.289371
1.097414 1.712033 2.000174
0.899135 1.564265 2.371897
0.929721 1.585534 2.680069
0.852405 1.525565 3.387966
1.001353 1.634276 3.658050
0.936872 1.583794 4.360485
1.117139 1.715043 4.764345
1.067107 1.675244 5.459952
1.324573 1.863243 5.906609
1.615945 2.075698 6.484244
1.554941 2.028430 7.030969
1.573881 2.040833 7.405740
1.559090 2.028012 7.864372
1.655470 2.097340 8.282513
1.720222 2.143002 8.782757
1.616477 2.063545 9.490248
1.547641 2.011083 9.897689
1.514315 1.985164 10.219564
1.295583 1.823407 10.329148
0.919774 1.543995 10.875332
0.302386 1.088696 10.879841
0.633306 1.557293 1.142879
0.895802 1.790819 2.049896
0.756805 1.663703 2.333125
0.723133 1.630401 2.955175
0.799397 1.696788 3.540988
0.778447 1.675031 4.157065
0.855572 1.743881 4.371158
1.110762 1.972217 4.963853
1.094543 1.953782 5.792019
1.204982 2.052202 6.136127
1.275636 2.113230 6.783665
1.356902 2.184879 7.207533
1.441152 2.259241 7.628745
1.462762 2.277121 8.000415
1.423563 2.238208 8.756552
1.421337 2.234141 9.209389
1.422839 2.233456 9.660579
1.421033 2.230751 9.896680
1.256271 2.080527 10.132146
0.937442 1.789833 10.587087
0.640160 1.519979 10.747471
0.648457 1.800560 2.192530
0.542009 1.680611 2.617995
0.626269 1.772069 2.977710
0.565968 1.701792 3.683074
0.619995 1.759377 4.124793
0.941514 2.112430 4.685442
1.164498 2.355173 5.495834
1.146750 2.334311 5.739043
0.765528 1.910426 6.126347
0.803390 1.949753 6.641381
1.112403 2.288677 7.259202
1.189273 2.371651 7.679932
1.179559 2.358612 8.136340
1.232996 2.415249 8.636947
1.230369 2.410073 9.089436
1.236272 2.413277 9.754138
1.147538 2.313675 10.031477
0.972678 2.118525 10.353179
0.825725 1.954680 10.591776
0.495881 1.589010 10.709908
0.144822 1.428552 0.318341
0.501953 1.901974 2.106435
0.390366 1.747198 2.759997
0.483373 1.870299 3.259415
0.414347 1.773657 3.822756
1.025047 2.592616 5.217916
0.949063 2.487405 5.630579
0.875636 2.385655 6.043628
0.706929 2.156708 6.137111
0.632222 2.051960 6.773859
0.880175 2.383707 7.475074
0.924109 2.441568 7.762107
0.943016 2.463844 8.349674
1.017744 2.562679 8.763855
1.094782 2.664658 9.175246
0.969754 2.491649 9.834848
0.861811 2.344659 9.983779
0.714036 2.141550 10.520007
0.522476 1.882286 10.503281
0.138300 1.359475 10.974157
0.176311 1.737815 1.213811
0.315275 1.968395 2.064110
0.249544 1.855365 2.260409
0.255092 1.861251 2.795394
0.279194 1.897761 3.468368
0.605152 2.447360 4.142663
0.786654 2.749571 5.095109
0.746599 2.679311 5.423134
0.682862 2.568234 5.836173
0.621312 2.460873 6.249580
0.453113 2.173767 6.430499
0.483891 2.222687 6.943216
0.629063 2.464568 7.680576
0.667198 2.526052 8.184589
0.730248 2.630470 8.600438
0.749911 2.661455 8.968342
0.750133 2.658844 9.419527
0.686565 2.547537 9.910648
0.600078 2.398116 10.274336
0.403361 2.061302 10.641698
-0.165444 1.390849 0.203354
-0.007815 1.727182 0.893640
0.139112 2.038520 1.806324
0.070633 1.886564 2.234606
0.039328 1.814789 2.718149
0.139677 2.027959 3.275352
0.242494 2.246519 3.827810
0.433266 2.653929 4.618491
0.520736 2.838622 5.243440
0.523791 2.842186 5.625110
0.414787 2.602170 6.074700
0.364560 2.489896 6.490896
0.038847 1.782162 6.655352
0.391972 2.536757 8.060467
0.443191 2.644474 8.480179
0.513910 2.795187 8.812362
0.496414 2.752951 9.347289
0.444062 2.635478 9.837174
0.356227 2.441385 10.285027
0.281115 2.277272 10.435713
0.113525 1.912548 10.591399
-0.178823 1.275740 10.935087
-0.285412 1.418628 0.648046
-0.050509 2.086978 2.093412
-0.119616 1.884510 2.233927
-0.069957 2.023762 2.736791
-0.081629 1.983420 3.355195
0.199949 2.785300 5.017357
0.190809 2.756195 5.261004
0.162162 2.667191 5.810244
0.107542 2.503160 6.308975
0.072455 2.399101 6.502529
-0.050042 2.039998 6.772065
0.015450 2.225607 7.245619
0.169069 2.663902 8.073165
0.209713 2.777831 8.489030
0.222517 2.811277 8.856706
0.196092 2.728001 9.477233
0.156272 2.607098 9.968211
0.114283 2.482089 10.246277
0.013632 2.187297 10.441508
-0.153820 1.695885 10.860550
-0.390823 1.007359 10.776571
-0.472779 1.179544 0.599193
-0.285584 1.950089 2.100338
-0.289008 1.929853 2.493073
-0.240063 2.131008 2.907156
-0.318220 1.792215 3.449218
-0.064860 2.840278 5.127195
-0.119000 2.611036 5.130287
-0.158952 2.434599 5.630152
-0.177328 2.348762 6.180689
-0.300237 1.817145 6.953435
-0.232391 2.096774 7.472984
-0.101842 2.639886 8.127027
-0.082298 2.715313 8.627320
-0.061408 2.796486 9.124387
-0.062023 2.790438 9.360207
-0.080806 2.705001 9.765426
-0.128542 2.496369 10.213221
-0.217177 2.115774 10.580311
-0.308865 1.725304 10.738877
-0.538491 1.496503 0.414492
-0.486528 1.868099 1.099941
-0.455892 2.073658 2.037057
-0.483808 1.861122 2.177607
-0.469885 1.950379 2.767573
-0.466236 1.964220 3.298685
-0.341802 2.855694 4.876052
-0.363110 2.689183 5.152003
-0.414920 2.289090 5.635193
-0.417575 2.263028 5.879081
-0.420751 2.227454 6.344106
-0.458472 1.937004 6.662460
-0.495848 1.649051 6.984333
-0.378981 2.488628 8.374557
-0.343730 2.742989 8.749598
-0.330798 2.827217 9.245671
-0.351557 2.657231 9.820560
-0.373279 2.485428 10.183180
-0.411660 2.187752 10.591605
-0.452007 1.880686 10.790203
-0.555686 1.096808 11.096023
-0.683179 1.603208 0.347827
-0.685663 1.485033 0.689980
-0.677513 1.662723 1.489434
-0.671736 1.770134 2.225781
-0.671014 1.750639 2.618918
-0.664654 1.902807 3.119217
-0.635990 2.658617 4.733998
-0.627750 2.882908 5.133818
-0.644454 2.322548 5.289863
-0.653923 1.970665 5.691718
-0.647833 2.106803 6.258152
-0.652941 1.900469 6.625917
-0.622819 2.666116 8.584512
-0.624555 2.532293 9.292234
-0.618103 2.706674 9.616820
-0.623235 2.490845 10.064128
-0.630198 2.229177 10.386049
-0.637070 1.970121 10.711232
-0.652690 1.439451 10.918411
-0.826951 1.388017 0.201474
-0.818671 1.288742 0.691381
-0.832042 1.524956 1.405905
-0.846088 1.770935 2.113548
-0.839233 1.692570 2.595154
-0.843605 1.787717 3.183858
-0.852406 1.944597 3.682095
-0.874191 2.308005 4.420563
-0.900399 2.732923 5.065354
-0.855041 2.070431 5.395546
-0.828243 1.682757 5.664713
-0.835359 1.818010 6.234201
-0.835114 1.833566 6.615770
-0.825833 1.764980 8.011888
-0.858186 2.286395 8.745872
-0.871078 2.502597 9.205399
-0.878450 2.633716 9.616820
-0.868509 2.498909 9.895349
-0.855730 2.325965 10.260306
-0.822621 1.857575 10.802791
-0.783426 1.274841 10.884856
-0.917558 1.036913 0.057199
-1.000026 1.555150 1.404079
-1.014947 1.658945 2.142349
-1.010094 1.638059 2.537140
-1.014277 1.676655 3.212647
-1.043286 1.862275 3.850338
-1.124515 2.360097 4.554013
-1.170360 2.646714 5.229892
-1.076861 2.093346 5.389002
-1.006077 1.674624 5.519893
-1.017852 1.758032 6.176365
-1.004755 1.686817 6.509272
-0.994908 1.659249 8.040693
-1.094113 2.261220 8.603230
-1.113523 2.389547 9.233668
-1.141133 2.560531 9.560171
-1.110682 2.386626 9.923621
-1.059004 2.087271 10.332056
-1.008014 1.792102 10.745007
-0.897559 1.139783 11.001897
-1.300563 2.058373 8.760920
-1.344930 2.222676 9.089820
-1.378457 2.348886 9.501456
-1.354012 2.265761 9.908320
-1.284782 2.022581 10.443889
-1.190375 1.685353 10.728118
-1.037624 1.137618 11.021473
-1.225075 1.130316 0.466555
-1.243690 1.188745 1.610709
-1.323189 1.398240 2.174216
-1.272690 1.273747 2.742642
-1.316671 1.390095 3.103081
-1.666144 2.303258 4.741342
-1.634532 2.225081 5.071049
-1.454872 1.767451 5.504404
-1.363137 1.533881 5.736306
-1.365984 1.544739 6.118914
-1.303027 1.387656 6.624861
-1.115255 0.908103 6.942030
-1.075740 0.808422 7.142292
-1.493732 1.897840 8.801397
-1.555982 2.062811 9.343183
-1.555604 2.066008 9.793035
-1.554246 2.064693 10.027813
-1.443646 1.784265 10.434371
-1.330533 1.495437 10.631056
-1.122953 0.964777 10.925340
-1.227871 0.800512 0.442768
-1.183139 0.716139 0.931543
-1.328096 1.006980 1.698755
-1.364935 1.083849 2.292358
-1.317458 0.992970 2.631693
-1.283707 0.930141 3.112567
-1.801494 1.961612 4.852899
-1.778442 1.919719 5.318876
-1.687118 1.741120 5.460664
-1.426114 1.230567 5.849669
-1.391587 1.165113 6.182413
-1.420194 1.223561 6.475525
-1.261634 0.916336 7.108069
-1.473933 1.336864 7.499541
-1.664445 1.718376 8.409204
-1.760226 1.910199 8.868686
-1.798258 1.988690 9.364561
-1.795629 1.985262 9.599749
-1.737398 1.874346 10.090125
-1.599870 1.606824 10.497162
-1.440880 1.296169 10.781053
-1.158593 0.742112 10.949372
-1.352055 0.753406 0.482985
-1.320133 0.705213 0.740776
-1.337050 0.736795 1.574767
-1.456154 0.926112 2.140060
-1.412444 0.860939 2.624177
-1.402111 0.847283 3.019880
-1.998935 1.788339 4.630120
-1.960116 1.732081 5.320873
-1.568220 1.127239 6.366285
-1.461900 0.962294 6.513010
-1.299486 0.712336 7.059775
-1.549907 1.106797 7.672008
-1.827568 1.544526 8.408200
-1.918474 1.689727 8.952977
-2.033742 1.871041 9.193643
-1.939493 1.727596 9.769057
-1.871653 1.624823 10.259972
-1.773858 1.473200 10.410206
-1.563039 1.146629 10.780036
-1.205929 0.591141 11.036491
-1.183470 0.316040 0.680773
-1.339381 0.514517 1.019750
-1.451275 0.659966 1.819089
-1.467457 0.684063 2.501278
-1.420466 0.627406 2.984168
-1.463791 0.684469 3.431582
-1.859677 1.187427 4.105494
-2.141201 1.546743 4.890143
-2.078558 1.470718 5.442143
-1.761582 1.071351 5.519846
-1.511984 0.759219 6.014612
-1.496323 0.740802 6.261595
-1.203769 0.373060 6.491439
-2.076467 1.482404 8.091134
-2.095677 1.509807 8.678457
-2.255458 1.713353 9.052214
-2.171587 1.610227 9.543614
-2.142707 1.575541 9.865093
-2.065144 1.480372 10.356806
-1.765531 1.104251 10.683547
-1.434871 0.688325 10.891039
-1.071828 0.056320 0.790630
-1.377413 0.374635 1.386693
-1.605269 0.613533 2.151994
-1.589238 0.598901 2.549066
-1.518015 0.528812 3.259552
-1.412707 0.422173 3.687202
-2.023259 1.059340 5.122404
-1.942031 0.976436 5.317799
-1.730930 0.760069 5.636879
-1.486970 0.510224 6.047158
-1.523215 0.550147 6.567043
-1.869488 0.911225 7.321056
-2.163683 1.217215 7.799389
-2.306329 1.366708 8.264902
-2.299410 1.362804 8.935471
-2.201530 1.263112 9.214120
-2.138286 1.199804 9.623147
-2.169235 1.233519 9.989455
-1.965127 1.025841 10.613129
-1.748804 0.803509 10.813252
-1.315193 0.356741 10.984141
-1.009406 -0.104988 0.733516
-1.300461 0.143343 1.416541
-1.660988 0.450445 2.147902
-1.600705 0.401753 2.630668
-1.566389 0.375565 3.253737
-1.622318 0.424666 3.699308
-1.811678 0.586684 4.247071
-1.820466 0.597391 4.998286
-1.784405 0.569070 5.470606
-1.658086 0.463847 5.755389
-1.599839 0.416222 6.090403
-1.707079 0.509107 6.657735
-1.918424 0.690519 7.401794
-2.275457 0.994142 8.011522
-2.400397 1.100916 8.344352
-2.392309 1.096099 8.799457
-2.254753 0.982700 9.379379
-2.218511 0.953573 9.703077
-2.184271 0.926133 10.026454
-2.052067 0.816311 10.393384
-1.623579 0.457363 10.900121
-1.136533 0.046646 10.858000
-1.024451 -0.182533 0.856709
-1.544297 0.177933 1.706620
-1.634049 0.242579 2.445223
-1.548861 0.185469 2.787002
-1.468102 0.132910 3.499098
-1.689796 0.286477 3.822749
-1.877827 0.418756 4.595985
-1.905768 0.440087 5.121514
-1.838295 0.395117 5.457026
-1.660365 0.274444 5.830095
-1.588813 0.227589 6.390085
-2.035881 0.537345 7.061101
-2.416605 0.801310 7.675908
-2.474499 0.843129 8.181593
-2.427985 0.813395 8.723774
-2.457876 0.835431 9.093816
-2.421406 0.812582 9.632800
-2.343371 0.759785 9.827719
-2.174443 0.646494 10.494811
-1.960188 0.500691 10.822737
-1.553835 0.222132 10.945792
-1.059152 -0.250974 0.937306
-1.394348 -0.064100 1.620013
-1.612632 0.058604 2.328216
-1.644346 0.077224 2.637843
-1.530732 0.016961 3.209161
-1.519733 0.012429 3.604169
-1.716964 0.123825 4.381376
-1.986124 0.273535 4.838737
-1.942666 0.251463 5.312563
-1.600347 0.064339 5.585856
-1.564666 0.046544 6.060511
-1.763778 0.158364 6.678501
-2.047012 0.316584 7.337602
-2.455095 0.543252 7.949757
-2.480802 0.559647 8.540179
-2.357219 0.493620 9.037725
-2.312854 0.470484 9.364070
-2.349693 0.492151 9.733531
-2.203881 0.414232 10.316374
-2.123712 0.370920 10.513577
-1.667688 0.121865 10.936295
-1.074722 -0.203899 10.985301
-1.231827 -0.270505 0.441288
-0.955656 -0.385969 1.054499
-1.364900 -0.209391 1.646174
-1.465960 -0.163620 2.385530
-1.396824 -0.191318 2.869630
-1.434927 -0.173957 3.176650
-1.452120 -0.164677 3.711240
-1.711034 -0.051820 4.398767
-1.899442 0.030776 5.027799
-1.856985 0.014406 5.500152
-1.533863 -0.121808 5.910669
-1.751333 -0.027683 6.305284
-1.796101 -0.005904 7.044561
-2.060544 0.108700 7.564803
-2.494379 0.295024 7.955097
-2.482055 0.292233 8.629267
-2.558197 0.326509 9.129122
-2.557145 0.327714 9.581812
-2.311753 0.224305 9.903748
-2.152116 0.157610 10.271172
-1.995632 0.092265 10.640190
-1.554424 -0.094546 10.976947
-0.608123 -0.497452 11.086993
-1.360394 -0.347467 0.545213
-1.227820 -0.387471 0.745122
-1.399042 -0.332081 1.547099
-1.613372 -0.264290 2.111122
-1.538770 -0.285498 2.594361
-1.469432 -0.305093 3.076733
-1.300824 -0.354552 3.734368
-1.325740 -0.345031 4.266773
-1.752932 -0.212388 4.687108
-1.855646 -0.178040 5.486906
-1.580765 -0.262097 5.584488
-1.496166 -0.286104 6.144795
-1.678314 -0.228490 6.624835
-1.943749 -0.144374 7.369459
-2.348119 -0.017772 8.065071
-2.463399 0.019093 8.483088
-2.623842 0.069515 8.813098
-2.367453 -0.007325 9.348657
-2.369211 -0.005193 9.801844
-2.289236 -0.028311 10.210894
-2.165446 -0.065341 10.489323
-1.744687 -0.193677 10.732406
-1.200526 -0.359710 11.030372
-0.994570 -0.545920 0.671871
-1.147003 -0.513052 1.331332
-1.585660 -0.422952 1.920439
-1.451089 -0.448016 2.491915
-1.351645 -0.466815 2.833178
-1.449553 -0.445137 3.422236
-1.554758 -0.422008 4.007173
-1.802705 -0.370352 4.552390
-2.040134 -0.320059 5.316579
-1.828582 -0.361271 5.686446
-1.401175 -0.445856 6.047871
-1.368134 -0.450872 6.520029
-1.519609 -0.419282 6.862691
-1.973458 -0.326039 7.478898
-2.522063 -0.213645 8.131152
-2.383777 -0.238979 8.841559
-2.510881 -0.212048 9.252483
-2.506480 -0.212127 9.487547
-2.294026 -0.253251 9.935955
-2.036943 -0.303769 10.258376
-1.910415 -0.328215 10.538517
-1.313075 -0.446853 10.920122
-1.311722 -0.605009 0.477812
-0.867462 -0.648737 0.595056
-1.104491 -0.622780 1.310602
-1.376539 -0.592885 2.162200
-1.357026 -0.593488 2.557791
-1.424952 -0.585228 3.006097
-1.779993 -0.547449 3.751727
-1.838002 -0.539436 4.418624
-1.752788 -0.546769 4.753507
-2.149927 -0.505631 5.255520
-2.008370 -0.517529 5.895686
-1.453002 -0.572106 6.068044
-1.285251 -0.587047 6.577780
-1.480815 -0.566016 7.053980
-1.990605 -0.513608 7.580004
-2.415601 -0.469064 8.271387
-2.449827 -0.464417 8.640953
-2.402284 -0.467319 9.179983
-2.361891 -0.469517 9.717466
-2.188670 -0.485489 10.082384
-1.979349 -0.504750 10.535368
-1.709839 -0.531137 10.647986
-1.051217 -0.595680 10.906051
-0.772256 -0.733824 0.280346
-1.253503 -0.731757 1.168289
-1.415114 -0.729867 1.822511
-1.277009 -0.727682 2.394801
-1.175066 -0.726340 2.736555
-1.558350 -0.724081 3.626292
-2.062429 -0.722673 4.331133
-1.789098 -0.719329 5.171673
-1.968844 -0.718044 5.656271
-1.942534 -0.717169 5.901765
-1.373168 -0.714749 6.299416
-1.119134 -0.712711 6.762334
-1.187926 -0.711853 7.056548
-2.306840 -0.708849 8.585080
-2.433057 -0.707697 8.999660
-2.473497 -0.706540 9.367170
-2.123316 -0.704217 9.860056
-1.950225 -0.702653 10.227643
-1.689502 -0.701055 10.555489
-1.340021 -0.699413 10.846105
-0.586806 -0.697219 11.072493
-1.548993 -0.893329 0.797571
-1.023878 -0.839266 0.857361
-1.216189 -0.857552 1.283633
-1.263090 -0.859565 2.112126
-1.186285 -0.850052 2.596251
-1.645416 -0.895198 3.172992
-2.032354 -0.931906 4.055709
-2.081293 -0.935912 4.356023
-2.028456 -0.928901 4.827201
-2.051686 -0.928773 5.570917
-1.839758 -0.905793 5.938925
-1.555441 -0.876300 6.036610
-1.347847 -0.853749 6.409241
-0.921217 -0.808747 6.776944
-1.030962 -0.818551 7.207094
-1.717579 -0.886150 8.044760
-2.238624 -0.937120 8.777309
-2.276942 -0.939804 9.146559
-2.098106 -0.920225 9.512316
-2.012547 -0.910064 9.922610
-1.931183 -0.900333 10.332846
-1.504151 -0.854976 10.793728
-1.014128 -0.804292 10.918525
-1.246489 -1.000090 0.575949
-0.970181 -0.943054 0.807029
-0.984358 -0.943573 1.497510
-1.342574 -1.014662 2.030850
-1.127311 -0.969070 2.548180
-1.524018 -1.047543 3.213413
-2.094016 -1.160950 3.977901
-2.037224 -1.147770 4.450419
-1.952631 -1.129406 4.784170
-1.974387 -1.131282 5.528919
-1.813494 -1.097563 5.811314
-1.339753 -0.999598 6.257839
-1.136860 -0.957013 6.632649
-0.764534 -0.880254 6.915036
-0.659292 -0.858138 7.117263
-2.065354 -1.138938 8.697260
-2.106719 -1.145346 9.284024
-2.101112 -1.143385 9.523216
-1.976674 -1.116354 10.019549
-1.808147 -1.080785 10.388154
-1.425950 -1.001699 10.763402
-0.904920 -0.894906 10.977193
-0.855750 -1.029403 1.008023
-1.031822 -1.081161 1.808455
-1.089406 -1.097415 2.261706
-0.695381 -0.974344 2.529857
-1.995677 -1.371110 4.309736
-1.535558 -1.227752 4.521430
-1.289911 -1.150793 4.754911
-1.642968 -1.256878 5.705902
-1.570493 -1.233242 6.039357
-1.250495 -1.133403 6.226095
-1.045178 -1.067661 6.824256
-0.897316 -1.020818 7.112666
-1.090032 -1.078878 7.587841
-1.627101 -1.243041 8.242152
-1.747370 -1.278079 8.879034
-1.704681 -1.262935 9.422857
-1.872507 -1.313803 9.749524
-1.879020 -1.314228 10.202837
-1.580562 -1.221023 10.401378
-1.083741 -1.065544 10.825192
-0.525042 -0.892064 10.913839
-0.652539 -1.069421 0.630982
-0.982086 -1.206675 1.170815
-1.207863 -1.299470 1.880500
-1.057231 -1.234272 2.308725
-1.220876 -1.301053 2.954154
-1.604993 -1.459590 3.979548
-1.758317 -1.522570 4.471549
-1.285103 -1.322382 4.545933
-1.722213 -1.502807 5.708355
-1.276554 -1.312917 6.151134
-1.049351 -1.216069 6.387691
-0.816531 -1.116022 6.850541
-0.799103 -1.107758 7.097858
-1.024845 -1.200907 7.706441
-1.381484 -1.348731 8.486171
-1.659608 -1.465171 8.776363
-1.706407 -1.482015 9.579149
-1.794764 -1.517533 10.075375
-1.673935 -1.465462 10.356384
-1.423531 -1.359265 10.468735
-0.945485 -1.155761 10.892746
-0.251908 -0.861917 11.120706
-0.397768 -1.054153 0.863006
-0.713203 -1.226332 1.401824
-0.930979 -1.343911 2.111122
-0.739935 -1.236389 2.629235
-1.070486 -1.416975 3.153145
-1.532783 -1.669082 4.004619
-1.603520 -1.706468 4.444719
-1.016170 -1.380723 4.781165
-1.317704 -1.542693 5.979486
-1.067074 -1.403863 6.078825
-0.800387 -1.254436 6.628531
-0.977753 -1.351431 6.884436
-0.683755 -1.187428 7.300747
-0.783136 -1.239833 7.950518
-1.242309 -1.490655 8.686800
-1.474406 -1.616593 9.279324
-1.555090 -1.659246 9.778738
-1.473579 -1.613466 9.975111
-1.254658 -1.490459 10.515476
-1.029458 -1.364797 10.844181
-0.392949 -1.159799 0.681464
-0.590973 -1.293650 1.395634
-0.844569 -1.466267 2.015491
-0.618599 -1.307736 2.618926
-0.398151 -1.154528 2.852507
-1.460738 -1.881414 4.566764
-1.165588 -1.675929 4.967884
-1.070329 -1.609339 5.163537
-0.953481 -1.526005 5.808137
-0.893001 -1.482873 6.141514
-0.723013 -1.363949 6.514007
-0.957090 -1.523475 7.038437
-0.706822 -1.347396 7.829755
-1.281380 -1.738979 9.113230
-1.464684 -1.863715 9.569767
-1.361865 -1.790681 10.064907
-1.287131 -1.738270 10.259718
-0.934086 -1.492560 10.719465
-0.528902 -1.212212 10.843002
0.318075 -0.626784 10.955172
0.067864 -0.901307 0.631871
-0.564865 -1.430908 2.275413
-0.551941 -1.418205 2.669750
-0.541731 -1.407810 3.063011
-1.229953 -1.984756 4.647199
-0.838878 -1.648249 5.713621
-0.737721 -1.559589 6.356742
-0.582150 -1.425956 6.728595
-0.539852 -1.384879 7.906583
-0.907788 -1.693439 8.727476
-1.111884 -1.864008 9.317036
-1.246505 -1.976797 9.641824
-1.083354 -1.836380 10.093697
-0.954180 -1.725162 10.461286
-0.787521 -1.582698 10.702441
0.275944 -0.766709 0.705639
-0.398936 -1.458433 2.321014
-0.444775 -1.503762 2.772618
-0.455403 -1.512180 3.309512
-1.098717 -2.172426 4.668176
-0.755298 -1.814349 5.104578
-0.665500 -1.719234 5.525294
-0.699733 -1.752203 6.045159
-0.623067 -1.671783 6.241950
-0.480445 -1.522149 6.614240
-0.469323 -1.503192 8.149703
-0.804550 -1.847763 8.749945
-0.865458 -1.908469 9.251810
-1.021607 -2.068119 9.707568
-0.901327 -1.941669 10.074483
-0.665581 -1.694886 10.575204
-0.360137 -1.377071 10.825550
0.018812 -0.984280 10.824826
0.173258 -0.961696 0.638023
-0.064190 -1.259458 1.323039
-0.270675 -1.517470 2.088817
-0.189253 -1.410988 2.660174
-0.023912 -1.199791 2.894030
-0.879009 -2.275900 4.659146
-0.604882 -1.925952 5.008457
-0.640489 -1.969548 5.305771
-0.723199 -2.071473 5.874775
-0.480290 -1.760384 6.367353
-0.299788 -1.529449 6.690914
-0.288216 -1.513422 6.936665
0.027786 -1.110449 7.259709
-0.017890 -1.166852 7.552711
-0.451586 -1.712992 8.383786
-0.725933 -2.057615 9.066753
-0.731874 -2.061517 9.737550
-0.675012 -1.988263 9.932353
-0.513115 -1.780933 10.259030
-0.304782 -1.513676 10.764197
0.023461 -1.095749 10.979053
0.199031 -1.046514 0.630510
0.158678 -1.105892 1.236214
-0.007682 -1.362382 1.858637
-0.117886 -1.532248 2.278155
-0.093975 -1.490922 2.903567
-0.624376 -2.310814 4.546670
-0.551801 -2.194616 4.964861
-0.535981 -2.168320 5.211118
-0.460514 -2.046204 5.852475
-0.447559 -2.024396 6.097974
-0.216251 -1.660125 6.457719
-0.132439 -1.527166 6.743673
0.168544 -1.053521 7.155478
0.178298 -1.035311 7.627523
-0.271362 -1.735537 8.196031
-0.462973 -2.030075 9.054725
-0.486203 -2.064123 9.424881
-0.511181 -2.100916 9.793450
-0.375848 -1.885722 10.335521
-0.278769 -1.732811 10.490991
-0.020971 -1.327208 10.830248
0.454332 -0.581549 11.111142
0.237864 -1.073961 10.967253
0.192575 -1.517857 2.289810
0.228727 -1.420867 2.632328
0.283702 -1.274219 3.063243
-0.204666 -2.526025 4.689303
-0.156980 -2.398411 5.107038
-0.110872 -2.274885 5.525224
-0.031366 -2.063096 6.116550
0.025354 -1.913294 6.400531
0.144668 -1.601988 6.589270
0.265512 -1.284589 7.005583
0.111745 -1.679014 7.487363
-0.043659 -2.075685 8.183377
-0.010471 -1.983664 8.817276
-0.043040 -2.063460 9.320345
-0.027129 -2.019127 9.647424
-0.026594 -2.015496 9.887565
0.076820 -1.741300 10.519944
0.155190 -1.535688 10.765568
0.359468 -1.002867 11.071075
0.441565 -1.140797 1.392184
0.328878 -1.539573 2.213752
0.399990 -1.273668 2.821991
0.425463 -1.176813 3.166836
0.089860 -2.372663 4.964092
0.097645 -2.341253 5.212567
0.157274 -2.117240 5.805243
0.189220 -1.995915 6.226419
0.266782 -1.710176 6.551175
0.307798 -1.557599 6.839418
0.241861 -1.792074 7.230132
0.175223 -2.026356 7.837597
0.177838 -2.010988 8.301647
0.177535 -2.003482 8.981951
0.165890 -2.041041 9.355479
0.164033 -2.041985 9.813873
0.219669 -1.834156 10.273297
0.277904 -1.619590 10.519264
0.370216 -1.280660 10.815084
0.545441 -0.640968 11.086983
0.585954 -0.917467 0.409322
0.486508 -1.470628 1.895449
0.522062 -1.251879 2.414567
0.523791 -1.233808 2.811995
0.533948 -1.164603 3.296664
0.324235 -2.360692 4.949353
0.337016 -2.279139 5.282006
0.365615 -2.101438 5.787033
0.392014 -1.941058 6.070497
0.463548 -1.514580 6.432510
0.437103 -1.658262 6.998654
0.394470 -1.895979 7.606905
0.395811 -1.878853 8.070865
0.366899 -2.041622 8.405353
0.351589 -2.121275 8.910030
0.364074 -2.035513 9.540298
0.370616 -1.990649 9.866938
0.420470 -1.690148 10.283183
0.463265 -1.432682 10.616125
0.524143 -1.074317 10.694881
0.634871 -0.419928 10.966495
0.634864 -1.349819 2.174554
0.638597 -1.271717 2.661205
0.640843 -1.226537 2.917117
0.650941 -1.047308 3.579260
0.607223 -1.656818 4.112540
0.573198 -2.112954 4.900217
0.572040 -2.099961 5.509615
0.585555 -1.885290 5.880740
0.604974 -1.587097 6.204940
0.599648 -1.649965 6.502450
0.587393 -1.789598 7.289658
0.581058 -1.856579 7.802976
0.577064 -1.885433 8.399780
0.570759 -1.962950 8.688755
0.558036 -2.131669 9.020976
0.562978 -2.039533 9.435336
0.570145 -1.910808 9.936278
0.585695 -1.657959 10.483158
0.597627 -1.476688 10.642331
0.633431 -0.945672 10.855921
0.771300 -1.276547 2.174897
0.764150 -1.114467 2.607385
0.762208 -1.097293 3.005649
0.763781 -1.198579 3.596680
0.764983 -1.275529 4.043660
0.773448 -1.595287 4.868489
0.786541 -2.029189 5.509952
0.779780 -1.864027 5.794449
0.768174 -1.564724 6.117999
0.768300 -1.618073 6.638336
0.771586 -1.765599 7.203156
0.768407 -1.740831 7.890110
0.773010 -1.904026 8.226947
0.772896 -1.936703 8.602628
0.772324 -1.976963 9.193786
0.772525 -2.018240 9.565560
0.761681 -1.761459 10.106994
0.759531 -1.710740 10.216243
0.745916 -1.371606 10.721046
0.726523 -0.840310 10.935331
0.814464 -0.561151 0.612219
0.911196 -1.301269 1.828671
0.871555 -1.025426 2.433863
0.860078 -0.953243 2.917900
0.857093 -0.941157 3.312549
0.880978 -1.132323 3.951278
0.894600 -1.246753 4.532773
0.935172 -1.555764 4.986278
0.950509 -1.682562 5.558866
0.925149 -1.509069 6.065886
0.949207 -1.697535 6.544844
0.960649 -1.797619 7.192806
0.944503 -1.689487 7.608939
0.952714 -1.762352 8.115809
0.968570 -1.883663 8.314910
0.965685 -1.879265 8.989259
0.970073 -1.920625 9.357461
0.951163 -1.794205 9.853754
0.920299 -1.573659 10.092602
0.890457 -1.366043 10.550015
0.830153 -0.929755 10.800963
0.734481 -0.236604 11.159365
0.994434 -1.035870 2.272097
0.982781 -0.990913 2.526806
0.964190 -0.920319 3.011509
0.973129 -0.967387 3.688899
1.009828 -1.127698 4.185946
1.047709 -1.292890 4.679361
1.054614 -1.329293 5.205645
1.054937 -1.336209 5.592016
1.084735 -1.468763 6.161332
1.156691 -1.778575 6.822745
1.117813 -1.623581 7.325425
1.100909 -1.560962 7.875185
1.116926 -1.635109 8.382175
1.124016 -1.670069 8.754680
1.162849 -1.836860 9.083589
1.161335 -1.837102 9.538615
1.128977 -1.706127 9.819955
1.077734 -1.498857 10.276015
0.994891 -1.157317 10.565044
0.842127 -0.526754 11.045736
1.095851 -0.942933 2.254913
1.069264 -0.871374 2.740342
1.044497 -0.805042 3.224887
1.059063 -0.853896 3.901449
1.112156 -1.011800 4.397574
1.149910 -1.126393 4.976171
1.133541 -1.084131 5.450367
1.208845 -1.304952 5.847273
1.277435 -1.510965 6.685479
1.311581 -1.613617 7.112067
1.289483 -1.553383 7.441689
1.282000 -1.536578 7.904220
1.305291 -1.608806 8.410755
1.301332 -1.602104 8.869398
1.342519 -1.724903 9.284037
1.312249 -1.641984 9.695359
1.269839 -1.525004 10.193247
1.169895 -1.241580 10.609248
1.024470 -0.825561 10.861274
0.832296 -0.273322 10.951527
1.175874 -0.808083 2.106537
1.179796 -0.817856 2.272785
1.146550 -0.750114 2.757214
1.104140 -0.664462 3.470433
1.171242 -0.812955 3.968122
1.263007 -1.013836 4.374616
1.267862 -1.030297 5.127406
1.254835 -1.004222 5.375765
1.345607 -1.204678 5.996801
1.435655 -1.405291 6.833267
1.520516 -1.590080 7.086442
1.452977 -1.448620 7.588113
1.463761 -1.474839 7.963381
1.475646 -1.505158 8.555382
1.509285 -1.581616 9.057663
1.489839 -1.544053 9.599255
1.414803 -1.385383 9.967753
1.320244 -1.183649 10.208943
1.230754 -0.994576 10.668676
1.061105 -0.630511 10.834136
0.742883 0.053016 11.065719
1.342571 -0.840751 1.836202
1.199169 -0.602457 2.440756
1.218723 -0.637517 2.747572
1.168350 -0.557105 3.459388
1.277916 -0.744916 3.868150
1.350946 -0.873051 4.588322
1.394853 -0.950120 5.025973
1.275092 -0.751723 5.623835
1.438145 -1.030134 6.067929
1.597817 -1.304268 6.729828
1.652119 -1.398815 7.154793
1.616429 -1.342129 7.702501
1.585485 -1.292008 8.029925
1.646330 -1.397564 8.448175
1.642867 -1.396158 9.121990
1.663389 -1.433259 9.490136
1.593850 -1.317620 9.770635
1.462969 -1.100068 10.312714
1.350094 -0.910959 10.554800
1.145036 -0.565586 10.718084
0.740340 0.116059 11.036504
1.288688 -0.528941 2.348453
1.276904 -0.515149 2.744818
1.317164 -0.572497 3.193489
1.313182 -0.571403 3.956090
1.411071 -0.707458 4.450566
1.511919 -0.847520 4.941390
1.432317 -0.741565 5.364821
1.568750 -0.929538 5.762563
1.722636 -1.143282 6.515049
1.756098 -1.191745 7.028718
1.713577 -1.136985 7.578653
1.702247 -1.124184 8.040740
1.772899 -1.222738 8.460304
1.845898 -1.324471 8.877087
1.789953 -1.250652 9.288750
1.687293 -1.114226 9.873363
1.661452 -1.080896 10.198663
1.482342 -0.839450 10.615046
1.220675 -0.484694 10.867480
0.851118 0.017334 11.047761
1.392154 -0.460822 2.218498
1.301058 -0.362594 2.793040
1.327282 -0.393253 3.102222
1.431243 -0.511162 3.604169
1.523818 -0.617555 4.329497
1.543916 -0.642520 4.858963
1.544895 -0.645559 5.247965
1.596902 -0.706605 5.909595
1.804808 -0.940716 6.576546
1.906395 -1.055193 6.919532
1.825792 -0.968931 7.557710
1.873331 -1.023158 7.849007
1.921453 -1.079122 8.357266
1.944554 -1.107728 8.948327
1.909827 -1.070828 9.275958
1.881365 -1.041963 9.819056
1.763589 -0.913098 10.189862
1.587286 -0.719073 10.520966
1.264307 -0.362298 10.862653
0.845972 0.101116 11.044961
1.375756 -0.269272 2.150563
1.402075 -0.294600 2.460425
1.408530 -0.302912 2.999036
1.460648 -0.352317 3.447275
1.459193 -0.354451 4.208584
1.622490 -0.504717 4.614849
1.508019 -0.403629 5.265966
1.640767 -0.526494 5.752662
1.869704 -0.737607 6.420250
1.910916 -0.777405 6.935815
1.991191 -0.852303 7.362077
2.074473 -0.929922 7.785651
2.094583 -0.950889 8.378153
2.185157 -1.035109 8.795708
2.149433 -1.005097 9.337267
2.047300 -0.913544 9.618805
1.885972 -0.768980 10.074190
1.661259 -0.566626 10.490650
1.401118 -0.331510 10.783283
0.910237 0.113441 11.051189
1.513276 -0.218876 2.110069
1.381945 -0.123196 2.541606
1.321986 -0.080721 3.027370
1.402724 -0.143122 3.617659
1.446527 -0.178455 4.291657
1.582167 -0.281205 4.785651
1.624815 -0.314125 5.087429
1.726478 -0.391994 5.662715
1.973677 -0.578285 6.331677
2.055862 -0.641089 6.761727
2.066085 -0.651186 7.361403
2.156350 -0.719963 7.785651
2.249862 -0.791139 8.207172
2.276359 -0.813274 8.797047
2.203644 -0.761927 9.425079
2.059892 -0.656764 9.793787
1.991612 -0.607807 10.206373
1.853729 -0.507011 10.577497
1.488612 -0.236136 10.612353
0.924298 0.181268 10.965673
1.534915 -0.063245 2.097728
1.444259 -0.011025 2.439802
1.331472 0.053371 3.012199
1.513624 -0.055847 3.425323
1.605210 -0.112235 4.010593
1.657881 -0.145958 4.679019
1.703750 -0.174228 4.979576
1.812356 -0.240628 5.553844
1.959676 -0.330410 6.259582
2.040997 -0.380988 6.910147
2.059177 -0.393204 7.288313
2.077568 -0.406394 7.884414
2.179672 -0.468352 8.304790
2.284170 -0.530866 8.505356
2.280302 -0.531207 9.178409
2.280891 -0.533317 9.630089
2.200955 -0.486846 9.822411
2.017045 -0.379964 10.274254
1.748999 -0.222386 10.471921
1.110686 0.153006 10.905154
1.410481 0.147638 2.121667
1.368405 0.166165 2.374615
1.301159 0.195483 2.857854
1.265719 0.209569 3.481480
1.413600 0.139325 3.978093
1.643697 0.030871 4.522685
1.675956 0.014005 5.047817
1.838280 -0.062878 5.533110
1.994388 -0.137696 6.237246
2.124201 -0.199827 6.799815
2.143889 -0.210324 7.175345
2.163261 -0.221481 7.768813
2.230635 -0.254513 8.272851
2.303387 -0.290020 8.773703
2.377691 -0.325434 9.055464
2.301453 -0.292475 9.678714
2.225220 -0.258719 10.086082
2.060814 -0.183226 10.236761
1.742036 -0.036819 10.521307
1.188187 0.217952 10.906743
1.450881 0.263971 2.204075
1.324784 0.305787 2.776503
1.338367 0.299154 3.313215
1.387450 0.279686 3.987722
1.626450 0.194630 4.533620
1.757785 0.147707 4.884834
1.583836 0.206386 5.394921
1.791444 0.131981 6.015512
2.134655 0.010575 6.592142
2.190810 -0.010775 7.104281
2.296263 -0.048952 7.527405
2.362815 -0.073897 8.033568
2.352248 -0.072621 8.707984
2.472385 -0.115871 9.121834
2.387026 -0.087640 9.530582
2.305637 -0.060790 9.939311
2.104755 0.007458 10.392203
1.687444 0.151710 10.637558
1.345024 0.270522 10.713137
1.404691 0.410730 2.042275
1.327744 0.427470 2.528183
1.284219 0.435724 3.154567
1.385126 0.409539 3.742846
1.679969 0.337374 4.203874
1.608549 0.352041 4.906779
1.394575 0.401963 5.281582
1.606709 0.349033 5.905223
2.081668 0.232712 6.668376
2.277658 0.184920 6.923402
2.248753 0.189481 7.605995
2.317758 0.171212 8.113356
2.392609 0.151554 8.617545
2.386255 0.151499 9.073877
2.338283 0.161859 9.398927
2.340423 0.159779 9.852780
2.171268 0.198998 10.220316
1.916978 0.258732 10.548006
1.360795 0.390832 10.845144
0.538044 0.587108 11.035031
0.974848 0.602838 1.358608
1.329603 0.551507 2.265910
1.227425 0.564246 2.608074
1.240052 0.560706 3.145611
1.397380 0.537612 3.645329
1.591389 0.509067 4.280995
1.520605 0.516315 4.983354
1.303826 0.544532 5.357888
1.620245 0.499974 5.805526
2.198879 0.419261 6.396870
2.161529 0.422019 7.082067
2.180693 0.417392 7.677941
2.386182 0.388596 7.927092
2.285198 0.400198 8.556663
2.452460 0.376328 8.886603
2.449353 0.375212 9.340621
2.280509 0.396210 9.921192
2.278775 0.395642 10.158539
1.851123 0.452262 10.615817
1.491853 0.500879 10.690236
0.524137 0.631718 10.924180
1.376648 0.679243 1.919095
1.155637 0.685212 2.437999
1.278481 0.679705 2.800871
1.293091 0.677392 3.337495
1.399286 0.671714 3.923991
1.512880 0.665792 4.506286
1.358771 0.668980 5.158021
1.725814 0.654951 5.520876
2.071363 0.640186 6.325488
2.135605 0.636956 6.619332
2.235941 0.631282 7.265803
2.169189 0.631770 7.813535
2.243464 0.628209 8.101953
2.233486 0.626286 8.777728
2.271587 0.623710 9.148241
2.271307 0.622192 9.602939
2.226497 0.622666 9.927231
1.973887 0.629665 10.467808
1.793148 0.635451 10.623279
1.169748 0.656638 10.793032
1.407512 0.819745 1.940948
1.243878 0.807665 2.371454
1.252936 0.806439 2.910430
1.159149 0.797948 3.622819
1.429326 0.814414 3.945640
1.490148 0.816111 4.615190
1.491310 0.814877 5.004135
1.668537 0.824748 5.492340
2.012884 0.844406 6.297872
2.108146 0.848408 6.947582
2.083287 0.845231 7.411529
2.154475 0.848878 7.702064
2.182100 0.848677 8.294961
2.172182 0.846489 8.753579
2.299166 0.853339 9.169286
2.216374 0.845854 9.795144
2.123208 0.839142 9.991004
1.950993 0.826713 10.359821
1.600285 0.802959 10.647986
0.900219 0.756303 10.997409
1.261151 0.945321 2.210671
1.128843 0.921388 2.784380
1.058802 0.908101 3.269496
1.215701 0.932458 3.770731
1.430172 0.966690 4.181029
1.357278 0.952181 4.885599
1.581043 0.987981 5.288742
1.746144 1.012991 5.998423
2.102948 1.070291 6.577891
2.200606 1.084310 7.225255
2.136777 1.072584 7.554925
2.207539 1.083350 7.845497
2.236328 1.086117 8.437319
2.315707 1.097591 8.940311
2.229983 1.081217 9.566675
2.225273 1.079619 9.806335
1.973868 1.036016 10.346296
1.626798 0.977380 10.634134
1.227031 1.085140 1.925566
1.013436 1.025515 2.444270
1.077375 1.041253 2.895675
1.362090 1.116694 3.364120
1.360622 1.113653 4.123779
1.490874 1.147676 4.479022
1.307831 1.096346 4.990831
1.646198 1.185891 5.580004
2.111346 1.309134 6.347709
2.165083 1.321894 6.861067
2.055144 1.290691 7.275749
2.034612 1.283525 7.737676
1.976164 1.265803 8.283898
2.180676 1.319550 8.747776
2.216885 1.328063 9.118128
2.129280 1.302921 9.528270
2.006511 1.267962 10.024109
1.840319 1.221692 10.392375
1.451388 1.115854 10.551750
0.848513 0.952062 10.722916
0.770050 1.073834 1.215333
1.155744 1.217866 2.037336
1.029108 1.167549 2.609431
1.144855 1.210357 2.971710
1.160325 1.214330 3.506652
1.211607 1.231458 4.178642
1.289476 1.259545 4.620395
1.242845 1.240065 5.095873
1.525229 1.345257 5.770104
1.666190 1.392535 7.562261
1.713978 1.403971 9.447067
1.886131 1.467633 9.988276
1.762505 1.419507 10.270001
1.360593 1.264686 10.729855
0.656367 0.995515 10.950334
0.754649 1.192800 1.236360
1.175161 1.400400 1.971865
1.103500 1.362732 2.456329
0.986843 1.302229 3.027400
1.029170 1.320863 3.703746
1.146937 1.378431 4.061816
1.203013 1.403972 4.730399
1.250673 1.426681 5.032210
1.430371 1.513390 5.880154
1.917321 1.755264 6.339219
1.882349 1.735200 7.022969
1.823290 1.704419 7.352299
1.804966 1.693519 7.814087
1.910353 1.744656 8.235200
1.941838 1.758197 8.823746
1.938122 1.754627 9.279253
1.975842 1.772112 9.647944
1.818671 1.692111 10.014166
1.583398 1.573192 10.339907
1.199767 1.379551 10.800185
0.595242 1.076969 10.844505
0.340681 1.086974 0.139350
1.277203 1.677979 1.881280
0.997589 1.498190 2.198033
0.932423 1.454654 2.682056
0.967911 1.474612 3.359692
1.057255 1.529320 3.945879
1.169676 1.599677 4.302395
1.182143 1.604639 5.054469
1.070883 1.531916 5.477737
1.298116 1.674866 6.012925
1.710529 1.935143 6.775400
1.653294 1.897287 7.105016
1.595296 1.858072 7.653046
1.655846 1.894709 8.160513
1.721482 1.934607 8.664800
1.752542 1.952959 9.035896
1.716192 1.927598 9.575815
1.747071 1.946700 9.729775
1.499288 1.786019 10.351503
1.237075 1.617813 10.549562
0.756062 1.309520 10.844733
0.876335 1.615050 2.136478
0.815212 1.564814 2.620379
0.934586 1.656729 3.124114
0.839440 1.579325 3.691582
0.942888 1.659314 4.049440
0.924874 1.642484 4.665534
1.021554 1.716201 5.242816
0.987691 1.687494 5.715721
1.232006 1.877162 6.384096
1.520300 2.101884 6.959331
1.431890 2.030442 7.374006
1.380916 1.987931 7.921404
1.474693 2.060031 8.342196
1.571611 2.134617 8.760210
1.638503 2.185190 9.260306
1.537322 2.103354 9.752077
1.369797 1.969418 10.201742
1.237094 1.863279 10.567732
0.922212 1.614468 10.725780
0.463677 1.252780 10.807848
0.519716 1.512904 1.452834
0.699016 1.682463 2.161976
0.684146 1.666275 2.558765
0.793214 1.769081 3.062731
0.766726 1.740647 3.683153
0.723367 1.696610 4.161823
1.005847 1.966572 4.673128
1.218180 2.168128 5.350688
1.054208 2.007284 5.940868
1.161204 2.108828 6.286854
1.293520 2.233144 6.984313
1.342756 2.279252 7.276251
1.295193 2.230846 7.822382
1.316559 2.249700 8.196572
1.342145 2.271622 8.785153
1.404725 2.329635 9.282872
1.436262 2.358334 9.648641
1.340109 2.264335 9.926283
1.122726 2.052847 10.333732
0.814763 1.753795 10.791220
0.394660 1.348376 10.873340
0.778758 2.045795 1.933600
0.082308 1.407941 0.360640
0.422120 1.889609 2.156246
0.394647 1.846119 2.780117
0.465996 1.947348 3.141207
0.319201 1.731139 3.740951
1.026982 2.748099 5.162196
0.875767 2.526384 5.610304
0.832510 2.461765 5.940653
0.587275 2.104402 6.294169
0.593194 2.109418 6.895965
0.780452 2.376826 7.550817
0.922574 2.580451 7.934371
0.966612 2.641285 8.435705
0.936879 2.596304 8.758218
0.888058 2.521900 9.380178
0.816359 2.415118 9.872347
0.838757 2.446674 10.023150
0.668258 2.197261 10.431014
0.418296 1.833700 10.674515
0.064804 1.320594 10.844036
-0.194259 1.163721 0.238291
0.268018 1.989804 1.862462
0.162161 1.794486 2.375980
0.167980 1.801301 2.911960
0.338030 2.106683 3.292822
0.323006 2.075188 3.908695
0.553337 2.488485 4.473478
0.712289 2.770761 5.286415
0.626714 2.612285 5.784991
0.525530 2.426467 6.149432
0.402947 2.201275 6.601847
0.413114 2.217059 6.980508
0.552882 2.466622 7.500424
0.566636 2.487428 8.091467
0.690313 2.708828 8.469816
0.667239 2.663291 9.008133
0.604130 2.545549 9.500897
0.666027 2.656310 9.696728
0.543999 2.431554 10.230916
0.456741 2.272438 10.383030
0.206598 1.816425 10.800525
-0.164217 1.144707 10.803942
-0.278579 1.207961 0.479310
0.113963 2.112557 1.870483
-0.027432 1.777795 2.415460
0.021496 1.888933 2.778081
0.028287 1.900229 3.312325
0.454641 2.881246 4.998619
0.423106 2.804810 5.328095
0.392644 2.730882 5.657540
0.309845 2.534462 6.021953
0.244020 2.376505 6.523287
0.007338 1.821692 6.785163
0.359343 2.632315 8.097764
0.408086 2.742556 8.514878
0.423148 2.774574 8.883855
0.406821 2.731874 9.420853
0.389524 2.688742 9.742852
0.306235 2.490455 10.192191
0.189063 2.213396 10.602366
-0.291678 1.510138 0.498750
-0.177096 1.866475 1.186806
-0.077439 2.174507 1.954142
-0.151024 1.936557 2.326485
-0.156141 1.915861 2.723119
-0.109282 2.059100 3.226685
0.148279 2.858679 4.898865
0.123927 2.777597 5.230839
0.111600 2.733199 5.698669
0.034048 2.481755 6.150768
-0.013463 2.327640 6.433942
-0.126799 1.964534 6.704779
-0.053666 2.190071 7.313586
0.075195 2.591684 8.009495
0.113539 2.706420 8.642922
0.138378 2.782161 8.926584
0.114335 2.698819 9.548263
0.113846 2.694616 9.785017
0.039141 2.451291 10.319784
-0.026361 2.240520 10.558320
-0.157892 1.819889 10.803924
-0.410946 1.013895 10.984954
-0.158949 2.680804 9.809596
-0.235225 2.303673 10.388062
-0.305542 1.960115 10.673015
-0.386580 1.566929 10.834952
-0.557921 1.693376 0.631655
-0.601345 1.270049 0.893683
-0.562309 1.625578 1.433521
-0.534337 1.869946 2.142349
-0.540967 1.791021 2.625370
-0.529126 1.885106 3.215357
-0.525513 1.902431 3.748148
-0.471460 2.349202 5.906714
-0.482824 2.227242 6.321600
-0.507548 1.983560 6.553225
-0.504204 1.996175 7.152256
-0.556161 1.489597 7.467990
-0.453185 2.434438 8.676021
-0.438547 2.560951 9.089154
-0.431613 2.608479 9.669558
-0.439027 2.524548 10.075459
-0.461305 2.304099 10.311272
-0.496859 1.955286 10.594188
-0.558987 1.349394 10.976486
-0.723804 1.447014 0.370700
-0.722665 1.410757 0.771391
-0.718912 1.648951 1.483990
-0.715788 1.813700 2.134216
-0.714617 1.735960 2.614843
-0.712068 1.887971 3.115496
-0.708881 2.020856 3.838538
-0.703625 2.578561 4.455893
-0.700367 2.782448 5.079238
-0.702384 2.205473 5.459092
-0.703705 1.918665 5.552960
-0.701021 2.003911 6.207121
-0.700284 1.836302 6.711214
-0.690598 2.384316 8.663662
-0.687824 2.600587 9.122313
-0.685650 2.690032 9.617483
-0.685487 2.555503 9.894684
-0.685192 2.342653 10.343855
-0.686177 1.952795 10.712921
-0.689240 1.369177 10.792291
-0.860235 1.326763 0.429211
-0.873788 1.499188 1.232215
-0.913542 1.941810 1.822935
-0.890980 1.720876 2.333942
-0.876732 1.590085 2.900735
-0.887385 1.715871 3.259415
-0.974338 2.696191 4.891590
-0.909860 2.051585 5.982875
-0.893860 1.892008 6.264140
-0.873233 1.686516 6.633343
-0.929922 2.363843 8.765450
-0.932025 2.407003 9.348846
-0.943188 2.540016 9.758454
-0.925630 2.366840 10.121465
-0.895991 2.067209 10.530088
-0.862233 1.719497 10.815626
-0.798696 1.047340 10.857481
-1.002315 1.312586 0.490809
-1.056499 1.600539 1.119610
-1.100488 1.837792 1.829003
-1.067331 1.675762 2.254673
-1.062106 1.655955 2.648897
-1.040717 1.559007 3.356451
-1.224750 2.528220 4.988872
-1.207824 2.447477 5.318719
-1.089580 1.847431 5.566891
-1.040650 1.601423 5.800468
-1.055498 1.688774 6.455439
-1.057604 1.706200 6.836312
-0.993432 1.381507 7.025597
-0.851143 0.659795 7.344077
-1.156763 2.250996 9.005998
-1.180271 2.378377 9.419067
-1.179229 2.380956 9.870744
-1.153958 2.260407 10.363476
-1.101364 1.993522 10.474324
-1.000246 1.484011 10.893703
-0.862620 0.782910 11.028227
-1.201558 1.463168 2.225781
-1.185098 1.416048 2.849062
-1.122580 1.215602 3.363224
-1.474576 2.394298 4.792976
-1.403905 2.167758 5.378481
-1.265599 1.713622 5.593187
-1.177489 1.426442 5.913853
-1.205089 1.522574 6.346287
-1.248041 1.668359 6.689642
-1.162589 1.389978 7.012586
-1.115112 1.239113 7.520133
-1.249001 1.690746 8.347970
-1.373527 2.107300 8.816157
-1.409207 2.229896 9.230342
-1.409365 2.238141 9.896680
-1.384031 2.159220 10.304133
-1.304774 1.898829 10.414569
-1.152665 1.401486 10.833160
-0.933614 0.680853 11.055245
-1.245951 1.091579 0.482951
-1.309778 1.252200 1.286047
-1.378663 1.424925 2.081375
