0.476123 0.348254 2.287342
0.504660 0.396305 2.904231
0.532732 0.443594 3.399747
0.440020 0.287084 3.559531
0.987886 1.211570 4.671319
0.788239 0.874591 4.753819
0.677280 0.687226 5.235959
0.520760 0.422956 5.746244
0.356397 0.145386 6.608555
0.288758 0.031169 6.913828
0.222794 -0.080223 7.222119
-0.074864 -0.658326 1.267999
-0.063160 -0.635448 1.784980
0.457553 0.387023 2.412276
0.462845 0.397387 2.547038
0.481999 0.434914 2.982424
0.462557 0.396627 3.489282
0.286683 0.051213 3.613696
0.800293 1.059568 5.042817
-0.076149 -0.762572 0.997386
-0.145652 -0.923919 1.590358
0.425518 0.400714 2.212031
0.433775 0.419805 2.468022
0.442971 0.441075 2.723810
0.435430 0.423406 3.471880
0.309618 0.131628 3.340902
0.919534 1.545915 4.867750
0.768978 1.196679 5.011933
0.326516 0.169967 6.948126
0.168108 -0.197457 6.995923
0.404644 0.444748 2.437916
0.418255 0.482873 2.874169
0.418765 0.484304 2.889201
0.390147 0.403842 3.035015
0.350694 0.292775 3.738568
0.832083 1.645329 4.547143
0.677732 1.211502 4.818931
0.311552 0.182017 6.475338
0.209617 -0.104678 7.340883
-0.084203 -1.138111 1.355694
-0.108091 -1.221723 1.631779
0.366305 0.436745 1.994483
0.374151 0.464046 2.370637
0.385017 0.501889 2.806518
0.368560 0.444219 3.192339
0.318187 0.268052 3.350214
0.771679 1.853029 4.905293
0.625615 1.342400 4.776550
0.548343 1.072010 5.449184
0.484935 0.850199 5.818610
0.356411 0.400479 6.914531
0.188891 -0.185219 6.949174
-0.031968 -1.237534 1.389527
0.339528 0.468506 2.126345
0.345969 0.497929 2.501418
0.346224 0.499093 2.515058
0.362100 0.571693 3.250165
0.342796 0.482987 3.335446
0.270087 0.148804 3.823191
0.709798 2.168092 4.744328
0.549251 2.097419 0.007323
0.534434 1.998711 -0.036394
0.305551 0.472339 1.871293
0.295474 0.404913 2.316033
0.314321 0.530303 2.623919
0.303229 0.456228 2.889382
0.295595 0.405074 3.337886
0.228159 -0.046595 6.994301
0.404852 2.028634 0.047905
0.282122 0.580308 1.698669
0.266287 0.393438 1.906780
0.268625 0.420578 2.284623
0.279816 0.552062 2.652832
0.274063 0.483905 2.978704
0.270480 0.441115 3.487797
0.283385 2.458431 0.748347
0.260975 1.382994 1.418015
0.254802 1.087155 1.506384
0.247530 0.735786 2.260311
0.243499 0.542475 2.351109
0.244105 0.570078 2.666935
0.244651 0.595064 2.922314
0.243470 0.536807 3.309090
0.236192 0.186566 3.736701
0.287893 2.656602 4.667342
0.287458 2.633904 5.088970
0.284380 2.485361 5.365341
0.139790 2.169400 0.652285
0.152071 1.881925 1.074949
0.164297 1.595491 1.390947
0.207292 0.588647 2.712060
0.206990 0.595921 2.787722
0.115167 2.756343 4.584970
0.113429 2.798804 5.338090
-0.003396 2.183558 0.998689
0.028174 1.892548 1.194766
0.059583 1.603018 1.395023
0.080066 1.414273 1.593862
0.121082 1.036255 1.926462
0.163102 0.648828 2.087818
0.167741 0.606636 2.771746
0.168212 0.602254 2.725925
0.174831 0.541539 3.111805
0.211330 0.205370 3.658520
-0.076865 2.864330 4.615447
-0.070897 2.809955 5.385202
-0.031071 2.442344 5.067756
0.195109 0.357258 6.278892
0.250303 -0.151422 6.733506
-0.140349 2.163844 -0.048071
-0.157506 2.262636 -0.090112
-0.125609 2.079510 0.975261
-0.092198 1.887157 1.110784
-0.042712 1.602287 1.368531
0.124967 0.637444 2.986180
0.141724 0.540945 3.010984
0.151524 0.484717 3.398806
-0.240403 2.742611 4.552922
0.213631 0.128750 6.560611
0.286407 -0.290194 6.936557
-0.372697 2.545789 0.690850
-0.444226 2.843789 0.918810
-0.144620 1.596136 1.364682
0.085789 0.637128 2.916913
0.076292 0.676832 3.290735
0.094080 0.602827 3.496336
-0.407535 2.692592 4.944722
-0.474154 2.319290 0.225461
-0.397776 2.072621 1.578519
-0.249639 1.593364 1.563450
-0.229209 1.527423 2.048534
-0.174602 1.350825 2.253325
-0.022399 0.858361 2.069896
0.054088 0.611076 2.588420
-0.021076 0.854415 3.122598
-0.153374 1.282543 3.504234
-0.093133 1.087647 3.485062
-0.589529 2.693930 4.578908
-0.514998 2.452899 4.869149
-0.444696 2.225571 5.220961
0.351824 -0.350782 6.931149
-0.655801 2.377819 0.174589
-0.385796 1.667905 1.562897
-0.393737 1.688889 1.923309
-0.320909 1.497592 3.005619
-0.529055 2.045653 4.930521
-0.634783 2.323771 4.889629
-0.585131 2.193244 5.222948
0.298861 -0.131750 6.947809
-0.838197 2.433591 0.731417
-0.479451 1.634590 1.399164
-0.486223 1.649745 1.701327
-0.418079 1.498058 2.191926
-0.297965 1.230512 2.287947
-0.356576 1.361183 2.761107
-0.497179 1.674482 3.148809
-0.462729 1.597772 3.289540
-0.315933 1.270847 3.644406
0.173438 0.181381 6.578548
0.319811 -0.144632 6.807182
-0.722371 1.866366 1.396016
-0.540610 1.521906 1.604417
-0.608074 1.649903 2.247818
-0.659639 1.747662 2.369062
-0.677922 1.782398 2.785005
-0.670639 1.768563 2.627616
-0.666933 1.761704 3.456122
-0.639464 1.709704 3.771007
-0.559587 1.558354 3.986966
-0.101706 0.690789 5.379521
-0.011215 0.519287 5.430235
-0.941217 1.955029 0.403934
-0.651370 1.488592 1.769603
-0.822470 1.764138 2.107801
-0.902077 1.892414 2.683108
-0.918546 1.918983 2.980888
-0.866900 1.835833 3.005485
-0.766247 1.673790 3.098745
-0.140306 0.666360 5.283177
-0.081838 0.572306 5.756461
-0.569613 1.198756 1.755752
-1.150800 2.014177 2.909095
-1.155104 2.020224 2.976489
-1.105611 1.950823 3.111766
-1.002936 1.806833 3.316907
-0.919124 1.689340 3.753839
-0.757089 1.462079 3.922326
-0.468934 1.057998 4.633196
-0.150719 0.611692 4.985077
-0.140208 0.597021 5.436245
0.640511 -0.497877 6.803791
-0.214869 0.631351 2.056615
-1.306904 1.972270 2.359229
-1.258007 1.912268 2.608456
-1.206870 1.849508 2.802688
-1.097941 1.715796 3.066289
-1.033993 1.637394 3.849100
-0.863894 1.428569 4.080043
-0.238583 0.660965 5.404124
-0.109132 0.502016 5.397193
0.526575 -0.226291 1.177660
0.170566 0.157335 1.666552
-1.450329 1.903797 2.653054
-1.412468 1.863064 3.072481
-1.311812 1.754679 3.507327
-1.173170 1.605305 3.491198
-0.347580 0.716089 5.384935
-0.200386 0.557496 5.318172
0.675986 -0.386469 6.949181
0.678943 -0.323522 1.392145
-1.642799 1.875849 2.654780
-1.512009 1.751987 2.857545
-1.454509 1.697548 3.051663
-1.352147 1.600651 3.543677
-0.393321 0.692667 5.387970
-0.261307 0.567634 5.500650
0.710202 -0.295148 0.900390
0.850511 -0.413335 1.366673
-0.474666 0.703514 1.920578
-1.603366 1.654818 2.761245
-1.528471 1.591704 2.786317
-1.498159 1.566225 3.322612
-1.358888 1.448874 3.476471
-0.312158 0.566949 5.088188
-0.198313 0.471043 5.381614
0.885889 -0.357437 1.113420
-1.287915 1.223720 2.462257
-1.647349 1.485186 2.893375
-1.648527 1.486044 2.906865
-1.532268 1.401546 3.397862
-1.385182 1.294589 3.551306
-1.198857 1.159134 4.067394
-0.298778 0.504650 5.283815
-0.199331 0.432370 5.698540
0.184543 0.153200 5.873515
0.547676 -0.110817 6.635442
-1.290741 1.094226 2.626706
-1.679358 1.340954 3.170332
-1.698206 1.352938 3.353852
-1.544422 1.255343 3.506369
-1.391375 1.158216 3.660738
-1.198642 1.035940 4.179217
-0.867496 0.825829 4.872509
-0.453913 0.563326 4.973706
-0.273106 0.448616 5.463741
-1.955267 1.334619 0.239533
-1.779520 1.238412 0.141375
-1.535009 1.104841 2.625824
-1.702009 1.196336 3.428100
-1.610154 1.146055 3.397244
-1.524636 1.099249 3.423414
-0.415767 0.492474 5.072221
-0.486984 0.531649 6.887761
-2.029877 1.218095 -0.041900
-1.051006 0.754701 2.611377
-1.417105 0.928117 2.646112
-1.546310 0.989360 3.053191
-1.668125 1.047092 3.342102
-1.560737 0.996288 3.955915
-0.434871 0.463100 5.017028
-0.385493 0.439792 5.792007
-0.336766 0.416782 6.482391
-0.417711 0.455163 6.858879
-0.777156 0.558364 2.089379
-1.216641 0.732984 2.892926
-1.489757 0.841442 2.818224
-1.502442 0.846493 2.947853
-1.589243 0.881042 3.710827
-1.392323 0.802829 3.636377
-1.296844 0.764979 4.318300
-0.423619 0.418286 5.334878
-0.242378 0.346363 5.891883
-0.296393 0.367842 6.164077
-0.623028 0.497627 6.795385
-0.445838 0.427263 6.857704
-0.415078 0.415075 7.137636
-0.634735 0.502398 8.007126
-1.009194 0.571644 2.188317
-1.238512 0.646135 2.655240
-1.488190 0.727246 3.229892
-1.476999 0.723604 3.128636
-1.547772 0.746637 3.721033
-1.384561 0.693674 3.937054
-1.128968 0.610722 4.170667
-0.746121 0.486499 4.812253
-0.561757 0.426707 5.419118
-0.377782 0.366987 5.472234
-0.511130 0.410429 7.022132
-0.592225 0.436749 6.950957
-0.636799 0.451276 7.527929
-0.932276 0.476542 1.981964
-1.152844 0.532666 2.335875
-1.275949 0.564000 2.635157
-1.427219 0.602519 3.164270
-1.463038 0.611658 3.469684
-1.383395 0.591418 3.613906
-1.232356 0.553041 3.948234
-1.035617 0.503074 4.597037
-0.750877 0.430726 5.231463
-0.383878 0.337413 5.381614
-0.195539 0.289572 5.939392
-0.441139 0.352050 6.167214
-0.590985 0.390178 6.399480
-0.662359 0.408359 6.712482
-0.766733 0.434943 7.143833
-0.815460 0.447352 7.335866
-0.792357 0.441541 7.997738
-0.996241 0.421844 2.439999
-1.225753 0.464664 2.789328
-1.336830 0.485383 2.910710
-1.467877 0.509841 3.205334
-1.511971 0.518096 3.567995
-1.374675 0.492544 4.016908
-1.165453 0.453532 3.942712
-0.946547 0.412774 4.474004
-0.834715 0.391975 4.996841
-0.687258 0.364513 5.286149
-0.326531 0.297285 5.496505
-0.003901 0.237176 5.894664
-0.388972 0.309043 6.733270
-0.846706 0.394397 6.952227
-0.895043 0.403426 7.144809
-1.007842 0.424496 7.573699
-0.916980 0.407561 7.614670
-0.754106 0.377246 8.127685
-0.986728 0.353047 1.996301
-1.217629 0.380997 2.406722
-1.355865 0.397746 2.820411
-1.507237 0.416089 3.288346
-1.545080 0.420692 3.591547
-1.479885 0.412835 3.850359
-1.178647 0.376421 3.846769
-1.111337 0.368366 4.714695
-0.938372 0.347473 4.880500
-0.626678 0.309790 4.826149
-0.469537 0.290869 5.616542
-0.070771 0.242668 5.647504
-0.287301 0.268895 6.203472
-0.745113 0.324258 6.430336
-0.988346 0.353716 7.014805
-0.972492 0.351831 7.349533
-0.880154 0.340672 7.388809
-0.632727 0.310819 7.986868
-2.338924 0.364635 -0.014197
-1.133173 0.296615 2.334732
-1.348446 0.308815 2.506868
-1.613776 0.323891 3.139487
-1.522840 0.318752 3.222120
-1.453694 0.314863 3.479996
-1.419798 0.312990 3.972737
-1.259274 0.303931 4.249490
-0.885352 0.282787 4.443008
-0.719607 0.273428 4.667643
-0.522613 0.262336 5.273929
-0.399625 0.255414 5.688138
-0.604770 0.267070 6.177213
-0.829355 0.279789 6.266831
-1.115149 0.296035 7.027415
-1.133761 0.297095 7.099709
-0.959414 0.287239 7.222671
-0.640812 0.269241 7.578003
0.234734 0.233504 0.778820
-1.050438 0.225254 2.348765
-1.355555 0.223265 2.396796
-1.553158 0.222061 3.333015
-1.683428 0.221232 3.566324
-1.578586 0.221914 3.535608
-1.520666 0.222322 3.853537
-1.333019 0.223558 3.954406
-1.082495 0.225228 4.307254
-1.007906 0.225786 5.065013
-0.737752 0.227569 5.253439
-0.878784 0.226713 5.953851
-1.099798 0.225318 6.479914
-1.160088 0.224948 6.730282
-1.140946 0.225104 7.063798
-0.981997 0.226160 7.246990
-0.759999 0.227641 7.577439
-1.044084 0.158566 2.110977
-1.288687 0.141254 2.638409
-1.530359 0.124138 3.040582
-1.519268 0.124916 2.938178
-1.553396 0.122522 3.242534
-1.573756 0.121161 4.140466
-1.378642 0.135014 4.184459
-1.201806 0.147581 4.346362
-0.967052 0.164283 4.763704
-0.695422 0.183580 4.948654
-0.516905 0.196314 5.619841
-0.092479 0.226431 5.529101
-1.113775 0.153988 6.037358
-1.099794 0.155017 6.427790
-1.202886 0.147740 6.854450
-1.088730 0.155876 7.213006
-0.722201 0.181908 7.388143
-2.563491 -0.114634 0.094437
-1.039071 0.092881 1.925074
-1.190225 0.072384 2.580447
-1.435739 0.039034 3.042907
-1.640621 0.011172 3.092462
-1.648711 0.010079 3.163900
-1.495947 0.030893 3.550031
-1.455194 0.036477 3.985033
-1.314347 0.055672 4.379561
-1.022990 0.095306 4.440683
-0.888783 0.113598 4.843885
-0.663121 0.144332 5.270045
-0.299271 0.193840 5.479944
-0.647972 0.146479 6.192700
-1.214822 0.069404 6.451668
-1.259867 0.063295 6.641525
-1.158574 0.077112 7.056661
-1.016566 0.096486 7.679966
-2.353206 -0.255223 0.038352
-1.063477 0.014712 2.212213
-1.176340 -0.008874 2.395718
-1.409995 -0.057701 2.802165
-1.643004 -0.106398 3.143782
-1.651210 -0.108107 3.215882
-1.605705 -0.098550 3.647923
-1.470307 -0.070190 4.097026
-1.270051 -0.028311 4.081033
-1.180541 -0.009526 4.772686
-0.989892 0.030350 4.820027
-0.659339 0.099517 5.202491
-0.310694 0.172456 5.471626
-1.364804 -0.047882 6.653546
-1.244945 -0.022822 6.572920
-1.234296 -0.020522 7.340629
-0.969933 0.034780 7.491136
-2.428684 -0.430130 0.097056
-1.183244 -0.085951 2.512366
-1.386816 -0.142159 2.624887
-1.530532 -0.181803 3.094150
-1.696945 -0.227704 3.674362
-1.566784 -0.191784 3.411219
-1.540937 -0.184592 3.960423
-1.412563 -0.149096 4.411702
-1.157368 -0.078598 4.650006
-1.019429 -0.040471 4.993504
-0.769133 0.028676 5.240119
-0.392708 0.132639 5.327844
-0.606243 0.073727 5.926571
-1.207500 -0.092270 6.426621
-1.265076 -0.108188 6.241303
-1.324562 -0.124550 6.923297
-1.215059 -0.094274 7.280682
-1.002044 -0.035453 7.227303
-1.078340 -0.122332 2.479719
-1.367286 -0.220820 2.525361
-1.613025 -0.304528 3.100150
-1.539716 -0.279520 3.299004
-1.583252 -0.294324 3.660373
-1.469440 -0.255544 3.512515
-1.344268 -0.212826 4.020002
-1.183964 -0.158162 4.239234
-1.008181 -0.098173 4.951832
-0.969324 -0.084895 5.280257
-1.488551 -0.261730 6.833116
-1.358575 -0.217439 6.695806
-2.358387 -0.724488 -0.090860
-1.047453 -0.182056 2.206666
-1.357415 -0.310215 2.606856
-1.513533 -0.374720 3.251153
-1.647131 -0.429940 3.600162
-1.536409 -0.384161 3.453370
-1.415147 -0.333955 3.973648
-1.057230 -0.185845 4.726005
-0.744183 -0.056331 5.107556
-0.403852 0.084451 5.315519
-1.227927 -0.256298 6.172721
-1.229949 -0.257089 6.620879
-1.135364 -0.217927 7.036627
-1.046662 -0.181197 7.456364
-0.960898 -0.213315 2.442588
-1.265259 -0.362752 2.843126
-1.439974 -0.448566 2.780291
-1.499969 -0.477968 3.376994
-1.542488 -0.498813 3.740490
-1.492896 -0.474424 4.060218
-1.333385 -0.396067 4.222353
-1.271806 -0.365803 4.429227
-1.062040 -0.262738 4.847933
-0.654269 -0.062441 5.147110
-0.641270 -0.056009 5.602839
-0.933427 -0.199434 6.175198
-1.211278 -0.335893 6.184422
-1.288291 -0.373677 6.552056
-0.934372 -0.267489 2.289800
-1.207840 -0.424036 2.456695
-1.405579 -0.537214 2.745066
-1.444868 -0.559662 3.166766
-1.476938 -0.577990 3.471724
-1.440289 -0.556961 3.906194
-1.270322 -0.459647 3.949377
-1.291245 -0.471540 4.740382
-0.993780 -0.301261 4.510788
-0.773783 -0.175276 4.813400
-0.626058 -0.090623 5.542709
-0.639080 -0.098070 5.618102
-0.944951 -0.273112 6.308092
-1.242673 -0.443501 6.879361
-1.297951 -0.475122 7.126714
-0.901878 -0.324908 2.112814
-1.202735 -0.526410 2.809704
-1.374252 -0.641324 2.862541
-1.396543 -0.656231 3.109810
-1.464696 -0.701822 3.762663
-1.411737 -0.666309 4.023481
-1.235003 -0.547902 3.950520
-1.176157 -0.508450 4.155770
-1.011667 -0.398165 4.807763
-0.768051 -0.234929 4.872460
-0.637670 -0.147482 5.660360
-0.650084 -0.155792 5.733811
-0.856668 -0.294184 5.945249
-1.213150 -0.532974 6.482742
-1.239145 -0.550376 6.612870
-1.259499 -0.563957 7.118265
-2.247922 -1.433410 -0.044852
-0.877507 -0.381077 2.085667
-1.168882 -0.604679 2.841066
-1.332657 -0.730405 2.893207
-1.333852 -0.731320 2.907517
-1.400949 -0.782748 3.618039
-1.329972 -0.728248 3.703206
-1.265650 -0.678850 3.847224
-1.188480 -0.619525 4.534232
-0.947822 -0.434769 4.538081
-0.746861 -0.280453 4.840015
-0.680679 -0.229568 5.489147
-0.633727 -0.193497 5.703074
-0.811004 -0.329583 5.796606
-1.071951 -0.529849 6.359955
-1.162671 -0.599490 6.409952
-1.303997 -0.707902 7.124993
-2.160237 -1.563091 0.295894
-0.940851 -0.507389 2.281536
-1.128725 -0.669941 2.806499
-1.359889 -0.870023 2.847241
-1.475510 -0.970043 3.311114
-1.418113 -0.920338 3.509462
-1.405918 -0.909707 4.114144
-1.210824 -0.740805 4.405774
-1.010559 -0.567434 4.643558
-0.855592 -0.433301 4.630582
-0.705812 -0.303582 5.232640
-0.612220 -0.222521 5.643928
-0.661380 -0.265034 5.957433
-0.870924 -0.446367 6.285606
-0.946917 -0.512145 6.276590
-1.129576 -0.670176 6.855098
-1.139617 -0.678812 7.303454
-0.984288 -0.544364 7.309428
-0.016449 0.309423 1.586333
0.046710 0.371629 1.791640
-0.905947 -0.566168 2.273449
-1.149670 -0.806045 2.730081
-1.332851 -0.986313 3.244580
-1.395085 -1.047595 3.130343
-1.415815 -1.067972 3.373662
-1.343894 -0.997071 4.106240
-1.223697 -0.878713 4.323754
-1.000878 -0.659362 4.266137
-0.832197 -0.493247 4.681850
-0.675891 -0.339306 5.164617
-0.545518 -0.210943 5.274635
-0.632740 -0.296729 5.889262
-0.792311 -0.453810 5.980349
-0.970095 -0.628748 6.622787
-1.093427 -0.750127 6.905679
-1.016119 -0.674023 6.884551
-0.945858 -0.604798 7.301358
-1.943456 -1.825967 -0.131992
-1.877515 -1.752221 -0.231058
0.155237 0.521828 1.822822
-0.886226 -0.643006 2.589612
-1.152567 -0.940928 2.567052
-1.363630 -1.176992 2.725982
-1.393539 -1.210389 3.142271
-1.408348 -1.226928 3.328395
-1.296905 -1.102234 3.597907
-1.246433 -1.045659 4.450907
-0.959800 -0.725063 4.294645
-0.809223 -0.556566 4.771122
-0.687151 -0.419928 5.435120
-0.631484 -0.357648 5.528713
-0.649422 -0.377694 5.663012
-0.749750 -0.489884 5.895953
-0.822222 -0.570880 6.385720
-1.029855 -0.803069 6.824875
-1.092608 -0.873211 7.190171
-0.891454 -0.648202 7.222237
-1.823704 -1.946323 -0.186318
-1.761274 -1.866827 -0.061769
0.076246 0.472666 1.307596
0.068533 0.462886 1.572483
-0.819425 -0.667459 2.122073
-1.119960 -1.049922 3.038311
-1.362642 -1.358885 2.951467
-1.406169 -1.414209 3.537601
-1.370448 -1.368686 3.851336
-1.244348 -1.208154 3.836420
-1.133656 -1.067212 3.995131
-0.960500 -0.846655 4.773501
-0.773167 -0.608167 4.780395
-0.645967 -0.446151 5.325391
-0.638716 -0.436851 5.778488
-0.656158 -0.459036 5.913004
-0.874007 -0.736273 6.566581
-1.036870 -0.943511 7.202492
-0.900438 -0.769833 7.149180
-0.832015 -0.682672 7.509043
0.048307 0.481048 1.173650
0.101588 0.558852 1.317694
-0.026297 0.372245 1.820976
-0.962527 -0.994377 2.513261
-1.292821 -1.476424 3.284042
-1.357885 -1.571386 3.399641
-1.311172 -1.503170 3.540277
-1.273876 -1.448682 3.796332
-1.146480 -1.262620 4.314773
-0.641899 -0.525809 5.564349
-0.719330 -0.638817 5.736048
-0.980294 -1.019530 7.249939
-0.891003 -0.889150 7.431973
-0.830508 -0.800778 7.792748
-1.544652 -2.172533 0.064022
-1.494336 -2.086875 -0.089694
0.009902 0.475081 1.401098
0.050067 0.543554 1.796454
-0.725665 -0.777422 2.210826
-1.064489 -1.354298 2.929821
-1.239655 -1.652530 3.311124
-1.223476 -1.625028 3.040455
-1.202278 -1.588839 3.523324
-1.106535 -1.425774 3.618950
-0.977369 -1.205743 3.961557
-0.879564 -1.039055 4.661793
-0.702047 -0.736690 4.978688
-0.553691 -0.484030 5.044390
-0.594858 -0.554057 5.475721
-2.176128 -3.246721 6.558677
-0.855427 -0.997401 7.635012
-0.745219 -0.809659 7.965178
-1.356868 -2.178077 0.165995
-0.022813 0.470471 1.501890
0.013968 0.543556 1.835517
-0.731544 -0.936235 2.532608
-1.018806 -1.506411 2.894918
-1.180510 -1.827313 3.387525
-1.139929 -1.746737 3.470338
-1.117154 -1.701448 3.838949
-1.018054 -1.504750 3.708357
-0.896250 -1.262906 3.937054
-0.751643 -0.975729 4.478915
-0.637387 -0.748854 4.778540
-0.573773 -0.622500 5.125017
-1.916128 -3.287217 5.264906
-1.855621 -3.167037 5.586463
-2.018762 -3.490757 6.241882
-0.858385 -1.187091 7.052181
-0.786835 -1.045017 7.233641
-0.759219 -0.990163 7.390672
-0.675227 -0.823335 7.838625
-0.015951 0.554137 1.629912
-0.665922 -0.969813 2.396409
-0.900863 -1.520741 2.358319
-1.055643 -1.883472 3.255019
-1.006783 -1.768949 3.051814
-0.993345 -1.737308 3.590237
-0.919308 -1.563676 3.687020
-0.829979 -1.354081 4.205047
-1.778343 -3.577685 5.200124
-1.716025 -3.431503 5.412607
-0.713480 -1.080012 7.929077
-0.074208 0.479884 1.107399
-0.043124 0.566523 1.313785
-0.883050 -1.772660 2.512929
-0.937121 -1.923109 3.086055
-0.946868 -1.950189 3.326822
-0.885302 -1.778664 3.479595
-0.824033 -1.607964 3.634228
-0.735162 -1.360344 3.920717
-0.769679 -1.456149 5.139094
-1.639107 -3.877563 6.128450
-0.696355 -1.251419 6.923268
-0.652793 -1.130001 7.221733
-0.599458 -0.981391 7.405298
-0.931780 -2.393353 0.439129
-0.185169 0.195018 0.785821
-0.137789 0.359528 1.552284
-0.112213 0.448243 1.698067
-0.716011 -1.644608 2.647768
-0.838323 -2.068496 3.020279
-0.816762 -1.993686 3.216448
-0.784167 -1.880739 3.072080
-0.745289 -1.745793 3.568546
-0.731713 -1.698603 3.941336
-0.514775 -0.945616 6.712343
-0.496875 -0.883511 6.867879
-0.513919 -0.942382 7.498417
-0.488186 -0.853161 7.537972
-0.531256 -1.002285 8.083722
-0.737448 -2.355258 -0.184596
-0.200492 0.172647 1.084264
-0.181352 0.262827 1.289214
-0.671894 -2.045632 2.202047
-0.662416 -2.000756 2.793735
-0.670600 -2.039115 3.149044
-0.659186 -1.985227 3.516789
-0.615279 -1.778601 3.442681
-0.568807 -1.559608 4.016566
-0.477372 -1.128789 5.030160
-0.827845 -2.778257 5.319144
-0.424482 -0.879088 6.711480
-0.439827 -0.951002 7.401575
-0.397107 -0.749929 7.407213
-0.657276 -2.890858 0.091895
-0.522774 -1.970208 2.004858
-0.539946 -2.087435 2.238848
-0.548748 -2.147195 2.876568
-0.531987 -2.032712 2.730874
-0.523171 -1.972216 3.096352
-0.522444 -1.967270 3.052482
-0.504304 -1.842878 3.661886
-0.466280 -1.582778 3.947190
-0.396213 -1.103316 4.723672
-0.377667 -0.975073 6.998387
-0.364147 -0.882628 7.036728
-0.336277 -0.691827 7.484237
-0.468950 -2.728803 0.519566
-0.402571 -1.960783 1.404044
-0.403435 -1.970570 1.587763
-0.408583 -2.029175 2.398336
-0.401947 -1.952221 2.648146
-0.402546 -1.959071 2.717736
-0.407004 -2.010077 3.186515
-0.397412 -1.899330 3.096358
-0.386034 -1.767241 3.649955
-0.362654 -1.496829 3.877144
-0.322490 -1.031724 4.770815
-0.331117 -1.130830 5.314871
-0.386065 -1.765653 5.443887
-0.312501 -0.914234 6.668809
-0.320438 -1.005557 7.037462
-0.292748 -0.685194 7.389546
-0.295110 -2.650133 0.305673
-0.299939 -2.852148 0.481683
-0.284827 -2.212140 1.901886
-0.282098 -2.098351 1.693980
-0.277850 -1.918802 2.004987
-0.279073 -1.967844 2.589248
-0.276338 -1.853629 2.439212
-0.277951 -1.918814 3.082051
-0.275461 -1.814415 3.048478
-0.274506 -1.772421 3.533099
-0.267846 -1.492148 3.700934
-0.256435 -1.009807 4.532299
-0.254873 -0.941241 5.291620
-0.269780 -1.566763 5.365893
-0.254602 -0.922964 7.047402
-0.254317 -0.911160 7.000986
-0.249363 -0.701646 7.387675
-0.112959 -2.965148 0.463413
-0.096964 -3.362655 0.253652
-0.148101 -2.092762 1.338848
-0.150128 -2.044234 2.155361
-0.158919 -1.824868 1.897113
-0.160239 -1.793968 2.723735
-0.160628 -1.784030 2.621916
-0.162672 -1.734307 3.106470
-0.164054 -1.701190 3.651361
-0.168270 -1.596213 3.620076
-0.178873 -1.333056 3.907309
-0.193690 -0.966418 4.791984
-0.189267 -1.077891 5.397801
-0.175473 -1.421564 5.587227
-0.196164 -0.909871 6.938757
-0.200518 -0.801479 6.917177
-0.210992 -0.542239 7.511077
0.046521 -2.667679 0.448874
0.016442 -2.381280 0.960328
-0.023782 -1.998012 1.330895
-0.041488 -1.829642 1.872421
-0.061360 -1.640253 2.016354
-0.066628 -1.590557 2.618776
-0.053089 -1.719942 2.912690
-0.062650 -1.628836 2.995896
-0.069385 -1.564886 3.311929
-0.076519 -1.497083 3.571628
-0.105723 -1.218728 3.742967
-0.125661 -1.029798 5.090462
-0.157284 -0.728223 5.100071
-0.105333 -1.224095 5.573490
-0.085805 -1.410252 5.490105
-0.101731 -1.259017 6.211948
-0.140643 -0.888068 6.375245
-0.154800 -0.753321 6.672994
-0.143679 -0.859767 7.104266
0.201273 -2.467214 0.775496
0.151842 -2.188293 1.252415
0.102208 -1.908141 1.567944
0.048537 -1.604943 1.426720
-0.034890 -1.133980 1.822022
-0.065918 -0.958913 2.148079
-0.001621 -1.322453 2.904236
0.029285 -1.496877 2.666645
0.038085 -1.546837 3.147706
0.004940 -1.359693 3.244987
-0.016174 -1.240782 3.872940
-0.025556 -1.187970 4.197606
-0.073640 -0.916499 4.377959
-0.138739 -0.548943 4.577147
-0.114245 -0.687708 5.373428
-0.056341 -1.014805 5.508949
-0.023686 -1.199189 5.425045
0.002725 -1.348739 6.143390
-0.050066 -1.050598 6.164278
-0.081172 -0.875221 6.721607
-0.084587 -0.856110 7.057932
0.311077 -2.249154 0.499641
0.267764 -2.072237 1.143301
0.199843 -1.794530 1.457614
0.059436 -1.220262 1.636048
-0.025534 -0.872942 2.270367
-0.001576 -0.970945 2.277509
0.082443 -1.314852 2.855029
0.117151 -1.456991 3.267932
0.097324 -1.375941 3.410608
0.055929 -1.206701 3.625781
0.016892 -1.047130 3.902787
-0.023486 -0.882302 4.763396
-0.020487 -0.894818 5.391102
0.032302 -1.110790 5.485258
0.076488 -1.291691 5.890956
0.046286 -1.168289 6.242162
-0.015918 -0.913920 6.441966
-0.051315 -0.769223 6.681173
0.459450 -2.240746 1.114770
0.062844 -0.976245 2.369565
0.074531 -1.013652 2.797948
0.106474 -1.115547 2.860242
0.156561 -1.275476 3.450614
0.125179 -1.175379 3.417211
0.082528 -1.039492 3.869717
0.044927 -0.919734 4.387021
-0.013558 -0.733222 4.431449
-0.060305 -0.584223 4.717238
-0.027476 -0.689114 5.331943
0.064858 -0.983599 5.348417
0.138304 -1.217907 5.559021
0.143569 -1.234874 6.122004
0.094059 -1.077028 6.297146
0.024157 -0.854191 6.616136
0.031443 -0.877587 7.130335
0.619326 -2.287709 0.498525
0.443534 -1.824115 0.717403
0.271001 -1.369173 1.151516
0.152667 -1.057364 2.273680
0.095412 -0.906470 2.719997
0.088103 -0.887134 2.495380
0.144668 -1.036482 3.092729
0.185149 -1.143282 3.213048
0.128000 -0.992640 3.546125
0.072307 -0.845838 3.883278
0.053945 -0.797663 4.850286
0.031143 -0.737580 5.060769
0.185602 -1.145141 5.730021
0.234536 -1.274251 5.898974
0.161746 -1.082266 5.895476
0.091671 -0.897572 6.389196
0.059170 -0.811977 6.866563
-0.003168 -0.647591 6.988326
0.805488 -2.332068 0.296799
0.174694 -0.945029 2.146223
0.152821 -0.897044 2.703726
0.153373 -0.898262 2.717672
0.133518 -0.854703 3.218549
0.155281 -0.902669 3.649368
0.080541 -0.738311 3.809058
0.066707 -0.708131 4.900647
0.067724 -0.710371 4.914700
0.181873 -0.961536 5.310168
0.242841 -1.095689 5.541533
0.244664 -1.099814 6.048194
0.141230 -0.872365 6.305461
0.074744 -0.726265 6.926619
0.042252 -0.654821 7.024948
0.951967 -2.276532 0.332498
0.035344 -0.559147 1.831715
0.086479 -0.654997 1.960880
0.240405 -0.943512 2.312062
0.201219 -0.870120 2.513988
0.183047 -0.836192 3.134943
0.203730 -0.875024 3.507560
0.150975 -0.776147 3.415611
0.130638 -0.738125 3.862388
0.126307 -0.730251 5.077380
0.132764 -0.742366 5.152458
0.275643 -1.010212 5.665130
0.317532 -1.088696 5.601012
0.339042 -1.129140 6.285658
0.196594 -0.862208 6.308254
0.100185 -0.681634 6.749070
0.069832 -0.624786 6.906588
1.110616 -2.203044 -0.090860
1.110799 -2.203328 -0.132472
0.185166 -0.730795 1.938225
0.319554 -0.944753 2.593217
0.261612 -0.852538 2.498636
0.218077 -0.783298 2.702042
0.192503 -0.742694 3.206063
0.171882 -0.709969 3.712655
0.128806 -0.641451 3.861430
0.106983 -0.606908 4.900941
0.213592 -0.776643 5.436053
0.331909 -0.964929 5.529784
0.431254 -1.123081 5.936166
0.387638 -1.053694 6.029748
0.240295 -0.819261 6.167171
0.137719 -0.656127 6.666995
0.167839 -0.704168 7.304835
0.414595 -0.980710 2.227465
0.347058 -0.886016 2.012104
0.324543 -0.854579 2.748352
0.332256 -0.865411 2.881723
0.248533 -0.748149 3.395295
0.191852 -0.668710 3.421308
0.152757 -0.613958 3.688124
0.151241 -0.611944 4.377980
0.095124 -0.533297 4.407472
2.608072 -4.055455 4.756088
2.642001 -4.103130 5.501135
2.464549 -3.854342 5.045003
0.273316 -0.783385 6.506836
0.256860 -0.760437 7.225787
0.043384 -0.461261 7.401321
0.529741 -1.017093 2.008209
0.484721 -0.961925 2.383414
0.454374 -0.924782 2.938671
0.359302 -0.808230 3.390091
0.248989 -0.672948 3.607310
0.197301 -0.609567 3.753659
0.162196 -0.566555 4.081700
0.049610 -0.428477 4.245081
2.925305 -3.955986 4.738689
3.035080 -4.090691 5.083186
3.086398 -4.153756 5.870735
0.741972 -1.142016 2.251040
0.699631 -1.096391 2.683075
0.594484 -0.983001 3.128752
0.464995 -0.843300 3.223900
0.268211 -0.630991 3.331767
0.216687 -0.575426 3.537716
0.194359 -0.551405 4.046398
0.079264 -0.427252 4.270422
3.238518 -3.836121 5.215598
3.217761 -3.813707 5.075488
3.241964 -3.839843 5.238472
3.251368 -3.849999 5.300362
1.549531 -1.791203 0.374309
0.727982 -1.011306 2.021812
0.879685 -1.155372 2.138975
0.833312 -1.111393 2.570791
0.575730 -0.866864 3.037455
0.360642 -0.662632 3.084970
0.248082 -0.555800 3.483403
0.139728 -0.452964 3.886622
0.213217 -0.522834 4.566547
3.449372 -3.595878 5.501635
1.192536 -1.296694 2.288332
1.285427 -1.374186 2.523236
0.307852 -0.559120 3.733930
0.265116 -0.523522 4.062873
0.398583 -0.634952 5.126968
0.471389 -0.695725 5.619363
0.511489 -0.729196 5.871996
0.504150 -0.723070 5.826627
0.477945 -0.701362 7.010646
0.827310 -0.890547 1.521633
1.012745 -1.025840 1.992972
1.423368 -1.325320 2.086794
1.620982 -1.469499 2.596863
0.362278 -0.551675 3.906024
0.210797 -0.441211 4.009525
0.219652 -0.447754 4.736810
0.505275 -0.656154 5.555955
0.546951 -0.686578 5.808475
0.878475 -0.831977 1.409030
0.785806 -0.773174 1.192400
0.718967 -0.730826 1.626159
1.772487 -1.399141 2.265971
1.954215 -1.514428 2.431523
0.339064 -0.490132 4.131584
0.276227 -0.450364 4.930838
0.269512 -0.446100 4.885067
0.438667 -0.553453 5.423334
0.378116 -0.515064 5.577240
0.404864 -0.532100 6.213347
1.005109 -0.814555 1.058779
0.921897 -0.769028 1.195254
0.844246 -0.726557 1.450798
1.843563 -1.273543 2.044650
2.261682 -1.502464 2.861706
2.355454 -1.553791 2.918949
2.356701 -1.554475 2.931691
0.223981 -0.387401 4.370567
-0.190673 -0.160486 4.584115
0.028790 -0.280628 4.872499
0.600498 -0.593602 5.639871
0.389102 -0.477887 5.452937
0.957065 -0.703198 0.801551
0.877453 -0.666040 1.172092
0.796979 -0.628467 1.426623
2.021150 -1.200502 2.177994
2.419384 -1.386608 2.601679
2.674139 -1.505708 3.307420
2.759151 -1.545422 3.252547
2.724425 -1.529245 3.715034
2.539547 -1.442865 3.701047
0.387548 -0.437570 5.272517
0.588552 -0.531493 5.368826
3.700632 -1.985549 5.661465
3.614885 -1.945490 5.695978
1.001241 -0.641485 0.857214
0.913807 -0.607243 1.051160
0.925588 -0.611891 1.360371
1.354201 -0.779936 2.285371
1.895424 -0.991989 2.022419
2.385797 -1.184174 2.332587
2.628974 -1.279524 2.934556
2.858285 -1.369418 3.307084
2.926964 -1.396308 3.089715
3.017060 -1.431684 3.807907
3.158070 -1.486972 4.129064
3.084826 -1.458285 4.265897
3.374195 -1.571734 4.858182
3.726825 -1.709995 5.675474
3.848357 -1.757671 6.211288
3.646000 -1.678373 6.167824
1.041934 -0.576514 0.915863
0.947120 -0.546216 0.932517
0.971297 -0.554001 1.536827
1.182398 -0.621499 1.891185
2.397260 -1.009823 2.730718
2.693867 -1.104621 2.822889
2.933368 -1.181202 3.250842
3.022884 -1.209804 3.196513
3.188914 -1.262916 3.737063
3.277389 -1.291185 3.681138
3.359418 -1.317454 4.230165
3.499607 -1.362281 4.492360
3.548891 -1.378058 4.770583
3.736396 -1.438026 5.239249
3.613938 -1.398879 5.113413
3.612498 -1.398508 6.017453
0.334676 -0.351138 7.495654
1.077437 -0.508753 0.939552
1.081723 -0.509838 1.070863
1.099876 -0.514422 1.496357
1.203643 -0.540401 1.621879
1.613228 -0.642928 1.958679
2.244600 -0.800981 2.548921
2.580513 -0.885081 2.977713
2.787079 -0.936782 3.077986
3.007267 -0.991902 3.285356
3.214940 -1.043880 3.380687
3.438429 -1.099889 4.239372
3.449302 -1.102616 4.305269
3.672131 -1.158443 4.992061
3.576290 -1.134410 4.472806
3.635509 -1.149309 5.302265
0.383329 -0.335623 6.792778
0.226947 -0.296508 6.975674
2.079308 -0.614306 0.003999
1.685624 -0.542630 0.074792
1.293022 -0.471169 0.323177
1.104604 -0.436908 0.810982
1.108378 -0.437608 0.943692
1.021376 -0.421797 1.257240
1.144446 -0.444251 1.738493
1.589106 -0.525280 2.423313
1.972728 -0.595117 2.288887
1.415647 -0.493806 3.573674
1.740639 -0.553000 3.778191
0.661966 -0.356775 5.666754
0.713687 -0.366217 5.919773
0.807398 -0.383320 6.351058
0.605239 -0.346511 6.349575
1.127299 -0.364918 0.685155
1.155420 -0.368269 1.465794
0.960893 -0.345605 1.550706
1.090373 -0.360741 2.032858
1.505425 -0.409138 2.251806
1.719154 -0.434065 2.422891
0.435637 -0.284569 3.514228
0.287664 -0.267360 3.918664
0.127498 -0.248719 4.205658
-0.108480 -0.221255 4.634657
0.097005 -0.245263 5.246852
0.468720 -0.288571 5.069015
0.636122 -0.308116 5.426614
0.942725 -0.343900 5.938185
0.971530 -0.347270 6.071530
0.930908 -0.342562 6.345406
1.158124 -0.291717 1.026022
1.070735 -0.287262 1.339147
0.869178 -0.276917 1.303227
1.123431 -0.290046 2.193844
1.536967 -0.311279 2.351129
1.548298 -0.311873 2.481243
1.489919 -0.308918 2.911606
1.240240 -0.296150 3.368554
0.831172 -0.275155 3.312133
0.473505 -0.256838 3.675577
0.194379 -0.242532 3.850822
0.316289 -0.248918 5.249607
0.493295 -0.257987 5.107193
0.760030 -0.271705 5.444921
0.970886 -0.282573 5.974776
0.973991 -0.282734 5.989132
1.000997 -0.284173 6.558864
1.080913 -0.218179 1.200246
0.979183 -0.219479 1.158689
0.999315 -0.219261 1.587277
1.210095 -0.216578 1.766283
1.468661 -0.213337 2.525204
1.454476 -0.213504 2.363896
1.406097 -0.214175 2.911622
1.241323 -0.216316 3.239902
0.852715 -0.221304 3.359609
0.519473 -0.225624 3.903946
0.250116 -0.229096 4.141675
0.274265 -0.228860 4.929841
0.516778 -0.225775 5.151014
0.832323 -0.221787 5.726296
1.022121 -0.219394 6.134912
1.025160 -0.219357 6.148555
0.998639 -0.219727 6.480657
2.372792 -0.050171 -0.478736
1.075087 -0.150008 0.610906
0.989013 -0.156669 1.101012
1.225253 -0.138581 1.826678
1.341757 -0.129650 2.067956
1.356274 -0.128552 2.256981
1.317913 -0.131563 2.923688
1.102932 -0.148072 2.781133
0.858264 -0.166925 3.301659
0.500953 -0.194420 3.664258
0.214043 -0.216481 3.777687
0.257650 -0.213221 4.748902
0.432362 -0.199833 5.170656
0.797161 -0.171826 5.489252
1.093031 -0.149129 5.937711
1.201954 -0.140803 6.422944
0.969919 -0.158625 6.304384
0.891842 -0.164676 6.839767
0.508104 -0.194179 6.949664
1.225038 -0.061756 1.720808
1.328336 -0.047210 1.787784
1.151749 -0.072119 2.109790
1.226629 -0.061648 2.948628
1.007285 -0.092532 2.747242
0.842214 -0.115819 3.079734
0.522317 -0.160950 3.742299
0.254334 -0.198727 3.979401
0.264163 -0.197411 4.709645
0.426447 -0.174582 5.072045
0.713805 -0.134141 5.531756
1.008583 -0.092654 5.982649
1.108333 -0.078601 5.975319
1.038399 -0.088509 6.565802
0.835013 -0.117163 6.566509
1.264751 0.024778 2.274415
1.163697 0.003863 2.238511
1.200208 0.011380 2.665756
1.055199 -0.018686 3.173653
0.836683 -0.063899 2.972776
0.622590 -0.108284 3.682015
0.333243 -0.168185 3.736141
0.181996 -0.199526 4.083446
-0.062015 -0.250071 4.448542
0.039997 -0.229015 5.078308
0.482367 -0.137468 5.325183
0.666321 -0.099381 5.241901
0.918669 -0.047219 6.012884
1.017272 -0.026807 6.005338
0.963177 -0.038025 6.218584
0.928089 -0.045357 6.932253
1.068971 0.055055 2.299788
1.070115 0.055370 2.314343
0.994981 0.034548 2.573523
0.850465 -0.005503 3.082996
0.693669 -0.048937 3.418730
0.564525 -0.084735 3.939509
0.160487 -0.196561 3.825169
-0.091434 -0.266322 4.126191
-0.207604 -0.298530 4.665664
0.024229 -0.234381 4.894358
0.479528 -0.108391 5.265187
0.773998 -0.026932 5.781759
0.945015 0.020372 6.132260
0.999824 0.035519 6.383403
0.935831 0.017790 6.538609
1.088596 0.131817 2.607616
1.089853 0.132252 2.621926
1.024856 0.109680 2.941910
0.876209 0.058091 3.334942
0.603222 -0.036590 3.445070
0.337808 -0.128650 3.617619
0.138387 -0.197874 4.283864
0.017785 -0.239745 4.759748
0.122998 -0.203264 4.819629
0.507745 -0.069893 5.390112
0.659253 -0.017381 5.686647
0.733599 0.008365 6.061144
0.866295 0.054366 6.233309
0.961132 0.087212 6.664170
0.872583 0.056500 6.702057
1.988959 0.584771 0.585261
0.948393 0.147038 2.128127
0.991167 0.164970 2.675451
0.946259 0.146034 3.173787
0.837869 0.100470 3.019387
0.637231 0.016026 3.727118
0.471098 -0.053852 3.887805
0.107496 -0.206759 3.955631
-0.231788 -0.349460 4.210491
-0.020630 -0.260746 5.013818
0.273880 -0.136908 5.098039
0.654189 0.022961 5.660829
0.679363 0.033534 5.794325
0.753013 0.064467 6.167342
0.715831 0.048803 6.442339
0.616094 0.006865 6.418069
1.944184 0.707358 0.216282
0.924190 0.200201 1.922975
0.981561 0.228635 2.708107
0.932478 0.204193 3.147334
0.816250 0.146451 2.873702
0.591707 0.034796 3.339681
0.423695 -0.048870 4.841946
0.307613 -0.106611 5.255440
0.625526 0.051378 5.515690
0.529476 0.003640 5.488276
0.631699 0.054391 6.044319
0.495013 -0.013573 6.281769
0.522216 -0.000066 6.416340
1.894828 0.832585 0.335278
0.847139 0.223713 2.307376
0.844089 0.221946 2.263384
0.776411 0.182600 2.526078
0.737757 0.160083 3.089880
0.585008 0.071319 3.308149
0.371154 -0.053045 4.454409
0.245471 -0.126099 4.807115
0.473517 0.006348 5.153398
0.556242 0.054353 5.652595
0.484835 0.012859 5.748649
0.407625 -0.032055 6.288849
0.314317 -0.086309 6.712271
1.836372 0.952270 0.088609
0.818020 0.269127 2.105528
0.834494 0.280146 2.359041
0.799635 0.256699 2.979768
0.723703 0.205768 3.065328
0.565444 0.099627 3.162437
0.378166 -0.026113 4.487885
0.374773 -0.028453 5.066896
0.615850 0.133163 5.529083
0.496054 0.052794 5.825194
0.493193 0.050823 6.284840
0.289543 -0.085726 6.100089
0.314127 -0.069306 6.686326
1.772154 1.069144 -0.143156
0.809539 0.329274 2.278514
0.835164 0.348917 2.650723
0.780935 0.307215 2.973475
0.713541 0.255418 3.118171
0.590817 0.161081 3.516087
0.416951 0.027349 4.780816
0.357262 -0.018528 4.933881
0.585582 0.156837 5.396742
0.567203 0.142670 5.792242
0.475886 0.072461 6.210883
0.302444 -0.060788 6.146788
0.270466 -0.085391 6.427286
0.699507 0.303937 2.071020
0.725641 0.326763 2.505068
0.752323 0.350075 2.878831
0.692935 0.298057 3.084035
0.576209 0.195817 3.482698
0.420268 0.059128 4.827258
0.372024 0.016865 5.042202
0.617242 0.231467 5.685239
0.500407 0.129152 5.921994
0.321594 -0.027434 6.243467
0.324267 -0.025152 6.707987
0.287074 -0.057740 6.930043
0.178238 -0.153055 7.177551
0.521180 0.191710 1.742885
0.707970 0.377713 2.582333
0.630737 0.300773 2.485239
0.647200 0.317142 2.738911
0.548148 0.218373 3.314738
0.457523 0.127909 4.573055
0.386013 0.056580 5.166584
0.465388 0.135660 5.223128
0.403765 0.074181 5.820784
0.312906 -0.016396 6.180372
0.235327 -0.093750 6.604850
0.299853 -0.029508 6.985583
0.255146 -0.074075 7.145969
0.389542 0.090920 2.075309
0.597014 0.326245 2.248013
0.625525 0.358517 2.741720
0.622611 0.355218 2.695593
0.529550 0.249572 3.271200
0.497636 0.213122 5.012910
0.383582 0.083718 5.183429
0.576633 0.302645 5.642989
0.473483 0.185601 5.877852
0.317340 0.008367 6.660138
0.236283 -0.083570 6.574721
0.242005 -0.077145 7.040586
-0.140074 -0.559646 1.062045
-0.138402 -0.557499 1.139776
0.055444 -0.307320 1.515270
0.454142 0.207240 2.286748
0.653584 0.464655 2.576498
0.657766 0.470043 2.650711
0.604682 0.401494 2.794394
0.511227 0.280784 3.250722
0.322269 0.036553 5.245919
0.532560 0.307986 5.447060
0.398912 0.135394 5.883353
0.304690 0.013727 6.122011
0.288321 -0.007457 6.463542
0.188181 -0.136754 6.644721
0.153720 -0.181335 7.259189
1.400365 1.655089 0.052967
1.345010 1.573261 0.351514
-0.105077 -0.569083 1.001909
-0.158405 -0.647889 1.146108
0.076860 -0.300402 1.580049
0.423091 0.211043 1.866351
0.560891 0.414517 2.468835
0.561608 0.415574 2.483598
0.525527 0.362206 2.868062
0.479118 0.293366 4.547230
0.398238 0.173822 4.897371
0.546511 0.392810 5.238148
0.482722 0.298416 6.182760
0.273132 -0.011241 6.344239
0.038430 -0.393371 1.277397
-0.111405 -0.649126 1.367557
0.480470 0.360894 2.433211
0.536764 0.456954 2.559043
0.501627 0.396923 2.883094
0.468426 0.340195 3.209055
0.368788 0.170124 3.245910
0.570782 0.514522 5.233342
0.645025 0.641198 5.467599
0.448093 0.305055 5.559497
0.317542 0.082095 6.277264
0.334325 0.110632 6.862589
0.230397 -0.066753 6.863295
-0.074846 -0.664718 1.087485
-0.152945 -0.820007 1.679501
0.456111 0.389902 2.422156
0.454387 0.386486 2.376283
0.486233 0.449603 3.112458
0.436395 0.350606 3.017110
0.331613 0.142303 3.611204
0.918125 1.307315 4.868255
0.821169 1.114585 5.344975
0.640729 0.756083 5.376692
0.437464 0.352179 5.667438
0.347748 0.173733 6.628964
0.274814 0.028790 6.811483
0.165545 -0.188361 7.081178
-0.066511 -0.748288 1.411828
-0.097538 -0.821232 1.810274
0.419422 0.392483 2.063245
0.443908 0.449797 2.799939
0.442149 0.445679 2.753888
0.432070 0.421850 3.440837
0.307564 0.129554 3.308549
0.761126 1.194078 4.976363
0.260973 0.019354 6.688502
0.189156 -0.149389 7.203410
0.400048 0.438801 2.340051
0.445952 0.569437 2.766771
0.415445 0.482514 2.851620
0.382987 0.390053 2.876653
0.345217 0.282250 3.640123
0.784157 1.532338 4.413984
0.691750 1.268917 5.135904
0.290517 0.125587 6.654185
0.177401 -0.196703 6.946282
0.805221 2.013426 0.254821
0.778098 1.916737 0.041010
-0.075334 -1.128492 1.578679
0.369059 0.456689 2.249689
0.373363 0.471974 2.444502
0.382704 0.505169 2.819673
0.386387 0.518262 2.954014
0.342084 0.360090 3.291358
0.733226 1.755179 4.288668
0.373004 0.469341 6.339055
0.251319 0.034980 7.037957
-0.026412 -1.243790 1.239076
0.291811 0.257602 1.878412
0.340748 0.488317 2.362167
0.342045 0.494401 2.436740
0.347991 0.522319 2.752008
0.338257 0.476158 3.258490
0.289359 0.245169 3.793834
0.697281 2.169712 4.731312
0.401919 0.775432 5.786597
0.040692 -1.337222 1.355747
0.306110 0.494104 2.165188
0.311321 0.529789 2.600645
0.311504 0.531039 2.614515
0.304416 0.481794 3.120284
0.282249 0.328539 3.520083
0.368019 0.918965 5.872850
0.324284 0.616809 6.346997
0.275870 0.539632 2.498126
0.275969 0.540859 2.512236
0.276943 0.552922 2.646720
0.271029 0.478404 2.911538
0.258527 0.321064 3.310394
0.300827 0.849340 5.422961
0.262336 2.055087 0.504532
0.261018 1.963548 0.877532
0.259856 1.881933 1.352844
0.255309 1.575137 1.207065
0.246183 0.950038 2.408049
0.240570 0.568773 2.636848
0.240591 0.570097 2.651186
0.239512 0.495419 2.916252
0.237004 0.323917 3.193978
0.273161 2.761167 4.674364
0.120001 2.563703 0.249770
0.119985 2.564208 0.318709
0.137206 2.171397 0.732474
0.149944 1.880823 1.040008
0.162283 1.599655 1.470188
0.206544 0.590450 2.728510
0.206237 0.597631 2.802759
0.207693 0.565672 3.429547
0.217515 0.340690 3.225044
0.106771 2.875678 4.683993
0.111126 2.777287 5.232128
-0.063007 2.668240 0.509063
-0.085924 2.874851 0.849848
-0.042906 2.487823 1.155054
0.002074 2.082702 0.957254
0.044362 1.702351 1.388337
0.166179 0.606802 2.768926
0.165381 0.614055 2.843164
0.175543 0.522634 2.927565
0.189773 0.395064 3.569101
-0.097336 2.980859 4.703060
-0.063901 2.679858 4.714479
-0.209089 2.557674 0.185194
-0.260650 2.854473 0.362677
-0.025766 1.503411 1.363539
0.124015 0.642428 3.033835
0.134998 0.579406 3.359916
0.147945 0.505014 3.567081
-0.245475 2.769523 4.706169
-0.284048 2.155151 -0.454177
-0.306191 2.246692 0.127077
-0.264541 2.075370 1.208861
-0.155195 1.624721 1.882029
0.093652 0.598778 2.498126
0.086772 0.627274 2.814035
0.095980 0.589527 3.381560
-0.465411 2.905227 5.027928
0.194954 0.182719 6.737471
0.301808 -0.257821 6.991417
-0.508091 2.413601 0.130347
-0.538388 2.511069 0.423859
-0.420790 2.133185 0.670450
-0.305668 1.763317 1.097104
-0.248603 1.579971 1.293578
-0.232492 1.528432 2.068958
0.048613 0.625172 2.745664
-0.034226 0.891640 3.456393
-0.036945 0.900404 3.530116
-0.469091 2.289806 5.047773
0.284815 -0.132639 7.022291
-0.666402 2.375712 0.315415
-0.702582 2.469675 0.384592
-0.559801 2.098978 0.573641
-0.459952 1.839895 1.281871
-0.387461 1.651655 1.247565
-0.361831 1.585245 1.787928
-0.104783 0.918069 2.851523
-0.254957 1.308050 3.001708
-0.265030 1.334270 3.250472
-0.705777 2.479237 5.239514
-0.636321 2.298901 5.292985
0.312141 -0.163493 6.799432
-0.855202 2.420398 0.321763
-0.900902 2.520131 0.835166
-0.658488 1.991824 1.335738
-0.487979 1.620101 1.137903
-0.497535 1.641038 1.614081
-0.357381 1.335725 2.499561
-0.325625 1.266562 2.757503
-0.421921 1.476534 3.042852
0.207247 0.105871 6.656235
0.355970 -0.218269 6.886773
-0.687221 1.760749 1.128925
-0.601608 1.602304 1.555230
-0.657752 1.706324 1.851320
-0.537472 1.483724 2.466285
-0.515474 1.443098 3.013112
-0.607706 1.613870 2.947853
-0.617600 1.632227 3.135072
-0.216743 0.890326 4.963148
-0.103986 0.681607 5.331005
-0.045947 0.574219 5.745395
0.160980 0.191127 6.105774
0.292618 -0.052509 6.700422
0.422797 -0.293530 6.846317
-0.945251 1.951560 -0.054939
-1.059788 2.135176 1.029106
-0.589752 1.382503 1.350811
-0.677424 1.523078 2.344492
-0.822090 1.754688 1.989786
-0.834442 1.774522 2.289660
-0.851518 1.801931 2.646361
-0.828919 1.765836 3.185304
-0.777184 1.682991 3.210908
-0.148223 0.676130 5.346007
-0.142070 0.666356 5.800187
-0.905455 1.661178 1.174387
-0.568241 1.190880 1.623939
-1.057327 1.873181 2.174998
-1.066279 1.885699 2.359416
-1.031036 1.836606 2.780631
-1.016142 1.815936 3.432102
-0.910338 1.668377 3.586456
-0.117755 0.563088 5.218371
-0.038473 0.452556 5.571770
0.109941 0.245579 5.827190
0.339777 -0.074925 6.376114
0.540845 -0.355342 6.665036
-0.396462 0.848962 1.784601
-1.250191 1.889429 2.353396
-1.320537 1.975172 2.470686
-1.216353 1.848265 2.842506
-1.170125 1.791968 3.093819
-1.090981 1.695609 3.701707
-0.155292 0.555573 5.227789
-0.084424 0.469281 5.702559
0.138450 0.197721 5.979914
0.377836 -0.093912 6.594600
0.542905 -0.295041 6.801232
-0.586701 0.967159 1.768087
-1.508932 1.953455 2.387288
-1.412420 1.850328 2.982435
-1.286525 1.715720 3.131302
-1.207337 1.631129 3.795960
-0.320833 0.683310 5.156667
-0.227419 0.583464 5.507935
0.610680 -0.312585 6.927827
0.613540 -0.258521 1.180445
0.603170 -0.248726 1.509265
-1.575734 1.800571 2.646904
-1.504212 1.733311 2.670200
-1.445479 1.678100 2.863519
-1.325040 1.564874 3.183399
-0.235104 0.540116 5.298877
-0.172923 0.481714 5.895322
0.128592 0.198151 5.869270
0.435154 -0.090101 6.296330
0.726641 -0.364166 6.796887
0.704823 -0.281268 1.221863
1.001472 -0.526260 1.572195
-1.524722 1.560509 2.531319
-1.669162 1.679914 3.325031
-1.588558 1.613330 3.294627
-1.431442 1.483550 3.275973
-0.320355 0.566072 5.638763
-0.162100 0.435352 5.632331
0.194456 0.140862 5.868225
0.529637 -0.135899 6.693078
0.804701 -0.363075 6.924800
0.802607 -0.295042 1.210692
-1.637432 1.473128 2.745383
-1.728706 1.539277 2.861951
-1.669899 1.496695 3.112871
-1.538564 1.401571 3.434770
-0.284187 0.492942 5.707482
-1.363712 1.134207 2.430089
-1.734240 1.367862 2.805785
-1.745747 1.375131 2.933178
-1.637129 1.306715 3.538788
-1.413789 1.165934 3.822414
-1.215723 1.041107 4.285229
-0.809854 0.785230 4.451632
-0.463533 0.566943 5.026137
-0.317902 0.475144 5.197178
-0.704665 0.646938 2.084506
-1.305594 0.973492 2.982324
-1.650861 1.161051 2.895195
-1.652099 1.161725 2.908343
-1.639076 1.154726 3.618333
-1.509408 1.084324 4.003010
-1.265814 0.952009 4.176498
-0.754232 0.603373 2.211408
-1.255099 0.834386 2.769383
-1.623075 1.004068 2.800447
-1.677380 1.029163 3.329151
-1.685394 1.032866 3.399923
-1.520239 0.956727 3.553778
-0.421241 0.450161 5.454348
-0.178113 0.338071 5.647619
-0.163228 0.331297 6.523323
-0.387874 0.434946 7.119513
-0.811884 0.562910 2.485698
-1.308556 0.755048 2.805741
-1.524465 0.838588 3.088450
-1.624810 0.877406 3.149001
-1.580428 0.860282 3.578052
-1.489744 0.825210 3.605576
-1.236455 0.727264 3.834691
-0.467789 0.430127 5.558449
-0.218903 0.333881 5.753442
-0.450305 0.423451 6.427472
-0.570394 0.469912 6.539943
-0.432346 0.416541 6.781516
-0.751538 0.540092 7.698959
-0.934768 0.536909 2.393577
-1.330948 0.661365 2.548858
-1.585509 0.741384 3.179658
-1.580707 0.739872 3.136198
-1.542370 0.727878 3.624297
-1.393697 0.681212 3.955659
-1.137444 0.600746 4.189231
-0.804579 0.496285 5.128056
-0.421335 0.375910 5.155254
-0.644370 0.446121 6.736775
-0.611657 0.435873 7.014819
-0.581622 0.426466 7.294066
-0.554285 0.417907 7.574487
-0.942147 0.469640 2.064278
-1.053144 0.496837 2.248180
-1.323787 0.563186 3.064326
-1.565273 0.622356 3.461162
-1.546080 0.617641 3.301739
-1.390782 0.579646 3.630951
-1.395764 0.580935 4.357612
-1.066004 0.500167 4.124907
-0.735452 0.419323 5.125017
-0.451478 0.349795 5.193881
-0.259264 0.302782 5.749647
-0.486622 0.358513 6.362576
-0.680483 0.406022 6.774140
-0.647491 0.397970 7.051997
-0.774887 0.429175 7.161051
-0.745716 0.422059 7.439360
-0.861700 0.450501 7.870253
-0.964486 0.412352 2.010175
-1.183830 0.452502 2.304000
-1.336775 0.480534 2.894294
-1.509723 0.512231 3.536740
-1.482863 0.507297 3.318731
-1.438742 0.499268 3.752269
-1.295606 0.473123 4.144729
-1.032953 0.425102 4.381072
-0.728083 0.369390 4.951093
-0.409145 0.311093 5.398609
-0.157270 0.265045 5.652872
-0.549097 0.336802 6.548233
-0.704553 0.365260 6.779277
-0.826677 0.387645 7.269182
-0.971773 0.414201 7.434174
-0.912128 0.403306 7.591736
-0.842663 0.390646 8.074887
-1.000681 0.350495 2.168532
-1.245391 0.379113 2.695901
-1.474180 0.405850 2.981779
-1.495135 0.408314 3.170396
-1.463668 0.404692 3.720243
-1.367191 0.393432 3.748077
-1.258709 0.380827 4.376585
-0.939111 0.343505 4.260548
-0.802037 0.327540 4.663541
-0.573159 0.300860 5.088892
-0.606837 0.304902 6.263542
-0.861338 0.334675 6.911114
-0.946300 0.344587 6.840786
-0.943651 0.344315 7.234484
-0.996207 0.350504 7.807192
-0.617820 0.306342 7.929923
-1.034571 0.280474 2.318964
-1.365558 0.295899 2.658663
-1.477718 0.301127 2.778928
-1.516596 0.302969 3.141126
-1.468819 0.300787 3.573674
-1.454260 0.300167 4.183477
-1.241135 0.290249 4.110152
-1.042004 0.281049 4.760653
-0.817296 0.270586 4.629777
