-1.806201 -4.484657 7.050081
-2.592004 -4.952267 0.755177
-2.580748 -4.933423 1.511010
-2.543288 -4.870220 1.987406
-2.542426 -4.868921 2.649183
-2.536233 -4.858672 3.557334
-2.519903 -4.831207 4.130031
-2.502788 -4.802397 4.624679
-2.486405 -4.774852 5.241181
-2.502937 -4.803013 6.145907
-2.465756 -4.740325 6.800942
-3.289828 -4.962111 0.009213
-3.282341 -4.952102 0.825178
-3.285767 -4.956919 1.597986
-3.251390 -4.910255 1.900659
-3.248389 -4.906368 2.828895
-3.213028 -4.858392 3.251863
-3.196550 -4.836127 3.897181
-3.209178 -4.853476 4.791529
-3.209945 -4.854681 5.577633
-3.193235 -4.832052 5.983023
-3.189101 -4.826633 6.956927
-4.039999 -5.086023 0.973566
-4.016426 -5.059000 1.337745
-4.018687 -5.061767 2.246790
-3.987204 -5.025703 2.876827
-3.926170 -4.955620 3.209259
-3.959357 -4.993921 4.072456
-3.925273 -4.954817 4.432366
-3.972856 -5.009678 5.379044
-3.993335 -5.033325 5.971538
-3.958734 -4.993653 6.476308
-5.215408 -5.427325 -0.036633
-4.934831 -5.157192 0.732473
-4.932518 -5.155067 1.341407
-4.923693 -5.146680 2.011550
-4.905240 -5.129014 2.651272
-4.878469 -5.103295 3.055968
-4.907362 -5.131295 4.046122
-4.920237 -5.143807 4.699158
-4.924127 -5.147640 5.201214
-4.900762 -5.125223 5.730377
-4.949995 -5.172790 6.578012
-5.588282 -4.854414 -0.187172
-5.516306 -4.796817 0.627145
-5.515930 -4.796627 1.341805
-5.486106 -4.772746 1.579567
-5.493993 -4.779210 2.465689
-5.439350 -4.735440 2.811034
-5.426682 -4.725405 3.605285
-5.460834 -4.752935 4.499642
-5.478913 -4.767533 5.125572
-5.460900 -4.753156 5.571974
-5.469901 -4.760506 6.408779
-5.235240 -4.572350 6.676294
-5.541066 -4.090057 0.696433
-5.557039 -4.100920 1.266623
-5.567656 -4.108188 1.965471
-5.555628 -4.100186 2.745374
-5.549399 -4.096047 3.184182
-5.512192 -4.071012 3.680768
-5.473687 -4.045118 4.293880
-5.490581 -4.056659 5.243060
-5.445975 -4.026618 5.657475
-5.394904 -3.992244 6.263566
-5.661542 -3.400699 0.239431
-5.651225 -3.395194 0.892914
-5.678766 -3.410231 1.631582
-5.671942 -3.406623 2.287332
-5.648295 -3.393916 3.120833
-5.602701 -3.369255 3.570274
-5.585882 -3.360225 4.219961
-5.546988 -3.339236 4.948649
-5.498423 -3.312982 5.525990
-5.700380 -2.830735 0.778658
-5.724310 -2.841377 1.470827
-5.741483 -2.849045 2.198595
-5.693896 -2.828146 2.794904
-5.654018 -2.810643 3.367914
-5.647257 -2.807766 4.142883
-5.599973 -2.786992 4.672342
-5.582128 -2.779215 5.343650
-5.584893 -2.780530 6.061186
-5.521631 -2.752746 6.845754
-5.813296 -2.277452 0.912355
-5.833015 -2.284204 1.442185
-5.782501 -2.267135 1.845970
-5.719676 -2.245945 2.656073
-5.715337 -2.244568 3.386760
-5.716134 -2.244922 4.031901
-5.666658 -2.228222 4.572267
-5.669472 -2.229301 5.538929
-5.625793 -2.214570 6.116495
-5.581547 -2.199641 6.644772
-5.868950 -1.716824 0.785385
-5.827347 -1.706877 1.600224
-5.883566 -1.720525 2.139810
-5.786420 -1.697101 2.480954
-5.718952 -1.680914 3.353018
-5.695934 -1.675411 3.808707
-5.761152 -1.691275 4.682946
-5.747792 -1.688155 5.538690
-5.711200 -1.679394 6.161765
-5.779631 -1.696014 6.877528
-5.840845 -1.167836 0.359902
-5.857794 -1.170459 1.061083
-5.865183 -1.171651 1.763151
-5.777175 -1.158552 2.315237
-5.729606 -1.151544 3.196519
-5.769560 -1.157620 3.993486
-5.716173 -1.149677 4.349503
-5.734141 -1.152464 5.147405
-5.683135 -1.144905 5.736093
-5.734323 -1.152677 6.657914
-5.901721 -0.639923 0.632202
-5.925157 -0.641395 1.342524
-5.921018 -0.641201 1.755813
-5.840707 -0.636538 2.422567
-5.801683 -0.634318 3.117333
-5.837899 -0.636553 3.896817
-5.818127 -0.635460 4.507868
-5.774059 -0.632923 5.054547
-5.819383 -0.635705 5.907649
-5.778220 -0.633344 6.481893
-5.958730 -0.104149 0.552761
-5.950270 -0.104485 1.132115
-5.952742 -0.104480 1.720744
-5.916249 -0.105735 2.631351
-5.895583 -0.106454 3.217824
-5.876195 -0.107124 3.726831
-5.844821 -0.108175 4.275741
-5.835091 -0.108576 5.068224
-5.864478 -0.107765 5.969201
-5.835235 -0.108759 6.596329
-5.942663 0.423826 0.447568
-5.934849 0.422803 1.097041
-5.951504 0.424708 1.939888
-5.907551 0.419315 2.692788
-5.897346 0.418001 3.367101
-5.924702 0.421219 4.031081
-5.911416 0.419538 4.667621
-5.889108 0.416766 5.327900
-5.826691 0.409176 5.837277
-5.788040 0.404442 6.429049
-6.076228 1.032034 0.723069
-6.073945 1.031454 1.368553
-6.054052 1.027031 1.920218
-6.003122 1.015803 2.581763
-5.968511 1.008173 3.025261
-6.021783 1.019714 3.965293
-5.962935 1.006797 4.275232
-5.979825 1.010374 5.229053
-5.896960 0.992191 5.621856
-5.916431 0.996355 6.398322
-6.071840 1.553389 0.876854
-6.132744 1.571972 1.256683
-6.155538 1.578833 2.132915
-6.133674 1.572061 2.788492
-6.051530 1.546879 3.199595
-6.026049 1.539000 3.854004
-5.964933 1.520220 4.509223
-5.884971 1.495680 5.120175
-5.999257 1.530520 6.079344
-6.036098 1.541702 6.769035
-6.185837 2.206936 0.893682
-6.191404 2.209108 1.625692
-6.186584 2.207052 2.316874
-6.176285 2.202793 2.785496
-6.167469 2.199085 3.656341
-6.112158 2.176475 4.180226
-6.092031 2.168178 4.896890
-6.078404 2.162536 5.564801
-6.110189 2.175378 6.407926
-5.865162 2.075432 7.080694
-6.199732 2.865996 0.322464
-6.225568 2.879164 1.328417
-6.219946 2.876218 1.696101
-6.221477 2.876903 2.449488
-6.213906 2.872905 3.172330
-6.200534 2.865944 3.709337
-6.162973 2.846536 4.165822
-6.183511 2.856999 5.000087
-6.147703 2.838468 5.648931
-6.405051 3.711128 0.080735
-6.302124 3.645917 0.392385
-6.326733 3.661361 1.341805
-6.333758 3.665722 1.939345
-6.285902 3.635385 2.205048
-6.240706 3.606688 2.768911
-6.274086 3.627669 3.821198
-6.253982 3.614859 4.390199
-6.226699 3.597520 4.843336
-6.214549 3.589732 5.505088
-6.240872 3.606298 6.198298
-6.145487 3.545810 6.866670
-5.910373 4.164726 0.359468
-5.891011 4.149745 1.253727
-5.857091 4.123647 1.864776
-5.879667 4.140844 2.583509
-5.839782 4.110224 2.860232
-5.814869 4.090992 3.727010
-5.790851 4.072496 4.264315
-5.808803 4.086158 4.918239
-5.785315 4.068042 5.628863
-5.750073 4.040938 6.190760
-5.587869 3.916458 7.026077
-5.044410 4.220368 1.160240
-5.021865 4.199674 1.584012
-5.014112 4.192477 2.215475
-4.995567 4.175412 2.824476
-4.976724 4.158055 3.550145
-4.968795 4.150714 4.076744
-4.936550 4.121119 4.663814
-4.929759 4.114786 5.392086
-4.915613 4.101747 5.984871
-4.843901 4.036018 6.761960
-4.302022 4.295552 0.183550
-4.294739 4.287416 0.909043
-4.299157 4.292137 1.652633
-4.280347 4.271399 2.022621
-4.284516 4.275798 3.025261
-4.270110 4.259874 3.540196
-4.256324 4.244572 4.378247
-4.227941 4.213279 4.948236
-4.198217 4.180523 5.450796
-3.678442 4.363398 0.380958
-3.688814 4.376918 1.069922
-3.676952 4.361163 1.734691
-3.672947 4.355756 2.391907
-3.638830 4.310722 2.913316
-3.621088 4.287218 3.605532
-3.608702 4.270775 4.255969
-3.612033 4.274981 5.151911
-3.585783 4.240283 5.789233
-3.568110 4.216904 6.309675
-3.093689 4.380763 0.680568
-3.103611 4.396433 1.260790
-3.086631 4.369298 1.647036
-3.059600 4.326067 2.413330
-3.066236 4.336472 3.133260
-3.052603 4.314648 3.606320
-3.072114 4.345481 4.674675
-3.045980 4.303775 5.020549
-3.029949 4.278072 5.752833
-3.061842 4.328648 6.725589
-2.583711 4.435613 1.297967
-2.569223 4.407042 1.678167
-2.568841 4.406086 2.437462
-2.571995 4.412106 3.098750
-2.553936 4.376464 3.676457
-2.543901 4.356478 4.678052
-2.511692 4.293087 5.048494
-2.513138 4.295719 5.827962
-2.527078 4.322888 6.655106
-2.106509 4.453674 1.125351
-2.137573 4.530606 1.827897
-2.139120 4.534192 2.607523
-2.087959 4.406969 3.047809
-2.071649 4.366274 3.602054
-2.079188 4.384684 4.566975
-2.066364 4.352628 5.184202
-2.073739 4.370666 6.040201
-2.043791 4.296154 6.422357
-1.687376 4.579099 -0.123861
-1.666766 4.510667 0.411802
-1.654496 4.469618 1.468154
-1.658360 4.482293 1.731767
-1.659150 4.484571 2.525755
-1.656278 4.474657 3.498481
-1.647487 4.445308 4.101188
-1.639291 4.417884 4.818949
-1.620894 4.356828 5.229764
-1.632386 4.394454 6.190353
-1.595278 4.271379 6.832120
-1.243830 4.590654 0.166989
-1.235682 4.550807 0.750211
-1.226142 4.504099 1.509255
-1.230042 4.522551 2.258268
-1.231352 4.528653 2.670237
-1.223996 4.492434 3.593915
-1.215613 4.451375 4.293411
-1.205686 4.403022 4.672493
-1.208377 4.415616 5.419221
-1.218260 4.462933 6.400620
-0.817307 4.559535 0.259184
-0.818345 4.568032 0.752066
-0.819223 4.574758 1.601687
-0.814742 4.535170 2.199551
-0.812877 4.518177 2.936474
-0.812752 4.516308 3.666083
-0.812506 4.513527 4.269224
-0.810057 4.491633 4.840703
-0.813027 4.516441 5.784101
-0.807347 4.466622 6.208844
-0.401871 4.614019 0.177027
-0.402388 4.631184 1.025818
-0.402201 4.621427 1.419178
-0.401546 4.590243 2.199551
-0.401266 4.574799 2.954754
-0.401450 4.578479 3.730058
-0.400298 4.528502 4.153489
-0.399426 4.488995 4.792984
-0.400939 4.546817 5.788407
-0.400864 4.540385 6.442312
0.006601 4.657537 0.295420
0.005853 4.647160 0.980197
0.003701 4.614377 1.429427
0.001068 4.574448 2.073242
0.001349 4.580271 2.817639
0.000607 4.569955 3.492368
0.000638 4.572085 4.354754
0.000562 4.572263 5.063913
0.000992 4.580544 5.879855
-0.002403 4.528250 6.286714
0.436678 4.708345 1.168995
0.433288 4.687000 1.781371
0.429922 4.665957 2.579109
0.423671 4.626015 2.986752
0.420284 4.604813 3.754630
0.420569 4.607300 4.570698
0.423006 4.623619 5.352345
0.420658 4.608901 5.861980
0.413941 4.566212 6.579488
0.885119 4.824541 -0.024231
0.862261 4.731683 0.466282
0.854569 4.700704 1.148955
0.857301 4.712223 1.913505
0.866211 4.748957 2.777994
0.853091 4.695770 3.268644
0.849419 4.681205 4.034431
0.835728 4.625709 4.560388
0.841497 4.649711 5.544706
0.838345 4.637200 6.185746
0.800074 4.481563 6.671597
1.340023 4.798226 0.282782
1.342487 4.805570 0.725350
1.342129 4.804788 1.421623
1.328804 4.766213 2.049259
1.320573 4.742495 2.724207
1.327054 4.761647 3.461738
1.330812 4.772874 4.202939
1.320379 4.742740 4.880452
1.311981 4.718576 5.664749
1.309028 4.710220 6.312162
1.858603 4.890117 0.280077
1.876769 4.931179 1.121643
1.865587 4.906213 1.634369
1.837872 4.844113 2.169566
1.839391 4.847815 3.127479
1.824825 4.815208 3.512430
1.841273 4.852440 4.455754
1.831839 4.831409 4.990980
1.817891 4.800292 5.707365
1.818119 4.801010 6.395598
2.482378 5.055428 0.373160
2.473502 5.039579 0.727958
2.440037 4.979694 1.565504
2.451225 4.999978 2.339293
2.454275 5.005625 3.008913
2.435440 4.971951 3.605093
2.385071 4.881599 4.005326
2.400246 4.909087 4.954271
2.415336 4.936350 5.607015
3.133733 5.119456 1.165255
3.129822 5.113801 1.569119
3.124047 5.105459 2.220255
3.125713 5.108048 2.872468
3.117028 5.095421 3.466949
3.086640 5.050918 4.069357
3.118289 5.097604 4.992049
3.111080 5.087163 5.670052
3.978484 5.303296 1.226948
3.981354 5.306904 1.811828
3.964699 5.286691 2.175692
3.971887 5.295636 3.169829
3.917317 5.229251 3.535840
3.944731 5.262813 4.457447
3.941345 5.258780 4.924361
3.896407 5.204149 5.413807
5.015183 5.511960 -0.036538
4.985000 5.481390 0.583013
4.985782 5.482318 1.353946
4.959990 5.456150 1.616107
4.934058 5.429894 2.207907
4.947823 5.444025 3.009088
4.950769 5.447144 3.721716
4.962744 5.459436 4.410626
4.972252 5.469226 5.138287
4.931398 5.427769 5.528803
4.909567 5.405691 6.161599
4.813350 5.308052 7.063841
5.653525 5.203334 0.560523
5.645028 5.196166 1.042469
5.633313 5.186291 1.758762
5.609264 5.165881 2.378754
5.616331 5.172013 3.031491
5.618058 5.173563 3.510531
5.604169 5.161821 4.154866
5.633921 5.187340 5.067352
5.612209 5.168914 5.620854
5.532744 5.101209 6.003617
5.472402 5.049847 6.603826
5.806359 4.473270 0.316100
5.795753 4.465833 0.870640
5.776365 4.452182 1.511015
5.770864 4.448385 2.203204
5.770275 4.448057 2.795652
5.706823 4.403138 3.270988
5.673914 4.379912 3.985626
5.700173 4.398643 4.738306
5.714620 4.408972 5.306573
5.714945 4.409305 5.994754
5.701885 4.400145 6.657049
5.887575 3.772293 0.889109
5.856025 3.753934 1.255979
5.862734 3.757989 2.244156
5.820375 3.733318 2.573060
5.806888 3.725570 3.433659
5.835594 3.742416 4.111690
5.804127 3.724119 4.567988
5.747951 3.691417 5.119516
5.845641 3.748568 6.154612
5.768330 3.703499 6.465493
6.001398 3.131654 0.947353
5.993318 3.127925 1.358548
5.991281 3.127081 2.173545
5.969073 3.116765 2.795353
5.961528 3.113320 3.453217
5.917874 3.092935 3.893246
5.945327 3.105918 4.823829
5.911288 3.090030 5.216784
5.933034 3.100344 6.177936
5.849612 3.061333 6.599172
6.112046 2.534295 0.857800
6.077955 2.522002 1.746054
6.096346 2.528781 2.400902
6.059145 2.515294 2.819905
6.021270 2.501585 3.415286
6.024662 2.502905 4.070236
6.007839 2.496858 4.661331
6.000187 2.494205 5.681121
5.972620 2.484237 6.195993
5.807984 2.424391 6.827951
6.195192 1.943358 0.895986
6.218253 1.949547 1.490580
6.212714 1.948171 2.217285
6.140245 1.929035 2.831332
6.169422 1.936868 3.604764
6.180169 1.939804 4.287079
6.070722 1.910842 4.726852
6.124078 1.925107 5.668642
6.079144 1.913248 6.098129
5.866056 1.856853 6.885906
6.279999 1.420965 0.750735
6.308475 1.426163 1.510311
6.290202 1.422955 2.048292
6.283676 1.421891 2.900411
6.214291 1.409549 3.659589
6.184126 1.404188 4.023732
6.239532 1.414232 4.943123
6.191470 1.405677 5.413501
6.245376 1.415443 6.253808
6.020780 1.375280 6.990426
6.368269 0.854383 1.114285
6.308451 0.849143 1.463389
6.297318 0.848241 2.124257
6.327841 0.851021 2.818603
6.371555 0.854965 3.495383
6.344995 0.852717 4.288683
6.257458 0.845060 4.894175
6.232094 0.842912 5.647567
6.197266 0.839897 6.139374
6.440318 0.283752 1.009757
6.388735 0.283876 1.557303
6.379517 0.283966 2.217684
6.373022 0.284039 2.758049
6.444376 0.284074 3.685350
6.435828 0.284148 4.212801
6.369530 0.284313 4.964337
6.280836 0.284475 5.495701
6.483227 -0.303246 0.809779
6.531890 -0.307637 1.437698
6.512740 -0.305811 1.982984
6.513859 -0.305831 2.658588
6.479600 -0.302632 3.096439
6.454020 -0.300200 3.771654
6.459012 -0.300562 4.561531
6.457680 -0.300343 5.349074
6.423114 -0.297106 5.863232
6.395131 -0.294474 6.371130
6.630641 -0.922134 0.949800
6.651289 -0.925862 1.463557
6.638495 -0.923434 2.091500
6.658356 -0.926976 2.943143
6.636828 -0.922959 3.456011
6.635112 -0.922545 4.247767
6.631411 -0.921784 4.904784
6.630781 -0.921576 5.645282
6.585665 -0.913220 6.204856
6.428500 -0.884268 6.902956
6.692355 -1.601355 0.406972
6.663467 -1.593045 1.140945
6.685330 -1.599150 2.036872
6.693884 -1.601526 2.490046
6.704505 -1.604463 3.150141
6.734727 -1.612969 3.861921
6.662114 -1.592266 4.244356
6.697109 -1.602087 5.294279
6.683112 -1.598027 5.912712
6.694869 -1.601284 6.601774
6.860499 -2.291195 0.519423
6.877321 -2.297495 1.133799
6.864161 -2.292411 1.843247
6.840577 -2.283418 2.208735
6.831163 -2.279749 2.965080
6.821760 -2.276076 3.776891
6.790893 -2.264301 4.287681
6.775053 -2.258241 4.686908
6.799639 -2.267466 5.454479
6.793291 -2.264992 5.962213
6.705325 -2.231510 6.855206
7.070836 -3.116889 -0.243975
6.939204 -3.052756 0.421123
6.933051 -3.049672 1.087768
6.921136 -3.043838 1.363625
6.928942 -3.047555 1.956323
6.938002 -3.051859 2.717882
6.946229 -3.055752 3.524697
6.958734 -3.061742 4.216532
6.955880 -3.060266 4.863675
6.910953 -3.038346 5.317445
6.933640 -3.049292 5.993867
6.929776 -3.047332 6.585541
6.725540 -3.702170 -0.202767
6.685503 -3.678028 0.387071
6.675019 -3.671652 0.919617
6.697592 -3.685128 1.534546
6.690310 -3.680615 2.503400
6.719712 -3.698192 3.128559
6.677910 -3.673009 3.588275
6.688519 -3.679264 4.432676
6.671032 -3.668705 4.793175
6.668137 -3.666862 5.512788
6.673954 -3.670259 6.201851
6.532259 -3.585023 6.857087
5.797117 -3.901297 0.719416
5.754518 -3.869882 1.342049
5.718010 -3.842957 1.890501
5.748704 -3.865398 2.717618
5.766002 -3.878044 3.195980
5.759269 -3.873005 3.782317
5.746624 -3.863585 4.589818
5.727188 -3.849198 5.230487
5.720061 -3.843879 5.750160
5.765521 -3.877183 6.543613
5.080499 -4.069861 0.576475
5.058799 -4.050716 1.250398
5.053848 -4.046244 2.046618
5.051943 -4.044522 2.358945
5.015945 -4.012805 3.216256
5.011613 -4.008905 3.829539
5.006988 -4.004734 4.534215
4.969955 -3.972166 5.037519
4.961164 -3.964346 5.708001
4.998081 -3.996584 6.606051
4.372890 -4.098557 0.902591
4.363545 -4.088848 1.227546
4.371725 -4.097172 1.938323
4.380940 -4.106543 2.773906
4.340259 -4.064448 3.212737
4.328803 -4.052485 3.952127
4.294211 -4.016656 4.521927
4.279558 -4.001401 5.208969
4.318431 -4.041420 5.959986
4.243127 -3.963533 6.574971
3.770722 -4.216214 0.328572
3.779866 -4.227436 0.974402
3.766331 -4.210510 1.640131
3.762616 -4.205764 2.333742
3.726633 -4.161006 2.855830
3.701324 -4.129479 3.460256
3.722872 -4.156047 4.356856
3.711005 -4.141178 5.084894
3.689519 -4.114405 5.638263
3.697982 -4.124787 6.260470
3.186982 -4.291022 0.940251
3.193601 -4.300842 1.781008
3.187515 -4.291509 2.373815
3.188003 -4.292056 3.238043
3.157585 -4.245977 3.660015
3.150231 -4.234662 4.544018
3.131426 -4.206133 4.997501
3.128963 -4.202245 5.734908
3.105541 -4.166704 6.327317
2.708970 -4.394043 0.622301
2.693940 -4.366120 1.226031
2.686728 -4.352617 1.921125
2.679396 -4.338941 2.428461
2.665115 -4.312418 2.966035
2.646373 -4.277580 3.790357
2.641407 -4.268223 4.497667
2.638839 -4.263272 5.301325
2.632097 -4.250649 5.954399
2.618105 -4.224633 6.596847
2.337482 -4.678017 -0.105422
2.239800 -4.451736 0.409240
2.224947 -4.417184 0.952650
2.222542 -4.411320 1.913609
2.220301 -4.405937 2.550266
2.207168 -4.375385 3.036415
2.188901 -4.332867 3.792539
2.174494 -4.299298 4.497821
2.172391 -4.294180 5.306167
2.157773 -4.260178 5.835785
2.142648 -4.224938 6.577579
1.881259 -4.772455 -0.195438
1.773871 -4.446771 0.621158
1.769177 -4.432404 0.994435
1.772990 -4.443631 1.822643
1.771135 -4.437756 2.480314
1.782541 -4.472042 3.181954
1.786450 -4.483655 3.768203
1.762544 -4.410920 4.553515
1.759013 -4.399922 5.318135
1.747525 -4.364853 5.989941
1.744929 -4.356698 6.738097
1.347614 -4.485564 0.386289
1.364456 -4.557113 1.259012
1.347893 -4.485991 1.819217
1.338518 -4.445448 2.665207
1.333232 -4.422537 3.237961
1.328736 -4.402920 3.970554
1.326416 -4.392631 4.659849
1.340873 -4.453969 5.557158
1.340557 -4.452311 6.121986
1.307673 -4.311264 6.938904
0.913982 -4.361206 -0.014358
0.929834 -4.471923 0.817944
0.939797 -4.541466 1.391798
0.946566 -4.588325 2.230926
0.933731 -4.497704 2.678428
0.920794 -4.406203 3.314426
0.924543 -4.431788 4.202404
0.930214 -4.470944 5.027331
0.927745 -4.453008 5.696916
0.920819 -4.403938 6.130980
0.517982 -4.400917 0.077521
0.526689 -4.567603 1.000050
0.529373 -4.618207 1.619936
0.527247 -4.575650 2.172145
0.525448 -4.538857 2.975297
0.524315 -4.515089 3.726548
0.521436 -4.457905 4.291246
0.521681 -4.460904 5.029445
0.524699 -4.517532 5.838475
0.523798 -4.498365 6.552602
0.156113 -4.429973 0.270368
0.150621 -4.612256 0.707018
0.149679 -4.646967 1.638183
0.150514 -4.621213 2.060914
0.151505 -4.592350 2.982171
0.154128 -4.508787 3.646921
0.154946 -4.484434 4.282078
0.154767 -4.492760 4.888246
0.153948 -4.522992 5.710312
0.155536 -4.473061 6.277681
-0.275964 -4.723779 0.239982
-0.274727 -4.714272 0.986935
-0.265541 -4.638577 1.574314
-0.261763 -4.607955 2.309160
-0.261462 -4.606346 3.183165
-0.257801 -4.576618 3.842600
-0.256142 -4.563545 4.531850
-0.253473 -4.541936 5.076852
-0.253248 -4.540844 5.838475
-0.251033 -4.523050 6.428768
-0.708121 -4.723330 1.103510
-0.710497 -4.734950 1.886248
-0.697422 -4.673863 2.447728
-0.688092 -4.630414 3.102989
-0.690713 -4.643085 3.709662
-0.681398 -4.599714 4.372303
-0.691598 -4.648135 5.231044
-0.688594 -4.634415 5.898823
-0.690130 -4.642124 6.738097
-1.168305 -4.796810 0.608977
-1.152271 -4.744858 1.281194
-1.129541 -4.671009 1.757657
-1.131176 -4.676682 2.587370
-1.143980 -4.718706 3.342774
-1.145805 -4.724867 3.856006
-1.128807 -4.669869 4.759044
-1.110675 -4.611043 5.345432
-1.102860 -4.585889 6.071907
-1.099273 -4.574452 6.669354
-1.665192 -4.858131 0.550905
-1.651458 -4.824585 1.065017
-1.626830 -4.764378 1.826461
-1.628475 -4.768671 2.614520
-1.630599 -4.774087 3.232175
-1.615945 -4.738301 3.802286
-1.614332 -4.734585 4.555261
-1.599003 -4.697144 5.133677
-1.595306 -4.688295 5.832348
-1.575965 -4.641039 6.507144
-2.230068 -4.871496 0.394821
-2.213171 -4.839478 0.985728
-2.209738 -4.833184 1.909042
-2.202372 -4.819291 2.413330
-2.178923 -4.774799 3.003755
-2.155980 -4.731304 3.734148
-2.177150 -4.771859 4.667509
-2.169314 -4.757085 5.220416
-2.190104 -4.796892 6.061872
-2.177269 -4.772620 6.699901
-2.809553 -4.943299 0.602340
-2.793134 -4.917715 1.240720
-2.778267 -4.894616 2.121237
-2.787690 -4.909510 2.680954
-2.779977 -4.897571 3.325508
-2.744288 -4.841763 3.853664
-2.715857 -4.797339 4.420317
-2.705554 -4.781357 5.141110
-2.709976 -4.788465 5.927046
-2.729866 -4.819795 6.639315
-3.531343 -5.027331 0.915455
-3.515310 -5.006779 1.510390
-3.495645 -4.981568 2.221856
-3.447562 -4.919633 2.509200
-3.450558 -4.923667 3.365218
-3.449528 -4.922504 4.191091
-3.441490 -4.912230 4.639173
-3.444599 -4.916403 5.464366
-3.464173 -4.941784 6.191213
-3.468508 -4.947479 6.727108
-4.502919 -5.330010 -0.035932
-4.319420 -5.130396 0.418239
-4.331060 -5.143182 1.077352
-4.292951 -5.101786 1.508870
-4.250142 -5.055310 2.124156
-4.243047 -5.047731 2.912152
-4.264033 -5.070708 3.673286
-4.231946 -5.035865 4.098118
-4.248395 -5.053949 5.113443
-4.218229 -5.021181 5.448267
-4.224730 -5.028365 6.051331
-4.102744 -4.895744 6.789445
-5.437234 -5.348579 -0.028450
-5.201301 -5.133651 0.526375
-5.224504 -5.154948 1.441334
-5.217771 -5.148861 1.736352
-5.180692 -5.115186 2.448879
-5.214306 -5.145983 3.428128
-5.193554 -5.127136 3.823334
-5.169657 -5.105441 4.332592
-5.170107 -5.105961 4.995320
-5.229864 -5.160565 5.873594
-5.271004 -5.198185 6.639588
-5.866422 -4.796151 0.096492
-5.537714 -4.547941 0.841502
-5.518290 -4.533365 1.484958
-5.523699 -4.537587 2.366239
-5.503815 -4.522653 2.938634
-5.505114 -4.523743 3.647948
-5.477867 -4.503210 3.978475
-5.440397 -4.474990 4.545911
-5.483545 -4.507731 5.493044
-5.463555 -4.492733 6.163953
-5.376983 -4.427384 6.504456
-5.551534 -3.837597 1.076435
-5.578653 -3.854762 1.751599
-5.589094 -3.861414 2.308390
-5.561748 -3.844277 2.818717
-5.561317 -3.844141 3.752540
-5.542092 -3.832100 4.163980
-5.497529 -3.804128 4.678228
-5.474101 -3.789493 5.439594
-5.426906 -3.759885 6.098114
-5.292972 -3.675678 6.695896
-5.717337 -3.211279 0.463612
-5.719622 -3.212553 1.350487
-5.727244 -3.216484 1.962533
-5.681403 -3.193394 2.303430
-5.670020 -3.187748 3.025014
-5.679006 -3.192389 3.800079
-5.616113 -3.160706 4.230068
-5.587396 -3.146343 5.189167
-5.556873 -3.131011 5.720825
-5.567148 -3.136295 6.436663
-5.766778 -2.635635 0.813979
-5.768199 -2.636297 1.499247
-5.731624 -2.621596 1.701218
-5.706061 -2.611435 2.714872
-5.697727 -2.608169 3.390663
-5.678216 -2.600374 3.859634
-5.667985 -2.596365 4.702103
-5.610128 -2.573121 5.112871
-5.590352 -2.565239 5.726414
-5.611912 -2.574039 6.626332
-5.818275 -2.035066 0.749200
-5.806964 -2.031752 1.159461
-5.827795 -2.038065 2.049288
-5.816746 -2.034843 2.566849
-5.805152 -2.031478 3.244679
-5.721797 -2.006768 4.015250
-5.711685 -2.003820 4.497209
-5.663847 -1.989647 5.005662
-5.627632 -1.978972 5.823508
-5.591745 -1.968368 6.421922
-5.841921 -1.508557 0.498822
-5.829131 -1.505963 0.971826
-5.858498 -1.512140 1.662721
-5.855582 -1.511664 2.690816
-5.782932 -1.496632 2.979915
-5.818231 -1.504053 3.782211
-5.743432 -1.488612 4.362239
-5.778437 -1.495985 5.262915
-5.782896 -1.496985 5.867324
-5.777068 -1.495870 6.614843
-5.831077 -0.949172 0.448381
-5.900358 -0.957062 1.166221
-5.908499 -0.958061 1.841985
-5.782908 -0.944005 2.538828
-5.775777 -0.943293 3.275686
-5.774813 -0.943239 3.720966
-5.781223 -0.944040 4.363694
-5.766357 -0.942477 5.265806
-5.728567 -0.938302 5.916770
-5.712094 -0.936517 6.486868
-5.891016 -0.447227 0.457161
-5.940952 -0.448655 1.298693
-5.968771 -0.449460 1.841985
-5.914342 -0.448096 2.497673
-5.921896 -0.448404 3.381986
-5.947489 -0.449163 4.027915
-5.958758 -0.449539 4.660329
-5.843228 -0.446541 5.217762
-5.796177 -0.445366 5.824173
-5.801108 -0.445580 6.508309
-5.935633 0.101887 0.640975
-5.993297 0.105598 1.542851
-5.987923 0.105199 1.894536
-5.971265 0.103998 2.688503
-5.911694 0.099997 3.127505
-5.891541 0.098548 4.054983
-5.948819 0.102269 4.655207
-5.872652 0.097163 5.143409
-5.776790 0.090734 5.766968
-5.768562 0.090097 6.518300
-6.033918 0.634532 0.865362
-6.002068 0.629570 1.347964
-6.027777 0.633466 1.846254
-5.992148 0.627874 2.719211
-5.930091 0.618272 3.122554
-5.931166 0.618326 4.019150
-5.956311 0.622107 4.747927
-5.918250 0.616199 5.148958
-5.900101 0.613277 6.184074
-5.905236 0.614002 6.712780
-6.081738 1.224710 0.121644
-6.041522 1.214558 0.688228
-6.067041 1.220861 1.428350
-6.053278 1.217332 2.057995
-6.003263 1.204716 2.693089
-6.010975 1.206543 3.528993
-5.988342 1.200791 4.160462
-5.966334 1.195205 4.715611
-5.967956 1.195530 5.360067
-6.002685 1.204123 6.246616
-5.830051 1.160788 6.747864
-6.086180 1.780468 0.839964
-6.106273 1.787288 1.402801
-6.115404 1.790341 2.018701
-6.092256 1.782314 2.682342
-6.058754 1.770735 3.350575
-6.076960 1.776855 4.324906
-6.069781 1.774311 4.954849
-6.045672 1.765981 5.413345
-6.099111 1.784187 6.389752
-5.876081 1.707631 6.728987
-6.190442 2.448440 0.444752
-6.180860 2.444081 1.011482
-6.157406 2.433523 1.571488
-6.123854 2.418400 2.514618
-6.136105 2.423785 3.198169
-6.097032 2.406280 3.498587
-6.125499 2.418867 4.517620
-6.121529 2.417031 4.984543
-6.078924 2.397924 5.461189
-6.219441 3.124578 0.618146
-6.248014 3.140336 1.509477
-6.244343 3.138244 1.875730
-6.214137 3.121374 2.441434
-6.225942 3.127839 3.133939
-6.211316 3.119636 3.660338
-6.197281 3.111743 4.310597
-6.242259 3.136609 5.285811
-6.187556 3.106150 5.647481
-6.148806 3.084513 6.336087
-6.536798 4.073003 -0.078308
-6.314946 3.922760 0.582477
-6.314077 3.922066 1.302603
-6.323486 3.928337 1.956263
-6.304411 3.915328 2.631165
-6.292361 3.907081 3.249449
-6.300632 3.912603 3.765800
-6.292155 3.906767 4.432129
-6.308793 3.917894 5.339174
-6.248419 3.876990 5.637849
-6.244884 3.874504 6.265702
-5.559313 4.152199 0.763187
-5.558043 4.151065 1.393046
-5.542951 4.138689 1.939958
-5.546528 4.141489 2.658101
-5.548842 4.143250 3.439367
-5.567279 4.158139 4.230664
-5.491120 4.096062 4.600917
-5.491994 4.096649 5.387999
-5.483472 4.089610 6.015934
-5.477247 4.084430 6.719828
-4.773860 4.252134 0.899058
-4.769327 4.247628 1.384339
-4.776703 4.254658 2.364701
-4.744758 4.223422 2.734298
-4.720228 4.199371 3.402588
-4.693040 4.172750 3.934687
-4.713907 4.192954 4.859496
-4.716117 4.194978 5.634471
-4.730614 4.209015 6.277158
-4.583768 4.065656 6.645323
-4.092628 4.327462 0.342368
-4.092822 4.327516 1.263627
-4.091403 4.325773 1.729511
-4.050239 4.277648 2.297668
-4.031832 4.256068 2.866310
-4.055954 4.284010 3.911324
-4.082917 4.315337 4.593818
-4.015547 4.236686 4.914755
-3.988262 4.204732 5.581945
-3.984726 4.200460 6.367375
-3.479712 4.371623 0.666505
-3.482547 4.375417 1.500926
-3.453335 4.334423 1.948731
-3.460281 4.344038 2.474315
-3.469446 4.356665 3.448685
-3.422051 4.290226 3.835973
-3.421641 4.289492 4.596216
-3.412099 4.276014 5.153959
-3.407750 4.269780 5.851478
-3.395278 4.252148 6.659510
-2.879080 4.399514 0.396258
-2.886954 4.412977 1.041067
-2.870727 4.384801 1.473069
-2.884928 4.409152 2.352545
-2.865287 4.375068 2.797613
-2.867311 4.378374 3.593967
-2.868215 4.379782 4.230491
-2.860843 4.366840 5.010283
-2.830909 4.314955 5.425074
-2.826351 4.306875 6.224286
-2.415683 4.415627 0.399490
-2.399921 4.382227 0.969158
-2.414620 4.413001 1.754309
-2.423308 4.431126 2.441258
-2.396009 4.373432 2.882607
-2.415122 4.413476 3.799376
-2.400743 4.382999 4.335205
-2.385561 4.350756 5.133677
-2.373064 4.324194 5.863876
-2.358956 4.294262 6.498088
-1.917495 4.461171 0.139060
-1.924981 4.481571 1.145283
-1.931263 4.498842 1.571057
-1.946431 4.540648 2.304165
-1.935867 4.511150 2.853070
-1.907369 4.431866 3.529456
-1.889998 4.383458 4.161719
-1.906268 4.428208 5.202356
-1.869574 4.326284 5.621721
-1.883774 4.365339 6.536314
-1.548358 4.577982 0.338848
-1.533975 4.524802 1.148955
-1.520037 4.473404 1.643450
-1.524466 4.489350 2.318479
-1.520515 4.474509 3.043642
-1.502779 4.409131 3.612159
-1.506218 4.421331 4.527356
-1.502348 4.406776 5.275379
-1.492763 4.371409 5.665938
-1.498355 4.391622 6.341123
-1.093165 4.704855 -0.033190
-1.060505 4.512007 0.469130
-1.063509 4.529223 1.135299
-1.065626 4.541135 1.911835
-1.061544 4.516553 2.628703
-1.060353 4.508997 3.365785
-1.052629 4.462968 4.064979
-1.053962 4.470235 4.864497
-1.041488 4.396476 5.203548
-1.049213 4.441271 6.204243
-1.018091 4.257499 6.687702
-0.700206 4.627907 0.021693
-0.696316 4.583141 0.514768
-0.694081 4.556704 1.310685
-0.692340 4.536160 1.898004
-0.691222 4.522299 2.753635
-0.691583 4.525263 3.565523
-0.686180 4.463556 3.906274
-0.688475 4.488252 4.853482
-0.687753 4.479241 5.445620
-0.282934 4.647050 0.030888
-0.283097 4.610012 0.862274
-0.283176 4.608189 1.484225
-0.283319 4.564499 2.054954
-0.283438 4.561204 2.984442
-0.283534 4.551181 3.632266
-0.283691 4.506497 4.306347
-0.283796 4.486458 4.888246
-0.283854 4.507279 5.655359
-0.283937 4.510506 6.373821
0.124608 4.655977 0.304542
0.125917 4.671575 1.015878
0.128238 4.698401 1.653845
0.132695 4.749326 2.454939
0.131193 4.733474 3.143759
0.121424 4.624830 3.550995
0.123733 4.652056 4.585507
0.122941 4.644065 5.211515
0.117640 4.585371 5.624464
0.123906 4.656705 6.564882
0.587888 4.699560 0.549405
0.586907 4.694799 1.241809
0.598830 4.758720 2.022519
0.593799 4.732191 2.362147
0.580012 4.659461 3.248798
0.568856 4.600535 3.855051
0.571658 4.615905 4.567262
0.565206 4.582010 5.188021
0.561481 4.562623 5.829797
0.563124 4.572009 6.812901
1.003194 4.750987 0.129993
1.005645 4.760197 0.746502
1.004002 4.754479 1.318480
1.001776 4.746734 2.101000
1.003801 4.754316 2.556185
0.999814 4.740110 3.233946
0.991029 4.708502 4.064635
0.985617 4.689156 4.844415
0.991171 4.709737 5.613982
0.985111 4.687872 6.058327
0.906856 4.403292 6.893082
1.490669 4.830881 0.164807
1.493526 4.838736 0.705516
1.476257 4.792673 1.447566
1.484885 4.816113 2.297008
1.480885 4.805556 2.787967
1.469625 4.775597 3.492552
1.480538 4.805112 4.184318
1.462701 4.757458 4.733901
1.437528 4.690169 5.411932
1.443275 4.705869 6.221296
2.029113 4.916782 0.905264
2.018341 4.894440 1.542300
2.018418 4.894832 2.359649
2.015612 4.889115 2.891714
2.019307 4.897133 3.922423
1.993603 4.843480 4.248418
1.986676 4.829214 5.019251
1.991676 4.839942 5.985807
1.989692 4.835973 6.619233
2.633991 5.011710 0.638252
2.630602 5.006137 1.231871
2.640918 5.023737 2.082490
2.617493 4.984332 2.486170
2.617305 4.984269 3.540732
2.613438 4.977883 4.107678
2.603587 4.961371 4.525319
2.606217 4.966011 5.377550
2.586204 4.932382 5.877979
2.593502 4.944924 6.852307
3.346596 5.156583 1.028752
3.332023 5.136419 1.606333
3.340644 5.148553 2.244430
3.324851 5.126694 2.834868
3.321639 5.122367 3.523067
3.311943 5.109015 4.207400
3.351190 5.163845 5.169162
3.321895 5.123162 5.617479
3.315985 5.115094 6.369825
4.285325 5.394011 0.773044
4.228241 5.328149 1.159962
4.202385 5.298416 1.864174
4.254515 5.358766 2.604982
4.248289 5.351658 3.044444
4.258137 5.363220 4.044978
4.214998 5.313472 4.480235
4.235501 5.337311 5.315526
4.232644 5.334136 5.986583
4.203011 5.300008 6.520171
5.360533 5.600412 -0.260389
5.309014 5.550592 0.411200
5.320037 5.561378 1.008385
5.322214 5.563592 1.623115
5.305854 5.547810 2.057559
5.295981 5.538320 2.526195
5.283265 5.526098 3.131177
5.259156 5.502830 3.716013
5.254546 5.498510 4.581427
5.274404 5.517864 5.216991
5.262142 5.506059 5.683654
5.297339 5.540341 6.669194
5.732475 4.993737 0.112986
5.679639 4.951230 0.613675
5.670280 4.943842 1.599522
5.686438 4.956974 2.293117
5.664073 4.938990 2.555653
5.628678 4.910551 3.132795
5.647770 4.926101 4.163702
5.653303 4.930650 4.725512
5.591334 4.880772 5.167573
5.589210 4.879167 5.850982
5.608835 4.895101 6.595465
6.122059 4.464678 0.021574
5.775679 4.231976 0.622130
5.759166 4.221002 1.459628
5.756002 4.218931 1.841007
5.758447 4.220722 2.843345
5.697265 4.179644 3.115221
5.732396 4.203372 3.916076
5.721310 4.196015 4.547008
5.719084 4.194653 5.459221
5.786915 4.240324 6.029702
5.788417 4.241425 6.653937
5.919826 3.578258 0.882929
5.894479 3.564432 1.420937
5.881742 3.557532 2.036872
5.891745 3.563126 2.807222
5.889737 3.562122 3.513088
5.861870 3.546917 4.070547
5.872346 3.552748 4.686126
5.828675 3.528865 5.166282
5.849303 3.540294 5.998882
5.860014 3.546263 6.680432
6.032705 2.963796 1.008892
6.027944 2.961771 1.480675
6.031196 2.963310 2.331202
5.986458 2.943729 2.654222
5.962808 2.933456 3.410132
5.967024 2.935394 4.071120
6.018440 2.958067 4.973293
5.935190 2.921599 5.340900
5.957499 2.931511 6.286992
5.838594 2.879402 6.645750
6.148331 2.353416 0.514759
6.116430 2.342871 1.100988
6.126151 2.346200 1.824920
6.096253 2.336283 2.112160
6.113581 2.342192 3.194731
6.109626 2.340929 3.613311
6.091697 2.335019 4.070236
6.060460 2.324725 4.893008
6.007093 2.307032 5.469828
6.205209 1.788715 0.482581
6.211828 1.790426 1.449918
6.164210 1.779053 1.920362
6.179385 1.782804 2.779513
6.197659 1.787248 3.230937
6.155808 1.777265 3.743117
6.166111 1.779843 4.577423
6.155130 1.777299 5.305668
6.107779 1.766004 5.885712
6.058680 1.754282 6.408401
6.281618 1.201433 0.976883
6.287565 1.202379 1.678349
6.260696 1.198543 2.053313
6.235650 1.195005 2.699662
6.219986 1.192817 3.313243
6.289217 1.202941 4.297328
6.252636 1.197731 4.903762
6.163296 1.184869 5.283198
6.223779 1.193734 6.303148
5.985857 1.159398 6.624283
6.377224 0.655869 0.630395
6.363012 0.655103 1.011470
6.342932 0.654037 1.679730
6.344338 0.654211 2.444492
6.336755 0.653837 2.933392
6.316768 0.652787 3.688490
6.283558 0.650953 4.220910
6.297653 0.651874 5.158141
6.198306 0.646249 5.612967
6.232073 0.648283 6.453125
6.486494 0.058277 0.671836
6.470937 0.058946 1.579325
6.429247 0.060509 2.127710
6.392618 0.061883 2.626134
6.425465 0.060808 3.469469
6.420033 0.061074 4.048695
6.382232 0.062507 4.679864
6.364405 0.063230 5.357318
6.400020 0.062059 6.236517
6.281453 0.066349 6.531246
6.542112 -0.500886 0.652860
6.563090 -0.503353 1.289189
6.567780 -0.503852 1.857796
6.551611 -0.501792 2.654275
6.514835 -0.497279 3.065621
6.498092 -0.495181 3.607600
6.528714 -0.498774 4.602292
6.494974 -0.494608 5.190009
6.435106 -0.487279 5.715976
6.474153 -0.491943 6.316724
6.663080 -1.146596 0.648242
6.635153 -1.140463 1.291255
6.621214 -1.137359 1.952858
6.617373 -1.136449 2.572865
6.609161 -1.134582 3.273467
6.572147 -1.126467 4.016423
6.534021 -1.118147 4.467497
6.598434 -1.132014 5.212633
6.577922 -1.127494 5.808588
6.507895 -1.112218 6.599172
6.734574 -1.770048 0.745531
6.751415 -1.775107 1.748439
6.749570 -1.774451 2.439420
6.742978 -1.772358 2.927693
6.730132 -1.768327 3.513016
6.712803 -1.762929 3.980924
6.756026 -1.776115 4.980553
6.750858 -1.774451 5.540606
6.669007 -1.749177 6.031905
6.523693 -1.704339 6.658807
6.926941 -2.539045 0.097620
6.908978 -2.531587 0.533782
6.906949 -2.530656 1.255663
6.860313 -2.511381 1.737821
6.892962 -2.524721 2.570652
6.873469 -2.516615 3.140026
6.847542 -2.505852 3.772925
6.829172 -2.498205 4.374635
6.809052 -2.489848 4.894383
6.849752 -2.506504 5.727182
6.896311 -2.525583 6.485649
6.974125 -3.277923 0.427378
6.981450 -3.281660 0.792057
6.982546 -3.282135 1.456011
6.940017 -3.260086 1.924784
6.918237 -3.248736 2.586474
6.947010 -3.263497 3.405133
6.987084 -3.284110 4.157690
6.944110 -3.261845 4.520320
6.930237 -3.254579 5.204410
6.890366 -3.233905 5.658711
6.935131 -3.256942 6.417845
6.487233 -3.818315 -0.253421
6.405553 -3.765798 0.381743
6.407124 -3.766675 1.285875
6.401352 -3.762918 1.646822
6.401674 -3.763018 2.386443
6.392456 -3.757036 2.834272
6.386915 -3.753385 3.486617
6.379056 -3.748237 4.202542
6.363836 -3.738387 4.761643
6.365642 -3.739416 5.658416
6.365628 -3.739331 6.180226
6.174157 -3.616367 6.676133
5.576061 -3.908170 0.570284
5.571963 -3.904930 1.211176
5.556010 -3.892609 1.802847
5.554393 -3.891266 2.481154
5.560600 -3.895889 3.350918
5.539277 -3.879479 3.769634
5.525467 -3.868796 4.398337
5.541890 -3.881264 5.183089
5.531177 -3.872954 5.820437
5.486160 -3.838369 6.311345
4.815072 -4.080580 0.658632
4.814686 -4.080103 1.370448
4.782348 -4.049936 1.938474
4.783664 -4.050997 2.916789
4.756377 -4.025558 3.297776
4.748995 -4.018565 4.065818
4.760690 -4.029332 4.719484
4.749410 -4.018727 5.408712
4.741039 -4.010815 6.175045
4.652392 -3.928271 6.826723
4.176658 -4.162394 1.002255
4.164442 -4.148825 1.716140
4.160601 -4.144477 2.387410
4.137694 -4.119188 2.877381
4.114745 -4.093824 3.530172
4.087177 -4.063370 4.224039
4.082668 -4.058261 5.044749
4.097927 -4.074914 5.775783
4.099422 -4.076436 6.451614
3.613686 -4.294751 0.683656
3.576382 -4.245352 1.120497
3.562530 -4.226841 2.119102
3.585092 -4.256562 2.616318
3.542525 -4.200175 3.214054
3.532022 -4.186102 4.153532
3.497549 -4.140468 4.478553
3.524899 -4.176428 5.429079
3.509778 -4.156323 6.002993
3.470102 -4.103761 6.580376
3.053096 -4.307109 -0.024812
3.059750 -4.317492 0.825480
3.048332 -4.299173 1.561440
3.058994 -4.315952 2.297012
3.033770 -4.275710 2.941028
3.012121 -4.241162 3.533938
3.001118 -4.223518 4.201075
3.006059 -4.231195 4.978203
3.000817 -4.222733 5.541832
2.542489 -4.372029 0.354070
2.541334 -4.369520 1.210964
2.540067 -4.366892 1.689834
2.534957 -4.356645 2.306025
2.517839 -4.322679 3.054166
2.517717 -4.322245 3.766178
2.516734 -4.320098 4.537205
2.482095 -4.251635 5.047088
2.468464 -4.224589 5.637580
2.474812 -4.236868 6.534306
2.235027 -4.783210 -0.194893
2.115908 -4.486491 0.527114
2.094079 -4.431963 1.126256
2.065017 -4.359463 1.629231
2.080762 -4.398324 2.637775
2.086970 -4.413538 3.358338
2.072216 -4.376636 3.904301
2.066337 -4.361730 4.737303
2.031966 -4.276054 5.132213
2.040073 -4.295945 6.008294
2.018007 -4.240863 6.500489
1.672901 -4.584763 -0.232589
1.653349 -4.518956 0.593398
1.636660 -4.462845 1.168064
1.632966 -4.450152 1.925584
1.633771 -4.452531 2.666142
1.623426 -4.417607 3.358114
1.615914 -4.392175 4.016260
1.611470 -4.376950 4.835321
1.596679 -4.327228 5.319816
1.194011 -4.347772 0.370383
1.226434 -4.504607 0.860874
1.222830 -4.486659 1.656431
1.217599 -4.460844 2.427874
1.220818 -4.475980 3.189870
1.217317 -4.458682 3.736368
1.204641 -4.396938 4.254141
1.195742 -4.353350 5.016531
1.202586 -4.386022 5.838475
1.210797 -4.425280 6.721521
0.794903 -4.333705 -0.060218
0.813371 -4.492219 0.726480
0.824776 -4.589901 1.408943
0.824561 -4.587163 2.241768
0.815818 -4.511063 2.863349
0.810266 -4.462590 3.403478
0.806618 -4.430469 4.010035
0.807417 -4.436511 4.811309
0.806867 -4.430945 5.582064
0.803961 -4.405268 6.153862
0.400198 -4.491198 0.388707
0.404471 -4.662548 1.207321
0.403942 -4.638094 1.756781
0.403183 -4.603705 2.391350
0.402826 -4.585637 3.073546
0.402598 -4.573211 3.684363
0.401345 -4.518804 4.275651
0.401110 -4.505121 5.071488
0.401294 -4.508735 5.861130
0.400718 -4.482339 6.406031
-0.018740 -4.657964 1.281254
-0.017436 -4.639550 1.913318
-0.016293 -4.623323 2.418744
-0.014317 -4.595180 3.249562
-0.010897 -4.545105 3.939942
-0.006291 -4.476787 4.395367
-0.007876 -4.502172 5.262421
-0.010499 -4.542827 5.952681
-0.005278 -4.465433 6.488908
-0.445648 -4.784711 -0.196619
-0.435228 -4.717981 0.640403
-0.424668 -4.650408 1.545729
-0.419679 -4.618408 1.876812
-0.411534 -4.566281 2.568745
-0.420695 -4.626267 3.493558
-0.423436 -4.644307 3.879496
-0.411463 -4.567615 4.818796
-0.416196 -4.598904 5.656805
-0.883131 -4.749045 0.066628
-0.879840 -4.736212 0.820364
-0.879328 -4.734479 1.456763
-0.876302 -4.722670 2.131511
-0.867851 -4.689154 2.966268
-0.845324 -4.598993 3.545610
-0.838898 -4.573612 4.372303
-0.842226 -4.587294 5.003169
-0.832056 -4.546725 5.533918
-0.843998 -4.595169 6.505317
-1.307909 -4.785943 0.581346
-1.307183 -4.784076 1.323329
-1.299067 -4.760210 1.823158
-1.286231 -4.722373 2.362088
-1.284596 -4.717843 3.183708
-1.271573 -4.679459 3.747196
-1.258328 -4.640462 4.425188
-1.266733 -4.665762 5.442310
-1.254481 -4.629645 5.953908
-1.268760 -4.672305 6.840168
-1.840536 -4.841930 0.083089
-1.834501 -4.828600 0.766033
-1.831673 -4.822419 1.305911
-1.819199 -4.794688 2.128005
-1.790292 -4.729975 2.531390
-1.796126 -4.743349 3.493524
-1.811716 -4.778538 4.237731
-1.809556 -4.773899 4.917604
-1.779248 -4.706114 5.558041
-1.763323 -4.670585 6.189254
-1.641947 -4.398526 6.747209
-2.380350 -4.855100 0.367353
-2.383513 -4.860848 0.715073
-2.372705 -4.841704 1.492772
-2.365813 -4.829530 2.120261
-2.326114 -4.758642 2.701625
-2.314651 -4.738331 3.498900
-2.344488 -4.791945 4.408488
-2.317152 -4.743114 4.726609
-2.351128 -4.804170 5.780038
-2.350370 -4.802948 6.316535
-2.991430 -4.976136 0.317895
-2.987696 -4.970744 1.084889
-2.956143 -4.923854 1.520137
-2.977703 -4.956101 2.172818
-2.979755 -4.959363 3.113443
-2.925583 -4.878756 3.391027
-2.923102 -4.875238 4.198562
-2.917440 -4.866946 4.840423
-2.927566 -4.882218 5.718446
-2.917309 -4.867099 6.427196
-3.756181 -5.036312 0.468312
-3.736329 -5.012248 1.146913
-3.709841 -4.980096 1.828576
-3.720550 -4.993323 2.736625
-3.729670 -5.004565 3.393369
-3.727405 -5.001921 4.001775
-3.721330 -4.994612 4.489876
-3.706481 -4.976644 5.161062
-3.713182 -4.984987 6.074610
-3.692857 -4.960307 6.551575
-4.969417 -5.486424 0.063991
-4.638127 -5.148394 0.278686
-4.651582 -5.162264 1.077587
-4.645186 -5.155879 1.895856
-4.593935 -5.103648 2.285660
-4.588462 -5.098152 2.792481
-4.615089 -5.125470 3.632254
-4.613450 -5.123929 4.385660
-4.602120 -5.112465 4.945508
-4.566893 -5.076597 5.400834
-4.613333 -5.124164 6.412702
-4.418287 -4.925192 6.784783
-5.389277 -5.038156 0.072484
-5.403248 -5.050372 1.002326
-5.397600 -5.045562 1.422120
-5.385671 -5.035356 2.011506
-5.376629 -5.027674 2.797078
-5.329095 -4.986686 3.176227
-5.343496 -4.999251 3.974496
-5.325643 -4.983923 4.525919
-5.342847 -4.998927 5.436478
-5.371003 -5.023339 6.037743
-5.379450 -5.030740 6.700575
-5.716987 -4.421446 -0.069930
-5.558010 -4.308497 0.480913
-5.530011 -4.288676 1.058772
-5.515887 -4.278737 1.748439
-5.483658 -4.255902 2.280006
-5.488292 -4.259294 2.930094
-5.466792 -4.244111 3.620801
-5.476672 -4.251264 4.475645
-5.431602 -4.219265 4.779815
-5.446163 -4.229746 5.634975
-5.421629 -4.212378 6.143764
-5.238224 -4.082073 6.779461
-5.652056 -3.664138 0.640265
-5.650382 -3.663250 1.325474
-5.639142 -3.656729 1.995650
-5.605888 -3.637268 2.782774
-5.620719 -3.646091 3.447447
-5.605958 -3.637500 4.127839
-5.597181 -3.632400 4.592533
-5.547758 -3.603416 5.340900
-5.483751 -3.565824 5.913674
-5.439093 -3.539611 6.425169
-5.702074 -3.053976 0.914008
-5.708725 -3.057264 1.665581
-5.729056 -3.067100 2.382884
-5.686022 -3.046567 2.986740
-5.668123 -3.038094 3.731489
-5.593438 -3.002363 4.075696
-5.581297 -2.996654 4.864325
-5.553470 -2.983423 5.591117
-5.516598 -2.965822 6.056458
-5.391446 -2.905980 6.873788
-5.811783 -2.461549 0.658632
-5.800796 -2.457539 1.101631
-5.752595 -2.439764 1.625830
-5.714809 -2.425849 2.186816
-5.677090 -2.411981 2.917439
-5.669651 -2.409340 3.781732
-5.637285 -2.397449 4.477895
-5.638310 -2.397915 5.147053
-5.654005 -2.403814 5.826779
-5.646912 -2.401269 6.443369
-5.846691 -1.865942 0.680108
-5.865875 -1.871152 1.281439
-5.884353 -1.876200 2.084116
-5.814630 -1.857586 2.466268
-5.718772 -1.832002 3.047583
-5.678152 -1.821227 3.814475
-5.653940 -1.814820 4.397329
-5.622800 -1.806565 5.030078
-5.656618 -1.815718 5.828021
-5.622246 -1.806595 6.435652
6.558087 -0.663985 1.950902
6.525371 -0.661376 2.987957
6.533632 -0.660924 3.783480
6.521713 -0.659658 4.461514
6.517705 -0.658495 5.390777
6.574182 -0.660354 6.116679
6.563073 -0.658768 7.134960
6.683650 -1.237813 1.314332
6.670620 -1.235107 2.258881
6.755854 -1.245391 3.085224
6.743562 -1.242883 3.933536
6.660199 -1.231114 4.741825
6.638975 -1.227448 5.579997
6.649891 -1.228032 6.378606
6.649396 -1.226904 7.381936
6.858079 -1.800808 1.101105
6.763659 -1.780280 1.845157
6.762203 -1.778964 2.788943
6.713413 -1.767704 3.781504
6.820582 -1.789576 4.267774
6.717360 -1.766804 5.390150
6.814064 -1.786384 5.973927
6.816516 -1.786173 6.648263
6.856686 -2.415207 1.483122
6.841021 -2.409506 2.432844
6.749971 -2.381240 3.506077
6.860745 -2.413619 4.034709
6.818836 -2.400064 5.026102
6.913669 -2.427578 5.666874
6.928366 -2.431098 6.444457
6.850173 -2.406837 7.354749
6.821285 -3.022502 1.369320
6.923566 -3.061369 1.965123
6.891433 -3.047950 2.850964
6.962948 -3.074773 3.581679
6.896931 -3.048106 4.601345
6.909159 -3.051861 5.464759
6.918590 -3.054634 6.239173
6.957456 -3.068941 6.876436
6.549121 -3.594792 1.465512
6.663482 -3.649781 2.147203
6.639203 -3.636836 3.090326
6.596494 -3.614843 4.082631
6.635155 -3.632746 4.901169
6.684116 -3.655740 5.662098
6.690804 -3.658073 6.458547
6.773186 -3.697596 7.025917
5.760950 -3.784527 1.286577
5.858722 -3.840886 1.941652
5.855487 -3.837912 2.832398
5.779757 -3.792395 3.857698
5.788493 -3.796664 4.546443
5.781325 -3.791426 5.407605
5.835674 -3.822141 6.276904
5.895876 -3.856660 6.830990
4.986880 -3.978512 1.266313
5.033497 -4.010641 1.994981
5.008021 -3.991399 2.904660
5.073225 -4.036776 3.583770
5.084906 -4.044009 4.401717
5.025616 -4.000489 5.539117
5.006489 -3.985849 6.372151
5.038143 -4.007305 7.146627
4.274691 -4.060697 0.884251
4.388531 -4.155009 1.833285
4.294375 -4.074369 2.970920
4.397960 -4.160620 3.517079
4.365508 -4.132015 4.500761
4.321541 -4.093781 5.453342
4.326582 -4.096884 6.278344
4.393732 -4.152587 6.785635
3.564279 -4.026288 1.179804
3.700706 -4.159361 2.314177
3.703691 -4.161140 3.106997
3.747866 -4.203767 3.787778
3.743728 -4.198449 4.621540
3.754589 -4.207955 5.449259
3.730279 -4.182509 6.422117
3.765010 -4.215546 7.280516
3.216169 -4.267640 1.378022
3.218604 -4.268933 2.326278
3.239343 -4.291628 3.123147
3.259779 -4.313899 3.966178
3.233934 -4.282621 4.839666
3.241190 -4.289758 5.619171
3.268815 -4.320521 6.348718
3.247715 -4.294413 7.418557
2.746835 -4.357602 1.569979
2.760278 -4.374439 2.421576
2.804518 -4.433468 3.185031
2.738354 -4.341193 4.290364
2.759893 -4.369542 4.882284
2.736937 -4.336670 5.747504
2.749562 -4.352116 6.753662
2.272155 -4.421918 1.545371
2.265920 -4.409644 2.553808
2.268226 -4.411631 3.445627
2.294140 -4.452826 4.115552
2.277625 -4.423950 4.987799
2.247899 -4.373064 6.017027
2.286090 -4.434255 6.767782
1.821391 -4.394309 1.795084
1.864666 -4.478050 2.552706
1.879005 -4.504471 3.374477
1.881978 -4.507971 4.395534
1.905249 -4.552279 5.113867
1.875270 -4.490754 6.100189
1.876814 -4.492330 6.734778
1.410087 -4.471164 1.573247
1.431831 -4.522495 2.551823
1.447659 -4.559623 3.348385
1.425919 -4.502786 4.329455
1.431874 -4.515262 5.159688
1.428513 -4.504648 5.960287
1.435901 -4.520888 6.719899
0.979901 -4.370061 1.429323
1.047757 -4.585045 2.451431
1.063771 -4.633683 3.285515
1.032165 -4.528440 4.251392
1.041700 -4.556402 5.029259
1.034422 -4.529322 6.055123
1.055446 -4.594313 6.828700
0.620163 -4.419672 1.465872
0.675375 -4.661833 2.433286
0.690217 -4.723994 3.303380
0.689914 -4.718704 4.121867
0.684423 -4.689598 5.070460
0.688787 -4.705730 5.771859
0.677547 -4.650607 6.785887
0.295092 -4.677330 3.539107
0.290961 -4.640866 4.466610
0.287193 -4.607761 5.291370
0.288997 -4.613564 6.225745
0.289560 -4.611076 7.085713
-0.087298 -4.560328 1.237718
-0.082307 -4.626021 2.240833
-0.079281 -4.662617 3.032848
-0.078070 -4.667929 3.881978
-0.077767 -4.659117 4.672300
-0.075088 -4.691317 5.384928
-0.074465 -4.686111 6.273665
-0.075223 -4.658342 7.134687
-0.478481 -4.721879 1.501468
-0.477384 -4.716804 2.424476
-0.477772 -4.761790 3.131763
-0.476002 -4.725645 3.951899
-0.473050 -4.652908 5.020177
-0.473738 -4.710977 5.755570
-0.472326 -4.691491 6.634138
-0.844158 -4.720145 1.704544
-0.847289 -4.758564 2.461805
-0.844206 -4.738965 3.483181
-0.850609 -4.808653 4.172353
-0.844125 -4.753394 4.959183
-0.837226 -4.694790 5.815299
-0.831870 -4.652431 6.783354
-1.270966 -4.717098 2.135466
-1.275872 -4.747095 2.932938
-1.287482 -4.811332 3.606774
-1.278726 -4.770940 4.545161
-1.280781 -4.785846 5.298908
-1.268939 -4.730029 6.353594
-1.282769 -4.805757 7.014753
-1.730824 -4.900244 1.216690
-1.698683 -4.789054 2.447061
-1.724010 -4.882718 3.014774
-1.710894 -4.838636 3.845827
-1.698227 -4.796683 4.805862
-1.700748 -4.808839 5.582023
-1.695654 -4.794115 6.513985
-1.707497 -4.839945 7.296331
-2.165693 -4.841189 1.847390
-2.168417 -4.851291 2.738339
-2.188996 -4.908988 3.336815
-2.140042 -4.779435 4.447039
-2.177292 -4.882203 4.981010
-2.157582 -4.831727 5.982547
-2.163401 -4.849510 6.635332
-2.666542 -4.913143 1.938698
-2.657487 -4.895965 2.902722
